# .PCD v0.7 - Point Cloud Data file format
VERSION 0.7
FIELDS x y z rgba
SIZE 4 4 4 4
TYPE F F F U
COUNT 1 1 1 1
WIDTH 1137
HEIGHT 1
VIEWPOINT 0 0 0 1 0 0 0
POINTS 1137
DATA ascii
-0.089173339 0.19242668 0.70400006 5199753
-0.087832384 0.19242668 0.70400006 4937323
-0.086491436 0.19242668 0.70400006 5266288
-0.08515048 0.19242668 0.70400006 5922704
-0.084047616 0.19297335 0.70600003 4606844
-0.08270286 0.19297335 0.70600003 2110562
-0.081358097 0.19297335 0.70600003 2044769
-0.080126666 0.19324668 0.70700002 3688043
-0.078780003 0.19324668 0.70700002 3688043
-0.077542856 0.19351999 0.708 3620182
-0.076409526 0.19406667 0.71000004 3685975
-0.075057149 0.19406667 0.71000004 4080990
-0.073808573 0.19434001 0.71100003 6712710
-0.072658099 0.19488667 0.71300006 7108238
-0.071400002 0.19516002 0.71400005 6713480
-0.070236191 0.19570667 0.71600002 6386048
-0.068872385 0.19570667 0.71600002 6715013
-0.067602858 0.19598 0.71700001 6057092
-0.066421911 0.19652668 0.71900004 3491165
-0.065323815 0.19734669 0.72200006 3033461
-0.063948572 0.19734669 0.72200006 1980773
-0.062660009 0.19762 0.72300005 2242164
-0.061452381 0.19816668 0.72500002 2242164
-0.060071427 0.19816668 0.72500002 2242160
-0.058852386 0.19871335 0.72700006 3623813
-0.057467621 0.19871335 0.72700006 5133158
-0.11676857 0.1973457 0.71700001 1716572
-0.11524191 0.19707048 0.71600002 1848158
-0.1138781 0.19707048 0.71600002 1585763
-0.11204287 0.19624478 0.71300006 2572658
-0.11037429 0.19569428 0.71100003 3559028
-0.10886667 0.19541906 0.71000004 5138060
-0.10751429 0.19541906 0.71000004 6055545
-0.10586286 0.19486856 0.708 6384510
-0.10451429 0.19486856 0.708 6777481
-0.10316571 0.19486856 0.708 5198449
-0.10181714 0.19486856 0.708 5001322
-0.10032666 0.19459333 0.70700002 5264494
-0.098980002 0.19459333 0.70700002 4936570
-0.097633332 0.19459333 0.70700002 4278640
-0.096286669 0.19459333 0.70700002 3755376
-0.094805717 0.1943181 0.70600003 4347513
-0.093460955 0.1943181 0.70600003 4412286
-0.092116199 0.1943181 0.70600003 3885942
-0.090771429 0.1943181 0.70600003 4213876
-0.089426666 0.1943181 0.70600003 4213876
-0.088081911 0.1943181 0.70600003 2899289
-0.086737148 0.1943181 0.70600003 5004665
-0.085392386 0.1943181 0.70600003 6188443
-0.084047616 0.1943181 0.70600003 4938376
-0.08270286 0.1943181 0.70600003 1127781
-0.081473336 0.19459333 0.70700002 1522539
-0.080126666 0.19459333 0.70700002 3951215
-0.078780003 0.19459333 0.70700002 4082801
-0.077542856 0.19486856 0.708 3817319
-0.076409526 0.19541906 0.71000004 3685733
-0.075057149 0.19541906 0.71000004 3619940
-0.074016191 0.19624478 0.71300006 6449039
-0.072658099 0.19624478 0.71300006 6123655
-0.071400002 0.19652 0.71400005 5860483
-0.070236191 0.19707048 0.71600002 6122624
-0.068968572 0.1973457 0.71700001 6385796
-0.067791432 0.1978962 0.71900004 5794690
-0.066514291 0.19817142 0.72000003 3557728
-0.065323815 0.19872192 0.72200006 3164795
-0.064037152 0.19899715 0.72300005 1848935
-0.062660009 0.19899715 0.72300005 1651317
-0.061452381 0.19954762 0.72500002 1519731
-0.060071427 0.19954762 0.72500002 1979503
-0.058852386 0.2000981 0.72700006 3624328
-0.057467621 0.2000981 0.72700006 5133158
-0.05577429 0.19899715 0.72300005 6317432
-0.11709429 0.19926573 0.71900004 1323356
-0.11540286 0.19871143 0.71700001 1454942
-0.1138781 0.19843429 0.71600002 1520494
-0.11220001 0.19788001 0.71400005 2836354
-0.11068477 0.19760287 0.71300006 3755376
-0.10902 0.19704857 0.71100003 5137029
-0.10751429 0.19677144 0.71000004 6121838
-0.10616191 0.19677144 0.71000004 6121838
-0.10480952 0.19677144 0.71000004 6186348
-0.10345715 0.19677144 0.71000004 5002074
-0.10181714 0.19621713 0.708 4803955
-0.10046858 0.19621713 0.708 4935541
-0.099120006 0.19621713 0.708 4476530
-0.097771429 0.19621713 0.708 4279151
-0.096286669 0.19594 0.70700002 4477811
-0.094939999 0.19594 0.70700002 4740983
-0.093593337 0.19594 0.70700002 5068918
-0.092246667 0.19594 0.70700002 4937332
-0.090899996 0.19594 0.70700002 4937332
-0.089426666 0.19566287 0.70600003 4674160
-0.088081911 0.19566287 0.70600003 4083561
-0.086737148 0.19566287 0.70600003 5136249
-0.085392386 0.19566287 0.70600003 6450063
-0.084047616 0.19566287 0.70600003 6450063
-0.08270286 0.19566287 0.70600003 5397896
-0.081473336 0.19594 0.70700002 4805759
-0.080126666 0.19594 0.70700002 4872315
-0.078780003 0.19594 0.70700002 5003901
-0.077542856 0.19621713 0.708 3754106
-0.076409526 0.19677144 0.71000004 3425141
-0.075162858 0.19704857 0.71100003 3752821
-0.074016191 0.19760287 0.71300006 4542337
-0.072658099 0.19760287 0.71300006 4675178
-0.071599998 0.19843429 0.71600002 4938350
-0.070236191 0.19843429 0.71600002 5595514
-0.068968572 0.19871143 0.71700001 6253444
-0.067885719 0.19954287 0.72000003 5794413
-0.066514291 0.19954287 0.72000003 4018002
-0.065414287 0.20037431 0.72300005 2968186
-0.064037152 0.20037431 0.72300005 1389154
-0.062833332 0.20092857 0.72500002 1126518
-0.061452381 0.20092857 0.72500002 1060725
-0.060071427 0.20092857 0.72500002 1454449
-0.058528576 0.20037431 0.72300005 3428239
-0.057151429 0.20037431 0.72300005 5199203
-0.05577429 0.20037431 0.72300005 6251891
-0.11709429 0.20063524 0.71900004 1980764
-0.11540286 0.20007715 0.71700001 1520213
-0.11403714 0.20007715 0.71700001 1520490
-0.11220001 0.19924001 0.71400005 2770557
-0.11068477 0.19896096 0.71300006 3493235
-0.10902 0.19840287 0.71100003 5072267
-0.10751429 0.19812383 0.71000004 5924741
-0.10616191 0.19812383 0.71000004 5661569
-0.10480952 0.19812383 0.71000004 4938357
-0.10345715 0.19812383 0.71000004 4280427
-0.10181714 0.19756572 0.708 4672618
-0.10046858 0.19756572 0.708 4738411
-0.099120006 0.19756572 0.708 4410485
-0.097771429 0.19756572 0.708 4476278
-0.096422859 0.19756572 0.708 5461626
-0.095074289 0.19756572 0.708 5527419
-0.093725719 0.19756572 0.708 5134458
-0.092377141 0.19756572 0.708 5068665
-0.091028571 0.19756572 0.708 5134458
-0.089553341 0.19728667 0.70700002 5134458
-0.088206671 0.19728667 0.70700002 5200504
-0.086860001 0.19728667 0.70700002 5397883
-0.085513331 0.19728667 0.70700002 5989258
-0.084166668 0.19728667 0.70700002 6384016
-0.082819998 0.19728667 0.70700002 5661581
-0.081588566 0.19756572 0.708 5135237
-0.080239996 0.19756572 0.708 4478849
-0.078891426 0.19756572 0.708 4478849
-0.077542856 0.19756572 0.708 3360629
-0.076409526 0.19812383 0.71000004 3294836
-0.075162858 0.19840287 0.71100003 3819377
-0.074016191 0.19896096 0.71300006 4477307
-0.072658099 0.19896096 0.71300006 4477029
-0.071599998 0.19979811 0.71600002 5003373
-0.070334285 0.20007715 0.71700001 5397883
-0.069160953 0.20063524 0.71900004 5529469
-0.067885719 0.20091429 0.72000003 4742525
-0.06669905 0.2014724 0.72200006 3426665
-0.065414287 0.20175144 0.72300005 2640509
-0.064214289 0.20230952 0.72500002 1258856
-0.062833332 0.20230952 0.72500002 996215
-0.061452381 0.20230952 0.72500002 733043
-0.060071427 0.20230952 0.72500002 1388386
-0.058528576 0.20175144 0.72300005 3493762
-0.057151429 0.20175144 0.72300005 5265246
-0.05577429 0.20175144 0.72300005 6186348
-0.054698102 0.20286763 0.72700006 6251105
-0.11572477 0.20200478 0.71900004 1849437
-0.11435524 0.20200478 0.71900004 1979499
-0.11251429 0.20116191 0.71600002 2834808
-0.11084 0.20060001 0.71400005 3360629
-0.10902 0.19975714 0.71100003 4610696
-0.10766572 0.19975714 0.71100003 5134728
-0.10616191 0.1994762 0.71000004 4871556
-0.10480952 0.1994762 0.71000004 4740721
-0.10345715 0.1994762 0.71000004 3753826
-0.10181714 0.19891429 0.708 3360357
-0.10046858 0.19891429 0.708 3820908
-0.099120006 0.19891429 0.708 4148083
-0.097771429 0.19891429 0.708 4082290
-0.096422859 0.19891429 0.708 4476278
-0.095074289 0.19891429 0.708 4936829
-0.093725719 0.19891429 0.708 4806265
-0.092377141 0.19891429 0.708 4740472
-0.091028571 0.19891429 0.708 4609154
-0.089680001 0.19891429 0.708 4740740
-0.088331431 0.19891429 0.708 5068933
-0.086982854 0.19891429 0.708 5332105
-0.085634284 0.19891429 0.708 5727362
-0.084285714 0.19891429 0.708 5990534
-0.082937144 0.19891429 0.708 5398409
-0.081588566 0.19891429 0.708 5266823
-0.080239996 0.19891429 0.708 4806792
-0.078891426 0.19891429 0.708 4543620
-0.077761903 0.1994762 0.71000004 4674425
-0.076517142 0.19975714 0.71100003 4608632
-0.07537429 0.20031907 0.71300006 4476278
-0.074016191 0.20031907 0.71300006 4607864
-0.072760001 0.20060001 0.71400005 4346213
-0.071599998 0.20116191 0.71600002 4477799
-0.070236191 0.20116191 0.71600002 4674945
-0.069160953 0.20200478 0.71900004 4674945
-0.067885719 0.20228572 0.72000003 4281979
-0.06669905 0.20284763 0.72200006 3031912
-0.065595239 0.20369047 0.72500002 2246525
-0.064214289 0.20369047 0.72500002 1391216
-0.062833332 0.20369047 0.72500002 1193594
-0.061621908 0.20425239 0.72700006 667250
-0.060237147 0.20425239 0.72700006 1191518
-0.058852386 0.20425239 0.72700006 3494273
-0.057467621 0.20425239 0.72700006 5265500
-0.05608286 0.20425239 0.72700006 6120809
-0.054698102 0.20425239 0.72700006 6185312
-0.11572477 0.2033743 0.71900004 2044767
-0.11435524 0.2033743 0.71900004 2110308
-0.11251429 0.20252572 0.71600002 2702445
-0.11084 0.20196001 0.71400005 3295086
-0.10932668 0.20167716 0.71300006 4216188
-0.10796858 0.20167716 0.71300006 4675204
-0.10631143 0.20111144 0.71100003 4543618
-0.10480952 0.20082858 0.71000004 4280948
-0.10345715 0.20082858 0.71000004 3688811
-0.10210477 0.20082858 0.71000004 3426152
-0.10046858 0.20026286 0.708 3689324
-0.099120006 0.20026286 0.708 4083060
-0.097771429 0.20026286 0.708 3951474
-0.096422859 0.20026286 0.708 3754606
-0.095074289 0.20026286 0.708 4412536
-0.093725719 0.20026286 0.708 4608881
-0.092377141 0.20026286 0.708 4740467
-0.091028571 0.20026286 0.708 4412286
-0.089680001 0.20026286 0.708 4609665
-0.088331431 0.20026286 0.708 5003910
-0.086982854 0.20026286 0.708 5267082
-0.085634284 0.20026286 0.708 5464972
-0.084285714 0.20026286 0.708 5464972
-0.082937144 0.20026286 0.708 5464974
-0.081588566 0.20026286 0.708 5399181
-0.080239996 0.20026286 0.708 5530245
-0.079114296 0.20082858 0.71000004 5201280
-0.077761903 0.20082858 0.71000004 5002874
-0.076517142 0.20111144 0.71100003 4871288
-0.07537429 0.20167716 0.71300006 4542321
-0.074016191 0.20167716 0.71300006 4739700
-0.072760001 0.20196001 0.71400005 4608365
-0.071599998 0.20252572 0.71600002 4739951
-0.070236191 0.20252572 0.71600002 4412545
-0.06925714 0.20365715 0.72000003 4346752
-0.067885719 0.20365715 0.72000003 3822720
-0.06679143 0.20450573 0.72300005 2901618
-0.065595239 0.20507143 0.72500002 1982590
-0.064391434 0.20563716 0.72700006 1587832
-0.063006669 0.20563716 0.72700006 1849464
-0.061621908 0.20563716 0.72700006 1191534
-0.060237147 0.20563716 0.72700006 1388386
-0.058852386 0.20563716 0.72700006 3427969
-0.057467621 0.20563716 0.72700006 5397086
-0.05608286 0.20563716 0.72700006 6186602
-0.054698102 0.20563716 0.72700006 6251105
-0.12133334 0.20730668 0.72800004 5857626
-0.11994667 0.20730668 0.72800004 4541766
-0.11856001 0.20730668 0.72800004 2045292
-0.11620763 0.20559812 0.72200006 1518948
-0.11435524 0.20474382 0.71900004 1585513
-0.11267143 0.20417428 0.71700001 1651306
-0.11115047 0.20388952 0.71600002 2373746
-0.10948001 0.20332001 0.71400005 3426434
-0.10812001 0.20332001 0.71400005 3887221
-0.10661048 0.20303525 0.71300006 4018807
-0.10495714 0.20246571 0.71100003 4280952
-0.10345715 0.20218095 0.71000004 4149366
-0.10210477 0.20218095 0.71000004 4084343
-0.10075239 0.20218095 0.71000004 4150136
-0.099399999 0.20218095 0.71000004 4675449
-0.097771429 0.20161143 0.708 4741242
-0.096422859 0.20161143 0.708 5004402
-0.095342867 0.20218095 0.71000004 5070195
-0.093725719 0.20161143 0.708 5136251
-0.092377141 0.20161143 0.708 5267837
-0.091028571 0.20161143 0.708 5201541
-0.089680001 0.20161143 0.708 5201541
-0.088331431 0.20161143 0.708 5267847
-0.086982854 0.20161143 0.708 5399433
-0.085634284 0.20161143 0.708 5202572
-0.084285714 0.20161143 0.708 5005193
-0.082937144 0.20161143 0.708 5201552
-0.08181905 0.20218095 0.71000004 5398931
-0.080466673 0.20218095 0.71000004 5792639
-0.079114296 0.20218095 0.71000004 5858432
-0.077871427 0.20246571 0.71100003 5791090
-0.07673239 0.20303525 0.71300006 5462125
-0.07537429 0.20303525 0.71300006 5199986
-0.07412 0.20332001 0.71400005 5199986
-0.072760001 0.20332001 0.71400005 4609656
-0.071599998 0.20388952 0.71600002 4609656
-0.070236191 0.20388952 0.71600002 4347270
-0.06925714 0.20502858 0.72000003 4281477
-0.067885719 0.20502858 0.72000003 3888259
-0.06679143 0.20588288 0.72300005 2769778
-0.065595239 0.20645238 0.72500002 2113667
-0.064391434 0.20702192 0.72700006 1718909
-0.063006669 0.20702192 0.72700006 1652853
-0.061621908 0.20702192 0.72700006 1258095
-0.060237147 0.20702192 0.72700006 1650797
-0.058852386 0.20702192 0.72700006 3295622
-0.057467621 0.20702192 0.72700006 5264987
-0.05608286 0.20702192 0.72700006 6251882
-0.054698102 0.20702192 0.72700006 6251105
-0.12272 0.20869334 0.72800004 6053726
-0.12133334 0.20869334 0.72800004 5857878
-0.11994667 0.20869334 0.72800004 4739397
-0.11807143 0.20783333 0.72500002 3031396
-0.11620763 0.20697336 0.72200006 1781329
-0.11435524 0.20611334 0.71900004 1323102
-0.11267143 0.20554 0.71700001 1586274
-0.11115047 0.20525333 0.71600002 1979503
-0.10978667 0.20525333 0.71600002 3097984
-0.10812001 0.20468001 0.71400005 3428212
-0.10676 0.20468001 0.71400005 3625591
-0.10525239 0.20439336 0.71300006 3756918
-0.10360286 0.20382001 0.71100003 3822711
-0.10224857 0.20382001 0.71100003 3887741
-0.10075239 0.20353334 0.71000004 4085120
-0.099399999 0.20353334 0.71000004 3954052
-0.098047622 0.20353334 0.71000004 4151431
-0.096695244 0.20353334 0.71000004 4545923
-0.095342867 0.20353334 0.71000004 4611716
-0.093990475 0.20353334 0.71000004 5202054
-0.092638098 0.20353334 0.71000004 5202054
-0.09128572 0.20353334 0.71000004 5136781
-0.089933343 0.20353334 0.71000004 4939402
-0.088580951 0.20353334 0.71000004 5070984
-0.087228574 0.20353334 0.71000004 5005191
-0.085876197 0.20353334 0.71000004 4873866
-0.084523819 0.20353334 0.71000004 4479108
-0.083171427 0.20353334 0.71000004 4676226
-0.08181905 0.20353334 0.71000004 5268363
-0.080466673 0.20353334 0.71000004 6186881
-0.079225719 0.20382001 0.71100003 6121088
-0.078090489 0.20439336 0.71300006 5922167
-0.07673239 0.20439336 0.71300006 5593202
-0.07537429 0.20439336 0.71300006 5199984
-0.07412 0.20468001 0.71400005 5068398
-0.072963811 0.20525333 0.71600002 4610426
-0.071699999 0.20554 0.71700001 4544633
-0.070530482 0.20611334 0.71900004 4544644
-0.06925714 0.20639999 0.72000003 4544644
-0.067885719 0.20639999 0.72000003 4086151
-0.06679143 0.20726001 0.72300005 3362428
-0.065595239 0.20783333 0.72500002 2836609
-0.064391434 0.20840667 0.72700006 1981300
-0.063006669 0.20840667 0.72700006 1849464
-0.061621908 0.20840667 0.72700006 1125741
-0.060237147 0.20840667 0.72700006 1256298
-0.058852386 0.20840667 0.72700006 3164295
-0.057546668 0.20869334 0.72800004 5067610
-0.056160003 0.20869334 0.72800004 6186091
-0.054773338 0.20869334 0.72800004 6251357
-0.12272 0.21008001 0.72800004 5791583
-0.12133334 0.21008001 0.72800004 5792085
-0.11978191 0.20979145 0.72700006 4870983
-0.11774572 0.20863715 0.72300005 3097185
-0.11620763 0.20834859 0.72200006 1518153
-0.11483239 0.20834859 0.72200006 864093
-0.11298572 0.20748286 0.71900004 1324644
-0.11130571 0.20690572 0.71700001 1783155
-0.10978667 0.20661715 0.71600002 2375292
-0.10842286 0.20661715 0.71600002 3559278
-0.10676 0.20604001 0.71400005 3888243
-0.1054 0.20604001 0.71400005 3953784
-0.10389429 0.20575145 0.71300006 3887991
-0.10224857 0.2051743 0.71100003 3822720
-0.10089429 0.2051743 0.71100003 4151685
-0.099399999 0.20488572 0.71000004 4084875
-0.098047622 0.20488572 0.71000004 3755910
-0.096695244 0.20488572 0.71000004 3625348
-0.095342867 0.20488572 0.71000004 3493762
-0.093990475 0.20488572 0.71000004 3493762
-0.092638098 0.20488572 0.71000004 3756934
-0.09128572 0.20488572 0.71000004 4085127
-0.089933343 0.20488572 0.71000004 3953541
-0.088580951 0.20488572 0.71000004 4874120
-0.087228574 0.20488572 0.71000004 4874120
-0.085876197 0.20488572 0.71000004 4284041
-0.084523819 0.20488572 0.71000004 2705009
-0.083171427 0.20488572 0.71000004 3230851
-0.081934288 0.2051743 0.71100003 4678297
-0.080580004 0.2051743 0.71100003 6317432
-0.079225719 0.2051743 0.71100003 5922674
-0.078090489 0.20575145 0.71300006 5790577
-0.07673239 0.20575145 0.71300006 5658991
-0.075480007 0.20604001 0.71400005 4740973
-0.07412 0.20604001 0.71400005 4346215
-0.072963811 0.20661715 0.71600002 3888259
-0.071699999 0.20690572 0.71700001 4348810
-0.070530482 0.20748286 0.71900004 5137283
-0.06925714 0.20777144 0.72000003 5203076
-0.067885719 0.20777144 0.72000003 5203071
-0.06679143 0.20863715 0.72300005 4347762
-0.065595239 0.20921429 0.72500002 3231103
-0.064391434 0.20979145 0.72700006 2244208
-0.063006669 0.20979145 0.72700006 1915257
-0.061621908 0.20979145 0.72700006 1454706
-0.060237147 0.20979145 0.72700006 1585004
-0.058933336 0.21008001 0.72800004 3098243
-0.057546668 0.21008001 0.72800004 5067867
-0.056391429 0.21094571 0.73100001 6120555
-0.054999046 0.21094571 0.73100001 6251357
-0.12272 0.21146667 0.72800004 5660249
-0.12133334 0.21146667 0.72800004 5726292
-0.11978191 0.2111762 0.72700006 5265741
-0.11774572 0.2100143 0.72300005 3360608
-0.11620763 0.20972383 0.72200006 1518404
-0.11483239 0.20972383 0.72200006 798300
-0.11298572 0.2088524 0.71900004 1061472
-0.11130571 0.20827143 0.71700001 1587312
-0.10978667 0.20798096 0.71600002 2179449
-0.10842286 0.20798096 0.71600002 2179185
-0.10676 0.20740001 0.71400005 3034494
-0.1054 0.20740001 0.71400005 3691393
-0.10389429 0.20710953 0.71300006 3691393
-0.10224857 0.20652857 0.71100003 3822214
-0.10089429 0.20652857 0.71100003 3624835
-0.099540003 0.20652857 0.71100003 3099783
-0.098047622 0.20623811 0.71000004 3099783
-0.096695244 0.20623811 0.71000004 3558785
-0.095342867 0.20623811 0.71000004 3624578
-0.093990475 0.20623811 0.71000004 3362437
-0.092638098 0.20623811 0.71000004 3757195
-0.09128572 0.20623811 0.71000004 4085127
-0.089933343 0.20623811 0.71000004 4216713
-0.088580951 0.20623811 0.71000004 4873866
-0.087228574 0.20623811 0.71000004 5137038
-0.085997149 0.20652857 0.71100003 4547733
-0.084642857 0.20652857 0.71100003 2771322
-0.083288573 0.20652857 0.71100003 3165047
-0.081934288 0.20652857 0.71100003 5402009
-0.080580004 0.20652857 0.71100003 6450053
-0.079448573 0.20710953 0.71300006 5726330
-0.078090489 0.20710953 0.71300006 5658991
-0.07673239 0.20710953 0.71300006 5658991
-0.075480007 0.20740001 0.71400005 4806766
-0.074327618 0.20798096 0.71600002 4017250
-0.072963811 0.20798096 0.71600002 2969469
-0.071699999 0.20827143 0.71700001 3956364
-0.070530482 0.2088524 0.71900004 4808841
-0.06925714 0.20914286 0.72000003 5137806
-0.067885719 0.20914286 0.72000003 5268624
-0.06679143 0.2100143 0.72300005 3755385
-0.065595239 0.21059524 0.72500002 3493249
-0.064391434 0.2111762 0.72700006 2637940
-0.063006669 0.2111762 0.72700006 2572149
-0.061621908 0.2111762 0.72700006 1716840
-0.060237147 0.2111762 0.72700006 1323102
-0.058933336 0.21146667 0.72800004 2441583
-0.058020953 0.21320952 0.73400003 5133410
-0.057008572 0.21466191 0.73900002 6186098
-0.055600952 0.21466191 0.73900002 6251357
-0.12272 0.21285334 0.72800004 5725788
-0.12133334 0.21285334 0.72800004 5726292
-0.11978191 0.21256097 0.72700006 5331534
-0.11807143 0.2119762 0.72500002 3688542
-0.11636858 0.21139143 0.72300005 1583166
-0.11483239 0.21109907 0.72200006 732775
-0.11298572 0.21022192 0.71900004 1193326
-0.11130571 0.20963715 0.71700001 1653357
-0.10994 0.20963715 0.71700001 1982322
-0.10842286 0.20934477 0.71600002 2243695
-0.10676 0.20876001 0.71400005 2112109
-0.1054 0.20876001 0.71400005 1851006
-0.10404 0.20876001 0.71400005 2508936
-0.1025362 0.20846763 0.71300006 2246273
-0.10089429 0.20788287 0.71100003 1785722
-0.099540003 0.20788287 0.71100003 1589131
-0.098047622 0.20759049 0.71000004 2378647
-0.096695244 0.20759049 0.71000004 3362437
-0.095342867 0.20759049 0.71000004 3494023
-0.093990475 0.20759049 0.71000004 3625096
-0.092638098 0.20759049 0.71000004 4348819
-0.09128572 0.20759049 0.71000004 4545930
-0.089933343 0.20759049 0.71000004 4743309
-0.088705719 0.20788287 0.71100003 5006220
-0.087351426 0.20788287 0.71100003 5269392
-0.085997149 0.20788287 0.71100003 5269144
-0.084642857 0.20788287 0.71100003 4216456
-0.083288573 0.20788287 0.71100003 4675465
-0.082164772 0.20846763 0.71300006 5925532
-0.080806673 0.20846763 0.71300006 6580095
-0.079448573 0.20846763 0.71300006 5790579
-0.078200005 0.20876001 0.71400005 5527409
-0.076840006 0.20876001 0.71400005 5593202
-0.075480007 0.20876001 0.71400005 4675700
-0.074327618 0.20934477 0.71600002 4280942
-0.072963811 0.20934477 0.71600002 3888007
-0.071900003 0.21022192 0.71900004 4480144
-0.070628576 0.21051429 0.72000003 5071238
-0.06925714 0.21051429 0.72000003 5860754
-0.067885719 0.21051429 0.72000003 5662612
-0.06679143 0.21139143 0.72300005 3491443
-0.065595239 0.2119762 0.72500002 2114680
-0.064391434 0.21256097 0.72700006 2246266
-0.063006669 0.21256097 0.72700006 2638194
-0.061621908 0.21256097 0.72700006 1388127
-0.060320001 0.21285334 0.72800004 1125473
-0.058933336 0.21285334 0.72800004 2309747
-0.058020953 0.21460763 0.73400003 4804706
-0.057162859 0.2166543 0.74100006 6054773
-0.12272 0.21424001 0.72800004 5659997
-0.12133334 0.21424001 0.72800004 5726292
-0.11978191 0.21394573 0.72700006 5331534
-0.11839715 0.21394573 0.72700006 3886173
-0.11669048 0.21335715 0.72500002 1649211
-0.11530953 0.21335715 0.72500002 1191784
-0.11314286 0.21188572 0.72000003 1652335
-0.11161619 0.21159144 0.71900004 1915239
-0.10994 0.21100286 0.71700001 2178411
-0.10842286 0.21070857 0.71600002 1981806
-0.10705905 0.21070857 0.71600002 1916013
-0.10569524 0.21070857 0.71600002 2113140
-0.10404 0.21012001 0.71400005 2705277
-0.10268001 0.21012001 0.71400005 2049405
-0.10089429 0.20923714 0.71100003 1457268
-0.099540003 0.20923714 0.71100003 1720699
-0.098185718 0.20923714 0.71100003 2444422
-0.096831433 0.20923714 0.71100003 3231103
-0.095477149 0.20923714 0.71100003 3362689
-0.094122857 0.20923714 0.71100003 3100033
-0.092768572 0.20923714 0.71100003 3889549
-0.091414288 0.20923714 0.71100003 4349062
-0.090060003 0.20923714 0.71100003 4546441
-0.088705719 0.20923714 0.71100003 4808843
-0.087351426 0.20923714 0.71100003 5006222
-0.085997149 0.20923714 0.71100003 4875406
-0.084642857 0.20923714 0.71100003 4349062
-0.083522864 0.20982572 0.71300006 5201793
-0.082164772 0.20982572 0.71300006 5991309
-0.080806673 0.20982572 0.71300006 6317434
-0.079560004 0.21012001 0.71400005 5593711
-0.078200005 0.21012001 0.71400005 5527911
-0.076840006 0.21012001 0.71400005 5462118
-0.075691432 0.21070857 0.71600002 5069168
-0.074327618 0.21070857 0.71600002 4674410
-0.072963811 0.21070857 0.71600002 3953782
-0.071900003 0.21159144 0.71900004 4611712
-0.070628576 0.21188572 0.72000003 5267837
-0.06925714 0.21188572 0.72000003 5728388
-0.068074286 0.2124743 0.72200006 5662852
-0.06679143 0.21276858 0.72300005 3491683
-0.065595239 0.21335715 0.72500002 2048633
-0.064214289 0.21335715 0.72500002 2048633
-0.063006669 0.21394573 0.72700006 2638194
-0.061706673 0.21424001 0.72800004 1717092
-0.060320001 0.21424001 0.72800004 1716322
-0.059176192 0.21512285 0.73100001 1913701
-0.058653336 0.21836001 0.74200004 4607840
-0.057240006 0.21836001 0.74200004 5989493
-0.12272 0.21562669 0.72800004 5659997
-0.12133334 0.21562669 0.72800004 5790806
-0.11994667 0.21562669 0.72800004 5330255
-0.11839715 0.21533048 0.72700006 3952218
-0.11669048 0.2147381 0.72500002 1583670
-0.11530953 0.2147381 0.72500002 1060202
-0.11345715 0.21384954 0.72200006 1849718
-0.11177143 0.21325715 0.72000003 1851238
-0.11024667 0.21296096 0.71900004 1785445
-0.10857429 0.21236856 0.71700001 2046064
-0.10720857 0.21236856 0.71700001 2111857
-0.10569524 0.21207239 0.71600002 2835314
-0.10433143 0.21207239 0.71600002 3361658
-0.10296762 0.21207239 0.71600002 2574459
-0.10132001 0.21148001 0.71400005 2179701
-0.099960007 0.21148001 0.71400005 2048633
-0.098461911 0.21118382 0.71300006 2706563
-0.097103812 0.21118382 0.71300006 3558272
-0.09574572 0.21118382 0.71300006 3821444
-0.094387628 0.21118382 0.71300006 3624578
-0.092768572 0.21059144 0.71100003 4282508
-0.091414288 0.21059144 0.71100003 4873087
-0.090313345 0.21118382 0.71300006 5004673
-0.088955246 0.21118382 0.71300006 5136000
-0.087597147 0.21118382 0.71300006 5136000
-0.086360008 0.21148001 0.71400005 5070458
-0.085000008 0.21148001 0.71400005 5202044
-0.083640002 0.21148001 0.71400005 5596030
-0.082280003 0.21148001 0.71400005 6319753
-0.080920003 0.21148001 0.71400005 6317175
-0.079560004 0.21148001 0.71400005 5396073
-0.078419052 0.21207239 0.71600002 5330532
-0.077055238 0.21207239 0.71600002 5856876
-0.075691432 0.21207239 0.71600002 6120555
-0.074431427 0.21236856 0.71700001 6054762
-0.073269531 0.21296096 0.71900004 5661557
-0.072000004 0.21325715 0.72000003 5661557
-0.070628576 0.21325715 0.72000003 5661557
-0.06925714 0.21325715 0.72000003 5727350
-0.068074286 0.21384954 0.72200006 5137012
-0.06679143 0.21414572 0.72300005 3163222
-0.065595239 0.2147381 0.72500002 2049407
-0.064214289 0.2147381 0.72500002 1852028
-0.063006669 0.21533048 0.72700006 2310258
-0.061706673 0.21562669 0.72800004 1718121
-0.060320001 0.21562669 0.72800004 1585004
-0.058933336 0.21562669 0.72800004 1585004
-0.12272 0.21701334 0.72800004 5659997
-0.12133334 0.21701334 0.72800004 5725013
-0.11994667 0.21701334 0.72800004 5725013
-0.11839715 0.21671526 0.72700006 4214877
-0.11701239 0.21671526 0.72700006 1714743
-0.11562763 0.21671526 0.72700006 798300
-0.11345715 0.21522479 0.72200006 1719402
-0.11177143 0.21462858 0.72000003 2178152
-0.11024667 0.21433048 0.71900004 2046566
-0.10857429 0.21373428 0.71700001 1848944
-0.10720857 0.21373428 0.71700001 2638460
-0.10569524 0.21343619 0.71600002 3296363
-0.10433143 0.21343619 0.71600002 3493742
-0.10296762 0.21343619 0.71600002 3625071
-0.10132001 0.21284001 0.71400005 3164520
-0.099960007 0.21284001 0.71400005 2967659
-0.098600008 0.21284001 0.71400005 3296624
-0.097240001 0.21284001 0.71400005 3886962
-0.095880002 0.21284001 0.71400005 4215927
-0.094387628 0.21254192 0.71300006 4608886
-0.093029529 0.21254192 0.71300006 4937851
-0.09167143 0.21254192 0.71300006 5462904
-0.090313345 0.21254192 0.71300006 5528697
-0.088955246 0.21254192 0.71300006 5594744
-0.087719999 0.21284001 0.71400005 5594744
-0.086360008 0.21284001 0.71400005 5528949
-0.085000008 0.21284001 0.71400005 5792121
-0.083640002 0.21284001 0.71400005 6121084
-0.082280003 0.21284001 0.71400005 6252670
-0.080920003 0.21284001 0.71400005 6317175
-0.079560004 0.21284001 0.71400005 5527659
-0.078419052 0.21343619 0.71600002 5789800
-0.077055238 0.21343619 0.71600002 6052972
-0.075797141 0.21373428 0.71700001 5988467
-0.074431427 0.21373428 0.71700001 6317432
-0.073269531 0.21433048 0.71900004 6185846
-0.072000004 0.21462858 0.72000003 5988467
-0.070628576 0.21462858 0.72000003 5792373
-0.069449529 0.21522479 0.72200006 5923959
-0.068074286 0.21522479 0.72200006 5137012
-0.06679143 0.21552287 0.72300005 3623773
-0.065595239 0.21611905 0.72500002 2377591
-0.064214289 0.21611905 0.72500002 1982833
-0.063006669 0.21671526 0.72700006 1981554
-0.061706673 0.21701334 0.72800004 1060452
-0.060320001 0.21701334 0.72800004 1190507
-0.0593381 0.21850382 0.73300004 1585265
-0.05794191 0.21850382 0.73300004 4344164
-0.12133334 0.2184 0.72800004 5660247
-0.11994667 0.2184 0.72800004 5660247
-0.11856001 0.2184 0.72800004 4739415
-0.11701239 0.21810001 0.72700006 2173488
-0.11562763 0.21810001 0.72700006 732505
-0.11361429 0.21690001 0.72300005 1719400
-0.11208192 0.21660002 0.72200006 2112870
-0.11040001 0.21600001 0.72000003 1849698
-0.10887714 0.21570002 0.71900004 2373746
-0.10720857 0.21509999 0.71700001 3952778
-0.10584286 0.21509999 0.71700001 5068900
-0.10433143 0.2148 0.71600002 5266279
-0.10296762 0.2148 0.71600002 5266027
-0.10160381 0.2148 0.71600002 5200234
-0.099960007 0.21420002 0.71400005 5266029
-0.098600008 0.21420002 0.71400005 5331822
-0.097240001 0.21420002 0.71400005 5397363
-0.095880002 0.21420002 0.71400005 5528949
-0.09452001 0.21420002 0.71400005 5726580
-0.093160003 0.21420002 0.71400005 5923959
-0.09167143 0.21390001 0.71300006 5858936
-0.090313345 0.21390001 0.71300006 5990522
-0.088955246 0.21390001 0.71300006 6055291
-0.087719999 0.21420002 0.71400005 6121084
-0.086360008 0.21420002 0.71400005 6121338
-0.085000008 0.21420002 0.71400005 6252924
-0.083640002 0.21420002 0.71400005 6252922
-0.082280003 0.21420002 0.71400005 6055543
-0.080920003 0.21420002 0.71400005 6251884
-0.079560004 0.21420002 0.71400005 5528161
-0.078419052 0.2148 0.71600002 5723757
-0.077055238 0.2148 0.71600002 6052722
-0.075797141 0.21509999 0.71700001 5922919
-0.074639052 0.21570002 0.71900004 5988712
-0.073269531 0.21570002 0.71900004 5988210
-0.072000004 0.21600001 0.72000003 5922417
-0.070628576 0.21600001 0.72000003 5594742
-0.069449529 0.21660002 0.72200006 5726328
-0.068168573 0.21690001 0.72300005 5464692
-0.066976197 0.2175 0.72500002 5596278
-0.065776192 0.21810001 0.72700006 4677231
-0.064391434 0.21810001 0.72700006 2703441
-0.063093334 0.2184 0.72800004 1915509
-0.061876193 0.21900001 0.73000002 1454958
-0.060485717 0.21900001 0.73000002 1191536
-0.0593381 0.21990001 0.73300004 1388915
-0.05794191 0.21990001 0.73300004 3820130
-0.12133334 0.21978667 0.72800004 5594456
-0.11994667 0.21978667 0.72800004 5660249
-0.11856001 0.21978667 0.72800004 4739415
-0.11701239 0.21948478 0.72700006 2239281
-0.11562763 0.21948478 0.72700006 1323356
-0.11361429 0.21827716 0.72300005 1981286
-0.11208192 0.21797526 0.72200006 2243173
-0.11040001 0.21737143 0.72000003 1980001
-0.10887714 0.21706954 0.71900004 3356518
-0.10720857 0.21646571 0.71700001 5132929
-0.10584286 0.21646571 0.71700001 5461866
-0.10433143 0.21616381 0.71600002 5527659
-0.10296762 0.21616381 0.71600002 5593709
-0.10160381 0.21616381 0.71600002 5659502
-0.099960007 0.21556 0.71400005 5659497
-0.098600008 0.21556 0.71400005 5922669
-0.097240001 0.21556 0.71400005 5988467
-0.095880002 0.21556 0.71400005 6120053
-0.09452001 0.21556 0.71400005 5989752
-0.093160003 0.21556 0.71400005 5923959
-0.091800004 0.21556 0.71400005 6121338
-0.090440005 0.21556 0.71400005 6252924
-0.089080006 0.21556 0.71400005 6187649
-0.087719999 0.21556 0.71400005 6121856
-0.086360008 0.21556 0.71400005 6187647
-0.085000008 0.21556 0.71400005 6187647
-0.083640002 0.21556 0.71400005 6318715
-0.082280003 0.21556 0.71400005 5923957
-0.081146665 0.21616381 0.71600002 6250355
-0.079782858 0.21616381 0.71600002 5789804
-0.078419052 0.21616381 0.71600002 5724007
-0.077162862 0.21646571 0.71700001 6052972
-0.075797141 0.21646571 0.71700001 5856624
-0.074639052 0.21706954 0.71900004 5856624
-0.073269531 0.21706954 0.71900004 5922163
-0.072000004 0.21737143 0.72000003 5922163
-0.070824765 0.21797526 0.72200006 5725295
-0.069449529 0.21797526 0.72200006 5922674
-0.068168573 0.21827716 0.72300005 5923959
-0.067160957 0.21948478 0.72700006 6252924
-0.065776192 0.21948478 0.72700006 5859452
-0.064391434 0.21948478 0.72700006 3622490
-0.063093334 0.21978667 0.72800004 1324651
-0.061876193 0.22039048 0.73000002 1127272
-0.060568571 0.22069238 0.73100001 1453929
-0.0593381 0.22129619 0.73300004 1651308
-0.05794191 0.22129619 0.73300004 3688292
-0.12166666 0.22178096 0.73000002 5594454
-0.12027619 0.22178096 0.73000002 5660247
-0.11888572 0.22178096 0.73000002 4215127
-0.11717334 0.22117335 0.72800004 1517614
-0.11562763 0.22086954 0.72700006 1125223
-0.11361429 0.21965429 0.72300005 1980532
-0.11208192 0.2193505 0.72200006 2702177
-0.11040001 0.21874286 0.72000003 2767970
-0.10887714 0.21843906 0.71900004 3160945
-0.10750762 0.21843906 0.71900004 4674184
-0.10584286 0.21783143 0.71700001 5198946
-0.10447714 0.21783143 0.71700001 5462118
-0.10296762 0.21752763 0.71600002 5593452
-0.10160381 0.21752763 0.71600002 6317175
-0.10024001 0.21752763 0.71600002 6317675
-0.098600008 0.21692002 0.71400005 6449261
-0.097240001 0.21692002 0.71400005 6515063
-0.095880002 0.21692002 0.71400005 6778235
-0.09452001 0.21692002 0.71400005 6450299
-0.093160003 0.21692002 0.71400005 6318713
-0.091800004 0.21692002 0.71400005 6516094
-0.090440005 0.21692002 0.71400005 6516094
-0.089080006 0.21692002 0.71400005 6450819
-0.087719999 0.21692002 0.71400005 6187647
-0.086360008 0.21692002 0.71400005 6384256
-0.085000008 0.21692002 0.71400005 6384256
-0.083640002 0.21692002 0.71400005 6515063
-0.082280003 0.21692002 0.71400005 6054512
-0.081146665 0.21752763 0.71600002 5856370
-0.079782858 0.21752763 0.71600002 5461612
-0.078419052 0.21752763 0.71600002 5526628
-0.077162862 0.21783143 0.71700001 5724007
-0.075797141 0.21783143 0.71700001 5593202
-0.074639052 0.21843906 0.71900004 5790581
-0.073371425 0.21874286 0.72000003 5987706
-0.072000004 0.21874286 0.72000003 6185085
-0.070824765 0.2193505 0.72200006 6317934
-0.069449529 0.2193505 0.72200006 6515313
-0.068168573 0.21965429 0.72300005 6252922
-0.067160957 0.22086954 0.72700006 6121336
-0.065866672 0.22117335 0.72800004 6056315
-0.064479999 0.22117335 0.72800004 4543076
-0.063266665 0.22178096 0.73000002 1914989
-0.061876193 0.22178096 0.73000002 993887
-0.060568571 0.22208476 0.73100001 1584752
-0.059176192 0.22208476 0.73100001 2176889
-0.12133334 0.22256002 0.72800004 5724761
-0.11994667 0.22256002 0.72800004 5856347
-0.11888572 0.22317143 0.73000002 4673624
-0.11717334 0.22256002 0.72800004 2173490
-0.11562763 0.22225431 0.72700006 1716320
-0.11361429 0.22103144 0.72300005 2176871
-0.11208192 0.22072573 0.72200006 2832482
-0.11040001 0.22011429 0.72000003 3819377
-0.10902857 0.22011429 0.72000003 4410209
-0.10750762 0.21980858 0.71900004 4936553
-0.10584286 0.21919714 0.71700001 5395042
-0.10447714 0.21919714 0.71700001 5724007
-0.10296762 0.21889144 0.71600002 5462123
-0.10160381 0.21889144 0.71600002 6185846
-0.10024001 0.21889144 0.71600002 6055795
-0.098600008 0.21828002 0.71400005 6121588
-0.097240001 0.21828002 0.71400005 6252922
-0.095880002 0.21828002 0.71400005 6450301
-0.09452001 0.21828002 0.71400005 6450299
-0.093160003 0.21828002 0.71400005 6318713
-0.091800004 0.21828002 0.71400005 6516094
-0.090440005 0.21828002 0.71400005 6647680
-0.089080006 0.21828002 0.71400005 6647437
-0.087719999 0.21828002 0.71400005 6450058
-0.086360008 0.21828002 0.71400005 6187649
-0.085238092 0.21889144 0.71600002 6319235
-0.083874285 0.21889144 0.71600002 6646392
-0.082510479 0.21889144 0.71600002 5791083
-0.081146665 0.21889144 0.71600002 5723757
-0.079782858 0.21889144 0.71600002 5526378
-0.078528576 0.21919714 0.71700001 5592425
-0.077162862 0.21919714 0.71700001 5724011
-0.076008573 0.21980858 0.71900004 5724011
-0.074639052 0.21980858 0.71900004 6118769
-0.073371425 0.22011429 0.72000003 5988219
-0.072200008 0.22072573 0.72200006 6185598
-0.070824765 0.22072573 0.72200006 6383225
-0.069449529 0.22072573 0.72200006 6317432
-0.068168573 0.22103144 0.72300005 6055291
-0.067253336 0.22256002 0.72800004 6121084
-0.065866672 0.22256002 0.72800004 5924727
-0.064479999 0.22256002 0.72800004 4872039
-0.063353337 0.22347714 0.73100001 3360608
-0.06196095 0.22347714 0.73100001 1386818
-0.060734287 0.22408858 0.73300004 1060202
-0.0593381 0.22408858 0.73300004 1257581
-0.12116668 0.22363906 0.72700006 5528661
-0.11978191 0.22363906 0.72700006 5660247
-0.11888572 0.22456191 0.73000002 4673620
-0.11717334 0.22394668 0.72800004 2305072
-0.11578667 0.22394668 0.72800004 1716322
-0.11392858 0.22302382 0.72500002 1979494
-0.11208192 0.22210097 0.72200006 2635616
-0.11070668 0.22210097 0.72200006 3951476
-0.10902857 0.22148572 0.72000003 4936022
-0.10750762 0.2211781 0.71900004 5067608
-0.10584286 0.22056286 0.71700001 5329249
-0.10447714 0.22056286 0.71700001 5395042
-0.10296762 0.22025524 0.71600002 5526632
-0.10160381 0.22025524 0.71600002 5658218
-0.10024001 0.22025524 0.71600002 5593704
-0.098876186 0.22025524 0.71600002 5725290
-0.097240001 0.21964 0.71400005 5725297
-0.095880002 0.21964 0.71400005 5725297
-0.09452001 0.21964 0.71400005 6054262
-0.093160003 0.21964 0.71400005 6514813
-0.091800004 0.21964 0.71400005 6450553
-0.090440005 0.21964 0.71400005 6845311
-0.089080006 0.21964 0.71400005 6910360
-0.087719999 0.21964 0.71400005 6515602
-0.086360008 0.21964 0.71400005 6450049
-0.085238092 0.22025524 0.71600002 6318463
-0.083874285 0.22025524 0.71600002 6383727
-0.082510479 0.22025524 0.71600002 5528418
-0.081146665 0.22025524 0.71600002 5461616
-0.079782858 0.22025524 0.71600002 5527409
-0.078528576 0.22056286 0.71700001 5658995
-0.077162862 0.22056286 0.71700001 6316925
-0.076008573 0.2211781 0.71900004 6383220
-0.074639052 0.2211781 0.71900004 6843771
-0.073371425 0.22148572 0.72000003 6777735
-0.072200008 0.22210097 0.72200006 6448770
-0.070824765 0.22210097 0.72200006 5922424
-0.069449529 0.22210097 0.72200006 5988217
-0.068168573 0.22240859 0.72300005 5792373
-0.067253336 0.22394668 0.72800004 5989752
-0.066047616 0.22456191 0.73000002 6121588
-0.064657144 0.22456191 0.73000002 5134693
-0.063353337 0.22486953 0.73100001 3754585
-0.062130481 0.22548477 0.73300004 1583416
-0.060817145 0.22579239 0.73400003 1059950
-0.059419051 0.22579239 0.73400003 994157
-0.12116668 0.22502384 0.72700006 5462870
-0.11978191 0.22502384 0.72700006 5528663
-0.11888572 0.22595237 0.73000002 4673620
-0.11717334 0.22533335 0.72800004 2239279
-0.11578667 0.22533335 0.72800004 1323102
-0.11392858 0.22440477 0.72500002 1323102
-0.11223715 0.22378573 0.72300005 2306910
-0.11070668 0.22347622 0.72200006 4149114
-0.10902857 0.22285716 0.72000003 5133403
-0.10750762 0.22254764 0.71900004 5199196
-0.1061381 0.22254764 0.71900004 5329249
-0.10447714 0.22192858 0.71700001 5395042
-0.10296762 0.22161905 0.71600002 5526628
-0.10160381 0.22161905 0.71600002 5658214
-0.10024001 0.22161905 0.71600002 5724007
-0.098876186 0.22161905 0.71600002 5658214
-0.097512379 0.22161905 0.71600002 5724007
-0.095880002 0.22100002 0.71400005 5724007
-0.09452001 0.22100002 0.71400005 5921390
-0.093160003 0.22100002 0.71400005 6250355
-0.091800004 0.22100002 0.71400005 6317432
-0.090440005 0.22100002 0.71400005 6777983
-0.089080006 0.22100002 0.71400005 6451085
-0.087719999 0.22100002 0.71400005 6187913
-0.086601906 0.22161905 0.71600002 6450049
-0.085238092 0.22161905 0.71600002 6318463
-0.083874285 0.22161905 0.71600002 6251382
-0.082510479 0.22161905 0.71600002 5659245
-0.081146665 0.22161905 0.71600002 5788780
-0.079782858 0.22161905 0.71600002 6051952
-0.078528576 0.22192858 0.71700001 5725038
-0.077162862 0.22192858 0.71700001 6382968
-0.076008573 0.22254764 0.71900004 6318967
-0.074639052 0.22254764 0.71900004 6582139
-0.073371425 0.22285716 0.72000003 6777985
-0.072200008 0.22347622 0.72200006 6120055
-0.070824765 0.22347622 0.72200006 5791088
-0.069449529 0.22347622 0.72200006 5988467
-0.068168573 0.22378573 0.72300005 5792121
-0.067253336 0.22533335 0.72800004 5989500
-0.066047616 0.22595237 0.73000002 6449520
-0.064657144 0.22595237 0.73000002 5396832
-0.063353337 0.2262619 0.73100001 4148834
-0.062130481 0.22688095 0.73300004 1780286
-0.060817145 0.22719048 0.73400003 1322091
-0.059580956 0.22780953 0.73600006 927333
-0.058337145 0.22842857 0.73800004 1649498
-0.12183333 0.22765428 0.73100001 5724761
-0.12044095 0.22765428 0.73100001 5724761
-0.11904857 0.22765428 0.73100001 4608340
-0.11717334 0.22672001 0.72800004 2239792
-0.11578667 0.22672001 0.72800004 1650527
-0.11424287 0.22640859 0.72700006 1650527
-0.11223715 0.22516288 0.72300005 2306910
-0.11070668 0.22485144 0.72200006 4346493
-0.10902857 0.22422858 0.72000003 5264212
-0.10765714 0.22422858 0.72000003 5264212
-0.1061381 0.22391714 0.71900004 5527132
-0.10447714 0.22329429 0.71700001 5527132
-0.10311142 0.22329429 0.71700001 5526628
-0.10160381 0.22298285 0.71600002 5526628
-0.10024001 0.22298285 0.71600002 5526632
-0.098876186 0.22298285 0.71600002 5526632
-0.097512379 0.22298285 0.71600002 5395548
-0.096148573 0.22298285 0.71600002 5658720
-0.094784766 0.22298285 0.71600002 5789298
-0.093420953 0.22298285 0.71600002 5789298
-0.092057146 0.22298285 0.71600002 6120053
-0.09069334 0.22298285 0.71600002 6514811
-0.089329526 0.22298285 0.71600002 6251643
-0.087965719 0.22298285 0.71600002 5922678
-0.086601906 0.22298285 0.71600002 6054010
-0.085238092 0.22298285 0.71600002 6119803
-0.083874285 0.22298285 0.71600002 6054003
-0.082510479 0.22298285 0.71600002 5593452
-0.081146665 0.22298285 0.71600002 6053749
-0.079782858 0.22298285 0.71600002 6580093
-0.078528576 0.22329429 0.71700001 6515313
-0.077378094 0.22391714 0.71900004 6515313
-0.076008573 0.22391714 0.71900004 6450553
-0.074639052 0.22391714 0.71900004 6450553
-0.073371425 0.22422858 0.72000003 6317684
-0.072200008 0.22485144 0.72200006 5725547
-0.070824765 0.22485144 0.72200006 5856876
-0.069449529 0.22485144 0.72200006 6185841
-0.068168573 0.22516288 0.72300005 6251643
-0.067253336 0.22672001 0.72800004 6185850
-0.066047616 0.22734286 0.73000002 6120800
-0.064657144 0.22734286 0.73000002 5331284
-0.063353337 0.22765428 0.73100001 4410209
-0.062130481 0.22827715 0.73300004 2107454
-0.060817145 0.22858858 0.73400003 1322091
-0.059580956 0.22921145 0.73600006 993126
-0.058337145 0.22983429 0.73800004 1649246
-0.056931432 0.22983429 0.73800004 4807310
-0.12077048 0.22967334 0.73300004 5724761
-0.1193743 0.22967334 0.73300004 4608340
-0.11749524 0.22873335 0.73000002 2239792
-0.11578667 0.22810668 0.72800004 1912411
-0.11424287 0.22779335 0.72700006 1846618
-0.11254762 0.22716667 0.72500002 2699097
-0.11086001 0.22654001 0.72300005 4738680
-0.10933144 0.22622669 0.72200006 5002067
-0.10765714 0.2256 0.72000003 5133653
-0.10628572 0.2256 0.72000003 5199196
-0.10476857 0.22528668 0.71900004 5330782
-0.10311142 0.22466001 0.71700001 5592927
-0.10174571 0.22466001 0.71700001 5592927
-0.10024001 0.22434667 0.71600002 5592421
-0.098876186 0.22434667 0.71600002 5592421
-0.097512379 0.22434667 0.71600002 5527134
-0.096148573 0.22434667 0.71600002 5724513
-0.094784766 0.22434667 0.71600002 5855597
-0.093420953 0.22434667 0.71600002 5921390
-0.092057146 0.22434667 0.71600002 5986929
-0.09069334 0.22434667 0.71600002 6118515
-0.089329526 0.22434667 0.71600002 5987706
-0.087965719 0.22434667 0.71600002 5921913
-0.086601906 0.22434667 0.71600002 5987956
-0.085238092 0.22434667 0.71600002 6053749
-0.083874285 0.22434667 0.71600002 5856883
-0.082510479 0.22434667 0.71600002 6251641
-0.081146665 0.22434667 0.71600002 6252672
-0.079894282 0.22466001 0.71700001 6384258
-0.078747623 0.22528668 0.71900004 6384760
-0.077378094 0.22528668 0.71900004 6318967
-0.076008573 0.22528668 0.71900004 6580858
-0.074639052 0.22528668 0.71900004 6186100
-0.073371425 0.2256 0.72000003 6054003
-0.072200008 0.22622669 0.72200006 5461866
-0.070824765 0.22622669 0.72200006 5592425
-0.069545716 0.22654001 0.72300005 6250355
-0.068357147 0.22716667 0.72500002 6055291
-0.067253336 0.22810668 0.72800004 5792119
-0.066047616 0.22873335 0.73000002 5528168
-0.064657144 0.22873335 0.73000002 5199203
-0.063353337 0.22904667 0.73100001 3623262
-0.062130481 0.22967334 0.73300004 1583679
-0.060817145 0.22998667 0.73400003 1124714
-0.05974286 0.23124002 0.73800004 795749
-0.058337145 0.23124002 0.73800004 1517660
-0.057008572 0.23155335 0.73900002 4609931
-0.055600952 0.23155335 0.73900002 6120296
-0.12077048 0.23106954 0.73300004 5724761
-0.1193743 0.23106954 0.73300004 4936022
-0.11749524 0.23012382 0.73000002 2501681
-0.11610477 0.23012382 0.73000002 2435675
-0.11424287 0.22917812 0.72700006 2567261
-0.11254762 0.22854762 0.72500002 3026006
-0.11086001 0.22791716 0.72300005 4539245
-0.10933144 0.22760193 0.72200006 5329737
-0.1079562 0.22760193 0.72200006 5461323
-0.10628572 0.22697143 0.72000003 5461591
-0.10476857 0.2266562 0.71900004 5395798
-0.10339905 0.2266562 0.71900004 5527132
-0.10174571 0.2260257 0.71700001 5724511
-0.10038 0.2260257 0.71700001 5724011
-0.098876186 0.22571048 0.71600002 5987183
-0.097512379 0.22571048 0.71600002 5988462
-0.096148573 0.22571048 0.71600002 6317427
-0.094784766 0.22571048 0.71600002 6317432
-0.093420953 0.22571048 0.71600002 6383225
-0.092057146 0.22571048 0.71600002 6185846
-0.09069334 0.22571048 0.71600002 5593709
-0.089329526 0.22571048 0.71600002 5724795
-0.087965719 0.22571048 0.71600002 5593209
-0.086601906 0.22571048 0.71600002 5593452
-0.085238092 0.22571048 0.71600002 5856624
-0.083874285 0.22571048 0.71600002 5988219
-0.082510479 0.22571048 0.71600002 6646149
-0.081259996 0.2260257 0.71700001 6711940
-0.079894282 0.2260257 0.71700001 6514561
-0.078747623 0.2266562 0.71900004 6449018
-0.077378094 0.2266562 0.71900004 6449018
-0.076114289 0.22697143 0.72000003 6515063
-0.074742861 0.22697143 0.72000003 5922926
-0.073575243 0.22760193 0.72200006 5987183
-0.072200008 0.22760193 0.72200006 5592425
-0.070824765 0.22760193 0.72200006 5526378
-0.069545716 0.22791716 0.72300005 5723757
-0.068357147 0.22854762 0.72500002 5461612
-0.067253336 0.22949335 0.72800004 5395819
-0.065866672 0.22949335 0.72800004 5330532
-0.064657144 0.23012382 0.73000002 4935774
-0.063266665 0.23012382 0.73000002 4410209
-0.062130481 0.23106954 0.73300004 1910075
-0.060982861 0.23201527 0.73600006 928366
-0.05974286 0.23264572 0.73800004 599401
-0.058416191 0.23296095 0.73900002 1255003
-0.057008572 0.23296095 0.73900002 4281481
-0.12216667 0.23246573 0.73300004 5724761
-0.12077048 0.23246573 0.73300004 5724761
-0.1193743 0.23246573 0.73300004 5067860
-0.11765619 0.23183143 0.73100001 2633519
-0.11626381 0.23183143 0.73100001 2567513
-0.11440001 0.23088001 0.72800004 2633306
-0.1128581 0.23056287 0.72700006 3353937
-0.11086001 0.2292943 0.72300005 4472418
-0.10933144 0.22897716 0.72200006 4408910
-0.1079562 0.22897716 0.72200006 4935254
-0.10628572 0.22834286 0.72000003 5263960
-0.10476857 0.22802573 0.71900004 5263960
-0.10339905 0.22802573 0.71900004 5263960
-0.10174571 0.22739142 0.71700001 5461339
-0.10038 0.22739142 0.71700001 5789800
-0.09901429 0.22739142 0.71700001 5855593
-0.097648568 0.22739142 0.71700001 5791088
-0.096148573 0.2270743 0.71600002 6449018
-0.094784766 0.2270743 0.71600002 6057081
-0.093420953 0.2270743 0.71600002 6122874
-0.092057146 0.2270743 0.71600002 6318976
-0.09069334 0.2270743 0.71600002 5858425
-0.089329526 0.2270743 0.71600002 5659005
-0.087965719 0.2270743 0.71600002 5593212
-0.086601906 0.2270743 0.71600002 5659245
-0.085238092 0.2270743 0.71600002 6054003
-0.083991431 0.22739142 0.71700001 6054010
-0.082625717 0.22739142 0.71700001 6448768
-0.081486672 0.22802573 0.71900004 6646401
-0.080117144 0.22802573 0.71900004 6317436
-0.078857146 0.22834286 0.72000003 6251891
-0.07748571 0.22834286 0.72000003 6383477
-0.076114289 0.22834286 0.72000003 6515063
-0.074742861 0.22834286 0.72000003 5528168
-0.073575243 0.22897716 0.72200006 5854573
-0.072200008 0.22897716 0.72200006 5722987
-0.070824765 0.22897716 0.72200006 5526632
-0.069545716 0.2292943 0.72300005 5592425
-0.068357147 0.22992857 0.72500002 5264487
-0.067253336 0.23088001 0.72800004 5198694
-0.065866672 0.23088001 0.72800004 5198694
-0.064657144 0.23151429 0.73000002 5461866
-0.063266665 0.23151429 0.73000002 4280418
-0.06196095 0.23183143 0.73100001 1714491
-0.060982861 0.23341715 0.73600006 1190253
-0.059823811 0.23436858 0.73900002 729702
-0.058416191 0.23436858 0.73900002 1255003
-0.057008572 0.23436858 0.73900002 4281481
-0.12077048 0.23386191 0.73300004 5725013
-0.1193743 0.23386191 0.73300004 4936274
-0.11765619 0.2332238 0.73100001 2567726
-0.11610477 0.23290476 0.73000002 2632536
-0.11424287 0.23194763 0.72700006 2764122
-0.11254762 0.23130953 0.72500002 3222333
-0.11086001 0.23067144 0.72300005 3485505
-0.10933144 0.2303524 0.72200006 4339526
-0.1079562 0.2303524 0.72200006 4734284
-0.10628572 0.22971429 0.72000003 4933453
-0.10491429 0.22971429 0.72000003 5328211
-0.10339905 0.22939526 0.71900004 5262929
-0.10202952 0.22939526 0.71900004 5262929
-0.10066 0.22939526 0.71900004 5197667
-0.09901429 0.22875714 0.71700001 5855597
-0.097648568 0.22875714 0.71700001 5922674
-0.096282855 0.22875714 0.71700001 6514811
-0.094917141 0.22875714 0.71700001 6319737
