# .PCD v0.7 - Point Cloud Data file format
VERSION 0.7
FIELDS x y z rgba
SIZE 4 4 4 4
TYPE F F F U
COUNT 1 1 1 1
WIDTH 1089
HEIGHT 1
VIEWPOINT 0 0 0 1 0 0 0
POINTS 1089
DATA ascii
-0.054576188 0.020185716 0.78500003 16711420
-0.053080954 0.020185716 0.78500003 16711420
-0.051454291 0.020134287 0.78300005 16711420
-0.04996286 0.020134287 0.78300005 16711422
-0.048471432 0.020134287 0.78300005 16711422
-0.0471 0.020185716 0.78500003 16711422
-0.045488574 0.020134287 0.78300005 16711422
-0.043997146 0.020134287 0.78300005 16711422
-0.042505719 0.020134287 0.78300005 16711422
-0.040909525 0.020082857 0.78100002 16711422
-0.039421905 0.020082857 0.78100002 16711422
-0.037934288 0.020082857 0.78100002 15855093
-0.036446668 0.020082857 0.78100002 9275793
-0.034959048 0.020082857 0.78100002 9339519
-0.13600858 0.021791428 0.78900003 15655125
-0.13450572 0.021791428 0.78900003 16711422
-0.13300286 0.021791428 0.78900003 16711422
-0.13150001 0.021791428 0.78900003 16711422
-0.12999715 0.021791428 0.78900003 16711422
-0.12816858 0.021736192 0.78700006 16711422
-0.12666953 0.021736192 0.78700006 16579836
-0.12517048 0.021736192 0.78700006 16579836
-0.12367143 0.021736192 0.78700006 16645629
-0.12217239 0.021736192 0.78700006 16645629
-0.12067334 0.021736192 0.78700006 16711422
-0.11917429 0.021736192 0.78700006 16711422
-0.11767524 0.021736192 0.78700006 16711422
-0.1161762 0.021736192 0.78700006 16711422
-0.11467715 0.021736192 0.78700006 16711422
-0.1131781 0.021736192 0.78700006 16711422
-0.11167905 0.021736192 0.78700006 16711422
-0.11018001 0.021736192 0.78700006 16711422
-0.10895715 0.021791428 0.78900003 16711422
-0.10718191 0.021736192 0.78700006 16711422
-0.10568286 0.021736192 0.78700006 16711422
-0.10418382 0.021736192 0.78700006 16711422
-0.10268477 0.021736192 0.78700006 16711422
-0.10118572 0.021736192 0.78700006 16711422
-0.099686667 0.021736192 0.78700006 16711422
-0.098187625 0.021736192 0.78700006 16711422
-0.096688583 0.021736192 0.78700006 16645629
-0.094947621 0.021680953 0.78500003 16645629
-0.093452379 0.021680953 0.78500003 16645629
-0.091957144 0.021680953 0.78500003 16579836
-0.090461902 0.021680953 0.78500003 16579836
-0.088966668 0.021680953 0.78500003 16579836
-0.087248579 0.021625714 0.78300005 16579836
-0.085757144 0.021625714 0.78300005 16579836
-0.084265716 0.021625714 0.78300005 16579836
-0.082774289 0.021625714 0.78300005 16579836
-0.081282862 0.021625714 0.78300005 16645629
-0.079791434 0.021625714 0.78300005 16711422
-0.078299999 0.021625714 0.78300005 16711422
-0.076808572 0.021625714 0.78300005 16711422
-0.075509526 0.021680953 0.78500003 16711422
-0.074014291 0.021680953 0.78500003 16711422
-0.072519049 0.021680953 0.78500003 16711422
-0.071023814 0.021680953 0.78500003 16711422
-0.069528572 0.021680953 0.78500003 16711422
-0.068206668 0.021736192 0.78700006 16711422
-0.066707626 0.021736192 0.78700006 16711422
-0.065208569 0.021736192 0.78700006 16711422
-0.063709527 0.021736192 0.78700006 16711422
-0.062210482 0.021736192 0.78700006 16711422
-0.060711432 0.021736192 0.78700006 16711422
-0.059212383 0.021736192 0.78700006 16711422
-0.057713337 0.021736192 0.78700006 16711422
-0.056214292 0.021736192 0.78700006 16711422
-0.054576188 0.021680953 0.78500003 16711422
-0.053080954 0.021680953 0.78500003 16711422
-0.051585715 0.021680953 0.78500003 16711422
-0.050090477 0.021680953 0.78500003 16711422
-0.048595238 0.021680953 0.78500003 16711422
-0.0471 0.021680953 0.78500003 16711422
-0.045604762 0.021680953 0.78500003 16711422
-0.043997146 0.021625714 0.78300005 16711422
-0.042505719 0.021625714 0.78300005 16711422
-0.041014288 0.021625714 0.78300005 16711422
-0.03952286 0.021625714 0.78300005 16711422
-0.037934288 0.021570476 0.78100002 15592691
-0.036446668 0.021570476 0.78100002 9605528
-0.034959048 0.021570476 0.78100002 9931647
-0.13803428 0.023382859 0.79200006 9138522
-0.13600858 0.023294287 0.78900003 15586236
-0.13450572 0.023294287 0.78900003 16643312
-0.13300286 0.023294287 0.78900003 16248554
-0.13150001 0.023294287 0.78900003 16182259
-0.12999715 0.023294287 0.78900003 16182259
-0.12849429 0.023294287 0.78900003 16116975
-0.12666953 0.023235239 0.78700006 16116975
-0.12517048 0.023235239 0.78700006 16050925
-0.12367143 0.023235239 0.78700006 15458788
-0.12217239 0.023235239 0.78700006 15391719
-0.12067334 0.023235239 0.78700006 15194340
-0.11917429 0.023235239 0.78700006 15259876
-0.11767524 0.023235239 0.78700006 15259876
-0.1161762 0.023235239 0.78700006 15390947
-0.11467715 0.023235239 0.78700006 15390947
-0.1131781 0.023235239 0.78700006 15390431
-0.11167905 0.023235239 0.78700006 15324638
-0.11018001 0.023235239 0.78700006 15390433
-0.10895715 0.023294287 0.78900003 15390433
-0.10718191 0.023235239 0.78700006 15258336
-0.10568286 0.023235239 0.78700006 14863578
-0.10418382 0.023235239 0.78700006 14272468
-0.10268477 0.023235239 0.78700006 13811917
-0.10118572 0.023235239 0.78700006 13616098
-0.099686667 0.023235239 0.78700006 16708351
-0.098187625 0.023235239 0.78700006 16711422
-0.096688583 0.023235239 0.78700006 16645629
-0.094947621 0.023176191 0.78500003 16579836
-0.093452379 0.023176191 0.78500003 16579836
-0.091957144 0.023176191 0.78500003 16579836
-0.090461902 0.023176191 0.78500003 16579836
-0.088966668 0.023176191 0.78500003 16514043
-0.087248579 0.023117144 0.78300005 16579836
-0.085757144 0.023117144 0.78300005 16579836
-0.084265716 0.023117144 0.78300005 16579836
-0.082774289 0.023117144 0.78300005 16579836
-0.081282862 0.023117144 0.78300005 16711422
-0.079791434 0.023117144 0.78300005 16711422
-0.078299999 0.023117144 0.78300005 14277081
-0.076808572 0.023117144 0.78300005 12690654
-0.075509526 0.023176191 0.78500003 13085412
-0.074014291 0.023176191 0.78500003 14462917
-0.072519049 0.023176191 0.78500003 14660296
-0.071023814 0.023176191 0.78500003 15118537
-0.069528572 0.023176191 0.78500003 15184330
-0.068206668 0.023235239 0.78700006 15052744
-0.066707626 0.023235239 0.78700006 14789572
-0.065208569 0.023235239 0.78700006 14919618
-0.063709527 0.023235239 0.78700006 14853825
-0.062210482 0.023235239 0.78700006 14853823
-0.060711432 0.023235239 0.78700006 14985409
-0.059212383 0.023235239 0.78700006 14392004
-0.057566669 0.023176191 0.78500003 13470902
-0.05607143 0.023176191 0.78500003 13402295
-0.054576188 0.023176191 0.78500003 12941744
-0.053080954 0.023176191 0.78500003 12940463
-0.051585715 0.023176191 0.78500003 12611498
-0.050090477 0.023176191 0.78500003 12545187
-0.048595238 0.023176191 0.78500003 12545187
-0.0471 0.023176191 0.78500003 12479914
-0.045604762 0.023176191 0.78500003 12282535
-0.044109527 0.023176191 0.78500003 12281512
-0.042505719 0.023117144 0.78300005 12215719
-0.041014288 0.023117144 0.78300005 12878493
-0.03952286 0.023117144 0.78300005 14457525
-0.037934288 0.023058096 0.78100002 13084830
-0.036446668 0.023058096 0.78100002 10847868
-0.034959048 0.023058096 0.78100002 10457464
-0.13803428 0.024891431 0.79200006 9925726
-0.13600858 0.024797143 0.78900003 15189166
-0.13450572 0.024797143 0.78900003 14733271
-0.13300286 0.024797143 0.78900003 14667478
-0.13150001 0.024797143 0.78900003 15321299
-0.12999715 0.024797143 0.78900003 15189713
-0.12816858 0.024734288 0.78700006 15123409
-0.12666953 0.024734288 0.78700006 15123409
-0.12517048 0.024734288 0.78700006 15057618
-0.12367143 0.024734288 0.78700006 14860239
-0.12217239 0.024734288 0.78700006 14990029
-0.12067334 0.024734288 0.78700006 14661064
-0.11917429 0.024734288 0.78700006 14593476
-0.11767524 0.024734288 0.78700006 14527683
-0.1161762 0.024734288 0.78700006 14789313
-0.11467715 0.024734288 0.78700006 14460348
-0.1131781 0.024734288 0.78700006 14458038
-0.11167905 0.024734288 0.78700006 14589624
-0.11018001 0.024734288 0.78700006 14655415
-0.10868096 0.024734288 0.78700006 14523829
-0.10718191 0.024734288 0.78700006 14457518
-0.10541429 0.02467143 0.78500003 13668002
-0.10391905 0.02467143 0.78500003 12683651
-0.10242382 0.02467143 0.78500003 15446957
-0.10092857 0.02467143 0.78500003 13680844
-0.099686667 0.024734288 0.78700006 16774143
-0.094444767 0.023791429 0.75700003 16645629
-0.093002863 0.023791429 0.75700003 16448250
-0.095189527 0.024734288 0.78700006 16514043
-0.093690485 0.024734288 0.78700006 16514043
-0.091957144 0.02467143 0.78500003 16645629
-0.090461902 0.02467143 0.78500003 16579836
-0.088966668 0.02467143 0.78500003 16250871
-0.087471426 0.02467143 0.78500003 16579836
-0.083895244 0.024074288 0.76600003 16579836
-0.084480956 0.02467143 0.78500003 16579836
-0.082985714 0.02467143 0.78500003 16579836
-0.081490479 0.02467143 0.78500003 16711422
-0.079791434 0.024608573 0.78300005 16711422
-0.078299999 0.024608573 0.78300005 15856113
-0.077004768 0.02467143 0.78500003 12819410
-0.075509526 0.02467143 0.78500003 9398174
-0.074014291 0.02467143 0.78500003 13316446
-0.072519049 0.02467143 0.78500003 14369134
-0.071023814 0.02467143 0.78500003 14172023
-0.069528572 0.02467143 0.78500003 14500988
-0.068206668 0.024734288 0.78700006 14437244
-0.066707626 0.024734288 0.78700006 13845107
-0.065208569 0.024734288 0.78700006 13907061
-0.063709527 0.024734288 0.78700006 14170233
-0.062210482 0.024734288 0.78700006 14236794
-0.060711432 0.024734288 0.78700006 13842036
-0.059212383 0.024734288 0.78700006 13771389
-0.057566669 0.02467143 0.78500003 13245045
-0.05607143 0.02467143 0.78500003 13439354
-0.054576188 0.02467143 0.78500003 13110389
-0.053080954 0.02467143 0.78500003 13045358
-0.051585715 0.02467143 0.78500003 13045358
-0.050090477 0.02467143 0.78500003 13045095
-0.048595238 0.02467143 0.78500003 13176681
-0.0471 0.02467143 0.78500003 13373311
-0.045604762 0.02467143 0.78500003 13307518
-0.044109527 0.02467143 0.78500003 13241730
-0.042505719 0.024608573 0.78300005 13307523
-0.041014288 0.024608573 0.78300005 12524412
-0.03952286 0.024608573 0.78300005 14629788
-0.037934288 0.024545714 0.78100002 11562878
-0.036446668 0.024545714 0.78100002 11694464
-0.034959048 0.024545714 0.78100002 10784644
-0.13803428 0.026400002 0.79200006 10120543
-0.13566381 0.026233334 0.78700006 6041377
-0.13416478 0.026233334 0.78700006 9046570
-0.13266572 0.026233334 0.78700006 9441328
-0.13116667 0.026233334 0.78700006 9374274
-0.12966764 0.026233334 0.78700006 9374274
-0.12816858 0.026233334 0.78700006 9439824
-0.12666953 0.026233334 0.78700006 9439824
-0.12517048 0.026233334 0.78700006 9636435
-0.12335715 0.026166666 0.78500003 9636435
-0.1218619 0.026166666 0.78500003 9833042
-0.12036667 0.026166666 0.78500003 9833042
-0.11887143 0.026166666 0.78500003 9964369
-0.11737619 0.026166666 0.78500003 9964369
-0.11588095 0.026166666 0.78500003 10095183
-0.11467715 0.026233334 0.78700006 10029390
-0.11289048 0.026166666 0.78500003 10095435
-0.11139524 0.026166666 0.78500003 10161228
-0.10990001 0.026166666 0.78500003 10357326
-0.10868096 0.026233334 0.78700006 10094154
-0.10690953 0.026166666 0.78500003 10030117
-0.10541429 0.026166666 0.78500003 9503773
-0.10391905 0.026166666 0.78500003 11500603
-0.10242382 0.026166666 0.78500003 16769697
-0.10092857 0.026166666 0.78500003 16711422
-0.09588667 0.025233334 0.75700003 16711422
-0.094444767 0.025233334 0.75700003 16382457
-0.093002863 0.025233334 0.75700003 16250871
-0.091802858 0.025300002 0.75900006 16382457
-0.090357147 0.025300002 0.75900006 16382457
-0.08914572 0.025366668 0.76100004 16448250
-0.087811433 0.0254 0.76200002 16645629
-0.086586677 0.025466667 0.76400006 16382457
-0.085354283 0.025533335 0.76600003 16645629
-0.083895244 0.025533335 0.76600003 16579836
-0.082436197 0.025533335 0.76600003 16579836
-0.080977142 0.025533335 0.76600003 16579836
-0.079518095 0.025533335 0.76600003 16579836
-0.079485722 0.026000001 0.78000003 16711422
-0.078000002 0.026000001 0.78000003 16711422
-0.076808572 0.026100002 0.78300005 16444159
-0.075317152 0.026100002 0.78300005 9075343
-0.073825717 0.026100002 0.78300005 11016260
-0.072519049 0.026166666 0.78500003 10555709
-0.070842862 0.026100002 0.78300005 11799396
-0.069351435 0.026100002 0.78300005 11799396
-0.068033338 0.026166666 0.78500003 12061808
-0.066538103 0.026166666 0.78500003 11864429
-0.065042861 0.026166666 0.78500003 11996267
-0.063547619 0.026166666 0.78500003 11930474
-0.06205238 0.026166666 0.78500003 11996278
-0.060557146 0.026166666 0.78500003 11798899
-0.059061907 0.026166666 0.78500003 11799415
-0.057566669 0.026166666 0.78500003 11799415
-0.05607143 0.026166666 0.78500003 11931251
-0.054576188 0.026166666 0.78500003 11865458
-0.053080954 0.026166666 0.78500003 11997799
-0.051585715 0.026166666 0.78500003 11734627
-0.050090477 0.026166666 0.78500003 12264044
-0.048595238 0.026166666 0.78500003 12527216
-0.0471 0.026166666 0.78500003 12466300
-0.045604762 0.026166666 0.78500003 12400507
-0.044109527 0.026166666 0.78500003 12467592
-0.042614289 0.026166666 0.78500003 13059729
-0.041014288 0.026100002 0.78300005 11882647
-0.03952286 0.026100002 0.78300005 11158924
-0.037934288 0.026033334 0.78100002 9002616
-0.036446668 0.026033334 0.78100002 10318476
-0.034959048 0.026033334 0.78100002 9734797
-0.13803428 0.027908573 0.79200006 10975602
-0.13566381 0.027732382 0.78700006 8475468
-0.13382381 0.027661905 0.78500003 10882428
-0.13232857 0.027661905 0.78500003 12395667
-0.13083333 0.027661905 0.78500003 12002706
-0.1293381 0.027661905 0.78500003 11476362
-0.12784286 0.027661905 0.78500003 11932818
-0.12634763 0.027661905 0.78500003 11932818
-0.12485238 0.027661905 0.78500003 12195733
-0.12335715 0.027661905 0.78500003 12261526
-0.1218619 0.027661905 0.78500003 12393369
-0.12036667 0.027661905 0.78500003 12327576
-0.11887143 0.027661905 0.78500003 12326806
-0.11737619 0.027661905 0.78500003 12392599
-0.11588095 0.027661905 0.78500003 12458390
-0.11438572 0.027661905 0.78500003 12392597
-0.11289048 0.027661905 0.78500003 12392599
-0.11139524 0.027661905 0.78500003 12524185
-0.10990001 0.027661905 0.78500003 12591002
-0.10840476 0.027661905 0.78500003 12130451
-0.10690953 0.027661905 0.78500003 11340931
-0.10514572 0.027591432 0.78300005 11604103
-0.10365429 0.027591432 0.78300005 13076892
-0.10242382 0.027661905 0.78500003 16770295
-0.10092857 0.027661905 0.78500003 16711422
-0.09588667 0.026675239 0.75700003 16514043
-0.094444767 0.026675239 0.75700003 16185078
-0.093002863 0.026675239 0.75700003 16250871
-0.091802858 0.026745716 0.75900006 16316664
-0.090357147 0.026745716 0.75900006 16316664
-0.08914572 0.026816191 0.76100004 16316664
-0.087811433 0.026851429 0.76200002 16514043
-0.086586677 0.026921906 0.76400006 16316664
-0.085131437 0.026921906 0.76400006 16514043
-0.083676197 0.026921906 0.76400006 16645629
-0.082220957 0.026921906 0.76400006 16579836
-0.080765724 0.026921906 0.76400006 16579836
-0.079310484 0.026921906 0.76400006 16579836
-0.077855244 0.026921906 0.76400006 16579836
-0.078000002 0.027485715 0.78000003 16711422
-0.076808572 0.027591432 0.78300005 16711422
-0.075317152 0.027591432 0.78300005 12763842
-0.073825717 0.027591432 0.78300005 12873660
-0.07233429 0.027591432 0.78300005 13136832
-0.070842862 0.027591432 0.78300005 14316227
-0.069351435 0.027591432 0.78300005 14710985
-0.068033338 0.027661905 0.78500003 14514890
-0.066538103 0.027661905 0.78500003 14646476
-0.065042861 0.027661905 0.78500003 14646987
-0.063547619 0.027661905 0.78500003 14712780
-0.06205238 0.027661905 0.78500003 14516173
-0.060557146 0.027661905 0.78500003 14450380
-0.059061907 0.027661905 0.78500003 14319825
-0.057566669 0.027661905 0.78500003 14254032
-0.055928573 0.027591432 0.78300005 14123475
-0.054437146 0.027591432 0.78300005 13991889
-0.052945714 0.027591432 0.78300005 13794256
-0.051454291 0.027591432 0.78300005 13860049
-0.04996286 0.027591432 0.78300005 13794771
-0.048471432 0.027591432 0.78300005 13860564
-0.046980001 0.027591432 0.78300005 13598932
-0.045488574 0.027591432 0.78300005 13533139
-0.043997146 0.027591432 0.78300005 13205460
-0.042505719 0.027591432 0.78300005 13468632
-0.041014288 0.027591432 0.78300005 12223712
-0.03952286 0.027591432 0.78300005 10710473
-0.037934288 0.027520953 0.78100002 6970770
-0.036446668 0.027520953 0.78100002 7562907
-0.13531905 0.029157145 0.78500003 10785425
-0.13348287 0.029082859 0.78300005 11308231
-0.13199143 0.029082859 0.78300005 12229333
-0.13083333 0.029157145 0.78500003 12557272
-0.1293381 0.029157145 0.78500003 12754651
-0.12784286 0.029157145 0.78500003 12754392
-0.12634763 0.029157145 0.78500003 12885978
-0.12485238 0.029157145 0.78500003 12885462
-0.12335715 0.029157145 0.78500003 12885462
-0.1218619 0.029157145 0.78500003 12951003
-0.12006001 0.029082859 0.78300005 13082589
-0.11856858 0.029082859 0.78300005 12753122
-0.11737619 0.029157145 0.78500003 13279466
-0.11588095 0.029157145 0.78500003 13017564
-0.11438572 0.029157145 0.78500003 13017564
-0.11289048 0.029157145 0.78500003 12622054
-0.11111143 0.029082859 0.78300005 13082605
-0.10962 0.029082859 0.78300005 12754151
-0.10840476 0.029157145 0.78500003 12359393
-0.10690953 0.029157145 0.78500003 11963099
-0.10514572 0.029082859 0.78300005 16765951
-0.10365429 0.029082859 0.78300005 16710909
-0.099683814 0.028377144 0.76400006 16776702
-0.097971432 0.028302858 0.76200002 16711422
-0.096140005 0.02819143 0.75900006 16316664
-0.094694294 0.02819143 0.75900006 16514043
-0.093248583 0.02819143 0.75900006 16514043
-0.092044763 0.028265715 0.76100004 16382457
-0.090595245 0.028265715 0.76100004 16448250
-0.08914572 0.028265715 0.76100004 16645629
-0.087811433 0.028302858 0.76200002 16645629
-0.086586677 0.028377144 0.76400006 16448250
-0.085131437 0.028377144 0.76400006 16645629
-0.083676197 0.028377144 0.76400006 16645629
-0.082220957 0.028377144 0.76400006 16579836
-0.080765724 0.028377144 0.76400006 16579836
-0.079310484 0.028377144 0.76400006 16579836
-0.077855244 0.028377144 0.76400006 16579836
-0.0766 0.02845143 0.76600003 16711422
-0.076808572 0.029082859 0.78300005 16711422
-0.075317152 0.029082859 0.78300005 15987699
-0.074014291 0.029157145 0.78500003 13021183
-0.07233429 0.029082859 0.78300005 11639538
-0.070842862 0.029082859 0.78300005 12098047
-0.069351435 0.029082859 0.78300005 12558591
-0.067860007 0.029082859 0.78300005 12623871
-0.066538103 0.029157145 0.78500003 12558079
-0.064877145 0.029082859 0.78300005 12558335
-0.063223809 0.029008573 0.78100002 12558335
-0.061736189 0.029008573 0.78100002 12427519
-0.060248572 0.029008573 0.78100002 12427519
-0.058911432 0.029082859 0.78300005 12362495
-0.057420004 0.029082859 0.78300005 12428287
-0.055785716 0.029008573 0.78100002 12296447
-0.054298095 0.029008573 0.78100002 12230655
-0.052810475 0.029008573 0.78100002 11967487
-0.051322855 0.029008573 0.78100002 11967487
-0.049835239 0.029008573 0.78100002 11704063
-0.048347618 0.029008573 0.78100002 11572479
-0.046860002 0.029008573 0.78100002 11310847
-0.045372382 0.029008573 0.78100002 11442431
-0.043884765 0.029008573 0.78100002 11311359
-0.042397145 0.029008573 0.78100002 11640319
-0.040857144 0.02897143 0.78000003 11575807
-0.039371427 0.02897143 0.78000003 9536233
-0.037885718 0.02897143 0.78000003 5659575
-0.036400001 0.02897143 0.78000003 4935852
-0.13497429 0.030574286 0.78300005 6056829
-0.13314191 0.030496189 0.78100002 4816084
-0.13165428 0.030496189 0.78100002 5539807
-0.1305 0.030574286 0.78300005 5998818
-0.12867905 0.030496189 0.78100002 6130404
-0.12719144 0.030496189 0.78100002 6458340
-0.12602572 0.030574286 0.78300005 6392547
-0.12453429 0.030574286 0.78300005 6326754
-0.12272858 0.030496189 0.78100002 6392547
-0.12124095 0.030496189 0.78100002 6326756
-0.11975334 0.030496189 0.78100002 6655721
-0.11826571 0.030496189 0.78100002 6918889
-0.1167781 0.030496189 0.78100002 6918889
-0.11558571 0.030574286 0.78300005 6524903
-0.11409429 0.030574286 0.78300005 6459110
-0.11260287 0.030574286 0.78300005 6066413
-0.11111143 0.030574286 0.78300005 6132206
-0.10962 0.030574286 0.78300005 6460912
-0.10812858 0.030574286 0.78300005 4750294
-0.10663715 0.030574286 0.78300005 6127324
-0.10514572 0.030574286 0.78300005 13627647
-0.10365429 0.030574286 0.78300005 16646142
-0.099422857 0.029754287 0.76200002 16646142
-0.097842865 0.02971524 0.76100004 16448250
-0.096393339 0.02971524 0.76100004 16579836
-0.094943814 0.02971524 0.76100004 16645629
-0.093494289 0.02971524 0.76100004 16514043
-0.092044763 0.02971524 0.76100004 16250871
-0.090595245 0.02971524 0.76100004 16579836
-0.08914572 0.02971524 0.76100004 16711422
-0.087811433 0.029754287 0.76200002 16645629
-0.08636 0.029754287 0.76200002 16448250
-0.084908567 0.029754287 0.76200002 16645629
-0.08345715 0.029754287 0.76200002 16645629
-0.082005717 0.029754287 0.76200002 16579836
-0.080554284 0.029754287 0.76200002 16579836
-0.079102859 0.029754287 0.76200002 16579836
-0.077345721 0.029637145 0.75900006 16579836
-0.075900003 0.029637145 0.75900006 16711422
-0.074454293 0.029637145 0.75900006 16711422
-0.075509526 0.030652381 0.78500003 15658734
-0.073825717 0.030574286 0.78300005 11192063
-0.07233429 0.030574286 0.78300005 6520767
-0.070661902 0.030496189 0.78100002 4164863
-0.06917429 0.030496189 0.78100002 5020159
-0.067686662 0.030496189 0.78100002 5411071
-0.066199049 0.030496189 0.78100002 5345279
-0.064628571 0.030457145 0.78000003 5148927
-0.063142858 0.030457145 0.78000003 5148927
-0.061657146 0.030457145 0.78000003 5149183
-0.060171433 0.030457145 0.78000003 5280767
-0.058685716 0.030457145 0.78000003 5346559
-0.057273332 0.030496189 0.78100002 5346559
-0.055714291 0.030457145 0.78000003 5280767
-0.054228574 0.030457145 0.78000003 5280767
-0.052810475 0.030496189 0.78100002 4492543
-0.051322855 0.030496189 0.78100002 4755711
-0.049771432 0.030457145 0.78000003 5476351
-0.048285715 0.030457145 0.78000003 5344767
-0.046800002 0.030457145 0.78000003 5017599
-0.045314286 0.030457145 0.78000003 5280767
-0.043828573 0.030457145 0.78000003 4886783
-0.04234286 0.030457145 0.78000003 5610495
-0.040857144 0.030457145 0.78000003 8167167
-0.039371427 0.030457145 0.78000003 5864425
-0.037788574 0.030379049 0.77800006 1068462
-0.036306668 0.030379049 0.77800006 1068462
-0.13462953 0.031983808 0.78100002 5795990
-0.13297144 0.031942859 0.78000003 4356576
-0.13148573 0.031942859 0.78000003 4553955
-0.13016666 0.031983808 0.78100002 4226535
-0.12867905 0.031983808 0.78100002 4423914
-0.12719144 0.031983808 0.78100002 4948970
-0.12570381 0.031983808 0.78100002 4948970
-0.12421619 0.031983808 0.78100002 5605612
-0.12257144 0.031942859 0.78000003 5802991
-0.12108572 0.031942859 0.78000003 5605871
-0.1196 0.031942859 0.78000003 5803250
-0.11811429 0.031942859 0.78000003 5869041
-0.11662858 0.031942859 0.78000003 6132213
-0.11529048 0.031983808 0.78100002 5869300
-0.11380286 0.031983808 0.78100002 5803507
-0.11231524 0.031983808 0.78100002 5738229
-0.11082762 0.031983808 0.78100002 5738229
-0.10934 0.031983808 0.78100002 5803768
-0.10812858 0.032065716 0.78300005 3369427
-0.10663715 0.032065716 0.78300005 7111399
-0.10514572 0.032065716 0.78300005 14940671
-0.10140382 0.031369522 0.76600003 16711422
-0.099292383 0.031164765 0.76100004 16645629
-0.097585723 0.031082857 0.75900006 16579836
-0.096140005 0.031082857 0.75900006 16579836
-0.094694294 0.031082857 0.75900006 16579836
-0.093248583 0.031082857 0.75900006 16514043
-0.091802858 0.031082857 0.75900006 16316664
-0.090357147 0.031082857 0.75900006 16645629
-0.088911436 0.031082857 0.75900006 16645629
-0.087696187 0.031164765 0.76100004 16579836
-0.086246669 0.031164765 0.76100004 16579836
-0.084908567 0.031205716 0.76200002 16645629
-0.08345715 0.031205716 0.76200002 16579836
-0.081898101 0.031164765 0.76100004 16579836
-0.080448568 0.031164765 0.76100004 16579836
-0.07899905 0.031164765 0.76100004 16579836
-0.077345721 0.031082857 0.75900006 16579836
-0.0757 0.031000955 0.75700003 16711422
-0.074258097 0.031000955 0.75700003 16711422
-0.072816193 0.031000955 0.75700003 15592941
-0.073825717 0.032065716 0.78300005 11192063
-0.07214953 0.031983808 0.78100002 6915525
-0.070661902 0.031983808 0.78100002 5346559
-0.06917429 0.031983808 0.78100002 5741311
-0.067686662 0.031983808 0.78100002 6002687
-0.066114292 0.031942859 0.78000003 6002687
-0.064628571 0.031942859 0.78000003 6002687
-0.062980957 0.031860955 0.77800006 6002687
-0.061499052 0.031860955 0.77800006 5871871
-0.060017146 0.031860955 0.77800006 5937663
-0.058535244 0.031860955 0.77800006 6003199
-0.057053339 0.031860955 0.77800006 6003199
-0.055571433 0.031860955 0.77800006 5937663
-0.054089524 0.031860955 0.77800006 5937663
-0.052742857 0.031942859 0.78000003 5805567
-0.051257145 0.031942859 0.78000003 5805567
-0.049771432 0.031942859 0.78000003 5937151
-0.048285715 0.031942859 0.78000003 5937151
-0.046680003 0.031860955 0.77800006 5936895
-0.045198098 0.031860955 0.77800006 6200063
-0.043828573 0.031942859 0.78000003 6396671
-0.04234286 0.031942859 0.78000003 6857215
-0.040857144 0.031942859 0.78000003 8627711
-0.039169524 0.031779047 0.77600002 5864416
-0.037594289 0.031697143 0.77400005 806841
-0.036120001 0.031697143 0.77400005 1070013
-0.13559429 0.033342861 0.77800006 5929375
-0.13411239 0.033342861 0.77800006 5337238
-0.13297144 0.033428572 0.78000003 3701474
-0.13148573 0.033428572 0.78000003 3833060
-0.13 0.033428572 0.78000003 3439590
-0.12818477 0.033342861 0.77800006 3571176
-0.12670286 0.033342861 0.77800006 4293100
-0.12554286 0.033428572 0.78000003 4358893
-0.12405715 0.033428572 0.78000003 4819696
-0.12225715 0.033342861 0.77800006 4622317
-0.12077525 0.033342861 0.77800006 4359663
-0.11929334 0.033342861 0.77800006 4557042
-0.11781144 0.033342861 0.77800006 5213680
-0.11632954 0.033342861 0.77800006 5345266
-0.11484763 0.033342861 0.77800006 5476595
-0.11336572 0.033342861 0.77800006 5542388
-0.11188382 0.033342861 0.77800006 5673206
-0.11011809 0.033257145 0.77600002 5541620
-0.10836001 0.03317143 0.77400005 5278966
-0.10688572 0.03317143 0.77400005 2844625
-0.10541143 0.03317143 0.77400005 7636963
-0.10299715 0.032871429 0.76700002 15071487
-0.10113905 0.032742858 0.76400006 16711422
-0.099292383 0.032614287 0.76100004 16711422
-0.097585723 0.032528572 0.75900006 16579836
-0.09588667 0.03244286 0.75700003 16579836
-0.094444767 0.03244286 0.75700003 16579836
-0.093002863 0.03244286 0.75700003 16514043
-0.091560952 0.03244286 0.75700003 16316664
-0.090119049 0.03244286 0.75700003 16579836
-0.088911436 0.032528572 0.75900006 16645629
-0.087465718 0.032528572 0.75900006 16579836
-0.086020008 0.032528572 0.75900006 16645629
-0.084574297 0.032528572 0.75900006 16645629
-0.083128572 0.032528572 0.75900006 16579836
-0.081682861 0.032528572 0.75900006 16579836
-0.08023715 0.032528572 0.75900006 16579836
-0.07879144 0.032528572 0.75900006 16579836
-0.077141903 0.03244286 0.75700003 16579836
-0.0757 0.03244286 0.75700003 16711422
-0.074258097 0.03244286 0.75700003 16711422
-0.072816193 0.03244286 0.75700003 15527148
-0.073825717 0.033557143 0.78300005 10864127
-0.072057143 0.033428572 0.78000003 6850759
-0.07057143 0.033428572 0.78000003 5806335
-0.069085717 0.033428572 0.78000003 6266879
-0.067600004 0.033428572 0.78000003 6068991
-0.065775238 0.033257145 0.77600002 6068991
-0.06429714 0.033257145 0.77600002 6003199
-0.062819049 0.033257145 0.77600002 6003199
-0.061340958 0.033257145 0.77600002 5872383
-0.05986286 0.033257145 0.77600002 5938175
-0.058384761 0.033257145 0.77600002 5872383
-0.05690667 0.033257145 0.77600002 5872383
-0.055428572 0.033257145 0.77600002 5938175
-0.053950477 0.033257145 0.77600002 5872383
-0.052472383 0.033257145 0.77600002 5871871
-0.050994288 0.033257145 0.77600002 5871871
-0.04951619 0.033257145 0.77600002 5871615
-0.048038095 0.033257145 0.77600002 5871615
-0.046560001 0.033257145 0.77600002 6002687
-0.045081906 0.033257145 0.77600002 6265855
-0.043603808 0.033257145 0.77600002 6528511
-0.042125717 0.033257145 0.77600002 7120639
-0.040647618 0.033257145 0.77600002 8956927
-0.039169524 0.033257145 0.77600002 5535700
-0.037594289 0.03317143 0.77400005 740269
-0.036120001 0.03317143 0.77400005 1858750
-0.1370762 0.034824762 0.77800006 8027489
-0.13559429 0.034824762 0.77800006 5404837
-0.13411239 0.034824762 0.77800006 5010079
-0.13263048 0.034824762 0.77800006 3767269
-0.13114858 0.034824762 0.77800006 3898855
-0.12966667 0.034824762 0.77800006 3505894
-0.12785524 0.034735236 0.77600002 3505894
-0.12637714 0.034735236 0.77600002 3636715
-0.12489904 0.034735236 0.77600002 3834094
-0.12342096 0.034735236 0.77600002 3834607
-0.12194286 0.034735236 0.77600002 3834607
-0.12046476 0.034735236 0.77600002 3834609
-0.11898667 0.034735236 0.77600002 3900402
-0.11750858 0.034735236 0.77600002 4097266
-0.11603048 0.034735236 0.77600002 4820989
-0.11455239 0.034735236 0.77600002 5279475
-0.11307429 0.034735236 0.77600002 5411061
-0.11159619 0.034735236 0.77600002 5279225
-0.10983429 0.034645718 0.77400005 5279225
-0.10822001 0.034600955 0.77300006 5148150
-0.10647143 0.034511428 0.77100003 2450637
-0.10473049 0.034421906 0.76900005 6322134
-0.10299715 0.03433238 0.76700002 14414591
-0.10113905 0.034198094 0.76400006 16711422
-0.099031433 0.03397429 0.75900006 16711422
-0.097328581 0.033884764 0.75700003 16645629
-0.09588667 0.033884764 0.75700003 16579836
-0.094444767 0.033884764 0.75700003 16579836
-0.093002863 0.033884764 0.75700003 16579836
-0.091560952 0.033884764 0.75700003 16579836
-0.090119049 0.033884764 0.75700003 16579836
-0.088677146 0.033884764 0.75700003 16579836
-0.087235235 0.033884764 0.75700003 16579836
-0.085793331 0.033884764 0.75700003 16579836
-0.084351428 0.033884764 0.75700003 16579836
-0.082909524 0.033884764 0.75700003 16579836
-0.081467621 0.033884764 0.75700003 16579836
-0.08002571 0.033884764 0.75700003 16579836
-0.078376196 0.033795241 0.75500005 16579836
-0.0769381 0.033795241 0.75500005 16579836
-0.075500011 0.033795241 0.75500005 16711422
-0.074061908 0.033795241 0.75500005 16711422
-0.072816193 0.033884764 0.75700003 15198183
-0.073825717 0.035048574 0.78300005 11257855
-0.071872383 0.034824762 0.77800006 7507657
-0.070209526 0.034735236 0.77600002 5740543
-0.068731427 0.034735236 0.77600002 6135295
-0.067253336 0.034735236 0.77600002 5872127
-0.065775238 0.034735236 0.77600002 5806335
-0.06429714 0.034735236 0.77600002 5347071
-0.062819049 0.034735236 0.77600002 5149695
-0.061340958 0.034735236 0.77600002 5413119
-0.059708573 0.034645718 0.77400005 5676287
-0.058234289 0.034645718 0.77400005 5806591
-0.056760002 0.034645718 0.77400005 5740799
-0.055285718 0.034645718 0.77400005 5872383
-0.053811431 0.034645718 0.77400005 5872383
-0.052337144 0.034645718 0.77400005 5609471
-0.05086286 0.034645718 0.77400005 5609471
-0.049388573 0.034645718 0.77400005 5805567
-0.047914285 0.034645718 0.77400005 5805567
-0.046440005 0.034645718 0.77400005 5871359
-0.044965718 0.034645718 0.77400005 6266111
-0.043491431 0.034645718 0.77400005 6594303
-0.042017147 0.034645718 0.77400005 7054847
-0.040647618 0.034735236 0.77600002 8825599
-0.039068572 0.034645718 0.77400005 5075406
-0.037545718 0.034600955 0.77300006 807345
-0.036073335 0.034600955 0.77300006 1925826
-0.13820191 0.036213335 0.77600002 8290922
-0.1367238 0.036213335 0.77600002 7632992
-0.13524573 0.036213335 0.77600002 5075640
-0.13376762 0.036213335 0.77600002 4812468
-0.13228953 0.036213335 0.77600002 3373545
-0.13081144 0.036213335 0.77600002 3702510
-0.12933333 0.036213335 0.77600002 3899623
-0.12752572 0.036120001 0.77400005 3833830
-0.12605143 0.036120001 0.77400005 3440108
-0.12457716 0.036120001 0.77400005 3769073
-0.12310287 0.036120001 0.77400005 4162797
-0.12162858 0.036120001 0.77400005 4097004
-0.12015429 0.036120001 0.77400005 4359665
-0.11868001 0.036120001 0.77400005 4359665
-0.11720572 0.036120001 0.77400005 3900650
-0.11573143 0.036120001 0.77400005 4624373
-0.11425715 0.036120001 0.77400005 5214200
-0.11263715 0.036073335 0.77300006 5148407
-0.11116477 0.036073335 0.77300006 5148409
-0.10969239 0.036073335 0.77300006 5148409
-0.10822001 0.036073335 0.77300006 5148407
-0.10647143 0.035980001 0.77100003 2516687
-0.10473049 0.035886671 0.76900005 5204934
-0.10326572 0.035886671 0.76900005 13231615
-0.10047715 0.035420001 0.75900006 16646142
-0.099031433 0.035420001 0.75900006 16646142
-0.097071439 0.035233337 0.75500005 16711422
-0.095633343 0.035233337 0.75500005 16579836
-0.094195247 0.035233337 0.75500005 16579836
-0.092757143 0.035233337 0.75500005 16645629
-0.091319054 0.035233337 0.75500005 16645629
-0.089880958 0.035233337 0.75500005 16579836
-0.088442862 0.035233337 0.75500005 16579836
-0.087004766 0.035233337 0.75500005 16579836
-0.085793331 0.035326667 0.75700003 16579836
-0.084351428 0.035326667 0.75700003 16579836
-0.082690477 0.035233337 0.75500005 16579836
-0.081144765 0.035186667 0.75400001 16579836
-0.079708569 0.035186667 0.75400001 16579836
-0.078376196 0.035233337 0.75500005 16579836
-0.0769381 0.035233337 0.75500005 16579836
-0.075500011 0.035233337 0.75500005 16711422
-0.074061908 0.035233337 0.75500005 16711422
-0.072623812 0.035233337 0.75500005 15000804
-0.072977148 0.036120001 0.77400005 11520255
-0.071502857 0.036120001 0.77400005 8493780
-0.070028573 0.036120001 0.77400005 7052799
-0.06855429 0.036120001 0.77400005 6658047
-0.067080006 0.036120001 0.77400005 5216255
-0.065605715 0.036120001 0.77400005 5413631
-0.064131431 0.036120001 0.77400005 5347071
-0.06265714 0.036120001 0.77400005 4886527
-0.06118286 0.036120001 0.77400005 4625407
-0.059708573 0.036120001 0.77400005 5085951
-0.058234289 0.036120001 0.77400005 5215999
-0.056760002 0.036120001 0.77400005 5281791
-0.05521429 0.036073335 0.77300006 5609727
-0.05374191 0.036073335 0.77300006 5609727
-0.052269526 0.036073335 0.77300006 5544191
-0.050665714 0.035980001 0.77100003 5478399
-0.049197145 0.035980001 0.77100003 5674239
-0.047728572 0.035980001 0.77100003 5805823
-0.046260003 0.035980001 0.77100003 5674495
-0.04479143 0.035980001 0.77100003 6200831
-0.043210477 0.035886671 0.76900005 6397951
-0.041745719 0.035886671 0.76900005 6924287
-0.04017619 0.035793334 0.76700002 9154303
-0.03871524 0.035793334 0.76700002 4746182
-0.037254285 0.035793334 0.76700002 741041
-0.035980001 0.035980001 0.77100003 2254280
-0.13784572 0.037594289 0.77400005 7766377
-0.13619524 0.037545718 0.77300006 6911068
-0.13472287 0.037545718 0.77300006 4158675
-0.13325049 0.037545718 0.77300006 4685019
-0.13143714 0.037448574 0.77100003 4162536
-0.12996858 0.037448574 0.77100003 4030950
-0.1285 0.037448574 0.77100003 3965932
-0.12703143 0.037448574 0.77100003 4031725
-0.12556286 0.037448574 0.77100003 3900400
-0.12409429 0.037448574 0.77100003 3966193
-0.12262572 0.037448574 0.77100003 3966704
-0.12115715 0.037448574 0.77100003 3900911
-0.11968857 0.037448574 0.77100003 3966706
-0.11822 0.037448574 0.77100003 4098292
-0.11675143 0.037448574 0.77100003 3704554
-0.11528286 0.037448574 0.77100003 4428277
-0.11381429 0.037448574 0.77100003 4755196
-0.11234572 0.037448574 0.77100003 4886782
-0.11087715 0.037448574 0.77100003 4952061
-0.10940857 0.037448574 0.77100003 4886268
-0.10794 0.037448574 0.77100003 5017082
-0.10647143 0.037448574 0.77100003 2122190
-0.10500287 0.037448574 0.77100003 3301058
-0.10326572 0.037351429 0.76900005 9288191
-0.10047715 0.036865719 0.75900006 15461348
-0.098379053 0.036622856 0.75400001 16777208
-0.096942857 0.036622856 0.75400001 16711422
-0.095253341 0.036525715 0.75200003 16579836
-0.093820952 0.036525715 0.75200003 16579836
-0.09238857 0.036525715 0.75200003 16579836
-0.090956196 0.036525715 0.75200003 16579836
-0.089523815 0.036525715 0.75200003 16579836
-0.088091433 0.036525715 0.75200003 16579836
-0.086659051 0.036525715 0.75200003 16579836
-0.08522667 0.036525715 0.75200003 16579836
-0.083794288 0.036525715 0.75200003 16579836
-0.082361907 0.036525715 0.75200003 16579836
-0.080929525 0.036525715 0.75200003 16579836
-0.079497144 0.036525715 0.75200003 16579836
-0.078064762 0.036525715 0.75200003 16579836
-0.076836191 0.036622856 0.75400001 16579836
-0.075399995 0.036622856 0.75400001 16711422
-0.074061908 0.03667143 0.75500005 16646142
-0.072623812 0.03667143 0.75500005 14474973
-0.071562864 0.036865719 0.75900006 11455231
-0.071040951 0.037351429 0.76900005 9481447
-0.069576196 0.037351429 0.76900005 6726399
-0.068288572 0.037448574 0.77100003 6265855
-0.066820003 0.037448574 0.77100003 5216767
-0.065351434 0.037448574 0.77100003 5545727
-0.063882858 0.037448574 0.77100003 5150975
-0.062414289 0.037448574 0.77100003 4756223
-0.060787622 0.037351429 0.76900005 4822015
-0.05932286 0.037351429 0.76900005 5019391
-0.05800857 0.037448574 0.77100003 5149951
-0.056540001 0.037448574 0.77100003 5215743
-0.055071428 0.037448574 0.77100003 5215999
-0.053602856 0.037448574 0.77100003 5215999
-0.052134287 0.037448574 0.77100003 4887807
-0.050665714 0.037448574 0.77100003 4822015
-0.049197145 0.037448574 0.77100003 5609471
-0.047604766 0.037351429 0.76900005 5938431
-0.04614 0.037351429 0.76900005 6134783
-0.044675242 0.037351429 0.76900005 6200575
-0.043098096 0.037254285 0.76700002 6200575
-0.041637145 0.037254285 0.76700002 6792703
-0.04017619 0.037254285 0.76700002 8694783
-0.03871524 0.037254285 0.76700002 4023491
-0.037254285 0.037254285 0.76700002 808631
-0.035980001 0.037448574 0.77100003 1729733
-0.13731143 0.038917147 0.77100003 7242345
-0.13584286 0.038917147 0.77100003 6518622
-0.13437429 0.038917147 0.77100003 4947167
-0.13290572 0.038917147 0.77100003 4881374
-0.13143714 0.038917147 0.77100003 3900139
-0.12996858 0.038917147 0.77100003 3900139
-0.1285 0.038917147 0.77100003 3704045
-0.12670191 0.038816195 0.76900005 3704045
-0.12523715 0.038816195 0.76900005 3376879
-0.12409429 0.038917147 0.77100003 3508465
-0.12262572 0.038917147 0.77100003 3639281
-0.12115715 0.038917147 0.77100003 3705074
-0.11968857 0.038917147 0.77100003 3966704
-0.11822 0.038917147 0.77100003 4164083
-0.11675143 0.038917147 0.77100003 3836399
-0.11498382 0.038816195 0.76900005 4362743
-0.11351905 0.038816195 0.76900005 4952059
-0.11205429 0.038816195 0.76900005 5083645
-0.11058953 0.038816195 0.76900005 5411327
-0.10912477 0.038816195 0.76900005 5213950
-0.10766 0.038816195 0.76900005 5279486
-0.10591905 0.03871524 0.76700002 2581973
-0.10445809 0.03871524 0.76700002 3498684
-0.10299715 0.03871524 0.76700002 8564735
-0.10047715 0.038311433 0.75900006 13290195
-0.098379053 0.038059048 0.75400001 16645631
-0.096685715 0.037958097 0.75200003 16711422
-0.095253341 0.037958097 0.75200003 16711422
-0.093820952 0.037958097 0.75200003 16579836
-0.09238857 0.037958097 0.75200003 16579836
-0.090956196 0.037958097 0.75200003 16579836
-0.089285724 0.037857145 0.75000006 16579836
-0.08785715 0.037857145 0.75000006 16579836
-0.086428575 0.037857145 0.75000006 16579836
-0.08522667 0.037958097 0.75200003 16579836
-0.083794288 0.037958097 0.75200003 16579836
-0.082361907 0.037958097 0.75200003 16579836
-0.080929525 0.037958097 0.75200003 16579836
-0.079497144 0.037958097 0.75200003 16579836
-0.078064762 0.037958097 0.75200003 16579836
-0.076632388 0.037958097 0.75200003 16645629
-0.075399995 0.038059048 0.75400001 16711422
-0.074061908 0.038109526 0.75500005 16580606
-0.072623812 0.038109526 0.75500005 14277851
-0.071374282 0.038210478 0.75700003 12113151
-0.070763811 0.038664766 0.76600003 9678813
-0.069395244 0.03871524 0.76700002 7449855
-0.06793429 0.03871524 0.76700002 6462972
-0.066646673 0.038816195 0.76900005 5676287
-0.065181904 0.038816195 0.76900005 5807871
-0.063717149 0.038816195 0.76900005 5347839
-0.062090475 0.03871524 0.76700002 5084671
-0.060629524 0.03871524 0.76700002 4953343
-0.059168573 0.03871524 0.76700002 5019135
-0.057858098 0.038816195 0.76900005 5019135
-0.056393337 0.038816195 0.76900005 5019135
-0.054928575 0.038816195 0.76900005 4822271
-0.053463813 0.038816195 0.76900005 5019647
-0.051999051 0.038816195 0.76900005 4756991
-0.050534289 0.038816195 0.76900005 4756991
-0.049069528 0.038816195 0.76900005 5544703
-0.047604766 0.038816195 0.76900005 5807871
-0.046020001 0.03871524 0.76700002 6135295
-0.04455905 0.03871524 0.76700002 6135295
-0.043041904 0.038664766 0.76600003 6069503
-0.04158286 0.038664766 0.76600003 6990591
-0.040123809 0.038664766 0.76600003 8695551
-0.038664766 0.038664766 0.76600003 4287430
-0.037205715 0.038664766 0.76600003 809133
-0.035746668 0.038664766 0.76600003 1664442
-0.13695525 0.040280953 0.76900005 6388844
-0.13549049 0.040280953 0.76900005 5928293
-0.13402572 0.040280953 0.76900005 4620782
-0.13256097 0.040280953 0.76900005 4357610
-0.1310962 0.040280953 0.76900005 3572205
-0.12963143 0.040280953 0.76900005 3835377
-0.12816668 0.040280953 0.76900005 3638257
-0.12670191 0.040280953 0.76900005 3638257
-0.12523715 0.040280953 0.76900005 3245552
-0.12377239 0.040280953 0.76900005 3179759
-0.12230762 0.040280953 0.76900005 2786289
-0.12084287 0.040280953 0.76900005 3444219
-0.1193781 0.040280953 0.76900005 4099825
-0.11791334 0.040280953 0.76900005 4362997
-0.11644858 0.040280953 0.76900005 4297204
-0.11498382 0.040280953 0.76900005 5086719
-0.11322381 0.04017619 0.76700002 5872127
-0.11176286 0.04017619 0.76700002 6266879
-0.1103019 0.04017619 0.76700002 6135039
-0.10912477 0.040280953 0.76900005 5674494
-0.10738 0.04017619 0.76700002 5345791
-0.10591905 0.04017619 0.76700002 3043042
-0.1043219 0.040123809 0.76600003 4419786
-0.10286286 0.040123809 0.76600003 7841022
-0.10047715 0.039757144 0.75900006 12237775
-0.098379053 0.039495237 0.75400001 15198460
-0.096685715 0.039390475 0.75200003 16711422
-0.095253341 0.039390475 0.75200003 16711422
-0.093571432 0.039285716 0.75000006 16711422
-0.092142865 0.039285716 0.75000006 16579836
-0.090714291 0.039285716 0.75000006 16579836
-0.089285724 0.039285716 0.75000006 16579836
-0.08785715 0.039285716 0.75000006 16579836
-0.086428575 0.039285716 0.75000006 16579836
-0.085000008 0.039285716 0.75000006 16579836
-0.083571434 0.039285716 0.75000006 16579836
-0.082142867 0.039285716 0.75000006 16579836
-0.080929525 0.039390475 0.75200003 16579836
-0.079497144 0.039390475 0.75200003 16579836
-0.078064762 0.039390475 0.75200003 16645629
-0.076632388 0.039390475 0.75200003 16645629
-0.075399995 0.039495237 0.75400001 16711422
-0.074061908 0.039547618 0.75500005 16186877
-0.072816193 0.039652381 0.75700003 14213087
-0.071374282 0.039652381 0.75700003 11522559
-0.070579059 0.04001905 0.76400006 8956637
-0.069304764 0.040123809 0.76600003 6662399
-0.06793429 0.04017619 0.76700002 5872895
-0.066473335 0.04017619 0.76700002 4955391
-0.06501238 0.04017619 0.76700002 5284351
-0.063551433 0.04017619 0.76700002 4758527
-0.062090475 0.04017619 0.76700002 4824319
-0.060629524 0.04017619 0.76700002 4888319
-0.059168573 0.04017619 0.76700002 5151487
-0.057707619 0.04017619 0.76700002 5151231
-0.056246668 0.04017619 0.76700002 5151231
-0.054785714 0.04017619 0.76700002 5347327
-0.053324763 0.04017619 0.76700002 5413119
-0.051863808 0.04017619 0.76700002 5019647
-0.050402857 0.04017619 0.76700002 5217023
-0.048941903 0.04017619 0.76700002 6202367
-0.047419049 0.040123809 0.76600003 6399743
-0.045960002 0.040123809 0.76600003 6530047
-0.044500954 0.040123809 0.76600003 6398463
-0.043041904 0.040123809 0.76600003 6594559
-0.04158286 0.040123809 0.76600003 7778815
-0.04001905 0.04001905 0.76400006 9286143
-0.038563814 0.04001905 0.76400006 5009608
-0.037108574 0.04001905 0.76400006 3304887
-0.035746668 0.040123809 0.76600003 5476056
-0.13659905 0.041637145 0.76700002 5994858
-0.13513809 0.041637145 0.76700002 5797479
-0.13402572 0.041745719 0.76900005 5080815
-0.13256097 0.041745719 0.76900005 4488678
-0.1310962 0.041745719 0.76900005 3572205
-0.12963143 0.041745719 0.76900005 3637998
-0.12816668 0.041745719 0.76900005 3638259
-0.12670191 0.041745719 0.76900005 3572466
-0.12523715 0.041745719 0.76900005 3442420
-0.12377239 0.041745719 0.76900005 3245041
-0.12230762 0.041745719 0.76900005 2196212
-0.12052857 0.041637145 0.76700002 3051519
-0.11906762 0.041637145 0.76700002 3706873
-0.11760666 0.041637145 0.76700002 3904252
-0.11614572 0.041637145 0.76700002 3838459
-0.11453524 0.04158286 0.76600003 4430591
-0.1130762 0.04158286 0.76600003 5085439
-0.11161715 0.04158286 0.76600003 5545983
-0.1101581 0.04158286 0.76600003 5741567
-0.10884096 0.041637145 0.76700002 5346815
-0.10724001 0.04158286 0.76600003 5477631
-0.10578096 0.04158286 0.76600003 3898601
-0.1043219 0.04158286 0.76600003 5994460
-0.10259429 0.04147429 0.76400006 8231422
-0.10087429 0.041365717 0.76200002 11120841
-0.098379053 0.04093143 0.75400001 14476284
-0.096685715 0.04082286 0.75200003 15199991
-0.095253341 0.04082286 0.75200003 16318463
-0.093571432 0.04071429 0.75000006 16711422
-0.092142865 0.04071429 0.75000006 16711422
-0.090714291 0.04071429 0.75000006 16579836
-0.089285724 0.04071429 0.75000006 16579836
-0.08785715 0.04071429 0.75000006 16579836
-0.086428575 0.04071429 0.75000006 16579836
-0.085000008 0.04071429 0.75000006 16579836
-0.083571434 0.04071429 0.75000006 16579836
-0.082142867 0.04071429 0.75000006 16579836
-0.080929525 0.04082286 0.75200003 16579836
-0.079497144 0.04082286 0.75200003 16579836
-0.078064762 0.04082286 0.75200003 16711422
-0.076632388 0.04082286 0.75200003 16711422
-0.075500011 0.040985718 0.75500005 16579836
-0.074258097 0.041094288 0.75700003 15661051
-0.072816193 0.041094288 0.75700003 13424089
-0.071751431 0.041311432 0.76100004 11455487
-0.070579059 0.04147429 0.76400006 8692186
-0.069304764 0.04158286 0.76600003 5614079
-0.06793429 0.041637145 0.76700002 5021951
-0.06638667 0.04158286 0.76600003 4365567
-0.064927623 0.04158286 0.76600003 4562943
-0.063468575 0.04158286 0.76600003 4299775
-0.062009525 0.04158286 0.76600003 4233983
-0.060550477 0.04158286 0.76600003 4298751
-0.058937147 0.04147429 0.76400006 4561919
-0.057481907 0.04147429 0.76400006 4889599
-0.056173336 0.04158286 0.76600003 4889599
-0.054714285 0.04158286 0.76600003 5019647
-0.053255241 0.04158286 0.76600003 5217023
-0.05179619 0.04158286 0.76600003 5150975
-0.050337147 0.04158286 0.76600003 5743103
-0.048878096 0.04158286 0.76600003 6530559
-0.047295243 0.04147429 0.76400006 6398975
-0.045840003 0.04147429 0.76400006 6071807
-0.044500954 0.04158286 0.76600003 5742847
-0.043041904 0.04158286 0.76600003 6594559
-0.04147429 0.04147429 0.76400006 8239359
-0.04001905 0.04147429 0.76400006 9811967
-0.038563814 0.04147429 0.76400006 5074879
-0.037108574 0.04147429 0.76400006 3959980
-0.13659905 0.043098096 0.76700002 5536383
-0.13513809 0.043098096 0.76700002 6062727
-0.13367715 0.043098096 0.76700002 5213682
-0.1322162 0.043098096 0.76700002 4818924
-0.13075523 0.043098096 0.76700002 4097777
-0.12929429 0.043098096 0.76700002 3834605
-0.12783334 0.043098096 0.76700002 3639029
-0.12637238 0.043098096 0.76700002 3704822
-0.12491143 0.043098096 0.76700002 3573752
-0.12345047 0.043098096 0.76700002 3573752
-0.12198953 0.043098096 0.76700002 2983677
-0.12052857 0.043098096 0.76700002 3575807
-0.11891238 0.043041904 0.76600003 4297727
-0.11745334 0.043041904 0.76600003 4297727
-0.11599429 0.043041904 0.76600003 3838463
-0.1142362 0.042929526 0.76400006 4167423
-0.11278096 0.042929526 0.76400006 5282815
-0.11132572 0.042929526 0.76400006 6072319
-0.10987048 0.042929526 0.76400006 6399487
-0.10841525 0.042929526 0.76400006 6136319
-0.10724001 0.043041904 0.76600003 6136063
-0.10550477 0.042929526 0.76400006 5807103
-0.10404953 0.042929526 0.76400006 6985212
-0.10232572 0.042817142 0.76200002 6524661
-0.10087429 0.042817142 0.76200002 9018568
-0.098509528 0.042423811 0.75500005 12702975
-0.096942857 0.042367619 0.75400001 14869999
-0.095253341 0.042255241 0.75200003 16251647
-0.093571432 0.042142861 0.75000006 16711422
-0.092142865 0.042142861 0.75000006 16711422
-0.090714291 0.042142861 0.75000006 16645629
-0.089285724 0.042142861 0.75000006 16579836
-0.08785715 0.042142861 0.75000006 16579836
-0.08631333 0.042086668 0.74900001 16579836
-0.08488667 0.042086668 0.74900001 16579836
-0.083571434 0.042142861 0.75000006 16579836
-0.082142867 0.042142861 0.75000006 16579836
-0.080929525 0.042255241 0.75200003 16579836
-0.079497144 0.042255241 0.75200003 16645629
-0.078064762 0.042255241 0.75200003 16711422
-0.076836191 0.042367619 0.75400001 16514813
-0.075500011 0.042423811 0.75500005 16251641
-0.074258097 0.042536192 0.75700003 15332858
-0.072816193 0.042536192 0.75700003 12372173
-0.071751431 0.042760953 0.76100004 9750527
