# .PCD v0.7 - Point Cloud Data file format
VERSION 0.7
FIELDS x y z rgba
SIZE 4 4 4 4
TYPE F F F U
COUNT 1 1 1 1
WIDTH 1083
HEIGHT 1
VIEWPOINT 0 0 0 1 0 0 0
POINTS 1083
DATA ascii
-0.094195247 0.025166668 0.75500005 16579836
-0.093002863 0.025233334 0.75700003 16579836
-0.091560952 0.025233334 0.75700003 16579836
-0.089880958 0.025166668 0.75500005 16579836
-0.088442862 0.025166668 0.75500005 16579836
-0.087004766 0.025166668 0.75500005 16579836
-0.085566677 0.025166668 0.75500005 16579836
-0.084128574 0.025166668 0.75500005 16579836
-0.082690477 0.025166668 0.75500005 16579836
-0.081252381 0.025166668 0.75500005 16579836
-0.079814292 0.025166668 0.75500005 16579836
-0.078376196 0.025166668 0.75500005 16579836
-0.0769381 0.025166668 0.75500005 16579836
-0.075399995 0.025133332 0.75400001 16579836
-0.073963813 0.025133332 0.75400001 16579836
-0.072527617 0.025133332 0.75400001 16579836
-0.071091428 0.025133332 0.75400001 16579836
-0.06965524 0.025133332 0.75400001 16579836
-0.068309531 0.025166668 0.75500005 16579836
-0.066871434 0.025166668 0.75500005 16579836
-0.065346666 0.025133332 0.75400001 16579836
-0.063910477 0.025133332 0.75400001 16579836
-0.062474284 0.025133332 0.75400001 16579836
-0.061038099 0.025133332 0.75400001 16579836
-0.059601903 0.025133332 0.75400001 16579836
-0.058165714 0.025133332 0.75400001 16579836
-0.056804765 0.025166668 0.75500005 16579836
-0.055366673 0.025166668 0.75500005 16579836
-0.05385714 0.025133332 0.75400001 16711422
-0.052420951 0.025133332 0.75400001 16711422
-0.050984763 0.025133332 0.75400001 15265259
-0.04954857 0.025133332 0.75400001 14212571
-0.048112381 0.025133332 0.75400001 14738661
-0.046676192 0.025133332 0.75400001 15659763
-0.04524 0.025133332 0.75400001 16382457
-0.043861907 0.025166668 0.75500005 16382457
-0.042423811 0.025166668 0.75500005 16645629
-0.04093143 0.025133332 0.75400001 16579836
-0.039495237 0.025133332 0.75400001 16645629
-0.038059048 0.025133332 0.75400001 16711422
-0.036622856 0.025133332 0.75400001 16711422
-0.035000004 0.025000002 0.75000006 16382457
-0.033571433 0.025000002 0.75000006 13816012
-0.032142859 0.025000002 0.75000006 8552572
-0.13372858 0.026745716 0.75900006 11180933
-0.13193429 0.026675239 0.75700003 13223866
-0.13049237 0.026675239 0.75700003 16777202
-0.12905048 0.026675239 0.75700003 16711422
-0.12760857 0.026675239 0.75700003 16579836
-0.12616667 0.026675239 0.75700003 16579836
-0.12472476 0.026675239 0.75700003 16579836
-0.12295716 0.026604762 0.75500005 16579836
-0.12151905 0.026604762 0.75500005 16579836
-0.12008096 0.026604762 0.75500005 16579836
-0.11864287 0.026604762 0.75500005 16579836
-0.11720477 0.026604762 0.75500005 16579836
-0.11576667 0.026604762 0.75500005 16579836
-0.11432858 0.026604762 0.75500005 16579836
-0.11289049 0.026604762 0.75500005 16579836
-0.11145239 0.026604762 0.75500005 16579836
-0.11001429 0.026604762 0.75500005 16579836
-0.10886382 0.026675239 0.75700003 16579836
-0.10742191 0.026675239 0.75700003 16579836
-0.10626 0.026745716 0.75900006 16579836
-0.1045381 0.026675239 0.75700003 16579836
-0.10309619 0.026675239 0.75700003 16579836
-0.10165429 0.026675239 0.75700003 16579836
-0.10021239 0.026675239 0.75700003 16579836
-0.098770484 0.026675239 0.75700003 16579836
-0.097328581 0.026675239 0.75700003 16579836
-0.095633343 0.026604762 0.75500005 16579836
-0.094195247 0.026604762 0.75500005 16579836
-0.093002863 0.026675239 0.75700003 16579836
-0.091560952 0.026675239 0.75700003 16579836
-0.089880958 0.026604762 0.75500005 16579836
-0.088442862 0.026604762 0.75500005 16579836
-0.087004766 0.026604762 0.75500005 16579836
-0.085566677 0.026604762 0.75500005 16579836
-0.084128574 0.026604762 0.75500005 16579836
-0.082690477 0.026604762 0.75500005 16579836
-0.081252381 0.026604762 0.75500005 16579836
-0.079814292 0.026604762 0.75500005 16579836
-0.078376196 0.026604762 0.75500005 16579836
-0.0769381 0.026604762 0.75500005 16579836
-0.075399995 0.026569525 0.75400001 16579836
-0.073963813 0.026569525 0.75400001 16579836
-0.072527617 0.026569525 0.75400001 16579836
-0.071091428 0.026569525 0.75400001 16579836
-0.06965524 0.026569525 0.75400001 16579836
-0.068309531 0.026604762 0.75500005 16645629
-0.066871434 0.026604762 0.75500005 16645629
-0.065433331 0.026604762 0.75500005 16645629
-0.063995242 0.026604762 0.75500005 16645629
-0.062557146 0.026604762 0.75500005 16645629
-0.06111905 0.026604762 0.75500005 16645629
-0.059601903 0.026569525 0.75400001 16645629
-0.058165714 0.026569525 0.75400001 16645629
-0.056955241 0.026675239 0.75700003 16645629
-0.055366673 0.026604762 0.75500005 16645629
-0.053928573 0.026604762 0.75500005 16711422
-0.05249048 0.026604762 0.75500005 16711422
-0.051052384 0.026604762 0.75500005 15265259
-0.04954857 0.026569525 0.75400001 14541536
-0.048112381 0.026569525 0.75400001 14342374
-0.046676192 0.026569525 0.75400001 16381951
-0.04524 0.026569525 0.75400001 16711422
-0.043803807 0.026569525 0.75400001 16711422
-0.042367619 0.026569525 0.75400001 16711422
-0.04093143 0.026569525 0.75400001 16711422
-0.039495237 0.026569525 0.75400001 16711422
-0.038059048 0.026569525 0.75400001 16711422
-0.036622856 0.026569525 0.75400001 16711422
-0.035186667 0.026569525 0.75400001 16448250
-0.033571433 0.026428573 0.75000006 13618899
-0.032142859 0.026428573 0.75000006 8552838
-0.13337618 0.028117143 0.75700003 11640457
-0.13193429 0.028117143 0.75700003 14076604
-0.13049237 0.028117143 0.75700003 16776430
-0.12905048 0.028117143 0.75700003 16711422
-0.12760857 0.028117143 0.75700003 16711422
-0.12616667 0.028117143 0.75700003 16711422
-0.12472476 0.028117143 0.75700003 16711422
-0.12328286 0.028117143 0.75700003 16711422
-0.12184095 0.028117143 0.75700003 16711422
-0.12039905 0.028117143 0.75700003 16711422
-0.11864287 0.028042858 0.75500005 16711422
-0.11720477 0.028042858 0.75500005 16711422
-0.11576667 0.028042858 0.75500005 16711422
-0.11432858 0.028042858 0.75500005 16711422
-0.11289049 0.028042858 0.75500005 16711422
-0.11145239 0.028042858 0.75500005 16711422
-0.11001429 0.028042858 0.75500005 16711422
-0.10886382 0.028117143 0.75700003 16711422
-0.10742191 0.028117143 0.75700003 16711422
-0.10598001 0.028117143 0.75700003 16711422
-0.1045381 0.028117143 0.75700003 16711422
-0.10309619 0.028117143 0.75700003 16711422
-0.10165429 0.028117143 0.75700003 16711422
-0.10021239 0.028117143 0.75700003 16711422
-0.098770484 0.028117143 0.75700003 16711422
-0.097328581 0.028117143 0.75700003 16711422
-0.09588667 0.028117143 0.75700003 16711422
-0.094444767 0.028117143 0.75700003 16579836
-0.093002863 0.028117143 0.75700003 16579836
-0.091560952 0.028117143 0.75700003 16579836
-0.089880958 0.028042858 0.75500005 16579836
-0.088442862 0.028042858 0.75500005 16579836
-0.087004766 0.028042858 0.75500005 16579836
-0.085566677 0.028042858 0.75500005 16579836
-0.084128574 0.028042858 0.75500005 16579836
-0.082909524 0.028117143 0.75700003 16579836
-0.081252381 0.028042858 0.75500005 16579836
-0.079814292 0.028042858 0.75500005 16579836
-0.078376196 0.028042858 0.75500005 16579836
-0.0769381 0.028042858 0.75500005 16579836
-0.075500011 0.028042858 0.75500005 16579836
-0.074061908 0.028042858 0.75500005 16711422
-0.072623812 0.028042858 0.75500005 16711422
-0.071185715 0.028042858 0.75500005 16711422
-0.069747627 0.028042858 0.75500005 16711422
-0.068309531 0.028042858 0.75500005 16711422
-0.066871434 0.028042858 0.75500005 16711422
-0.065433331 0.028042858 0.75500005 16711422
-0.063995242 0.028042858 0.75500005 16711422
-0.062557146 0.028042858 0.75500005 16711422
-0.06111905 0.028042858 0.75500005 16711422
-0.059839047 0.028117143 0.75700003 16711422
-0.058397144 0.028117143 0.75700003 16711422
-0.056955241 0.028117143 0.75700003 16711422
-0.055513334 0.028117143 0.75700003 16711422
-0.053928573 0.028042858 0.75500005 16711422
-0.05249048 0.028042858 0.75500005 16711422
-0.051052384 0.028042858 0.75500005 16711422
-0.04954857 0.028005714 0.75400001 16711422
-0.048112381 0.028005714 0.75400001 16710398
-0.046676192 0.028005714 0.75400001 16644605
-0.04524 0.028005714 0.75400001 16645118
-0.043803807 0.028005714 0.75400001 16710911
-0.042367619 0.028005714 0.75400001 16645629
-0.04093143 0.028005714 0.75400001 16711422
-0.039495237 0.028005714 0.75400001 16711422
-0.038059048 0.028005714 0.75400001 16711422
-0.036622856 0.028005714 0.75400001 16711422
-0.035186667 0.028005714 0.75400001 15921906
-0.033571433 0.027857145 0.75000006 14406348
-0.032142859 0.027857145 0.75000006 9406080
-0.13481809 0.029559048 0.75700003 8874839
-0.13337618 0.029559048 0.75700003 11374973
-0.13193429 0.029559048 0.75700003 14797245
-0.13049237 0.029559048 0.75700003 16775404
-0.12905048 0.029559048 0.75700003 16711422
-0.12760857 0.029559048 0.75700003 16711422
-0.12616667 0.029559048 0.75700003 16711422
-0.12472476 0.029559048 0.75700003 16711422
-0.12328286 0.029559048 0.75700003 16711422
-0.12184095 0.029559048 0.75700003 16711422
-0.12039905 0.029559048 0.75700003 16711422
-0.11864287 0.029480955 0.75500005 16711422
-0.11720477 0.029480955 0.75500005 16711422
-0.11576667 0.029480955 0.75500005 16711422
-0.11432858 0.029480955 0.75500005 16711422
-0.11289049 0.029480955 0.75500005 16711422
-0.11145239 0.029480955 0.75500005 16711422
-0.11001429 0.029480955 0.75500005 16711422
-0.10886382 0.029559048 0.75700003 16711422
-0.10742191 0.029559048 0.75700003 16711422
-0.10598001 0.029559048 0.75700003 16711422
-0.1045381 0.029559048 0.75700003 16711422
-0.10309619 0.029559048 0.75700003 16711422
-0.10165429 0.029559048 0.75700003 16711422
-0.10021239 0.029559048 0.75700003 16711422
-0.098770484 0.029559048 0.75700003 16711422
-0.097328581 0.029559048 0.75700003 16711674
-0.09588667 0.029559048 0.75700003 16711674
-0.094444767 0.029559048 0.75700003 16645629
-0.093002863 0.029559048 0.75700003 16579836
-0.091560952 0.029559048 0.75700003 16579836
-0.090119049 0.029559048 0.75700003 16579836
-0.088442862 0.029480955 0.75500005 16579836
-0.087004766 0.029480955 0.75500005 16579836
-0.085793331 0.029559048 0.75700003 16579836
-0.084351428 0.029559048 0.75700003 16579836
-0.082909524 0.029559048 0.75700003 16579836
-0.081252381 0.029480955 0.75500005 16579836
-0.079814292 0.029480955 0.75500005 16579836
-0.078376196 0.029480955 0.75500005 16579836
-0.0769381 0.029480955 0.75500005 16579836
-0.075500011 0.029480955 0.75500005 16711422
-0.074061908 0.029480955 0.75500005 16711422
-0.072623812 0.029480955 0.75500005 16645629
-0.071185715 0.029480955 0.75500005 16711422
-0.069747627 0.029480955 0.75500005 16711422
-0.068490475 0.029559048 0.75700003 16645629
-0.067048572 0.029559048 0.75700003 16645629
-0.065606669 0.029559048 0.75700003 16645629
-0.064164765 0.029559048 0.75700003 16645629
-0.062722854 0.029559048 0.75700003 16645629
-0.061280955 0.029559048 0.75700003 16645629
-0.059839047 0.029559048 0.75700003 16710911
-0.058397144 0.029559048 0.75700003 16579325
-0.056955241 0.029559048 0.75700003 16643832
-0.055513334 0.029559048 0.75700003 16446453
-0.05407143 0.029559048 0.75700003 16576243
-0.05249048 0.029480955 0.75500005 16378864
-0.051052384 0.029480955 0.75500005 16508660
-0.049614292 0.029480955 0.75500005 16377074
-0.048176192 0.029480955 0.75500005 16440057
-0.046738099 0.029480955 0.75500005 15782127
-0.045300003 0.029480955 0.75500005 15977948
-0.043861907 0.029480955 0.75500005 16570085
-0.042423811 0.029480955 0.75500005 16441579
-0.040985718 0.029480955 0.75500005 16309993
-0.039547618 0.029480955 0.75500005 16243687
-0.038109526 0.029480955 0.75500005 16770031
-0.03667143 0.029480955 0.75500005 16575993
-0.035186667 0.029441904 0.75400001 15852270
-0.033750474 0.029441904 0.75400001 12302530
-0.032314286 0.029441904 0.75400001 9341845
-0.13481809 0.031000955 0.75700003 9269597
-0.13337618 0.031000955 0.75700003 10782836
-0.13193429 0.031000955 0.75700003 15453050
-0.13049237 0.031000955 0.75700003 16770709
-0.12905048 0.031000955 0.75700003 16441320
-0.12760857 0.031000955 0.75700003 16046562
-0.12616667 0.031000955 0.75700003 15718624
-0.12472476 0.031000955 0.75700003 15587038
-0.12328286 0.031000955 0.75700003 15521249
-0.12184095 0.031000955 0.75700003 15192284
-0.12039905 0.031000955 0.75700003 15388121
-0.11895715 0.031000955 0.75700003 15322328
-0.11751524 0.031000955 0.75700003 15121878
-0.11576667 0.030919051 0.75500005 15121878
-0.11432858 0.030919051 0.75500005 15318228
-0.11289049 0.030919051 0.75500005 15252435
-0.11145239 0.030919051 0.75500005 14988491
-0.11001429 0.030919051 0.75500005 14527940
-0.10886382 0.031000955 0.75700003 14922180
-0.10742191 0.031000955 0.75700003 15185352
-0.10598001 0.031000955 0.75700003 14987973
-0.1045381 0.031000955 0.75700003 14659008
-0.10309619 0.031000955 0.75700003 14658754
-0.10165429 0.031000955 0.75700003 14461375
-0.10021239 0.031000955 0.75700003 13607347
-0.098770484 0.031000955 0.75700003 12817831
-0.097328581 0.031000955 0.75700003 12692430
-0.09588667 0.031000955 0.75700003 16772607
-0.094444767 0.031000955 0.75700003 16711422
-0.093002863 0.031000955 0.75700003 16579836
-0.091560952 0.031000955 0.75700003 16579836
-0.090119049 0.031000955 0.75700003 16579836
-0.088442862 0.030919051 0.75500005 16579836
-0.087004766 0.030919051 0.75500005 16579836
-0.083186664 0.030059047 0.73400003 16579836
-0.081788577 0.030059047 0.73400003 16579836
-0.08060953 0.030140955 0.73600006 16579836
-0.079422861 0.030222857 0.73800004 16579836
-0.078017145 0.030222857 0.73800004 16579836
-0.076611429 0.030222857 0.73800004 16579836
-0.075205714 0.030222857 0.73800004 16579836
-0.073800005 0.030222857 0.73800004 16711422
-0.074061908 0.030919051 0.75500005 16711422
-0.072816193 0.031000955 0.75700003 9211020
-0.071374282 0.031000955 0.75700003 9853809
-0.069932379 0.031000955 0.75700003 8801121
-0.068490475 0.031000955 0.75700003 10761868
-0.067048572 0.031000955 0.75700003 10630282
-0.065606669 0.031000955 0.75700003 11153037
-0.064164765 0.031000955 0.75700003 11021451
-0.062722854 0.031000955 0.75700003 11084677
-0.061280955 0.031000955 0.75700003 10755712
-0.059839047 0.031000955 0.75700003 11149191
-0.058397144 0.031000955 0.75700003 11017605
-0.056955241 0.031000955 0.75700003 11211393
-0.055513334 0.031000955 0.75700003 10948221
-0.05407143 0.031000955 0.75700003 11209588
-0.052629523 0.031000955 0.75700003 11143795
-0.051052384 0.030919051 0.75500005 11078506
-0.049614292 0.030919051 0.75500005 11078506
-0.048176192 0.030919051 0.75500005 11209327
-0.046738099 0.030919051 0.75500005 11077741
-0.045300003 0.030919051 0.75500005 11340637
-0.043861907 0.030919051 0.75500005 11538016
-0.042423811 0.030919051 0.75500005 11668333
-0.040985718 0.030919051 0.75500005 11602540
-0.039547618 0.030919051 0.75500005 11209581
-0.038109526 0.030919051 0.75500005 11143788
-0.03667143 0.030919051 0.75500005 10561901
-0.035233337 0.030919051 0.75500005 12140933
-0.033795241 0.030919051 0.75500005 10254198
-0.032357145 0.030919051 0.75500005 11109507
-0.13481809 0.03244286 0.75700003 9598560
-0.13337618 0.03244286 0.75700003 10717041
-0.13193429 0.03244286 0.75700003 12881270
-0.13049237 0.03244286 0.75700003 14526095
-0.12905048 0.03244286 0.75700003 14848926
-0.12760857 0.03244286 0.75700003 14651547
-0.12583335 0.032357145 0.75500005 14784675
-0.12439524 0.032357145 0.75500005 14916261
-0.12295716 0.032357145 0.75500005 14982833
-0.12151905 0.032357145 0.75500005 13272215
-0.12039905 0.03244286 0.75700003 14316688
-0.11864287 0.032357145 0.75500005 12737656
-0.11720477 0.032357145 0.75500005 13781365
-0.11576667 0.032357145 0.75500005 14176123
-0.11432858 0.032357145 0.75500005 14178176
-0.11289049 0.032357145 0.75500005 13783418
-0.11130476 0.032314286 0.75400001 13846136
-0.10986857 0.032314286 0.75400001 13582964
-0.10857619 0.032357145 0.75500005 13910132
-0.1071381 0.032357145 0.75500005 14502269
-0.10598001 0.03244286 0.75700003 14440567
-0.1045381 0.03244286 0.75700003 14111602
-0.10309619 0.03244286 0.75700003 14044015
-0.10165429 0.03244286 0.75700003 12991327
-0.10021239 0.03244286 0.75700003 12467027
-0.098770484 0.03244286 0.75700003 16745628
-0.097328581 0.03244286 0.75700003 13874094
-0.09588667 0.03244286 0.75700003 16773355
-0.094444767 0.03244286 0.75700003 16711422
-0.093002863 0.03244286 0.75700003 16579836
-0.088658094 0.031414285 0.73300004 16579836
-0.087261908 0.031414285 0.73300004 16579836
-0.085865714 0.031414285 0.73300004 16579836
-0.084469534 0.031414285 0.73300004 16579836
-0.08307334 0.031414285 0.73300004 16579836
-0.081677146 0.031414285 0.73300004 16579836
-0.080390476 0.031457145 0.73400003 16579836
-0.078992382 0.031457145 0.73400003 16579836
-0.077594288 0.031457145 0.73400003 16579836
-0.076196194 0.031457145 0.73400003 16579836
-0.0747981 0.031457145 0.73400003 16579836
-0.073300004 0.031414285 0.73300004 16711422
-0.07190381 0.031414285 0.73300004 16711422
-0.072816193 0.03244286 0.75700003 12698049
-0.071374282 0.03244286 0.75700003 12404153
-0.069932379 0.03244286 0.75700003 10035605
-0.068490475 0.03244286 0.75700003 12389748
-0.067048572 0.03244286 0.75700003 12981885
-0.065606669 0.03244286 0.75700003 13307268
-0.063995242 0.032357145 0.75500005 13504647
-0.062557146 0.032357145 0.75500005 13372800
-0.06111905 0.032357145 0.75500005 13570179
-0.059680957 0.032357145 0.75500005 13503882
-0.058242857 0.032357145 0.75500005 13635468
-0.056804765 0.032357145 0.75500005 13307014
-0.055366673 0.032357145 0.75500005 13438600
-0.053928573 0.032357145 0.75500005 13307266
-0.05249048 0.032357145 0.75500005 13373059
-0.051052384 0.032357145 0.75500005 13307266
-0.049614292 0.032357145 0.75500005 13307266
-0.048176192 0.032357145 0.75500005 13438341
-0.046738099 0.032357145 0.75500005 13504134
-0.045300003 0.032357145 0.75500005 13372800
-0.043803807 0.032314286 0.75400001 13570179
-0.042367619 0.032314286 0.75400001 13438343
-0.04093143 0.032314286 0.75400001 13569929
-0.039495237 0.032314286 0.75400001 13438350
-0.038109526 0.032357145 0.75500005 13569936
-0.03667143 0.032357145 0.75500005 11866275
-0.035233337 0.032357145 0.75500005 13313721
-0.033795241 0.032357145 0.75500005 10314610
-0.032357145 0.032357145 0.75500005 11893642
-0.13372858 0.03397429 0.75900006 8151368
-0.13193429 0.033884764 0.75700003 10107952
-0.13049237 0.033884764 0.75700003 8199955
-0.12905048 0.033884764 0.75700003 11016995
-0.12727144 0.033795241 0.75500005 10161686
-0.12583335 0.033795241 0.75500005 10756402
-0.12439524 0.033795241 0.75500005 9703714
-0.12295716 0.033795241 0.75500005 11019849
-0.12151905 0.033795241 0.75500005 9638196
-0.12008096 0.033795241 0.75500005 10750812
-0.11864287 0.033795241 0.75500005 10685019
-0.11704952 0.033750474 0.75400001 11340637
-0.11561333 0.033750474 0.75400001 11340637
-0.11417715 0.033750474 0.75400001 11668582
-0.11274095 0.033750474 0.75400001 11471203
-0.11130476 0.033750474 0.75400001 11602787
-0.10986857 0.033750474 0.75400001 11536994
-0.10857619 0.033795241 0.75500005 11668331
-0.1071381 0.033795241 0.75500005 11470952
-0.10598001 0.033884764 0.75700003 11799658
-0.1045381 0.033884764 0.75700003 11668072
-0.10309619 0.033884764 0.75700003 11472725
-0.10165429 0.033884764 0.75700003 10420293
-0.10021239 0.033884764 0.75700003 11224196
-0.098770484 0.033884764 0.75700003 16765695
-0.097585723 0.03397429 0.75900006 16645629
-0.09588667 0.033884764 0.75700003 16711422
-0.091450475 0.032810476 0.73300004 16711422
-0.090054289 0.032810476 0.73300004 16579836
-0.088658094 0.032810476 0.73300004 16579836
-0.087261908 0.032810476 0.73300004 16579836
-0.085865714 0.032810476 0.73300004 16579836
-0.084469534 0.032810476 0.73300004 16579836
-0.08307334 0.032810476 0.73300004 16579836
-0.081677146 0.032810476 0.73300004 16579836
-0.08028096 0.032810476 0.73300004 16579836
-0.078884766 0.032810476 0.73300004 16579836
-0.077488579 0.032810476 0.73300004 16579836
-0.076092385 0.032810476 0.73300004 16579836
-0.074696198 0.032810476 0.73300004 16579836
-0.073300004 0.032810476 0.73300004 16645629
-0.07190381 0.032810476 0.73300004 16711422
-0.070507623 0.032810476 0.73300004 16711422
-0.071185715 0.033795241 0.75500005 16643071
-0.069747627 0.033795241 0.75500005 10590115
-0.068309531 0.033795241 0.75500005 12740513
-0.066871434 0.033795241 0.75500005 14582717
-0.065433331 0.033795241 0.75500005 14385077
-0.063995242 0.033795241 0.75500005 14779835
-0.062557146 0.033795241 0.75500005 14385590
-0.06111905 0.033795241 0.75500005 14911934
-0.059680957 0.033795241 0.75500005 14451390
-0.058242857 0.033795241 0.75500005 14648769
-0.056804765 0.033795241 0.75500005 14451392
-0.055366673 0.033795241 0.75500005 14714564
-0.053928573 0.033795241 0.75500005 14385086
-0.05249048 0.033795241 0.75500005 14648258
-0.050984763 0.033750474 0.75400001 14319293
-0.04954857 0.033750474 0.75400001 14253500
-0.048112381 0.033750474 0.75400001 14253500
-0.046676192 0.033750474 0.75400001 14253500
-0.04524 0.033750474 0.75400001 14187458
-0.043803807 0.033750474 0.75400001 14253251
-0.042367619 0.033750474 0.75400001 14188232
-0.04093143 0.033750474 0.75400001 14385611
-0.039495237 0.033750474 0.75400001 14058193
-0.038059048 0.033750474 0.75400001 14452951
-0.036622856 0.033750474 0.75400001 13537759
-0.035186667 0.033750474 0.75400001 10906039
-0.033750474 0.033750474 0.75400001 9332379
-0.032314286 0.033750474 0.75400001 10977204
-0.13372858 0.035420001 0.75900006 9138773
-0.13193429 0.035326667 0.75700003 11294852
-0.13014764 0.035233337 0.75500005 11689610
-0.12870952 0.035233337 0.75500005 13526189
-0.12727144 0.035233337 0.75500005 13394603
-0.12583335 0.035233337 0.75500005 13461168
-0.12439524 0.035233337 0.75500005 13461168
-0.12279429 0.035186667 0.75400001 13657782
-0.1213581 0.035186667 0.75400001 13789368
-0.1199219 0.035186667 0.75400001 13986747
-0.11848572 0.035186667 0.75400001 13855161
-0.11673905 0.035093337 0.75200003 13921206
-0.11530667 0.035093337 0.75200003 13921206
-0.11387429 0.035093337 0.75200003 14249923
-0.1124419 0.035093337 0.75200003 14249923
-0.11100953 0.035093337 0.75200003 14250430
-0.10957715 0.035093337 0.75200003 14316223
-0.10843238 0.035186667 0.75400001 14185157
-0.1071381 0.035233337 0.75500005 14382536
-0.10598001 0.035326667 0.75700003 14384580
-0.1045381 0.035326667 0.75700003 14187201
-0.10309619 0.035326667 0.75700003 13333434
-0.10165429 0.035326667 0.75700003 12543918
-0.10021239 0.035326667 0.75700003 13803717
-0.098770484 0.035326667 0.75700003 16772095
-0.093857147 0.034066666 0.73000002 16711422
-0.092466667 0.034066666 0.73000002 16711422
-0.091200955 0.034113333 0.73100001 16579836
-0.089808576 0.034113333 0.73100001 16579836
-0.088658094 0.03420667 0.73300004 16579836
-0.087261908 0.03420667 0.73300004 16579836
-0.085865714 0.03420667 0.73300004 16579836
-0.084469534 0.03420667 0.73300004 16579836
-0.08307334 0.03420667 0.73300004 16579836
-0.081677146 0.03420667 0.73300004 16579836
-0.08028096 0.03420667 0.73300004 16579836
-0.078884766 0.03420667 0.73300004 16579836
-0.077488579 0.03420667 0.73300004 16579836
-0.076092385 0.03420667 0.73300004 16579836
-0.074696198 0.03420667 0.73300004 16579836
-0.073300004 0.03420667 0.73300004 16579836
-0.07190381 0.03420667 0.73300004 16645629
-0.070507623 0.03420667 0.73300004 16711422
-0.069111429 0.03420667 0.73300004 16711422
-0.069747627 0.035233337 0.75500005 11579568
-0.068309531 0.035233337 0.75500005 11038161
-0.066782854 0.035186667 0.75400001 12748779
-0.065346666 0.035186667 0.75400001 12682979
-0.063910477 0.035186667 0.75400001 13340909
-0.062474284 0.035186667 0.75400001 12355302
-0.061038099 0.035186667 0.75400001 12947439
-0.059601903 0.035186667 0.75400001 12421352
-0.058165714 0.035186667 0.75400001 12947696
-0.056729525 0.035186667 0.75400001 12552940
-0.055293337 0.035186667 0.75400001 13013491
-0.05385714 0.035186667 0.75400001 12421354
-0.052281909 0.035093337 0.75200003 12881905
-0.050849527 0.035093337 0.75200003 12553197
-0.049417142 0.035093337 0.75200003 12487404
-0.047984764 0.035093337 0.75200003 12618731
-0.046552382 0.035093337 0.75200003 12881903
-0.045120001 0.035093337 0.75200003 12620527
-0.043687619 0.035093337 0.75200003 12883699
-0.042255241 0.035093337 0.75200003 13082362
-0.04082286 0.035093337 0.75200003 13148155
-0.039390475 0.035093337 0.75200003 13151998
-0.037958097 0.035093337 0.75200003 13415167
-0.036525715 0.035093337 0.75200003 13483775
-0.035093337 0.035093337 0.75200003 8878272
-0.033660952 0.035093337 0.75200003 7233424
-0.032314286 0.035186667 0.75400001 9470386
-0.030878095 0.035186667 0.75400001 10195348
-0.13284762 0.036622856 0.75400001 9076836
-0.13141142 0.036622856 0.75400001 9663935
-0.12997523 0.036622856 0.75400001 11637725
-0.1281981 0.036525715 0.75200003 11834089
-0.12676571 0.036525715 0.75200003 12228847
-0.12533334 0.036525715 0.75200003 12032747
-0.12390096 0.036525715 0.75200003 12098540
-0.12214287 0.036428574 0.75000006 12229360
-0.12071429 0.036428574 0.75000006 12360946
-0.11928572 0.036428574 0.75000006 12491508
-0.11785715 0.036428574 0.75000006 12688887
-0.11642858 0.036428574 0.75000006 12558064
-0.11500001 0.036428574 0.75000006 12623857
-0.11357144 0.036428574 0.75000006 12360703
-0.11214286 0.036428574 0.75000006 12492287
-0.11071429 0.036428574 0.75000006 12427001
-0.10928572 0.036428574 0.75000006 12361208
-0.10814476 0.036525715 0.75200003 12427005
-0.10671239 0.036525715 0.75200003 12492798
-0.10528 0.036525715 0.75200003 12427512
-0.10426191 0.03667143 0.75500005 11835375
-0.10309619 0.036768574 0.75700003 11308022
-0.10165429 0.036768574 0.75700003 15189759
-0.096373342 0.035360001 0.72800004 16445951
-0.09498667 0.035360001 0.72800004 16775935
-0.093600005 0.035360001 0.72800004 16711422
-0.09221334 0.035360001 0.72800004 16579836
-0.091076195 0.035457142 0.73000002 16579836
-0.089685716 0.035457142 0.73000002 16579836
-0.088416189 0.035505716 0.73100001 16579836
-0.08702381 0.035505716 0.73100001 16579836
-0.08563143 0.035505716 0.73100001 16579836
-0.084123813 0.035457142 0.73000002 16579836
-0.082733333 0.035457142 0.73000002 16579836
-0.081342861 0.035457142 0.73000002 16579836
-0.080061905 0.035505716 0.73100001 16579836
-0.078669526 0.035505716 0.73100001 16579836
-0.077277139 0.035505716 0.73100001 16579836
-0.075884759 0.035505716 0.73100001 16579836
-0.07449238 0.035505716 0.73100001 16579836
-0.072999999 0.035457142 0.73000002 16579836
-0.071609527 0.035457142 0.73000002 16579836
-0.070219047 0.035457142 0.73000002 16711422
-0.068922862 0.035505716 0.73100001 16711422
-0.067530476 0.035505716 0.73100001 12500670
-0.068038099 0.036525715 0.75200003 10130175
-0.066605717 0.036525715 0.75200003 10656511
-0.065000005 0.036428574 0.75000006 10853887
-0.063571438 0.036428574 0.75000006 10985471
-0.062060002 0.03638 0.74900001 10459903
-0.060633335 0.03638 0.74900001 10262527
-0.059206665 0.03638 0.74900001 10328063
-0.057857145 0.036428574 0.75000006 10525439
-0.056428574 0.036428574 0.75000006 10590975
-0.055000003 0.036428574 0.75000006 10656767
-0.053714287 0.036525715 0.75200003 10525183
-0.052281909 0.036525715 0.75200003 10656767
-0.050849527 0.036525715 0.75200003 10591487
-0.049417142 0.036525715 0.75200003 10459903
-0.047984764 0.036525715 0.75200003 10393855
-0.046552382 0.036525715 0.75200003 10328063
-0.045120001 0.036525715 0.75200003 10328063
-0.043687619 0.036525715 0.75200003 10328063
-0.042142861 0.036428574 0.75000006 10198015
-0.04071429 0.036428574 0.75000006 10198015
-0.039285716 0.036428574 0.75000006 10001919
-0.037857145 0.036428574 0.75000006 10462463
-0.036428574 0.036428574 0.75000006 11252223
-0.035000004 0.036428574 0.75000006 7765203
-0.033660952 0.036525715 0.75200003 5661606
-0.03222857 0.036525715 0.75200003 7109052
-0.030878095 0.036622856 0.75400001 9275802
-0.13249524 0.037958097 0.75200003 7632992
-0.1307143 0.037857145 0.75000006 5206472
-0.12928572 0.037857145 0.75000006 5535437
-0.12785715 0.037857145 0.75000006 4357869
-0.12642859 0.037857145 0.75000006 4686834
-0.12500001 0.037857145 0.75000006 4884719
-0.12357144 0.037857145 0.75000006 4884719
-0.12214287 0.037857145 0.75000006 4950258
-0.12071429 0.037857145 0.75000006 4950258
-0.11912666 0.037806667 0.74900001 4950260
-0.1177 0.037806667 0.74900001 5147639
-0.11627334 0.037806667 0.74900001 5344755
-0.11484667 0.037806667 0.74900001 5607927
-0.11342 0.037806667 0.74900001 5543678
-0.11199334 0.037806667 0.74900001 5412092
-0.11056667 0.037806667 0.74900001 5082364
-0.10914 0.037806667 0.74900001 5213950
-0.10771333 0.037806667 0.74900001 5345023
-0.10628667 0.037806667 0.74900001 5345023
-0.10486 0.037806667 0.74900001 5476604
-0.10426191 0.038109526 0.75500005 3502814
-0.099146672 0.03674667 0.72800004 4356594
-0.097759999 0.03674667 0.72800004 11462143
-0.096373342 0.03674667 0.72800004 16383229
-0.09498667 0.03674667 0.72800004 16580607
-0.093600005 0.03674667 0.72800004 16645629
-0.09221334 0.03674667 0.72800004 16579836
-0.090826668 0.03674667 0.72800004 16579836
-0.089685716 0.036847621 0.73000002 16579836
-0.088295236 0.036847621 0.73000002 16579836
-0.086904764 0.036847621 0.73000002 16579836
-0.085514285 0.036847621 0.73000002 16579836
-0.084123813 0.036847621 0.73000002 16579836
-0.082733333 0.036847621 0.73000002 16579836
-0.081342861 0.036847621 0.73000002 16579836
-0.079952382 0.036847621 0.73000002 16579836
-0.078561909 0.036847621 0.73000002 16579836
-0.07717143 0.036847621 0.73000002 16579836
-0.07578095 0.036847621 0.73000002 16579836
-0.074186668 0.03674667 0.72800004 16579836
-0.072800003 0.03674667 0.72800004 16579836
-0.071413331 0.03674667 0.72800004 16579836
-0.070219047 0.036847621 0.73000002 16711422
-0.068828575 0.036847621 0.73000002 16646142
-0.067530476 0.036898095 0.73100001 12040632
-0.067857146 0.037857145 0.75000006 5871103
-0.066428579 0.037857145 0.75000006 5805311
-0.06491334 0.037806667 0.74900001 5675519
-0.063486665 0.037806667 0.74900001 5872895
-0.06189429 0.037705716 0.74700004 5216767
-0.06047143 0.037705716 0.74700004 5019391
-0.059206665 0.037806667 0.74900001 5085439
-0.057780001 0.037806667 0.74900001 5348607
-0.056353334 0.037806667 0.74900001 5676287
-0.054926667 0.037806667 0.74900001 5676287
-0.053571433 0.037857145 0.75000006 5413375
-0.052281909 0.037958097 0.75200003 5610751
-0.050714288 0.037857145 0.75000006 5807103
-0.049285717 0.037857145 0.75000006 5543935
-0.047857147 0.037857145 0.75000006 5084927
-0.046552382 0.037958097 0.75200003 5216511
-0.045000002 0.037857145 0.75000006 5543679
-0.043571431 0.037857145 0.75000006 5477887
-0.042086668 0.037806667 0.74900001 5018623
-0.040660001 0.037806667 0.74900001 5281791
-0.039233334 0.037806667 0.74900001 5413119
-0.037806667 0.037806667 0.74900001 6334207
-0.036282856 0.037705716 0.74700004 8957951
-0.03486 0.037705716 0.74700004 5273553
-0.033571433 0.037857145 0.75000006 1528480
-0.03222857 0.037958097 0.75200003 4094407
-0.030878095 0.038059048 0.75400001 8880799
-0.13196667 0.039233334 0.74900001 7239265
-0.13019143 0.039128575 0.74700004 4946135
-0.12876858 0.039128575 0.74700004 5340893
-0.12734573 0.039128575 0.74700004 4817393
-0.12626 0.039233334 0.74900001 4817393
-0.12483333 0.039233334 0.74900001 4490227
-0.12340666 0.039233334 0.74900001 4687606
-0.12198 0.039233334 0.74900001 4884474
-0.12055333 0.039233334 0.74900001 5279231
-0.11880857 0.039128575 0.74700004 5147898
-0.11738572 0.039128575 0.74700004 5279484
-0.11580762 0.039076194 0.74600005 5476602
-0.11438668 0.039076194 0.74600005 5608188
-0.11311714 0.039128575 0.74700004 5740285
-0.11169429 0.039128575 0.74700004 6003455
-0.11027143 0.039128575 0.74700004 5740287
-0.10884858 0.039128575 0.74700004 5674494
-0.10742572 0.039128575 0.74700004 5805311
-0.10600287 0.039128575 0.74700004 5871103
-0.10458001 0.039128575 0.74700004 5805311
-0.10315715 0.039128575 0.74700004 3831525
-0.099146672 0.038133334 0.72800004 6062070
-0.097759999 0.038133334 0.72800004 13036031
-0.096373342 0.038133334 0.72800004 16711422
-0.094856195 0.038080957 0.72700006 16711422
-0.09347143 0.038080957 0.72700006 16645629
-0.092086673 0.038080957 0.72700006 16579836
-0.090701908 0.038080957 0.72700006 16579836
-0.089440003 0.038133334 0.72800004 16579836
-0.088053338 0.038133334 0.72800004 16579836
-0.086666673 0.038133334 0.72800004 16579836
-0.085280009 0.038133334 0.72800004 16579836
-0.083893336 0.038133334 0.72800004 16579836
-0.082506672 0.038133334 0.72800004 16579836
-0.081008576 0.038080957 0.72700006 16579836
-0.079623811 0.038080957 0.72700006 16579836
-0.07834667 0.038133334 0.72800004 16579836
-0.076960005 0.038133334 0.72800004 16579836
-0.075469524 0.038080957 0.72700006 16579836
-0.074084766 0.038080957 0.72700006 16579836
-0.072700009 0.038080957 0.72700006 16579836
-0.071315244 0.038080957 0.72700006 16579836
-0.069930486 0.038080957 0.72700006 16711422
-0.068828575 0.038238097 0.73000002 16646142
-0.067438096 0.038238097 0.73000002 12566976
-0.067857146 0.039285716 0.75000006 6725375
-0.066162854 0.039128575 0.74700004 6462207
-0.064740002 0.039128575 0.74700004 6332671
-0.063317142 0.039128575 0.74700004 6266879
-0.061811436 0.039076194 0.74600005 6070015
-0.06039048 0.039076194 0.74600005 6070015
-0.058969527 0.039076194 0.74600005 6266879
-0.057548571 0.039076194 0.74600005 6332671
-0.056127623 0.039076194 0.74600005 6398463
-0.054780003 0.039128575 0.74700004 6595839
-0.053357143 0.039128575 0.74700004 6398463
-0.052073333 0.039233334 0.74900001 6398463
-0.050646666 0.039233334 0.74900001 6333183
-0.049219999 0.039233334 0.74900001 6267391
-0.047793336 0.039233334 0.74900001 6200831
-0.046428576 0.039285716 0.75000006 6200831
-0.044939999 0.039233334 0.74900001 6200831
-0.043513332 0.039233334 0.74900001 6332415
-0.041974287 0.039128575 0.74700004 6266879
-0.040551431 0.039128575 0.74700004 6661631
-0.039128575 0.039128575 0.74700004 6792703
-0.037705716 0.039128575 0.74700004 7253247
-0.036282856 0.039128575 0.74700004 9286655
-0.03486 0.039128575 0.74700004 5799635
-0.033437144 0.039128575 0.74700004 2382264
-0.032314286 0.039495237 0.75400001 4092882
-0.030878095 0.039495237 0.75400001 8092333
-0.13143811 0.040497147 0.74600005 6780263
-0.13001715 0.040497147 0.74600005 5340893
-0.1285962 0.040497147 0.74600005 5340893
-0.12734573 0.040551431 0.74700004 4293107
-0.12626 0.040660001 0.74900001 4227314
-0.12483333 0.040660001 0.74900001 4162543
-0.12340666 0.040660001 0.74900001 4491508
-0.12165429 0.040551431 0.74700004 4753910
-0.12023143 0.040551431 0.74700004 4885496
-0.11880857 0.040551431 0.74700004 5017082
-0.11722858 0.040497147 0.74600005 5148668
-0.11580762 0.040497147 0.74600005 5214972
-0.11438668 0.040497147 0.74600005 5214972
-0.11296572 0.040497147 0.74600005 5280765
-0.11124572 0.040388573 0.74400002 5543935
-0.10982857 0.040388573 0.74400002 5543678
-0.10841143 0.040388573 0.74400002 5477885
-0.10728192 0.040497147 0.74600005 5674239
-0.10557714 0.040388573 0.74400002 5674239
-0.10416 0.040388573 0.74400002 5477631
-0.10274286 0.040388573 0.74400002 3372259
-0.10132572 0.040388573 0.74400002 6389225
-0.097759999 0.039520003 0.72800004 13494783
-0.096373342 0.039520003 0.72800004 16711422
-0.094856195 0.039465718 0.72700006 16711422
-0.09347143 0.039465718 0.72700006 16579836
-0.092086673 0.039465718 0.72700006 16579836
-0.090701908 0.039465718 0.72700006 16579836
-0.089317143 0.039465718 0.72700006 16579836
-0.087932393 0.039465718 0.72700006 16579836
-0.086547628 0.039465718 0.72700006 16579836
-0.085162863 0.039465718 0.72700006 16579836
-0.083778106 0.039465718 0.72700006 16579836
-0.082393341 0.039465718 0.72700006 16579836
-0.080785714 0.039357144 0.72500002 16579836
-0.079404764 0.039357144 0.72500002 16579836
-0.078023814 0.039357144 0.72500002 16579836
-0.076854289 0.039465718 0.72700006 16579836
-0.075469524 0.039465718 0.72700006 16579836
-0.074084766 0.039465718 0.72700006 16579836
-0.072700009 0.039465718 0.72700006 16579836
-0.071315244 0.039465718 0.72700006 16579836
-0.069930486 0.039465718 0.72700006 16711422
-0.068545721 0.039465718 0.72700006 16646142
-0.069193333 0.040660001 0.74900001 12435390
-0.067766666 0.040660001 0.74900001 7054335
-0.066162854 0.040551431 0.74700004 6593788
-0.064653337 0.040497147 0.74600005 6726911
-0.063232385 0.040497147 0.74600005 6529535
-0.061811436 0.040497147 0.74600005 6004223
-0.060228571 0.040388573 0.74400002 6070015
-0.05881143 0.040388573 0.74400002 6332159
-0.057394285 0.040388573 0.74400002 6463743
-0.055977143 0.040388573 0.74400002 6398463
-0.054560002 0.040388573 0.74400002 6398463
-0.053142861 0.040388573 0.74400002 6595071
-0.051864766 0.040497147 0.74600005 6595071
-0.050443813 0.040497147 0.74600005 6332671
-0.049022861 0.040497147 0.74600005 6266879
-0.047601905 0.040497147 0.74600005 6332671
-0.046242859 0.040551431 0.74700004 6332671
-0.044760004 0.040497147 0.74600005 6332159
-0.043339051 0.040497147 0.74600005 6397951
-0.041918099 0.040497147 0.74600005 6332159
-0.040497147 0.040497147 0.74600005 6792703
-0.039076194 0.040497147 0.74600005 6661887
-0.037655238 0.040497147 0.74600005 7254015
-0.036234286 0.040497147 0.74600005 9681151
-0.034813333 0.040497147 0.74600005 5930958
-0.033392385 0.040497147 0.74600005 1924534
-0.13250287 0.041805714 0.74400002 6716276
-0.13108571 0.041805714 0.74400002 6058346
-0.12966858 0.041805714 0.74400002 4685798
-0.12825143 0.041805714 0.74400002 4817384
-0.12683429 0.041805714 0.74400002 4096500
-0.12592286 0.041974287 0.74700004 3833328
-0.12450001 0.041974287 0.74700004 3506414
-0.12307715 0.041974287 0.74700004 3901172
-0.12149144 0.041918099 0.74600005 4097781
-0.12007048 0.041918099 0.74600005 4295160
-0.11864953 0.041918099 0.74600005 4098301
-0.11691429 0.041805714 0.74400002 4493055
-0.11549714 0.041805714 0.74400002 4361469
-0.11408 0.041805714 0.74400002 4164090
-0.11266286 0.041805714 0.74400002 4361471
-0.11124572 0.041805714 0.74400002 5019391
-0.10982857 0.041805714 0.74400002 5347071
-0.10841143 0.041805714 0.74400002 5281278
-0.10699429 0.041805714 0.74400002 5346558
-0.10557714 0.041805714 0.74400002 5280765
-0.10388 0.041693337 0.74200004 5018111
-0.10246667 0.041693337 0.74200004 2912742
-0.10105333 0.041693337 0.74200004 5273558
-0.097759999 0.040906668 0.72800004 11129087
-0.09624096 0.040850475 0.72700006 16711420
-0.094856195 0.040850475 0.72700006 16711420
-0.09347143 0.040850475 0.72700006 16711422
-0.091833338 0.040738095 0.72500002 16579836
-0.090452388 0.040738095 0.72500002 16579836
-0.088825718 0.040625714 0.72300005 16579836
-0.087448575 0.040625714 0.72300005 16579836
-0.086309522 0.040738095 0.72500002 16579836
-0.084694296 0.040625714 0.72300005 16579836
-0.083317153 0.040625714 0.72300005 16579836
-0.082166664 0.040738095 0.72500002 16579836
-0.080785714 0.040738095 0.72500002 16579836
-0.079404764 0.040738095 0.72500002 16579836
-0.078023814 0.040738095 0.72500002 16579836
-0.076642863 0.040738095 0.72500002 16579836
-0.075261906 0.040738095 0.72500002 16579836
-0.073880956 0.040738095 0.72500002 16579836
-0.072499998 0.040738095 0.72500002 16579836
-0.071119048 0.040738095 0.72500002 16579836
-0.069738097 0.040738095 0.72500002 16711422
-0.068545721 0.040850475 0.72700006 16646142
-0.067160957 0.040850475 0.72700006 12435390
-0.067766666 0.042086668 0.74900001 7315967
-0.066074289 0.041918099 0.74600005 6987007
-0.064653337 0.041918099 0.74600005 6596095
-0.063062862 0.041805714 0.74400002 6398719
-0.061645716 0.041805714 0.74400002 5938431
-0.06006667 0.041693337 0.74200004 6004223
-0.058653336 0.041693337 0.74200004 6004223
-0.057240006 0.041693337 0.74200004 5938431
-0.055826671 0.041693337 0.74200004 6070015
-0.054413334 0.041693337 0.74200004 6201599
-0.052999999 0.041693337 0.74200004 6201343
-0.051586669 0.041693337 0.74200004 6267135
-0.050173335 0.041693337 0.74200004 6266879
-0.048760001 0.041693337 0.74200004 5937919
-0.04734667 0.041693337 0.74200004 6135551
-0.045933336 0.041693337 0.74200004 6135551
-0.044760004 0.041918099 0.74600005 6135039
-0.04322286 0.041805714 0.74400002 6200831
-0.041805714 0.041805714 0.74400002 6463743
-0.040388573 0.041805714 0.74400002 6990079
-0.038971432 0.041805714 0.74400002 7055615
-0.037554283 0.041805714 0.74400002 7450367
-0.036137141 0.041805714 0.74400002 9549311
-0.03472 0.041805714 0.74400002 5996499
-0.033302858 0.041805714 0.74400002 1924795
-0.13250287 0.04322286 0.74400002 6191733
-0.13108571 0.04322286 0.74400002 5731182
-0.12932001 0.043106668 0.74200004 5080297
-0.12790667 0.043106668 0.74200004 4751332
-0.12649333 0.043106668 0.74200004 3703282
-0.12541714 0.04322286 0.74400002 3571696
-0.12433334 0.043339051 0.74600005 2917105
-0.12291239 0.043339051 0.74600005 3377656
-0.12149144 0.043339051 0.74600005 4033015
-0.11974857 0.04322286 0.74400002 4098808
-0.11833142 0.04322286 0.74400002 3574013
-0.11691429 0.04322286 0.74400002 3902975
-0.11518667 0.043106668 0.74200004 4427263
-0.11377334 0.043106668 0.74200004 4427263
-0.11236 0.043106668 0.74200004 4295679
-0.11094667 0.043106668 0.74200004 5019391
-0.10953334 0.043106668 0.74200004 5543935
-0.10812001 0.043106668 0.74200004 5478143
-0.10670667 0.043106668 0.74200004 5346815
-0.10529334 0.043106668 0.74200004 5281023
-0.10388 0.043106668 0.74200004 5608959
-0.10246667 0.043106668 0.74200004 3635177
-0.10105333 0.043106668 0.74200004 4747981
-0.097759999 0.042293333 0.72800004 9221887
-0.09624096 0.04223524 0.72700006 15263467
-0.094856195 0.04223524 0.72700006 16776703
-0.093214288 0.042119049 0.72500002 16711422
-0.091580003 0.04200286 0.72300005 16579836
-0.090202861 0.04200286 0.72300005 16579836
-0.088702865 0.041944765 0.72200006 16579836
-0.087327629 0.041944765 0.72200006 16579836
-0.086309522 0.042119049 0.72500002 16579836
-0.084577151 0.041944765 0.72200006 16579836
-0.083201908 0.041944765 0.72200006 16579836
-0.081940003 0.04200286 0.72300005 16579836
-0.080785714 0.042119049 0.72500002 16579836
-0.079404764 0.042119049 0.72500002 16579836
-0.078023814 0.042119049 0.72500002 16579836
-0.076431431 0.04200286 0.72300005 16579836
-0.075054288 0.04200286 0.72300005 16579836
-0.073677152 0.04200286 0.72300005 16579836
-0.072300009 0.04200286 0.72300005 16579836
-0.070922859 0.04200286 0.72300005 16645629
-0.069738097 0.042119049 0.72500002 16711422
-0.068545721 0.04223524 0.72700006 16646142
-0.067715243 0.042583812 0.73300004 13093320
-0.066319048 0.042583812 0.73300004 8958463
-0.064922862 0.042583812 0.73300004 7642612
-0.064306669 0.043106668 0.74200004 6924287
-0.062893331 0.043106668 0.74200004 6661119
-0.061480001 0.043106668 0.74200004 6070015
-0.06006667 0.043106668 0.74200004 6070015
-0.058574289 0.043048576 0.74100006 5349375
-0.057162859 0.043048576 0.74100006 5020415
-0.055751432 0.043048576 0.74100006 4364287
-0.054340001 0.043048576 0.74100006 5087999
-0.052928574 0.043048576 0.74100006 5872895
-0.051517144 0.043048576 0.74100006 6070271
-0.050105717 0.043048576 0.74100006 6070015
-0.04869429 0.043048576 0.74100006 6004223
-0.04728286 0.043048576 0.74100006 6135551
-0.045871433 0.043048576 0.74100006 6135551
-0.044460002 0.043048576 0.74100006 6003711
-0.043048576 0.043048576 0.74100006 6266879
-0.041637145 0.043048576 0.74100006 6595071
-0.040225718 0.043048576 0.74100006 6989823
-0.038814291 0.043048576 0.74100006 7056127
-0.037402861 0.043048576 0.74100006 7516671
-0.035991434 0.043048576 0.74100006 9549311
-0.034626666 0.043106668 0.74200004 5864913
-0.033213332 0.043106668 0.74200004 1465532
-0.031800002 0.043106668 0.74200004 2584013
-0.13250287 0.044640001 0.74400002 5863813
-0.13073334 0.044520002 0.74200004 6061192
-0.12932001 0.044520002 0.74200004 4753903
-0.1277343 0.044460002 0.74100006 4556524
-0.12632287 0.044460002 0.74100006 3902194
-0.12508002 0.044520002 0.74200004 3902194
-0.12366667 0.044520002 0.74200004 3639797
-0.12225334 0.044520002 0.74200004 3771383
-0.12084001 0.044520002 0.74200004 3967483
-0.11942668 0.044520002 0.74200004 4362239
-0.11801334 0.044520002 0.74200004 4033535
-0.11660001 0.044520002 0.74200004 4033535
-0.11518667 0.044520002 0.74200004 4230655
-0.11377334 0.044520002 0.74200004 4691199
-0.11236 0.044520002 0.74200004 4296191
-0.11094667 0.044520002 0.74200004 4954111
-0.10953334 0.044520002 0.74200004 5544191
-0.10812001 0.044520002 0.74200004 5346815
-0.10670667 0.044520002 0.74200004 4953343
-0.10515144 0.044460002 0.74100006 5019135
-0.10346 0.044340003 0.73900002 5412351
-0.10205238 0.044340003 0.73900002 3372779
-0.10064476 0.044340003 0.73900002 4027859
-0.097759999 0.043680001 0.72800004 6593786
-0.09624096 0.043620002 0.72700006 13093586
-0.094856195 0.043620002 0.72700006 16514815
-0.093214288 0.043500002 0.72500002 16711422
-0.091580003 0.043380003 0.72300005 16645629
-0.090202861 0.043380003 0.72300005 16579836
-0.088702865 0.043320004 0.72200006 16579836
-0.087327629 0.043320004 0.72200006 16579836
-0.085952386 0.043320004 0.72200006 16579836
-0.084577151 0.043320004 0.72200006 16579836
-0.083201908 0.043320004 0.72200006 16579836
-0.081826672 0.043320004 0.72200006 16579836
-0.08056286 0.043380003 0.72300005 16579836
-0.079185717 0.043380003 0.72300005 16579836
-0.077808574 0.043380003 0.72300005 16579836
-0.076325722 0.043320004 0.72200006 16579836
-0.074950479 0.043320004 0.72200006 16579836
-0.073677152 0.043380003 0.72300005 16579836
-0.072300009 0.043380003 0.72300005 16645629
-0.070922859 0.043380003 0.72300005 16645629
-0.069738097 0.043500002 0.72500002 16711422
-0.068545721 0.043620002 0.72700006 16120316
-0.067715243 0.043979999 0.73300004 13357010
-0.066319048 0.043979999 0.73300004 9221375
-0.064922862 0.043979999 0.73300004 8234490
-0.064046666 0.044340003 0.73900002 6663167
-0.062808573 0.044460002 0.74100006 6399999
-0.061397146 0.044460002 0.74100006 6203647
-0.05998572 0.044460002 0.74100006 6072063
-0.058574289 0.044460002 0.74100006 5153023
-0.057162859 0.044460002 0.74100006 5153023
-0.055600952 0.044340003 0.73900002 5414655
-0.054193333 0.044340003 0.73900002 5480447
-0.052785717 0.044340003 0.73900002 5742079
-0.051378097 0.044340003 0.73900002 5807871
-0.049970478 0.044340003 0.73900002 5807871
-0.048562858 0.044340003 0.73900002 5807871
-0.047091432 0.044280004 0.73800004 6004223
-0.045685716 0.044280004 0.73800004 6267391
-0.044280004 0.044280004 0.73800004 6464255
-0.042932384 0.044340003 0.73900002 6727423
-0.041524764 0.044340003 0.73900002 6793215
-0.040117145 0.044340003 0.73900002 6990591
-0.038709525 0.044340003 0.73900002 7055615
-0.037301905 0.044340003 0.73900002 7516159
-0.035991434 0.044460002 0.74100006 9418239
-0.03458 0.044460002 0.74100006 5931219
-0.033168573 0.044460002 0.74100006 1662913
-0.031757142 0.044460002 0.74100006 2123464
-0.13214667 0.045933336 0.74200004 5863563
-0.13020477 0.045747619 0.73900002 5995149
-0.12879714 0.045747619 0.73900002 4163570
-0.12738952 0.045747619 0.73900002 4097777
-0.12598191 0.045747619 0.73900002 3706101
-0.1245743 0.045747619 0.73900002 3706101
-0.12316667 0.045747619 0.73900002 3640056
-0.12175905 0.045747619 0.73900002 3640056
-0.12035143 0.045747619 0.73900002 3967742
-0.11894382 0.045747619 0.73900002 4033535
-0.11753619 0.045747619 0.73900002 3902719
-0.11644286 0.045871433 0.74100006 3902719
-0.11503144 0.045871433 0.74100006 3771391
-0.11362001 0.045871433 0.74100006 4100351
-0.11220858 0.045871433 0.74100006 4034047
-0.11079714 0.045871433 0.74100006 4691967
-0.10938572 0.045871433 0.74100006 5675775
-0.10797429 0.045871433 0.74100006 5609983
-0.10656286 0.045871433 0.74100006 5281535
-0.10486761 0.045747619 0.73900002 5215743
-0.10332 0.045685716 0.73800004 5412863
-0.10191429 0.045685716 0.73800004 3899637
-0.099555232 0.045252379 0.73100001 3832538
-0.097759999 0.04506667 0.72800004 5345777
-0.09624096 0.045004766 0.72700006 10990016
-0.094856195 0.045004766 0.72700006 16056063
-0.093214288 0.044880953 0.72500002 16646142
-0.091580003 0.044757146 0.72300005 16646142
-0.090202861 0.044757146 0.72300005 16645629
-0.088702865 0.044695243 0.72200006 16579836
-0.087327629 0.044695243 0.72200006 16579836
-0.085714288 0.044571429 0.72000003 16579836
-0.08434286 0.044571429 0.72000003 16579836
-0.083201908 0.044695243 0.72200006 16579836
-0.081826672 0.044695243 0.72200006 16579836
-0.080451436 0.044695243 0.72200006 16579836
-0.079076193 0.044695243 0.72200006 16579836
