# .PCD v0.7 - Point Cloud Data file format
VERSION 0.7
FIELDS x y z rgba
SIZE 4 4 4 4
TYPE F F F U
COUNT 1 1 1 1
WIDTH 1134
HEIGHT 1
VIEWPOINT 0 0 0 1 0 0 0
POINTS 1134
DATA ascii
-0.11442858 0.095102862 0.53400004 5354239
-0.11341143 0.095102862 0.53400004 5026815
-0.11239429 0.095102862 0.53400004 5355775
-0.11137715 0.095102862 0.53400004 5355519
-0.11036 0.095102862 0.53400004 5026559
-0.10934286 0.095102862 0.53400004 4764927
-0.10832573 0.095102862 0.53400004 4830719
-0.10730858 0.095102862 0.53400004 5158911
-0.10629144 0.095102862 0.53400004 5224703
-0.1052743 0.095102862 0.53400004 5290495
-0.10425715 0.095102862 0.53400004 5422079
-0.10324001 0.095102862 0.53400004 5094655
-0.10203144 0.09492477 0.53300005 5094655
-0.10082667 0.094746664 0.53200001 5488639
-0.099625714 0.094568573 0.53100002 5949183
-0.09861429 0.094568573 0.53100002 6342399
-0.097602859 0.094568573 0.53100002 7066111
-0.096591435 0.094568573 0.53100002 8248319
-0.095400006 0.094390482 0.53000003 8643071
-0.094390482 0.094390482 0.53000003 8379903
-0.093380958 0.094390482 0.53000003 7458809
-0.09219715 0.09421239 0.52900004 6737919
-0.091189533 0.09421239 0.52900004 6672127
-0.091545716 0.095637143 0.537 7129855
-0.090522863 0.095637143 0.537 5945590
-0.08369524 0.092609525 0.52000004 11455743
-0.082545727 0.092431433 0.51900005 15593452
-0.0814 0.092253335 0.51800001 16646140
-0.080413334 0.092253335 0.51800001 16711422
-0.079426669 0.092253335 0.51800001 16711422
-0.07828857 0.092075236 0.51700002 16579836
-0.077303812 0.092075236 0.51700002 16514043
-0.076466665 0.092253335 0.51800001 16514043
-0.075479999 0.092253335 0.51800001 16514043
-0.074061908 0.091719054 0.51500005 16514043
-0.054009527 0.094390482 0.53000003 8581119
-0.052999999 0.094390482 0.53000003 7791608
-0.051892385 0.09421239 0.52900004 7070719
-0.050884765 0.09421239 0.52900004 6610175
-0.049877148 0.09421239 0.52900004 6412543
-0.048869528 0.09421239 0.52900004 6280959
-0.047771428 0.094034284 0.528 6280447
-0.046765715 0.094034284 0.528 5754111
-0.045846671 0.09421239 0.52900004 5558015
-0.044839051 0.09421239 0.52900004 5558015
-0.04383143 0.09421239 0.52900004 5623807
-0.042823814 0.09421239 0.52900004 5886975
-0.041816194 0.09421239 0.52900004 5952255
-0.04073143 0.094034284 0.528 5952255
-0.039800957 0.09421239 0.52900004 6082815
-0.038793333 0.09421239 0.52900004 6148607
-0.037785716 0.09421239 0.52900004 5688319
-0.036986664 0.094746664 0.53200001 5622527
-0.035770476 0.09421239 0.52900004 6409983
-0.034762859 0.09421239 0.52900004 6344191
-0.033691429 0.094034284 0.528 6475775
-0.032685712 0.094034284 0.528 7725823
-0.031679999 0.094034284 0.528 8118527
-0.030674286 0.094034284 0.528 7657982
-0.029668571 0.094034284 0.528 6936831
-0.028662857 0.094034284 0.528 6871039
-0.027709527 0.09421239 0.52900004 7001855
-0.026701907 0.09421239 0.52900004 7001855
-0.025694286 0.09421239 0.52900004 7198207
-0.024639999 0.094034284 0.528 7658751
-0.023634285 0.094034284 0.528 9294335
-0.022585714 0.093856193 0.52700001 6202071
-0.021581905 0.093856193 0.52700001 6527985
-0.11726001 0.095940009 0.53300005 6469887
-0.11602667 0.095760003 0.53200001 5811967
-0.11501333 0.095760003 0.53200001 5354495
-0.11421429 0.095940009 0.53300005 5222911
-0.11298667 0.095760003 0.53200001 5223423
-0.11197333 0.095760003 0.53200001 5289215
-0.11096 0.095760003 0.53200001 5355007
-0.10994667 0.095760003 0.53200001 5289215
-0.10893334 0.095760003 0.53200001 5092863
-0.10812287 0.095940009 0.53300005 5224447
-0.10710763 0.095940009 0.53300005 5290495
-0.10629144 0.096120007 0.53400004 5356287
-0.10488 0.095760003 0.53200001 5029375
-0.10386667 0.095760003 0.53200001 5226751
-0.10285334 0.095760003 0.53200001 5816831
-0.10184 0.095760003 0.53200001 5816831
-0.10063715 0.095579997 0.53100002 6079231
-0.099625714 0.095579997 0.53100002 6276607
-0.098428577 0.095400006 0.53000003 6145535
-0.097419053 0.095400006 0.53000003 6803455
-0.096227624 0.095220007 0.52900004 8183039
-0.095220007 0.095220007 0.52900004 8775167
-0.09421239 0.095220007 0.52900004 8643583
-0.093204767 0.095220007 0.52900004 7985659
-0.09219715 0.095220007 0.52900004 7264255
-0.091017142 0.095040001 0.528 6935295
-0.090011425 0.095040001 0.528 6933759
-0.089005716 0.095040001 0.528 6341631
-0.08369524 0.093600005 0.52000004 10996991
-0.082545727 0.093420006 0.51900005 13161446
-0.0814 0.09324 0.51800001 14872063
-0.080413334 0.09324 0.51800001 16448250
-0.079426669 0.09324 0.51800001 16711422
-0.07828857 0.093060002 0.51700002 16711422
-0.077154294 0.092880011 0.51600003 16711422
-0.07602381 0.092700005 0.51500005 16579836
-0.075042859 0.092700005 0.51500005 16514043
-0.074061908 0.092700005 0.51500005 16514043
-0.072939046 0.092519999 0.514 16514043
-0.071959995 0.092519999 0.514 16514043
-0.054009527 0.095400006 0.53000003 7991551
-0.0528 0.095040001 0.528 7333626
-0.051794283 0.095040001 0.528 6873855
-0.05078857 0.095040001 0.528 6544895
-0.049782857 0.095040001 0.528 6412543
-0.048869528 0.095220007 0.52900004 6346751
-0.047771428 0.095040001 0.528 6280959
-0.046765715 0.095040001 0.528 6017791
-0.045846671 0.095220007 0.52900004 6018047
-0.044754285 0.095040001 0.528 5623295
-0.043748572 0.095040001 0.528 5230335
-0.042742856 0.095040001 0.528 5625087
-0.041737143 0.095040001 0.528 6673919
-0.04073143 0.095040001 0.528 6410751
-0.039725713 0.095040001 0.528 6214143
-0.038719997 0.095040001 0.528 6214143
-0.037642859 0.094860002 0.52700001 6083071
-0.03663905 0.094860002 0.52700001 6148863
-0.035635237 0.094860002 0.52700001 6214143
-0.034697141 0.095040001 0.528 6279935
-0.033627622 0.094860002 0.52700001 6674687
-0.032623809 0.094860002 0.52700001 7529983
-0.03162 0.094860002 0.52700001 8184319
-0.03061619 0.094860002 0.52700001 7723775
-0.029668571 0.095040001 0.528 6871295
-0.028662857 0.095040001 0.528 6673919
-0.027657142 0.095040001 0.528 6542847
-0.026651427 0.095040001 0.528 6674431
-0.025645714 0.095040001 0.528 7198719
-0.024593333 0.094860002 0.52700001 7527679
-0.023589525 0.094860002 0.52700001 10082047
-0.022585714 0.094860002 0.52700001 7055576
-0.021581905 0.094860002 0.52700001 6790374
-0.11861905 0.096409529 0.53000003 4758527
-0.11760953 0.096409529 0.53000003 6008575
-0.11682 0.096591435 0.53100002 6010879
-0.11580858 0.096591435 0.53100002 5616127
-0.11479715 0.096591435 0.53100002 4830207
-0.11357144 0.096409529 0.53000003 4698623
-0.11256191 0.096409529 0.53000003 4699135
-0.11155239 0.096409529 0.53000003 4699135
-0.11054286 0.096409529 0.53000003 5158911
-0.10953334 0.096409529 0.53000003 5290495
-0.10852382 0.096409529 0.53000003 4962559
-0.10792 0.096773334 0.53200001 4962559
-0.10690667 0.096773334 0.53200001 4897535
-0.10589334 0.096773334 0.53200001 5160703
-0.10468286 0.096591435 0.53100002 5358079
-0.10367143 0.096591435 0.53100002 5489663
-0.10266001 0.096591435 0.53100002 6211583
-0.10164858 0.096591435 0.53100002 6211583
-0.10044762 0.096409529 0.53000003 6276863
-0.099438101 0.096409529 0.53000003 6474239
-0.098242864 0.096227624 0.52900004 6343167
-0.097235247 0.096227624 0.52900004 6737919
-0.096227624 0.096227624 0.52900004 7920127
-0.095220007 0.096227624 0.52900004 8907007
-0.09421239 0.096227624 0.52900004 8972287
-0.093204767 0.096227624 0.52900004 8116984
-0.09219715 0.096227624 0.52900004 7067647
-0.091017142 0.09604571 0.528 7001855
-0.090011425 0.09604571 0.528 6606591
-0.089005716 0.09604571 0.528 6606591
-0.087000005 0.094954289 0.52200001 7783935
-0.08600571 0.094954289 0.52200001 6862842
-0.084848575 0.094772384 0.52100003 8433151
-0.083856195 0.094772384 0.52100003 10143743
-0.082545727 0.094408579 0.51900005 12701171
-0.0814 0.094226666 0.51800001 13688063
-0.080258101 0.09404476 0.51700002 14935538
-0.079273336 0.09404476 0.51700002 15659261
-0.07828857 0.09404476 0.51700002 16250873
-0.077154294 0.093862861 0.51600003 16711423
-0.075876191 0.093499042 0.514 16711422
-0.07489714 0.093499042 0.514 16645629
-0.073918089 0.093499042 0.514 16579836
-0.072939046 0.093499042 0.514 16514043
-0.071959995 0.093499042 0.514 16514043
-0.070842862 0.093317144 0.51300001 16514043
-0.069865711 0.093317144 0.51300001 16514043
-0.053907622 0.096227624 0.52900004 7860223
-0.0528 0.09604571 0.528 7333885
-0.051794283 0.09604571 0.528 6677503
-0.05078857 0.09604571 0.528 6545919
-0.049782857 0.09604571 0.528 6478847
-0.048869528 0.096227624 0.52900004 6478847
-0.047861908 0.096227624 0.52900004 6150143
-0.046854287 0.096227624 0.52900004 6150143
-0.045846671 0.096227624 0.52900004 5559551
-0.044754285 0.09604571 0.528 5493759
-0.043748572 0.09604571 0.528 5625087
-0.042742856 0.09604571 0.528 5690879
-0.041737143 0.09604571 0.528 6018047
-0.040654287 0.095863812 0.52700001 6018047
-0.039650474 0.095863812 0.52700001 6214143
-0.038646668 0.095863812 0.52700001 6411519
-0.03757143 0.095681906 0.52600002 6937343
-0.036569525 0.095681906 0.52600002 6871551
-0.035567619 0.095681906 0.52600002 7134463
-0.034631427 0.095863812 0.52700001 7923967
-0.033627622 0.095863812 0.52700001 9104895
-0.032561906 0.095681906 0.52600002 9236479
-0.03156 0.095681906 0.52600002 8711167
-0.030558096 0.095681906 0.52600002 7790070
-0.029556191 0.095681906 0.52600002 7068927
-0.028554287 0.095681906 0.52600002 6739967
-0.027604762 0.095863812 0.52700001 6739711
-0.026600951 0.095863812 0.52700001 6805503
-0.025597144 0.095863812 0.52700001 7067647
-0.024593333 0.095863812 0.52700001 7396607
-0.023589525 0.095863812 0.52700001 9754111
-0.022542858 0.095681906 0.52600002 6727640
-0.021540953 0.095681906 0.52600002 7709427
-0.11962858 0.097419053 0.53000003 7838357
-0.11861905 0.097419053 0.53000003 6401535
-0.11760953 0.097419053 0.53000003 6796287
-0.11682 0.097602859 0.53100002 6143487
-0.11580858 0.097602859 0.53100002 5814527
-0.11458096 0.097419053 0.53000003 5487103
-0.11335715 0.097235247 0.52900004 5355519
-0.11234953 0.097235247 0.52900004 5158911
-0.11134192 0.097235247 0.52900004 5158911
-0.1103343 0.097235247 0.52900004 5487103
-0.10953334 0.097419053 0.53000003 5421311
-0.10852382 0.097419053 0.53000003 5290495
-0.10771715 0.097602859 0.53100002 5290495
-0.10670571 0.097602859 0.53100002 5029375
-0.10589334 0.097786665 0.53200001 5292543
-0.10468286 0.097602859 0.53100002 5817343
-0.10367143 0.097602859 0.53100002 5817343
-0.10266001 0.097602859 0.53100002 6014975
-0.10164858 0.097602859 0.53100002 6014975
-0.1002581 0.097235247 0.52900004 6014975
-0.099250481 0.097235247 0.52900004 6409727
-0.098242864 0.097235247 0.52900004 6672383
-0.097235247 0.097235247 0.52900004 6738175
-0.096227624 0.097235247 0.52900004 7592191
-0.095040001 0.097051427 0.528 8842239
-0.094034284 0.097051427 0.528 9169919
-0.093204767 0.097235247 0.52900004 8117236
-0.092022859 0.097051427 0.528 7330559
-0.091017142 0.097051427 0.528 7264767
-0.090011425 0.097051427 0.528 7657983
-0.088162854 0.096132383 0.523 7394815
-0.087000005 0.095948569 0.52200001 7983359
-0.08600571 0.095948569 0.52200001 7193851
-0.084848575 0.095764771 0.52100003 8829183
-0.083856195 0.095764771 0.52100003 9947647
-0.082545727 0.095397152 0.51900005 11649773
-0.0814 0.095213331 0.51800001 13031423
-0.080258101 0.095029525 0.51700002 13818865
-0.079273336 0.095029525 0.51700002 14411002
-0.07828857 0.095029525 0.51700002 15396595
-0.077004768 0.094661914 0.51500005 15988732
-0.075876191 0.094478101 0.514 16711422
-0.07489714 0.094478101 0.514 16711422
-0.073918089 0.094478101 0.514 16711422
-0.072797149 0.094294287 0.51300001 16645629
-0.071820006 0.094294287 0.51300001 16645629
-0.070842862 0.094294287 0.51300001 16645629
-0.069865711 0.094294287 0.51300001 16579836
-0.053907622 0.097235247 0.52900004 7663871
-0.052600004 0.096683815 0.52600002 7203325
-0.051598094 0.096683815 0.52600002 7071487
-0.050596192 0.096683815 0.52600002 6808319
-0.04968857 0.096867613 0.52700001 7135999
-0.048869528 0.097235247 0.52900004 6872831
-0.047680955 0.096867613 0.52700001 6348031
-0.046588574 0.096683815 0.52600002 6413823
-0.045586668 0.096683815 0.52600002 6479359
-0.044584766 0.096683815 0.52600002 6347775
-0.043665715 0.096867613 0.52700001 6347519
-0.042661905 0.096867613 0.52700001 6150143
-0.041658096 0.096867613 0.52700001 5493503
-0.040654287 0.096867613 0.52700001 5756671
-0.039575238 0.096683815 0.52600002 6214655
-0.038573336 0.096683815 0.52600002 6477823
-0.03757143 0.096683815 0.52600002 6609663
-0.036569525 0.096683815 0.52600002 6346495
-0.035567619 0.096683815 0.52600002 6740991
-0.034565717 0.096683815 0.52600002 8122623
-0.033563811 0.096683815 0.52600002 8908799
-0.032500003 0.096500002 0.52500004 8777215
-0.031500001 0.096500002 0.52500004 8317695
-0.0305 0.096500002 0.52500004 7659770
-0.029556191 0.096683815 0.52600002 7331839
-0.028554287 0.096683815 0.52600002 7002879
-0.027552381 0.096683815 0.52600002 7067647
-0.026550477 0.096683815 0.52600002 6936063
-0.025548572 0.096683815 0.52600002 6870527
-0.024593333 0.096867613 0.52700001 7265279
-0.023544762 0.096683815 0.52600002 9556991
-0.022542858 0.096683815 0.52600002 6925278
-0.021540953 0.096683815 0.52600002 8890864
-0.11940286 0.098242864 0.52900004 7710378
-0.11839525 0.098242864 0.52900004 7519231
-0.11738763 0.098242864 0.52900004 7190271
-0.11660001 0.098428577 0.53000003 6471423
-0.11559048 0.098428577 0.53000003 6142463
-0.11436477 0.098242864 0.52900004 5487615
-0.11335715 0.098242864 0.52900004 5290239
-0.11234953 0.098242864 0.52900004 4962559
-0.11134192 0.098242864 0.52900004 4962559
-0.1103343 0.098242864 0.52900004 4766463
-0.10932668 0.098242864 0.52900004 4832255
-0.10831905 0.098242864 0.52900004 5422847
-0.10751429 0.098428577 0.53000003 5686015
-0.10650477 0.098428577 0.53000003 6014463
-0.10569429 0.09861429 0.53100002 6014463
-0.10468286 0.09861429 0.53100002 5883647
-0.10367143 0.09861429 0.53100002 5883647
-0.10207999 0.098057143 0.528 5949439
-0.10126572 0.098242864 0.52900004 5949439
-0.1002581 0.098242864 0.52900004 5949439
-0.099250481 0.098242864 0.52900004 6344191
-0.098242864 0.098242864 0.52900004 6804223
-0.097051427 0.098057143 0.528 6738431
-0.09604571 0.098057143 0.528 7527167
-0.095040001 0.098057143 0.528 8843007
-0.094034284 0.098057143 0.528 9235711
-0.093028568 0.098057143 0.528 8446201
-0.091848575 0.09787143 0.52700001 7791359
-0.090500005 0.097500004 0.52500004 7791359
-0.089500003 0.097500004 0.52500004 7790847
-0.088162854 0.09712857 0.523 7527679
-0.087000005 0.096942857 0.52200001 7656703
-0.08600571 0.096942857 0.52200001 7459327
-0.084848575 0.096757151 0.52100003 9685247
-0.083856195 0.096757151 0.52100003 9553663
-0.082704768 0.096571438 0.52000004 10599404
-0.081557155 0.096385725 0.51900005 11783678
-0.080413334 0.096200004 0.51800001 13293043
-0.079426669 0.096200004 0.51800001 13950973
-0.07828857 0.096014284 0.51700002 14936819
-0.077004768 0.095642865 0.51500005 15199991
-0.075876191 0.095457144 0.514 16054264
-0.07489714 0.095457144 0.514 16251643
-0.073918089 0.095457144 0.514 16514043
-0.072797149 0.095271431 0.51300001 16711422
-0.071820006 0.095271431 0.51300001 16645629
-0.070842862 0.095271431 0.51300001 16645629
-0.069865711 0.095271431 0.51300001 16645629
-0.052600004 0.097685717 0.52600002 7269118
-0.051598094 0.097685717 0.52600002 7006463
-0.050596192 0.097685717 0.52600002 6545919
-0.049594287 0.097685717 0.52600002 6742783
-0.048500001 0.097500004 0.52500004 6940159
-0.047500003 0.097500004 0.52500004 7136511
-0.046500005 0.097500004 0.52500004 7004927
-0.045500003 0.097500004 0.52500004 6939391
-0.044500001 0.097500004 0.52500004 6807807
-0.043500002 0.097500004 0.52500004 6611199
-0.042580955 0.097685717 0.52600002 6348031
-0.041579049 0.097685717 0.52600002 6478335
-0.040577143 0.097685717 0.52600002 6412543
-0.039575238 0.097685717 0.52600002 6609663
-0.038573336 0.097685717 0.52600002 6807039
-0.037500001 0.097500004 0.52500004 7200767
-0.036499999 0.097500004 0.52500004 7332351
-0.035500001 0.097500004 0.52500004 7726591
-0.034500003 0.097500004 0.52500004 8516095
-0.033500001 0.097500004 0.52500004 8711679
-0.032500003 0.097500004 0.52500004 8316927
-0.031500001 0.097500004 0.52500004 8054783
-0.0305 0.097500004 0.52500004 7528445
-0.029500002 0.097500004 0.52500004 7200767
-0.0285 0.097500004 0.52500004 7200767
-0.027500002 0.097500004 0.52500004 6871295
-0.026500002 0.097500004 0.52500004 6476543
-0.025500001 0.097500004 0.52500004 8706559
-0.024500001 0.097500004 0.52500004 11075071
-0.023500001 0.097500004 0.52500004 13562367
-0.022542858 0.097685717 0.52600002 7706791
-0.12041048 0.099250481 0.52900004 6131633
-0.11940286 0.099250481 0.52900004 7908044
-0.11839525 0.099250481 0.52900004 7127295
-0.11738763 0.099250481 0.52900004 6864127
-0.11638001 0.099250481 0.52900004 6274815
-0.11537239 0.099250481 0.52900004 6011647
-0.11436477 0.099250481 0.52900004 5750015
-0.11314286 0.099062853 0.528 5618431
-0.11213714 0.099062853 0.528 5750015
-0.11113142 0.099062853 0.528 5618431
-0.11012571 0.099062853 0.528 4963839
-0.10912 0.099062853 0.528 5029631
-0.10790952 0.098875239 0.52700001 5292287
-0.10690571 0.098875239 0.52700001 5489663
-0.10650477 0.099438101 0.53000003 5752575
-0.10569429 0.099625714 0.53100002 5752575
-0.10468286 0.099625714 0.53100002 5687295
-0.10269524 0.098687619 0.52600002 5753087
-0.10207999 0.099062853 0.528 6146047
-0.10107429 0.099062853 0.528 6080255
-0.10006857 0.099062853 0.528 5622015
-0.098875239 0.098875239 0.52700001 6279935
-0.09787143 0.098875239 0.52700001 6542847
-0.096867613 0.098875239 0.52700001 6411263
-0.095863812 0.098875239 0.52700001 7527679
-0.094860002 0.098875239 0.52700001 8843519
-0.093856193 0.098875239 0.52700001 9499135
-0.092852384 0.098875239 0.52700001 8907002
-0.091674291 0.098687619 0.52600002 8317183
-0.090500005 0.098500006 0.52500004 7988223
-0.089329526 0.098312393 0.52400005 7594751
-0.088162854 0.098124757 0.523 7463167
-0.087000005 0.097937144 0.52200001 7986431
-0.08600571 0.097937144 0.52200001 7525887
-0.08501143 0.097937144 0.52200001 9884927
-0.083856195 0.097749531 0.52100003 9753343
-0.082863815 0.097749531 0.52100003 10732031
-0.081714287 0.097561911 0.52000004 11521535
-0.080568574 0.097374298 0.51900005 12439795
-0.079426669 0.097186662 0.51800001 13295103
-0.07828857 0.096999057 0.51700002 14345461
-0.077004768 0.096623816 0.51500005 14806012
-0.075876191 0.096436195 0.514 15331829
-0.07489714 0.096436195 0.514 15397622
-0.073918089 0.096436195 0.514 15856885
-0.072939046 0.096436195 0.514 16317436
-0.071959995 0.096436195 0.514 16449020
-0.070980951 0.096436195 0.514 16383227
-0.052500002 0.098500006 0.52500004 7531259
-0.051500004 0.098500006 0.52500004 7400703
-0.050500005 0.098500006 0.52500004 6940158
-0.049500003 0.098500006 0.52500004 6677503
-0.048500001 0.098500006 0.52500004 6743295
-0.047500003 0.098500006 0.52500004 7071487
-0.046500005 0.098500006 0.52500004 6808319
-0.045500003 0.098500006 0.52500004 6742271
-0.044500001 0.098500006 0.52500004 6676479
-0.043500002 0.098500006 0.52500004 6611199
-0.042500004 0.098500006 0.52500004 6479615
-0.041500002 0.098500006 0.52500004 6610687
-0.0405 0.098500006 0.52500004 6610687
-0.039500002 0.098500006 0.52500004 6872575
-0.038500004 0.098500006 0.52500004 6938367
-0.037500001 0.098500006 0.52500004 7200767
-0.036499999 0.098500006 0.52500004 7792895
-0.035432383 0.098312393 0.52400005 8318207
-0.034434289 0.098312393 0.52400005 8515583
-0.03343619 0.098312393 0.52400005 8318207
-0.032376189 0.098124757 0.523 8055039
-0.031380001 0.098124757 0.523 7857663
-0.030441906 0.098312393 0.52400005 7528703
-0.029443812 0.098312393 0.52400005 7331839
-0.028445715 0.098312393 0.52400005 7200255
-0.027500002 0.098500006 0.52500004 6543871
-0.026500002 0.098500006 0.52500004 5951741
-0.025500001 0.098500006 0.52500004 9953279
-0.024500001 0.098500006 0.52500004 12517375
-0.023500001 0.098500006 0.52500004 14545919
-0.12041048 0.1002581 0.52900004 5411537
-0.11940286 0.1002581 0.52900004 7385327
-0.11839525 0.1002581 0.52900004 7652607
-0.11738763 0.1002581 0.52900004 7060479
-0.11638001 0.1002581 0.52900004 5880831
-0.11537239 0.1002581 0.52900004 5486079
-0.11414857 0.10006857 0.528 5028863
-0.11292858 0.099879049 0.52700001 4963071
-0.11192477 0.099879049 0.52700001 5226495
-0.11092095 0.099879049 0.52700001 5358079
-0.10991714 0.099879049 0.52700001 5423615
-0.10891333 0.099879049 0.52700001 5423615
-0.10750001 0.099500008 0.52500004 5292799
-0.1065 0.099500008 0.52500004 5555967
-0.10570096 0.099689528 0.52600002 5752575
-0.10469905 0.099689528 0.52600002 5752575
-0.10350001 0.099500008 0.52500004 5687295
-0.10269524 0.099689528 0.52600002 5687295
-0.10169334 0.099689528 0.52600002 5687295
-0.10069143 0.099689528 0.52600002 5489919
-0.099689528 0.099689528 0.52600002 5687807
-0.098687619 0.099689528 0.52600002 6345727
-0.09787143 0.099879049 0.52700001 6805503
-0.096867613 0.099879049 0.52700001 6871295
-0.095863812 0.099879049 0.52700001 7462655
-0.094860002 0.099879049 0.52700001 8712703
-0.093856193 0.099879049 0.52700001 9302527
-0.092852384 0.099879049 0.52700001 8776188
-0.091674291 0.099689528 0.52600002 7923711
-0.090500005 0.099500008 0.52500004 7923711
-0.089329526 0.09931048 0.52400005 7858175
-0.088331439 0.09931048 0.52400005 7858175
-0.087166667 0.099120952 0.523 8120319
-0.08600571 0.098931432 0.52200001 8120319
-0.08501143 0.098931432 0.52200001 9823999
-0.083856195 0.098741911 0.52100003 10152959
-0.082863815 0.098741911 0.52100003 12115711
-0.081871435 0.098741911 0.52100003 11326200
-0.080568574 0.098362871 0.51900005 12045303
-0.079273336 0.097983815 0.51700002 12703231
-0.07828857 0.097983815 0.51700002 13622006
-0.077004768 0.097604766 0.51500005 14214143
-0.075876191 0.097415239 0.514 14608372
-0.07489714 0.097415239 0.514 14805751
-0.073918089 0.097415239 0.514 15134196
-0.072939046 0.097415239 0.514 15463161
-0.071959995 0.097415239 0.514 15660535
-0.070980951 0.097415239 0.514 15660535
-0.052500002 0.099500008 0.52500004 7531516
-0.051500004 0.099500008 0.52500004 7466495
-0.050500005 0.099500008 0.52500004 7137535
-0.049500003 0.099500008 0.52500004 6677759
-0.048500001 0.099500008 0.52500004 6677759
-0.047500003 0.099500008 0.52500004 7005695
-0.046500005 0.099500008 0.52500004 6742527
-0.045500003 0.099500008 0.52500004 6414335
-0.044500001 0.099500008 0.52500004 6348543
-0.043500002 0.099500008 0.52500004 6414335
-0.042500004 0.099500008 0.52500004 6414335
-0.041500002 0.099500008 0.52500004 6283519
-0.0405 0.099500008 0.52500004 6678271
-0.039500002 0.099500008 0.52500004 7333119
-0.038426671 0.09931048 0.52400005 7333119
-0.03735714 0.099120952 0.523 8054783
-0.036360953 0.099120952 0.523 8910079
-0.035364762 0.099120952 0.523 9171711
-0.034368575 0.099120952 0.523 8974335
-0.03337238 0.099120952 0.523 8712447
-0.032376189 0.099120952 0.523 8186109
-0.031380001 0.099120952 0.523 7792383
-0.030383809 0.099120952 0.523 7595007
-0.029387619 0.099120952 0.523 7595263
-0.028391428 0.099120952 0.523 7266303
-0.027447622 0.09931048 0.52400005 9103103
-0.026449526 0.09931048 0.52400005 11010047
-0.025402857 0.099120952 0.523 15400189
-0.024406668 0.099120952 0.523 15859711
-0.023500001 0.099500008 0.52500004 15990270
-0.11917714 0.10107429 0.528 7057918
-0.11817143 0.10107429 0.528 6996735
-0.11716571 0.10107429 0.528 6404607
-0.11616 0.10107429 0.528 5553407
-0.11515429 0.10107429 0.528 5684991
-0.11414857 0.10107429 0.528 5882879
-0.11292858 0.10088286 0.52700001 5685503
-0.1115 0.10050001 0.52500004 5358079
-0.11050001 0.10050001 0.52500004 5358079
-0.10950001 0.10050001 0.52500004 5751807
-0.10850001 0.10050001 0.52500004 5686015
-0.10750001 0.10050001 0.52500004 5490175
-0.1065 0.10050001 0.52500004 5753343
-0.10550001 0.10050001 0.52500004 6212351
-0.1045 0.10050001 0.52500004 6080767
-0.10350001 0.10050001 0.52500004 5425407
-0.10250001 0.10050001 0.52500004 5556991
-0.1015 0.10050001 0.52500004 5950207
-0.10050001 0.10050001 0.52500004 5752831
-0.099500008 0.10050001 0.52500004 5951743
-0.098500006 0.10050001 0.52500004 6346495
-0.097685717 0.10069143 0.52600002 6674687
-0.096867613 0.10088286 0.52700001 6543103
-0.095863812 0.10088286 0.52700001 7397119
-0.094860002 0.10088286 0.52700001 8778751
-0.093856193 0.10088286 0.52700001 9959167
-0.092852384 0.10088286 0.52700001 9367035
-0.091674291 0.10069143 0.52600002 7989503
-0.090500005 0.10050001 0.52500004 8121087
-0.089329526 0.10030858 0.52400005 8449535
-0.088331439 0.10030858 0.52400005 8252159
-0.087166667 0.10011714 0.523 8121599
-0.08600571 0.099925719 0.52200001 8187391
-0.08501143 0.099925719 0.52200001 8973567
-0.083856195 0.099734291 0.52100003 8973567
-0.082863815 0.099734291 0.52100003 11003903
-0.081871435 0.099734291 0.52100003 10740735
-0.080568574 0.099351436 0.51900005 12374522
-0.079273336 0.09896858 0.51700002 12900863
-0.07828857 0.09896858 0.51700002 13031668
-0.077004768 0.098585717 0.51500005 13623805
-0.075876191 0.09839429 0.514 14083059
-0.07489714 0.09839429 0.514 14477817
-0.073918089 0.09839429 0.514 14740723
-0.072939046 0.09839429 0.514 15069688
-0.071959995 0.09839429 0.514 15201013
-0.070980951 0.09839429 0.514 15266806
-0.052400004 0.10030858 0.52400005 7597309
-0.051303808 0.10011714 0.523 7401215
-0.05030762 0.10011714 0.523 7072255
-0.049311429 0.10011714 0.523 6481151
-0.048315238 0.10011714 0.523 6612735
-0.047319047 0.10011714 0.523 7202815
-0.046322856 0.10011714 0.523 6808063
-0.045413338 0.10030858 0.52400005 6152447
-0.044500001 0.10050001 0.52500004 6020863
-0.043500002 0.10050001 0.52500004 6218239
-0.042500004 0.10050001 0.52500004 6218239
-0.041420955 0.10030858 0.52400005 5889791
-0.040422861 0.10030858 0.52400005 6350335
-0.039349526 0.10011714 0.523 6677759
-0.038353331 0.10011714 0.523 6809343
-0.037285715 0.099925719 0.52200001 8121087
-0.036291432 0.099925719 0.52200001 9107967
-0.035297144 0.099925719 0.52200001 9762559
-0.034302857 0.099925719 0.52200001 9236219
-0.033308573 0.099925719 0.52200001 8646655
-0.032314286 0.099925719 0.52200001 8186109
-0.031320002 0.099925719 0.52200001 7858175
-0.030325714 0.099925719 0.52200001 7660799
-0.029331429 0.099925719 0.52200001 7201791
-0.028337143 0.099925719 0.52200001 6412283
-0.027395237 0.10011714 0.523 9430271
-0.026348572 0.099925719 0.52200001 12058623
-0.025354287 0.099925719 0.52200001 16580606
-0.024406668 0.10011714 0.523 16580606
-0.11917714 0.10207999 0.528 6469887
-0.11817143 0.10207999 0.528 7457023
-0.11694381 0.10188667 0.52700001 6733309
-0.11594 0.10188667 0.52700001 5882367
-0.11493619 0.10188667 0.52700001 6079743
-0.11393239 0.10188667 0.52700001 6079743
-0.1125 0.1015 0.52500004 5882367
-0.1115 0.1015 0.52500004 5292799
-0.11050001 0.1015 0.52500004 5292799
-0.10950001 0.1015 0.52500004 5817855
-0.10850001 0.1015 0.52500004 5817855
-0.10750001 0.1015 0.52500004 6278143
-0.1065 0.1015 0.52500004 6607103
-0.10550001 0.1015 0.52500004 6607103
-0.1045 0.1015 0.52500004 6409727
-0.10350001 0.1015 0.52500004 5884927
-0.10250001 0.1015 0.52500004 5753343
-0.1015 0.1015 0.52500004 5819391
-0.10050001 0.1015 0.52500004 5622015
-0.099500008 0.1015 0.52500004 5951743
-0.098500006 0.1015 0.52500004 6346495
-0.097500004 0.1015 0.52500004 6674687
-0.089329526 0.10130668 0.52400005 8187135
-0.088162854 0.10111333 0.523 8121343
-0.087166667 0.10111333 0.523 8056319
-0.08600571 0.10092 0.52200001 7990527
-0.08501143 0.10092 0.52200001 9040895
-0.083856195 0.10072667 0.52100003 9172479
-0.082863815 0.10072667 0.52100003 9891327
-0.081871435 0.10072667 0.52100003 9825535
-0.080879048 0.10072667 0.52100003 12380671
-0.079426669 0.10014667 0.51800001 12841215
-0.07828857 0.099953339 0.51700002 13953274
-0.077154294 0.099760011 0.51600003 14150653
-0.07602381 0.099566668 0.51500005 14609142
-0.075042859 0.099566668 0.51500005 14674935
-0.073918089 0.099373333 0.514 14871796
-0.072939046 0.099373333 0.514 15266554
-0.071959995 0.099373333 0.514 15267063
-0.071119048 0.099566668 0.51500005 15332856
-0.052299999 0.10111333 0.523 7400702
-0.051205717 0.10092 0.52200001 6876159
-0.05021143 0.10092 0.52200001 6876159
-0.049217142 0.10092 0.52200001 6612735
-0.048222858 0.10092 0.52200001 6546943
-0.047138099 0.10072667 0.52100003 6809087
-0.046145715 0.10072667 0.52100003 6677503
-0.045240004 0.10092 0.52200001 6415103
-0.044330478 0.10111333 0.523 6415103
-0.043334283 0.10111333 0.523 6546175
-0.042338096 0.10111333 0.523 6480383
-0.041341905 0.10111333 0.523 6611455
-0.040345713 0.10111333 0.523 7335167
-0.039349526 0.10111333 0.523 8187903
-0.038279999 0.10092 0.52200001 8385279
-0.037285715 0.10092 0.52200001 9238015
-0.036291432 0.10092 0.52200001 9501183
-0.035297144 0.10092 0.52200001 9369087
-0.034302857 0.10092 0.52200001 8711161
-0.033308573 0.10092 0.52200001 8187391
-0.032252382 0.10072667 0.52100003 7924223
-0.031260002 0.10072667 0.52100003 7924479
-0.03026762 0.10072667 0.52100003 7792895
-0.02927524 0.10072667 0.52100003 8776959
-0.028282858 0.10072667 0.52100003 9566463
-0.027290476 0.10072667 0.52100003 14481915
-0.026298096 0.10072667 0.52100003 15335423
-0.025305714 0.10072667 0.52100003 16711422
-0.024313334 0.10072667 0.52100003 16711422
-0.11850001 0.10250001 0.52500004 6405119
-0.11750001 0.10250001 0.52500004 7194623
-0.11650001 0.10250001 0.52500004 6405117
-0.11550001 0.10250001 0.52500004 5620223
-0.1145 0.10250001 0.52500004 5751807
-0.11350001 0.10250001 0.52500004 5883135
-0.1125 0.10250001 0.52500004 5817343
-0.1115 0.10250001 0.52500004 5489919
-0.11050001 0.10250001 0.52500004 5555711
-0.10950001 0.10250001 0.52500004 6146047
-0.10850001 0.10250001 0.52500004 6211839
-0.10750001 0.10250001 0.52500004 6409983
-0.10629715 0.10230477 0.52400005 6344191
-0.10529906 0.10230477 0.52400005 6083071
-0.10430096 0.10230477 0.52400005 6083071
-0.10330287 0.10230477 0.52400005 5820415
-0.10230477 0.10230477 0.52400005 5688831
-0.10111333 0.10210953 0.523 5623295
-0.10011714 0.10210953 0.523 5689087
-0.099500008 0.10250001 0.52500004 5623807
-0.098500006 0.10250001 0.52500004 5886975
-0.097500004 0.10250001 0.52500004 7068415
-0.089159042 0.10210953 0.523 8318207
-0.088162854 0.10210953 0.523 8449791
-0.087166667 0.10210953 0.523 9172479
-0.08600571 0.10191429 0.52200001 9040895
-0.08501143 0.10191429 0.52200001 8975871
-0.083856195 0.10171905 0.52100003 8975871
-0.082863815 0.10171905 0.52100003 8189183
-0.081871435 0.10171905 0.52100003 7597052
-0.080879048 0.10171905 0.52100003 10416639
-0.079580002 0.10132858 0.51900005 11665407
-0.078591436 0.10132858 0.51900005 14481917
-0.077303812 0.1009381 0.51700002 14810879
-0.076171428 0.10074286 0.51600003 15661564
-0.075188577 0.10074286 0.51600003 15661564
-0.074061908 0.10054763 0.51500005 15595512
-0.073080957 0.10054763 0.51500005 15463926
-0.072100006 0.10054763 0.51500005 15201524
-0.071395241 0.1009381 0.51700002 15398903
-0.052200001 0.10191429 0.52200001 7334909
-0.051205717 0.10191429 0.52200001 6482431
-0.05021143 0.10191429 0.52200001 6679807
-0.049217142 0.10191429 0.52200001 7138303
-0.048130479 0.10171905 0.52100003 6809343
-0.047138099 0.10171905 0.52100003 6611967
-0.046145715 0.10171905 0.52100003 6546175
-0.045240004 0.10191429 0.52200001 6349311
-0.044330478 0.10210953 0.523 6480895
-0.043334283 0.10210953 0.523 6808575
-0.042257145 0.10191429 0.52200001 6940159
-0.041262858 0.10191429 0.52200001 7530751
-0.040268574 0.10191429 0.52200001 7793919
-0.039274286 0.10191429 0.52200001 8253695
-0.038206667 0.10171905 0.52100003 8780031
-0.037214287 0.10171905 0.52100003 9369087
-0.036152385 0.10152382 0.52000004 9303295
-0.035161905 0.10152382 0.52000004 8844543
-0.034171429 0.10152382 0.52000004 8515583
-0.033180956 0.10152382 0.52000004 7990271
-0.032252382 0.10171905 0.52100003 8121855
-0.031200001 0.10152382 0.52000004 8122623
-0.030209526 0.10152382 0.52000004 7530491
-0.02921905 0.10152382 0.52000004 8776447
-0.028282858 0.10171905 0.52100003 10354687
-0.027290476 0.10171905 0.52100003 16187390
-0.026247621 0.10152382 0.52000004 16318463
-0.025160002 0.10113333 0.51800001 16645629
-0.024126666 0.1009381 0.51700002 16711422
-0.023097143 0.10074286 0.51600003 16646142
-0.021985715 0.10015714 0.51300001 6908778
-0.021008572 0.10015714 0.51300001 3572988
-0.1195 0.10350001 0.52500004 4169215
-0.11850001 0.10350001 0.52500004 6274559
-0.11750001 0.10350001 0.52500004 6604543
-0.11650001 0.10350001 0.52500004 5880830
-0.11550001 0.10350001 0.52500004 5292287
-0.1145 0.10350001 0.52500004 5423871
-0.11350001 0.10350001 0.52500004 5620991
-0.1125 0.10350001 0.52500004 5752575
-0.1115 0.10350001 0.52500004 5752575
-0.11050001 0.10350001 0.52500004 5686783
-0.10950001 0.10350001 0.52500004 5687295
-0.10850001 0.10350001 0.52500004 5753087
-0.10729524 0.10330287 0.52400005 6409983
-0.10589143 0.10290857 0.52200001 6278399
-0.10489715 0.10290857 0.52200001 6214143
-0.1041019 0.10310572 0.523 6214143
-0.10310572 0.10310572 0.523 5558015
-0.10210953 0.10310572 0.523 5492223
-0.10092 0.10290857 0.52200001 5558015
-0.099925719 0.10290857 0.52200001 5623807
-0.09931048 0.10330287 0.52400005 5230847
-0.098500006 0.10350001 0.52500004 5099263
-0.088818096 0.10271143 0.52100003 9172479
-0.087825716 0.10271143 0.52100003 8843519
-0.086833335 0.10271143 0.52100003 9172479
-0.08600571 0.10290857 0.52200001 9172479
-0.084848575 0.10271143 0.52100003 9434623
-0.083856195 0.10271143 0.52100003 9500415
-0.082863815 0.10271143 0.52100003 8451327
-0.081871435 0.10271143 0.52100003 7793402
-0.080879048 0.10271143 0.52100003 9171711
-0.079580002 0.10231715 0.51900005 10485759
-0.078591436 0.10231715 0.51900005 14744573
-0.077602863 0.10231715 0.51900005 15138815
-0.07661429 0.10231715 0.51900005 15793402
-0.075188577 0.10172572 0.51600003 15793402
-0.074205719 0.10172572 0.51600003 15858682
-0.073222861 0.10172572 0.51600003 15792889
-0.072240002 0.10172572 0.51600003 15924218
-0.053092383 0.10271143 0.52100003 7992575
-0.052100003 0.10271143 0.52100003 7663615
-0.051107619 0.10271143 0.52100003 7401727
-0.050115239 0.10271143 0.52100003 7533311
-0.049122859 0.10271143 0.52100003 7336447
-0.048130479 0.10271143 0.52100003 7073279
-0.047047623 0.10251429 0.52000004 6941951
-0.046057146 0.10251429 0.52000004 6810367
-0.04506667 0.10251429 0.52000004 6874879
-0.044076193 0.10251429 0.52000004 6940671
-0.043002859 0.10231715 0.51900005 7400703
-0.04201429 0.10231715 0.51900005 7466495
-0.041025717 0.10231715 0.51900005 7663359
-0.040037148 0.10231715 0.51900005 7663359
-0.039123811 0.10251429 0.52000004 8516607
-0.038133338 0.10251429 0.52000004 9306111
-0.037142862 0.10251429 0.52000004 10155775
-0.036152385 0.10251429 0.52000004 9695228
-0.035161905 0.10251429 0.52000004 8647935
-0.034171429 0.10251429 0.52000004 8647935
-0.033180956 0.10251429 0.52000004 7926271
-0.032190479 0.10251429 0.52000004 7860479
-0.031200001 0.10251429 0.52000004 7860223
-0.030151432 0.10231715 0.51900005 7794431
-0.02916286 0.10231715 0.51900005 13302013
-0.028228574 0.10251429 0.52000004 14417919
-0.027238097 0.10251429 0.52000004 16580349
-0.026197147 0.10231715 0.51900005 16646142
-0.025111429 0.10192286 0.51700002 16514043
-0.024126666 0.10192286 0.51700002 16711422
-0.023097143 0.10172572 0.51600003 16646142
-0.021985715 0.10113429 0.51300001 7566708
-0.021008572 0.10113429 0.51300001 3901439
-0.12126858 0.10430096 0.52400005 7970454
-0.12027048 0.10430096 0.52400005 7904661
-0.1192724 0.10430096 0.52400005 6073599
-0.11804857 0.1041019 0.523 7126271
-0.11705238 0.1041019 0.523 6605567
-0.1162781 0.10430096 0.52400005 6210815
-0.11528001 0.10430096 0.52400005 6146047
-0.11428192 0.10430096 0.52400005 6080255
-0.11328382 0.10430096 0.52400005 5883647
-0.11207143 0.1041019 0.523 6015231
-0.11107524 0.1041019 0.523 6475519
-0.11007905 0.1041019 0.523 6278143
-0.10908286 0.1041019 0.523 5688319
-0.10808666 0.1041019 0.523 5754111
-0.10668096 0.10370382 0.52100003 6213631
-0.10568858 0.10370382 0.52100003 6213631
-0.1046962 0.10370382 0.52100003 6279935
-0.10370382 0.10370382 0.52100003 6279935
-0.10271143 0.10370382 0.52100003 6018047
-0.10171905 0.10370382 0.52100003 6083839
-0.10053334 0.10350477 0.52000004 6149631
-0.099542871 0.10350477 0.52000004 6149631
-0.098741911 0.10370382 0.52100003 6215423
-0.097937144 0.10390285 0.52200001 6149631
-0.096942857 0.10390285 0.52200001 6610175
-0.089465722 0.10330572 0.51900005 9827327
-0.08847715 0.10330572 0.51900005 9303295
-0.087657154 0.10350477 0.52000004 9369087
-0.086833335 0.10370382 0.52100003 9369087
-0.085840955 0.10370382 0.52100003 9434879
-0.084848575 0.10370382 0.52100003 9762559
-0.083856195 0.10370382 0.52100003 9696767
-0.082863815 0.10370382 0.52100003 8647935
-0.081871435 0.10370382 0.52100003 7792630
-0.080568574 0.10330572 0.51900005 7401727
-0.079580002 0.10330572 0.51900005 8519679
-0.078591436 0.10330572 0.51900005 13630462
-0.077602863 0.10330572 0.51900005 14286847
-0.07661429 0.10330572 0.51900005 15334396
-0.053092383 0.10370382 0.52100003 8647935
-0.052100003 0.10370382 0.52100003 8384767
-0.051009528 0.10350477 0.52000004 7730175
-0.050019052 0.10350477 0.52000004 7664383
-0.049028575 0.10350477 0.52000004 7205887
-0.048038095 0.10350477 0.52000004 7140095
-0.046957146 0.10330572 0.51900005 7598847
-0.045968577 0.10330572 0.51900005 7204095
-0.044980004 0.10330572 0.51900005 6481919
-0.043991435 0.10330572 0.51900005 6745087
-0.043002859 0.10330572 0.51900005 7204095
-0.041933332 0.10310667 0.51800001 7269887
-0.040946666 0.10310667 0.51800001 7533311
-0.040037148 0.10330572 0.51900005 7796479
-0.039123811 0.10350477 0.52000004 9369087
-0.038060006 0.10330572 0.51900005 9829631
-0.037071433 0.10330572 0.51900005 10417919
-0.03608286 0.10330572 0.51900005 9891578
-0.035094287 0.10330572 0.51900005 8647935
-0.034105718 0.10330572 0.51900005 8647935
-0.033117145 0.10330572 0.51900005 8647935
-0.032128576 0.10330572 0.51900005 8450559
-0.031140001 0.10330572 0.51900005 7663871
-0.030093333 0.10310667 0.51800001 7795455
-0.029106667 0.10310667 0.51800001 15597054
-0.028174289 0.10330572 0.51900005 15990783
-0.027238097 0.10350477 0.52000004 16711422
-0.026146667 0.10310667 0.51800001 16514043
-0.025111429 0.10290762 0.51700002 16514043
-0.024126666 0.10290762 0.51700002 16711422
-0.023097143 0.10270858 0.51600003 16646142
-0.022071429 0.10250953 0.51500005 8158845
-0.021090478 0.10250953 0.51500005 5673471
-0.12126858 0.10529906 0.52400005 7183259
-0.12004095 0.10509809 0.523 8170154
-0.11904477 0.10509809 0.523 7258367
-0.11782286 0.10489715 0.52200001 7916287
-0.11682858 0.10489715 0.52200001 7131391
-0.11583429 0.10489715 0.52200001 6736639
-0.11484 0.10489715 0.52200001 6212351
-0.11428192 0.10529906 0.52400005 6080767
-0.11328382 0.10529906 0.52400005 5556479
-0.11207143 0.10509809 0.523 5490687
-0.11107524 0.10509809 0.523 6082047
-0.11007905 0.10509809 0.523 6016255
-0.10908286 0.10509809 0.523 5689087
-0.10808666 0.10509809 0.523 5623295
-0.10668096 0.1046962 0.52100003 5951743
-0.10568858 0.1046962 0.52100003 6083327
-0.1046962 0.1046962 0.52100003 6018047
-0.10370382 0.1046962 0.52100003 6149631
-0.10271143 0.1046962 0.52100003 5953023
-0.10171905 0.1046962 0.52100003 5953023
-0.10034001 0.10429429 0.51900005 5887743
-0.099351436 0.10429429 0.51900005 5887743
-0.098552391 0.10449524 0.52000004 6281727
-0.097749531 0.1046962 0.52100003 6413311
-0.096757151 0.1046962 0.52100003 6807551
-0.095764771 0.1046962 0.52100003 7794431
-0.089120954 0.10389239 0.51700002 10743543
-0.088136196 0.10389239 0.51700002 9697023
-0.08732 0.10409334 0.51800001 9762815
-0.086500011 0.10429429 0.51900005 9959167
-0.085676193 0.10449524 0.52000004 10024959
-0.084848575 0.1046962 0.52100003 10352383
-0.083856195 0.1046962 0.52100003 10352383
-0.082863815 0.1046962 0.52100003 8844543
-0.081871435 0.1046962 0.52100003 7923446
-0.080568574 0.10429429 0.51900005 7795967
-0.079580002 0.10429429 0.51900005 8978431
-0.078591436 0.10429429 0.51900005 13630462
-0.077602863 0.10429429 0.51900005 14155775
-0.07661429 0.10429429 0.51900005 14875130
-0.056952383 0.10449524 0.52000004 10155775
-0.055854291 0.10429429 0.51900005 9695228
-0.054865718 0.10429429 0.51900005 8975615
-0.053877149 0.10429429 0.51900005 8646655
-0.052888576 0.10429429 0.51900005 8386047
-0.051900007 0.10429429 0.51900005 8188671
-0.050911434 0.10429429 0.51900005 7533311
-0.049922861 0.10429429 0.51900005 7401727
-0.048934288 0.10429429 0.51900005 7074559
-0.047945719 0.10429429 0.51900005 7008767
-0.046957146 0.10429429 0.51900005 7074559
-0.045968577 0.10429429 0.51900005 6942975
-0.044980004 0.10429429 0.51900005 7270655
-0.043991435 0.10429429 0.51900005 7402239
-0.043002859 0.10429429 0.51900005 7532799
-0.041933332 0.10409334 0.51800001 7730175
-0.040946666 0.10409334 0.51800001 8647935
-0.039960001 0.10409334 0.51800001 9174271
-0.039048575 0.10429429 0.51900005 10745855
-0.038060006 0.10429429 0.51900005 10811647
-0.037071433 0.10429429 0.51900005 10287103
-0.03608286 0.10429429 0.51900005 9760762
-0.035026666 0.10409334 0.51800001 8844543
-0.03404 0.10409334 0.51800001 8910335
-0.033053335 0.10409334 0.51800001 8779263
-0.032066669 0.10409334 0.51800001 8713471
-0.031079998 0.10409334 0.51800001 12319231
-0.030035239 0.10389239 0.51700002 13434879
-0.029050477 0.10389239 0.51700002 16449020
-0.02812 0.10409334 0.51800001 16580606
-0.027133333 0.10409334 0.51800001 16514043
-0.026096191 0.10389239 0.51700002 16514043
-0.025111429 0.10389239 0.51700002 16514043
-0.024080003 0.10369144 0.51600003 16711422
-0.023097143 0.10369144 0.51600003 16646142
-0.022071429 0.10349049 0.51500005 8685189
-0.021090478 0.10349049 0.51500005 5739263
-0.11981143 0.10589143 0.52200001 8959185
-0.11881714 0.10589143 0.52200001 7852031
-0.11759715 0.10568858 0.52100003 7654655
-0.11660477 0.10568858 0.52100003 7328767
-0.11583429 0.10589143 0.52200001 6868223
-0.11484 0.10589143 0.52200001 6344191
-0.11384571 0.10589143 0.52200001 6344191
-0.11285143 0.10589143 0.52200001 6409983
-0.11207143 0.10609429 0.523 6278399
-0.11107524 0.10609429 0.523 6214143
-0.11007905 0.10609429 0.523 6279935
-0.10908286 0.10609429 0.523 6345727
-0.10808666 0.10609429 0.523 6345727
-0.10668096 0.10568858 0.52100003 6214655
-0.10568858 0.10568858 0.52100003 6412031
-0.1046962 0.10568858 0.52100003 6412031
-0.10370382 0.10568858 0.52100003 6477823
-0.10251429 0.10548572 0.52000004 6675455
-0.10152382 0.10548572 0.52000004 6609663
-0.10034001 0.10528287 0.51900005 6610687
-0.099351436 0.10528287 0.51900005 6610687
-0.098362871 0.10528287 0.51900005 6611199
-0.097374298 0.10528287 0.51900005 6479615
-0.096571438 0.10548572 0.52000004 6676991
-0.095764771 0.10568858 0.52100003 7598079
-0.094772384 0.10568858 0.52100003 9369087
-0.088948578 0.10467429 0.51600003 11530744
-0.087965719 0.10467429 0.51600003 10483711
-0.08732 0.10508 0.51800001 10352127
-0.086333334 0.10508 0.51800001 10090495
-0.085676193 0.10548572 0.52000004 10156287
-0.084848575 0.10568858 0.52100003 10352383
-0.083856195 0.10568858 0.52100003 10352383
-0.082863815 0.10568858 0.52100003 9565695
-0.081557155 0.10528287 0.51900005 8776184
-0.080568574 0.10528287 0.51900005 9172479
-0.079580002 0.10528287 0.51900005 9961471
-0.078591436 0.10528287 0.51900005 13695742
-0.077602863 0.10528287 0.51900005 14352383
-0.076466665 0.10508 0.51800001 14285049
-0.075479999 0.10508 0.51800001 13956084
-0.05684286 0.10528287 0.51900005 10024703
-0.055746667 0.10508 0.51800001 9629948
-0.054760002 0.10508 0.51800001 8189183
-0.053877149 0.10528287 0.51900005 8254975
-0.052786667 0.10508 0.51800001 8844543
-0.051799998 0.10508 0.51800001 8647167
-0.050911434 0.10528287 0.51900005 7861247
-0.049922861 0.10528287 0.51900005 7861247
-0.048934288 0.10528287 0.51900005 7664639
-0.047945719 0.10528287 0.51900005 7533055
-0.046866667 0.10508 0.51800001 7598847
-0.045880001 0.10508 0.51800001 7533055
-0.044893332 0.10508 0.51800001 7468031
-0.043906666 0.10508 0.51800001 7533823
-0.042920001 0.10508 0.51800001 7664639
-0.041852385 0.10487714 0.51700002 7862015
-0.040867623 0.10487714 0.51700002 9106687
-0.039960001 0.10508 0.51800001 9567231
-0.039048575 0.10528287 0.51900005 10483711
-0.038060006 0.10528287 0.51900005 10417919
-0.037 0.10508 0.51800001 10155775
-0.036013331 0.10508 0.51800001 9826814
-0.035026666 0.10508 0.51800001 9172479
-0.03404 0.10508 0.51800001 9172479
-0.033053335 0.10508 0.51800001 8451327
-0.032066669 0.10508 0.51800001 8056574
-0.031079998 0.10508 0.51800001 14875389
-0.030035239 0.10487714 0.51700002 15597567
-0.029050477 0.10487714 0.51700002 16711422
-0.02812 0.10508 0.51800001 16514043
-0.027133333 0.10508 0.51800001 16514043
-0.026096191 0.10487714 0.51700002 16514043
-0.025111429 0.10487714 0.51700002 16514043
-0.024080003 0.10467429 0.51600003 16711422
-0.023052383 0.10447144 0.51500005 16646142
-0.022028571 0.10426857 0.514 8422017
-0.021049524 0.10426857 0.514 6198015
-0.12080571 0.10688572 0.52200001 6001871
-0.11958191 0.10668096 0.52100003 8567798
-0.11858953 0.10668096 0.52100003 9165567
-0.11759715 0.10668096 0.52100003 8178679
-0.11638096 0.1064762 0.52000004 6672383
-0.11539049 0.1064762 0.52000004 6540799
-0.11440001 0.1064762 0.52000004 6278655
-0.11340953 0.1064762 0.52000004 6212863
-0.10980096 0.10586191 0.51700002 6345727
-0.10881619 0.10586191 0.51700002 6345727
-0.10804 0.10606667 0.51800001 6345727
-0.10705333 0.10606667 0.51800001 6411519
-0.10606667 0.10606667 0.51800001 6543359
-0.10487714 0.10586191 0.51700002 6609151
-0.10389239 0.10586191 0.51700002 6543871
-0.10330572 0.10627144 0.51900005 6543871
-0.10231715 0.10627144 0.51900005 6675967
-0.10132858 0.10627144 0.51900005 6675967
-0.10014667 0.10606667 0.51800001 6611199
-0.099160001 0.10606667 0.51800001 6676991
-0.098173335 0.10606667 0.51800001 6742271
-0.097186662 0.10606667 0.51800001 6544895
-0.096385725 0.10627144 0.51900005 6742271
-0.095580958 0.1064762 0.52000004 7663359
-0.094772384 0.10668096 0.52100003 9434623
-0.088948578 0.10565715 0.51600003 11333881
-0.087965719 0.10565715 0.51600003 10155775
-0.087151431 0.10586191 0.51700002 10089983
-0.086333334 0.10606667 0.51800001 10024703
-0.085676193 0.1064762 0.52000004 10222079
-0.084685721 0.1064762 0.52000004 10811135
-0.083856195 0.10668096 0.52100003 10876927
-0.082863815 0.10668096 0.52100003 9762559
-0.081557155 0.10627144 0.51900005 8973047
-0.080568574 0.10627144 0.51900005 9369087
-0.079580002 0.10627144 0.51900005 10223615
-0.078591436 0.10627144 0.51900005 13761276
-0.077602863 0.10627144 0.51900005 14352383
-0.076466665 0.10606667 0.51800001 14547194
-0.075479999 0.10606667 0.51800001 14415608
-0.057608575 0.10586191 0.51700002 11465467
-0.056623809 0.10586191 0.51700002 10221311
-0.055639047 0.10586191 0.51700002 9892350
-0.054654285 0.10586191 0.51700002 8975871
-0.053773336 0.10606667 0.51800001 8844287
-0.052786667 0.10606667 0.51800001 8713471
-0.051799998 0.10606667 0.51800001 8647679
-0.050813332 0.10606667 0.51800001 8451327
-0.049826667 0.10606667 0.51800001 8451327
-0.048840001 0.10606667 0.51800001 8189183
-0.047760952 0.10586191 0.51700002 7991807
-0.04677619 0.10586191 0.51700002 7992575
-0.045791429 0.10586191 0.51700002 7729407
-0.044806667 0.10586191 0.51700002 7598847
-0.043821905 0.10586191 0.51700002 8125183
-0.042837143 0.10586191 0.51700002 9172479
-0.041852385 0.10586191 0.51700002 9304063
-0.040867623 0.10586191 0.51700002 10483711
-0.039882861 0.10586191 0.51700002 10878463
-0.038973335 0.10606667 0.51800001 10942463
-0.037986666 0.10606667 0.51800001 10613502
-0.037 0.10606667 0.51800001 10024703
-0.036013331 0.10606667 0.51800001 9827327
-0.035026666 0.10606667 0.51800001 9565695
-0.03404 0.10606667 0.51800001 9565695
-0.033053335 0.10606667 0.51800001 10745855
-0.032066669 0.10606667 0.51800001 11272191
-0.031079998 0.10606667 0.51800001 15727609
-0.030035239 0.10586191 0.51700002 16187391
-0.029050477 0.10586191 0.51700002 16514043
-0.028065715 0.10586191 0.51700002 16514043
-0.027080953 0.10586191 0.51700002 16514043
-0.026096191 0.10586191 0.51700002 16514043
-0.025062859 0.10565715 0.51600003 16514043
-0.024033336 0.10545239 0.51500005 16711422
-0.023052383 0.10545239 0.51500005 16646142
-0.022028571 0.10524762 0.514 8290431
-0.021049524 0.10524762 0.514 6000636
-0.12034287 0.10746668 0.52000004 5412321
-0.11935239 0.10746668 0.52000004 8241407
-0.11836191 0.10746668 0.52000004 8772095
