# .PCD v0.7 - Point Cloud Data file format
VERSION 0.7
FIELDS x y z rgb
SIZE 4 4 4 4
TYPE F F F F
COUNT 1 1 1 1
WIDTH 1025
HEIGHT 1
VIEWPOINT 0 0 0 1 0 0 0
POINTS 1025
DATA ascii
-0.0035200003 -0.14432001 1.2320001 1.6778898e-38
-0.096428573 -0.14404762 1.25 1.0879084e-38
-0.094047621 -0.14404762 1.25 7.0097545e-39
-0.091666669 -0.14404762 1.25 6.8253633e-39
-0.08964286 -0.14462382 1.2550001 7.8377103e-39
-0.087530479 -0.14508477 1.2590001 8.4830797e-39
-0.085470475 -0.14566095 1.2640001 8.7582345e-39
-0.083062857 -0.14566095 1.2640001 8.7582345e-39
-0.08065524 -0.14566095 1.2640001 8.8504301e-39
-0.078495234 -0.1461219 1.268 8.9426258e-39
-0.076080002 -0.1461219 1.268 9.0344557e-39
-0.073955238 -0.1466981 1.273 9.1266513e-39
-0.071530476 -0.1466981 1.273 9.0351717e-39
-0.069377147 -0.1472743 1.2780001 9.0351717e-39
-0.066942863 -0.1472743 1.2780001 9.0351745e-39
-0.06450858 -0.1472743 1.2780001 9.0351745e-39
-0.062074292 -0.1472743 1.2780001 9.1266513e-39
-0.059640005 -0.1472743 1.2780001 9.2188469e-39
-0.057205718 -0.1472743 1.2780001 9.1273702e-39
-0.054771435 -0.1472743 1.2780001 9.1273702e-39
-0.052337147 -0.1472743 1.2780001 9.0351745e-39
-0.049902864 -0.1472743 1.2780001 9.0351745e-39
-0.047468573 -0.1472743 1.2780001 8.8507833e-39
-0.045034289 -0.1472743 1.2780001 8.7585876e-39
-0.042600002 -0.1472743 1.2780001 8.5741964e-39
-0.040165719 -0.1472743 1.2780001 8.5741964e-39
-0.037731431 -0.1472743 1.2780001 8.389452e-39
-0.035159048 -0.1466981 1.273 8.389452e-39
-0.032734282 -0.1466981 1.273 8.1125092e-39
-0.030190477 -0.1461219 1.268 8.0203135e-39
-0.027775237 -0.1461219 1.268 7.8359223e-39
-0.025459999 -0.1466981 1.273 7.651531e-39
-0.022944763 -0.1461219 1.268 7.5593228e-39
-0.020529523 -0.1461219 1.268 7.5593228e-39
-0.017985715 -0.14508477 1.2590001 8.5738026e-39
-0.015538097 -0.14462382 1.2550001 9.6801502e-39
-0.013095238 -0.14404762 1.25 1.0047175e-38
-0.010594286 -0.14243428 1.2360001 1.3550609e-38
-0.0082133338 -0.14197333 1.2320001 1.4104808e-38
-0.0058428575 -0.14139715 1.2270001 1.447359e-38
-0.0035057145 -0.14139715 1.2270001 1.7054782e-38
-0.096428573 -0.14166667 1.25 1.1341495e-38
-0.094047621 -0.14166667 1.25 1.0140075e-38
-0.091666669 -0.14166667 1.25 8.2039663e-39
-0.08964286 -0.14223334 1.2550001 8.1124966e-39
-0.087530479 -0.14268668 1.2590001 8.757866e-39
-0.085470475 -0.14325333 1.2640001 8.5741964e-39
-0.083062857 -0.14325333 1.2640001 8.5741964e-39
-0.080910474 -0.14370666 1.268 8.6660389e-39
-0.078495234 -0.14370666 1.268 8.8504301e-39
-0.076080002 -0.14370666 1.268 8.9422572e-39
-0.073955238 -0.14427333 1.273 8.9422572e-39
-0.071811438 -0.14484002 1.2780001 8.8511336e-39
-0.069377147 -0.14484002 1.2780001 8.8511336e-39
-0.066942863 -0.14484002 1.2780001 8.8507805e-39
-0.06450858 -0.14484002 1.2780001 8.8507805e-39
-0.062317148 -0.14540668 1.2830001 8.9422572e-39
-0.059640005 -0.14484002 1.2780001 9.0344529e-39
-0.057205718 -0.14484002 1.2780001 8.8507805e-39
-0.054771435 -0.14484002 1.2780001 8.6663892e-39
-0.052337147 -0.14484002 1.2780001 8.758938e-39
-0.050098099 -0.14540668 1.2830001 8.6667423e-39
-0.047468573 -0.14484002 1.2780001 8.757866e-39
-0.045034289 -0.14484002 1.2780001 8.757866e-39
-0.042600002 -0.14484002 1.2780001 8.5741936e-39
-0.040165719 -0.14484002 1.2780001 8.4819979e-39
-0.037731431 -0.14484002 1.2780001 8.3890835e-39
-0.035159048 -0.14427333 1.273 8.3890835e-39
-0.032734282 -0.14427333 1.273 8.0203009e-39
-0.030190477 -0.14370666 1.268 7.8359097e-39
-0.027775237 -0.14370666 1.268 7.467846e-39
-0.025359999 -0.14370666 1.268 7.3756504e-39
-0.022944763 -0.14370666 1.268 7.742635e-39
-0.020464763 -0.14325333 1.2640001 8.2958088e-39
-0.017928572 -0.14223334 1.2550001 1.0045005e-38
-0.015364763 -0.14064667 1.2410001 1.0874766e-38
-0.013000953 -0.14064667 1.2410001 1.1431529e-38
-0.010560001 -0.13962668 1.2320001 9.5876168e-39
-0.0081800008 -0.13906002 1.2270001 7.4695766e-39
-0.0058428575 -0.13906002 1.2270001 1.4015466e-38
-0.0034942857 -0.13860667 1.223 1.7607595e-38
-0.001164762 -0.13860667 1.223 1.9174921e-38
-0.093671434 -0.13872856 1.245 9.4961751e-39
-0.091299996 -0.13872856 1.245 1.0602523e-38
-0.08964286 -0.13984287 1.2550001 1.06961e-38
-0.087530479 -0.14028858 1.2590001 9.9585349e-39
-0.085470475 -0.14084572 1.2640001 9.8642135e-39
-0.083062857 -0.14084572 1.2640001 9.7720179e-39
-0.080910474 -0.14129142 1.268 8.8508029e-39
-0.078495234 -0.14129142 1.268 8.4820204e-39
-0.076080002 -0.14129142 1.268 8.5741964e-39
-0.073955238 -0.14184856 1.273 8.3898051e-39
-0.071811438 -0.14240573 1.2780001 8.4819853e-39
-0.069377147 -0.14240573 1.2780001 8.7585722e-39
-0.066942863 -0.14240573 1.2780001 8.6660235e-39
-0.06450858 -0.14240573 1.2780001 8.6660235e-39
-0.062317148 -0.14296286 1.2830001 8.6660235e-39
-0.059640005 -0.14240573 1.2780001 8.6660235e-39
-0.057205718 -0.14240573 1.2780001 8.2979598e-39
-0.054771435 -0.14240573 1.2780001 8.0213729e-39
-0.052337147 -0.14240573 1.2780001 8.2061173e-39
-0.049902864 -0.14240573 1.2780001 8.2983129e-39
-0.047654286 -0.14296286 1.2830001 8.2057642e-39
-0.045210481 -0.14296286 1.2830001 8.2979598e-39
-0.042600002 -0.14240573 1.2780001 8.2054111e-39
-0.040165719 -0.14240573 1.2780001 8.0210198e-39
-0.037731431 -0.14240573 1.2780001 8.2965375e-39
-0.035159048 -0.14184856 1.273 8.9419069e-39
-0.032734282 -0.14184856 1.273 9.2195504e-39
-0.030190477 -0.14129142 1.268 9.5883329e-39
-0.027775237 -0.14129142 1.268 1.0142573e-38
-0.025359999 -0.14129142 1.268 1.0234769e-38
-0.022944763 -0.14129142 1.268 1.0694693e-38
-0.020011429 -0.13772571 1.2360001 1.1708845e-38
-0.017600002 -0.13728002 1.2320001 1.087946e-38
-0.015191429 -0.13672288 1.2270001 1.023409e-38
-0.012854287 -0.13672288 1.2270001 9.8656457e-39
-0.010482857 -0.13627714 1.223 7.8373418e-39
-0.0081533343 -0.13627714 1.223 7.008967e-39
-0.0058238097 -0.13627714 1.223 1.4200226e-38
-0.0034942857 -0.13627714 1.223 1.7884533e-38
-0.001164762 -0.13627714 1.223 1.899088e-38
-0.092994288 -0.13537145 1.2360001 7.6554771e-39
-0.090640001 -0.13537145 1.2360001 9.6837809e-39
-0.088642858 -0.13591906 1.2410001 1.1340413e-38
-0.087252386 -0.13745239 1.2550001 1.0326261e-38
-0.085470475 -0.13843809 1.2640001 1.0048605e-38
-0.083062857 -0.13843809 1.2640001 9.9564092e-39
-0.080910474 -0.1388762 1.268 9.6805439e-39
-0.078495234 -0.1388762 1.268 9.5883483e-39
-0.076080002 -0.1388762 1.268 9.5883455e-39
-0.073955238 -0.13942382 1.273 9.4039542e-39
-0.071811438 -0.13997145 1.2780001 9.4039416e-39
-0.069377147 -0.13997145 1.2780001 9.2195504e-39
-0.066942863 -0.13997145 1.2780001 9.1270016e-39
-0.06450858 -0.13997145 1.2780001 9.034806e-39
-0.062317148 -0.14051905 1.2830001 9.034806e-39
-0.059640005 -0.13997145 1.2780001 8.8504147e-39
-0.057205718 -0.13997145 1.2780001 8.4816322e-39
-0.054771435 -0.13997145 1.2780001 8.6660235e-39
-0.052337147 -0.13997145 1.2780001 8.7592911e-39
-0.049902864 -0.13997145 1.2780001 8.8514867e-39
-0.047654286 -0.14051905 1.2830001 8.9433292e-39
-0.045210481 -0.14051905 1.2830001 8.9433292e-39
-0.042600002 -0.13997145 1.2780001 9.1277205e-39
-0.040165719 -0.13997145 1.2780001 9.2199161e-39
-0.037731431 -0.13997145 1.2780001 9.4035885e-39
-0.035159048 -0.13942382 1.273 9.6801754e-39
-0.032734282 -0.13942382 1.273 9.8649198e-39
-0.030190477 -0.1388762 1.268 1.0510289e-38
-0.027775237 -0.1388762 1.268 1.0696125e-38
-0.025459999 -0.13942382 1.273 1.0788321e-38
-0.022944763 -0.1388762 1.268 1.0421346e-38
-0.019865716 -0.13438572 1.2270001 1.0236955e-38
-0.017471429 -0.13394763 1.223 9.9596588e-39
-0.015141904 -0.13394763 1.223 9.7752675e-39
-0.012812382 -0.13394763 1.223 9.7741689e-39
-0.010482857 -0.13394763 1.223 8.1146476e-39
-0.0081533343 -0.13394763 1.223 6.6405446e-39
-0.0058047622 -0.13350953 1.2190001 1.4016195e-38
-0.0034828575 -0.13350953 1.2190001 1.6962939e-38
-0.0011609525 -0.13350953 1.2190001 1.7884896e-38
0.0011609525 -0.13350953 1.2190001 1.7423917e-38
-0.095040008 -0.13258669 1.2320001 6.269691e-39
-0.092317149 -0.13204859 1.2270001 6.5494925e-39
-0.089980014 -0.13204859 1.2270001 8.3934051e-39
-0.088000007 -0.13258669 1.2320001 9.4050332e-39
-0.084401913 -0.13064952 1.2140001 9.6816201e-39
-0.082089528 -0.13064952 1.2140001 9.7727396e-39
-0.083325714 -0.13646095 1.268 1.0233718e-38
-0.080910474 -0.13646095 1.268 1.0142951e-38
-0.078495234 -0.13646095 1.268 1.0788321e-38
-0.07638 -0.13699904 1.273 1.0696491e-38
-0.074245721 -0.13753715 1.2780001 1.0973078e-38
-0.071811438 -0.13753715 1.2780001 1.1064555e-38
-0.069377147 -0.13753715 1.2780001 1.1064555e-38
-0.066942863 -0.13753715 1.2780001 1.1064908e-38
-0.064760961 -0.13807526 1.2830001 1.1157103e-38
-0.062317148 -0.13807526 1.2830001 1.1249299e-38
-0.059873335 -0.13807526 1.2830001 1.143369e-38
-0.05742953 -0.13807526 1.2830001 1.1341495e-38
-0.054985717 -0.13807526 1.2830001 1.1249299e-38
-0.052541912 -0.13807526 1.2830001 1.143369e-38
-0.050098099 -0.13807526 1.2830001 1.1525886e-38
-0.047654286 -0.13807526 1.2830001 1.143369e-38
-0.045210481 -0.13807526 1.2830001 1.143369e-38
-0.042766668 -0.13807526 1.2830001 1.1341495e-38
-0.040165719 -0.13753715 1.2780001 1.143369e-38
-0.037731431 -0.13753715 1.2780001 1.1249299e-38
-0.035297148 -0.13753715 1.2780001 1.1249299e-38
-0.032862861 -0.13753715 1.2780001 1.1065627e-38
-0.030309524 -0.13699904 1.273 1.0973431e-38
-0.027884761 -0.13699904 1.273 1.0696841e-38
-0.025459999 -0.13699904 1.273 1.0420254e-38
-0.022058096 -0.13118763 1.2190001 1.0052563e-38
-0.019736191 -0.13118763 1.2190001 9.8681722e-39
-0.017471429 -0.1316181 1.223 9.7759766e-39
-0.015141904 -0.1316181 1.223 9.5915853e-39
-0.012812382 -0.1316181 1.223 9.4990211e-39
-0.010448572 -0.13118763 1.2190001 8.0238911e-39
-0.0081266677 -0.13118763 1.2190001 7.1019053e-39
-0.0058047622 -0.13118763 1.2190001 1.3002426e-38
-0.0034828575 -0.13118763 1.2190001 1.6594495e-38
-0.0011609525 -0.13118763 1.2190001 1.7700842e-38
0.0011609525 -0.13118763 1.2190001 1.7791984e-38
-0.096991435 -0.12971143 1.2270001 1.2907413e-38
-0.094654292 -0.12971143 1.2270001 6.9146975e-39
-0.091715246 -0.12886572 1.2190001 7.2848869e-39
-0.08939334 -0.12886572 1.2190001 9.1287995e-39
-0.086714298 -0.12833716 1.2140001 9.1287995e-39
-0.084123813 -0.12791428 1.21 9.5897776e-39
-0.081548579 -0.12749144 1.2060001 9.7738158e-39
-0.078988574 -0.12706856 1.202 1.0050403e-38
-0.076699048 -0.12706856 1.202 9.5915797e-39
-0.074100003 -0.12654001 1.197 1.0144753e-38
-0.071820006 -0.12654001 1.197 9.9621629e-39
-0.074245721 -0.13510287 1.2780001 1.0146554e-38
-0.067259997 -0.12654001 1.197 1.0238034e-38
-0.06498 -0.12654001 1.197 1.0238034e-38
-0.062699996 -0.12654001 1.197 1.0330227e-38
-0.064760961 -0.13563144 1.2830001 1.0514618e-38
-0.062317148 -0.13563144 1.2830001 1.0607167e-38
-0.059873335 -0.13563144 1.2830001 1.0883753e-38
-0.05742953 -0.13563144 1.2830001 1.1342213e-38
-0.054985717 -0.13563144 1.2830001 1.1526605e-38
-0.052541912 -0.13563144 1.2830001 1.1250738e-38
-0.050098099 -0.13563144 1.2830001 1.1250738e-38
-0.047840003 -0.13616002 1.2880001 1.1250388e-38
-0.045386672 -0.13616002 1.2880001 1.1158192e-38
-0.042766668 -0.13563144 1.2830001 1.0606813e-38
-0.040322863 -0.13563144 1.2830001 1.0606813e-38
-0.03787905 -0.13563144 1.2830001 1.0515337e-38
-0.035297148 -0.13510287 1.2780001 1.0423141e-38
-0.032862861 -0.13510287 1.2780001 1.0514618e-38
-0.030428573 -0.13510287 1.2780001 1.0422422e-38
-0.026592383 -0.12833716 1.2140001 1.0054353e-38
-0.02428 -0.12833716 1.2140001 9.9621573e-39
-0.021967622 -0.12833716 1.2140001 1.0144756e-38
-0.019736191 -0.12886572 1.2190001 1.0144756e-38
-0.017414287 -0.12886572 1.2190001 9.960365e-39
-0.015092382 -0.12886572 1.2190001 9.8681694e-39
-0.012770478 -0.12886572 1.2190001 9.3149956e-39
-0.010448572 -0.12886572 1.2190001 7.7476699e-39
-0.0081266677 -0.12886572 1.2190001 7.2855931e-39
-0.0058238097 -0.12928857 1.223 1.3554896e-38
-0.0034942857 -0.12928857 1.223 1.6225014e-38
-0.001164762 -0.12928857 1.223 1.7884535e-38
0.001164762 -0.12928857 1.223 1.7884182e-38
-0.096991435 -0.12737429 1.2270001 1.336911e-38
-0.094345719 -0.12695906 1.223 7.007612e-39
-0.091715246 -0.12654382 1.2190001 7.1937801e-39
-0.089026667 -0.12602477 1.2140001 9.1298883e-39
-0.086428568 -0.12560952 1.21 9.4053864e-39
-0.084123813 -0.12560952 1.21 9.497582e-39
-0.081548579 -0.1251943 1.2060001 9.6816201e-39
-0.078988574 -0.12477905 1.202 9.7738158e-39
-0.076380007 -0.12426001 1.197 9.5908636e-39
-0.074100003 -0.12426001 1.197 9.8674505e-39
-0.071820006 -0.12426001 1.197 9.960365e-39
-0.069539994 -0.12426001 1.197 1.0144756e-38
-0.067259997 -0.12426001 1.197 1.0236955e-38
-0.06498 -0.12426001 1.197 1.032915e-38
-0.062699996 -0.12426001 1.197 1.0329148e-38
-0.0602181 -0.12384477 1.1930001 1.0421343e-38
-0.057945717 -0.12384477 1.1930001 1.0513892e-38
-0.055859998 -0.12426001 1.197 1.0698283e-38
-0.053580001 -0.12426001 1.197 1.0882309e-38
-0.051128577 -0.12384477 1.1930001 1.0974504e-38
-0.048856195 -0.12384477 1.1930001 1.0974151e-38
-0.046583813 -0.12384477 1.1930001 1.0974151e-38
-0.04431143 -0.12384477 1.1930001 1.0698656e-38
-0.042180002 -0.12426001 1.197 1.060646e-38
-0.042933334 -0.13370667 1.2880001 1.0514618e-38
-0.037620001 -0.12426001 1.197 1.0514618e-38
-0.035221905 -0.12384477 1.1930001 1.0422422e-38
-0.032949526 -0.12384477 1.1930001 1.0422422e-38
-0.030780001 -0.12426001 1.197 1.0330227e-38
-0.0285 -0.12426001 1.197 1.0330227e-38
-0.026329523 -0.12477905 1.202 1.0329148e-38
-0.0242 -0.12560952 1.21 1.0236952e-38
-0.021967622 -0.12602477 1.2140001 1.0144759e-38
-0.019655241 -0.12602477 1.2140001 1.0144759e-38
-0.017414287 -0.12654382 1.2190001 1.0052908e-38
-0.015092382 -0.12654382 1.2190001 9.8685169e-39
-0.012770478 -0.12654382 1.2190001 9.3149984e-39
-0.010448572 -0.12654382 1.2190001 8.0242596e-39
-0.0081266677 -0.12654382 1.2190001 7.1948493e-39
-0.0058047622 -0.12654382 1.2190001 1.3740739e-38
-0.0034942857 -0.12695906 1.223 1.6409415e-38
-0.001164762 -0.12695906 1.223 1.8068937e-38
0.001164762 -0.12695906 1.223 1.7976375e-38
-0.096991435 -0.12503716 1.2270001 1.3463105e-38
-0.094345719 -0.12462953 1.223 6.7328243e-39
-0.091715246 -0.12422191 1.2190001 7.2859757e-39
-0.089026667 -0.12371239 1.2140001 9.1298883e-39
-0.086428568 -0.12330476 1.21 9.2220811e-39
-0.084123813 -0.12330476 1.21 9.3142767e-39
-0.081548579 -0.12289715 1.2060001 9.4064724e-39
-0.078988574 -0.12248952 1.202 9.5908636e-39
-0.076380007 -0.12198001 1.197 9.5908636e-39
-0.074100003 -0.12198001 1.197 1.0051842e-38
-0.071820006 -0.12198001 1.197 1.0052914e-38
-0.069539994 -0.12198001 1.197 1.0237305e-38
-0.067259997 -0.12198001 1.197 1.0329148e-38
-0.06498 -0.12198001 1.197 1.0329148e-38
-0.062699996 -0.12198001 1.197 1.0421343e-38
-0.0602181 -0.12157239 1.1930001 1.0513539e-38
-0.057945717 -0.12157239 1.1930001 1.0605018e-38
-0.055859998 -0.12198001 1.197 1.0697214e-38
-0.053580001 -0.12198001 1.197 1.0514615e-38
-0.051128577 -0.12157239 1.1930001 1.0606811e-38
-0.048856195 -0.12157239 1.1930001 1.0699009e-38
-0.046583813 -0.12157239 1.1930001 1.0791205e-38
-0.04431143 -0.12157239 1.1930001 1.0699012e-38
-0.042180002 -0.12198001 1.197 1.0699012e-38
-0.039900001 -0.12198001 1.197 1.0514618e-38
-0.037620001 -0.12198001 1.197 1.0514618e-38
-0.035221905 -0.12157239 1.1930001 1.0514618e-38
-0.032949526 -0.12157239 1.1930001 1.0514618e-38
-0.030780001 -0.12198001 1.197 1.0330227e-38
-0.0285 -0.12198001 1.197 1.0330227e-38
-0.026329523 -0.12248952 1.202 1.0421343e-38
-0.0242 -0.12330476 1.21 1.0329148e-38
-0.021967622 -0.12371239 1.2140001 1.0236952e-38
-0.019655241 -0.12371239 1.2140001 1.0236952e-38
-0.017414287 -0.12422191 1.2190001 9.777766e-39
-0.015092382 -0.12422191 1.2190001 9.6855704e-39
-0.012770478 -0.12422191 1.2190001 9.4993841e-39
-0.010448572 -0.12422191 1.2190001 7.9320584e-39
-0.0081266677 -0.12422191 1.2190001 7.1022879e-39
-0.0058047622 -0.12422191 1.2190001 1.3371591e-38
-0.0034828575 -0.12422191 1.2190001 1.6225021e-38
-0.001164762 -0.12462953 1.223 1.7884542e-38
0.001164762 -0.12462953 1.223 1.7977094e-38
-0.096991435 -0.12270001 1.2270001 1.4382897e-38
-0.094037145 -0.12190001 1.2190001 7.56042e-39
-0.091339052 -0.12140001 1.2140001 7.3778182e-39
-0.089026667 -0.12140001 1.2140001 8.9451439e-39
-0.086714298 -0.12140001 1.2140001 9.4050332e-39
-0.084123813 -0.121 1.21 9.4972289e-39
-0.081548579 -0.12060001 1.2060001 9.2220839e-39
-0.078988574 -0.1202 1.202 9.4986708e-39
-0.076699048 -0.1202 1.202 9.5908636e-39
-0.074100003 -0.11970001 1.197 9.8674505e-39
-0.071820006 -0.11970001 1.197 1.0052914e-38
-0.069539994 -0.11970001 1.197 1.0237305e-38
-0.067259997 -0.11970001 1.197 1.0421696e-38
-0.06498 -0.11970001 1.197 1.0421696e-38
-0.062699996 -0.11970001 1.197 1.0513542e-38
-0.060420003 -0.11970001 1.197 1.0790128e-38
-0.058139998 -0.11970001 1.197 1.0973804e-38
-0.055859998 -0.11970001 1.197 1.0512826e-38
-0.053580001 -0.11970001 1.197 1.0329138e-38
-0.0513 -0.11970001 1.197 1.0421333e-38
-0.04902 -0.11970001 1.197 1.0420993e-38
-0.046583813 -0.11930001 1.1930001 1.1066362e-38
-0.04431143 -0.11930001 1.1930001 1.0974151e-38
-0.042180002 -0.11970001 1.197 1.0881956e-38
-0.039900001 -0.11970001 1.197 1.0606813e-38
-0.037620001 -0.11970001 1.197 1.0606813e-38
-0.03534 -0.11970001 1.197 1.0881956e-38
-0.033059999 -0.11970001 1.197 1.078976e-38
-0.030780001 -0.11970001 1.197 1.078976e-38
-0.0285 -0.11970001 1.197 1.0513173e-38
-0.026329523 -0.1202 1.202 1.0329148e-38
-0.0242 -0.121 1.21 1.0329148e-38
-0.021895239 -0.121 1.21 1.0237305e-38
-0.019655241 -0.12140001 1.2140001 1.0145109e-38
-0.017414287 -0.12190001 1.2190001 1.0052908e-38
-0.015092382 -0.12190001 1.2190001 1.0052908e-38
-0.012770478 -0.12190001 1.2190001 9.4075444e-39
-0.010448572 -0.12190001 1.2190001 8.1168056e-39
-0.0081266677 -0.12190001 1.2190001 7.102648e-39
-0.0058047622 -0.12190001 1.2190001 1.2634386e-38
-0.0034828575 -0.12190001 1.2190001 1.5672917e-38
-0.0011609525 -0.12190001 1.2190001 1.6779264e-38
-0.10442667 -0.12085334 1.2320001 1.7794482e-38
-0.10208001 -0.12085334 1.2320001 1.7058012e-38
-0.099733338 -0.12085334 1.2320001 1.6597034e-38
-0.096991435 -0.12036287 1.2270001 1.3097913e-38
-0.094037145 -0.1195781 1.2190001 7.4739795e-39
-0.091339052 -0.11908762 1.2140001 7.5625598e-39
-0.089026667 -0.11908762 1.2140001 8.8532986e-39
-0.086714298 -0.11908762 1.2140001 9.3135439e-39
-0.084123813 -0.11869524 1.21 9.4979351e-39
-0.081548579 -0.11830287 1.2060001 9.4068255e-39
-0.079251431 -0.11830287 1.2060001 9.5912168e-39
-0.076699048 -0.11791047 1.202 9.5915825e-39
-0.074100003 -0.11742 1.197 1.0052561e-38
-0.071820006 -0.11742 1.197 1.0052914e-38
-0.069539994 -0.11742 1.197 1.0329501e-38
-0.067259997 -0.11742 1.197 1.0329148e-38
-0.06498 -0.11742 1.197 1.0513539e-38
-0.062699996 -0.11742 1.197 1.0788331e-38
-0.060420003 -0.11742 1.197 1.0972722e-38
-0.058139998 -0.11742 1.197 1.1065627e-38
-0.055859998 -0.11742 1.197 1.0235866e-38
-0.053580001 -0.11742 1.197 9.498668e-39
-0.0513 -0.11742 1.197 9.5908636e-39
-0.04902 -0.11742 1.197 1.0879788e-38
-0.046583813 -0.11702763 1.1930001 1.1709548e-38
-0.04431143 -0.11702763 1.1930001 1.1158542e-38
-0.042180002 -0.11742 1.197 1.0974151e-38
-0.039900001 -0.11742 1.197 1.0973798e-38
-0.037620001 -0.11742 1.197 1.0973798e-38
-0.03534 -0.11742 1.197 1.0881602e-38
-0.033059999 -0.11742 1.197 1.0789407e-38
-0.030780001 -0.11742 1.197 1.0697211e-38
-0.0285 -0.11742 1.197 1.0605016e-38
-0.026329523 -0.11791047 1.202 1.0421343e-38
-0.0242 -0.11869524 1.21 1.0421343e-38
-0.021895239 -0.11869524 1.21 1.0237305e-38
-0.019655241 -0.11908762 1.2140001 1.0145109e-38
-0.017414287 -0.1195781 1.2190001 9.9607125e-39
-0.015092382 -0.1195781 1.2190001 9.9607125e-39
-0.012770478 -0.1195781 1.2190001 9.6834124e-39
-0.010448572 -0.1195781 1.2190001 8.2082823e-39
-0.0081266677 -0.1195781 1.2190001 6.7360263e-39
-0.0058047622 -0.1195781 1.2190001 1.2820938e-38
-0.0034828575 -0.1195781 1.2190001 1.5120118e-38
-0.0011609525 -0.1195781 1.2190001 1.6503053e-38
0.0011609525 -0.1195781 1.2190001 1.6593441e-38
0.0034828575 -0.1195781 1.2190001 1.6501245e-38
-0.11568858 -0.11802572 1.2270001 8.7585848e-39
-0.11335144 -0.11802572 1.2270001 8.5741936e-39
-0.11101429 -0.11802572 1.2270001 7.8384138e-39
-0.10867715 -0.11802572 1.2270001 7.28524e-39
-0.10634001 -0.11802572 1.2270001 7.1040984e-39
-0.10400286 -0.11802572 1.2270001 7.8416634e-39
-0.10166572 -0.11802572 1.2270001 8.1193293e-39
-0.099328585 -0.11802572 1.2270001 8.8568943e-39
-0.096991435 -0.11802572 1.2270001 9.9621629e-39
-0.094345719 -0.11764096 1.223 8.7636197e-39
-0.091715246 -0.1172562 1.2190001 8.5770676e-39
-0.089026667 -0.11677525 1.2140001 8.9458502e-39
-0.086714298 -0.11677525 1.2140001 8.9462005e-39
-0.084123813 -0.11639048 1.21 9.2227874e-39
-0.081548579 -0.11600572 1.2060001 9.774522e-39
-0.079251431 -0.11600572 1.2060001 9.6823264e-39
-0.076699048 -0.11562095 1.202 9.4071884e-39
-0.074100003 -0.11514 1.197 1.0052558e-38
-0.071820006 -0.11514 1.197 1.0052914e-38
-0.069539994 -0.11514 1.197 1.0237305e-38
-0.067259997 -0.11514 1.197 1.0329501e-38
-0.06498 -0.11514 1.197 1.0606088e-38
-0.062699996 -0.11514 1.197 1.0697214e-38
-0.060420003 -0.11514 1.197 9.0376927e-39
-0.058139998 -0.11514 1.197 8.3011968e-39
-0.055859998 -0.11514 1.197 8.3933924e-39
-0.053580001 -0.11514 1.197 8.668557e-39
-0.0513 -0.11514 1.197 8.2075789e-39
-0.04902 -0.11514 1.197 9.0383961e-39
-0.046739999 -0.11514 1.197 1.1527678e-38
-0.044460002 -0.11514 1.197 1.1434406e-38
-0.042180002 -0.11514 1.197 1.1157819e-38
-0.039900001 -0.11514 1.197 1.0606813e-38
-0.037620001 -0.11514 1.197 1.0606813e-38
-0.03534 -0.11514 1.197 1.0697214e-38
-0.033059999 -0.11514 1.197 1.0697214e-38
-0.030780001 -0.11514 1.197 1.0605018e-38
-0.028619049 -0.11562095 1.202 1.0605018e-38
-0.026329523 -0.11562095 1.202 1.0421343e-38
-0.0242 -0.11639048 1.21 1.0421343e-38
-0.021895239 -0.11639048 1.21 1.0329501e-38
-0.019655241 -0.11677525 1.2140001 1.0052914e-38
-0.017342858 -0.11677525 1.2140001 1.0052908e-38
-0.015092382 -0.1172562 1.2190001 9.6841257e-39
-0.012770478 -0.1172562 1.2190001 9.4064724e-39
-0.010448572 -0.1172562 1.2190001 8.1157336e-39
-0.0081533343 -0.11764096 1.223 6.7360291e-39
-0.0058238097 -0.11764096 1.223 1.3742897e-38
-0.0034828575 -0.1172562 1.2190001 1.7702277e-38
-0.0011609525 -0.1172562 1.2190001 1.7794473e-38
0.0011609525 -0.1172562 1.2190001 1.7424634e-38
0.0034828575 -0.1172562 1.2190001 1.7055851e-38
-0.11802572 -0.11568858 1.2270001 8.6663738e-39
-0.11568858 -0.11568858 1.2270001 7.286326e-39
-0.11335144 -0.11568858 1.2270001 7.6551085e-39
-0.11101429 -0.11568858 1.2270001 7.6540646e-39
-0.10867715 -0.11568858 1.2270001 7.6540646e-39
-0.10634001 -0.11568858 1.2270001 7.4697154e-39
-0.10400286 -0.11568858 1.2270001 7.6541066e-39
-0.10166572 -0.11568858 1.2270001 7.8409543e-39
-0.099328585 -0.11568858 1.2270001 8.9473019e-39
-0.096991435 -0.11568858 1.2270001 1.0329148e-38
-0.094345719 -0.11531143 1.223 9.5915825e-39
-0.091715246 -0.11493429 1.2190001 9.5897776e-39
-0.089026667 -0.11446287 1.2140001 9.3131907e-39
-0.086714298 -0.11446287 1.2140001 8.760017e-39
-0.084123813 -0.11408571 1.21 9.497582e-39
-0.081548579 -0.11370859 1.2060001 9.4993743e-39
-0.079251431 -0.11370859 1.2060001 9.4993743e-39
-0.076954298 -0.11370859 1.2060001 9.3149956e-39
-0.07440953 -0.11333143 1.202 1.0052561e-38
-0.072119996 -0.11333143 1.202 1.0145109e-38
-0.069830477 -0.11333143 1.202 1.0329501e-38
-0.067540951 -0.11333143 1.202 1.0329501e-38
-0.06498 -0.11286 1.197 1.0698283e-38
-0.062699996 -0.11286 1.197 1.0697217e-38
-0.060420003 -0.11286 1.197 8.7611086e-39
-0.058139998 -0.11286 1.197 7.7476699e-39
-0.055859998 -0.11286 1.197 8.3930393e-39
-0.053580001 -0.11286 1.197 8.8536671e-39
-0.0513 -0.11286 1.197 7.8395152e-39
-0.04902 -0.11286 1.197 8.1153482e-39
-0.046739999 -0.11286 1.197 9.1295001e-39
-0.044460002 -0.11286 1.197 1.1063466e-38
-0.042180002 -0.11286 1.197 1.1524444e-38
-0.039900001 -0.11286 1.197 1.0699009e-38
-0.037620001 -0.11286 1.197 1.0606813e-38
-0.03534 -0.11286 1.197 1.0514618e-38
-0.033198096 -0.11333143 1.202 1.0514618e-38
-0.030908573 -0.11333143 1.202 1.0330227e-38
-0.028619049 -0.11333143 1.202 1.0330227e-38
-0.026504762 -0.11408571 1.21 1.0513539e-38
-0.02428 -0.11446287 1.2140001 1.0421343e-38
-0.021967622 -0.11446287 1.2140001 9.9621573e-39
-0.019655241 -0.11446287 1.2140001 9.9621573e-39
-0.017342858 -0.11446287 1.2140001 9.9607182e-39
-0.015092382 -0.11493429 1.2190001 9.8685225e-39
-0.012770478 -0.11493429 1.2190001 9.5919356e-39
-0.010448572 -0.11493429 1.2190001 7.8402187e-39
-0.0081533343 -0.11531143 1.223 6.7342312e-39
-0.0058238097 -0.11531143 1.223 1.4847447e-38
-0.0034828575 -0.11493429 1.2190001 1.8070734e-38
-0.0011609525 -0.11493429 1.2190001 1.7794148e-38
0.0011609525 -0.11493429 1.2190001 1.724205e-38
-0.11802572 -0.11335144 1.2270001 1.070116e-38
-0.11531143 -0.11298191 1.223 1.4200586e-38
-0.11298191 -0.11298191 1.223 1.7611825e-38
-0.11065239 -0.11298191 1.223 1.8623542e-38
-0.10867715 -0.11335144 1.2270001 1.9176716e-38
-0.10634001 -0.11335144 1.2270001 1.8808637e-38
-0.10400286 -0.11335144 1.2270001 1.4567638e-38
-0.10166572 -0.11335144 1.2270001 1.1532698e-38
-0.099328585 -0.11335144 1.2270001 7.937068e-39
-0.096991435 -0.11335144 1.2270001 8.673952e-39
-0.094345719 -0.11298191 1.223 9.3193214e-39
-0.09201619 -0.11298191 1.223 9.4986708e-39
-0.089686669 -0.11298191 1.223 9.1298883e-39
-0.086714298 -0.11215048 1.2140001 8.668557e-39
-0.084401913 -0.11215048 1.2140001 9.2217308e-39
-0.08181905 -0.11178096 1.21 9.4071786e-39
-0.079514287 -0.11178096 1.21 9.6837655e-39
-0.077209525 -0.11178096 1.21 9.4993869e-39
-0.07465715 -0.11141144 1.2060001 9.960365e-39
-0.072360002 -0.11141144 1.2060001 9.960365e-39
-0.069830477 -0.1110419 1.202 1.0329148e-38
-0.067540951 -0.1110419 1.202 1.0329148e-38
-0.065251425 -0.1110419 1.202 1.0513539e-38
-0.062961906 -0.1110419 1.202 1.0697217e-38
-0.06067238 -0.1110419 1.202 9.406478e-39
-0.058382858 -0.1110419 1.202 7.9328025e-39
-0.055859998 -0.11058 1.197 8.0249981e-39
-0.053580001 -0.11058 1.197 8.1157462e-39
-0.0513 -0.11058 1.197 7.8391593e-39
-0.04902 -0.11058 1.197 7.654726e-39
-0.046739999 -0.11058 1.197 7.9313129e-39
-0.044460002 -0.11058 1.197 1.0880516e-38
-0.042180002 -0.11058 1.197 1.1986864e-38
-0.039900001 -0.11058 1.197 1.1250385e-38
-0.037777144 -0.1110419 1.202 1.0881602e-38
-0.035487618 -0.1110419 1.202 1.078976e-38
-0.033198096 -0.1110419 1.202 1.0697564e-38
-0.030908573 -0.1110419 1.202 1.0697211e-38
-0.028809523 -0.11178096 1.21 1.0605016e-38
-0.026504762 -0.11178096 1.21 1.0697564e-38
-0.0242 -0.11178096 1.21 1.0513173e-38
-0.021967622 -0.11215048 1.2140001 1.0329501e-38
-0.019655241 -0.11215048 1.2140001 1.0145109e-38
-0.017414287 -0.11261239 1.2190001 1.0052914e-38
-0.015092382 -0.11261239 1.2190001 9.7763269e-39
-0.012770478 -0.11261239 1.2190001 9.5912168e-39
-0.010482857 -0.11298191 1.223 7.9316954e-39
-0.0081800008 -0.11335144 1.2270001 6.3676095e-39
-0.0058428575 -0.11335144 1.2270001 1.5033999e-38
-0.0035057145 -0.11335144 1.2270001 1.853171e-38
-0.0011685715 -0.11335144 1.2270001 1.853171e-38
-0.11802572 -0.11101429 1.2270001 1.3281934e-38
-0.11531143 -0.11065239 1.223 1.4938589e-38
-0.11298191 -0.11065239 1.223 1.8810805e-38
-0.11065239 -0.11065239 1.223 1.9270354e-38
-0.10867715 -0.11101429 1.2270001 1.9454745e-38
-0.10634001 -0.11101429 1.2270001 1.9454402e-38
-0.10400286 -0.11101429 1.2270001 1.8071467e-38
-0.10166572 -0.11101429 1.2270001 1.2732082e-38
-0.099328585 -0.11101429 1.2270001 8.7676695e-39
-0.096991435 -0.11101429 1.2270001 6.6503299e-39
-0.094345719 -0.11065239 1.223 7.5722862e-39
-0.09201619 -0.11065239 1.223 9.6816201e-39
-0.089686669 -0.11065239 1.223 9.220642e-39
-0.087357149 -0.11065239 1.223 8.6678213e-39
-0.084401913 -0.10983811 1.2140001 9.497582e-39
-0.082089528 -0.10983811 1.2140001 9.4068255e-39
-0.079777151 -0.10983811 1.2140001 9.5912168e-39
-0.077209525 -0.10947619 1.21 9.5915797e-39
-0.074904762 -0.10947619 1.21 9.8681666e-39
-0.0726 -0.10947619 1.21 9.775971e-39
-0.070062861 -0.10911429 1.2060001 1.0329145e-38
-0.06776572 -0.10911429 1.2060001 1.0421343e-38
-0.065251425 -0.10875238 1.202 1.0513539e-38
-0.062961906 -0.10875238 1.202 1.078941e-38
-0.060874287 -0.10911429 1.2060001 1.0051845e-38
-0.058382858 -0.10875238 1.202 8.8558153e-39
-0.056093335 -0.10875238 1.202 7.8416634e-39
-0.053580001 -0.1083 1.197 7.0115468e-39
-0.0513 -0.1083 1.197 7.2881337e-39
-0.04902 -0.1083 1.197 7.4703319e-39
-0.046739999 -0.1083 1.197 8.207897e-39
-0.044460002 -0.1083 1.197 1.124822e-38
-0.042180002 -0.1083 1.197 1.1893589e-38
-0.040066667 -0.10875238 1.202 1.1250738e-38
-0.037777144 -0.10875238 1.202 1.078976e-38
-0.035487618 -0.10875238 1.202 1.0697564e-38
-0.033308573 -0.10911429 1.2060001 1.0697564e-38
-0.031114288 -0.10947619 1.21 1.0513539e-38
-0.028809523 -0.10947619 1.21 1.0513539e-38
-0.026504762 -0.10947619 1.21 1.0513539e-38
-0.0242 -0.10947619 1.21 1.0329148e-38
-0.021967622 -0.10983811 1.2140001 1.0236952e-38
-0.019655241 -0.10983811 1.2140001 1.0236952e-38
-0.017414287 -0.11029048 1.2190001 9.9607182e-39
-0.015092382 -0.11029048 1.2190001 9.6841313e-39
-0.012770478 -0.11029048 1.2190001 9.6834124e-39
-0.010482857 -0.11065239 1.223 7.9316954e-39
-0.0081800008 -0.11101429 1.2270001 6.3676123e-39
-0.0058428575 -0.11101429 1.2270001 1.5126197e-38
-0.0035057145 -0.11101429 1.2270001 1.8256199e-38
-0.13024001 -0.10912001 1.2320001 1.7702655e-38
-0.12789334 -0.10912001 1.2320001 8.0221142e-39
-0.12554666 -0.10912001 1.2320001 4.9914307e-39
-0.12320001 -0.10912001 1.2320001 7.3885171e-39
-0.12036287 -0.10867715 1.2270001 1.1067088e-38
-0.11802572 -0.10867715 1.2270001 1.7705173e-38
-0.11531143 -0.10832286 1.223 1.8716457e-38
-0.11298191 -0.10832286 1.223 1.9085239e-38
-0.11065239 -0.10832286 1.223 1.8808653e-38
-0.10867715 -0.10867715 1.2270001 1.9177435e-38
-0.10634001 -0.10867715 1.2270001 1.9269998e-38
-0.10400286 -0.10867715 1.2270001 2.028415e-38
-0.10166572 -0.10867715 1.2270001 1.7887473e-38
-0.09900476 -0.10832286 1.223 1.3093308e-38
-0.09667524 -0.10832286 1.223 9.4140212e-39
-0.094654292 -0.10867715 1.2270001 6.8325435e-39
-0.092317149 -0.10867715 1.2270001 8.0256987e-39
-0.089980014 -0.10867715 1.2270001 8.5788725e-39
-0.087357149 -0.10832286 1.223 8.3923233e-39
-0.085027628 -0.10832286 1.223 9.2220839e-39
-0.082089528 -0.10752572 1.2140001 9.3146299e-39
-0.079777151 -0.10752572 1.2140001 9.4990211e-39
-0.077464767 -0.10752572 1.2140001 9.6830593e-39
-0.074904762 -0.10717143 1.21 9.8674505e-39
-0.0726 -0.10717143 1.21 9.8681722e-39
-0.070295244 -0.10717143 1.21 1.0421346e-38
-0.06776572 -0.10681715 1.2060001 1.0421696e-38
-0.065468572 -0.10681715 1.2060001 1.0421696e-38
-0.063171431 -0.10681715 1.2060001 1.0697211e-38
-0.060874287 -0.10681715 1.2060001 1.0789407e-38
-0.058577146 -0.10681715 1.2060001 1.0513874e-38
-0.056093335 -0.10646286 1.202 9.7763087e-39
-0.053803809 -0.10646286 1.202 8.8540147e-39
-0.051514287 -0.10646286 1.202 8.1164496e-39
-0.04902 -0.10602 1.197 8.208983e-39
-0.046739999 -0.10602 1.197 9.0387436e-39
-0.044460002 -0.10602 1.197 9.8681568e-39
-0.042356189 -0.10646286 1.202 9.6837655e-39
-0.040066667 -0.10646286 1.202 9.9599993e-39
-0.037902862 -0.10681715 1.2060001 1.078976e-38
-0.035605714 -0.10681715 1.2060001 1.1065261e-38
-0.033419047 -0.10717143 1.21 1.0973065e-38
-0.031114288 -0.10717143 1.21 1.0513539e-38
-0.028809523 -0.10717143 1.21 1.0513539e-38
-0.026504762 -0.10717143 1.21 1.0513892e-38
-0.02428 -0.10752572 1.2140001 1.0329501e-38
-0.021967622 -0.10752572 1.2140001 1.0236952e-38
-0.019655241 -0.10752572 1.2140001 1.0144756e-38
-0.017414287 -0.10796858 1.2190001 1.0052914e-38
-0.015092382 -0.10796858 1.2190001 9.7763269e-39
-0.012812382 -0.10832286 1.223 9.4993869e-39
-0.010482857 -0.10832286 1.223 7.8398655e-39
-0.0081800008 -0.10867715 1.2270001 6.5520036e-39
-0.0058428575 -0.10867715 1.2270001 1.5218393e-38
-0.0035057145 -0.10867715 1.2270001 1.8071082e-38
-0.13728002 -0.10677334 1.2320001 1.7055841e-38
-0.13493334 -0.10677334 1.2320001 1.7056201e-38
-0.13258669 -0.10677334 1.2320001 1.8070353e-38
-0.13024001 -0.10677334 1.2320001 1.7333497e-38
-0.12789334 -0.10677334 1.2320001 6.454413e-39
-0.12503716 -0.10634001 1.2270001 3.1460832e-39
-0.12270001 -0.10634001 1.2270001 8.6778084e-39
-0.11997048 -0.10599334 1.223 1.3735732e-38
-0.11764096 -0.10599334 1.223 1.8898687e-38
-0.11531143 -0.10599334 1.223 1.8807931e-38
-0.11298191 -0.10599334 1.223 1.8254757e-38
-0.11065239 -0.10599334 1.223 1.7794868e-38
-0.10867715 -0.10634001 1.2270001 1.816365e-38
-0.10634001 -0.10634001 1.2270001 1.844024e-38
-0.10400286 -0.10634001 1.2270001 1.9177805e-38
-0.10166572 -0.10634001 1.2270001 1.9362222e-38
-0.09900476 -0.10599334 1.223 1.6965137e-38
-0.09667524 -0.10599334 1.223 1.2452971e-38
-0.094654292 -0.10634001 1.2270001 7.8431894e-39
-0.092317149 -0.10634001 1.2270001 6.3694172e-39
-0.089980014 -0.10634001 1.2270001 7.4757648e-39
-0.087357149 -0.10599334 1.223 8.5770648e-39
-0.085027628 -0.10599334 1.223 9.2224342e-39
-0.082427621 -0.10564668 1.2190001 9.2231531e-39
-0.079777151 -0.10521334 1.2140001 9.49974e-39
-0.077464767 -0.10521334 1.2140001 9.6837781e-39
-0.074904762 -0.10486667 1.21 9.960365e-39
-0.0726 -0.10486667 1.21 9.9603678e-39
-0.070295244 -0.10486667 1.21 1.0421346e-38
-0.067990474 -0.10486667 1.21 1.0421696e-38
-0.065685712 -0.10486667 1.21 1.0421696e-38
-0.063171431 -0.10452001 1.2060001 1.0238031e-38
-0.060874287 -0.10452001 1.2060001 1.0514618e-38
-0.058577146 -0.10452001 1.2060001 1.1249296e-38
-0.056093335 -0.10417333 1.202 1.0972709e-38
-0.053803809 -0.10417333 1.202 1.0788318e-38
-0.051514287 -0.10417333 1.202 1.0235144e-38
-0.04902 -0.10374 1.197 9.6852201e-39
-0.046739999 -0.10374 1.197 8.5788725e-39
-0.044460002 -0.10374 1.197 8.1182503e-39
-0.042356189 -0.10417333 1.202 7.5650765e-39
-0.040066667 -0.10417333 1.202 7.5643296e-39
-0.037902862 -0.10452001 1.2060001 1.0330199e-38
-0.035605714 -0.10452001 1.2060001 1.1433687e-38
-0.033419047 -0.10486667 1.21 1.1249296e-38
-0.031114288 -0.10486667 1.21 1.0697564e-38
-0.028809523 -0.10486667 1.21 1.0605369e-38
-0.026504762 -0.10486667 1.21 1.0421343e-38
-0.02428 -0.10521334 1.2140001 1.0329148e-38
-0.021967622 -0.10521334 1.2140001 1.0236952e-38
-0.019655241 -0.10521334 1.2140001 1.0144756e-38
-0.017414287 -0.10564668 1.2190001 9.9607182e-39
-0.015092382 -0.10564668 1.2190001 9.6841313e-39
-0.012812382 -0.10599334 1.223 9.4990211e-39
-0.010482857 -0.10599334 1.223 7.8394998e-39
-0.0081800008 -0.10634001 1.2270001 6.4605338e-39
-0.0058428575 -0.10634001 1.2270001 1.540351e-38
-0.0035057145 -0.10634001 1.2270001 1.7703378e-38
-0.13728002 -0.10442667 1.2320001 1.7147671e-38
-0.13493334 -0.10442667 1.2320001 1.7332425e-38
-0.13258669 -0.10442667 1.2320001 1.7977795e-38
-0.13024001 -0.10442667 1.2320001 1.6231408e-38
-0.12789334 -0.10442667 1.2320001 3.5084113e-39
-0.12503716 -0.10400286 1.2270001 2.6891576e-39
-0.12270001 -0.10400286 1.2270001 1.0986764e-38
-0.11997048 -0.10366382 1.223 1.45673e-38
-0.11764096 -0.10366382 1.223 1.816293e-38
-0.11531143 -0.10366382 1.223 1.825511e-38
-0.11298191 -0.10366382 1.223 1.7794132e-38
-0.10947619 -0.10256191 1.21 1.7518284e-38
-0.096991435 -0.10400286 1.2270001 1.9454758e-38
-0.094654292 -0.10400286 1.2270001 1.097276e-38
-0.092317149 -0.10400286 1.2270001 4.9886379e-39
-0.089980014 -0.10400286 1.2270001 6.9247462e-39
-0.087357149 -0.10366382 1.223 8.6689073e-39
-0.085027628 -0.10366382 1.223 9.1298855e-39
-0.082427621 -0.10332477 1.2190001 9.1302414e-39
-0.080105722 -0.10332477 1.2190001 9.4068283e-39
-0.077464767 -0.10290097 1.2140001 9.4986708e-39
-0.075152382 -0.10290097 1.2140001 1.0051845e-38
-0.0726 -0.10256191 1.21 9.9603678e-39
-0.070295244 -0.10256191 1.21 1.0236955e-38
-0.067990474 -0.10256191 1.21 1.0329148e-38
-0.065685712 -0.10256191 1.21 1.0513539e-38
-0.063171431 -0.10222286 1.2060001 1.0421343e-38
-0.060874287 -0.10222286 1.2060001 1.0421343e-38
-0.058577146 -0.10222286 1.2060001 1.1064905e-38
-0.056093335 -0.10188381 1.202 9.9585573e-39
-0.053803809 -0.10188381 1.202 9.4968533e-39
-0.051514287 -0.10188381 1.202 9.7734402e-39
-0.04922476 -0.10188381 1.202 9.7731277e-39
-0.046935238 -0.10188381 1.202 9.1277583e-39
-0.044645716 -0.10188381 1.202 8.5777837e-39
-0.042356189 -0.10188381 1.202 8.3011968e-39
-0.040200002 -0.10222286 1.2060001 7.7483734e-39
-0.037902862 -0.10222286 1.2060001 9.3156991e-39
-0.035605714 -0.10222286 1.2060001 1.1157441e-38
-0.033419047 -0.10256191 1.21 1.1341832e-38
-0.031114288 -0.10256191 1.21 1.0973781e-38
-0.028809523 -0.10256191 1.21 1.0697194e-38
-0.026504762 -0.10256191 1.21 1.0513539e-38
-0.02428 -0.10290097 1.2140001 1.0329148e-38
-0.021967622 -0.10290097 1.2140001 1.0144756e-38
-0.019655241 -0.10290097 1.2140001 1.0052561e-38
-0.017414287 -0.10332477 1.2190001 1.0052195e-38
-0.015092382 -0.10332477 1.2190001 9.6834124e-39
-0.012812382 -0.10366382 1.223 9.314983e-39
-0.010517144 -0.10400286 1.2270001 7.563266e-39
-0.0081800008 -0.10400286 1.2270001 6.7353257e-39
-0.0058666673 -0.10442667 1.2320001 1.613928e-38
-0.0035200003 -0.10442667 1.2320001 1.7795574e-38
-0.13772571 -0.10241143 1.2360001 1.6687056e-38
-0.13493334 -0.10208001 1.2320001 1.7055841e-38
-0.13258669 -0.10208001 1.2320001 1.7516819e-38
-0.13024001 -0.10208001 1.2320001 1.4475793e-38
-0.12789334 -0.10208001 1.2320001 4.5186649e-39
-0.12503716 -0.10166572 1.2270001 5.8139761e-39
-0.12270001 -0.10166572 1.2270001 1.3927189e-38
-0.11997048 -0.10133429 1.223 1.5396695e-38
-0.11677525 -0.10058858 1.2140001 1.8070369e-38
-0.11446287 -0.10058858 1.2140001 1.7794498e-38
-0.11178096 -0.10025714 1.21 1.7794498e-38
-0.10947619 -0.10025714 1.21 1.7518634e-38
-0.096991435 -0.10166572 1.2270001 1.9822834e-38
-0.094654292 -0.10166572 1.2270001 1.1617424e-38
-0.092317149 -0.10166572 1.2270001 6.7324516e-39
-0.089980014 -0.10166572 1.2270001 8.0231904e-39
-0.087642863 -0.10166572 1.2270001 9.1291498e-39
-0.085027628 -0.10133429 1.223 9.4057367e-39
-0.082427621 -0.10100286 1.2190001 9.497582e-39
-0.080105722 -0.10100286 1.2190001 9.7741689e-39
-0.077464767 -0.10058858 1.2140001 9.498668e-39
-0.075152382 -0.10058858 1.2140001 1.0051842e-38
-0.072840005 -0.10058858 1.2140001 1.0052558e-38
-0.070527628 -0.10058858 1.2140001 1.0236949e-38
-0.067990474 -0.10025714 1.21 1.0420977e-38
-0.065685712 -0.10025714 1.21 1.0697564e-38
-0.063380957 -0.10025714 1.21 1.0513892e-38
-0.060874287 -0.099925719 1.2060001 1.0513892e-38
-0.058577146 -0.099925719 1.2060001 1.1064905e-38
-0.056280006 -0.099925719 1.2060001 8.3912316e-39
-0.053982858 -0.099925719 1.2060001 8.2036132e-39
-0.051685717 -0.099925719 1.2060001 9.2177651e-39
-0.049388576 -0.099925719 1.2060001 9.311781e-39
-0.047091432 -0.099925719 1.2060001 8.9429985e-39
-0.044794288 -0.099925719 1.2060001 8.577418e-39
-0.042497143 -0.099925719 1.2060001 8.1164398e-39
-0.040200002 -0.099925719 1.2060001 7.2870449e-39
-0.038028572 -0.10025714 1.21 8.3933924e-39
-0.035723813 -0.10025714 1.21 8.6689073e-39
-0.033419047 -0.10025714 1.21 9.4064724e-39
-0.031114288 -0.10025714 1.21 1.0972709e-38
-0.028809523 -0.10025714 1.21 1.0880514e-38
-0.026504762 -0.10025714 1.21 1.0238034e-38
-0.02428 -0.10058858 1.2140001 1.0145838e-38
-0.021967622 -0.10058858 1.2140001 9.8699673e-39
-0.019736191 -0.10100286 1.2190001 9.7777716e-39
-0.017414287 -0.10100286 1.2190001 9.8685225e-39
-0.015092382 -0.10100286 1.2190001 9.5919356e-39
-0.012812382 -0.10133429 1.223 9.4990211e-39
-0.010517144 -0.10166572 1.2270001 7.4707173e-39
-0.0081800008 -0.10166572 1.2270001 6.8275241e-39
-0.0058428575 -0.10166572 1.2270001 1.6508065e-38
-0.0035057145 -0.10166572 1.2270001 1.7703378e-38
-0.1470143 -0.10159525 1.2550001 1.6779239e-38
-0.14347143 -0.10078571 1.245 1.6871435e-38
-0.14064667 -0.10046192 1.2410001 1.65945e-38
-0.13772571 -0.10005715 1.2360001 1.6502304e-38
-0.13493334 -0.099733338 1.2320001 1.6779254e-38
-0.13258669 -0.099733338 1.2320001 1.7424624e-38
-0.13024001 -0.099733338 1.2320001 1.4661639e-38
-0.12789334 -0.099733338 1.2320001 4.5201194e-39
-0.12503716 -0.099328585 1.2270001 4.893934e-39
-0.12270001 -0.099328585 1.2270001 1.2914954e-38
-0.11997048 -0.09900476 1.223 1.5580724e-38
-0.11677525 -0.098276198 1.2140001 1.8162201e-38
-0.11446287 -0.098276198 1.2140001 1.7886693e-38
-0.11178096 -0.097952388 1.21 1.7886693e-38
-0.10947619 -0.097952388 1.21 1.7703378e-38
-0.092317149 -0.099328585 1.2270001 6.3662517e-39
-0.089980014 -0.099328585 1.2270001 6.8272298e-39
-0.087642863 -0.099328585 1.2270001 8.575976e-39
-0.085305721 -0.099328585 1.2270001 9.4057367e-39
-0.082427621 -0.098680958 1.2190001 9.2224342e-39
-0.080105722 -0.098680958 1.2190001 9.4068255e-39
-0.077464767 -0.098276198 1.2140001 9.4071884e-39
-0.075152382 -0.098276198 1.2140001 9.8681666e-39
-0.072840005 -0.098276198 1.2140001 9.8681666e-39
-0.070527628 -0.098276198 1.2140001 1.0144753e-38
-0.067990474 -0.097952388 1.21 1.0420977e-38
-0.065685712 -0.097952388 1.21 1.0513173e-38
-0.063380957 -0.097952388 1.21 1.0238028e-38
-0.061076194 -0.097952388 1.21 1.0330224e-38
-0.058577146 -0.097628579 1.2060001 1.0145107e-38
-0.056280006 -0.097628579 1.2060001 7.7480202e-39
-0.053982858 -0.097628579 1.2060001 8.3898303e-39
-0.051685717 -0.097628579 1.2060001 8.6664172e-39
-0.049388576 -0.097628579 1.2060001 7.7469637e-39
-0.047091432 -0.097628579 1.2060001 6.0874423e-39
-0.044794288 -0.097628579 1.2060001 5.6289655e-39
-0.042497143 -0.097628579 1.2060001 6.0899436e-39
-0.040333334 -0.097952388 1.21 7.2863414e-39
-0.038028572 -0.097952388 1.21 8.7614715e-39
-0.035723813 -0.097952388 1.21 8.5774334e-39
-0.033419047 -0.097952388 1.21 8.3008465e-39
-0.031114288 -0.097952388 1.21 9.8678037e-39
-0.028809523 -0.097952388 1.21 1.0697564e-38
-0.026504762 -0.097952388 1.21 1.0697214e-38
-0.02428 -0.098276198 1.2140001 1.0328431e-38
-0.022058096 -0.098680958 1.2190001 1.0145109e-38
-0.019736191 -0.098680958 1.2190001 1.0052914e-38
-0.017414287 -0.098680958 1.2190001 9.8685225e-39
-0.015092382 -0.098680958 1.2190001 9.7763269e-39
-0.012812382 -0.09900476 1.223 9.2224497e-39
-0.010517144 -0.099328585 1.2270001 7.3785371e-39
-0.0081800008 -0.099328585 1.2270001 7.7484112e-39
-0.0058428575 -0.099328585 1.2270001 1.6967974e-38
-0.0035200003 -0.099733338 1.2320001 1.7703376e-38
-0.0011733334 -0.099733338 1.2320001 1.6689224e-38
-0.1470143 -0.099204771 1.2550001 1.6594495e-38
-0.14347143 -0.098414287 1.245 1.6594495e-38
-0.14064667 -0.098098099 1.2410001 1.6503018e-38
-0.13772571 -0.097702861 1.2360001 1.6503018e-38
-0.13537145 -0.097702861 1.2360001 1.6687412e-38
-0.13258669 -0.097386681 1.2320001 1.7517172e-38
-0.13024001 -0.097386681 1.2320001 1.5673998e-38
-0.12789334 -0.097386681 1.2320001 7.1920004e-39
-0.12503716 -0.096991435 1.2270001 5.5388284e-39
-0.12270001 -0.096991435 1.2270001 1.3559848e-38
-0.11997048 -0.09667524 1.223 1.5305566e-38
-0.11677525 -0.095963813 1.2140001 1.7887044e-38
-0.11408571 -0.095647618 1.21 1.7886693e-38
-0.11141144 -0.095331438 1.2060001 1.7794498e-38
-0.10875238 -0.095015235 1.202 1.7703378e-38
-0.10646286 -0.095015235 1.202 1.7703378e-38
-0.092317149 -0.096991435 1.2270001 9.5894595e-39
-0.089980014 -0.096991435 1.2270001 7.6533513e-39
-0.087642863 -0.096991435 1.2270001 8.4837804e-39
-0.085305721 -0.096991435 1.2270001 9.3135411e-39
-0.082698092 -0.09667524 1.223 9.3146299e-39
-0.080105722 -0.096359059 1.2190001 9.6834124e-39
-0.077783816 -0.096359059 1.2190001 9.5915797e-39
-0.075461909 -0.096359059 1.2190001 9.8681666e-39
-0.072840005 -0.095963813 1.2140001 9.8681694e-39
-0.070527628 -0.095963813 1.2140001 1.0236952e-38
-0.067990474 -0.095647618 1.21 1.0329501e-38
-0.065685712 -0.095647618 1.21 1.0513892e-38
-0.063380957 -0.095647618 1.21 1.023911e-38
-0.061076194 -0.095647618 1.21 1.0146914e-38
-0.058577146 -0.095331438 1.2060001 9.5011847e-39
-0.056280006 -0.095331438 1.2060001 8.4870328e-39
-0.053982858 -0.095331438 1.2060001 9.4968786e-39
-0.051685717 -0.095331438 1.2060001 9.0359004e-39
-0.049388576 -0.095331438 1.2060001 8.1161021e-39
-0.047091432 -0.095331438 1.2060001 5.5346245e-39
-0.044794288 -0.095331438 1.2060001 3.6942263e-39
-0.042497143 -0.095331438 1.2060001 6.8288763e-39
-0.040333334 -0.095647618 1.21 8.0217485e-39
-0.038028572 -0.095647618 1.21 9.3124873e-39
-0.035723813 -0.095647618 1.21 9.0384087e-39
-0.033529524 -0.095963813 1.2140001 8.4852349e-39
-0.031217147 -0.095963813 1.2140001 9.497582e-39
-0.028809523 -0.095647618 1.21 1.0972712e-38
-0.026504762 -0.095647618 1.21 1.0513892e-38
-0.02428 -0.095963813 1.2140001 1.0237305e-38
-0.022058096 -0.096359059 1.2190001 1.0145109e-38
-0.019736191 -0.096359059 1.2190001 9.9607182e-39
-0.017414287 -0.096359059 1.2190001 9.8685225e-39
-0.015141904 -0.09667524 1.223 9.6841313e-39
-0.012854287 -0.096991435 1.2270001 9.3146299e-39
-0.010560001 -0.097386681 1.2320001 7.5629129e-39
-0.0082133338 -0.097386681 1.2320001 8.4859762e-39
-0.0058666673 -0.097386681 1.2320001 1.706017e-38
-0.0035200003 -0.097386681 1.2320001 1.7794495e-38
-0.0011733334 -0.097386681 1.2320001 1.6872539e-38
-0.13772571 -0.095348574 1.2360001 1.6962917e-38
-0.13537145 -0.095348574 1.2360001 1.6779242e-38
-0.13258669 -0.095040008 1.2320001 1.7516807e-38
-0.13024001 -0.095040008 1.2320001 1.6227895e-38
-0.12789334 -0.095040008 1.2320001 9.1288317e-39
-0.12503716 -0.094654292 1.2270001 4.9897169e-39
-0.12270001 -0.094654292 1.2270001 1.0060477e-38
-0.11997048 -0.094345719 1.223 1.4291041e-38
-0.11764096 -0.094345719 1.223 1.8163258e-38
-0.11408571 -0.093342856 1.21 1.8254745e-38
-0.11141144 -0.09303429 1.2060001 1.7609375e-38
-0.10875238 -0.092725717 1.202 1.7610813e-38
-0.10646286 -0.092725717 1.202 1.7795204e-38
-0.090346672 -0.095040008 1.2320001 7.1016643e-39
-0.087642863 -0.094654292 1.2270001 8.2071963e-39
-0.085305721 -0.094654292 1.2270001 9.3135439e-39
-0.082698092 -0.094345719 1.223 9.2224342e-39
-0.080105722 -0.094037145 1.2190001 9.5912168e-39
-0.077783816 -0.094037145 1.2190001 9.5908636e-39
-0.075461909 -0.094037145 1.2190001 9.9596462e-39
-0.072840005 -0.093651436 1.2140001 9.8681666e-39
-0.070527628 -0.093651436 1.2140001 1.0144753e-38
-0.067990474 -0.093342856 1.21 1.0236952e-38
-0.065685712 -0.093342856 1.21 1.0513539e-38
-0.063380957 -0.093342856 1.21 1.0422425e-38
-0.061076194 -0.093342856 1.21 1.0514621e-38
-0.058771431 -0.093342856 1.21 1.0697211e-38
-0.056280006 -0.09303429 1.2060001 8.8532986e-39
-0.053982858 -0.09303429 1.2060001 8.3001248e-39
-0.051685717 -0.09303429 1.2060001 8.5767117e-39
-0.049388576 -0.09303429 1.2060001 7.3799762e-39
-0.047091432 -0.09303429 1.2060001 4.7984986e-39
-0.04494286 -0.093342856 1.21 3.0506632e-39
-0.042638097 -0.093342856 1.21 7.2916622e-39
-0.040333334 -0.093342856 1.21 8.1150357e-39
-0.038028572 -0.093342856 1.21 9.2213833e-39
-0.035841908 -0.093651436 1.2140001 9.0384087e-39
-0.033529524 -0.093651436 1.2140001 8.8540175e-39
-0.031217147 -0.093651436 1.2140001 1.0143305e-38
-0.028809523 -0.093342856 1.21 1.1157456e-38
-0.026504762 -0.093342856 1.21 1.078974e-38
-0.024380002 -0.094037145 1.2190001 1.0513153e-38
-0.022058096 -0.094037145 1.2190001 1.0237302e-38
-0.019736191 -0.094037145 1.2190001 1.0052911e-38
-0.017414287 -0.094037145 1.2190001 9.8685169e-39
-0.015141904 -0.094345719 1.223 9.7763213e-39
-0.012854287 -0.094654292 1.2270001 8.8543706e-39
-0.010560001 -0.095040008 1.2320001 7.3792405e-39
-0.0082133338 -0.095040008 1.2320001 9.8674687e-39
-0.0058666673 -0.095040008 1.2320001 1.7519706e-38
-0.0035200003 -0.095040008 1.2320001 1.7794495e-38
-0.13591906 -0.093370475 1.2410001 1.6687046e-38
-0.13258669 -0.092693344 1.2320001 1.724022e-38
-0.13024001 -0.092693344 1.2320001 1.6504832e-38
-0.12789334 -0.092693344 1.2320001 1.0604312e-38
-0.12554666 -0.092693344 1.2320001 7.8359097e-39
-0.12270001 -0.092317149 1.2270001 8.5734747e-39
-0.12036287 -0.092317149 1.2270001 1.410191e-38
-0.10875238 -0.09043619 1.202 1.733351e-38
-0.10646286 -0.09043619 1.202 1.7794488e-38
-0.090346672 -0.092693344 1.2320001 7.2856506e-39
-0.087642863 -0.092317149 1.2270001 8.0228051e-39
-0.085305721 -0.092317149 1.2270001 9.4057395e-39
-0.082698092 -0.09201619 1.223 9.3146299e-39
-0.080105722 -0.091715246 1.2190001 9.4990211e-39
-0.077783816 -0.091715246 1.2190001 9.4993841e-39
-0.075461909 -0.091715246 1.2190001 1.0052558e-38
