# .PCD v0.7 - Point Cloud Data file format
VERSION 0.7
FIELDS x y z rgb
SIZE 4 4 4 4
TYPE F F F F
COUNT 1 1 1 1
WIDTH 986
HEIGHT 1
VIEWPOINT 0 0 0 1 0 0 0
POINTS 986
DATA ascii
-0.12312667 0.043591432 0.80300003 1.474695e-38
-0.12190001 0.043700002 0.80500007 1.4931314e-38
-0.12066572 0.043808572 0.80700004 1.5207901e-38
-0.11942381 0.043917142 0.80900002 1.4932043e-38
-0.11788286 0.043917142 0.80900002 1.3917891e-38
-0.11662953 0.044025715 0.81100005 1.4376708e-38
-0.11536857 0.044134285 0.81300002 1.8525512e-38
-0.11382 0.044134285 0.81300002 1.9724785e-38
-0.19076 0.044840001 0.79800004 1.9912413e-38
-0.18924001 0.044840001 0.79800004 1.4657262e-38
-0.18772 0.044840001 0.79800004 1.1709539e-38
-0.18620001 0.044840001 0.79800004 1.1156365e-38
-0.18468001 0.044840001 0.79800004 1.1339299e-38
-0.18270096 0.044727623 0.79600006 1.1431494e-38
-0.18118478 0.044727623 0.79600006 1.1153461e-38
-0.17921714 0.044615239 0.79400003 1.0784679e-38
-0.17725715 0.044502862 0.79200006 1.0783597e-38
-0.17530477 0.044390477 0.79000002 1.0691401e-38
-0.17380001 0.044390477 0.79000002 1.0599206e-38
-0.17207715 0.044334289 0.78900003 1.0691401e-38
-0.17057429 0.044334289 0.78900003 1.0691055e-38
-0.16864286 0.044221908 0.78700006 1.0783251e-38
-0.16671905 0.044109527 0.78500003 1.1336785e-38
-0.16522381 0.044109527 0.78500003 1.1705567e-38
-0.16372858 0.044109527 0.78500003 1.1890663e-38
-0.16223334 0.044109527 0.78500003 1.2075055e-38
-0.1607381 0.044109527 0.78500003 1.2443118e-38
-0.15924285 0.044109527 0.78500003 1.2811901e-38
-0.15774763 0.044109527 0.78500003 1.2719712e-38
-0.15625238 0.044109527 0.78500003 1.2627517e-38
-0.15475716 0.044109527 0.78500003 1.2811558e-38
-0.1532619 0.044109527 0.78500003 1.318034e-38
-0.15176667 0.044109527 0.78500003 1.327217e-38
-0.15027143 0.044109527 0.78500003 1.3364366e-38
-0.1487762 0.044109527 0.78500003 1.3271814e-38
-0.14728096 0.044109527 0.78500003 1.3271814e-38
-0.14578572 0.044109527 0.78500003 1.2719712e-38
-0.14429048 0.044109527 0.78500003 1.2627517e-38
-0.14315906 0.044221908 0.78700006 1.2719345e-38
-0.14166 0.044221908 0.78700006 1.2534954e-38
-0.14016096 0.044221908 0.78700006 1.1521192e-38
-0.13901429 0.044334289 0.78900003 1.0968018e-38
-0.13768572 0.044390477 0.79000002 1.0506674e-38
-0.13618095 0.044390477 0.79000002 1.0506674e-38
-0.13467619 0.044390477 0.79000002 1.0322273e-38
-0.13350858 0.044502862 0.79200006 1.0137882e-38
-0.13233334 0.044615239 0.79400003 9.5865308e-39
-0.13147999 0.044840001 0.79800004 9.3099439e-39
-0.12996 0.044840001 0.79800004 9.5865308e-39
-0.1287619 0.044952381 0.80000001 9.4943352e-39
-0.12755619 0.045064762 0.80200005 1.1333914e-38
-0.12602857 0.045064762 0.80200005 1.4376369e-38
-0.12450096 0.045064762 0.80200005 1.4284893e-38
-0.12343334 0.045233335 0.80500007 1.5022458e-38
-0.12190001 0.045233335 0.80500007 1.5022794e-38
-0.12096476 0.045458097 0.80900002 1.5483772e-38
-0.11942381 0.045458097 0.80900002 1.5300097e-38
-0.11817429 0.045570478 0.81100005 1.4285945e-38
-0.11662953 0.045570478 0.81100005 1.4561114e-38
-0.11536857 0.045682859 0.81300002 1.8341135e-38
-0.11382 0.045682859 0.81300002 1.9447482e-38
-0.19076 0.046360001 0.79800004 2.009717e-38
-0.18924001 0.046360001 0.79800004 1.4749824e-38
-0.18772 0.046360001 0.79800004 1.2263416e-38
-0.18620001 0.046360001 0.79800004 1.0788286e-38
-0.18468001 0.046360001 0.79800004 1.04195e-38
-0.18316001 0.046360001 0.79800004 1.0511696e-38
-0.18118478 0.046243813 0.79600006 1.0049265e-38
-0.17921714 0.046127621 0.79400003 1.0510243e-38
-0.17725715 0.046011433 0.79200006 1.1153817e-38
-0.17530477 0.045895241 0.79000002 1.1061622e-38
-0.17380001 0.045895241 0.79000002 1.1152033e-38
-0.17229524 0.045895241 0.79000002 1.1244229e-38
-0.17057429 0.045837145 0.78900003 1.1888512e-38
-0.16864286 0.045720957 0.78700006 1.2441686e-38
-0.16714382 0.045720957 0.78700006 1.2718996e-38
-0.16564478 0.045720957 0.78700006 1.2718996e-38
-0.16414572 0.045720957 0.78700006 1.2811189e-38
-0.16264667 0.045720957 0.78700006 1.2903385e-38
-0.16114764 0.045720957 0.78700006 1.336291e-38
-0.15964858 0.045720957 0.78700006 1.3455105e-38
-0.15814953 0.045720957 0.78700006 1.3824251e-38
-0.15665048 0.045720957 0.78700006 1.3547664e-38
-0.15515144 0.045720957 0.78700006 1.3178898e-38
-0.1532619 0.045604762 0.78500003 1.3455485e-38
-0.15176667 0.045604762 0.78500003 1.3823885e-38
-0.15027143 0.045604762 0.78500003 1.3547298e-38
-0.1487762 0.045604762 0.78500003 1.3087056e-38
-0.14728096 0.045604762 0.78500003 1.2718273e-38
-0.14615715 0.045720957 0.78700006 1.2351642e-38
-0.1446581 0.045720957 0.78700006 1.2351642e-38
-0.14315906 0.045720957 0.78700006 1.2351656e-38
-0.14166 0.045720957 0.78700006 1.1982873e-38
-0.14051715 0.045837145 0.78900003 9.681948e-39
-0.13919048 0.045895241 0.79000002 8.4834049e-39
-0.13768572 0.045895241 0.79000002 7.6543476e-39
-0.13618095 0.045895241 0.79000002 6.824587e-39
-0.13501714 0.046011433 0.79200006 6.9156994e-39
-0.13350858 0.046011433 0.79200006 7.1000907e-39
-0.13233334 0.046127621 0.79400003 7.9295304e-39
-0.13147999 0.046360001 0.79800004 7.4685523e-39
-0.12996 0.046360001 0.79800004 7.2848869e-39
-0.1287619 0.046476189 0.80000001 6.8239087e-39
-0.12755619 0.046592385 0.80200005 8.6626996e-39
-0.12602857 0.046592385 0.80200005 1.2627112e-38
-0.12450096 0.046592385 0.80200005 1.4467476e-38
-0.12343334 0.046766669 0.80500007 1.5481628e-38
-0.12190001 0.046766669 0.80500007 1.5298302e-38
-0.12096476 0.046999045 0.80900002 1.575928e-38
-0.11942381 0.046999045 0.80900002 1.5392295e-38
-0.11846571 0.047231432 0.81300002 1.4562535e-38
-0.11691714 0.047231432 0.81300002 1.4928803e-38
-0.11536857 0.047231432 0.81300002 1.8247846e-38
-0.11382 0.047231432 0.81300002 1.9354205e-38
-0.18924001 0.047880001 0.79800004 1.5393748e-38
-0.18772 0.047880001 0.79800004 1.2538578e-38
-0.18620001 0.047880001 0.79800004 1.143223e-38
-0.18468001 0.047880001 0.79800004 1.198502e-38
-0.18316001 0.047880001 0.79800004 1.2353802e-38
-0.18118478 0.047760002 0.79600006 1.3457977e-38
-0.17921714 0.047640003 0.79400003 1.3642368e-38
-0.17770477 0.047640003 0.79400003 1.3549473e-38
-0.17574859 0.047520004 0.79200006 1.3549473e-38
-0.17380001 0.047400001 0.79000002 1.3732798e-38
-0.17229524 0.047400001 0.79000002 1.2534255e-38
-0.17079048 0.047400001 0.79000002 1.3640215e-38
-0.16907144 0.047340002 0.78900003 1.3732411e-38
-0.16756858 0.047340002 0.78900003 1.3271433e-38
-0.16564478 0.047220003 0.78700006 1.3271433e-38
-0.16414572 0.047220003 0.78700006 1.3087056e-38
-0.16306001 0.047340002 0.78900003 1.3087056e-38
-0.16155715 0.047340002 0.78900003 1.3362196e-38
-0.15964858 0.047220003 0.78700006 1.3177805e-38
-0.15814953 0.047220003 0.78700006 1.3547286e-38
-0.15665048 0.047220003 0.78700006 1.3639481e-38
-0.15515144 0.047220003 0.78700006 1.3087042e-38
-0.15365238 0.047220003 0.78700006 1.2257281e-38
-0.15176667 0.0471 0.78500003 1.2257984e-38
-0.15027143 0.0471 0.78500003 1.1520419e-38
-0.1487762 0.0471 0.78500003 1.096582e-38
-0.14728096 0.0471 0.78500003 1.096582e-38
-0.14615715 0.047220003 0.78700006 9.678669e-39
-0.1446581 0.047220003 0.78700006 8.5723214e-39
-0.14315906 0.047220003 0.78700006 7.9291184e-39
-0.14202 0.047340002 0.78900003 7.4681403e-39
-0.14051715 0.047340002 0.78900003 6.3643137e-39
-0.13919048 0.047400001 0.79000002 5.3501617e-39
-0.13768572 0.047400001 0.79000002 4.8005753e-39
-0.13618095 0.047400001 0.79000002 4.8927709e-39
-0.13501714 0.047520004 0.79200006 5.2580025e-39
-0.13350858 0.047520004 0.79200006 5.3501982e-39
-0.13233334 0.047640003 0.79400003 5.0747127e-39
-0.13147999 0.047880001 0.79800004 4.9825171e-39
-0.12996 0.047880001 0.79800004 4.707012e-39
-0.1287619 0.048 0.80000001 3.2318819e-39
-0.12755619 0.048119999 0.80200005 5.4359268e-39
-0.12602857 0.048119999 0.80200005 1.1152056e-38
-0.12450096 0.048119999 0.80200005 1.3639494e-38
-0.12343334 0.048300002 0.80500007 1.5575602e-38
-0.12220286 0.048420005 0.80700004 1.5483409e-38
-0.12096476 0.048540004 0.80900002 1.6036583e-38
-0.11971906 0.048660003 0.81100005 1.5208624e-38
-0.11846571 0.048780002 0.81300002 1.4932037e-38
-0.11720477 0.048900004 0.81500006 1.483805e-38
-0.11565238 0.048900004 0.81500006 1.7419527e-38
-0.11410001 0.048900004 0.81500006 1.9078702e-38
-0.11282381 0.04902 0.81700003 2.1936767e-38
-0.19195524 0.049709525 0.80300003 2.0371599e-38
-0.19042572 0.049709525 0.80300003 1.5946209e-38
-0.18819048 0.049523808 0.80000001 1.4933136e-38
-0.18620001 0.049400002 0.79800004 1.3550202e-38
-0.18468001 0.049400002 0.79800004 1.3733874e-38
-0.18316001 0.049400002 0.79800004 1.4010461e-38
-0.18164001 0.049400002 0.79800004 1.4377787e-38
-0.17966858 0.049276195 0.79600006 1.4377787e-38
-0.17770477 0.049152382 0.79400003 1.4377439e-38
-0.17574859 0.049028575 0.79200006 1.4008656e-38
-0.17424001 0.049028575 0.79200006 1.409942e-38
-0.17229524 0.048904765 0.79000002 1.409942e-38
-0.17079048 0.048904765 0.79000002 1.3917189e-38
-0.16907144 0.048842859 0.78900003 1.3364015e-38
-0.16756858 0.048842859 0.78900003 1.2257662e-38
-0.16606572 0.048842859 0.78900003 1.2257662e-38
-0.16456285 0.048842859 0.78900003 1.2625354e-38
-0.16306001 0.048842859 0.78900003 1.2625354e-38
-0.16155715 0.048842859 0.78900003 1.2994117e-38
-0.1600543 0.048842859 0.78900003 1.2901922e-38
-0.15855142 0.048842859 0.78900003 1.2349814e-38
-0.15704857 0.048842859 0.78900003 1.2902988e-38
-0.15515144 0.048719049 0.78700006 1.262713e-38
-0.15365238 0.048719049 0.78700006 1.2073956e-38
-0.15176667 0.048595238 0.78500003 1.1799168e-38
-0.15027143 0.048595238 0.78500003 1.0231843e-38
-0.1487762 0.048595238 0.78500003 1.0598473e-38
-0.1476562 0.048719049 0.78700006 1.0137495e-38
-0.14615715 0.048719049 0.78700006 9.3116843e-39
-0.1446581 0.048719049 0.78700006 7.2833805e-39
-0.14315906 0.048719049 0.78700006 6.9167658e-39
-0.14202 0.048842859 0.78900003 5.9948095e-39
-0.14051715 0.048842859 0.78900003 5.259408e-39
-0.13919048 0.048904765 0.79000002 5.3516037e-39
-0.13768572 0.048904765 0.79000002 4.3406887e-39
-0.13618095 0.048904765 0.79000002 4.0641019e-39
-0.13501714 0.049028575 0.79200006 4.3389301e-39
-0.13350858 0.049028575 0.79200006 4.4311257e-39
-0.13233334 0.049152382 0.79400003 4.430072e-39
-0.13147999 0.049400002 0.79800004 4.5222676e-39
-0.13028571 0.049523808 0.80000001 4.6144632e-39
-0.12908381 0.049647622 0.80200005 3.5081157e-39
-0.12755619 0.049647622 0.80200005 4.7026441e-39
-0.12618573 0.049709525 0.80300003 1.0234382e-38
-0.12465619 0.049709525 0.80300003 1.3085618e-38
-0.12374 0.049957145 0.80700004 1.5206117e-38
-0.12220286 0.049957145 0.80700004 1.4560371e-38
-0.12096476 0.050080951 0.80900002 1.5758914e-38
-0.11971906 0.050204765 0.81100005 1.520863e-38
-0.11846571 0.050328571 0.81300002 1.4839847e-38
-0.11720477 0.050452381 0.81500006 1.4101194e-38
-0.11593619 0.050576191 0.81700003 1.7051454e-38
-0.11438 0.050576191 0.81700003 1.8894294e-38
-0.11282381 0.050576191 0.81700003 2.1567968e-38
-0.11126762 0.050576191 0.81700003 2.0923302e-38
-0.19195524 0.051239051 0.80300003 2.0187571e-38
-0.19042572 0.051239051 0.80300003 1.7421702e-38
-0.18889619 0.051239051 0.80300003 1.5025004e-38
-0.18666667 0.051047619 0.80000001 1.4656221e-38
-0.18514286 0.051047619 0.80000001 1.4655467e-38
-0.18361905 0.051047619 0.80000001 1.437888e-38
-0.18164001 0.050920002 0.79800004 1.4653658e-38
-0.17966858 0.050792385 0.79600006 1.4561463e-38
-0.17770477 0.050664764 0.79400003 1.4285585e-38
-0.17574859 0.050537147 0.79200006 1.3179237e-38
-0.17424001 0.050537147 0.79200006 1.3177765e-38
-0.17229524 0.050409522 0.79000002 1.2348004e-38
-0.17079048 0.050409522 0.79000002 1.1421793e-38
-0.16928571 0.050409522 0.79000002 1.0960815e-38
-0.16778095 0.050409522 0.79000002 1.0868956e-38
-0.1662762 0.050409522 0.79000002 1.0684564e-38
-0.16456285 0.050345715 0.78900003 1.0868607e-38
-0.16306001 0.050345715 0.78900003 1.2251541e-38
-0.16155715 0.050345715 0.78900003 1.1885236e-38
-0.1600543 0.050345715 0.78900003 1.243841e-38
-0.15855142 0.050345715 0.78900003 1.3085569e-38
-0.15704857 0.050345715 0.78900003 1.3177765e-38
-0.15554573 0.050345715 0.78900003 1.2534906e-38
-0.15365238 0.050218098 0.78700006 1.1151972e-38
-0.15176667 0.050090477 0.78500003 1.0967981e-38
-0.15027143 0.050090477 0.78500003 1.0230416e-38
-0.1487762 0.050090477 0.78500003 9.9545454e-39
-0.1476562 0.050218098 0.78700006 9.4935673e-39
-0.14615715 0.050218098 0.78700006 8.5751913e-39
-0.14502572 0.050345715 0.78900003 6.91567e-39
-0.14352286 0.050345715 0.78900003 5.8118798e-39
-0.14202 0.050345715 0.78900003 5.5352929e-39
-0.14069524 0.050409522 0.79000002 5.0764699e-39
-0.13919048 0.050409522 0.79000002 4.799883e-39
-0.13768572 0.050409522 0.79000002 4.154892e-39
-0.13618095 0.050409522 0.79000002 4.0626964e-39
-0.13501714 0.050537147 0.79200006 4.1538354e-39
-0.13350858 0.050537147 0.79200006 4.1538354e-39
-0.13233334 0.050664764 0.79400003 3.5117156e-39
-0.13147999 0.050920002 0.79800004 3.8804981e-39
-0.13028571 0.051047619 0.80000001 3.8801352e-39
-0.12908381 0.05117524 0.80200005 1.5752444e-39
-0.12771523 0.051239051 0.80300003 4.6115794e-39
-0.12618573 0.051239051 0.80300003 9.4057521e-39
-0.12496667 0.051366672 0.80500007 1.2534249e-38
-0.12374 0.051494289 0.80700004 1.483914e-38
-0.12250571 0.051621906 0.80900002 1.5391214e-38
-0.12126382 0.051749524 0.81100005 1.5483409e-38
-0.12001429 0.051877145 0.81300002 1.5207925e-38
-0.11875715 0.052004766 0.81500006 1.4839143e-38
-0.11720477 0.052004766 0.81500006 1.5022797e-38
-0.11593619 0.052132383 0.81700003 1.6958905e-38
-0.11438 0.052132383 0.81700003 1.8801723e-38
-0.11282381 0.052132383 0.81700003 2.2120766e-38
-0.19042572 0.052768573 0.80300003 1.7790845e-38
-0.18889619 0.052768573 0.80300003 1.6406819e-38
-0.18666667 0.052571427 0.80000001 1.4747297e-38
-0.18514286 0.052571427 0.80000001 1.4930612e-38
-0.18361905 0.052571427 0.80000001 1.5207199e-38
-0.18164001 0.052440003 0.79800004 1.5207572e-38
-0.18012001 0.052440003 0.79800004 1.3916833e-38
-0.1781524 0.052308574 0.79600006 1.262645e-38
-0.17619239 0.052177146 0.79400003 1.2442059e-38
-0.17424001 0.052045718 0.79200006 1.1701956e-38
-0.17273144 0.052045718 0.79200006 1.078e-38
-0.17079048 0.051914286 0.79000002 1.0866415e-38
-0.16928571 0.051914286 0.79000002 1.0958611e-38
-0.16778095 0.051914286 0.79000002 1.1418886e-38
-0.1662762 0.051914286 0.79000002 1.1603277e-38
-0.16477144 0.051914286 0.79000002 1.1420655e-38
-0.16326667 0.051914286 0.79000002 1.215822e-38
-0.16176191 0.051914286 0.79000002 1.1790862e-38
-0.16025715 0.051914286 0.79000002 1.3265992e-38
-0.15875238 0.051914286 0.79000002 1.3084863e-38
-0.15724762 0.051914286 0.79000002 1.3269254e-38
-0.15554573 0.051848572 0.78900003 1.2350891e-38
-0.15404287 0.051848572 0.78900003 1.0967956e-38
-0.15215334 0.051717147 0.78700006 1.0875786e-38
-0.1506543 0.051717147 0.78700006 1.0138221e-38
-0.14915524 0.051717147 0.78700006 1.0321508e-38
-0.14803144 0.051848572 0.78900003 1.0229312e-38
-0.14652859 0.051848572 0.78900003 8.4819391e-39
-0.14502572 0.051848572 0.78900003 6.9146134e-39
-0.14352286 0.051848572 0.78900003 5.3523043e-39
-0.14219999 0.051914286 0.79000002 5.7210868e-39
-0.14069524 0.051914286 0.79000002 5.7225316e-39
-0.13919048 0.051914286 0.79000002 5.0771622e-39
-0.13768572 0.051914286 0.79000002 3.9704615e-39
-0.13652572 0.052045718 0.79200006 4.1548527e-39
-0.13501714 0.052045718 0.79200006 4.1548654e-39
-0.13384572 0.052177146 0.79400003 4.1548654e-39
-0.13233334 0.052177146 0.79400003 3.8768982e-39
-0.13147999 0.052440003 0.79800004 4.0612895e-39
-0.13028571 0.052571427 0.80000001 3.3273243e-39
-0.12908381 0.052702863 0.80200005 2.6819549e-39
-0.12771523 0.052768573 0.80300003 4.5200844e-39
-0.12618573 0.052768573 0.80300003 9.8674309e-39
-0.12496667 0.052900005 0.80500007 1.2350577e-38
-0.12374 0.05303143 0.80700004 1.4839859e-38
-0.12250571 0.053162854 0.80900002 1.53001e-38
-0.12156286 0.053425714 0.81300002 1.53001e-38
-0.12001429 0.053425714 0.81300002 1.5024239e-38
-0.11875715 0.053557146 0.81500006 1.4839847e-38
-0.11720477 0.053557146 0.81500006 1.5389779e-38
-0.11593619 0.053688571 0.81700003 1.6496126e-38
-0.11438 0.053688571 0.81700003 1.9076508e-38
-0.11282381 0.053688571 0.81700003 2.2118964e-38
-0.19090001 0.054433338 0.80500007 1.8620242e-38
-0.18936668 0.054433338 0.80500007 1.7053959e-38
-0.18713334 0.054230478 0.80200005 1.428809e-38
-0.18560573 0.054230478 0.80200005 1.5023157e-38
-0.18361905 0.054095238 0.80000001 1.4101201e-38
-0.18209523 0.054095238 0.80000001 1.2712923e-38
-0.18012001 0.053959999 0.79800004 1.0223641e-38
-0.1781524 0.053824764 0.79600006 1.003704e-38
-0.17619239 0.053689525 0.79400003 9.2072792e-39
-0.17424001 0.053554289 0.79200006 1.0310753e-38
-0.17273144 0.053554289 0.79200006 1.0218557e-38
-0.17079048 0.053419046 0.79000002 1.0401844e-38
-0.16928571 0.053419046 0.79000002 1.1415996e-38
-0.16778095 0.053419046 0.79000002 1.1143015e-38
-0.1662762 0.053419046 0.79000002 1.188058e-38
-0.16477144 0.053419046 0.79000002 1.1696558e-38
-0.16326667 0.053419046 0.79000002 1.2341928e-38
-0.16176191 0.053419046 0.79000002 1.2067486e-38
-0.16025715 0.053419046 0.79000002 1.3358225e-38
-0.15875238 0.053419046 0.79000002 1.3268534e-38
-0.15724762 0.053419046 0.79000002 1.3452925e-38
-0.15554573 0.053351428 0.78900003 1.253385e-38
-0.15404287 0.053351428 0.78900003 1.1796285e-38
-0.15254 0.053351428 0.78900003 1.1705541e-38
-0.1506543 0.053216193 0.78700006 1.1705541e-38
-0.14915524 0.053216193 0.78700006 1.170482e-38
-0.14803144 0.053351428 0.78900003 1.1797016e-38
-0.14652859 0.053351428 0.78900003 1.1428986e-38
-0.14502572 0.053351428 0.78900003 1.1244595e-38
-0.14352286 0.053351428 0.78900003 1.1246024e-38
-0.14219999 0.053419046 0.79000002 1.1522611e-38
-0.14069524 0.053419046 0.79000002 1.1799547e-38
-0.13919048 0.053419046 0.79000002 1.2076134e-38
-0.13803428 0.053554289 0.79200006 1.216763e-38
-0.13652572 0.053554289 0.79200006 1.2259826e-38
-0.13501714 0.053554289 0.79200006 1.1524416e-38
-0.13384572 0.053689525 0.79400003 1.1340025e-38
-0.13233334 0.053689525 0.79400003 1.1064166e-38
-0.13147999 0.053959999 0.79800004 8.9436669e-39
-0.13028571 0.054095238 0.80000001 7.1941458e-39
-0.12908381 0.054230478 0.80200005 6.0877982e-39
-0.12755619 0.054230478 0.80200005 7.6508276e-39
-0.12650001 0.054433338 0.80500007 1.2260609e-38
-0.12496667 0.054433338 0.80500007 1.3363659e-38
-0.12374 0.054568574 0.80700004 1.4930985e-38
-0.12250571 0.054703813 0.80900002 1.5116059e-38
-0.12156286 0.054974288 0.81300002 1.5116059e-38
-0.12030953 0.055109527 0.81500006 1.493204e-38
-0.11875715 0.055109527 0.81500006 1.4747649e-38
-0.11720477 0.055109527 0.81500006 1.5022797e-38
-0.11593619 0.055244766 0.81700003 1.5944753e-38
-0.11466001 0.055380005 0.81900007 1.8065237e-38
-0.11310001 0.055380005 0.81900007 2.138428e-38
-0.19090001 0.055966668 0.80500007 1.9174135e-38
-0.18936668 0.055966668 0.80500007 1.7515679e-38
-0.18713334 0.0557581 0.80200005 1.410444e-38
-0.18560573 0.0557581 0.80200005 1.5298665e-38
-0.18361905 0.05561905 0.80000001 1.161084e-38
-0.18209523 0.05561905 0.80000001 1.3168454e-38
-0.18012001 0.05548 0.79800004 1.0955759e-38
-0.1781524 0.055340957 0.79600006 1.076992e-38
-0.17619239 0.055201907 0.79400003 1.076992e-38
-0.17424001 0.05506286 0.79200006 1.0954633e-38
-0.17273144 0.05506286 0.79200006 1.1046828e-38
-0.17079048 0.05492381 0.79000002 1.0678784e-38
-0.16928571 0.05492381 0.79000002 1.1508545e-38
-0.16778095 0.05492381 0.79000002 1.0959665e-38
-0.1662762 0.05492381 0.79000002 1.2158208e-38
-0.16477144 0.05492381 0.79000002 1.1975631e-38
-0.16326667 0.05492381 0.79000002 1.2252218e-38
-0.16176191 0.05492381 0.79000002 1.326602e-38
-0.16025715 0.05492381 0.79000002 1.3726998e-38
-0.15875238 0.05492381 0.79000002 1.3452209e-38
-0.15724762 0.05492381 0.79000002 1.3544404e-38
-0.15574285 0.05492381 0.79000002 1.2992673e-38
-0.15404287 0.054854289 0.78900003 1.3177064e-38
-0.15254 0.054854289 0.78900003 1.2902308e-38
-0.15103714 0.054854289 0.78900003 1.2994504e-38
-0.14953429 0.054854289 0.78900003 1.2994843e-38
-0.14803144 0.054854289 0.78900003 1.3363626e-38
-0.14652859 0.054854289 0.78900003 1.3179972e-38
-0.14502572 0.054854289 0.78900003 1.3179972e-38
-0.14370476 0.05492381 0.79000002 1.3455485e-38
-0.14219999 0.05492381 0.79000002 1.3363289e-38
-0.14105143 0.05506286 0.79200006 1.3639131e-38
-0.13954286 0.05506286 0.79200006 1.3823522e-38
-0.13803428 0.05506286 0.79200006 1.354802e-38
-0.13652572 0.05506286 0.79200006 1.437778e-38
-0.13501714 0.05506286 0.79200006 1.3918628e-38
-0.13384572 0.055201907 0.79400003 1.3734237e-38
-0.13233334 0.055201907 0.79400003 1.336547e-38
-0.13147999 0.05548 0.79800004 1.2812296e-38
-0.12996 0.05548 0.79800004 9.4983205e-39
-0.1287619 0.05561905 0.80000001 8.2997773e-39
-0.12755619 0.0557581 0.80200005 1.1612649e-38
-0.12650001 0.055966668 0.80500007 1.327217e-38
-0.12527715 0.056105718 0.80700004 1.3731719e-38
-0.12374 0.056105718 0.80700004 1.4930262e-38
-0.12250571 0.056244761 0.80900002 1.511534e-38
-0.12156286 0.056522857 0.81300002 1.5207536e-38
-0.12030953 0.056661908 0.81500006 1.493204e-38
-0.11875715 0.056661908 0.81500006 1.4747649e-38
-0.11749239 0.056800954 0.81700003 1.4194486e-38
-0.11622001 0.056940004 0.81900007 1.5485225e-38
-0.11466001 0.056940004 0.81900007 1.7236928e-38
-0.11310001 0.056940004 0.81900007 2.0924753e-38
-0.19291143 0.057642858 0.80700004 2.0279764e-38
-0.19090001 0.057500005 0.80500007 1.9450003e-38
-0.18936668 0.057500005 0.80500007 1.7790479e-38
-0.18736666 0.057357144 0.80300003 1.4287045e-38
-0.18560573 0.057285715 0.80200005 1.4838405e-38
-0.18407811 0.057285715 0.80200005 1.0505211e-38
-0.18209523 0.057142857 0.80000001 1.0401555e-38
-0.18012001 0.057 0.79800004 1.0678142e-38
-0.1781524 0.056857146 0.79600006 1.1787665e-38
-0.17619239 0.056714289 0.79400003 1.2433035e-38
-0.17424001 0.056571431 0.79200006 1.1882713e-38
-0.17273144 0.056571431 0.79200006 1.3173451e-38
-0.17122287 0.056571431 0.79200006 1.2989469e-38
-0.16928571 0.05642857 0.79000002 1.3542643e-38
-0.16778095 0.05642857 0.79000002 1.3729161e-38
-0.1662762 0.05642857 0.79000002 1.419014e-38
-0.16477144 0.05642857 0.79000002 1.382244e-38
-0.16326667 0.05642857 0.79000002 1.4099027e-38
-0.16176191 0.05642857 0.79000002 1.4007197e-38
-0.16025715 0.05642857 0.79000002 1.3915002e-38
-0.15875238 0.05642857 0.79000002 1.3914639e-38
-0.15724762 0.05642857 0.79000002 1.409903e-38
-0.15574285 0.05642857 0.79000002 1.3731342e-38
-0.15404287 0.056357145 0.78900003 1.3915733e-38
-0.15254 0.056357145 0.78900003 1.3915391e-38
-0.15103714 0.056357145 0.78900003 1.3731e-38
-0.14953429 0.056357145 0.78900003 1.3640215e-38
-0.14803144 0.056357145 0.78900003 1.3732411e-38
-0.14652859 0.056357145 0.78900003 1.3824241e-38
-0.14520952 0.05642857 0.79000002 1.446961e-38
-0.14370476 0.05642857 0.79000002 1.3639874e-38
-0.14219999 0.05642857 0.79000002 1.3455482e-38
-0.14105143 0.056571431 0.79200006 1.3824241e-38
-0.13954286 0.056571431 0.79200006 1.4100828e-38
-0.13803428 0.056571431 0.79200006 1.4101544e-38
-0.13652572 0.056571431 0.79200006 1.4470326e-38
-0.1353581 0.056714289 0.79400003 1.4102294e-38
-0.13384572 0.056714289 0.79400003 1.4102294e-38
-0.13233334 0.056714289 0.79400003 1.3549473e-38
-0.13147999 0.057 0.79800004 1.3272886e-38
-0.12996 0.057 0.79800004 1.0693274e-38
-0.1287619 0.057142857 0.80000001 9.0337522e-39
-0.12755619 0.057285715 0.80200005 1.0782867e-38
-0.12650001 0.057500005 0.80500007 1.1797019e-38
-0.12527715 0.057642858 0.80700004 1.271829e-38
-0.12404668 0.057785716 0.80900002 1.4562203e-38
-0.12280858 0.057928573 0.81100005 1.4931658e-38
-0.12156286 0.058071431 0.81300002 1.5023853e-38
-0.12030953 0.058214288 0.81500006 1.5023157e-38
-0.11875715 0.058214288 0.81500006 1.4838766e-38
-0.11749239 0.058357142 0.81700003 1.4562909e-38
-0.11622001 0.058500003 0.81900007 1.5669256e-38
-0.11466001 0.058500003 0.81900007 1.7420243e-38
-0.11310001 0.058500003 0.81900007 2.129246e-38
-0.19291143 0.059180003 0.80700004 2.0371969e-38
-0.19137429 0.059180003 0.80700004 1.9910991e-38
-0.18936668 0.059033338 0.80500007 1.7698991e-38
-0.18736666 0.058886666 0.80300003 1.4379948e-38
-0.18583715 0.058886666 0.80300003 1.5020999e-38
-0.18407811 0.058813337 0.80200005 1.1240978e-38
-0.18209523 0.058666669 0.80000001 1.0770226e-38
-0.18057144 0.058666669 0.80000001 1.2706334e-38
-0.17860001 0.05852 0.79800004 1.2157563e-38
-0.17619239 0.058226667 0.79400003 1.1143411e-38
-0.17424001 0.058080003 0.79200006 9.8583463e-39
-0.17273144 0.058080003 0.79200006 1.1610063e-38
-0.17122287 0.058080003 0.79200006 1.2071805e-38
-0.1697143 0.058080003 0.79200006 1.2901566e-38
-0.16820572 0.058080003 0.79200006 1.3731329e-38
-0.16669716 0.058080003 0.79200006 1.3546938e-38
-0.16477144 0.057933334 0.79000002 1.2996285e-38
-0.16326667 0.057933334 0.79000002 1.3365068e-38
-0.16176191 0.057933334 0.79000002 1.3364366e-38
-0.16025715 0.057933334 0.79000002 1.327217e-38
-0.15875238 0.057933334 0.79000002 1.3364366e-38
-0.15724762 0.057933334 0.79000002 1.3364366e-38
-0.15574285 0.057933334 0.79000002 1.3087056e-38
-0.15423809 0.057933334 0.79000002 1.3455838e-38
-0.15273334 0.057933334 0.79000002 1.3823196e-38
-0.15103714 0.057860002 0.78900003 1.3546609e-38
-0.14953429 0.057860002 0.78900003 1.345404e-38
-0.14821905 0.057933334 0.79000002 1.409941e-38
-0.14671429 0.057933334 0.79000002 1.3730973e-38
-0.14520952 0.057933334 0.79000002 1.3730973e-38
-0.14370476 0.057933334 0.79000002 1.3639157e-38
-0.14219999 0.057933334 0.79000002 1.3639157e-38
-0.14105143 0.058080003 0.79200006 1.3916446e-38
-0.13954286 0.058080003 0.79200006 1.4285229e-38
-0.13803428 0.058080003 0.79200006 1.4102294e-38
-0.13652572 0.058080003 0.79200006 1.4010098e-38
-0.1353581 0.058226667 0.79400003 1.4101227e-38
-0.13384572 0.058226667 0.79400003 1.3732445e-38
-0.13266668 0.058373336 0.79600006 1.2995596e-38
-0.13147999 0.05852 0.79800004 1.2811204e-38
-0.12996 0.05852 0.79800004 1.041739e-38
-0.1287619 0.058666669 0.80000001 7.1905431e-39
-0.12755619 0.058813337 0.80200005 6.8173507e-39
-0.12681429 0.059180003 0.80700004 1.1611518e-38
-0.12527715 0.059180003 0.80700004 1.2534605e-38
-0.12404668 0.059326664 0.80900002 1.4562909e-38
-0.12280858 0.059473336 0.81100005 1.5114261e-38
-0.12156286 0.05962 0.81300002 1.5298652e-38
-0.12030953 0.059766669 0.81500006 1.5389432e-38
-0.11875715 0.059766669 0.81500006 1.5205041e-38
-0.11749239 0.059913337 0.81700003 1.4746563e-38
-0.11593619 0.059913337 0.81700003 1.5576324e-38
-0.11494 0.06020667 0.82100004 1.7603193e-38
-0.11337619 0.06020667 0.82100004 2.1291018e-38
-0.19291143 0.060717143 0.80700004 2.0371969e-38
-0.19137429 0.060717143 0.80700004 2.0003187e-38
-0.18983716 0.060717143 0.80700004 1.8713127e-38
-0.18783335 0.060566671 0.80500007 1.4379933e-38
-0.18630002 0.060566671 0.80500007 1.4653658e-38
-0.18430762 0.060416196 0.80300003 1.1334616e-38
-0.18255049 0.060340952 0.80200005 1.2250817e-38
-0.18057144 0.060190476 0.80000001 1.5201077e-38
-0.17860001 0.060040005 0.79800004 1.2904084e-38
-0.17619239 0.05973905 0.79400003 3.5923463e-39
-0.17424001 0.059588574 0.79200006 4.8870116e-39
-0.17273144 0.059588574 0.79200006 5.8089567e-39
-0.17122287 0.059588574 0.79200006 1.0963943e-38
-0.1697143 0.059588574 0.79200006 1.2900051e-38
-0.16820572 0.059588574 0.79200006 1.382243e-38
-0.16669716 0.059588574 0.79200006 1.3730235e-38
-0.16518858 0.059588574 0.79200006 1.3547301e-38
-0.16368002 0.059588574 0.79200006 1.3916083e-38
-0.16217144 0.059588574 0.79200006 1.3732069e-38
-0.16025715 0.059438094 0.79000002 1.3271091e-38
-0.15875238 0.059438094 0.79000002 1.3548051e-38
-0.15724762 0.059438094 0.79000002 1.3363659e-38
-0.15574285 0.059438094 0.79000002 1.308813e-38
-0.15423809 0.059438094 0.79000002 1.1981783e-38
-0.15273334 0.059438094 0.79000002 1.1795608e-38
-0.15122858 0.059438094 0.79000002 1.1795608e-38
-0.14972381 0.059438094 0.79000002 1.3085972e-38
-0.14821905 0.059438094 0.79000002 1.419232e-38
-0.14671429 0.059438094 0.79000002 1.3732055e-38
-0.14520952 0.059438094 0.79000002 1.3363273e-38
-0.14370476 0.059438094 0.79000002 1.299523e-38
-0.14219999 0.059438094 0.79000002 1.2810839e-38
-0.14105143 0.059588574 0.79200006 1.3087056e-38
-0.13954286 0.059588574 0.79200006 1.3363643e-38
-0.13803428 0.059588574 0.79200006 1.2074002e-38
-0.13652572 0.059588574 0.79200006 1.0967655e-38
-0.1353581 0.05973905 0.79400003 7.9266788e-39
-0.13418287 0.059889529 0.79600006 6.7281356e-39
-0.13266668 0.059889529 0.79600006 6.7241223e-39
-0.13180953 0.060190476 0.80000001 5.6177747e-39
-0.13028571 0.060190476 0.80000001 6.4482374e-39
-0.12908381 0.060340952 0.80200005 6.81702e-39
-0.12755619 0.060340952 0.80200005 7.7382602e-39
-0.12650001 0.060566671 0.80500007 1.133389e-38
-0.12527715 0.060717143 0.80700004 1.3180676e-38
-0.12404668 0.060867622 0.80900002 1.4655806e-38
-0.12280858 0.061018094 0.81100005 1.502315e-38
-0.12186191 0.061319049 0.81500006 1.5115346e-38
-0.12030953 0.061319049 0.81500006 1.539159e-38
-0.11875715 0.061319049 0.81500006 1.539159e-38
-0.11749239 0.061469521 0.81700003 1.4562535e-38
-0.11593619 0.061469521 0.81700003 1.5392295e-38
-0.11438 0.061469521 0.81700003 1.7050735e-38
-0.19184858 0.06240857 0.80900002 2.0095375e-38
-0.19030762 0.06240857 0.80900002 1.8620961e-38
-0.18783335 0.062100001 0.80500007 1.4564354e-38
-0.18630002 0.062100001 0.80500007 1.4469637e-38
-0.18476668 0.062100001 0.80500007 1.1334986e-38
-0.18277811 0.061945714 0.80300003 1.2159334e-38
-0.18102285 0.061868574 0.80200005 1.4833008e-38
-0.17904761 0.061714288 0.80000001 1.2444583e-38
-0.1766362 0.061405718 0.79600006 4.6079542e-39
-0.17467999 0.061251432 0.79400003 6.7337688e-39
-0.17316762 0.061251432 0.79400003 7.8401164e-39
-0.17122287 0.061097149 0.79200006 9.8573388e-39
-0.1697143 0.061097149 0.79200006 1.2346621e-38
-0.16820572 0.061097149 0.79200006 1.3177453e-38
-0.16669716 0.061097149 0.79200006 1.3177453e-38
-0.16518858 0.061097149 0.79200006 1.3362205e-38
-0.16368002 0.061097149 0.79200006 1.3638792e-38
-0.16217144 0.061097149 0.79200006 1.3638807e-38
-0.16066287 0.061097149 0.79200006 1.3546611e-38
-0.1591543 0.061097149 0.79200006 1.3640249e-38
-0.15724762 0.060942858 0.79000002 1.3640249e-38
-0.15574285 0.060942858 0.79000002 1.3456233e-38
-0.15423809 0.060942858 0.79000002 1.1243538e-38
-0.15273334 0.060942858 0.79000002 9.4006556e-39
-0.15122858 0.060942858 0.79000002 1.0138221e-38
-0.14972381 0.060942858 0.79000002 1.1610491e-38
-0.14821905 0.060942858 0.79000002 1.3915381e-38
-0.14671429 0.060942858 0.79000002 1.3364729e-38
-0.14520952 0.060942858 0.79000002 1.2166185e-38
-0.14370476 0.060942858 0.79000002 1.1427914e-38
-0.14219999 0.060942858 0.79000002 1.1243523e-38
-0.14105143 0.061097149 0.79200006 1.1611896e-38
-0.13954286 0.061097149 0.79200006 1.2072874e-38
-0.13803428 0.061097149 0.79200006 1.0875822e-38
-0.13652572 0.061097149 0.79200006 9.1241051e-39
-0.1353581 0.061251432 0.79400003 6.6402181e-39
-0.13418287 0.061405718 0.79600006 3.8743492e-39
-0.13266668 0.061405718 0.79600006 4.883832e-39
-0.13180953 0.061714288 0.80000001 5.0682233e-39
-0.13028571 0.061714288 0.80000001 5.4319261e-39
-0.12908381 0.061868574 0.80200005 7.8290111e-39
-0.12755619 0.061868574 0.80200005 8.7524121e-39
-0.12650001 0.062100001 0.80500007 1.216365e-38
-0.12527715 0.062254291 0.80700004 1.3456913e-38
-0.12404668 0.06240857 0.80900002 1.4655456e-38
-0.12280858 0.062562861 0.81100005 1.4747279e-38
-0.12186191 0.062871434 0.81500006 1.5023866e-38
-0.12030953 0.062871434 0.81500006 1.5207925e-38
-0.11904858 0.063025713 0.81700003 1.5115729e-38
-0.11749239 0.063025713 0.81700003 1.4286301e-38
-0.11593619 0.063025713 0.81700003 1.5116062e-38
-0.11438 0.063025713 0.81700003 1.6682303e-38
-0.19184858 0.063949525 0.80900002 2.0187205e-38
-0.19030762 0.063949525 0.80900002 1.944965e-38
-0.18783335 0.063633338 0.80500007 1.502426e-38
-0.18630002 0.063633338 0.80500007 1.4377458e-38
-0.18476668 0.063633338 0.80500007 1.3086719e-38
-0.18277811 0.063475236 0.80300003 1.3729544e-38
-0.18102285 0.063396193 0.80200005 1.4559305e-38
-0.17904761 0.063238099 0.80000001 1.180028e-38
-0.17708001 0.063079998 0.79800004 3.3182818e-39
-0.17512001 0.062921911 0.79600006 7.9288088e-39
-0.17316762 0.06276381 0.79400003 1.2999568e-38
-0.17165524 0.06276381 0.79400003 1.2717917e-38
-0.17014286 0.06276381 0.79400003 6.2642231e-39
-0.16863048 0.06276381 0.79400003 7.0921649e-39
-0.16669716 0.062605724 0.79200006 7.5531431e-39
-0.16518858 0.062605724 0.79200006 7.8283441e-39
-0.16368002 0.062605724 0.79200006 1.0686409e-38
-0.16217144 0.062605724 0.79200006 9.2162783e-39
-0.16066287 0.062605724 0.79200006 7.6489526e-39
-0.1591543 0.062605724 0.79200006 7.4674382e-39
-0.15764573 0.062605724 0.79200006 8.2050033e-39
-0.15574285 0.062447619 0.79000002 8.8472058e-39
-0.15423809 0.062447619 0.79000002 8.5706189e-39
-0.15273334 0.062447619 0.79000002 6.3549992e-39
-0.15122858 0.062447619 0.79000002 4.6032823e-39
-0.14972381 0.062447619 0.79000002 7.3716469e-39
-0.14821905 0.062447619 0.79000002 8.7545813e-39
-0.14671429 0.062447619 0.79000002 7.7404112e-39
-0.14520952 0.062447619 0.79000002 5.9886942e-39
-0.14406857 0.062605724 0.79200006 7.1869025e-39
-0.14256001 0.062605724 0.79200006 5.8961637e-39
-0.14105143 0.062605724 0.79200006 6.6322503e-39
-0.13954286 0.062605724 0.79200006 1.0412271e-38
-0.13803428 0.062605724 0.79200006 9.4928582e-39
-0.13687047 0.06276381 0.79400003 7.2801631e-39
-0.13569905 0.062921911 0.79600006 5.5313847e-39
-0.13418287 0.062921911 0.79600006 5.0704065e-39
-0.13266668 0.062921911 0.79600006 7.0990383e-39
-0.13180953 0.063238099 0.80000001 7.0990383e-39
-0.13028571 0.063238099 0.80000001 7.2780443e-39
-0.12908381 0.063396193 0.80200005 9.2141526e-39
-0.12755619 0.063396193 0.80200005 8.8453266e-39
-0.12650001 0.063633338 0.80500007 1.2348761e-38
-0.12527715 0.063791431 0.80700004 1.4194105e-38
-0.12404668 0.063949525 0.80900002 1.4747279e-38
-0.12280858 0.064107619 0.81100005 1.4655434e-38
-0.12186191 0.064423814 0.81500006 1.5024216e-38
-0.12030953 0.064423814 0.81500006 1.5024239e-38
-0.11904858 0.064581908 0.81700003 1.5024239e-38
-0.11778001 0.064740002 0.81900007 1.4930612e-38
-0.11622001 0.064740002 0.81900007 1.5115004e-38
-0.11466001 0.064740002 0.81900007 1.6406066e-38
-0.19184858 0.065490477 0.80900002 2.0463076e-38
-0.19030762 0.065490477 0.80900002 1.9910628e-38
-0.18783335 0.065166667 0.80500007 1.5393042e-38
-0.18630002 0.065166667 0.80500007 1.4838789e-38
-0.18476668 0.065166667 0.80500007 1.3363659e-38
-0.18277811 0.065004766 0.80300003 1.4097622e-38
-0.18102285 0.064923815 0.80200005 1.45586e-38
-0.17904761 0.064761907 0.80000001 1.1798116e-38
-0.17752382 0.064761907 0.80000001 4.8834439e-39
-0.17512001 0.064438097 0.79600006 9.2141063e-39
-0.17360382 0.064438097 0.79600006 1.4008279e-38
-0.17165524 0.064276196 0.79400003 1.2350612e-38
-0.17014286 0.064276196 0.79400003 4.3295919e-39
-0.16863048 0.064276196 0.79400003 3.226812e-39
-0.16711809 0.064276196 0.79400003 5.8082896e-39
-0.16518858 0.064114295 0.79200006 5.9908466e-39
-0.16368002 0.064114295 0.79200006 6.4518248e-39
-0.16217144 0.064114295 0.79200006 7.4688732e-39
-0.16066287 0.064114295 0.79200006 6.4547212e-39
-0.1591543 0.064114295 0.79200006 1.9429424e-39
-0.15764573 0.064114295 0.79200006 2.6805074e-39
-0.15574285 0.063952379 0.79000002 8.1092526e-39
-0.15423809 0.063952379 0.79000002 8.1092526e-39
-0.15273334 0.063952379 0.79000002 6.1730673e-39
-0.15122858 0.063952379 0.79000002 6.9106225e-39
-0.14972381 0.063952379 0.79000002 6.9128996e-39
-0.14821905 0.063952379 0.79000002 6.1753346e-39
-0.14671429 0.063952379 0.79000002 5.5320124e-39
-0.14557716 0.064114295 0.79200006 7.0993269e-39
-0.14406857 0.064114295 0.79200006 7.5586249e-39
-0.14256001 0.064114295 0.79200006 4.3317779e-39
-0.14105143 0.064114295 0.79200006 4.419942e-39
-0.13954286 0.064114295 0.79200006 9.582886e-39
-0.13803428 0.064114295 0.79200006 9.2166385e-39
-0.13687047 0.064276196 0.79400003 7.4649215e-39
-0.13569905 0.064438097 0.79600006 6.3578831e-39
-0.13418287 0.064438097 0.79600006 6.9110569e-39
-0.13266668 0.064438097 0.79600006 8.5738278e-39
-0.13180953 0.064761907 0.80000001 6.2689371e-39
-0.13028571 0.064761907 0.80000001 7.2776478e-39
-0.12908381 0.064923815 0.80200005 7.9230172e-39
-0.12755619 0.064923815 0.80200005 7.737858e-39
-0.12650001 0.065166667 0.80500007 1.363837e-38
-0.12527715 0.065328568 0.80700004 1.3918262e-38
-0.12374 0.065328568 0.80700004 1.4287045e-38
-0.12280858 0.065652385 0.81100005 1.4562885e-38
-0.12186191 0.065976188 0.81500006 1.5023863e-38
-0.12030953 0.065976188 0.81500006 1.5024236e-38
-0.11904858 0.066138096 0.81700003 1.5024236e-38
-0.11749239 0.066138096 0.81700003 1.5023157e-38
-0.11622001 0.066300005 0.81900007 1.4562179e-38
-0.11466001 0.066300005 0.81900007 1.6312791e-38
-0.11310001 0.066300005 0.81900007 2.0738182e-38
-0.19232287 0.067197151 0.81100005 2.0739313e-38
-0.19077811 0.067197151 0.81100005 1.9818783e-38
-0.18830001 0.06686572 0.80700004 1.5577784e-38
-0.18676287 0.06686572 0.80700004 1.4746594e-38
-0.18522573 0.06686572 0.80700004 1.4470007e-38
-0.18323335 0.066700004 0.80500007 1.4837713e-38
-0.18170002 0.066700004 0.80500007 1.4653322e-38
-0.17971905 0.066534288 0.80300003 1.1614088e-38
-0.17796762 0.06645143 0.80200005 4.6994155e-39
-0.176 0.066285715 0.80000001 9.2141231e-39
-0.17360382 0.06595429 0.79600006 1.4377078e-38
-0.17208764 0.06595429 0.79600006 1.2164743e-38
-0.17057145 0.06595429 0.79600006 3.31397e-39
-0.16905525 0.06595429 0.79600006 4.0555287e-39
-0.16711809 0.065788575 0.79400003 6.729202e-39
-0.16518858 0.065622866 0.79200006 6.3589397e-39
-0.16368002 0.065622866 0.79200006 5.9901572e-39
-0.16217144 0.065622866 0.79200006 6.0827283e-39
-0.16066287 0.065622866 0.79200006 8.7564016e-39
-0.1591543 0.065622866 0.79200006 6.9164295e-39
-0.15764573 0.065622866 0.79200006 3.5051912e-39
-0.15574285 0.065457143 0.79000002 7.2830176e-39
-0.15423809 0.065457143 0.79000002 7.6518001e-39
-0.15312001 0.065622866 0.79200006 7.834357e-39
-0.15161145 0.065622866 0.79200006 1.1522171e-38
-0.14972381 0.065457143 0.79000002 1.0140103e-38
-0.14821905 0.065457143 0.79000002 7.1898424e-39
-0.14671429 0.065457143 0.79000002 6.9099092e-39
-0.14557716 0.065622866 0.79200006 1.1611886e-38
-0.14406857 0.065622866 0.79200006 1.0966949e-38
-0.14256001 0.065622866 0.79200006 5.4352107e-39
-0.14105143 0.065622866 0.79200006 6.1727085e-39
-0.13954286 0.065622866 0.79200006 1.0229315e-38
-0.13803428 0.065622866 0.79200006 9.5843182e-39
-0.13687047 0.065788575 0.79400003 8.2935794e-39
-0.13569905 0.06595429 0.79600006 6.9107066e-39
-0.13418287 0.06595429 0.79600006 6.9107066e-39
-0.133 0.066119999 0.79800004 7.0990383e-39
-0.13180953 0.066285715 0.80000001 4.8863432e-39
-0.13061143 0.06645143 0.80200005 7.0000183e-39
-0.12908381 0.06645143 0.80200005 1.0595648e-38
-0.12755619 0.06645143 0.80200005 1.0688485e-38
-0.12618573 0.066534288 0.80300003 1.4007528e-38
-0.12496667 0.066700004 0.80500007 1.4101931e-38
-0.12374 0.06686572 0.80700004 1.4378518e-38
-0.12250571 0.067031428 0.80900002 1.4562532e-38
-0.12186191 0.067528576 0.81500006 1.5207901e-38
-0.12030953 0.067528576 0.81500006 1.5391214e-38
-0.11904858 0.067694284 0.81700003 1.5483409e-38
-0.11749239 0.067694284 0.81700003 1.5206459e-38
-0.11622001 0.067860007 0.81900007 1.4745481e-38
-0.11466001 0.067860007 0.81900007 1.6128047e-38
-0.11310001 0.067860007 0.81900007 2.0461242e-38
-0.18983716 0.068402864 0.80700004 1.9818432e-38
-0.18830001 0.068402864 0.80700004 1.5669629e-38
-0.18676287 0.068402864 0.80700004 1.4930612e-38
-0.18568477 0.06857238 0.80900002 1.4746221e-38
-0.18368858 0.068402864 0.80700004 1.4746597e-38
-0.18170002 0.068233334 0.80500007 1.4562205e-38
-0.18016668 0.068233334 0.80500007 1.1614809e-38
-0.17818953 0.06806381 0.80300003 6.6362454e-39
-0.176 0.06780953 0.80000001 9.39705e-39
-0.17447619 0.06780953 0.80000001 1.2531701e-38
-0.17252001 0.067639999 0.79800004 1.161121e-38
-0.171 0.067639999 0.79800004 4.6965373e-39
-0.16905525 0.067470483 0.79600006 3.9643897e-39
-0.16711809 0.067300953 0.79400003 6.5458673e-39
-0.16518858 0.067131437 0.79200006 5.1615231e-39
-0.16368002 0.067131437 0.79200006 5.5303057e-39
-0.16217144 0.067131437 0.79200006 6.7262326e-39
-0.16066287 0.067131437 0.79200006 1.0137457e-38
-0.1591543 0.067131437 0.79200006 9.309588e-39
-0.15764573 0.067131437 0.79200006 4.6998065e-39
-0.15574285 0.066961907 0.79000002 5.4370058e-39
-0.15423809 0.066961907 0.79000002 4.9760277e-39
-0.15312001 0.067131437 0.79200006 4.0551111e-39
-0.15161145 0.067131437 0.79200006 1.0324404e-38
-0.14972381 0.066961907 0.79000002 1.0507097e-38
-0.14821905 0.066961907 0.79000002 6.0817068e-39
-0.14708573 0.067131437 0.79200006 5.6138034e-39
-0.14557716 0.067131437 0.79200006 1.2897247e-38
-0.14406857 0.067131437 0.79200006 1.1521599e-38
-0.14256001 0.067131437 0.79200006 5.0679052e-39
-0.14105143 0.067131437 0.79200006 6.6322503e-39
-0.13954286 0.067131437 0.79200006 8.5683586e-39
-0.13803428 0.067131437 0.79200006 8.8463804e-39
-0.13687047 0.067300953 0.79400003 8.3854022e-39
-0.13604 0.067639999 0.79800004 7.0021399e-39
-0.13451999 0.067639999 0.79800004 7.463118e-39
-0.133 0.067639999 0.79800004 8.481223e-39
-0.13213904 0.067979053 0.80200005 7.2826798e-39
-0.13061143 0.067979053 0.80200005 7.8329571e-39
-0.12908381 0.067979053 0.80200005 1.0691022e-38
-0.12771523 0.06806381 0.80300003 1.1424593e-38
-0.12618573 0.06806381 0.80300003 1.4559244e-38
-0.12496667 0.068233334 0.80500007 1.4008998e-38
-0.12374 0.068402864 0.80700004 1.4654367e-38
-0.12250571 0.06857238 0.80900002 1.465473e-38
-0.12186191 0.069080956 0.81500006 1.5023513e-38
-0.12060476 0.069250479 0.81700003 1.539086e-38
-0.11934 0.069420002 0.81900007 1.5667447e-38
-0.11778001 0.069420002 0.81900007 1.5297586e-38
-0.11622001 0.069420002 0.81900007 1.4836608e-38
-0.11466001 0.069420002 0.81900007 1.6128053e-38
-0.11310001 0.069420002 0.81900007 2.0369052e-38
-0.19030762 0.070113339 0.80900002 1.9910631e-38
-0.18876667 0.070113339 0.80900002 1.6868175e-38
-0.18722571 0.070113339 0.80900002 1.4747676e-38
-0.18568477 0.070113339 0.80900002 1.5024263e-38
-0.18414381 0.070113339 0.80900002 1.5116448e-38
-0.18215142 0.069940001 0.80700004 1.4839861e-38
-0.18016668 0.06976667 0.80500007 1.2630413e-38
-0.17818953 0.06959334 0.80300003 5.8079365e-39
-0.17644 0.069506668 0.80200005 7.0953921e-39
-0.17447619 0.069333337 0.80000001 7.1875877e-39
-0.17295238 0.069333337 0.80000001 7.4616607e-39
-0.171 0.069159999 0.79800004 4.9723899e-39
-0.16948001 0.069159999 0.79800004 5.2526146e-39
-0.16753906 0.068986669 0.79600006 9.3092223e-39
-0.16560571 0.068813339 0.79400003 9.1248492e-39
-0.16409333 0.068813339 0.79400003 8.2028929e-39
-0.16258095 0.068813339 0.79400003 5.8979447e-39
-0.16106857 0.068813339 0.79400003 9.309183e-39
-0.1591543 0.068640009 0.79200006 8.2990038e-39
-0.15764573 0.068640009 0.79200006 2.9516573e-39
-0.15574285 0.068466663 0.79000002 4.3346393e-39
-0.15423809 0.068466663 0.79000002 3.9658568e-39
-0.15312001 0.068640009 0.79200006 4.0554699e-39
-0.15161145 0.068640009 0.79200006 9.7715933e-39
-0.15010287 0.068640009 0.79200006 9.6794495e-39
-0.1485943 0.068640009 0.79200006 5.4384506e-39
-0.14708573 0.068640009 0.79200006 6.5379023e-39
-0.14557716 0.068640009 0.79200006 1.354477e-38
-0.14406857 0.068640009 0.79200006 1.1338946e-38
-0.14256001 0.068640009 0.79200006 3.5023171e-39
-0.14105143 0.068640009 0.79200006 4.0561873e-39
-0.13954286 0.068640009 0.79200006 4.9781366e-39
-0.13803428 0.068640009 0.79200006 8.2939073e-39
-0.13721524 0.068986669 0.79600006 9.2158636e-39
-0.13604 0.069159999 0.79800004 1.0689599e-38
-0.13451999 0.069159999 0.79800004 1.1334969e-38
-0.133 0.069159999 0.79800004 1.2534931e-38
-0.13213904 0.069506668 0.80200005 1.2534931e-38
-0.13077429 0.06959334 0.80300003 1.3087049e-38
-0.12924476 0.06959334 0.80300003 1.474657e-38
-0.12771523 0.06959334 0.80300003 1.4562159e-38
-0.12650001 0.06976667 0.80500007 1.474655e-38
-0.12496667 0.06976667 0.80500007 1.4470336e-38
-0.12374 0.069940001 0.80700004 1.4562532e-38
-0.12250571 0.070113339 0.80900002 1.4654025e-38
-0.12186191 0.070633344 0.81500006 1.4930612e-38
-0.12060476 0.070806667 0.81700003 1.5207199e-38
-0.11934 0.070980005 0.81900007 1.5668177e-38
-0.11806762 0.071153335 0.82100004 1.5022811e-38
-0.11678762 0.071326666 0.82300001 1.4469637e-38
-0.11522 0.071326666 0.82300001 1.5759999e-38
-0.11365238 0.071326666 0.82300001 2.0093193e-38
-0.19077811 0.071831435 0.81100005 1.9726603e-38
-0.18923333 0.071831435 0.81100005 1.7329516e-38
-0.18768859 0.071831435 0.81100005 1.5945853e-38
-0.18614383 0.071831435 0.81100005 1.4931701e-38
-0.18414381 0.071654283 0.80900002 1.5024616e-38
-0.18215142 0.071477145 0.80700004 1.4840224e-38
-0.18016668 0.071300007 0.80500007 1.3736758e-38
-0.17818953 0.071122855 0.80300003 8.7581939e-39
-0.17644 0.07103429 0.80200005 7.8350969e-39
-0.17491238 0.07103429 0.80200005 7.1897275e-39
-0.17295238 0.070857145 0.80000001 6.1766672e-39
-0.17142858 0.070857145 0.80000001 5.8078847e-39
-0.16948001 0.07068 0.79800004 5.8072008e-39
-0.16753906 0.070502862 0.79600006 9.3106348e-39
-0.16602288 0.070502862 0.79600006 9.310667e-39
-0.16450667 0.070502862 0.79600006 7.9277326e-39
-0.16258095 0.070325717 0.79400003 4.8855766e-39
-0.16106857 0.070325717 0.79400003 8.8499775e-39
-0.1591543 0.07014858 0.79200006 7.5639695e-39
-0.15764573 0.07014858 0.79200006 4.8902962e-39
-0.15613715 0.07014858 0.79200006 5.1665524e-39
-0.15462859 0.07014858 0.79200006 3.9680092e-39
-0.15312001 0.07014858 0.79200006 2.9491391e-39
-0.15161145 0.07014858 0.79200006 9.4028276e-39
-0.15010287 0.07014858 0.79200006 9.4954058e-39
-0.1485943 0.07014858 0.79200006 5.1622112e-39
-0.14745714 0.070325717 0.79400003 6.7194167e-39
-0.14594476 0.070325717 0.79400003 1.4002859e-38
-0.14443238 0.070325717 0.79400003 1.143223e-38
-0.14292 0.070325717 0.79400003 4.5175578e-39
-0.14140762 0.070325717 0.79400003 5.7106612e-39
-0.13989523 0.070325717 0.79400003 7.2779757e-39
-0.13873143 0.070502862 0.79600006 8.3868288e-39
-0.13756 0.07068 0.79800004 9.7697632e-39
-0.13604 0.07068 0.79800004 1.2254794e-38
-0.13451999 0.07068 0.79800004 1.2531381e-38
-0.13333333 0.070857145 0.80000001 1.4097622e-38
-0.13213904 0.07103429 0.80200005 1.3821035e-38
-0.13077429 0.071122855 0.80300003 1.4191226e-38
-0.12924476 0.071122855 0.80300003 1.5020986e-38
-0.12771523 0.071122855 0.80300003 1.4195544e-38
-0.12650001 0.071300007 0.80500007 1.428774e-38
-0.12527715 0.071477145 0.80700004 1.4287387e-38
-0.12404668 0.071654283 0.80900002 1.4563974e-38
-0.12280858 0.071831435 0.81100005 1.4838766e-38
-0.12186191 0.072185718 0.81500006 1.4930961e-38
-0.12060476 0.072362863 0.81700003 1.5022808e-38
-0.11934 0.072540008 0.81900007 1.5207199e-38
-0.11806762 0.072717145 0.82100004 1.4931691e-38
-0.11678762 0.072894283 0.82300001 1.4378518e-38
-0.11522 0.072894283 0.82300001 1.5207548e-38
-0.11365238 0.072894283 0.82300001 1.9632938e-38
-0.19077811 0.073376194 0.81100005 2.0002473e-38
-0.18923333 0.073376194 0.81100005 1.8342952e-38
-0.18768859 0.073376194 0.81100005 1.6315367e-38
-0.18614383 0.073376194 0.81100005 1.4194868e-38
-0.18414381 0.073195241 0.80900002 1.4471442e-38
-0.18215142 0.073014289 0.80700004 1.4563637e-38
-0.18016668 0.072833337 0.80500007 1.4195565e-38
-0.17863335 0.072833337 0.80500007 1.4011174e-38
-0.17666002 0.072652385 0.80300003 1.3182498e-38
-0.17513049 0.072652385 0.80300003 1.272152e-38
-0.17338477 0.072561905 0.80200005 1.253605e-38
-0.17142858 0.072380953 0.80000001 1.2259463e-38
-0.16990477 0.072380953 0.80000001 1.1982507e-38
-0.16796 0.072200008 0.79800004 9.8620079e-39
-0.16644001 0.072200008 0.79800004 1.0137907e-38
-0.16492002 0.072200008 0.79800004 1.0230102e-38
-0.16258095 0.071838096 0.79400003 1.0415901e-38
-0.16106857 0.071838096 0.79400003 1.0876879e-38
-0.1595562 0.071838096 0.79400003 1.0141484e-38
-0.1580438 0.071838096 0.79400003 8.9429411e-39
-0.15653142 0.071838096 0.79400003 9.4968435e-39
-0.15501904 0.071838096 0.79400003 9.4046479e-39
-0.15350667 0.071838096 0.79400003 9.7698123e-39
-0.15199429 0.071838096 0.79400003 9.7698123e-39
