# .PCD v0.7 - Point Cloud Data file format
VERSION 0.7
FIELDS x y z rgb
SIZE 4 4 4 4
TYPE F F F F
COUNT 1 1 1 1
WIDTH 976
HEIGHT 1
VIEWPOINT 0 0 0 1 0 0 0
POINTS 976
DATA ascii
-0.18564001 -0.0075600003 0.88200003 1.5023887e-38
-0.18396001 -0.0075600003 0.88200003 1.4561477e-38
-0.18186668 -0.0075428574 0.88000005 1.4469281e-38
-0.18019049 -0.0075428574 0.88000005 1.4377078e-38
-0.17810857 -0.0075257146 0.87800002 1.4377078e-38
-0.1764362 -0.0075257146 0.87800002 1.4285592e-38
-0.17476381 -0.0075257146 0.87800002 1.4101201e-38
-0.17250001 -0.0075000003 0.87500006 1.382497e-38
-0.17083335 -0.0075000003 0.87500006 1.4285948e-38
-0.16916668 -0.0075000003 0.87500006 1.4469254e-38
-0.16750002 -0.0075000003 0.87500006 1.4377059e-38
-0.16583334 -0.0075000003 0.87500006 1.4377088e-38
-0.16416667 -0.0075000003 0.87500006 1.4284893e-38
-0.16250001 -0.0075000003 0.87500006 1.4285592e-38
-0.16083334 -0.0075000003 0.87500006 1.4654374e-38
-0.15916668 -0.0075000003 0.87500006 1.4469983e-38
-0.15804 -0.0075257146 0.87800002 1.4469983e-38
-0.15636761 -0.0075257146 0.87800002 1.4378143e-38
-0.15469524 -0.0075257146 0.87800002 1.4562535e-38
-0.15302287 -0.0075257146 0.87800002 1.4746923e-38
-0.15169525 -0.0075428574 0.88000005 1.4654727e-38
-0.15001905 -0.0075428574 0.88000005 1.4654727e-38
-0.14834286 -0.0075428574 0.88000005 1.502351e-38
-0.14666668 -0.0075428574 0.88000005 1.483805e-38
-0.14499047 -0.0075428574 0.88000005 1.4745854e-38
-0.1433143 -0.0075428574 0.88000005 1.4654011e-38
-0.14196 -0.0075600003 0.88200003 1.4654011e-38
-0.14028001 -0.0075600003 0.88200003 1.4008306e-38
-0.13938573 -0.0076028574 0.88700002 1.3823914e-38
-0.13800667 -0.0076200003 0.88900006 1.3640578e-38
-0.13662 -0.0076371427 0.89100003 1.3640578e-38
-0.13537715 -0.0076628574 0.89400005 1.3732043e-38
-0.13367428 -0.0076628574 0.89400005 1.4008629e-38
-0.13197143 -0.0076628574 0.89400005 1.3917513e-38
-0.13056 -0.0076800003 0.89600003 1.4009708e-38
-0.12914096 -0.0076971436 0.89800006 1.3089535e-38
-0.12785619 -0.0077228574 0.90100002 1.3734904e-38
-0.12614 -0.0077228574 0.90100002 1.4378497e-38
-0.12470001 -0.0077400007 0.90300006 1.788193e-38
-0.12298001 -0.0077400007 0.90300006 1.9724042e-38
-0.20394668 -0.0059733335 0.89600003 1.3363979e-38
-0.20224001 -0.0059733335 0.89600003 1.3179588e-38
-0.20053335 -0.0059733335 0.89600003 1.2995194e-38
-0.19882667 -0.0059733335 0.89600003 1.5207889e-38
-0.19668001 -0.0059600002 0.89400005 1.5483789e-38
-0.19432285 -0.0059400005 0.89100003 1.5575985e-38
-0.19219334 -0.0059266672 0.88900006 1.5116434e-38
-0.19007143 -0.0059133335 0.88700002 1.4747652e-38
-0.18795715 -0.0059000002 0.88500005 1.4655465e-38
-0.18564001 -0.0058800001 0.88200003 1.474766e-38
-0.18396001 -0.0058800001 0.88200003 1.4654028e-38
-0.18186668 -0.0058666668 0.88000005 1.4561833e-38
-0.18019049 -0.0058666668 0.88000005 1.4377441e-38
-0.1785143 -0.0058666668 0.88000005 1.4377441e-38
-0.1764362 -0.005853333 0.87800002 1.456183e-38
-0.17476381 -0.005853333 0.87800002 1.4193047e-38
-0.17309143 -0.005853333 0.87800002 1.3640229e-38
-0.17141905 -0.005853333 0.87800002 1.4285599e-38
-0.16974667 -0.005853333 0.87800002 1.419377e-38
-0.16807428 -0.005853333 0.87800002 1.419377e-38
-0.16640191 -0.005853333 0.87800002 1.4377441e-38
-0.16472952 -0.005853333 0.87800002 1.4285246e-38
-0.16305715 -0.005853333 0.87800002 1.4194126e-38
-0.16138478 -0.005853333 0.87800002 1.4194126e-38
-0.15971237 -0.005853333 0.87800002 1.4285966e-38
-0.15804 -0.005853333 0.87800002 1.4101575e-38
-0.15636761 -0.005853333 0.87800002 1.4192331e-38
-0.15469524 -0.005853333 0.87800002 1.4745505e-38
-0.15302287 -0.005853333 0.87800002 1.4746573e-38
-0.15169525 -0.0058666668 0.88000005 1.4654377e-38
-0.15001905 -0.0058666668 0.88000005 1.4193389e-38
-0.14834286 -0.0058666668 0.88000005 1.4285585e-38
-0.14666668 -0.0058666668 0.88000005 1.4376708e-38
-0.14499047 -0.0058666668 0.88000005 1.4284513e-38
-0.1433143 -0.0058666668 0.88000005 1.4193389e-38
-0.14196 -0.0058800001 0.88200003 1.4101194e-38
-0.14028001 -0.0058800001 0.88200003 1.3365065e-38
-0.13938573 -0.0059133335 0.88700002 1.2811891e-38
-0.13800667 -0.0059266672 0.88900006 1.2810452e-38
-0.13662 -0.0059400005 0.89100003 1.3179234e-38
-0.13537715 -0.0059600002 0.89400005 1.3271417e-38
-0.13367428 -0.0059600002 0.89400005 1.3179222e-38
-0.13197143 -0.0059600002 0.89400005 1.2628216e-38
-0.13056 -0.0059733335 0.89600003 1.2904803e-38
-0.12914096 -0.0059866668 0.89800006 1.2721468e-38
-0.12785619 -0.0060066669 0.90100002 1.3551229e-38
-0.12614 -0.0060066669 0.90100002 1.3733845e-38
-0.12470001 -0.0060200007 0.90300006 1.7698257e-38
-0.20394668 -0.0042666667 0.89600003 1.3453661e-38
-0.20224001 -0.0042666667 0.89600003 1.4006834e-38
-0.20008573 -0.004257143 0.89400005 1.4191932e-38
-0.19838287 -0.004257143 0.89400005 1.5482671e-38
-0.19668001 -0.004257143 0.89400005 1.5483786e-38
-0.19432285 -0.004242857 0.89100003 1.5575982e-38
-0.19219334 -0.0042333333 0.88900006 1.502316e-38
-0.19007143 -0.0042238096 0.88700002 1.3087051e-38
-0.18795715 -0.0042142859 0.88500005 1.290445e-38
-0.18564001 -0.0042000003 0.88200003 1.3273232e-38
-0.18396001 -0.0042000003 0.88200003 1.3365068e-38
-0.18228 -0.0042000003 0.88200003 1.3365068e-38
-0.18019049 -0.0041904761 0.88000005 1.3364366e-38
-0.1785143 -0.0041904761 0.88000005 1.2995583e-38
-0.1768381 -0.0041904761 0.88000005 1.3456913e-38
-0.17476381 -0.0041809524 0.87800002 1.3456913e-38
-0.17309143 -0.0041809524 0.87800002 1.354838e-38
-0.17141905 -0.0041809524 0.87800002 1.3179597e-38
-0.16974667 -0.0041809524 0.87800002 1.2995583e-38
-0.16807428 -0.0041809524 0.87800002 1.2903387e-38
-0.16640191 -0.0041809524 0.87800002 1.2996285e-38
-0.16472952 -0.0041809524 0.87800002 1.2996285e-38
-0.16305715 -0.0041809524 0.87800002 1.2811908e-38
-0.16138478 -0.0041809524 0.87800002 1.2904104e-38
-0.15971237 -0.0041809524 0.87800002 1.2811558e-38
-0.15804 -0.0041809524 0.87800002 1.2719362e-38
-0.15636761 -0.0041809524 0.87800002 1.2811192e-38
-0.15469524 -0.0041809524 0.87800002 1.2718996e-38
-0.15302287 -0.0041809524 0.87800002 1.26275e-38
-0.15169525 -0.0041904761 0.88000005 1.26275e-38
-0.15001905 -0.0041904761 0.88000005 1.2810805e-38
-0.14834286 -0.0041904761 0.88000005 1.2718609e-38
-0.14666668 -0.0041904761 0.88000005 1.2718256e-38
-0.14499047 -0.0041904761 0.88000005 1.2533865e-38
-0.1433143 -0.0041904761 0.88000005 1.235056e-38
-0.14196 -0.0042000003 0.88200003 1.3088125e-38
-0.14028001 -0.0042000003 0.88200003 1.2904787e-38
-0.13938573 -0.0042238096 0.88700002 1.2536005e-38
-0.13831714 -0.004242857 0.89100003 1.2351644e-38
-0.13662 -0.004242857 0.89100003 1.2351644e-38
-0.13537715 -0.004257143 0.89400005 1.2351626e-38
-0.13367428 -0.004257143 0.89400005 1.2167235e-38
-0.13197143 -0.004257143 0.89400005 1.2258734e-38
-0.13056 -0.0042666667 0.89600003 1.2996299e-38
-0.12914096 -0.0042761909 0.89800006 1.3089181e-38
-0.12785619 -0.0042904764 0.90100002 1.4011138e-38
-0.12614 -0.0042904764 0.90100002 1.4378164e-38
-0.12470001 -0.0043000001 0.90300006 1.806599e-38
-0.20224001 -0.0025600002 0.89600003 1.5941854e-38
-0.20008573 -0.0025542858 0.89400005 1.5941197e-38
-0.19838287 -0.0025542858 0.89400005 1.5203632e-38
-0.19668001 -0.0025542858 0.89400005 1.5022811e-38
-0.19432285 -0.0025457144 0.89100003 1.5575985e-38
-0.19219334 -0.0025400002 0.88900006 1.4562909e-38
-0.19050001 -0.0025400002 0.88900006 1.1889236e-38
-0.18838191 -0.0025342857 0.88700002 1.1705174e-38
-0.18627143 -0.0025285715 0.88500005 1.2073956e-38
-0.18396001 -0.0025200001 0.88200003 1.2167253e-38
-0.18228 -0.0025200001 0.88200003 1.1890666e-38
-0.1806 -0.0025200001 0.88200003 1.170556e-38
-0.1785143 -0.0025142857 0.88000005 1.1982147e-38
-0.1768381 -0.0025142857 0.88000005 1.2350577e-38
-0.17476381 -0.0025085714 0.87800002 1.2258381e-38
-0.17309143 -0.0025085714 0.87800002 1.2166538e-38
-0.17141905 -0.0025085714 0.87800002 1.2443125e-38
-0.16974667 -0.0025085714 0.87800002 1.2535331e-38
-0.16807428 -0.0025085714 0.87800002 1.2535331e-38
-0.16640191 -0.0025085714 0.87800002 1.2720791e-38
-0.16472952 -0.0025085714 0.87800002 1.2628596e-38
-0.16305715 -0.0025085714 0.87800002 1.2627877e-38
-0.16138478 -0.0025085714 0.87800002 1.2627877e-38
-0.15971237 -0.0025085714 0.87800002 1.2443488e-38
-0.15804 -0.0025085714 0.87800002 1.2351293e-38
-0.15636761 -0.0025085714 0.87800002 1.2350937e-38
-0.15469524 -0.0025085714 0.87800002 1.1797763e-38
-0.15302287 -0.0025085714 0.87800002 1.2072897e-38
-0.15169525 -0.0025142857 0.88000005 1.2165092e-38
-0.15001905 -0.0025142857 0.88000005 1.2074692e-38
-0.14834286 -0.0025142857 0.88000005 1.1982496e-38
-0.14666668 -0.0025142857 0.88000005 1.2075052e-38
-0.14499047 -0.0025142857 0.88000005 1.1982856e-38
-0.1433143 -0.0025142857 0.88000005 1.1799534e-38
-0.14196 -0.0025200001 0.88200003 1.1799534e-38
-0.14028001 -0.0025200001 0.88200003 1.1708411e-38
-0.13938573 -0.0025342857 0.88700002 1.1708411e-38
-0.13831714 -0.0025457144 0.89100003 1.1063064e-38
-0.13662 -0.0025457144 0.89100003 1.1708433e-38
-0.13537715 -0.0025542858 0.89400005 1.2076124e-38
-0.13367428 -0.0025542858 0.89400005 1.1891733e-38
-0.13197143 -0.0025542858 0.89400005 1.2074323e-38
-0.13056 -0.0025600002 0.89600003 1.3180671e-38
-0.12914096 -0.0025657145 0.89800006 1.4378484e-38
-0.12785619 -0.0025742857 0.90100002 1.4747266e-38
-0.12642001 -0.0025800001 0.90300006 1.6405706e-38
-0.12470001 -0.0025800001 0.90300006 1.8618401e-38
-0.20224001 -0.00085333333 0.89600003 2.285582e-38
-0.20008573 -0.0008514286 0.89400005 2.1476075e-38
-0.19838287 -0.0008514286 0.89400005 1.4469207e-38
-0.19712001 -0.00085333333 0.89600003 1.4562565e-38
-0.19432285 -0.00084857148 0.89100003 1.5761109e-38
-0.19262572 -0.00084857148 0.89100003 1.4931335e-38
-0.19050001 -0.00084666669 0.88900006 1.188888e-38
-0.18838191 -0.0008447619 0.88700002 1.096906e-38
-0.18627143 -0.00084285717 0.88500005 1.0231495e-38
-0.18396001 -0.00083999999 0.88200003 1.0139309e-38
-0.18228 -0.00083999999 0.88200003 1.0047114e-38
-0.1806 -0.00083999999 0.88200003 9.4013815e-39
-0.1785143 -0.00083809526 0.88000005 7.7418601e-39
-0.1768381 -0.00083809526 0.88000005 8.7560121e-39
-0.17516191 -0.00083809526 0.88000005 8.9404033e-39
-0.17309143 -0.00083619048 0.87800002 9.2159252e-39
-0.17141905 -0.00083619048 0.87800002 1.0506664e-38
-0.16974667 -0.00083619048 0.87800002 1.151973e-38
-0.16807428 -0.00083619048 0.87800002 1.1704121e-38
-0.16640191 -0.00083619048 0.87800002 1.1428618e-38
-0.16510478 -0.00083809526 0.88000005 1.1981791e-38
-0.16342857 -0.00083809526 0.88000005 1.1798465e-38
-0.16175239 -0.00083809526 0.88000005 1.1429683e-38
-0.1600762 -0.00083809526 0.88000005 1.1521162e-38
-0.1584 -0.00083809526 0.88000005 1.1613358e-38
-0.15672383 -0.00083809526 0.88000005 1.1798119e-38
-0.15504763 -0.00083809526 0.88000005 1.1613728e-38
-0.15337144 -0.00083809526 0.88000005 1.1888882e-38
-0.15169525 -0.00083809526 0.88000005 1.2073274e-38
-0.15001905 -0.00083809526 0.88000005 1.1890312e-38
-0.14834286 -0.00083809526 0.88000005 1.1982507e-38
-0.14666668 -0.00083809526 0.88000005 1.1983575e-38
-0.14499047 -0.00083809526 0.88000005 1.189138e-38
-0.1433143 -0.00083809526 0.88000005 1.1615512e-38
-0.14196 -0.00083999999 0.88200003 1.0970142e-38
-0.14028001 -0.00083999999 0.88200003 1.1799534e-38
-0.13938573 -0.0008447619 0.88700002 1.2076121e-38
-0.13831714 -0.00084857148 0.89100003 1.2166911e-38
-0.13662 -0.00084857148 0.89100003 1.3181063e-38
-0.13537715 -0.0008514286 0.89400005 1.4379214e-38
-0.13367428 -0.0008514286 0.89400005 1.447141e-38
-0.13197143 -0.0008514286 0.89400005 1.603657e-38
-0.13085143 -0.00085523812 0.89800006 1.6128766e-38
-0.12914096 -0.00085523812 0.89800006 1.6220977e-38
-0.12785619 -0.00085809524 0.90100002 1.7235129e-38
-0.12642001 -0.00086000003 0.90300006 1.705106e-38
-0.12470001 -0.00086000003 0.90300006 1.8802777e-38
-0.12298001 -0.00086000003 0.90300006 1.9908074e-38
-0.1222 -0.00086666667 0.91000003 2.2489551e-38
-0.20224001 0.00085333333 0.89600003 2.2396649e-38
-0.20008573 0.0008514286 0.89400005 2.0925146e-38
-0.19838287 0.0008514286 0.89400005 1.4379256e-38
-0.19712001 0.00085333333 0.89600003 1.4379243e-38
-0.19432285 0.00084857148 0.89100003 1.5485591e-38
-0.19262572 0.00084857148 0.89100003 1.493277e-38
-0.19050001 0.00084666669 0.88900006 1.1798119e-38
-0.18880667 0.00084666669 0.88900006 1.0877931e-38
-0.18627143 0.00084285717 0.88500005 9.7715835e-39
-0.18396001 0.00083999999 0.88200003 9.6801264e-39
-0.18228 0.00083999999 0.88200003 9.4957351e-39
-0.1806 0.00083999999 0.88200003 9.0343968e-39
-0.1785143 0.00083809526 0.88000005 8.2968318e-39
-0.1768381 0.00083809526 0.88000005 8.2968318e-39
-0.17516191 0.00083809526 0.88000005 8.2046361e-39
-0.17348573 0.00083809526 0.88000005 8.6638164e-39
-0.17180952 0.00083809526 0.88000005 9.3091858e-39
-0.17013335 0.00083809526 0.88000005 1.1611196e-38
-0.16845715 0.00083809526 0.88000005 1.1795587e-38
-0.16678096 0.00083809526 0.88000005 1.1702683e-38
-0.16510478 0.00083809526 0.88000005 1.1887075e-38
-0.16342857 0.00083809526 0.88000005 1.1982496e-38
-0.16175239 0.00083809526 0.88000005 1.1521518e-38
-0.1600762 0.00083809526 0.88000005 1.1429322e-38
-0.1584 0.00083809526 0.88000005 1.1613714e-38
-0.15672383 0.00083809526 0.88000005 1.1981428e-38
-0.15504763 0.00083809526 0.88000005 1.1797037e-38
-0.15337144 0.00083809526 0.88000005 1.179704e-38
-0.15169525 0.00083809526 0.88000005 1.179704e-38
-0.15001905 0.00083809526 0.88000005 1.1981777e-38
-0.14834286 0.00083809526 0.88000005 1.1981777e-38
-0.14666668 0.00083809526 0.88000005 1.1799887e-38
-0.14499047 0.00083809526 0.88000005 1.1799887e-38
-0.14364001 0.00083999999 0.88200003 1.143185e-38
-0.14196 0.00083999999 0.88200003 1.143185e-38
-0.14028001 0.00083999999 0.88200003 1.2259446e-38
-0.13938573 0.0008447619 0.88700002 1.281262e-38
-0.13831714 0.00084857148 0.89100003 1.3271793e-38
-0.13662 0.00084857148 0.89100003 1.4378141e-38
-0.13537715 0.0008514286 0.89400005 1.5206472e-38
-0.13367428 0.0008514286 0.89400005 1.5483059e-38
-0.13226667 0.00085333333 0.89600003 1.6680171e-38
-0.13085143 0.00085523812 0.89800006 1.649578e-38
-0.12957239 0.00085809524 0.90100002 1.6588322e-38
-0.12814002 0.00086000003 0.90300006 1.7233691e-38
-0.12642001 0.00086000003 0.90300006 1.7050357e-38
-0.12511428 0.00086285715 0.90600002 1.82489e-38
-0.12393334 0.00086666667 0.91000003 1.9907708e-38
-0.1222 0.00086666667 0.91000003 2.2581381e-38
-0.20224001 0.0025600002 0.89600003 2.2398111e-38
-0.20008573 0.0025542858 0.89400005 2.0832209e-38
-0.19838287 0.0025542858 0.89400005 1.511608e-38
-0.19712001 0.0025600002 0.89600003 1.4656535e-38
-0.19497715 0.0025542858 0.89400005 1.53941e-38
-0.19262572 0.0025457144 0.89100003 1.5025318e-38
-0.19092858 0.0025457144 0.89100003 1.1890666e-38
-0.18880667 0.0025400002 0.88900006 1.0602436e-38
-0.18627143 0.0025285715 0.88500005 8.4819363e-39
-0.18458574 0.0025285715 0.88500005 8.9422012e-39
-0.18228 0.0025200001 0.88200003 9.1265924e-39
-0.1806 0.0025200001 0.88200003 9.1266036e-39
-0.17892002 0.0025200001 0.88200003 8.3890386e-39
-0.1768381 0.0025142857 0.88000005 8.1138796e-39
-0.17516191 0.0025142857 0.88000005 8.1138796e-39
-0.17348573 0.0025142857 0.88000005 8.2975717e-39
-0.17180952 0.0025142857 0.88000005 8.3897673e-39
-0.17013335 0.0025142857 0.88000005 9.2176937e-39
-0.16845715 0.0025142857 0.88000005 1.0324041e-38
-0.16678096 0.0025142857 0.88000005 9.5872315e-39
-0.16510478 0.0025142857 0.88000005 9.3106446e-39
-0.16342857 0.0025142857 0.88000005 1.0692131e-38
-0.16175239 0.0025142857 0.88000005 1.198287e-38
-0.1600762 0.0025142857 0.88000005 1.170519e-38
-0.1584 0.0025142857 0.88000005 1.1797386e-38
-0.15672383 0.0025142857 0.88000005 1.1613009e-38
-0.15504763 0.0025142857 0.88000005 1.1520813e-38
-0.15337144 0.0025142857 0.88000005 1.1244226e-38
-0.15169525 0.0025142857 0.88000005 1.1244226e-38
-0.15001905 0.0025142857 0.88000005 1.170626e-38
-0.14834286 0.0025142857 0.88000005 1.170626e-38
-0.14666668 0.0025142857 0.88000005 1.2351619e-38
-0.14532 0.0025200001 0.88200003 1.3089184e-38
-0.14364001 0.0025200001 0.88200003 1.4285592e-38
-0.14196 0.0025200001 0.88200003 1.4469983e-38
-0.14075716 0.0025285715 0.88500005 1.4654028e-38
-0.13970001 0.0025400002 0.88900006 1.5483789e-38
-0.13831714 0.0025457144 0.89100003 1.4931668e-38
-0.13708 0.0025542858 0.89400005 1.5023863e-38
-0.13537715 0.0025542858 0.89400005 1.4748002e-38
-0.13367428 0.0025542858 0.89400005 1.3826046e-38
-0.13226667 0.0025600002 0.89600003 1.3364022e-38
-0.13128857 0.0025742857 0.90100002 1.299524e-38
-0.12957239 0.0025742857 0.90100002 1.3549103e-38
-0.12814002 0.0025800001 0.90300006 1.4286668e-38
-0.12684001 0.0025885713 0.90600002 1.502066e-38
-0.12511428 0.0025885713 0.90600002 1.8247507e-38
-0.12393334 0.0026 0.91000003 1.9724033e-38
-0.1222 0.0026 0.91000003 2.2582097e-38
-0.20008573 0.004257143 0.89400005 2.0465224e-38
-0.19838287 0.004257143 0.89400005 1.5394465e-38
-0.19712001 0.0042666667 0.89600003 1.4839847e-38
-0.19497715 0.004257143 0.89400005 1.5485217e-38
-0.19262572 0.004242857 0.89100003 1.5116806e-38
-0.19092858 0.004242857 0.89100003 1.1889959e-38
-0.18880667 0.0042333333 0.88900006 1.0785735e-38
-0.18669239 0.0042238096 0.88700002 9.0340185e-39
-0.18458574 0.0042142859 0.88500005 9.4013815e-39
-0.18228 0.0042000003 0.88200003 9.4013815e-39
-0.1806 0.0042000003 0.88200003 9.3109809e-39
-0.17892002 0.0042000003 0.88200003 8.3890246e-39
-0.1768381 0.0041904761 0.88000005 7.4688437e-39
-0.17516191 0.0041904761 0.88000005 8.2986044e-39
-0.17348573 0.0041904761 0.88000005 8.1153286e-39
-0.17180952 0.0041904761 0.88000005 7.9309373e-39
-0.17013335 0.0041904761 0.88000005 7.1947876e-39
-0.16845715 0.0041904761 0.88000005 8.3933308e-39
-0.16678096 0.0041904761 0.88000005 8.3004457e-39
-0.16510478 0.0041904761 0.88000005 8.484837e-39
-0.16342857 0.0041904761 0.88000005 9.7726751e-39
-0.16175239 0.0041904761 0.88000005 1.1432196e-38
-0.1600762 0.0041904761 0.88000005 1.1981777e-38
-0.1584 0.0041904761 0.88000005 1.1797386e-38
-0.15672383 0.0041904761 0.88000005 1.1428604e-38
-0.15504763 0.0041904761 0.88000005 1.1428604e-38
-0.15337144 0.0041904761 0.88000005 1.1060177e-38
-0.15169525 0.0041904761 0.88000005 1.1428959e-38
-0.15001905 0.0041904761 0.88000005 1.2351632e-38
-0.14868 0.0042000003 0.88200003 1.2259436e-38
-0.147 0.0042000003 0.88200003 1.3456174e-38
-0.14532 0.0042000003 0.88200003 1.4101544e-38
-0.14364001 0.0042000003 0.88200003 1.5112478e-38
-0.14244285 0.0042142859 0.88500005 1.5204674e-38
-0.14075716 0.0042142859 0.88500005 1.4836242e-38
-0.13970001 0.0042333333 0.88900006 1.5020633e-38
-0.13831714 0.004242857 0.89100003 1.456183e-38
-0.13708 0.004257143 0.89400005 1.4285243e-38
-0.13537715 0.004257143 0.89400005 1.3274694e-38
-0.13367428 0.004257143 0.89400005 1.2629324e-38
-0.13226667 0.0042666667 0.89600003 9.8685043e-39
-0.13128857 0.0042904764 0.90100002 8.5777655e-39
-0.12957239 0.0042904764 0.90100002 9.496091e-39
-0.12814002 0.0043000001 0.90300006 9.4038954e-39
-0.12684001 0.0043142857 0.90600002 1.5020251e-38
-0.12539048 0.0043238099 0.90800005 1.8892467e-38
-0.12393334 0.0043333336 0.91000003 1.9723677e-38
-0.1222 0.0043333336 0.91000003 2.2489546e-38
-0.20008573 0.0059600002 0.89400005 2.1017668e-38
-0.19838287 0.0059600002 0.89400005 1.61313e-38
-0.19712001 0.0059733335 0.89600003 1.5116432e-38
-0.19497715 0.0059600002 0.89400005 1.5853997e-38
-0.19262572 0.0059400005 0.89100003 1.530119e-38
-0.19092858 0.0059400005 0.89100003 1.2904104e-38
-0.18880667 0.0059266672 0.88900006 1.096907e-38
-0.18669239 0.0059133335 0.88700002 1.0600288e-38
-0.18458574 0.0059000002 0.88500005 9.4950386e-39
-0.18228 0.0058800001 0.88200003 9.3106474e-39
-0.1806 0.0058800001 0.88200003 9.5875846e-39
-0.17892002 0.0058800001 0.88200003 1.0970519e-38
-0.17724 0.0058800001 0.88200003 1.0878284e-38
-0.17516191 0.0058666668 0.88000005 1.0786089e-38
-0.17348573 0.0058666668 0.88000005 1.0692131e-38
-0.17180952 0.0058666668 0.88000005 1.050774e-38
-0.17013335 0.0058666668 0.88000005 1.0141484e-38
-0.16845715 0.0058666668 0.88000005 1.0418071e-38
-0.16678096 0.0058666668 0.88000005 9.4046479e-39
-0.16510478 0.0058666668 0.88000005 1.0510995e-38
-0.16342857 0.0058666668 0.88000005 1.1061622e-38
-0.16175239 0.0058666668 0.88000005 1.1338209e-38
-0.1600762 0.0058666668 0.88000005 1.1888505e-38
-0.1584 0.0058666668 0.88000005 1.2810462e-38
-0.15708001 0.0058800001 0.88200003 1.3732393e-38
-0.15504763 0.0058666668 0.88000005 1.4193371e-38
-0.15337144 0.0058666668 0.88000005 1.4008998e-38
-0.15203999 0.0058800001 0.88200003 1.4193389e-38
-0.15036 0.0058800001 0.88200003 1.4010084e-38
-0.14868 0.0058800001 0.88200003 1.410228e-38
-0.147 0.0058800001 0.88200003 1.4469634e-38
-0.14532 0.0058800001 0.88200003 1.4654025e-38
-0.14412858 0.0059000002 0.88500005 1.4561816e-38
-0.14244285 0.0059000002 0.88500005 1.3824251e-38
-0.14107524 0.0059133335 0.88700002 1.1888505e-38
-0.13970001 0.0059266672 0.88900006 1.1704114e-38
-0.13878287 0.0059600002 0.89400005 9.4939793e-39
-0.13708 0.0059600002 0.89400005 8.7564142e-39
-0.13537715 0.0059600002 0.89400005 7.2859042e-39
-0.13397333 0.0059733335 0.89600003 6.5483392e-39
-0.13256191 0.0059866668 0.89800006 6.4579877e-39
-0.13128857 0.0060066669 0.90100002 6.6423789e-39
-0.12986001 0.0060200007 0.90300006 6.7327991e-39
-0.12856571 0.0060399999 0.90600002 7.009386e-39
-0.12684001 0.0060399999 0.90600002 1.1798119e-38
-0.12539048 0.0060533336 0.90800005 1.8067422e-38
-0.12393334 0.0060666669 0.91000003 1.9170503e-38
-0.1222 0.0060666669 0.91000003 2.2305154e-38
-0.20008573 0.0076628574 0.89400005 2.1478657e-38
-0.19838287 0.0076628574 0.89400005 1.6684484e-38
-0.19712001 0.0076800003 0.89600003 1.5115353e-38
-0.19541334 0.0076800003 0.89600003 1.5945113e-38
-0.19262572 0.0076371427 0.89100003 1.5485228e-38
-0.19092858 0.0076371427 0.89100003 1.3272533e-38
-0.18923144 0.0076371427 0.89100003 1.2535317e-38
-0.18669239 0.0076028574 0.88700002 1.1797752e-38
-0.18458574 0.0075857146 0.88500005 1.1429336e-38
-0.18290001 0.0075857146 0.88500005 1.0415184e-38
-0.1806 0.0075600003 0.88200003 1.0139314e-38
-0.17892002 0.0075600003 0.88200003 1.1245661e-38
-0.17724 0.0075600003 0.88200003 1.1429322e-38
-0.17556001 0.0075600003 0.88200003 1.1244931e-38
-0.17348573 0.0075428574 0.88000005 1.1243866e-38
-0.17180952 0.0075428574 0.88000005 1.1151671e-38
-0.17013335 0.0075428574 0.88000005 1.1151671e-38
-0.16845715 0.0075428574 0.88000005 1.1151671e-38
-0.16678096 0.0075428574 0.88000005 1.0138961e-38
-0.16510478 0.0075428574 0.88000005 1.1153112e-38
-0.16342857 0.0075428574 0.88000005 1.1153452e-38
-0.16212001 0.0075600003 0.88200003 1.1153452e-38
-0.16044 0.0075600003 0.88200003 1.1705174e-38
-0.15876 0.0075600003 0.88200003 1.2995912e-38
-0.15708001 0.0075600003 0.88200003 1.4375264e-38
-0.15539999 0.0075600003 0.88200003 1.4651851e-38
-0.15372001 0.0075600003 0.88200003 1.4560011e-38
-0.15203999 0.0075600003 0.88200003 1.4744402e-38
-0.15036 0.0075600003 0.88200003 1.4562535e-38
-0.14868 0.0075600003 0.88200003 1.4285948e-38
-0.147 0.0075600003 0.88200003 1.4377768e-38
-0.1458143 0.0075857146 0.88500005 1.4285572e-38
-0.14412858 0.0075857146 0.88500005 1.3365781e-38
-0.14276476 0.0076028574 0.88700002 1.2259433e-38
-0.14107524 0.0076028574 0.88700002 1.0052477e-38
-0.14001429 0.0076371427 0.89100003 8.6695421e-39
-0.13878287 0.0076628574 0.89400005 8.2082501e-39
-0.13708 0.0076628574 0.89400005 6.1799462e-39
-0.13537715 0.0076628574 0.89400005 5.3544525e-39
-0.13397333 0.0076800003 0.89600003 5.8154307e-39
-0.13256191 0.0076971436 0.89800006 5.6300221e-39
-0.13158001 0.0077400007 0.90300006 5.7222177e-39
-0.12986001 0.0077400007 0.90300006 4.711328e-39
-0.12856571 0.0077657145 0.90600002 5.2645018e-39
-0.12684001 0.0077657145 0.90600002 1.1246726e-38
-0.12566666 0.0078000003 0.91000003 1.770042e-38
-0.12393334 0.0078000003 0.91000003 1.8433657e-38
-0.1222 0.0078000003 0.91000003 2.2121482e-38
-0.19927049 0.009407619 0.89800006 1.7237661e-38
-0.19756001 0.009407619 0.89800006 1.5760722e-38
-0.19541334 0.0093866661 0.89600003 1.6129504e-38
-0.1932743 0.0093657151 0.89400005 1.5577426e-38
-0.19157143 0.0093657151 0.89400005 1.4102296e-38
-0.18923144 0.0093342857 0.89100003 1.2719372e-38
-0.18711334 0.0093133338 0.88900006 1.2719372e-38
-0.18500286 0.0092923809 0.88700002 1.2444565e-38
-0.18290001 0.0092714289 0.88500005 1.1799195e-38
-0.18121429 0.0092714289 0.88500005 1.1522608e-38
-0.17892002 0.0092400005 0.88200003 1.1246021e-38
-0.17724 0.0092400005 0.88200003 1.0691781e-38
-0.17556001 0.0092400005 0.88200003 1.0415194e-38
-0.17388 0.0092400005 0.88200003 1.0875447e-38
-0.17220001 0.0092400005 0.88200003 1.0783251e-38
-0.17052001 0.0092400005 0.88200003 1.1334983e-38
-0.16884001 0.0092400005 0.88200003 1.2902308e-38
-0.16716 0.0092400005 0.88200003 1.3270738e-38
-0.16548002 0.0092400005 0.88200003 1.3455129e-38
-0.1638 0.0092400005 0.88200003 1.3917513e-38
-0.16212001 0.0092400005 0.88200003 1.4286295e-38
-0.16044 0.0092400005 0.88200003 1.410226e-38
-0.15876 0.0092400005 0.88200003 1.4471042e-38
-0.15708001 0.0092400005 0.88200003 1.4375278e-38
-0.15539999 0.0092400005 0.88200003 1.4375278e-38
-0.15372001 0.0092400005 0.88200003 1.437562e-38
-0.15203999 0.0092400005 0.88200003 1.4652207e-38
-0.15036 0.0092400005 0.88200003 1.4377768e-38
-0.14918572 0.0092714289 0.88500005 1.3548007e-38
-0.14750001 0.0092714289 0.88500005 1.3087001e-38
-0.1458143 0.0092714289 0.88500005 1.2626023e-38
-0.14445429 0.0092923809 0.88700002 1.1614032e-38
-0.14276476 0.0092923809 0.88700002 1.0692075e-38
-0.14107524 0.0092923809 0.88700002 9.6822395e-39
-0.14001429 0.0093342857 0.89100003 7.56174e-39
-0.13878287 0.0093657151 0.89400005 6.3672088e-39
-0.13708 0.0093657151 0.89400005 5.6296437e-39
-0.13568 0.0093866661 0.89600003 5.2626296e-39
-0.13427238 0.009407619 0.89800006 5.7236078e-39
-0.13256191 0.009407619 0.89800006 5.7218674e-39
-0.13158001 0.0094600003 0.90300006 5.7218674e-39
-0.12986001 0.0094600003 0.90300006 5.2619976e-39
-0.12856571 0.0094914287 0.90600002 5.8151714e-39
-0.12684001 0.0094914287 0.90600002 1.0970516e-38
-0.12566666 0.0095333336 0.91000003 1.742421e-38
-0.12393334 0.0095333336 0.91000003 1.8433304e-38
-0.1222 0.0095333336 0.91000003 2.2028933e-38
-0.12086381 0.009564762 0.91300005 2.239881e-38
-0.19993618 0.011155238 0.90100002 1.7329857e-38
-0.19822001 0.011155238 0.90100002 1.5577071e-38
-0.19584954 0.011118095 0.89800006 1.5669266e-38
-0.19370668 0.011093334 0.89600003 1.5577426e-38
-0.192 0.011093334 0.89600003 1.3641318e-38
-0.18923144 0.011031428 0.89100003 1.2627526e-38
-0.18711334 0.011006667 0.88900006 1.2535331e-38
-0.18500286 0.010981904 0.88700002 1.2444214e-38
-0.18290001 0.010957144 0.88500005 1.189104e-38
-0.18121429 0.010957144 0.88500005 1.179955e-38
-0.17952858 0.010957144 0.88500005 1.1061985e-38
-0.17724 0.01092 0.88200003 1.0415884e-38
-0.17556001 0.01092 0.88200003 1.0600275e-38
-0.17388 0.01092 0.88200003 1.087723e-38
-0.17220001 0.01092 0.88200003 1.0969426e-38
-0.17052001 0.01092 0.88200003 1.2164732e-38
-0.16884001 0.01092 0.88200003 1.3732058e-38
-0.16716 0.01092 0.88200003 1.4282369e-38
-0.16548002 0.01092 0.88200003 1.446676e-38
-0.1638 0.01092 0.88200003 1.4376708e-38
-0.16212001 0.01092 0.88200003 1.4284513e-38
-0.16044 0.01092 0.88200003 1.4193396e-38
-0.15876 0.01092 0.88200003 1.3916809e-38
-0.15761429 0.010957144 0.88500005 1.409904e-38
-0.15592858 0.010957144 0.88500005 1.409904e-38
-0.15424286 0.010957144 0.88500005 1.3637316e-38
-0.15255715 0.010957144 0.88500005 1.4743664e-38
-0.15087144 0.010957144 0.88500005 1.4377768e-38
-0.14918572 0.010957144 0.88500005 1.3548007e-38
-0.14750001 0.010957144 0.88500005 1.3088067e-38
-0.14614381 0.010981904 0.88700002 1.1797329e-38
-0.14445429 0.010981904 0.88700002 1.1705509e-38
-0.14308667 0.011006667 0.88900006 1.1152335e-38
-0.14139335 0.011006667 0.88900006 9.8662804e-39
-0.14001429 0.011031428 0.89100003 7.2848028e-39
-0.13878287 0.011068572 0.89400005 6.458977e-39
-0.13738668 0.011093334 0.89600003 6.2745885e-39
-0.13568 0.011093334 0.89600003 5.8139761e-39
-0.13427238 0.011118095 0.89800006 6.0905602e-39
-0.13300475 0.011155238 0.90100002 6.3650367e-39
-0.13158001 0.01118 0.90300006 6.1806455e-39
-0.13029143 0.011217142 0.90600002 5.7211387e-39
-0.12856571 0.011217142 0.90600002 6.643095e-39
-0.12684001 0.011217142 0.90600002 1.1427527e-38
-0.12566666 0.011266666 0.91000003 1.769683e-38
-0.12393334 0.011266666 0.91000003 1.8341464e-38
-0.12260286 0.011303809 0.91300005 2.1752702e-38
-0.12086381 0.011303809 0.91300005 2.221479e-38
-0.19993618 0.012871428 0.90100002 1.7330222e-38
-0.19756001 0.012828573 0.89800006 1.5668941e-38
-0.19584954 0.012828573 0.89800006 1.5668941e-38
-0.19370668 0.012800001 0.89600003 1.5669622e-38
-0.192 0.012800001 0.89600003 1.3456927e-38
-0.18986858 0.012771429 0.89400005 1.2443145e-38
-0.18753429 0.012728572 0.89100003 1.1889971e-38
-0.18542001 0.012700001 0.88900006 1.1891031e-38
-0.18331334 0.012671429 0.88700002 1.1614444e-38
-0.18162382 0.012671429 0.88700002 1.225907e-38
-0.17952858 0.012642858 0.88500005 1.2627853e-38
-0.17784287 0.012642858 0.88500005 1.2904793e-38
-0.17556001 0.0126 0.88200003 1.3457967e-38
-0.17388 0.0126 0.88200003 1.3733127e-38
-0.17220001 0.0126 0.88200003 1.4009714e-38
-0.17052001 0.0126 0.88200003 1.4284883e-38
-0.16884001 0.0126 0.88200003 1.4377078e-38
-0.16716 0.0126 0.88200003 1.4467459e-38
-0.16548002 0.0126 0.88200003 1.4467459e-38
-0.1638 0.0126 0.88200003 1.4097235e-38
-0.16212001 0.0126 0.88200003 1.27143e-38
-0.16044 0.0126 0.88200003 1.2530282e-38
-0.15876 0.0126 0.88200003 1.2345891e-38
-0.15761429 0.012642858 0.88500005 1.2898672e-38
-0.15592858 0.012642858 0.88500005 1.3083063e-38
-0.15424286 0.012642858 0.88500005 1.2991584e-38
-0.15255715 0.012642858 0.88500005 1.4097931e-38
-0.15087144 0.012642858 0.88500005 1.4008241e-38
-0.14918572 0.012642858 0.88500005 1.3731654e-38
-0.14783333 0.012671429 0.88700002 1.2442007e-38
-0.14614381 0.012671429 0.88700002 1.1612246e-38
-0.14478001 0.012700001 0.88900006 1.1797364e-38
-0.14308667 0.012700001 0.88900006 1.2073951e-38
-0.14139335 0.012700001 0.88900006 1.2076474e-38
-0.14048572 0.012771429 0.89400005 1.1892083e-38
-0.13878287 0.012771429 0.89400005 1.2628917e-38
-0.13738668 0.012800001 0.89600003 1.3366482e-38
-0.13598287 0.012828573 0.89800006 1.4010797e-38
-0.13427238 0.012828573 0.89800006 1.4471775e-38
-0.13300475 0.012871428 0.90100002 1.4195205e-38
-0.13158001 0.0129 0.90300006 1.3918618e-38
-0.13029143 0.012942857 0.90600002 1.3273259e-38
-0.12856571 0.012942857 0.90600002 1.2259107e-38
-0.12712002 0.012971429 0.90800005 1.2443879e-38
-0.12566666 0.013 0.91000003 1.6684878e-38
-0.12393334 0.013 0.91000003 1.82489e-38
-0.12260286 0.013042858 0.91300005 2.1567942e-38
-0.12086381 0.013042858 0.91300005 2.2121511e-38
-0.19993618 0.014587619 0.90100002 1.7606456e-38
-0.19756001 0.014539048 0.89800006 1.6775263e-38
-0.19584954 0.014539048 0.89800006 1.5761111e-38
-0.19370668 0.014506667 0.89600003 1.5854011e-38
-0.192 0.014506667 0.89600003 1.354912e-38
-0.18923144 0.014425715 0.89100003 1.3088144e-38
-0.18753429 0.014425715 0.89100003 1.2258384e-38
-0.18542001 0.014393334 0.88900006 1.235093e-38
-0.18331334 0.014360953 0.88700002 1.2258734e-38
-0.18162382 0.014360953 0.88700002 1.2626061e-38
-0.17993428 0.014360953 0.88700002 1.3179234e-38
-0.17784287 0.014328572 0.88500005 1.3824241e-38
-0.17556001 0.014280001 0.88200003 1.4193023e-38
-0.17388 0.014280001 0.88200003 1.4284167e-38
-0.17220001 0.014280001 0.88200003 1.4468558e-38
-0.17052001 0.014280001 0.88200003 1.4836269e-38
-0.16884001 0.014280001 0.88200003 1.4006508e-38
-0.16716 0.014280001 0.88200003 1.3820675e-38
-0.16548002 0.014280001 0.88200003 1.3544088e-38
-0.1638 0.014280001 0.88200003 1.3634818e-38
-0.16267143 0.014328572 0.88500005 1.2805057e-38
-0.16098572 0.014328572 0.88500005 1.2434123e-38
-0.15930001 0.014328572 0.88500005 1.2526319e-38
-0.15761429 0.014328572 0.88500005 1.3081603e-38
-0.15592858 0.014328572 0.88500005 1.3634777e-38
-0.15424286 0.014328572 0.88500005 1.3267818e-38
-0.15255715 0.014328572 0.88500005 1.4650752e-38
-0.15087144 0.014328572 0.88500005 1.391714e-38
-0.14952287 0.014360953 0.88700002 1.3456162e-38
-0.14783333 0.014360953 0.88700002 1.2626023e-38
-0.14614381 0.014360953 0.88700002 1.2810414e-38
-0.14478001 0.014393334 0.88900006 1.2902988e-38
-0.14308667 0.014393334 0.88900006 1.3087379e-38
-0.14139335 0.014393334 0.88900006 1.3363979e-38
-0.14048572 0.014474287 0.89400005 1.3824957e-38
-0.13909334 0.014506667 0.89600003 1.4468529e-38
-0.13769333 0.014539048 0.89800006 1.5943659e-38
-0.13598287 0.014539048 0.89800006 1.5943674e-38
-0.13472095 0.014587619 0.90100002 1.5943674e-38
-0.13300475 0.014587619 0.90100002 1.6126995e-38
-0.13158001 0.01462 0.90300006 1.6311386e-38
-0.13029143 0.014668572 0.90600002 1.576002e-38
-0.12856571 0.014668572 0.90600002 1.3270738e-38
-0.12684001 0.014668572 0.90600002 1.4194475e-38
-0.12566666 0.014733333 0.91000003 1.705254e-38
-0.12393334 0.014733333 0.91000003 1.824854e-38
-0.12260286 0.014781905 0.91300005 2.1751974e-38
-0.12086381 0.014781905 0.91300005 2.193712e-38
-0.11912477 0.014781905 0.91300005 2.2305903e-38
-0.20098096 0.016249524 0.89800006 2.1294281e-38
-0.19927049 0.016249524 0.89800006 1.8804999e-38
-0.19822001 0.016303809 0.90100002 1.6683431e-38
-0.19584954 0.016249524 0.89800006 1.5484888e-38
-0.19370668 0.016213333 0.89600003 1.5577773e-38
-0.192 0.016213333 0.89600003 1.4563621e-38
-0.18923144 0.016122857 0.89100003 1.3548782e-38
-0.18753429 0.016122857 0.89100003 1.3640978e-38
-0.18542001 0.016086668 0.88900006 1.4839845e-38
-0.18372667 0.016086668 0.88900006 1.493204e-38
-0.18162382 0.016050477 0.88700002 1.4839842e-38
-0.17993428 0.016050477 0.88700002 1.382569e-38
-0.17824475 0.016050477 0.88700002 1.4285243e-38
-0.17615715 0.016014285 0.88500005 1.4377439e-38
-0.17447144 0.016014285 0.88500005 1.3636293e-38
-0.17278571 0.016014285 0.88500005 1.2714337e-38
-0.17052001 0.01596 0.88200003 1.1050159e-38
-0.16884001 0.01596 0.88200003 1.0865768e-38
-0.16716 0.01596 0.88200003 1.1325282e-38
-0.16548002 0.01596 0.88200003 1.1325282e-38
-0.1638 0.01596 0.88200003 1.1695094e-38
-0.16267143 0.016014285 0.88500005 1.2156072e-38
-0.16098572 0.016014285 0.88500005 1.2249012e-38
-0.15930001 0.016014285 0.88500005 1.2617794e-38
-0.15761429 0.016014285 0.88500005 1.3081603e-38
-0.15592858 0.016014285 0.88500005 1.400356e-38
-0.15424286 0.016014285 0.88500005 1.3452255e-38
-0.1529019 0.016050477 0.88700002 1.4650798e-38
-0.15121239 0.016050477 0.88700002 1.4562156e-38
-0.14952287 0.016050477 0.88700002 1.5207526e-38
-0.14783333 0.016050477 0.88700002 1.4655434e-38
-0.14647335 0.016086668 0.88900006 1.5024216e-38
-0.14478001 0.016086668 0.88900006 1.5116412e-38
-0.14308667 0.016086668 0.88900006 1.5208608e-38
-0.14171144 0.016122857 0.89100003 1.493204e-38
-0.14048572 0.016177142 0.89400005 1.5208627e-38
-0.13909334 0.016213333 0.89600003 1.5575629e-38
-0.13769333 0.016249524 0.89800006 1.5667824e-38
-0.13598287 0.016249524 0.89800006 1.5943671e-38
-0.13472095 0.016303809 0.90100002 1.575928e-38
-0.13300475 0.016303809 0.90100002 1.5666745e-38
-0.13158001 0.016340001 0.90300006 1.5021376e-38
-0.13029143 0.016394285 0.90600002 1.2996299e-38
-0.12856571 0.016394285 0.90600002 9.6772565e-39
-0.12684001 0.016394285 0.90600002 1.0596737e-38
-0.12566666 0.016466668 0.91000003 1.7419213e-38
-0.12393334 0.016466668 0.91000003 1.8156704e-38
-0.12260286 0.016520953 0.91300005 2.1475747e-38
-0.12086381 0.016520953 0.91300005 2.1753092e-38
-0.11912477 0.016520953 0.91300005 2.2398461e-38
-0.20565334 0.01792 0.89600003 2.1753438e-38
-0.20394668 0.01792 0.89600003 2.1569774e-38
-0.20224001 0.01792 0.89600003 2.166197e-38
-0.20053335 0.01792 0.89600003 2.1571216e-38
-0.19927049 0.017960001 0.89800006 1.9174129e-38
-0.19822001 0.01802 0.90100002 1.7237671e-38
-0.19584954 0.017960001 0.89800006 1.5393758e-38
-0.19413905 0.017960001 0.89800006 1.5394111e-38
-0.192 0.01792 0.89600003 1.4564351e-38
-0.19029333 0.01792 0.89600003 1.4378162e-38
-0.18753429 0.017820001 0.89100003 1.483914e-38
-0.18542001 0.01778 0.88900006 1.5299395e-38
-0.18372667 0.01778 0.88900006 1.5299395e-38
-0.18203335 0.01778 0.88900006 1.4931691e-38
-0.17993428 0.01774 0.88700002 1.4562909e-38
-0.17824475 0.01774 0.88700002 1.5022811e-38
-0.17615715 0.017700002 0.88500005 1.3547681e-38
-0.17447144 0.017700002 0.88500005 1.2713971e-38
-0.17278571 0.017700002 0.88500005 1.1699819e-38
-0.17110001 0.017700002 0.88500005 1.1142662e-38
-0.16884001 0.01764 0.88200003 1.095827e-38
-0.16716 0.01764 0.88200003 1.1782999e-38
-0.16604286 0.017700002 0.88500005 1.2059586e-38
-0.16435716 0.017700002 0.88500005 1.1968769e-38
-0.16267143 0.017700002 0.88500005 1.3167312e-38
-0.16098572 0.017700002 0.88500005 1.2525218e-38
-0.15930001 0.017700002 0.88500005 1.3078391e-38
-0.15797047 0.01774 0.88700002 1.3911023e-38
-0.15628095 0.01774 0.88700002 1.4003219e-38
-0.15459143 0.01774 0.88700002 1.4006118e-38
-0.1529019 0.01774 0.88700002 1.4651488e-38
-0.15121239 0.01774 0.88700002 1.456145e-38
-0.14952287 0.01774 0.88700002 1.456145e-38
-0.14816667 0.01778 0.88900006 1.4378494e-38
-0.14647335 0.01778 0.88900006 1.4931668e-38
-0.14478001 0.01778 0.88900006 1.5024589e-38
-0.14308667 0.01778 0.88900006 1.5116785e-38
-0.14171144 0.017820001 0.89100003 1.5024236e-38
-0.14048572 0.017880002 0.89400005 1.5208627e-38
-0.13909334 0.01792 0.89600003 1.5392319e-38
-0.13769333 0.017960001 0.89800006 1.5392319e-38
-0.13598287 0.017960001 0.89800006 1.5760376e-38
-0.13472095 0.01802 0.90100002 1.5483789e-38
-0.13300475 0.01802 0.90100002 1.4840219e-38
-0.13158001 0.018060001 0.90300006 1.3641676e-38
-0.13029143 0.01812 0.90600002 9.9599699e-39
-0.12856571 0.01812 0.90600002 8.1160573e-39
-0.12684001 0.01812 0.90600002 1.0320091e-38
-0.12566666 0.018200001 0.91000003 1.7603546e-38
-0.12393334 0.018200001 0.91000003 1.8248549e-38
-0.12260286 0.01826 0.91300005 2.1383201e-38
-0.12086381 0.01826 0.91300005 2.1569421e-38
-0.12003809 0.0184 0.92000002 2.2030399e-38
-0.11828572 0.0184 0.92000002 2.2306252e-38
-0.20565334 0.019626666 0.89600003 2.1753441e-38
-0.20394668 0.019626666 0.89600003 2.1753445e-38
-0.20224001 0.019626666 0.89600003 2.1753445e-38
-0.20053335 0.019626666 0.89600003 2.1662299e-38
-0.19882667 0.019626666 0.89600003 1.9818386e-38
-0.19756001 0.019670477 0.89800006 1.7329869e-38
-0.19584954 0.019670477 0.89800006 1.5393761e-38
-0.19413905 0.019670477 0.89800006 1.5669985e-38
-0.192 0.019626666 0.89600003 1.5669985e-38
-0.19029333 0.019626666 0.89600003 1.5391942e-38
-0.18753429 0.019517142 0.89100003 1.5484138e-38
-0.18583715 0.019517142 0.89100003 1.5392295e-38
-0.18372667 0.019473333 0.88900006 1.5115708e-38
-0.18203335 0.019473333 0.88900006 1.5207904e-38
-0.18034001 0.019473333 0.88900006 1.4285948e-38
-0.17864667 0.019473333 0.88900006 1.3360399e-38
-0.17655525 0.019429525 0.88700002 9.1193996e-39
-0.17486572 0.019429525 0.88700002 1.012565e-38
-0.1731762 0.019429525 0.88700002 1.0033454e-38
-0.17148668 0.019429525 0.88700002 1.1138004e-38
-0.1694143 0.019385716 0.88500005 1.205996e-38
-0.16772857 0.019385716 0.88500005 1.3075868e-38
-0.16604286 0.019385716 0.88500005 1.4182215e-38
-0.16435716 0.019385716 0.88500005 1.474149e-38
-0.16303906 0.019429525 0.88700002 1.5018077e-38
-0.16134953 0.019429525 0.88700002 1.4558942e-38
-0.15966 0.019429525 0.88700002 1.501992e-38
-0.15797047 0.019429525 0.88700002 1.5020996e-38
-0.15628095 0.019429525 0.88700002 1.49288e-38
-0.15459143 0.019429525 0.88700002 1.4562522e-38
-0.1529019 0.019429525 0.88700002 1.4746913e-38
-0.15121239 0.019429525 0.88700002 1.483805e-38
-0.14986001 0.019473333 0.88900006 1.4653658e-38
-0.14816667 0.019473333 0.88900006 1.4194475e-38
-0.14647335 0.019473333 0.88900006 1.3180323e-38
-0.14478001 0.019473333 0.88900006 1.5115693e-38
-0.14340858 0.019517142 0.89100003 1.5484476e-38
-0.14171144 0.019517142 0.89100003 1.5483409e-38
-0.14048572 0.019582856 0.89400005 1.4930235e-38
-0.13909334 0.019626666 0.89600003 1.4562553e-38
-0.13769333 0.019670477 0.89800006 1.3917183e-38
-0.13598287 0.019670477 0.89800006 1.3272522e-38
-0.13472095 0.019736189 0.90100002 1.1152022e-38
-0.13300475 0.019736189 0.90100002 8.0159625e-39
-0.13158001 0.019780001 0.90300006 7.7393756e-39
-0.13029143 0.019845715 0.90600002 8.2046333e-39
-0.12856571 0.019845715 0.90600002 7.8358508e-39
-0.12684001 0.019845715 0.90600002 1.0871894e-38
-0.12566666 0.019933334 0.91000003 1.7049001e-38
-0.12434191 0.019999048 0.91300005 1.8063805e-38
-0.12287143 0.020042857 0.91500002 2.1382848e-38
-0.12112857 0.020042857 0.91500002 2.1753089e-38
-0.12003809 0.020152381 0.92000002 2.2121871e-38
-0.11867143 0.020218095 0.92300004 2.22137e-38
-0.20394668 0.021333335 0.89600003 2.1384309e-38
-0.20224001 0.021333335 0.89600003 2.2029679e-38
-0.20053335 0.021333335 0.89600003 2.1663767e-38
-0.19882667 0.021333335 0.89600003 1.991205e-38
-0.19756001 0.021380953 0.89800006 1.8067773e-38
-0.19650382 0.021452382 0.90100002 1.5301905e-38
-0.19413905 0.021380953 0.89800006 1.5853292e-38
-0.19242859 0.021380953 0.89800006 1.6129879e-38
-0.19029333 0.021333335 0.89600003 1.5576333e-38
-0.18816572 0.021285716 0.89400005 1.5576333e-38
-0.18583715 0.021214288 0.89100003 1.5484488e-38
-0.18414 0.021214288 0.89100003 1.5207901e-38
-0.18244286 0.021214288 0.89100003 1.5667101e-38
-0.18074572 0.021214288 0.89100003 1.2624645e-38
-0.17904858 0.021214288 0.89100003 1.2801792e-38
-0.17695335 0.021166669 0.88900006 1.0220314e-38
-0.17526001 0.021166669 0.88900006 1.0398985e-38
-0.17356667 0.021166669 0.88900006 1.1228746e-38
-0.17187335 0.021166669 0.88900006 1.1780852e-38
-0.16979714 0.021119049 0.88700002 1.224183e-38
-0.16810761 0.021119049 0.88700002 1.3259921e-38
-0.16641809 0.021119049 0.88700002 1.3813095e-38
-0.16472858 0.021119049 0.88700002 1.4190512e-38
-0.16303906 0.021119049 0.88700002 1.4559295e-38
-0.16134953 0.021119049 0.88700002 1.4008659e-38
-0.15966 0.021119049 0.88700002 1.4377441e-38
-0.15797047 0.021119049 0.88700002 1.4563261e-38
-0.15628095 0.021119049 0.88700002 1.4563261e-38
-0.15459143 0.021119049 0.88700002 1.4839847e-38
-0.15324667 0.021166669 0.88900006 1.4655456e-38
-0.15155335 0.021166669 0.88900006 1.5115355e-38
-0.14986001 0.021166669 0.88900006 1.4838768e-38
-0.14816667 0.021166669 0.88900006 1.4286682e-38
-0.14647335 0.021166669 0.88900006 1.2627161e-38
-0.14478001 0.021166669 0.88900006 1.3270731e-38
-0.14340858 0.021214288 0.89100003 1.5022448e-38
-0.14171144 0.021214288 0.89100003 1.5021016e-38
-0.14048572 0.021285716 0.89400005 1.4652233e-38
-0.13909334 0.021333335 0.89600003 1.2074353e-38
-0.13769333 0.021380953 0.89800006 1.2166548e-38
-0.13643715 0.021452382 0.90100002 1.1983586e-38
-0.13472095 0.021452382 0.90100002 8.6645437e-39
-0.13300475 0.021452382 0.90100002 7.279398e-39
-0.13158001 0.021500001 0.90300006 8.2935471e-39
-0.13029143 0.021571428 0.90600002 8.7556365e-39
-0.12856571 0.021571428 0.90600002 8.5712452e-39
-0.12684001 0.021571428 0.90600002 1.3544801e-38
-0.12608096 0.021738095 0.91300005 1.7509213e-38
-0.12461428 0.021785714 0.91500002 1.7971609e-38
-0.12354286 0.021904761 0.92000002 2.1290652e-38
-0.12179048 0.021904761 0.92000002 2.1476858e-38
-0.12003809 0.021904761 0.92000002 2.249101e-38
-0.11867143 0.021976192 0.92300004 2.2399889e-38
-0.11691333 0.021976192 0.92300004 2.2031107e-38
-0.20053335 0.02304 0.89600003 2.1846724e-38
-0.19882667 0.02304 0.89600003 2.0371594e-38
-0.19822001 0.023168571 0.90100002 1.8619863e-38
-0.19650382 0.023168571 0.90100002 1.4655451e-38
-0.19413905 0.02309143 0.89800006 1.5761096e-38
-0.19242859 0.02309143 0.89800006 1.6406465e-38
-0.1907181 0.02309143 0.89800006 1.5760023e-38
-0.18816572 0.022988571 0.89400005 1.5575631e-38
-0.18646286 0.022988571 0.89400005 1.5575602e-38
-0.18414 0.022911429 0.89100003 1.5022428e-38
-0.18244286 0.022911429 0.89100003 1.4836269e-38
-0.18074572 0.022911429 0.89100003 9.7655089e-39
-0.17904858 0.022911429 0.89100003 1.0125999e-38
-0.17695335 0.022860002 0.88900006 1.0771368e-38
-0.17526001 0.022860002 0.88900006 1.2710668e-38
-0.17356667 0.022860002 0.88900006 1.3171646e-38
-0.17187335 0.022860002 0.88900006 1.0868259e-38
-0.17018001 0.022860002 0.88900006 8.3789773e-39
-0.16848667 0.022860002 0.88900006 8.5608672e-39
-0.16641809 0.022808572 0.88700002 9.3906279e-39
-0.16472858 0.022808572 0.88700002 1.3914944e-38
-0.16340667 0.022860002 0.88900006 1.4929096e-38
-0.16171335 0.022860002 0.88900006 1.4284513e-38
-0.16002001 0.022860002 0.88900006 1.4376708e-38
-0.15832667 0.022860002 0.88900006 1.4193749e-38
-0.15663335 0.022860002 0.88900006 1.4193749e-38
-0.15494001 0.022860002 0.88900006 1.3826046e-38
-0.15324667 0.022860002 0.88900006 1.2719698e-38
-0.15155335 0.022860002 0.88900006 1.3824954e-38
-0.14986001 0.022860002 0.88900006 1.4193737e-38
-0.14816667 0.022860002 0.88900006 1.2535655e-38
-0.14647335 0.022860002 0.88900006 4.6990358e-39
-0.14510572 0.022911429 0.89100003 7.1869025e-39
-0.14340858 0.022911429 0.89100003 8.7542282e-39
-0.14171144 0.022911429 0.89100003 9.30486e-39
-0.14048572 0.022988571 0.89400005 9.4892513e-39
-0.13940382 0.02309143 0.89800006 1.0133912e-38
-0.13769333 0.02309143 0.89800006 1.0410499e-38
-0.13643715 0.023168571 0.90100002 9.7687122e-39
-0.13472095 0.023168571 0.90100002 8.9389516e-39
-0.13330001 0.023220003 0.90300006 7.2826939e-39
-0.13158001 0.023220003 0.90300006 8.1124545e-39
-0.13029143 0.023297142 0.90600002 8.4815762e-39
-0.12856571 0.023297142 0.90600002 9.5879237e-39
-0.12712002 0.023348572 0.90800005 1.271719e-38
-0.12608096 0.023477143 0.91300005 1.6958189e-38
-0.12502286 0.023605715 0.91800004 1.8063808e-38
-0.12354286 0.023657143 0.92000002 2.1290655e-38
-0.12179048 0.023657143 0.92000002 2.1569047e-38
-0.12003809 0.023657143 0.92000002 2.2491003e-38
-0.11828572 0.023657143 0.92000002 2.2398795e-38
-0.20098096 0.024801906 0.89800006 2.15687e-38
-0.19927049 0.024801906 0.89800006 2.1753092e-38
-0.19866002 0.024940003 0.90300006 1.917305e-38
-0.19650382 0.024884764 0.90100002 1.539303e-38
-0.19478762 0.024884764 0.90100002 1.5946195e-38
-0.19242859 0.024801906 0.89800006 1.6314978e-38
-0.1907181 0.024801906 0.89800006 1.5945487e-38
-0.18858667 0.024746668 0.89600003 1.5761096e-38
-0.18646286 0.024691431 0.89400005 1.5576687e-38
-0.18476002 0.024691431 0.89400005 1.5023513e-38
-0.18244286 0.024608571 0.89100003 1.4834827e-38
-0.18074572 0.024608571 0.89100003 9.3952844e-39
-0.17904858 0.024608571 0.89100003 9.6613812e-39
-0.17695335 0.024553334 0.88900006 1.2427236e-38
-0.17526001 0.024553334 0.88900006 1.2619648e-38
-0.17356667 0.024553334 0.88900006 1.1789888e-38
-0.17187335 0.024553334 0.88900006 8.2053396e-39
-0.17018001 0.024553334 0.88900006 5.623862e-39
-0.16848667 0.024553334 0.88900006 4.975327e-39
-0.16679335 0.024553334 0.88900006 7.6490003e-39
-0.16510001 0.024553334 0.88900006 1.1883473e-38
-0.16340667 0.024553334 0.88900006 1.4003973e-38
-0.16171335 0.024553334 0.88900006 1.3085621e-38
-0.16002001 0.024553334 0.88900006 1.3546599e-38
-0.15832667 0.024553334 0.88900006 1.3733161e-38
-0.15663335 0.024553334 0.88900006 1.3456574e-38
-0.15494001 0.024553334 0.88900006 1.1246024e-38
-0.15324667 0.024553334 0.88900006 1.0785046e-38
-0.15155335 0.024553334 0.88900006 1.115058e-38
-0.14986001 0.024553334 0.88900006 1.1427167e-38
-0.1485 0.024608571 0.89100003 9.8630631e-39
-0.14680286 0.024608571 0.89100003 5.2532816e-39
-0.14510572 0.024608571 0.89100003 5.0700562e-39
-0.14340858 0.024608571 0.89100003 6.360795e-39
-0.14171144 0.024608571 0.89100003 8.0162344e-39
-0.14080001 0.024746668 0.89600003 1.0044523e-38
-0.13909334 0.024746668 0.89600003 1.0501279e-38
-0.13769333 0.024801906 0.89800006 1.0409083e-38
-0.13598287 0.024801906 0.89800006 9.9516812e-39
-0.13472095 0.024884764 0.90100002 9.2141161e-39
-0.13330001 0.024940003 0.90300006 5.6231431e-39
-0.13158001 0.024940003 0.90300006 8.5734032e-39
-0.13029143 0.025022857 0.90600002 8.7599791e-39
-0.12856571 0.025022857 0.90600002 9.4053485e-39
-0.12712002 0.025078095 0.90800005 1.2625329e-38
-0.12608096 0.025216192 0.91300005 1.7235111e-38
