# .PCD v0.7 - Point Cloud Data file format
VERSION 0.7
FIELDS x y z rgb
SIZE 4 4 4 4
TYPE F F F F
COUNT 1 1 1 1
WIDTH 979
HEIGHT 1
VIEWPOINT 0 0 0 1 0 0 0
POINTS 979
DATA ascii
-0.14204286 0.034928575 0.81500006 1.1890663e-38
-0.14049049 0.034928575 0.81500006 1.1614077e-38
-0.13859715 0.03484286 0.81300002 1.1981042e-38
-0.13704857 0.03484286 0.81300002 1.2718607e-38
-0.13550001 0.03484286 0.81300002 1.4008632e-38
-0.13395143 0.03484286 0.81300002 1.4008632e-38
-0.13272858 0.034928575 0.81500006 1.409977e-38
-0.1311762 0.034928575 0.81500006 1.409977e-38
-0.12962382 0.034928575 0.81500006 1.4469623e-38
-0.12807143 0.034928575 0.81500006 1.4193036e-38
-0.12651907 0.034928575 0.81500006 1.4192317e-38
-0.12496667 0.034928575 0.81500006 1.4468904e-38
-0.12341429 0.034928575 0.81500006 1.502065e-38
-0.12186191 0.034928575 0.81500006 1.4375281e-38
-0.12030953 0.034928575 0.81500006 1.4283421e-38
-0.11875715 0.034928575 0.81500006 1.4006834e-38
-0.11720477 0.034928575 0.81500006 1.3362894e-38
-0.11565238 0.034928575 0.81500006 1.3362894e-38
-0.11438 0.035014287 0.81700003 1.2719693e-38
-0.11282381 0.035014287 0.81700003 1.1982128e-38
-0.11126762 0.035014287 0.81700003 9.6826543e-39
-0.10971143 0.035014287 0.81700003 8.8528936e-39
-0.10815524 0.035014287 0.81700003 8.3926413e-39
-0.10659905 0.035014287 0.81700003 7.3784894e-39
-0.10530001 0.035100002 0.81900007 7.0104454e-39
-0.10374001 0.035100002 0.81900007 4.8899459e-39
-0.10242952 0.035185717 0.82100004 4.6154778e-39
-0.10111143 0.035271429 0.82300001 4.799869e-39
-0.09954381 0.035271429 0.82300001 4.5236745e-39
-0.098214291 0.035357147 0.82500005 4.892457e-39
-0.096642859 0.035357147 0.82500005 4.2489177e-39
-0.095532387 0.035528574 0.82900006 3.1425702e-39
-0.094179995 0.035614286 0.83100003 8.3868512e-39
-0.092597149 0.035614286 0.83100003 1.5117132e-38
-0.091233335 0.035700005 0.83300006 1.5943322e-38
-0.089646667 0.035700005 0.83300006 1.5851127e-38
-0.088060006 0.035700005 0.83300006 1.6405003e-38
-0.086680956 0.035785716 0.83500004 1.6497198e-38
-0.085294284 0.035871428 0.83700001 1.7234395e-38
-0.083899997 0.035957143 0.83900005 2.1567589e-38
-0.082301915 0.035957143 0.83900005 2.2029309e-38
-0.1586943 0.03710762 0.82900006 1.4471454e-38
-0.15711525 0.03710762 0.82900006 1.2904827e-38
-0.15478572 0.036928572 0.82500005 1.3089218e-38
-0.15284285 0.036839046 0.82300001 1.3181053e-38
-0.15127525 0.036839046 0.82300001 1.3181053e-38
-0.14934382 0.036749527 0.82100004 1.3826759e-38
-0.14778 0.036749527 0.82100004 1.3918955e-38
-0.14586002 0.036660004 0.81900007 1.410301e-38
-0.14394762 0.036570478 0.81700003 1.4379597e-38
-0.14204286 0.036480956 0.81500006 1.4470723e-38
-0.14049049 0.036480956 0.81500006 1.4194136e-38
-0.1389381 0.036480956 0.81500006 1.4286668e-38
-0.13738571 0.036480956 0.81500006 1.4471059e-38
-0.13583335 0.036480956 0.81500006 1.4378143e-38
-0.13428096 0.036480956 0.81500006 1.4193752e-38
-0.13272858 0.036480956 0.81500006 1.4191618e-38
-0.1311762 0.036480956 0.81500006 1.3822835e-38
-0.12962382 0.036480956 0.81500006 1.4006495e-38
-0.12807143 0.036480956 0.81500006 1.3729908e-38
-0.12651907 0.036480956 0.81500006 1.382174e-38
-0.12496667 0.036480956 0.81500006 1.4006131e-38
-0.12341429 0.036480956 0.81500006 1.446778e-38
-0.12186191 0.036480956 0.81500006 1.363802e-38
-0.12030953 0.036480956 0.81500006 1.3084865e-38
-0.11875715 0.036480956 0.81500006 1.299267e-38
-0.11720477 0.036480956 0.81500006 1.1796994e-38
-0.11565238 0.036480956 0.81500006 1.1336016e-38
-0.11438 0.036570478 0.81700003 1.0231823e-38
-0.11282381 0.036570478 0.81700003 8.9410843e-39
-0.11126762 0.036570478 0.81700003 7.5621408e-39
-0.10971143 0.036570478 0.81700003 5.9948151e-39
-0.10815524 0.036570478 0.81700003 6.1806623e-39
-0.10659905 0.036570478 0.81700003 5.5352929e-39
-0.10555715 0.036749527 0.82100004 4.8921039e-39
-0.10399334 0.036749527 0.82100004 4.2467345e-39
-0.10242952 0.036749527 0.82100004 4.2481442e-39
-0.10111143 0.036839046 0.82300001 4.801318e-39
-0.09954381 0.036839046 0.82300001 4.2499813e-39
-0.098214291 0.036928572 0.82500005 4.6187638e-39
-0.096877143 0.037018094 0.82700002 4.5251543e-39
-0.095532387 0.03710762 0.82900006 3.4188067e-39
-0.093953341 0.03710762 0.82900006 8.0188492e-39
-0.092597149 0.037197147 0.83100003 1.4103761e-38
-0.091233335 0.037286669 0.83300006 1.5758917e-38
-0.089646667 0.037286669 0.83300006 1.5851113e-38
-0.088271432 0.037376191 0.83500004 1.6405719e-38
-0.086888574 0.037465714 0.83700001 1.6497914e-38
-0.085498095 0.03755524 0.83900005 1.7234748e-38
-0.083899997 0.03755524 0.83900005 2.1291355e-38
-0.082301915 0.03755524 0.83900005 2.2029665e-38
-0.15907715 0.03878 0.83100003 1.4195581e-38
-0.15711525 0.038686667 0.82900006 1.3550172e-38
-0.15516096 0.038593337 0.82700002 1.3642368e-38
-0.15321431 0.038500004 0.82500005 1.382497e-38
-0.15127525 0.038406666 0.82300001 1.4101557e-38
-0.14934382 0.038313333 0.82100004 1.5299021e-38
-0.14778 0.038313333 0.82100004 1.5299021e-38
-0.14586002 0.038220003 0.81900007 1.4932043e-38
-0.14394762 0.038126666 0.81700003 1.4747652e-38
-0.14204286 0.038033333 0.81500006 1.502283e-38
-0.14049049 0.038033333 0.81500006 1.4561852e-38
-0.1389381 0.038033333 0.81500006 1.4470357e-38
-0.13738571 0.038033333 0.81500006 1.4285966e-38
-0.13583335 0.038033333 0.81500006 1.4194126e-38
-0.13428096 0.038033333 0.81500006 1.3825344e-38
-0.13305429 0.038126666 0.81700003 1.3362571e-38
-0.1311762 0.038033333 0.81500006 1.3454766e-38
-0.12962382 0.038033333 0.81500006 1.4097961e-38
-0.12807143 0.038033333 0.81500006 1.3821374e-38
-0.12651907 0.038033333 0.81500006 1.299267e-38
-0.12496667 0.038033333 0.81500006 1.4006822e-38
-0.12341429 0.038033333 0.81500006 1.4191932e-38
-0.12186191 0.038033333 0.81500006 1.2901193e-38
-0.12030953 0.038033333 0.81500006 1.2350167e-38
-0.11875715 0.038033333 0.81500006 1.1428211e-38
-0.11720477 0.038033333 0.81500006 1.1152698e-38
-0.11593619 0.038126666 0.81700003 1.0876111e-38
-0.11438 0.038126666 0.81700003 9.4974853e-39
-0.11282381 0.038126666 0.81700003 8.2989421e-39
-0.11126762 0.038126666 0.81700003 7.654321e-39
-0.10971143 0.038126666 0.81700003 6.8245603e-39
-0.10815524 0.038126666 0.81700003 6.4565093e-39
-0.10686001 0.038220003 0.81900007 5.7189443e-39
-0.10555715 0.038313333 0.82100004 4.7083923e-39
-0.10399334 0.038313333 0.82100004 4.6161966e-39
-0.10267905 0.038406666 0.82300001 3.9719034e-39
-0.10111143 0.038406666 0.82300001 4.5250772e-39
-0.099785723 0.038500004 0.82500005 3.8811988e-39
-0.098214291 0.038500004 0.82500005 4.06559e-39
-0.096877143 0.038593337 0.82700002 4.2485674e-39
-0.095532387 0.038686667 0.82900006 3.5110023e-39
-0.093953341 0.038686667 0.82900006 7.833704e-39
-0.092597149 0.03878 0.83100003 1.4287398e-38
-0.091233335 0.038873333 0.83300006 1.5667084e-38
-0.089861907 0.038966667 0.83500004 1.6220258e-38
-0.088271432 0.038966667 0.83500004 1.6406082e-38
-0.086888574 0.03906 0.83700001 1.6406082e-38
-0.085498095 0.039153337 0.83900005 1.7418776e-38
-0.083899997 0.039153337 0.83900005 2.1106601e-38
-0.082301915 0.039153337 0.83900005 2.1936021e-38
-0.15749429 0.040362857 0.83100003 1.5855073e-38
-0.15516096 0.040168572 0.82700002 1.6039464e-38
-0.15321431 0.040071428 0.82500005 1.6037312e-38
-0.15127525 0.039974283 0.82300001 1.5945116e-38
-0.14970763 0.039974283 0.82300001 1.594474e-38
-0.14778 0.039877143 0.82100004 1.5391567e-38
-0.1462162 0.039877143 0.82100004 1.5206106e-38
-0.14394762 0.039682858 0.81700003 1.4007563e-38
-0.14204286 0.039585717 0.81500006 1.3084229e-38
-0.14049049 0.039585717 0.81500006 1.243886e-38
-0.1389381 0.039585717 0.81500006 1.197496e-38
-0.13738571 0.039585717 0.81500006 1.1882764e-38
-0.13583335 0.039585717 0.81500006 1.2251517e-38
-0.13428096 0.039585717 0.81500006 1.2435909e-38
-0.13305429 0.039682858 0.81700003 1.2159672e-38
-0.1311762 0.039585717 0.81500006 1.1975281e-38
-0.12962382 0.039585717 0.81500006 1.2713199e-38
-0.12807143 0.039585717 0.81500006 1.2713199e-38
-0.12651907 0.039585717 0.81500006 1.3267436e-38
-0.12496667 0.039585717 0.81500006 1.446598e-38
-0.12341429 0.039585717 0.81500006 1.3916036e-38
-0.12186191 0.039585717 0.81500006 1.2533101e-38
-0.12030953 0.039585717 0.81500006 1.2073578e-38
-0.11875715 0.039585717 0.81500006 1.096723e-38
-0.11749239 0.039682858 0.81700003 1.087576e-38
-0.11593619 0.039682858 0.81700003 1.0783565e-38
-0.11438 0.039682858 0.81700003 9.8637665e-39
-0.11282381 0.039682858 0.81700003 9.3105927e-39
-0.11154001 0.039780006 0.81900007 8.4815762e-39
-0.10998001 0.039780006 0.81900007 8.4815762e-39
-0.10842001 0.039780006 0.81900007 8.297545e-39
-0.10712095 0.039877143 0.82100004 8.2053494e-39
-0.10555715 0.039877143 0.82100004 8.0224029e-39
-0.10399334 0.039877143 0.82100004 8.483381e-39
-0.10267905 0.039974283 0.82300001 8.2990038e-39
-0.10111143 0.039974283 0.82300001 8.3911994e-39
-0.099785723 0.040071428 0.82500005 7.0093888e-39
-0.098214291 0.040071428 0.82500005 6.0874325e-39
-0.096877143 0.040168572 0.82700002 5.7208108e-39
-0.095532387 0.040265717 0.82900006 4.8910501e-39
-0.094179995 0.040362857 0.83100003 7.7415588e-39
-0.092597149 0.040362857 0.83100003 1.3734275e-38
-0.091233335 0.040460002 0.83300006 1.5667087e-38
-0.089861907 0.040557146 0.83500004 1.6312457e-38
-0.088271432 0.040557146 0.83500004 1.6497911e-38
-0.086888574 0.040654287 0.83700001 1.6590107e-38
-0.085498095 0.040751431 0.83900005 1.7326218e-38
-0.083899997 0.040751431 0.83900005 2.0921847e-38
-0.082301915 0.040751431 0.83900005 2.1936365e-38
-0.15749429 0.041945718 0.83100003 1.6406091e-38
-0.15553619 0.041844767 0.82900006 1.6498287e-38
-0.15321431 0.04164286 0.82500005 1.6404663e-38
-0.15127525 0.041541904 0.82300001 1.6220272e-38
-0.14970763 0.041541904 0.82300001 1.6128065e-38
-0.14778 0.041440953 0.82100004 1.5298305e-38
-0.1462162 0.041440953 0.82100004 1.5205393e-38
-0.14394762 0.041239049 0.81700003 1.400685e-38
-0.14239143 0.041239049 0.81700003 1.3173172e-38
-0.14049049 0.041138098 0.81500006 1.1790238e-38
-0.1389381 0.041138098 0.81500006 1.1602535e-38
-0.13738571 0.041138098 0.81500006 1.1786927e-38
-0.13583335 0.041138098 0.81500006 1.2337211e-38
-0.13428096 0.041138098 0.81500006 1.298258e-38
-0.13305429 0.041239049 0.81700003 1.25234e-38
-0.1314981 0.041239049 0.81700003 1.3076574e-38
-0.12994191 0.041239049 0.81700003 1.2895783e-38
-0.12807143 0.041138098 0.81500006 1.3264565e-38
-0.12651907 0.041138098 0.81500006 1.3634787e-38
-0.12496667 0.041138098 0.81500006 1.4925526e-38
-0.12341429 0.041138098 0.81500006 1.3915683e-38
-0.12186191 0.041138098 0.81500006 1.2532748e-38
-0.12030953 0.041138098 0.81500006 1.2073225e-38
-0.11875715 0.041138098 0.81500006 1.1981029e-38
-0.11749239 0.041239049 0.81700003 1.1337818e-38
-0.11593619 0.041239049 0.81700003 1.1153426e-38
-0.11438 0.041239049 0.81700003 1.0969398e-38
-0.11282381 0.041239049 0.81700003 1.0785007e-38
-0.11154001 0.041340005 0.81900007 1.0507719e-38
-0.10998001 0.041340005 0.81900007 1.0323328e-38
-0.10842001 0.041340005 0.81900007 1.01393e-38
-0.10712095 0.041440953 0.82100004 1.0231495e-38
-0.10555715 0.041440953 0.82100004 1.0049265e-38
-0.10399334 0.041440953 0.82100004 1.0049265e-38
-0.10267905 0.041541904 0.82300001 1.0416249e-38
-0.10111143 0.041541904 0.82300001 1.0600641e-38
-0.099785723 0.04164286 0.82500005 9.7734248e-39
-0.098214291 0.04164286 0.82500005 7.0997515e-39
-0.096877143 0.041743811 0.82700002 6.7320382e-39
-0.095532387 0.041844767 0.82900006 6.7320382e-39
-0.094179995 0.041945718 0.83100003 1.1334983e-38
-0.092820004 0.04204667 0.83300006 1.4377439e-38
-0.091233335 0.04204667 0.83300006 1.5298319e-38
-0.089861907 0.042147618 0.83500004 1.6035884e-38
-0.088482857 0.042248569 0.83700001 1.6128413e-38
-0.087096192 0.042349525 0.83900005 1.6312804e-38
-0.085498095 0.042349525 0.83900005 1.7233669e-38
-0.084100001 0.042450476 0.84100002 2.101369e-38
-0.082498096 0.042450476 0.84100002 2.2028573e-38
-0.15749429 0.043528572 0.83100003 1.6130586e-38
-0.15591143 0.043528572 0.83100003 1.5853999e-38
-0.15358572 0.043319046 0.82700002 1.6405029e-38
-0.15164286 0.043214288 0.82500005 1.6036247e-38
-0.15007144 0.043214288 0.82500005 1.5666003e-38
-0.14814 0.043109521 0.82300001 1.2162569e-38
-0.14657238 0.043109521 0.82300001 1.0864306e-38
-0.14465238 0.043004762 0.82100004 1.0034546e-38
-0.14308858 0.043004762 0.82100004 1.0677757e-38
-0.14083524 0.042795237 0.81700003 1.0585561e-38
-0.13927905 0.042795237 0.81700003 1.1139056e-38
-0.13772286 0.042795237 0.81700003 1.2061012e-38
-0.13616668 0.042795237 0.81700003 1.224505e-38
-0.13461047 0.042795237 0.81700003 1.3443594e-38
-0.13305429 0.042795237 0.81700003 1.2894356e-38
-0.1314981 0.042795237 0.81700003 1.3631921e-38
-0.12994191 0.042795237 0.81700003 1.3264588e-38
-0.12838572 0.042795237 0.81700003 1.3725566e-38
-0.12682953 0.042795237 0.81700003 1.3544402e-38
-0.12527333 0.042795237 0.81700003 1.483514e-38
-0.12341429 0.042690478 0.81500006 1.4284828e-38
-0.12186191 0.042690478 0.81500006 1.4100437e-38
-0.12060476 0.042795237 0.81700003 1.382532e-38
-0.11904858 0.042795237 0.81700003 1.4009711e-38
-0.11749239 0.042795237 0.81700003 1.4009711e-38
-0.11622001 0.0429 0.81900007 1.4009711e-38
-0.11466001 0.0429 0.81900007 1.3918241e-38
-0.11337619 0.043004762 0.82100004 1.4102633e-38
-0.11154001 0.0429 0.81900007 1.410228e-38
-0.10998001 0.0429 0.81900007 1.4378866e-38
-0.10868476 0.043004762 0.82100004 1.4194486e-38
-0.10712095 0.043004762 0.82100004 1.4102291e-38
-0.10555715 0.043004762 0.82100004 1.410264e-38
-0.10399334 0.043004762 0.82100004 1.4287031e-38
-0.10267905 0.043109521 0.82300001 1.4286668e-38
-0.10111143 0.043109521 0.82300001 1.4471059e-38
-0.099785723 0.043214288 0.82500005 1.4379214e-38
-0.098452382 0.043319046 0.82700002 1.3457258e-38
-0.096877143 0.043319046 0.82700002 1.2628605e-38
-0.095532387 0.043423809 0.82900006 1.2259823e-38
-0.094179995 0.043528572 0.83100003 1.2351305e-38
-0.092820004 0.043633334 0.83300006 1.4010827e-38
-0.091233335 0.043633334 0.83300006 1.5115004e-38
-0.090077139 0.043842856 0.83700001 1.5760373e-38
-0.088694289 0.043947622 0.83900005 1.6128063e-38
-0.087096192 0.043947622 0.83900005 1.6128063e-38
-0.085701905 0.044052381 0.84100002 1.6680871e-38
-0.084100001 0.044052381 0.84100002 2.0829674e-38
-0.082498096 0.044052381 0.84100002 2.1752712e-38
-0.15749429 0.045111429 0.83100003 1.5946552e-38
-0.15591143 0.045111429 0.83100003 1.5946552e-38
-0.15395716 0.045002859 0.82900006 1.6497575e-38
-0.15201049 0.044894286 0.82700002 1.5114641e-38
-0.15043524 0.044894286 0.82700002 1.547873e-38
-0.1485 0.044785716 0.82500005 1.0039188e-38
-0.14657238 0.044677142 0.82300001 1.1782248e-38
-0.14500476 0.044677142 0.82300001 1.1229074e-38
-0.14308858 0.044568572 0.82100004 1.1595731e-38
-0.14118001 0.044460002 0.81900007 1.1872318e-38
-0.13927905 0.044351429 0.81700003 1.1691131e-38
-0.13772286 0.044351429 0.81700003 1.3258457e-38
-0.13616668 0.044351429 0.81700003 1.2893647e-38
-0.13461047 0.044351429 0.81700003 1.326243e-38
-0.13338001 0.044460002 0.81900007 1.3263852e-38
-0.1314981 0.044351429 0.81700003 1.372483e-38
-0.12994191 0.044351429 0.81700003 1.3819556e-38
-0.12838572 0.044351429 0.81700003 1.3911752e-38
-0.12682953 0.044351429 0.81700003 1.3453295e-38
-0.12527333 0.044351429 0.81700003 1.4467447e-38
-0.12371714 0.044351429 0.81700003 1.4285572e-38
-0.12216096 0.044351429 0.81700003 1.4285572e-38
-0.12060476 0.044351429 0.81700003 1.4284513e-38
-0.11904858 0.044351429 0.81700003 1.4284513e-38
-0.11778001 0.044460002 0.81900007 1.465293e-38
-0.11622001 0.044460002 0.81900007 1.4745125e-38
-0.11494 0.044568572 0.82100004 1.4378143e-38
-0.11337619 0.044568572 0.82100004 1.4378143e-38
-0.11181239 0.044568572 0.82100004 1.4469634e-38
-0.11024858 0.044568572 0.82100004 1.4654025e-38
-0.10868476 0.044568572 0.82100004 1.4745868e-38
-0.10712095 0.044568572 0.82100004 1.4653672e-38
-0.10581429 0.044677142 0.82300001 1.4837321e-38
-0.10424667 0.044677142 0.82300001 1.5113908e-38
-0.10267905 0.044677142 0.82300001 1.4929166e-38
-0.10135715 0.044785716 0.82500005 1.5205753e-38
-0.099785723 0.044785716 0.82500005 1.5666032e-38
-0.098452382 0.044894286 0.82700002 1.4375293e-38
-0.096877143 0.044894286 0.82700002 1.3548053e-38
-0.095532387 0.045002859 0.82900006 1.2533902e-38
-0.094179995 0.045111429 0.83100003 1.2259094e-38
-0.092820004 0.045220003 0.83300006 1.4195202e-38
-0.091452383 0.045328572 0.83500004 1.4838057e-38
-0.090077139 0.045437142 0.83700001 1.6313187e-38
-0.088694289 0.045545716 0.83900005 1.631317e-38
-0.08730381 0.045654286 0.84100002 1.6036583e-38
-0.085701905 0.045654286 0.84100002 1.6036217e-38
-0.084100001 0.045654286 0.84100002 2.0277216e-38
-0.082498096 0.045654286 0.84100002 2.1108424e-38
-0.16259333 0.04725619 0.84100002 2.1201706e-38
-0.16022572 0.047031429 0.83700001 1.7790468e-38
-0.15787335 0.046806671 0.83300006 1.6497575e-38
-0.15591143 0.04669429 0.83100003 1.6589771e-38
-0.15395716 0.046581909 0.82900006 1.6773435e-38
-0.15201049 0.046469525 0.82700002 1.3454392e-38
-0.15043524 0.046469525 0.82700002 1.1971004e-38
-0.1485 0.046357144 0.82500005 1.0495874e-38
-0.14692858 0.046357144 0.82500005 1.1508241e-38
-0.14500476 0.046244759 0.82300001 1.279898e-38
-0.14343715 0.046244759 0.82300001 1.23405e-38
-0.14152478 0.046132382 0.82100004 1.23405e-38
-0.13996094 0.046132382 0.82100004 1.2158632e-38
-0.13806 0.046020001 0.81900007 1.5016697e-38
-0.13650002 0.046020001 0.81900007 1.4649693e-38
-0.13494001 0.046020001 0.81900007 1.5295062e-38
-0.13338001 0.046020001 0.81900007 1.5019191e-38
-0.13182001 0.046020001 0.81900007 1.48348e-38
-0.13026001 0.046020001 0.81900007 1.4835892e-38
-0.12838572 0.04590762 0.81700003 1.5020283e-38
-0.12682953 0.04590762 0.81700003 1.4560021e-38
-0.12527333 0.04590762 0.81700003 1.4560021e-38
-0.12371714 0.04590762 0.81700003 1.4376708e-38
-0.12216096 0.04590762 0.81700003 1.4376708e-38
-0.12090001 0.046020001 0.81900007 1.4559316e-38
-0.11934 0.046020001 0.81900007 1.4006142e-38
-0.11806762 0.046132382 0.82100004 1.4744762e-38
-0.11650381 0.046132382 0.82100004 1.4929154e-38
-0.11494 0.046132382 0.82100004 1.4561816e-38
-0.11337619 0.046132382 0.82100004 1.446962e-38
-0.11181239 0.046132382 0.82100004 1.4561114e-38
-0.11024858 0.046132382 0.82100004 1.4653309e-38
-0.10868476 0.046132382 0.82100004 1.4929549e-38
-0.10712095 0.046132382 0.82100004 1.4745157e-38
-0.10581429 0.046244759 0.82300001 1.4470689e-38
-0.10424667 0.046244759 0.82300001 1.4747276e-38
-0.10267905 0.046244759 0.82300001 1.4285948e-38
-0.10135715 0.046357144 0.82500005 1.2995209e-38
-0.099785723 0.046357144 0.82500005 1.0596747e-38
-0.098452382 0.046469525 0.82700002 9.1216164e-39
-0.096877143 0.046469525 0.82700002 8.0170415e-39
-0.095532387 0.046581909 0.82900006 6.0809333e-39
-0.094179995 0.04669429 0.83100003 7.4602958e-39
-0.092820004 0.046806671 0.83300006 1.5020337e-38
-0.09167143 0.047031429 0.83700001 1.6128779e-38
-0.090292387 0.047143813 0.83900005 1.6589757e-38
-0.088905722 0.04725619 0.84100002 1.6497195e-38
-0.08730381 0.04725619 0.84100002 1.6497195e-38
-0.085701905 0.04725619 0.84100002 1.6405363e-38
-0.084300004 0.047368575 0.84300005 1.9908797e-38
-0.082694285 0.047368575 0.84300005 2.1292816e-38
-0.16220668 0.048741907 0.83900005 2.1385748e-38
-0.16022572 0.048625711 0.83700001 1.8158901e-38
-0.15787335 0.048393335 0.83300006 1.7418813e-38
-0.15591143 0.048277143 0.83100003 1.6773443e-38
-0.15395716 0.048160955 0.82900006 1.704894e-38
-0.1523781 0.048160955 0.82900006 1.345331e-38
-0.15043524 0.048044764 0.82700002 1.1512082e-38
-0.14886001 0.048044764 0.82700002 1.234183e-38
-0.14692858 0.047928575 0.82500005 1.2338743e-38
-0.14500476 0.04781238 0.82300001 1.2338743e-38
-0.14343715 0.04781238 0.82300001 1.1422811e-38
-0.14152478 0.047696192 0.82100004 1.1422811e-38
-0.13996094 0.047696192 0.82100004 1.1057306e-38
-0.13806 0.047580004 0.81900007 1.2809023e-38
-0.13650002 0.047580004 0.81900007 1.2994833e-38
-0.13494001 0.047580004 0.81900007 1.4562159e-38
-0.13370572 0.047696192 0.82100004 1.4837324e-38
-0.13182001 0.047580004 0.81900007 1.4745128e-38
-0.13026001 0.047580004 0.81900007 1.4836971e-38
-0.1287 0.047580004 0.81900007 1.4744775e-38
-0.12714 0.047580004 0.81900007 1.4193396e-38
-0.12558001 0.047580004 0.81900007 1.4193396e-38
-0.12402001 0.047580004 0.81900007 1.4376708e-38
-0.12246001 0.047580004 0.81900007 1.45611e-38
-0.12090001 0.047580004 0.81900007 1.4928104e-38
-0.11934 0.047580004 0.81900007 1.3821756e-38
-0.11806762 0.047696192 0.82100004 1.4006449e-38
-0.11650381 0.047696192 0.82100004 1.5112797e-38
-0.11494 0.047696192 0.82100004 1.4654028e-38
-0.11337619 0.047696192 0.82100004 1.4469637e-38
-0.11181239 0.047696192 0.82100004 1.4651877e-38
-0.11024858 0.047696192 0.82100004 1.4836269e-38
-0.10894953 0.04781238 0.82300001 1.5205407e-38
-0.1073819 0.04781238 0.82300001 1.5021016e-38
-0.10581429 0.04781238 0.82300001 1.3917902e-38
-0.10424667 0.04781238 0.82300001 1.3088142e-38
-0.10267905 0.04781238 0.82300001 1.216728e-38
-0.10135715 0.047928575 0.82500005 1.1153128e-38
-0.099785723 0.047928575 0.82500005 6.82678e-39
-0.098452382 0.048044764 0.82700002 5.075063e-39
-0.096877143 0.048044764 0.82700002 4.6104457e-39
-0.095532387 0.048160955 0.82900006 5.6245976e-39
-0.094179995 0.048277143 0.83100003 7.4605579e-39
-0.092820004 0.048393335 0.83300006 1.5850349e-38
-0.09167143 0.048625711 0.83700001 1.631282e-38
-0.090292387 0.048741907 0.83900005 1.6128428e-38
-0.088905722 0.048858099 0.84100002 1.6036217e-38
-0.08730381 0.048858099 0.84100002 1.6589391e-38
-0.085905716 0.04897429 0.84300005 1.658976e-38
-0.084500007 0.049090479 0.84500003 2.0093193e-38
-0.083086669 0.04920667 0.84700006 2.129319e-38
-0.081473336 0.04920667 0.84700006 2.1938559e-38
-0.16220668 0.050340001 0.83900005 2.1385748e-38
-0.16060857 0.050340001 0.83900005 1.8527684e-38
-0.15787335 0.049980003 0.83300006 1.7419194e-38
-0.15591143 0.049860001 0.83100003 1.6497237e-38
-0.15395716 0.049740005 0.82900006 1.6773432e-38
-0.1523781 0.049740005 0.82900006 1.3362194e-38
-0.15079905 0.049740005 0.82900006 1.2620287e-38
-0.14886001 0.049620003 0.82700002 1.5293961e-38
-0.14692858 0.049500003 0.82500005 1.45586e-38
-0.14500476 0.049379997 0.82300001 1.096297e-38
-0.14343715 0.049379997 0.82300001 9.309106e-39
-0.14186952 0.049379997 0.82300001 9.4934944e-39
-0.13996094 0.049260002 0.82100004 1.0321498e-38
-0.13839714 0.049260002 0.82100004 1.0782476e-38
-0.13650002 0.049140003 0.81900007 1.2994042e-38
-0.13494001 0.049140003 0.81900007 1.4469172e-38
-0.13370572 0.049260002 0.82100004 1.4377062e-38
-0.13182001 0.049140003 0.81900007 1.4653648e-38
-0.13026001 0.049140003 0.81900007 1.446962e-38
-0.1287 0.049140003 0.81900007 1.4285229e-38
-0.12714 0.049140003 0.81900007 1.4193752e-38
-0.12558001 0.049140003 0.81900007 1.4378143e-38
-0.12402001 0.049140003 0.81900007 1.4468178e-38
-0.12246001 0.049140003 0.81900007 1.4652569e-38
-0.12119524 0.049260002 0.82100004 1.3179268e-38
-0.11963143 0.049260002 0.82100004 4.8816614e-39
-0.11806762 0.049260002 0.82100004 7.1815327e-39
-0.11650381 0.049260002 0.82100004 1.3450836e-38
-0.11494 0.049260002 0.82100004 1.2532799e-38
-0.11337619 0.049260002 0.82100004 1.1610842e-38
-0.11181239 0.049260002 0.82100004 1.0598497e-38
-0.11024858 0.049260002 0.82100004 9.8609317e-39
-0.10894953 0.049379997 0.82300001 1.0413015e-38
-0.1073819 0.049379997 0.82300001 1.1888145e-38
-0.10581429 0.049379997 0.82300001 9.6761999e-39
-0.10424667 0.049379997 0.82300001 5.7117878e-39
-0.10292857 0.049500003 0.82500005 6.2678231e-39
-0.10135715 0.049500003 0.82500005 5.3458668e-39
-0.099785723 0.049500003 0.82500005 6.7320382e-39
-0.098452382 0.049620003 0.82700002 6.7320382e-39
-0.097111441 0.049740005 0.82900006 7.46889e-39
-0.095762856 0.049860001 0.83100003 7.9298681e-39
-0.094406672 0.049980003 0.83300006 9.3985074e-39
-0.093042865 0.050100002 0.83500004 1.5299028e-38
-0.09167143 0.050219998 0.83700001 1.6220255e-38
-0.090507619 0.05046 0.84100002 1.6035864e-38
-0.089117147 0.050580002 0.84300005 1.6405353e-38
-0.087511435 0.050580002 0.84300005 1.6497548e-38
-0.085905716 0.050580002 0.84300005 1.6589404e-38
-0.084500007 0.050700001 0.84500003 2.0185033e-38
-0.083086669 0.050820004 0.84700006 2.1385011e-38
-0.081473336 0.050820004 0.84700006 2.2122576e-38
-0.16104668 0.051566672 0.83300006 2.1477225e-38
-0.15946001 0.051566672 0.83300006 1.8895747e-38
-0.15787335 0.051566672 0.83300006 1.8156743e-38
-0.15628667 0.051566672 0.83300006 1.6589418e-38
-0.15432858 0.051442858 0.83100003 1.6497927e-38
-0.1523781 0.051319048 0.82900006 1.3363275e-38
-0.15079905 0.051319048 0.82900006 1.262064e-38
-0.14922002 0.051319048 0.82900006 1.5939683e-38
-0.14728476 0.051195238 0.82700002 1.4931717e-38
-0.14535716 0.051071431 0.82500005 9.0311962e-39
-0.14378572 0.051071431 0.82500005 4.0565461e-39
-0.14186952 0.050947621 0.82300001 8.5741221e-39
-0.1403019 0.050947621 0.82300001 1.0137907e-38
-0.13839714 0.050823811 0.82100004 1.0691081e-38
-0.13683334 0.050823811 0.82100004 1.1610789e-38
-0.13526952 0.050823811 0.82100004 1.2163963e-38
-0.13403143 0.050947621 0.82300001 1.1887075e-38
-0.13214192 0.050823811 0.82100004 1.3362205e-38
-0.1305781 0.050823811 0.82100004 1.3088151e-38
-0.1290143 0.050823811 0.82100004 1.2811565e-38
-0.12745048 0.050823811 0.82100004 1.1980708e-38
-0.12588666 0.050823811 0.82100004 1.2072904e-38
-0.12432285 0.050823811 0.82100004 1.2531714e-38
-0.12275905 0.050823811 0.82100004 1.3269279e-38
-0.12119524 0.050823811 0.82100004 1.2166548e-38
-0.11963143 0.050823811 0.82100004 3.5001591e-39
-0.11835524 0.050947621 0.82300001 4.5128537e-39
-0.11678762 0.050947621 0.82300001 1.2072884e-38
-0.11522 0.050947621 0.82300001 1.1429685e-38
-0.11365238 0.050947621 0.82300001 8.6638164e-39
-0.11208476 0.050947621 0.82300001 7.6521756e-39
-0.11051714 0.050947621 0.82300001 7.1911975e-39
-0.10894953 0.050947621 0.82300001 7.0074788e-39
-0.1073819 0.050947621 0.82300001 9.1279741e-39
-0.10581429 0.050947621 0.82300001 9.3084838e-39
-0.10424667 0.050947621 0.82300001 7.003593e-39
-0.10292857 0.051071431 0.82500005 6.5458645e-39
-0.10135715 0.051071431 0.82500005 6.4536689e-39
-0.10002762 0.051195238 0.82700002 7.4685467e-39
-0.09869048 0.051319048 0.82900006 7.1919598e-39
-0.097111441 0.051319048 0.82900006 7.6522022e-39
-0.095762856 0.051442858 0.83100003 7.2834197e-39
-0.094406672 0.051566672 0.83300006 9.6750985e-39
-0.093265712 0.051814288 0.83700001 1.5391228e-38
-0.091890484 0.051938098 0.83900005 1.5759643e-38
-0.090507619 0.052061904 0.84100002 1.5944034e-38
-0.089117147 0.052185714 0.84300005 1.6589754e-38
-0.087511435 0.052185714 0.84300005 1.6313167e-38
-0.085905716 0.052185714 0.84300005 1.5944022e-38
-0.084500007 0.052309528 0.84500003 1.9816238e-38
-0.083086669 0.052433338 0.84700006 2.0554186e-38
-0.081473336 0.052433338 0.84700006 2.2121511e-38
-0.15787335 0.053153336 0.83300006 1.8065987e-38
-0.15628667 0.053153336 0.83300006 1.6590857e-38
-0.15432858 0.053025715 0.83100003 1.6589774e-38
-0.1523781 0.052898098 0.82900006 1.5667817e-38
-0.15079905 0.052898098 0.82900006 1.4835903e-38
-0.14922002 0.052898098 0.82900006 1.5020294e-38
-0.14728476 0.052770477 0.82700002 1.4379243e-38
-0.14535716 0.05264286 0.82500005 8.2943319e-39
-0.14378572 0.05264286 0.82500005 4.2402703e-39
-0.14186952 0.052515239 0.82300001 1.1984703e-38
-0.1403019 0.052515239 0.82300001 1.2904492e-38
-0.13839714 0.052387621 0.82100004 1.1152775e-38
-0.13683334 0.052387621 0.82100004 9.2133931e-39
-0.13526952 0.052387621 0.82100004 7.9226543e-39
-0.13403143 0.052515239 0.82300001 7.9233913e-39
-0.13246381 0.052515239 0.82300001 6.3560656e-39
-0.1308962 0.052515239 0.82300001 7.1887158e-39
-0.1290143 0.052387621 0.82100004 6.2667595e-39
-0.12745048 0.052387621 0.82100004 7.0932439e-39
-0.12588666 0.052387621 0.82100004 7.2776352e-39
-0.12432285 0.052387621 0.82100004 7.8293908e-39
-0.12275905 0.052387621 0.82100004 9.8576947e-39
-0.12119524 0.052387621 0.82100004 8.7559896e-39
-0.11963143 0.052387621 0.82100004 3.7774522e-39
-0.11806762 0.052387621 0.82100004 6.0777089e-39
-0.11678762 0.052515239 0.82300001 1.0871882e-38
-0.11522 0.052515239 0.82300001 1.0045627e-38
-0.11365238 0.052515239 0.82300001 5.8046491e-39
-0.11208476 0.052515239 0.82300001 8.1138796e-39
-0.11051714 0.052515239 0.82300001 8.7592491e-39
-0.10894953 0.052515239 0.82300001 8.2024894e-39
-0.1073819 0.052515239 0.82300001 9.5854238e-39
-0.10581429 0.052515239 0.82300001 9.5850412e-39
-0.10424667 0.052515239 0.82300001 7.7411286e-39
-0.10292857 0.05264286 0.82500005 7.0064895e-39
-0.10135715 0.05264286 0.82500005 7.0064895e-39
-0.10026953 0.052898098 0.82900006 6.2725398e-39
-0.09869048 0.052898098 0.82900006 4.7974098e-39
-0.097345717 0.053025715 0.83100003 6.9164295e-39
-0.09599334 0.053153336 0.83300006 6.4554513e-39
-0.094633341 0.053280953 0.83500004 1.0227919e-38
-0.093488574 0.053536192 0.83900005 1.5667461e-38
-0.091890484 0.053536192 0.83900005 1.5759643e-38
-0.090722859 0.05379143 0.84300005 1.5851839e-38
-0.089117147 0.05379143 0.84300005 1.631317e-38
-0.087511435 0.05379143 0.84300005 1.6589757e-38
-0.086109526 0.053919047 0.84500003 1.6497914e-38
-0.084500007 0.053919047 0.84500003 1.9171587e-38
-0.083773337 0.054493334 0.85400003 2.0370157e-38
-0.082146674 0.054493334 0.85400003 2.2398461e-38
-0.15946001 0.054740004 0.83300006 1.9726593e-38
-0.15787335 0.054740004 0.83300006 1.8344006e-38
-0.15628667 0.054740004 0.83300006 1.6315702e-38
-0.15432858 0.054608572 0.83100003 1.6681236e-38
-0.15274572 0.054608572 0.83100003 1.5943671e-38
-0.15116286 0.054608572 0.83100003 1.5204691e-38
-0.14922002 0.054477148 0.82900006 1.5296887e-38
-0.14764096 0.054477148 0.82900006 1.4562553e-38
-0.14570953 0.054345712 0.82700002 7.8322719e-39
-0.14378572 0.054214288 0.82500005 4.0558286e-39
-0.1422143 0.054214288 0.82500005 1.2630011e-38
-0.1403019 0.054082859 0.82300001 1.3642802e-38
-0.13839714 0.053951431 0.82100004 1.0600346e-38
-0.13683334 0.053951431 0.82100004 8.3864658e-39
-0.13526952 0.053951431 0.82100004 7.9254877e-39
-0.13403143 0.054082859 0.82300001 7.2834169e-39
-0.13246381 0.054082859 0.82300001 5.9926781e-39
-0.1308962 0.054082859 0.82300001 6.915726e-39
-0.1290143 0.053951431 0.82100004 3.9654659e-39
-0.12745048 0.053951431 0.82100004 5.0681869e-39
-0.12588666 0.053951431 0.82100004 6.5433169e-39
-0.12432285 0.053951431 0.82100004 6.8166416e-39
-0.12275905 0.053951431 0.82100004 7.9229892e-39
-0.12119524 0.053951431 0.82100004 7.005028e-39
-0.11963143 0.053951431 0.82100004 6.7284411e-39
-0.11806762 0.053951431 0.82100004 8.8475056e-39
-0.11678762 0.054082859 0.82300001 1.0507027e-38
-0.11522 0.054082859 0.82300001 9.4002828e-39
-0.11365238 0.054082859 0.82300001 8.7549134e-39
-0.11208476 0.054082859 0.82300001 9.4010452e-39
-0.11051714 0.054082859 0.82300001 9.5854364e-39
-0.10894953 0.054082859 0.82300001 8.2906899e-39
-0.1073819 0.054082859 0.82300001 9.8580156e-39
-0.10581429 0.054082859 0.82300001 1.0228268e-38
-0.1045 0.054214288 0.82500005 8.015573e-39
-0.10292857 0.054214288 0.82500005 6.8202542e-39
-0.10160286 0.054345712 0.82700002 8.2031886e-39
-0.10026953 0.054477148 0.82900006 7.195903e-39
-0.09869048 0.054477148 0.82900006 6.3661424e-39
-0.097345717 0.054608572 0.83100003 7.1018885e-39
-0.09599334 0.054740004 0.83300006 7.2862798e-39
-0.094633341 0.054871429 0.83500004 1.1241341e-38
-0.093488574 0.055134289 0.83900005 1.5574536e-38
-0.092109524 0.055265717 0.84100002 1.5205387e-38
-0.090722859 0.055397145 0.84300005 1.6127344e-38
-0.08932858 0.05552857 0.84500003 1.5669608e-38
-0.087719053 0.05552857 0.84500003 1.6222782e-38
-0.086109526 0.05552857 0.84500003 1.64068e-38
-0.084700003 0.055660002 0.84700006 1.8988278e-38
-0.083773337 0.056120001 0.85400003 2.0094291e-38
-0.082146674 0.056120001 0.85400003 2.2122595e-38
-0.15946001 0.056326672 0.83300006 2.0002464e-38
-0.15787335 0.056326672 0.83300006 1.8710989e-38
-0.15628667 0.056326672 0.83300006 1.7235859e-38
-0.15432858 0.056191429 0.83100003 1.6497564e-38
-0.15274572 0.056191429 0.83100003 1.6036586e-38
-0.15116286 0.056191429 0.83100003 1.5758237e-38
-0.14922002 0.056056194 0.82900006 1.6034824e-38
-0.14764096 0.056056194 0.82900006 1.4748023e-38
-0.14570953 0.055920955 0.82700002 7.2801771e-39
-0.14378572 0.055785719 0.82500005 5.6242123e-39
-0.1422143 0.055785719 0.82500005 1.2907667e-38
-0.1403019 0.055650476 0.82300001 1.2904852e-38
-0.13839714 0.055515241 0.82100004 9.862396e-39
-0.13683334 0.055515241 0.82100004 7.556757e-39
-0.13526952 0.055515241 0.82100004 7.9255395e-39
-0.13403143 0.055650476 0.82300001 8.293606e-39
-0.13246381 0.055650476 0.82300001 7.8326278e-39
-0.1308962 0.055650476 0.82300001 6.8220983e-39
-0.1290143 0.055515241 0.82100004 3.1342731e-39
-0.12745048 0.055515241 0.82100004 5.4377597e-39
-0.12588666 0.055515241 0.82100004 9.4021718e-39
-0.12432285 0.055515241 0.82100004 7.8311957e-39
-0.12275905 0.055515241 0.82100004 7.4624132e-39
-0.12119524 0.055515241 0.82100004 7.650417e-39
-0.11963143 0.055515241 0.82100004 7.4660257e-39
-0.11806762 0.055515241 0.82100004 1.0505211e-38
-0.11678762 0.055650476 0.82300001 1.2072537e-38
-0.11522 0.055650476 0.82300001 9.6751083e-39
-0.11365238 0.055650476 0.82300001 9.0297389e-39
-0.11208476 0.055650476 0.82300001 9.125903e-39
-0.11051714 0.055650476 0.82300001 8.9415117e-39
-0.10921429 0.055785719 0.82500005 7.1868591e-39
-0.10764287 0.055785719 0.82500005 7.3712503e-39
-0.10607143 0.055785719 0.82500005 7.7390001e-39
-0.1045 0.055785719 0.82500005 8.2921739e-39
-0.1031781 0.055920955 0.82700002 8.2013711e-39
-0.10184858 0.056056194 0.82900006 9.6765012e-39
-0.10051143 0.056191429 0.83100003 1.0416227e-38
-0.098928571 0.056191429 0.83100003 1.0324031e-38
-0.097580008 0.056326672 0.83300006 1.2722197e-38
-0.096454285 0.056597143 0.83700001 1.3644153e-38
-0.094860002 0.056597143 0.83700001 1.4654028e-38
-0.093711428 0.056867622 0.84100002 1.566818e-38
-0.092109524 0.056867622 0.84100002 1.5667437e-38
-0.090722859 0.057002861 0.84300005 1.6405003e-38
-0.089117147 0.057002861 0.84300005 1.6221354e-38
-0.087511435 0.057002861 0.84300005 1.6405745e-38
-0.086109526 0.057138097 0.84500003 1.6498277e-38
-0.084700003 0.057273336 0.84700006 1.9079755e-38
-0.083086669 0.057273336 0.84700006 1.9908823e-38
-0.15946001 0.057913337 0.83300006 2.0186489e-38
-0.15787335 0.057913337 0.83300006 1.9171244e-38
-0.15628667 0.057913337 0.83300006 1.7603918e-38
-0.15470001 0.057913337 0.83300006 1.6958556e-38
-0.15274572 0.057774287 0.83100003 1.6128795e-38
-0.15116286 0.057774287 0.83100003 1.6312117e-38
-0.14958 0.057774287 0.83100003 1.6588704e-38
-0.14764096 0.057635244 0.82900006 1.4565795e-38
-0.14570953 0.057496194 0.82700002 7.0979495e-39
-0.14413428 0.057496194 0.82700002 4.787284e-39
-0.1422143 0.057357144 0.82500005 1.290049e-38
-0.14064285 0.057357144 0.82500005 1.161734e-38
-0.1387343 0.057218097 0.82300001 8.7592757e-39
-0.13683334 0.057079051 0.82100004 5.6227717e-39
-0.13526952 0.057079051 0.82100004 7.4666773e-39
-0.13403143 0.057218097 0.82300001 1.0134642e-38
-0.13246381 0.057218097 0.82300001 1.059562e-38
-0.1308962 0.057218097 0.82300001 9.1244583e-39
-0.1290143 0.057079051 0.82100004 4.699068e-39
-0.12745048 0.057079051 0.82100004 8.017745e-39
-0.12588666 0.057079051 0.82100004 9.492875e-39
-0.12432285 0.057079051 0.82100004 7.1901213e-39
-0.12275905 0.057079051 0.82100004 6.9135344e-39
-0.12119524 0.057079051 0.82100004 7.7422525e-39
-0.11963143 0.057079051 0.82100004 7.6500569e-39
-0.11806762 0.057079051 0.82100004 1.0689227e-38
-0.11678762 0.057218097 0.82300001 1.0781422e-38
-0.11522 0.057218097 0.82300001 8.9396718e-39
-0.11365238 0.057218097 0.82300001 1.0046019e-38
-0.11208476 0.057218097 0.82300001 1.0233702e-38
-0.11078572 0.057357144 0.82500005 8.9429635e-39
-0.10921429 0.057357144 0.82500005 5.1614419e-39
-0.10790381 0.057496194 0.82700002 5.8990013e-39
-0.10632858 0.057496194 0.82700002 6.8187856e-39
-0.10475334 0.057496194 0.82700002 8.3861029e-39
-0.10342763 0.057635244 0.82900006 9.3974032e-39
-0.10209429 0.057774287 0.83100003 1.0780338e-38
-0.10051143 0.057774287 0.83100003 1.2622482e-38
-0.098928571 0.057774287 0.83100003 1.308346e-38
-0.097814284 0.058052383 0.83500004 1.4100838e-38
-0.096454285 0.05819143 0.83700001 1.5483772e-38
-0.094860002 0.05819143 0.83700001 1.5207199e-38
-0.093711428 0.058469526 0.84100002 1.539159e-38
-0.092109524 0.058469526 0.84100002 1.5483412e-38
-0.090722859 0.058608577 0.84300005 1.6036586e-38
-0.089117147 0.058608577 0.84300005 1.5760729e-38
-0.087511435 0.058608577 0.84300005 1.6037316e-38
-0.086109526 0.058747619 0.84500003 1.6312438e-38
-0.084500007 0.058747619 0.84500003 1.8986112e-38
-0.082890481 0.058747619 0.84500003 1.9539678e-38
-0.15787335 0.059500005 0.83300006 1.9632941e-38
-0.15628667 0.059500005 0.83300006 1.7789029e-38
-0.15470001 0.059500005 0.83300006 1.6866743e-38
-0.15274572 0.059357144 0.83100003 1.6221374e-38
-0.15116286 0.059357144 0.83100003 1.631282e-38
-0.14958 0.059357144 0.83100003 1.6497211e-38
-0.14764096 0.059214287 0.82900006 1.5301916e-38
-0.14570953 0.059071429 0.82700002 1.1982873e-38
-0.14413428 0.059071429 0.82700002 7.7426729e-39
-0.14255904 0.059071429 0.82700002 7.466086e-39
-0.14064285 0.058928575 0.82500005 8.2028411e-39
-0.1387343 0.058785714 0.82300001 8.2028411e-39
-0.13716668 0.058785714 0.82300001 7.2790771e-39
-0.13559905 0.058785714 0.82300001 7.1868815e-39
-0.13435715 0.058928575 0.82500005 7.8322999e-39
-0.13278572 0.058928575 0.82500005 1.1796712e-38
-0.1308962 0.058785714 0.82300001 8.297922e-39
-0.1290143 0.058642861 0.82100004 3.5037492e-39
-0.12745048 0.058642861 0.82100004 7.098688e-39
-0.12588666 0.058642861 0.82100004 8.3894268e-39
-0.12432285 0.058642861 0.82100004 7.4627523e-39
-0.12275905 0.058642861 0.82100004 7.9237304e-39
-0.12119524 0.058642861 0.82100004 7.3741706e-39
-0.11963143 0.058642861 0.82100004 4.7004974e-39
-0.11806762 0.058642861 0.82100004 7.9244213e-39
-0.11678762 0.058785714 0.82300001 8.8463776e-39
-0.11522 0.058785714 0.82300001 8.9389488e-39
-0.11392858 0.058928575 0.82500005 1.0782861e-38
-0.11235715 0.058928575 0.82500005 1.2074362e-38
-0.11078572 0.058928575 0.82500005 1.2074362e-38
-0.10947905 0.059071429 0.82700002 1.1335711e-38
-0.10790381 0.059071429 0.82700002 1.0505951e-38
-0.10632858 0.059071429 0.82700002 1.2904026e-38
-0.10500667 0.059214287 0.82900006 1.3549396e-38
-0.10367715 0.059357144 0.83100003 1.391611e-38
-0.10209429 0.059357144 0.83100003 1.4377088e-38
-0.10051143 0.059357144 0.83100003 1.3088144e-38
-0.099166676 0.059500005 0.83300006 1.2627166e-38
-0.097814284 0.059642859 0.83500004 1.2996285e-38
-0.096454285 0.059785716 0.83700001 1.5301176e-38
-0.094860002 0.059785716 0.83700001 1.5483056e-38
-0.093711428 0.060071427 0.84100002 1.5206469e-38
-0.092328578 0.060214289 0.84300005 1.5390863e-38
-0.090722859 0.060214289 0.84300005 1.6036233e-38
-0.08932858 0.060357146 0.84500003 1.5853273e-38
-0.087719053 0.060357146 0.84500003 1.6498643e-38
-0.086109526 0.060357146 0.84500003 1.6497195e-38
-0.084500007 0.060357146 0.84500003 1.8525499e-38
-0.082890481 0.060357146 0.84500003 1.9816633e-38
-0.15749429 0.060940001 0.83100003 1.9725508e-38
-0.15591143 0.060940001 0.83100003 1.7697204e-38
-0.15432858 0.060940001 0.83100003 1.705184e-38
-0.15274572 0.060940001 0.83100003 1.622208e-38
-0.15116286 0.060940001 0.83100003 1.6497575e-38
-0.14958 0.060940001 0.83100003 1.6405379e-38
-0.14764096 0.060793336 0.82900006 1.6130946e-38
-0.14606191 0.060793336 0.82900006 1.4102643e-38
-0.14413428 0.060646668 0.82700002 1.3364738e-38
-0.14255904 0.060646668 0.82700002 1.0322283e-38
-0.14098382 0.060646668 0.82700002 9.7690373e-39
-0.1387343 0.060353335 0.82300001 1.013782e-38
-0.13716668 0.060353335 0.82300001 9.4924729e-39
-0.13559905 0.060353335 0.82300001 7.8329515e-39
-0.13435715 0.060500003 0.82500005 6.2688488e-39
-0.13278572 0.060500003 0.82500005 9.6800759e-39
-0.1308962 0.060353335 0.82300001 8.0220175e-39
-0.1290143 0.06020667 0.82100004 8.0220175e-39
-0.12745048 0.06020667 0.82100004 8.5755767e-39
-0.12588666 0.06020667 0.82100004 8.0224029e-39
-0.12432285 0.06020667 0.82100004 6.9084687e-39
-0.12275905 0.06020667 0.82100004 8.6601758e-39
-0.12119524 0.06020667 0.82100004 1.032118e-38
-0.11963143 0.06020667 0.82100004 7.6475065e-39
-0.11806762 0.06020667 0.82100004 7.833292e-39
-0.11678762 0.060353335 0.82300001 9.4928134e-39
-0.11550001 0.060500003 0.82500005 1.0137116e-38
-0.11392858 0.060500003 0.82500005 1.2073225e-38
-0.11235715 0.060500003 0.82500005 1.3731722e-38
-0.11078572 0.060500003 0.82500005 1.3731722e-38
-0.10947905 0.060646668 0.82700002 1.4190539e-38
-0.10790381 0.060646668 0.82700002 1.4098343e-38
-0.10632858 0.060646668 0.82700002 1.4284513e-38
-0.10500667 0.060793336 0.82900006 1.4284513e-38
-0.10367715 0.060940001 0.83100003 1.4285263e-38
-0.10209429 0.060940001 0.83100003 1.3732089e-38
-0.10075334 0.061086673 0.83300006 1.0511005e-38
-0.099166676 0.061086673 0.83300006 9.9578315e-39
-0.097814284 0.061233338 0.83500004 1.1061606e-38
-0.096454285 0.061379995 0.83700001 1.5026018e-38
-0.095086671 0.061526671 0.83900005 1.5391942e-38
-0.093711428 0.061673336 0.84100002 1.5207551e-38
-0.092109524 0.061673336 0.84100002 1.5206825e-38
-0.090722859 0.061820004 0.84300005 1.6036586e-38
-0.08932858 0.061966669 0.84500003 1.5853273e-38
-0.087719053 0.061966669 0.84500003 1.6314252e-38
-0.086109526 0.061966669 0.84500003 1.6497551e-38
-0.084500007 0.061966669 0.84500003 1.8157073e-38
-0.082890481 0.061966669 0.84500003 2.0184681e-38
-0.15749429 0.062522858 0.83100003 1.9726587e-38
-0.15591143 0.062522858 0.83100003 1.7790479e-38
-0.15432858 0.062522858 0.83100003 1.705184e-38
-0.15274572 0.062522858 0.83100003 1.622208e-38
-0.15116286 0.062522858 0.83100003 1.6497927e-38
-0.14958 0.062522858 0.83100003 1.6313536e-38
-0.14764096 0.062372386 0.82900006 1.6038385e-38
-0.14606191 0.062372386 0.82900006 1.5853994e-38
-0.14448287 0.062372386 0.82900006 1.5209001e-38
-0.14290382 0.062372386 0.82900006 1.5116806e-38
-0.14098382 0.062221903 0.82700002 1.5117148e-38
-0.13907143 0.062071431 0.82500005 1.5301539e-38
-0.13750002 0.062071431 0.82500005 1.4746926e-38
-0.13592857 0.062071431 0.82500005 1.4378143e-38
-0.13435715 0.062071431 0.82500005 1.3825323e-38
-0.13278572 0.062071431 0.82500005 1.3917518e-38
-0.1308962 0.061920948 0.82300001 1.3733845e-38
-0.1290143 0.061770476 0.82100004 1.3641649e-38
-0.12745048 0.061770476 0.82100004 1.3457979e-38
-0.12588666 0.061770476 0.82100004 1.3273588e-38
-0.12432285 0.061770476 0.82100004 1.3640578e-38
-0.12275905 0.061770476 0.82100004 1.3917165e-38
-0.12119524 0.061770476 0.82100004 1.3826406e-38
-0.11963143 0.061770476 0.82100004 1.4010797e-38
-0.11806762 0.061770476 0.82100004 1.2997035e-38
-0.11678762 0.061920948 0.82300001 1.3550209e-38
-0.11550001 0.062071431 0.82500005 1.3365778e-38
-0.11392858 0.062071431 0.82500005 1.3365778e-38
-0.11235715 0.062071431 0.82500005 1.2996306e-38
-0.11078572 0.062071431 0.82500005 1.2904111e-38
-0.10947905 0.062221903 0.82700002 1.2812254e-38
-0.10790381 0.062221903 0.82700002 1.142932e-38
-0.10658572 0.062372386 0.82900006 8.9393664e-39
-0.10500667 0.062372386 0.82900006 8.5705838e-39
-0.10367715 0.062522858 0.83100003 8.47837e-39
-0.10209429 0.062522858 0.83100003 8.1095875e-39
-0.10075334 0.062673338 0.83300006 6.6398426e-39
-0.099166676 0.062673338 0.83300006 5.1647125e-39
-0.097814284 0.06282381 0.83500004 1.0692458e-38
-0.096454285 0.062974289 0.83700001 1.5394435e-38
-0.095086671 0.063124768 0.83900005 1.5576331e-38
-0.093711428 0.06327524 0.84100002 1.5576331e-38
-0.092109524 0.06327524 0.84100002 1.5667803e-38
-0.090722859 0.06342572 0.84300005 1.6036586e-38
-0.08932858 0.063576192 0.84500003 1.594439e-38
-0.087719053 0.063576192 0.84500003 1.6497564e-38
-0.086109526 0.063576192 0.84500003 1.6681577e-38
-0.084700003 0.063726671 0.84700006 1.8156707e-38
-0.083086669 0.063726671 0.84700006 1.9538938e-38
-0.15749429 0.064105719 0.83100003 1.9910984e-38
-0.15591143 0.064105719 0.83100003 1.8067071e-38
-0.15432858 0.064105719 0.83100003 1.7788677e-38
-0.15274572 0.064105719 0.83100003 1.6497938e-38
-0.15116286 0.064105719 0.83100003 1.668125e-38
-0.14958 0.064105719 0.83100003 1.6589055e-38
-0.14799714 0.064105719 0.83100003 1.6220974e-38
-0.14606191 0.063951433 0.82900006 1.6128779e-38
-0.14448287 0.063951433 0.82900006 1.5392314e-38
-0.14290382 0.063951433 0.82900006 1.5484509e-38
-0.14132477 0.063951433 0.82900006 1.5484844e-38
-0.13907143 0.063642859 0.82500005 1.5392648e-38
-0.13750002 0.063642859 0.82500005 1.4930576e-38
-0.13592857 0.063642859 0.82500005 1.4746185e-38
-0.13435715 0.063642859 0.82500005 1.4192295e-38
-0.13278572 0.063642859 0.82500005 1.4468882e-38
-0.1308962 0.063488573 0.82300001 1.4745834e-38
-0.1290143 0.063334286 0.82100004 1.4469247e-38
-0.12745048 0.063334286 0.82100004 1.446926e-38
-0.12588666 0.063334286 0.82100004 1.4192673e-38
-0.12432285 0.063334286 0.82100004 1.4838417e-38
-0.12275905 0.063334286 0.82100004 1.4193047e-38
-0.12119524 0.063334286 0.82100004 1.4194475e-38
-0.11992285 0.063488573 0.82300001 1.410228e-38
-0.11835524 0.063488573 0.82300001 1.1984688e-38
-0.11707143 0.063642859 0.82500005 1.1984688e-38
-0.11550001 0.063642859 0.82500005 1.2351665e-38
-0.11392858 0.063642859 0.82500005 1.1890687e-38
-0.11235715 0.063642859 0.82500005 1.1247123e-38
-0.11105429 0.063797139 0.82700002 1.1247123e-38
-0.10947905 0.063797139 0.82700002 9.2220811e-39
-0.10816476 0.063951433 0.82900006 6.8249947e-39
-0.10658572 0.063951433 0.82900006 4.8906255e-39
-0.10526 0.064105719 0.83100003 5.259408e-39
-0.10367715 0.064105719 0.83100003 6.8242338e-39
-0.10209429 0.064105719 0.83100003 6.7320382e-39
-0.10075334 0.064260006 0.83300006 5.0764727e-39
-0.099166676 0.064260006 0.83300006 5.0764727e-39
-0.097580008 0.064260006 0.83300006 1.0966549e-38
-0.096454285 0.064568572 0.83700001 1.5484135e-38
-0.094860002 0.064568572 0.83700001 1.5483789e-38
-0.093711428 0.064877145 0.84100002 1.5391593e-38
-0.092109524 0.064877145 0.84100002 1.5851473e-38
-0.090722859 0.065031432 0.84300005 1.5851473e-38
-0.08932858 0.065185711 0.84500003 1.5852194e-38
-0.087926671 0.065340005 0.84700006 1.6497564e-38
-0.086313337 0.065340005 0.84700006 1.6865615e-38
-0.084700003 0.065340005 0.84700006 1.7418789e-38
-0.083282866 0.065494291 0.84900004 1.97226e-38
-0.15787335 0.065846674 0.83300006 2.0003543e-38
-0.15628667 0.065846674 0.83300006 1.8067434e-38
-0.15470001 0.065846674 0.83300006 1.7421333e-38
-0.15311335 0.065846674 0.83300006 1.7052551e-38
-0.15152667 0.065846674 0.83300006 1.7142241e-38
-0.14958 0.065688573 0.83100003 1.6681263e-38
-0.14799714 0.065688573 0.83100003 1.6498277e-38
-0.14641428 0.065688573 0.83100003 1.5760712e-38
-0.14448287 0.065530479 0.82900006 1.5484512e-38
-0.14290382 0.065530479 0.82900006 1.5115729e-38
-0.14132477 0.065530479 0.82900006 1.5022421e-38
-0.13940857 0.065372378 0.82700002 1.4192661e-38
-0.13783334 0.065372378 0.82700002 1.4098982e-38
-0.1362581 0.065372378 0.82700002 1.4098982e-38
-0.13468286 0.065372378 0.82700002 1.3638392e-38
-0.13278572 0.065214291 0.82500005 1.3638392e-38
-0.1308962 0.06505619 0.82300001 1.170482e-38
-0.12932856 0.06505619 0.82300001 1.0782864e-38
-0.12776095 0.06505619 0.82300001 1.0876489e-38
-0.12619334 0.06505619 0.82300001 1.1245272e-38
-0.12462571 0.06505619 0.82300001 1.0967981e-38
-0.1230581 0.06505619 0.82300001 1.0599199e-38
-0.12149048 0.06505619 0.82300001 9.496091e-39
-0.11992285 0.06505619 0.82300001 8.0209609e-39
-0.11835524 0.06505619 0.82300001 7.7444175e-39
-0.11707143 0.065214291 0.82500005 7.8366131e-39
-0.11550001 0.065214291 0.82500005 8.2972185e-39
-0.11392858 0.065214291 0.82500005 7.7440447e-39
-0.11235715 0.065214291 0.82500005 7.743714e-39
-0.11105429 0.065372378 0.82700002 7.2827359e-39
-0.10947905 0.065372378 0.82700002 5.810152e-39
-0.10816476 0.065530479 0.82900006 3.6896525e-39
-0.10658572 0.065530479 0.82900006 3.9687183e-39
-0.10526 0.065688573 0.83100003 5.4438484e-39
-0.10367715 0.065688573 0.83100003 7.0082594e-39
-0.10234001 0.065846674 0.83300006 7.100455e-39
-0.10075334 0.065846674 0.83300006 6.2721545e-39
-0.099166676 0.065846674 0.83300006 7.9316758e-39
