# .PCD v0.7 - Point Cloud Data file format
VERSION 0.7
FIELDS x y z rgb
SIZE 4 4 4 4
TYPE F F F F
COUNT 1 1 1 1
WIDTH 980
HEIGHT 1
VIEWPOINT 0 0 0 1 0 0 0
POINTS 980
DATA ascii
-0.082105711 0.07413429 0.83700001 1.6130581e-38
-0.080896191 0.074488573 0.84100002 1.6407168e-38
-0.079482861 0.074665718 0.84300005 1.7234421e-38
-0.077877149 0.074665718 0.84300005 2.1198833e-38
-0.076271437 0.074665718 0.84300005 2.1937106e-38
-0.15628667 0.075366676 0.83300006 2.221479e-38
-0.15470001 0.075366676 0.83300006 2.0925143e-38
-0.15274572 0.075185716 0.83100003 1.8343665e-38
-0.15116286 0.075185716 0.83100003 1.7513895e-38
-0.14922002 0.075004764 0.82900006 1.7790482e-38
-0.14728476 0.074823812 0.82700002 1.7604288e-38
-0.14535716 0.074642867 0.82500005 1.7604288e-38
-0.14343715 0.0744619 0.82300001 1.742025e-38
-0.14186952 0.0744619 0.82300001 1.659049e-38
-0.13996094 0.074280955 0.82100004 1.6037333e-38
-0.13806 0.07410001 0.81900007 1.5945137e-38
-0.13616668 0.07391905 0.81700003 1.6129504e-38
-0.13461047 0.07391905 0.81700003 1.6037309e-38
-0.13272858 0.073738098 0.81500006 1.5484491e-38
-0.1311762 0.073738098 0.81500006 1.4285948e-38
-0.12962382 0.073738098 0.81500006 1.5114261e-38
-0.12807143 0.073738098 0.81500006 1.5298652e-38
-0.12651907 0.073738098 0.81500006 1.5021742e-38
-0.12496667 0.073738098 0.81500006 1.4560763e-38
-0.12341429 0.073738098 0.81500006 1.4745466e-38
-0.12186191 0.073738098 0.81500006 1.4100096e-38
-0.12030953 0.073738098 0.81500006 1.3453265e-38
-0.11875715 0.073738098 0.81500006 1.2807896e-38
-0.11720477 0.073738098 0.81500006 1.3819907e-38
-0.11565238 0.073738098 0.81500006 1.4557472e-38
-0.11410001 0.073738098 0.81500006 1.2902988e-38
-0.11254763 0.073738098 0.81500006 1.0598097e-38
-0.11099524 0.073738098 0.81500006 1.0325438e-38
-0.10944287 0.073738098 0.81500006 1.1063003e-38
-0.10789049 0.073738098 0.81500006 1.0968718e-38
-0.10659905 0.07391905 0.81700003 1.0138958e-38
-0.10504286 0.07391905 0.81700003 9.3131263e-39
-0.10348667 0.07391905 0.81700003 7.4692137e-39
-0.10193048 0.07391905 0.81700003 5.9080607e-39
-0.10037429 0.07391905 0.81700003 4.5251263e-39
-0.098818094 0.07391905 0.81700003 6.64313e-39
-0.097500004 0.07410001 0.81900007 7.9338688e-39
-0.096174285 0.074280955 0.82100004 8.5752726e-39
-0.094610475 0.074280955 0.82100004 8.6674682e-39
-0.093273334 0.0744619 0.82300001 9.9578161e-39
-0.091705717 0.0744619 0.82300001 9.8656204e-39
-0.090357147 0.074642867 0.82500005 9.956014e-39
-0.089000955 0.074823812 0.82700002 9.7716227e-39
-0.087637149 0.075004764 0.82900006 1.0230077e-38
-0.086265713 0.075185716 0.83100003 1.3272533e-38
-0.08488667 0.075366676 0.83300006 1.3547716e-38
-0.083500005 0.075547621 0.83500004 1.640578e-38
-0.082105711 0.075728573 0.83700001 1.6682315e-38
-0.080896191 0.076090477 0.84100002 1.6497924e-38
-0.079294287 0.076090477 0.84100002 1.7418786e-38
-0.077877149 0.076271437 0.84300005 2.1383198e-38
-0.076271437 0.076271437 0.84300005 2.1660526e-38
-0.15274572 0.07676857 0.83100003 1.8437296e-38
-0.15116286 0.07676857 0.83100003 1.8436543e-38
-0.14922002 0.07658381 0.82900006 1.7698978e-38
-0.14728476 0.076399051 0.82700002 1.7419894e-38
-0.14570953 0.076399051 0.82700002 1.7696481e-38
-0.14378572 0.076214284 0.82500005 1.7511742e-38
-0.14186952 0.076029524 0.82300001 1.6681982e-38
-0.13996094 0.075844765 0.82100004 1.6036963e-38
-0.13806 0.075660005 0.81900007 1.6221354e-38
-0.13616668 0.075475238 0.81700003 1.6405728e-38
-0.13461047 0.075475238 0.81700003 1.6036946e-38
-0.13272858 0.075290486 0.81500006 1.5576333e-38
-0.1311762 0.075290486 0.81500006 1.502316e-38
-0.12962382 0.075290486 0.81500006 1.5115708e-38
-0.12807143 0.075290486 0.81500006 1.465473e-38
-0.12651907 0.075290486 0.81500006 1.4561482e-38
-0.12496667 0.075290486 0.81500006 1.4561482e-38
-0.12341429 0.075290486 0.81500006 1.4838365e-38
-0.12186191 0.075290486 0.81500006 1.3916409e-38
-0.12030953 0.075290486 0.81500006 1.3637644e-38
-0.11875715 0.075290486 0.81500006 1.3545448e-38
-0.11720477 0.075290486 0.81500006 1.382026e-38
-0.11565238 0.075290486 0.81500006 1.4465629e-38
-0.11410001 0.075290486 0.81500006 1.2626764e-38
-0.11254763 0.075290486 0.81500006 1.0321873e-38
-0.11099524 0.075290486 0.81500006 8.7602552e-39
-0.10944287 0.075290486 0.81500006 1.0696363e-38
-0.10815524 0.075475238 0.81700003 1.087723e-38
-0.10659905 0.075475238 0.81700003 1.0324057e-38
-0.10504286 0.075475238 0.81700003 9.3145486e-39
-0.10348667 0.075475238 0.81700003 7.3784404e-39
-0.10193048 0.075475238 0.81700003 5.4481391e-39
-0.10037429 0.075475238 0.81700003 5.0793566e-39
-0.099060006 0.075660005 0.81900007 6.6427265e-39
-0.097500004 0.075660005 0.81900007 8.486639e-39
-0.096174285 0.075844765 0.82100004 9.4035633e-39
-0.094610475 0.075844765 0.82100004 9.4957589e-39
-0.093273334 0.076029524 0.82300001 1.1059125e-38
-0.091705717 0.076029524 0.82300001 1.1059125e-38
-0.090357147 0.076214284 0.82500005 1.0782867e-38
-0.089000955 0.076399051 0.82700002 1.1059454e-38
-0.087637149 0.07658381 0.82900006 1.1705193e-38
-0.086265713 0.07676857 0.83100003 1.345691e-38
-0.08488667 0.076953337 0.83300006 1.5205407e-38
-0.083500005 0.077138096 0.83500004 1.6772733e-38
-0.082105711 0.077322856 0.83700001 1.6774151e-38
-0.080896191 0.077692382 0.84100002 1.6774151e-38
-0.079294287 0.077692382 0.84100002 1.7694662e-38
-0.077692382 0.077692382 0.84100002 2.1105901e-38
-0.15274572 0.078351431 0.83100003 1.9634757e-38
-0.15079905 0.078162864 0.82900006 1.8436538e-38
-0.14922002 0.078162864 0.82900006 1.7606777e-38
-0.14764096 0.078162864 0.82900006 1.7421336e-38
-0.14570953 0.077974282 0.82700002 1.7697923e-38
-0.14378572 0.077785715 0.82500005 1.7234802e-38
-0.14186952 0.077597149 0.82300001 1.686602e-38
-0.1403019 0.077597149 0.82300001 1.6129511e-38
-0.13839714 0.077408575 0.82100004 1.6129511e-38
-0.13650002 0.077220008 0.81900007 1.6220977e-38
-0.13461047 0.077031434 0.81700003 1.5483412e-38
-0.13272858 0.076842859 0.81500006 1.5299747e-38
-0.1311762 0.076842859 0.81500006 1.5207551e-38
-0.12994191 0.077031434 0.81700003 1.4839845e-38
-0.12838572 0.077031434 0.81700003 1.4378866e-38
-0.12651907 0.076842859 0.81500006 1.4562203e-38
-0.12496667 0.076842859 0.81500006 1.4377811e-38
-0.12341429 0.076842859 0.81500006 1.4653961e-38
-0.12186191 0.076842859 0.81500006 1.3639809e-38
-0.12030953 0.076842859 0.81500006 1.3822061e-38
-0.11875715 0.076842859 0.81500006 1.4098647e-38
-0.11720477 0.076842859 0.81500006 1.4190121e-38
-0.11565238 0.076842859 0.81500006 1.4097926e-38
-0.11410001 0.076842859 0.81500006 1.2810802e-38
-0.11254763 0.076842859 0.81500006 1.0598107e-38
-0.11099524 0.076842859 0.81500006 1.0324392e-38
-0.10944287 0.076842859 0.81500006 1.0969761e-38
-0.10815524 0.077031434 0.81700003 1.1061606e-38
-0.10659905 0.077031434 0.81700003 1.1153802e-38
-0.10504286 0.077031434 0.81700003 1.0785372e-38
-0.10348667 0.077031434 0.81700003 1.0693177e-38
-0.10218 0.077220008 0.81900007 1.0235119e-38
-0.10062001 0.077220008 0.81900007 1.041951e-38
-0.099060006 0.077220008 0.81900007 1.0696439e-38
-0.097500004 0.077220008 0.81900007 1.0973026e-38
-0.096174285 0.077408575 0.82100004 1.1339299e-38
-0.094610475 0.077408575 0.82100004 1.1339299e-38
-0.093273334 0.077597149 0.82300001 1.2166899e-38
-0.091705717 0.077597149 0.82300001 1.2904464e-38
-0.090357147 0.077785715 0.82500005 1.3640929e-38
-0.089216195 0.078162864 0.82900006 1.4286298e-38
-0.087637149 0.078162864 0.82900006 1.4931691e-38
-0.086265713 0.078351431 0.83100003 1.5577061e-38
-0.08488667 0.078540005 0.83300006 1.5759996e-38
-0.083500005 0.078728572 0.83500004 1.6405365e-38
-0.082105711 0.078917138 0.83700001 1.668195e-38
-0.080896191 0.079294287 0.84100002 1.668195e-38
-0.079294287 0.079294287 0.84100002 1.7234044e-38
-0.077692382 0.079294287 0.84100002 2.0553087e-38
-0.15274572 0.079934284 0.83100003 1.9726956e-38
-0.15079905 0.07974191 0.82900006 1.8712424e-38
-0.14922002 0.07974191 0.82900006 1.7698272e-38
-0.14764096 0.07974191 0.82900006 1.7696837e-38
-0.14606191 0.07974191 0.82900006 1.7881228e-38
-0.14413428 0.079549521 0.82700002 1.6957497e-38
-0.1422143 0.079357147 0.82500005 1.6957497e-38
-0.1403019 0.079164766 0.82300001 1.6128428e-38
-0.13839714 0.078972384 0.82100004 1.6128428e-38
-0.13650002 0.07878001 0.81900007 1.6220621e-38
-0.13461047 0.078587621 0.81700003 1.5575252e-38
-0.13305429 0.078587621 0.81700003 1.5299747e-38
-0.1314981 0.078587621 0.81700003 1.5115355e-38
-0.12994191 0.078587621 0.81700003 1.4747652e-38
-0.12838572 0.078587621 0.81700003 1.4747652e-38
-0.12682953 0.078587621 0.81700003 1.4748023e-38
-0.12496667 0.07839524 0.81500006 1.4102654e-38
-0.12341429 0.07839524 0.81500006 1.47451e-38
-0.12186191 0.07839524 0.81500006 1.3823144e-38
-0.12030953 0.07839524 0.81500006 1.3914256e-38
-0.11875715 0.07839524 0.81500006 1.4098647e-38
-0.11720477 0.07839524 0.81500006 1.3914623e-38
-0.11565238 0.07839524 0.81500006 1.4006819e-38
-0.11410001 0.07839524 0.81500006 1.2719693e-38
-0.11254763 0.07839524 0.81500006 1.0783584e-38
-0.11126762 0.078587621 0.81700003 1.0784654e-38
-0.10971143 0.078587621 0.81700003 1.1153436e-38
-0.10815524 0.078587621 0.81700003 1.1244928e-38
-0.10686001 0.07878001 0.81900007 1.1337124e-38
-0.10530001 0.07878001 0.81900007 1.1797736e-38
-0.10374001 0.07878001 0.81900007 1.1613345e-38
-0.10218 0.07878001 0.81900007 1.1429688e-38
-0.10062001 0.07878001 0.81900007 1.1890666e-38
-0.099301912 0.078972384 0.82100004 1.1432199e-38
-0.097738102 0.078972384 0.82100004 1.1340004e-38
-0.096408576 0.079164766 0.82300001 1.1247452e-38
-0.094840951 0.079164766 0.82300001 1.1524039e-38
-0.093273334 0.079164766 0.82300001 1.2259446e-38
-0.091928579 0.079357147 0.82500005 1.3273598e-38
-0.090576194 0.079549521 0.82700002 1.4652567e-38
-0.089216195 0.07974191 0.82900006 1.5574523e-38
-0.087637149 0.07974191 0.82900006 1.5851122e-38
-0.086265713 0.079934284 0.83100003 1.5851122e-38
-0.08488667 0.080126666 0.83300006 1.5391214e-38
-0.083500005 0.080319054 0.83500004 1.631317e-38
-0.082105711 0.080511428 0.83700001 1.6405365e-38
-0.080896191 0.080896191 0.84100002 1.6681952e-38
-0.079294287 0.080896191 0.84100002 1.6681952e-38
-0.077877149 0.081088573 0.84300005 2.0277582e-38
-0.076271437 0.081088573 0.84300005 2.1107706e-38
-0.15274572 0.081517145 0.83100003 1.9726956e-38
-0.15116286 0.081517145 0.83100003 1.8897195e-38
-0.14958 0.081517145 0.83100003 1.8067434e-38
-0.14799714 0.081517145 0.83100003 1.7697912e-38
-0.14606191 0.081320956 0.82900006 1.7974499e-38
-0.14413428 0.08112476 0.82700002 1.6958588e-38
-0.1422143 0.080928579 0.82500005 1.6589806e-38
-0.14064285 0.080928579 0.82500005 1.649828e-38
-0.13839714 0.080536194 0.82100004 1.5945106e-38
-0.13683334 0.080536194 0.82100004 1.594512e-38
-0.13494001 0.080340005 0.81900007 1.5484142e-38
-0.13305429 0.080143809 0.81700003 1.520863e-38
-0.1314981 0.080143809 0.81700003 1.4932043e-38
-0.12994191 0.080143809 0.81700003 1.47473e-38
-0.12838572 0.080143809 0.81700003 1.47473e-38
-0.12682953 0.080143809 0.81700003 1.4747652e-38
-0.12527333 0.080143809 0.81700003 1.37335e-38
-0.12371714 0.080143809 0.81700003 1.4009348e-38
-0.12216096 0.080143809 0.81700003 1.3087392e-38
-0.12030953 0.079947628 0.81500006 1.3362894e-38
-0.11875715 0.079947628 0.81500006 1.3916068e-38
-0.11720477 0.079947628 0.81500006 1.3823149e-38
-0.11565238 0.079947628 0.81500006 1.4284127e-38
-0.11438 0.080143809 0.81700003 1.2997349e-38
-0.11282381 0.080143809 0.81700003 1.1522219e-38
-0.11126762 0.080143809 0.81700003 1.032515e-38
-0.10971143 0.080143809 0.81700003 1.1523693e-38
-0.10815524 0.080143809 0.81700003 1.1060903e-38
-0.10686001 0.080340005 0.81900007 1.1060903e-38
-0.10530001 0.080340005 0.81900007 1.1888505e-38
-0.10374001 0.080340005 0.81900007 1.2257288e-38
-0.10242952 0.080536194 0.82100004 1.235056e-38
-0.10086571 0.080536194 0.82100004 1.2903734e-38
-0.099301912 0.080536194 0.82100004 1.3734914e-38
-0.097976193 0.080732383 0.82300001 1.4011501e-38
-0.096408576 0.080732383 0.82300001 1.4103356e-38
-0.094840951 0.080732383 0.82300001 1.4472138e-38
-0.093500003 0.080928579 0.82500005 1.4748002e-38
-0.091928579 0.080928579 0.82500005 1.5024589e-38
-0.090576194 0.08112476 0.82700002 1.5299747e-38
-0.089216195 0.081320956 0.82900006 1.6037312e-38
-0.087637149 0.081320956 0.82900006 1.5667803e-38
-0.086265713 0.081517145 0.83100003 1.5483412e-38
-0.08488667 0.081713334 0.83300006 1.5575242e-38
-0.083500005 0.08190953 0.83500004 1.6220611e-38
-0.082105711 0.082105711 0.83700001 1.6220974e-38
-0.081088573 0.082694285 0.84300005 1.7050735e-38
-0.079482861 0.082694285 0.84300005 1.6958189e-38
-0.077877149 0.082694285 0.84300005 2.0369427e-38
-0.076452382 0.082890481 0.84500003 2.1200257e-38
-0.15274572 0.083100006 0.83100003 1.9726956e-38
-0.15116286 0.083100006 0.83100003 1.9358173e-38
-0.14958 0.083100006 0.83100003 1.7790847e-38
-0.14799714 0.083100006 0.83100003 1.7513878e-38
-0.14641428 0.083100006 0.83100003 1.7698269e-38
-0.14448287 0.082900003 0.82900006 1.7235879e-38
-0.14255904 0.082699999 0.82700002 1.6406118e-38
-0.14064285 0.082500003 0.82500005 1.6681966e-38
-0.1387343 0.0823 0.82300001 1.5944401e-38
-0.13683334 0.082100004 0.82100004 1.5669602e-38
-0.13494001 0.081900008 0.81900007 1.5577407e-38
-0.13338001 0.081900008 0.81900007 1.5669266e-38
-0.13182001 0.081900008 0.81900007 1.5023897e-38
-0.13026001 0.081900008 0.81900007 1.4839847e-38
-0.1287 0.081900008 0.81900007 1.4839847e-38
-0.12682953 0.081700005 0.81700003 1.4839119e-38
-0.12527333 0.081700005 0.81700003 1.3917162e-38
-0.12371714 0.081700005 0.81700003 1.3733477e-38
-0.12216096 0.081700005 0.81700003 1.2811521e-38
-0.12060476 0.081700005 0.81700003 1.2995544e-38
-0.11875715 0.081500001 0.81500006 1.3087739e-38
-0.11720477 0.081500001 0.81500006 1.2995181e-38
-0.11593619 0.081700005 0.81700003 1.3824942e-38
-0.11438 0.081700005 0.81700003 1.2905885e-38
-0.11282381 0.081700005 0.81700003 1.1246363e-38
-0.11126762 0.081700005 0.81700003 1.0415884e-38
-0.10971143 0.081700005 0.81700003 1.1245644e-38
-0.10842001 0.081900008 0.81900007 1.0876852e-38
-0.10686001 0.081900008 0.81900007 1.1522221e-38
-0.10530001 0.081900008 0.81900007 1.2626414e-38
-0.10399334 0.082100004 0.82100004 1.2995196e-38
-0.10242952 0.082100004 0.82100004 1.4007197e-38
-0.10086571 0.082100004 0.82100004 1.4099393e-38
-0.099301912 0.082100004 0.82100004 1.4378143e-38
-0.097976193 0.0823 0.82300001 1.4746926e-38
-0.096408576 0.0823 0.82300001 1.4746923e-38
-0.094840951 0.0823 0.82300001 1.5207901e-38
-0.093500003 0.082500003 0.82500005 1.5115706e-38
-0.091928579 0.082500003 0.82500005 1.5300097e-38
-0.090576194 0.082699999 0.82700002 1.5116432e-38
-0.089216195 0.082900003 0.82900006 1.5300823e-38
-0.087637149 0.082900003 0.82900006 1.5484135e-38
-0.086265713 0.083100006 0.83100003 1.5484135e-38
-0.08488667 0.083300002 0.83300006 1.603622e-38
-0.083700001 0.083700001 0.83700001 1.6128416e-38
-0.082301915 0.083899997 0.83900005 1.5759993e-38
-0.081088573 0.084300004 0.84300005 1.6497558e-38
-0.079482861 0.084300004 0.84300005 1.6773069e-38
-0.078061908 0.084500007 0.84500003 2.0276503e-38
-0.076452382 0.084500007 0.84500003 2.1291731e-38
-0.15384857 0.085294284 0.83700001 1.963476e-38
-0.15116286 0.084682859 0.83100003 1.8066731e-38
-0.14958 0.084682859 0.83100003 1.7513557e-38
-0.14799714 0.084682859 0.83100003 1.7605711e-38
-0.14641428 0.084682859 0.83100003 1.7697906e-38
-0.14448287 0.084479049 0.82900006 1.732949e-38
-0.14255904 0.084275246 0.82700002 1.6130946e-38
-0.14064285 0.084071428 0.82500005 1.5393398e-38
-0.1387343 0.083867624 0.82300001 1.4010464e-38
-0.13683334 0.083663814 0.82100004 1.4378128e-38
-0.13526952 0.083663814 0.82100004 1.4839106e-38
-0.13338001 0.083460003 0.81900007 1.5391237e-38
-0.13182001 0.083460003 0.81900007 1.5391237e-38
-0.1305781 0.083663814 0.82100004 1.5207548e-38
-0.1287 0.083460003 0.81900007 1.5115353e-38
-0.12714 0.083460003 0.81900007 1.4839469e-38
-0.12527333 0.083256193 0.81700003 1.4378491e-38
-0.12371714 0.083256193 0.81700003 1.419409e-38
-0.12216096 0.083256193 0.81700003 1.3917503e-38
-0.12060476 0.083256193 0.81700003 1.3917503e-38
-0.11904858 0.083256193 0.81700003 1.3825307e-38
-0.11749239 0.083256193 0.81700003 1.3825305e-38
-0.11593619 0.083256193 0.81700003 1.4009696e-38
-0.11438 0.083256193 0.81700003 1.3734198e-38
-0.11282381 0.083256193 0.81700003 1.3734198e-38
-0.11126762 0.083256193 0.81700003 1.3733494e-38
-0.10971143 0.083256193 0.81700003 1.3917886e-38
-0.10842001 0.083460003 0.81900007 1.4286301e-38
-0.10712095 0.083663814 0.82100004 1.4655083e-38
-0.10555715 0.083663814 0.82100004 1.4746573e-38
-0.10399334 0.083663814 0.82100004 1.5207551e-38
-0.10242952 0.083663814 0.82100004 1.4838417e-38
-0.10086571 0.083663814 0.82100004 1.4838417e-38
-0.09954381 0.083867624 0.82300001 1.4838766e-38
-0.097976193 0.083867624 0.82300001 1.5023157e-38
-0.096408576 0.083867624 0.82300001 1.5023866e-38
-0.095071435 0.084071428 0.82500005 1.5208257e-38
-0.093500003 0.084071428 0.82500005 1.5207901e-38
-0.092151433 0.084275246 0.82700002 1.5392293e-38
-0.090576194 0.084275246 0.82700002 1.5024236e-38
-0.089216195 0.084479049 0.82900006 1.5300823e-38
-0.087637149 0.084479049 0.82900006 1.5576333e-38
-0.086265713 0.084682859 0.83100003 1.5576333e-38
-0.085090473 0.085090473 0.83500004 1.5852192e-38
-0.083700001 0.085294284 0.83700001 1.6405365e-38
-0.082301915 0.085498095 0.83900005 1.6128776e-38
-0.081280954 0.086109526 0.84500003 1.7235123e-38
-0.079671435 0.086109526 0.84500003 1.7235126e-38
-0.078061908 0.086109526 0.84500003 1.9632213e-38
-0.076633334 0.086313337 0.84700006 2.1383567e-38
-0.15384857 0.086888574 0.83700001 1.9819511e-38
-0.15152667 0.086473338 0.83300006 1.7974863e-38
-0.14994001 0.086473338 0.83300006 1.7790472e-38
-0.14799714 0.086265713 0.83100003 1.8342555e-38
-0.14641428 0.086265713 0.83100003 1.7973773e-38
-0.14448287 0.086058103 0.82900006 1.7421336e-38
-0.14255904 0.085850477 0.82700002 1.6960358e-38
-0.14098382 0.085850477 0.82700002 1.4750184e-38
-0.1387343 0.085435241 0.82300001 1.2076511e-38
-0.13683334 0.085227624 0.82100004 1.3362897e-38
-0.13526952 0.085227624 0.82100004 1.4008266e-38
-0.13338001 0.085020006 0.81900007 1.5296507e-38
-0.13182001 0.085020006 0.81900007 1.5296507e-38
-0.1305781 0.085227624 0.82100004 1.4928814e-38
-0.1290143 0.085227624 0.82100004 1.4928814e-38
-0.12714 0.085020006 0.81900007 1.4654377e-38
-0.12558001 0.085020006 0.81900007 1.4469986e-38
-0.12402001 0.085020006 0.81900007 1.4930226e-38
-0.12216096 0.08481238 0.81700003 1.4930226e-38
-0.12060476 0.08481238 0.81700003 1.4839109e-38
-0.11904858 0.08481238 0.81700003 1.4470326e-38
-0.11749239 0.08481238 0.81700003 1.4101191e-38
-0.11593619 0.08481238 0.81700003 1.4193386e-38
-0.11438 0.08481238 0.81700003 1.4377439e-38
-0.11282381 0.08481238 0.81700003 1.4285243e-38
-0.11126762 0.08481238 0.81700003 1.4560005e-38
-0.10971143 0.08481238 0.81700003 1.5389766e-38
-0.10842001 0.085020006 0.81900007 1.4930954e-38
-0.10712095 0.085227624 0.82100004 1.4930954e-38
-0.10555715 0.085227624 0.82100004 1.4563261e-38
-0.10399334 0.085227624 0.82100004 1.4471065e-38
-0.10267905 0.085435241 0.82300001 1.4561477e-38
-0.10111143 0.085435241 0.82300001 1.4653672e-38
-0.09954381 0.085435241 0.82300001 1.4653658e-38
-0.097976193 0.085435241 0.82300001 1.4745854e-38
-0.096642859 0.085642859 0.82500005 1.4930954e-38
-0.095071435 0.085642859 0.82500005 1.5115346e-38
-0.093500003 0.085642859 0.82500005 1.5023513e-38
-0.092151433 0.085850477 0.82700002 1.5115708e-38
-0.090795241 0.086058103 0.82900006 1.5023513e-38
-0.089216195 0.086058103 0.82900006 1.5484491e-38
-0.087848574 0.086265713 0.83100003 1.5576331e-38
-0.086473338 0.086473338 0.83300006 1.5391939e-38
-0.085090473 0.086680956 0.83500004 1.5667082e-38
-0.083700001 0.086888574 0.83700001 1.6035864e-38
-0.082301915 0.087096192 0.83900005 1.5852542e-38
-0.081088573 0.087511435 0.84300005 1.6590107e-38
-0.079671435 0.087719053 0.84500003 1.7235126e-38
-0.078061908 0.087719053 0.84500003 1.9540017e-38
-0.076633334 0.087926671 0.84700006 2.1383939e-38
-0.15581429 0.088694289 0.83900005 2.1939638e-38
-0.15421619 0.088694289 0.83900005 2.0464508e-38
-0.15225428 0.088482857 0.83700001 1.8712448e-38
-0.1503 0.088271432 0.83500004 1.76061e-38
-0.14870952 0.088271432 0.83500004 1.7975209e-38
-0.14676668 0.088060006 0.83300006 1.7698622e-38
-0.14483142 0.087848574 0.83100003 1.7421336e-38
-0.14290382 0.087637149 0.82900006 1.7144749e-38
-0.14132477 0.087637149 0.82900006 1.5210083e-38
-0.1387343 0.087002859 0.82300001 1.189104e-38
-0.13683334 0.086791433 0.82100004 1.2443121e-38
-0.13526952 0.086791433 0.82100004 1.2535317e-38
-0.13370572 0.086791433 0.82100004 1.3364345e-38
-0.13214192 0.086791433 0.82100004 1.345654e-38
-0.1305781 0.086791433 0.82100004 1.2442788e-38
-0.1290143 0.086791433 0.82100004 1.2350592e-38
-0.12714 0.086580001 0.81900007 1.2534618e-38
-0.12558001 0.086580001 0.81900007 1.2995596e-38
-0.12402001 0.086580001 0.81900007 1.3271417e-38
-0.12246001 0.086580001 0.81900007 1.36402e-38
-0.12060476 0.086368576 0.81700003 1.4193021e-38
-0.11904858 0.086368576 0.81700003 1.4746194e-38
-0.11749239 0.086368576 0.81700003 1.4653658e-38
-0.11593619 0.086368576 0.81700003 1.4745854e-38
-0.11438 0.086368576 0.81700003 1.4837713e-38
-0.11282381 0.086368576 0.81700003 1.4745518e-38
-0.11126762 0.086368576 0.81700003 1.4929517e-38
-0.10971143 0.086368576 0.81700003 1.5021712e-38
-0.10842001 0.086580001 0.81900007 1.4746563e-38
-0.10712095 0.086791433 0.82100004 1.4654367e-38
-0.10555715 0.086791433 0.82100004 1.4562182e-38
-0.10399334 0.086791433 0.82100004 1.4562182e-38
-0.10267905 0.087002859 0.82300001 1.4653672e-38
-0.10111143 0.087002859 0.82300001 1.4561477e-38
-0.09954381 0.087002859 0.82300001 1.4836971e-38
-0.098214291 0.087214291 0.82500005 1.4560384e-38
-0.096642859 0.087214291 0.82500005 1.5206106e-38
-0.095301904 0.087425716 0.82700002 1.5298302e-38
-0.093726665 0.087425716 0.82700002 1.5299021e-38
-0.092151433 0.087425716 0.82700002 1.5299021e-38
-0.090795241 0.087637149 0.82900006 1.5115708e-38
-0.089431427 0.087848574 0.83100003 1.5484491e-38
-0.087848574 0.087848574 0.83100003 1.5484488e-38
-0.086473338 0.088060006 0.83300006 1.5392293e-38
-0.085090473 0.088271432 0.83500004 1.5759996e-38
-0.083700001 0.088482857 0.83700001 1.6220974e-38
-0.082301915 0.088694289 0.83900005 1.6036933e-38
-0.081088573 0.089117147 0.84300005 1.6405716e-38
-0.079671435 0.08932858 0.84500003 1.7050735e-38
-0.078246668 0.089540005 0.84700006 1.9171234e-38
-0.076814294 0.08975143 0.84900004 2.0185416e-38
-0.15581429 0.090292387 0.83900005 2.1479386e-38
-0.15421619 0.090292387 0.83900005 2.0649625e-38
-0.15225428 0.090077139 0.83700001 2.0187578e-38
-0.15066001 0.090077139 0.83700001 1.7790492e-38
-0.1490657 0.090077139 0.83700001 1.7882661e-38
-0.14711905 0.089861907 0.83500004 1.7513878e-38
-0.14483142 0.089431427 0.83100003 1.7329141e-38
-0.14324857 0.089431427 0.83100003 1.7052554e-38
-0.14132477 0.089216195 0.82900006 1.557815e-38
-0.1387343 0.088570476 0.82300001 1.3273259e-38
-0.13683334 0.088355243 0.82100004 1.3457614e-38
-0.13526952 0.088355243 0.82100004 1.3549809e-38
-0.13370572 0.088355243 0.82100004 1.2997751e-38
-0.13214192 0.088355243 0.82100004 1.2628968e-38
-0.1308962 0.088570476 0.82300001 1.1062712e-38
-0.1290143 0.088355243 0.82100004 1.1062712e-38
-0.12745048 0.088355243 0.82100004 1.1243866e-38
-0.12588666 0.088355243 0.82100004 1.1889236e-38
-0.12432285 0.088355243 0.82100004 1.2072877e-38
-0.12246001 0.088140003 0.81900007 1.2994833e-38
-0.12090001 0.088140003 0.81900007 1.3916787e-38
-0.11904858 0.087924771 0.81700003 1.4469961e-38
-0.11749239 0.087924771 0.81700003 1.4929517e-38
-0.11593619 0.087924771 0.81700003 1.4929517e-38
-0.11466001 0.088140003 0.81900007 1.4653672e-38
-0.11310001 0.088140003 0.81900007 1.4561477e-38
-0.11154001 0.088140003 0.81900007 1.465473e-38
-0.10998001 0.088140003 0.81900007 1.465473e-38
-0.10868476 0.088355243 0.82100004 1.4469986e-38
-0.10712095 0.088355243 0.82100004 1.4469986e-38
-0.10555715 0.088355243 0.82100004 1.4377778e-38
-0.10399334 0.088355243 0.82100004 1.4654365e-38
-0.10267905 0.088570476 0.82300001 1.4838057e-38
-0.10111143 0.088570476 0.82300001 1.4930252e-38
-0.09954381 0.088570476 0.82300001 1.5297589e-38
-0.098214291 0.088785723 0.82500005 1.5205393e-38
-0.096642859 0.088785723 0.82500005 1.548234e-38
-0.095301904 0.089000955 0.82700002 1.5390144e-38
-0.093726665 0.089000955 0.82700002 1.5297583e-38
-0.092374288 0.089216195 0.82900006 1.5389779e-38
-0.090795241 0.089216195 0.82900006 1.5299744e-38
-0.089431427 0.089431427 0.83100003 1.5391939e-38
-0.087848574 0.089431427 0.83100003 1.5575605e-38
-0.086473338 0.089646667 0.83300006 1.56678e-38
-0.085090473 0.089861907 0.83500004 1.6128425e-38
-0.083899997 0.090292387 0.83900005 1.6128425e-38
-0.082498096 0.090507619 0.84100002 1.6312807e-38
-0.081088573 0.090722859 0.84300005 1.6497198e-38
-0.079860002 0.091153339 0.84700006 1.695782e-38
-0.078246668 0.091153339 0.84700006 1.7971972e-38
-0.076814294 0.091368571 0.84900004 1.999956e-38
-0.15581429 0.091890484 0.83900005 2.2031481e-38
-0.15421619 0.091890484 0.83900005 2.120172e-38
-0.15225428 0.09167143 0.83700001 2.0556363e-38
-0.15066001 0.09167143 0.83700001 1.8067081e-38
-0.1490657 0.09167143 0.83700001 1.7698991e-38
-0.14711905 0.091452383 0.83500004 1.7422404e-38
-0.14518 0.091233335 0.83300006 1.7514248e-38
-0.14324857 0.091014288 0.83100003 1.6684487e-38
-0.14132477 0.090795241 0.82900006 1.5485601e-38
-0.13907143 0.090357147 0.82500005 1.4840231e-38
-0.13716668 0.0901381 0.82300001 1.4656523e-38
-0.13559905 0.0901381 0.82300001 1.5209696e-38
-0.13370572 0.089919046 0.82100004 1.5025315e-38
-0.13214192 0.089919046 0.82100004 1.3918967e-38
-0.1308962 0.0901381 0.82300001 1.3456205e-38
-0.12932856 0.0901381 0.82300001 1.2903032e-38
-0.12745048 0.089919046 0.82100004 1.3178895e-38
-0.12588666 0.089919046 0.82100004 1.3178895e-38
-0.12432285 0.089919046 0.82100004 1.3087056e-38
-0.12275905 0.089919046 0.82100004 1.299486e-38
-0.12090001 0.089700006 0.81900007 1.4009701e-38
-0.11934 0.089700006 0.81900007 1.4194093e-38
-0.11778001 0.089700006 0.81900007 1.4654362e-38
-0.11622001 0.089700006 0.81900007 1.4746557e-38
-0.11466001 0.089700006 0.81900007 1.4654377e-38
-0.11310001 0.089700006 0.81900007 1.4009008e-38
-0.11154001 0.089700006 0.81900007 1.4470339e-38
-0.11024858 0.089919046 0.82100004 1.4470339e-38
-0.10868476 0.089919046 0.82100004 1.4378162e-38
-0.10712095 0.089919046 0.82100004 1.419377e-38
-0.10555715 0.089919046 0.82100004 1.4286298e-38
-0.10424667 0.0901381 0.82300001 1.4655081e-38
-0.10267905 0.0901381 0.82300001 1.4745125e-38
-0.10111143 0.0901381 0.82300001 1.4745125e-38
-0.099785723 0.090357147 0.82500005 1.4376708e-38
-0.098214291 0.090357147 0.82500005 1.3731339e-38
-0.096642859 0.090357147 0.82500005 1.3270009e-38
-0.095301904 0.090576194 0.82700002 1.2809031e-38
-0.093726665 0.090576194 0.82700002 1.2442407e-38
-0.092374288 0.090795241 0.82900006 1.3733145e-38
-0.090795241 0.090795241 0.82900006 1.4562553e-38
-0.089431427 0.091014288 0.83100003 1.5207922e-38
-0.088060006 0.091233335 0.83300006 1.5392295e-38
-0.086680956 0.091452383 0.83500004 1.5392295e-38
-0.085090473 0.091452383 0.83500004 1.5944037e-38
-0.083899997 0.091890484 0.83900005 1.5944037e-38
-0.082498096 0.092109524 0.84100002 1.6312807e-38
-0.081280954 0.092547618 0.84500003 1.6405003e-38
-0.079671435 0.092547618 0.84500003 1.6312457e-38
-0.078246668 0.092766672 0.84700006 1.7879782e-38
-0.076814294 0.092985712 0.84900004 1.9723695e-38
-0.075374283 0.093204759 0.85100001 2.3504436e-38
-0.15618572 0.093711428 0.84100002 2.2031846e-38
-0.15458381 0.093711428 0.84100002 2.2031846e-38
-0.1526181 0.093488574 0.83900005 2.0741473e-38
-0.15102001 0.093488574 0.83900005 1.7791213e-38
-0.14942192 0.093488574 0.83900005 1.7698639e-38
-0.14747143 0.093265712 0.83700001 1.7698639e-38
-0.14518 0.092820004 0.83300006 1.7422415e-38
-0.14359334 0.092820004 0.83300006 1.668485e-38
-0.14132477 0.092374288 0.82900006 1.5393395e-38
-0.13907143 0.091928579 0.82500005 1.3641678e-38
-0.13716668 0.091705717 0.82300001 1.4192668e-38
-0.13559905 0.091705717 0.82300001 1.5575602e-38
-0.13403143 0.091705717 0.82300001 1.5392682e-38
-0.13246381 0.091705717 0.82300001 1.4470726e-38
-0.1308962 0.091705717 0.82300001 1.4928814e-38
-0.12932856 0.091705717 0.82300001 1.4560032e-38
-0.12776095 0.091705717 0.82300001 1.4284883e-38
-0.12619334 0.091705717 0.82300001 1.4284883e-38
-0.12462571 0.091705717 0.82300001 1.4192697e-38
-0.12275905 0.091482863 0.82100004 1.3823914e-38
-0.12119524 0.091482863 0.82100004 1.456183e-38
-0.11963143 0.091482863 0.82100004 1.4469634e-38
-0.11806762 0.091482863 0.82100004 1.4471065e-38
-0.11622001 0.091260001 0.81900007 1.4471065e-38
-0.11466001 0.091260001 0.81900007 1.4746573e-38
-0.11310001 0.091260001 0.81900007 1.4562182e-38
-0.11181239 0.091482863 0.82100004 1.456183e-38
-0.11024858 0.091482863 0.82100004 1.456183e-38
-0.10894953 0.091705717 0.82300001 1.4286688e-38
-0.1073819 0.091705717 0.82300001 1.3733514e-38
-0.10581429 0.091705717 0.82300001 1.3087776e-38
-0.10424667 0.091705717 0.82300001 1.3456558e-38
-0.10267905 0.091705717 0.82300001 1.3639513e-38
-0.10111143 0.091705717 0.82300001 1.3547318e-38
-0.099785723 0.091928579 0.82500005 1.3179972e-38
-0.098214291 0.091928579 0.82500005 1.2718993e-38
-0.096877143 0.092151433 0.82700002 1.1982507e-38
-0.095532387 0.092374288 0.82900006 1.1613725e-38
-0.093953341 0.092374288 0.82900006 1.1429683e-38
-0.092374288 0.092374288 0.82900006 1.3457986e-38
-0.091014288 0.092597149 0.83100003 1.4287045e-38
-0.089431427 0.092597149 0.83100003 1.502461e-38
-0.088060006 0.092820004 0.83300006 1.5392293e-38
-0.086680956 0.093042865 0.83500004 1.5484488e-38
-0.085294284 0.093265712 0.83700001 1.5852192e-38
-0.083899997 0.093488574 0.83900005 1.6128779e-38
-0.082498096 0.093711428 0.84100002 1.6220261e-38
-0.081088573 0.09393429 0.84300005 1.6128065e-38
-0.079671435 0.094157144 0.84500003 1.6312429e-38
-0.078246668 0.094380006 0.84700006 1.7787559e-38
-0.076814294 0.094602861 0.84900004 1.9723329e-38
-0.075197145 0.094602861 0.84900004 2.3411154e-38
-0.15531905 0.095766664 0.84500003 2.2399913e-38
-0.15298191 0.095313333 0.84100002 2.1293202e-38
-0.15102001 0.095086671 0.83900005 1.797416e-38
-0.14942192 0.095086671 0.83900005 1.7973791e-38
-0.14747143 0.094860002 0.83700001 1.8065987e-38
-0.14552858 0.094633341 0.83500004 1.7514234e-38
-0.14359334 0.094406672 0.83300006 1.6868865e-38
-0.14132477 0.093953341 0.82900006 1.5669979e-38
-0.13940857 0.093726665 0.82700002 1.2811915e-38
-0.13750002 0.093500003 0.82500005 1.2996645e-38
-0.13592857 0.093500003 0.82500005 1.225908e-38
-0.13403143 0.093273334 0.82300001 1.2442788e-38
-0.13246381 0.093273334 0.82300001 1.3272548e-38
-0.1308962 0.093273334 0.82300001 1.3640578e-38
-0.12932856 0.093273334 0.82300001 1.3456187e-38
-0.12776095 0.093273334 0.82300001 1.3456184e-38
-0.12619334 0.093273334 0.82300001 1.354838e-38
-0.12462571 0.093273334 0.82300001 1.318069e-38
-0.1230581 0.093273334 0.82300001 1.1060191e-38
-0.12119524 0.093046673 0.82100004 1.1705223e-38
-0.11963143 0.093046673 0.82100004 1.2627179e-38
-0.11806762 0.093046673 0.82100004 1.2626801e-38
-0.11650381 0.093046673 0.82100004 1.2534605e-38
-0.11494 0.093046673 0.82100004 1.2719695e-38
-0.11337619 0.093046673 0.82100004 1.2996282e-38
-0.11181239 0.093046673 0.82100004 1.2903748e-38
-0.11051714 0.093273334 0.82300001 1.2811552e-38
-0.10894953 0.093273334 0.82300001 1.2627166e-38
-0.1073819 0.093273334 0.82300001 1.2627166e-38
-0.10581429 0.093273334 0.82300001 1.1981093e-38
-0.10424667 0.093273334 0.82300001 1.1612311e-38
-0.10267905 0.093273334 0.82300001 1.1887806e-38
-0.10135715 0.093500003 0.82500005 1.1426828e-38
-0.099785723 0.093500003 0.82500005 1.2165092e-38
-0.098214291 0.093500003 0.82500005 1.2257288e-38
-0.096877143 0.093726665 0.82700002 1.2350937e-38
-0.095532387 0.093953341 0.82900006 1.2258741e-38
-0.093953341 0.093953341 0.82900006 1.2627166e-38
-0.092374288 0.093953341 0.82900006 1.4010101e-38
-0.091014288 0.094179995 0.83100003 1.4930262e-38
-0.089431427 0.094179995 0.83100003 1.539124e-38
-0.088060006 0.094406672 0.83300006 1.5483406e-38
-0.086680956 0.094633341 0.83500004 1.5759993e-38
-0.085498095 0.095086671 0.83900005 1.5761425e-38
-0.084100001 0.095313333 0.84100002 1.5945817e-38
-0.082694285 0.095540009 0.84300005 1.4653325e-38
-0.081088573 0.095540009 0.84300005 1.3823564e-38
-0.079860002 0.09599334 0.84700006 1.4099749e-38
-0.078246668 0.09599334 0.84700006 1.7695378e-38
-0.076814294 0.096220002 0.84900004 1.9815522e-38
-0.075197145 0.096220002 0.84900004 2.322676e-38
-0.15495144 0.097145721 0.84300005 2.239991e-38
-0.15298191 0.096915238 0.84100002 2.1477225e-38
-0.15138 0.096915238 0.84100002 1.8158182e-38
-0.14942192 0.096684769 0.83900005 1.8341123e-38
-0.14782383 0.096684769 0.83900005 1.8433319e-38
-0.14587715 0.096454285 0.83700001 1.7236934e-38
-0.14393811 0.096223809 0.83500004 1.6868151e-38
-0.14166573 0.095762856 0.83100003 1.5947282e-38
-0.13974573 0.095532387 0.82900006 1.3181413e-38
-0.13783334 0.095301904 0.82700002 1.327253e-38
-0.13592857 0.095071435 0.82500005 1.2166183e-38
-0.13403143 0.094840951 0.82300001 1.1522608e-38
-0.13246381 0.094840951 0.82300001 1.1614804e-38
-0.13121429 0.095071435 0.82500005 1.1798468e-38
-0.12964287 0.095071435 0.82500005 1.1798468e-38
-0.12776095 0.094840951 0.82300001 1.0967606e-38
-0.12619334 0.094840951 0.82300001 1.2719323e-38
-0.12462571 0.094840951 0.82300001 1.2260179e-38
-0.1230581 0.094840951 0.82300001 1.0692853e-38
-0.12149048 0.094840951 0.82300001 1.0968358e-38
-0.11992285 0.094840951 0.82300001 1.115275e-38
-0.11835524 0.094840951 0.82300001 1.1427527e-38
-0.11678762 0.094840951 0.82300001 1.2441679e-38
-0.11522 0.094840951 0.82300001 1.1892086e-38
-0.11365238 0.094840951 0.82300001 1.179989e-38
-0.11208476 0.094840951 0.82300001 1.1522963e-38
-0.11051714 0.094840951 0.82300001 1.1522963e-38
-0.10894953 0.094840951 0.82300001 1.1520802e-38
-0.1073819 0.094840951 0.82300001 1.1889584e-38
-0.10581429 0.094840951 0.82300001 1.1980352e-38
-0.10424667 0.094840951 0.82300001 1.1703765e-38
-0.10292857 0.095071435 0.82500005 1.1520813e-38
-0.10135715 0.095071435 0.82500005 1.17974e-38
-0.099785723 0.095071435 0.82500005 1.235019e-38
-0.098214291 0.095071435 0.82500005 1.2718972e-38
-0.097111441 0.095532387 0.82900006 1.3547678e-38
-0.095532387 0.095532387 0.82900006 1.3455482e-38
-0.093953341 0.095532387 0.82900006 1.4284863e-38
-0.092374288 0.095532387 0.82900006 1.5206819e-38
-0.091014288 0.095762856 0.83100003 1.5391237e-38
-0.089646667 0.09599334 0.83300006 1.5391237e-38
-0.088271432 0.096223809 0.83500004 1.4838403e-38
-0.086680956 0.096223809 0.83500004 1.5668163e-38
-0.085498095 0.096684769 0.83900005 1.5486283e-38
-0.084100001 0.096915238 0.84100002 1.4840914e-38
-0.082694285 0.097145721 0.84300005 1.3365068e-38
-0.081088573 0.097145721 0.84300005 1.3457263e-38
-0.079860002 0.097606674 0.84700006 1.3824954e-38
-0.078431435 0.097837143 0.84900004 1.7881562e-38
-0.076814294 0.097837143 0.84900004 1.9632566e-38
-0.15495144 0.098751433 0.84300005 2.2584292e-38
-0.15298191 0.098517142 0.84100002 2.1570128e-38
-0.15138 0.098517142 0.84100002 1.815889e-38
-0.14942192 0.098282859 0.83900005 1.8064536e-38
-0.14782383 0.098282859 0.83900005 1.8156732e-38
-0.14587715 0.098048575 0.83700001 1.797377e-38
-0.14393811 0.097814284 0.83500004 1.6867423e-38
-0.14166573 0.097345717 0.83100003 1.5855429e-38
-0.13974573 0.097111441 0.82900006 1.5210059e-38
-0.13783334 0.096877143 0.82700002 1.4656196e-38
-0.1362581 0.096877143 0.82700002 1.4656196e-38
-0.13435715 0.096642859 0.82500005 1.4195176e-38
-0.13278572 0.096642859 0.82500005 1.2996633e-38
-0.13121429 0.096642859 0.82500005 1.2904464e-38
-0.12964287 0.096642859 0.82500005 1.2443486e-38
-0.12807143 0.096642859 0.82500005 1.2443121e-38
-0.12650001 0.096642859 0.82500005 1.2627512e-38
-0.12462571 0.096408576 0.82300001 1.2535684e-38
-0.1230581 0.096408576 0.82300001 1.1521532e-38
-0.12149048 0.096408576 0.82300001 1.1797389e-38
-0.11992285 0.096408576 0.82300001 1.2350563e-38
-0.11835524 0.096408576 0.82300001 1.2166538e-38
-0.11678762 0.096408576 0.82300001 1.2258734e-38
-0.11522 0.096408576 0.82300001 1.2167225e-38
-0.11365238 0.096408576 0.82300001 1.2167225e-38
-0.11208476 0.096408576 0.82300001 1.2075069e-38
-0.11051714 0.096408576 0.82300001 1.2443851e-38
-0.10894953 0.096408576 0.82300001 1.2719356e-38
-0.1073819 0.096408576 0.82300001 1.2995943e-38
-0.10581429 0.096408576 0.82300001 1.2995932e-38
-0.1045 0.096642859 0.82500005 1.2811541e-38
-0.10292857 0.096642859 0.82500005 1.382604e-38
-0.10135715 0.096642859 0.82500005 1.3918236e-38
-0.099785723 0.096642859 0.82500005 1.3181392e-38
-0.098452382 0.096877143 0.82700002 1.3273588e-38
-0.097111441 0.097111441 0.82900006 1.3181037e-38
-0.095762856 0.097345717 0.83100003 1.2996645e-38
-0.094179995 0.097345717 0.83100003 1.4193386e-38
-0.092597149 0.097345717 0.83100003 1.5299734e-38
-0.091014288 0.097345717 0.83100003 1.557455e-38
-0.089646667 0.097580008 0.83300006 1.6035528e-38
-0.088271432 0.097814284 0.83500004 1.4932043e-38
-0.086888574 0.098048575 0.83700001 1.4194478e-38
-0.085498095 0.098282859 0.83900005 1.2719695e-38
-0.084100001 0.098517142 0.84100002 1.2166522e-38
-0.082890481 0.098985717 0.84500003 1.2810102e-38
-0.081280954 0.098985717 0.84500003 1.4469623e-38
-0.080048576 0.099454284 0.84900004 1.4748026e-38
-0.078431435 0.099454284 0.84900004 1.7882677e-38
-0.076814294 0.099454284 0.84900004 1.9448525e-38
-0.15495144 0.10035715 0.84300005 2.2400626e-38
-0.15334573 0.10035715 0.84300005 2.1662332e-38
-0.15138 0.10011905 0.84100002 1.8435485e-38
-0.14942192 0.099880956 0.83900005 1.7880875e-38
-0.14782383 0.099880956 0.83900005 1.7973071e-38
-0.14587715 0.099642858 0.83700001 1.8250007e-38
-0.14393811 0.099404767 0.83500004 1.6959268e-38
-0.14200668 0.099166676 0.83300006 1.5302265e-38
-0.14008287 0.098928571 0.83100003 1.4380308e-38
-0.13816668 0.09869048 0.82900006 1.4285972e-38
-0.1362581 0.098452382 0.82700002 1.474695e-38
-0.13435715 0.098214291 0.82500005 1.4746573e-38
-0.13278572 0.098214291 0.82500005 1.354803e-38
-0.13121429 0.098214291 0.82500005 1.3364366e-38
-0.12964287 0.098214291 0.82500005 1.2811192e-38
-0.12807143 0.098214291 0.82500005 1.2627161e-38
-0.12650001 0.098214291 0.82500005 1.2627161e-38
-0.12492857 0.098214291 0.82500005 1.3179984e-38
-0.12335715 0.098214291 0.82500005 1.2719006e-38
-0.12178572 0.098214291 0.82500005 1.2901578e-38
-0.11992285 0.097976193 0.82300001 1.2993774e-38
-0.11835524 0.097976193 0.82300001 1.2626078e-38
-0.11707143 0.098214291 0.82500005 1.2718273e-38
-0.11550001 0.098214291 0.82500005 1.2535657e-38
-0.11392858 0.098214291 0.82500005 1.2443462e-38
-0.11235715 0.098214291 0.82500005 1.2259094e-38
-0.11078572 0.098214291 0.82500005 1.2535681e-38
-0.10921429 0.098214291 0.82500005 1.2812271e-38
-0.10764287 0.098214291 0.82500005 1.2996662e-38
-0.10607143 0.098214291 0.82500005 1.382497e-38
-0.1045 0.098214291 0.82500005 1.3917165e-38
-0.10292857 0.098214291 0.82500005 1.4102657e-38
-0.10135715 0.098214291 0.82500005 1.3641678e-38
-0.10002762 0.098452382 0.82700002 1.2904818e-38
-0.098452382 0.098452382 0.82700002 1.2997014e-38
-0.097111441 0.09869048 0.82900006 1.3089209e-38
-0.095762856 0.098928571 0.83100003 1.3365796e-38
-0.094179995 0.098928571 0.83100003 1.4194826e-38
-0.092597149 0.098928571 0.83100003 1.4932391e-38
-0.091233335 0.099166676 0.83300006 1.5206123e-38
-0.089646667 0.099166676 0.83300006 1.5390514e-38
-0.088482857 0.099642858 0.83700001 1.5023513e-38
-0.086888574 0.099642858 0.83700001 1.3087405e-38
-0.085498095 0.099880956 0.83900005 1.2903341e-38
-0.084100001 0.10011905 0.84100002 1.2995537e-38
-0.082890481 0.10059524 0.84500003 1.2902998e-38
-0.081473336 0.10083334 0.84700006 1.4562519e-38
-0.080048576 0.10107143 0.84900004 1.5300837e-38
-0.078431435 0.10107143 0.84900004 1.7882314e-38
-0.15495144 0.10196286 0.84300005 2.2307702e-38
-0.15334573 0.10196286 0.84300005 2.1847089e-38
-0.15138 0.10172095 0.84100002 1.8804634e-38
-0.1497781 0.10172095 0.84100002 1.7789418e-38
-0.14817619 0.10172095 0.84100002 1.7420636e-38
-0.14622572 0.10147905 0.83900005 1.7881577e-38
-0.14393811 0.10099524 0.83500004 1.7051817e-38
-0.14200668 0.10075334 0.83300006 1.5578491e-38
-0.14008287 0.10051143 0.83100003 1.4287753e-38
-0.13816668 0.10026953 0.82900006 1.3826067e-38
-0.1362581 0.10002762 0.82700002 1.4010458e-38
-0.13468286 0.10002762 0.82700002 1.4194105e-38
-0.13310762 0.10002762 0.82700002 1.3364345e-38
-0.13153239 0.10002762 0.82700002 1.3088495e-38
-0.12964287 0.099785723 0.82500005 1.2627517e-38
-0.12807143 0.099785723 0.82500005 1.2627166e-38
-0.12650001 0.099785723 0.82500005 1.2627166e-38
-0.12492857 0.099785723 0.82500005 1.2995596e-38
-0.12335715 0.099785723 0.82500005 1.2995596e-38
-0.12178572 0.099785723 0.82500005 1.2811541e-38
-0.12021429 0.099785723 0.82500005 1.2903736e-38
-0.11864286 0.099785723 0.82500005 1.2903034e-38
-0.11707143 0.099785723 0.82500005 1.2718643e-38
-0.11550001 0.099785723 0.82500005 1.2535314e-38
-0.11392858 0.099785723 0.82500005 1.3088488e-38
-0.11235715 0.099785723 0.82500005 1.235093e-38
-0.11078572 0.099785723 0.82500005 1.2258734e-38
-0.10921429 0.099785723 0.82500005 1.2718993e-38
-0.10764287 0.099785723 0.82500005 1.3087776e-38
-0.10607143 0.099785723 0.82500005 1.2904084e-38
-0.1045 0.099785723 0.82500005 1.2904084e-38
-0.1031781 0.10002762 0.82700002 1.2811908e-38
-0.10160286 0.10002762 0.82700002 1.235093e-38
-0.10026953 0.10026953 0.82900006 1.2442422e-38
-0.09869048 0.10026953 0.82900006 1.3179987e-38
-0.097345717 0.10051143 0.83100003 1.3181053e-38
-0.095762856 0.10051143 0.83100003 1.4010814e-38
-0.094179995 0.10051143 0.83100003 1.4287021e-38
-0.092820004 0.10075334 0.83300006 1.5024586e-38
-0.091233335 0.10075334 0.83300006 1.493204e-38
-0.089861907 0.10099524 0.83500004 1.4378866e-38
-0.088694289 0.10147905 0.83900005 1.3364332e-38
-0.087096192 0.10147905 0.83900005 1.1612615e-38
-0.085701905 0.10172095 0.84100002 1.1612998e-38
-0.084500007 0.10220476 0.84500003 1.4378866e-38
-0.083086669 0.10244668 0.84700006 1.5485917e-38
-0.081473336 0.10244668 0.84700006 1.58547e-38
-0.080048576 0.10268857 0.84900004 1.5762161e-38
-0.078616194 0.10293048 0.85100001 1.7882661e-38
-0.15495144 0.10356858 0.84300005 2.2492106e-38
-0.15334573 0.10356858 0.84300005 2.2031844e-38
-0.15138 0.10332286 0.84100002 1.9081583e-38
-0.1497781 0.10332286 0.84100002 1.8435491e-38
-0.14817619 0.10332286 0.84100002 1.7513535e-38
-0.14622572 0.10307714 0.83900005 1.7789029e-38
-0.14428286 0.10283143 0.83700001 1.7051464e-38
-0.14200668 0.10234001 0.83300006 1.5854359e-38
-0.14008287 0.10209429 0.83100003 1.4102643e-38
-0.13816668 0.10184858 0.82900006 1.3642029e-38
-0.13658762 0.10184858 0.82900006 1.3181051e-38
-0.13468286 0.10160286 0.82700002 1.3272533e-38
-0.13310762 0.10160286 0.82700002 1.3088142e-38
-0.13153239 0.10160286 0.82700002 1.3088144e-38
-0.12995714 0.10160286 0.82700002 1.2719362e-38
-0.12807143 0.10135715 0.82500005 1.262681e-38
-0.12650001 0.10135715 0.82500005 1.262681e-38
-0.12492857 0.10135715 0.82500005 1.2627529e-38
-0.12335715 0.10135715 0.82500005 1.2535334e-38
-0.12178572 0.10135715 0.82500005 1.225873e-38
-0.12021429 0.10135715 0.82500005 1.2443121e-38
-0.11864286 0.10135715 0.82500005 1.2535334e-38
-0.11707143 0.10135715 0.82500005 1.2350942e-38
-0.11550001 0.10135715 0.82500005 1.2443118e-38
-0.11392858 0.10135715 0.82500005 1.2350923e-38
-0.11235715 0.10135715 0.82500005 1.2258015e-38
-0.11078572 0.10135715 0.82500005 1.2258015e-38
-0.10921429 0.10135715 0.82500005 1.2350211e-38
-0.10764287 0.10135715 0.82500005 1.2811189e-38
-0.10632858 0.10160286 0.82700002 1.2536044e-38
-0.10475334 0.10160286 0.82700002 1.2443848e-38
-0.1031781 0.10160286 0.82700002 1.2719006e-38
-0.10160286 0.10160286 0.82700002 1.2350224e-38
-0.10026953 0.10184858 0.82900006 1.2258015e-38
-0.09869048 0.10184858 0.82900006 1.3364363e-38
-0.097345717 0.10209429 0.83100003 1.3457277e-38
-0.09599334 0.10234001 0.83300006 1.3918255e-38
-0.094406672 0.10234001 0.83300006 1.4194472e-38
-0.092820004 0.10234001 0.83300006 1.4932037e-38
-0.091452383 0.10258572 0.83500004 1.4655465e-38
-0.089861907 0.10258572 0.83500004 1.3825704e-38
-0.088694289 0.10307714 0.83900005 1.2904067e-38
-0.087096192 0.10307714 0.83900005 1.179772e-38
-0.085701905 0.10332286 0.84100002 1.1244899e-38
-0.084500007 0.10381429 0.84500003 1.5117115e-38
-0.083086669 0.10406001 0.84700006 1.5394095e-38
-0.081665717 0.10430571 0.84900004 1.5855073e-38
-0.080237143 0.10455143 0.85100001 1.6222056e-38
-0.078616194 0.10455143 0.85100001 1.8158164e-38
-0.077266671 0.10492 0.85400003 1.9081194e-38
-0.075817153 0.10516573 0.85600007 2.147828e-38
-0.15531905 0.10542382 0.84500003 2.26765e-38
-0.15334573 0.10517429 0.84300005 2.2215869e-38
-0.15138 0.10492477 0.84100002 1.9634392e-38
-0.1497781 0.10492477 0.84100002 1.8527334e-38
-0.14817619 0.10492477 0.84100002 1.7420986e-38
-0.14622572 0.10467524 0.83900005 1.7696837e-38
-0.14428286 0.10442571 0.83700001 1.7143663e-38
-0.14234763 0.10417619 0.83500004 1.6038748e-38
-0.14008287 0.10367715 0.83100003 1.3826053e-38
-0.13850001 0.10367715 0.83100003 1.3826406e-38
-0.13658762 0.10342763 0.82900006 1.3088841e-38
-0.13500857 0.10342763 0.82900006 1.2258757e-38
-0.13342954 0.10342763 0.82900006 1.2258757e-38
-0.13185048 0.10342763 0.82900006 1.2350942e-38
-0.13027143 0.10342763 0.82900006 1.198216e-38
-0.12838191 0.1031781 0.82700002 1.2073993e-38
-0.12680666 0.1031781 0.82700002 1.1889601e-38
-0.12523143 0.1031781 0.82700002 1.1981431e-38
-0.12365619 0.1031781 0.82700002 1.2073627e-38
-0.12208095 0.1031781 0.82700002 1.1888861e-38
-0.12021429 0.10292857 0.82500005 1.1243492e-38
-0.11864286 0.10292857 0.82500005 1.207399e-38
-0.11707143 0.10292857 0.82500005 1.1981794e-38
-0.11578 0.1031781 0.82700002 1.198214e-38
-0.11420476 0.1031781 0.82700002 1.2074336e-38
-0.11262953 0.1031781 0.82700002 1.2533163e-38
-0.11105429 0.1031781 0.82700002 1.2625359e-38
-0.10947905 0.1031781 0.82700002 1.2257665e-38
-0.10790381 0.1031781 0.82700002 1.2349861e-38
-0.10632858 0.1031781 0.82700002 1.2166548e-38
-0.10500667 0.10342763 0.82900006 1.2074353e-38
-0.10342763 0.10342763 0.82900006 1.2257675e-38
-0.10184858 0.10342763 0.82900006 1.2257675e-38
-0.10026953 0.10342763 0.82900006 1.3270738e-38
-0.098928571 0.10367715 0.83100003 1.4192694e-38
-0.097345717 0.10367715 0.83100003 1.4009361e-38
-0.09599334 0.10392667 0.83300006 1.3917165e-38
-0.094406672 0.10392667 0.83300006 1.419305e-38
-0.092820004 0.10392667 0.83300006 1.4930615e-38
-0.091452383 0.10417619 0.83500004 1.4563971e-38
-0.089861907 0.10417619 0.83500004 1.3826406e-38
-0.088694289 0.10467524 0.83900005 1.410264e-38
-0.087096192 0.10467524 0.83900005 1.5393379e-38
-0.085905716 0.10517429 0.84300005 1.5208624e-38
-0.084500007 0.10542382 0.84500003 1.5853994e-38
-0.083086669 0.10567334 0.84700006 1.6130934e-38
-0.081665717 0.10592286 0.84900004 1.6038738e-38
-0.080237143 0.10617238 0.85100001 1.649828e-38
-0.078616194 0.10617238 0.85100001 1.8434388e-38
-0.077266671 0.10654666 0.85400003 1.9448537e-38
-0.075817153 0.1067962 0.85600007 2.2306602e-38
-0.15531905 0.10703333 0.84500003 2.2399903e-38
-0.15334573 0.10678001 0.84300005 2.2215885e-38
-0.15138 0.10652667 0.84100002 1.9450016e-38
-0.1497781 0.10652667 0.84100002 1.9080858e-38
-0.14817619 0.10652667 0.84100002 1.7605728e-38
-0.14622572 0.10627334 0.83900005 1.7420971e-38
-0.14428286 0.10602 0.83700001 1.7144384e-38
-0.14234763 0.10576668 0.83500004 1.6407173e-38
-0.14042 0.10551334 0.83300006 1.4471065e-38
-0.13850001 0.10526 0.83100003 1.4102996e-38
-0.13691714 0.10526 0.83100003 1.2627866e-38
-0.13500857 0.10500667 0.82900006 1.1336428e-38
-0.13342954 0.10500667 0.82900006 1.2350579e-38
-0.13216858 0.10526 0.83100003 1.2350942e-38
-0.13027143 0.10500667 0.82900006 1.198216e-38
-0.12869239 0.10500667 0.82900006 1.2165469e-38
-0.12680666 0.10475334 0.82700002 1.2073274e-38
-0.12523143 0.10475334 0.82700002 1.2256942e-38
