# .PCD v0.7 - Point Cloud Data file format
VERSION 0.7
FIELDS x y z rgba
SIZE 4 4 4 4
TYPE F F F U
COUNT 1 1 1 1
WIDTH 1162
HEIGHT 1
VIEWPOINT 0 0 0 1 0 0 0
POINTS 1162
DATA ascii
-0.031061906 0.13949619 0.59300005 1842179
-0.029932383 0.13949619 0.59300005 2039558
-0.028802859 0.13949619 0.59300005 1972257
-0.027766667 0.13996668 0.59500003 722190
-0.026678097 0.14020191 0.59600002 4003584
-0.063710481 0.14038858 0.59200001 1641738
-0.062582858 0.14038858 0.59200001 987906
-0.061351426 0.14015144 0.59100002 1251078
-0.060225718 0.14015144 0.59100002 986895
-0.059000004 0.13991429 0.59000003 1052688
-0.057778098 0.13967715 0.58900005 986895
-0.056559999 0.13944 0.588 526344
-0.055440001 0.13944 0.588 461568
-0.05432 0.13944 0.588 724738
-0.053109523 0.13920286 0.58700001 789766
-0.051991429 0.13920286 0.58700001 592387
-0.050873332 0.13920286 0.58700001 790277
-0.049755238 0.13920286 0.58700001 790277
-0.048637144 0.13920286 0.58700001 1051909
-0.047519047 0.13920286 0.58700001 1051909
-0.046400953 0.13920286 0.58700001 1051909
-0.045205716 0.13896571 0.58600003 1051909
-0.044089526 0.13896571 0.58600003 1051659
-0.043046668 0.13920286 0.58700001 1051659
-0.041928571 0.13920286 0.58700001 1183245
-0.040810477 0.13920286 0.58700001 1183245
-0.039692383 0.13920286 0.58700001 856322
-0.038574286 0.13920286 0.58700001 987908
-0.037519999 0.13944 0.588 1119242
-0.036461908 0.13967715 0.58900005 1185035
-0.035460003 0.14015144 0.59100002 1643292
-0.034334287 0.14015144 0.59100002 1643292
-0.033264764 0.14038858 0.59200001 1512460
-0.032137141 0.14038858 0.59200001 1644046
-0.031061906 0.14062573 0.59300005 1644296
-0.029932383 0.14062573 0.59300005 1710089
-0.028802859 0.14062573 0.59300005 1775382
-0.027720002 0.14086287 0.59400004 1249038
-0.026588572 0.14086287 0.59400004 3940608
-0.062582858 0.14151618 0.59200001 1315584
-0.061351426 0.14127715 0.59100002 1249792
-0.060225718 0.14127715 0.59100002 1446163
-0.059000004 0.1410381 0.59000003 1511956
-0.057778098 0.14079905 0.58900005 1446917
-0.056656197 0.14079905 0.58900005 1183745
-0.055440001 0.14056 0.588 987392
-0.05432 0.14056 0.588 1053184
-0.053199999 0.14056 0.588 921863
-0.051991429 0.14032096 0.58700001 856070
-0.050873332 0.14032096 0.58700001 921863
-0.049755238 0.14032096 0.58700001 921863
-0.048637144 0.14032096 0.58700001 1183747
-0.047519047 0.14032096 0.58700001 1249540
-0.046400953 0.14032096 0.58700001 1249288
-0.045282859 0.14032096 0.58700001 1249288
-0.044164762 0.14032096 0.58700001 1249288
-0.043046668 0.14032096 0.58700001 1051909
-0.041928571 0.14032096 0.58700001 986895
-0.040810477 0.14032096 0.58700001 1052688
-0.039692383 0.14032096 0.58700001 987656
-0.03864 0.14056 0.588 987656
-0.037583809 0.14079905 0.58900005 1250067
-0.036523812 0.1410381 0.59000003 1250067
-0.035460003 0.14127715 0.59100002 1643821
-0.034334287 0.14127715 0.59100002 1314856
-0.033264764 0.14151618 0.59200001 1249288
-0.032137141 0.14151618 0.59200001 1183495
-0.031061906 0.14175525 0.59300005 1249288
-0.029932383 0.14175525 0.59300005 1512460
-0.028802859 0.14175525 0.59300005 1644825
-0.027720002 0.1419943 0.59400004 2171169
-0.026588572 0.1419943 0.59400004 3353857
-0.026185716 0.1460581 0.611 2432768
-0.025021905 0.1460581 0.611 5715200
-0.023858096 0.1460581 0.611 7820567
-0.062688574 0.14288476 0.59300005 1841673
-0.061455239 0.14264381 0.59200001 1446915
-0.060225718 0.14240287 0.59100002 1575950
-0.059000004 0.14216191 0.59000003 1575950
-0.057778098 0.14192097 0.58900005 1839628
-0.056656197 0.14192097 0.58900005 1773835
-0.055534288 0.14192097 0.58900005 1183495
-0.05432 0.14167999 0.588 1249288
-0.053199999 0.14167999 0.588 987656
-0.052079998 0.14167999 0.588 856070
-0.050873332 0.14143905 0.58700001 1250067
-0.049755238 0.14143905 0.58700001 1184274
-0.048637144 0.14143905 0.58700001 987656
-0.047519047 0.14143905 0.58700001 1119242
-0.046400953 0.14143905 0.58700001 1250067
-0.045282859 0.14143905 0.58700001 986895
-0.044164762 0.14143905 0.58700001 986895
-0.043046668 0.14143905 0.58700001 921102
-0.041928571 0.14143905 0.58700001 920861
-0.040810477 0.14143905 0.58700001 986654
-0.039692383 0.14143905 0.58700001 921102
-0.03864 0.14167999 0.588 921102
-0.037583809 0.14192097 0.58900005 921102
-0.036523812 0.14216191 0.59000003 1052688
-0.035460003 0.14240287 0.59100002 1051934
-0.034334287 0.14240287 0.59100002 986141
-0.033264764 0.14264381 0.59200001 1052161
-0.032191429 0.14288476 0.59300005 1381126
-0.031061906 0.14288476 0.59300005 1250821
-0.029932383 0.14288476 0.59300005 1316614
-0.028802859 0.14288476 0.59300005 1514000
-0.027673336 0.14288476 0.59300005 2303516
-0.027304761 0.14698096 0.61000001 2369804
-0.026185716 0.14722191 0.611 1843460
-0.025021905 0.14722191 0.611 2495744
-0.023858096 0.14722191 0.611 3745806
-0.022694286 0.14722191 0.611 8015872
-0.06279429 0.14425716 0.59400004 2368017
-0.061559055 0.1440143 0.59300005 1841673
-0.060327619 0.14377144 0.59200001 1446163
-0.059099998 0.14352857 0.59100002 1380370
-0.057876196 0.14328572 0.59000003 1380874
-0.056656197 0.14304286 0.58900005 1183495
-0.055534288 0.14304286 0.58900005 1182741
-0.05432 0.1428 0.588 1182741
-0.053199999 0.1428 0.588 986895
-0.052079998 0.1428 0.588 921102
-0.050960001 0.1428 0.588 1052688
-0.049755238 0.14255714 0.58700001 1052688
-0.048637144 0.14255714 0.58700001 1381124
-0.047519047 0.14255714 0.58700001 1512710
-0.046400953 0.14255714 0.58700001 1446163
-0.045282859 0.14255714 0.58700001 1182991
-0.044164762 0.14255714 0.58700001 921102
-0.043046668 0.14255714 0.58700001 921102
-0.041928571 0.14255714 0.58700001 1117479
-0.040810477 0.14255714 0.58700001 985893
-0.039760001 0.1428 0.588 921102
-0.03864 0.1428 0.588 921102
-0.03764762 0.14328572 0.59000003 855309
-0.036585715 0.14352857 0.59100002 855309
-0.035520002 0.14377144 0.59200001 921102
-0.034392379 0.14377144 0.59200001 657930
-0.033320956 0.1440143 0.59300005 855296
-0.032191429 0.1440143 0.59300005 1118465
-0.031114288 0.14425716 0.59400004 1250821
-0.029982859 0.14425716 0.59400004 1316614
-0.028851431 0.14425716 0.59400004 1513993
-0.027720002 0.14425716 0.59400004 1513993
-0.027304761 0.14814286 0.61000001 1578753
-0.026142858 0.14814286 0.61000001 1512960
-0.024980953 0.14814286 0.61000001 1971753
-0.023819048 0.14814286 0.61000001 2037546
-0.022657143 0.14814286 0.61000001 5124352
-0.021495238 0.14814286 0.61000001 6177032
-0.064356193 0.14636764 0.59800005 2038804
-0.063005716 0.14587809 0.59600002 2105376
-0.06166286 0.14538857 0.59400004 1644825
-0.060429528 0.14514382 0.59300005 1184024
-0.0592 0.14489904 0.59200001 1249817
-0.057974286 0.14465429 0.59100002 921102
-0.056752384 0.14440952 0.59000003 789516
-0.055628575 0.14440952 0.59000003 855309
-0.054412384 0.14416477 0.58900005 921102
-0.053199999 0.14391999 0.588 1051659
-0.052079998 0.14391999 0.588 1117452
-0.050960001 0.14391999 0.588 1117452
-0.04984 0.14391999 0.588 1117452
-0.048719998 0.14391999 0.588 1052161
-0.047519047 0.14367524 0.58700001 1249540
-0.046400953 0.14367524 0.58700001 1183245
-0.045282859 0.14367524 0.58700001 1051659
-0.044239998 0.14391999 0.588 1051659
-0.043120001 0.14391999 0.588 1051659
-0.041999999 0.14391999 0.588 789275
-0.040879998 0.14391999 0.588 789275
-0.039827622 0.14416477 0.58900005 855309
-0.038705718 0.14416477 0.58900005 657930
-0.037711427 0.14465429 0.59100002 657930
-0.036585715 0.14465429 0.59100002 855309
-0.035520002 0.14489904 0.59200001 1051909
-0.034392379 0.14489904 0.59200001 986116
-0.033320956 0.14514382 0.59300005 789248
-0.032245714 0.14538857 0.59400004 1052418
-0.031166669 0.14563334 0.59500003 921102
-0.030033335 0.14563334 0.59500003 1250067
-0.028900001 0.14563334 0.59500003 1447446
-0.027953334 0.14661239 0.59900004 1447446
-0.026901904 0.14710191 0.60100001 1578503
-0.0261 0.14906 0.60900003 1907468
-0.024940001 0.14906 0.60900003 1840921
-0.023819048 0.14930476 0.61000001 2104093
-0.022657143 0.14930476 0.61000001 3091712
-0.021495238 0.14930476 0.61000001 2960128
-0.020333333 0.14930476 0.61000001 6767872
-0.065604761 0.14775334 0.59900004 1380899
-0.064356193 0.14750668 0.59800005 920348
-0.063005716 0.14701334 0.59600002 920852
-0.061766669 0.14676668 0.59500003 986645
-0.060429528 0.14627334 0.59300005 921102
-0.0592 0.14602667 0.59200001 1052688
-0.057974286 0.14578 0.59100002 1183495
-0.056752384 0.14553334 0.59000003 986116
-0.055628575 0.14553334 0.59000003 789516
-0.054504763 0.14553334 0.59000003 855309
-0.053290483 0.14528668 0.58900005 855309
-0.052168574 0.14528668 0.58900005 789516
-0.050960001 0.14504001 0.588 789516
-0.04984 0.14504001 0.588 723723
-0.048719998 0.14504001 0.588 789248
-0.047599997 0.14504001 0.588 986627
-0.04648 0.14504001 0.588 1051659
-0.045359999 0.14504001 0.588 854280
-0.044239998 0.14504001 0.588 789516
-0.043120001 0.14504001 0.588 789516
-0.041999999 0.14504001 0.588 855059
-0.040949523 0.14528668 0.58900005 855059
-0.03989524 0.14553334 0.59000003 790277
-0.038771432 0.14553334 0.59000003 724484
-0.037711427 0.14578 0.59100002 1183495
-0.036585715 0.14578 0.59100002 1183495
-0.035520002 0.14602667 0.59200001 1117954
-0.034392379 0.14602667 0.59200001 986368
-0.033320956 0.14627334 0.59300005 789248
-0.032245714 0.14652 0.59400004 920834
-0.03121905 0.14701334 0.59600002 789266
-0.030134287 0.14726 0.597 920852
-0.029045716 0.14750668 0.59800005 920852
-0.027953334 0.14775334 0.59900004 1052438
-0.026901904 0.14824666 0.60100001 1380624
-0.025885716 0.14898667 0.60400003 2038554
-0.02473524 0.14898667 0.60400003 1972257
-0.023780001 0.15022001 0.60900003 2367015
-0.022620002 0.15022001 0.60900003 3223587
-0.02146 0.15022001 0.60900003 1907727
-0.020300001 0.15022001 0.60900003 4004096
-0.071340002 0.15138 0.60900003 6243586
-0.070179999 0.15138 0.60900003 3809280
-0.068793342 0.15088287 0.60700005 3547666
-0.066968575 0.14939143 0.60100001 2231808
-0.065604761 0.1488943 0.59900004 1511706
-0.064356193 0.14864573 0.59800005 1182741
-0.063111424 0.14839715 0.597 1051659
-0.061766669 0.14790002 0.59500003 1051659
-0.060429528 0.14740287 0.59300005 856070
-0.059300005 0.14740287 0.59300005 856070
-0.057974286 0.14690572 0.59100002 856322
-0.056848574 0.14690572 0.59100002 790529
-0.055722859 0.14690572 0.59100002 789516
-0.054597147 0.14690572 0.59100002 855309
-0.053380955 0.14665715 0.59000003 724756
-0.052257147 0.14665715 0.59000003 593170
-0.051046669 0.14640859 0.58900005 528395
-0.049924765 0.14640859 0.58900005 462602
-0.04880286 0.14640859 0.58900005 921102
-0.047599997 0.14616001 0.588 855309
-0.04648 0.14616001 0.588 528395
-0.045359999 0.14616001 0.588 331016
-0.044239998 0.14616001 0.588 789516
-0.043120001 0.14616001 0.588 789516
-0.041999999 0.14616001 0.588 1051659
-0.040949523 0.14640859 0.58900005 1051659
-0.03989524 0.14665715 0.59000003 1051659
-0.038771432 0.14665715 0.59000003 1051659
-0.037711427 0.14690572 0.59100002 1117702
-0.036585715 0.14690572 0.59100002 1249288
-0.035520002 0.14715429 0.59200001 1051909
-0.034392379 0.14715429 0.59200001 986116
-0.033320956 0.14740287 0.59300005 789248
-0.032299999 0.14790002 0.59500003 855041
-0.03121905 0.14814857 0.59600002 789516
-0.030184764 0.14864573 0.59800005 855309
-0.029045716 0.14864573 0.59800005 921102
-0.027953334 0.1488943 0.59900004 1184274
-0.026901904 0.14939143 0.60100001 1250571
-0.025800001 0.14964001 0.60200006 1776915
-0.02473524 0.15013716 0.60400003 1841450
-0.023740953 0.15113144 0.60800004 2038829
-0.022582859 0.15113144 0.60800004 2828077
-0.02146 0.15138 0.60900003 1972768
-0.020300001 0.15138 0.60900003 1183232
-0.01914 0.15138 0.60900003 1775366
-0.071340002 0.15254 0.60900003 2430216
-0.070064768 0.15228952 0.60800004 2824974
-0.068453342 0.15128762 0.60400003 2364705
-0.066968575 0.15053619 0.60100001 1640982
-0.065604761 0.15003523 0.59900004 1052438
-0.064356193 0.14978477 0.59800005 1052438
-0.063005716 0.14928381 0.59600002 790277
-0.061766669 0.14903334 0.59500003 724484
-0.060531434 0.14878286 0.59400004 790277
-0.059300005 0.14853239 0.59300005 790277
-0.058072381 0.1482819 0.59200001 790016
-0.056848574 0.14803143 0.59100002 790016
-0.055722859 0.14803143 0.59100002 789516
-0.054597147 0.14803143 0.59100002 789516
-0.053471427 0.14803143 0.59100002 986141
-0.052345715 0.14803143 0.59100002 854555
-0.051133335 0.14778097 0.59000003 789266
-0.049924765 0.14753048 0.58900005 986645
-0.04880286 0.14753048 0.58900005 1051934
-0.047680955 0.14753048 0.58900005 920348
-0.046559051 0.14753048 0.58900005 789516
-0.045437146 0.14753048 0.58900005 789516
-0.044315241 0.14753048 0.58900005 789516
-0.043193337 0.14753048 0.58900005 855309
-0.042071432 0.14753048 0.58900005 1183245
-0.041019052 0.14778097 0.59000003 1183245
-0.03989524 0.14778097 0.59000003 1117702
-0.038771432 0.14778097 0.59000003 1051909
-0.037711427 0.14803143 0.59100002 1051909
-0.036647618 0.1482819 0.59200001 1051909
-0.035520002 0.1482819 0.59200001 723723
-0.034450479 0.14853239 0.59300005 657930
-0.033320956 0.14853239 0.59300005 723456
-0.032354284 0.14928381 0.59600002 657664
-0.031271428 0.14953429 0.597 657930
-0.030184764 0.14978477 0.59800005 789516
-0.029045716 0.14978477 0.59800005 789266
-0.027953334 0.15003523 0.59900004 855059
-0.026901904 0.15053619 0.60100001 1051659
-0.025757143 0.15053619 0.60100001 1775382
-0.024694288 0.15103714 0.60300004 1905960
-0.023662858 0.15178858 0.60600001 1840167
-0.022545716 0.15203905 0.60700005 2432558
-0.021424763 0.15228952 0.60800004 2366765
-0.020266667 0.15228952 0.60800004 1643542
-0.01914 0.15254 0.60900003 1117198
-0.017980002 0.15254 0.60900003 6042632
-0.071105719 0.15319525 0.60700005 2237440
-0.06994953 0.15319525 0.60700005 1316352
-0.068340003 0.15218572 0.60300004 1707288
-0.066745721 0.1511762 0.59900004 1707288
-0.065495245 0.15092382 0.59800005 1052438
-0.064248569 0.15067142 0.597 789266
-0.063005716 0.15041904 0.59600002 463104
-0.061766669 0.15016666 0.59500003 463104
-0.060531434 0.14991429 0.59400004 594438
-0.059300005 0.14966193 0.59300005 594438
-0.058072381 0.14940953 0.59200001 658691
-0.056944761 0.14940953 0.59200001 658691
-0.055817142 0.14940953 0.59200001 723723
-0.054597147 0.14915715 0.59100002 789516
-0.053471427 0.14915715 0.59100002 789266
-0.052345715 0.14915715 0.59100002 789266
-0.05122 0.14915715 0.59100002 789516
-0.050009526 0.14890477 0.59000003 855309
-0.048885714 0.14890477 0.59000003 920852
-0.047761906 0.14890477 0.59000003 789266
-0.046559051 0.14865239 0.58900005 986116
-0.045437146 0.14865239 0.58900005 986116
-0.044315241 0.14865239 0.58900005 985612
-0.043266669 0.14890477 0.59000003 985612
-0.042142861 0.14890477 0.59000003 1116948
-0.041019052 0.14890477 0.59000003 1182741
-0.039962858 0.14915715 0.59100002 1051659
-0.038837146 0.14915715 0.59100002 1051659
-0.037775241 0.14940953 0.59200001 789516
-0.036647618 0.14940953 0.59200001 789516
-0.035520002 0.14940953 0.59200001 723723
-0.034450479 0.14966193 0.59300005 723723
-0.033320956 0.14966193 0.59300005 724225
-0.032354284 0.15041904 0.59600002 790018
-0.031271428 0.15067142 0.597 789516
-0.030134287 0.15067142 0.597 855309
-0.029045716 0.15092382 0.59800005 1051659
-0.027953334 0.1511762 0.59900004 1183245
-0.026857143 0.15142857 0.60000002 1250067
-0.025757143 0.15168095 0.60100001 1710618
-0.024653334 0.15193334 0.60200006 1709614
-0.023584763 0.1524381 0.60400003 1775407
-0.022508573 0.15294285 0.60600001 2235431
-0.021424763 0.15344763 0.60800004 2103845
-0.020266667 0.15344763 0.60800004 1906464
-0.01914 0.15370001 0.60900003 524811
-0.017980002 0.15370001 0.60900003 3674880
-0.070637152 0.15333429 0.60300004 2368017
-0.069488578 0.15333429 0.60300004 1446915
-0.068000004 0.15257144 0.60000002 1445409
-0.06663429 0.15206286 0.59800005 1445409
-0.065385714 0.15180857 0.597 986645
-0.064140953 0.15155429 0.59600002 789266
-0.063005716 0.15155429 0.59600002 658944
-0.061766669 0.1513 0.59500003 724736
-0.060531434 0.15104572 0.59400004 789766
-0.059400003 0.15104572 0.59400004 789766
-0.058072381 0.15053713 0.59200001 657930
-0.056944761 0.15053713 0.59200001 657930
-0.055817142 0.15053713 0.59200001 592137
-0.054597147 0.15028287 0.59100002 592137
-0.053471427 0.15028287 0.59100002 658691
-0.052345715 0.15028287 0.59100002 658691
-0.05122 0.15028287 0.59100002 723723
-0.050009526 0.15002859 0.59000003 789516
-0.048885714 0.15002859 0.59000003 789766
-0.047761906 0.15002859 0.59000003 789766
-0.046638098 0.15002859 0.59000003 789766
-0.045514286 0.15002859 0.59000003 855559
-0.044390481 0.15002859 0.59000003 1051909
-0.043266669 0.15002859 0.59000003 986116
-0.042214286 0.15028287 0.59100002 789275
-0.041088574 0.15028287 0.59100002 789275
-0.039962858 0.15028287 0.59100002 789516
-0.038837146 0.15028287 0.59100002 723723
-0.037775241 0.15053713 0.59200001 789516
-0.036647618 0.15053713 0.59200001 789516
-0.035580005 0.15079144 0.59300005 789266
-0.034450479 0.15079144 0.59300005 789266
-0.033377144 0.15104572 0.59400004 723723
-0.032354284 0.15155429 0.59600002 789516
-0.03121905 0.15155429 0.59600002 789516
-0.030134287 0.15180857 0.597 789516
-0.029045716 0.15206286 0.59800005 1051155
-0.027906667 0.15206286 0.59800005 1248534
-0.026857143 0.15257144 0.60000002 1249817
-0.025757143 0.15282573 0.60100001 1710368
-0.02461238 0.15282573 0.60100001 2170163
-0.023545716 0.15333429 0.60300004 2235956
-0.022434287 0.15358858 0.60400003 2235179
-0.021283811 0.15358858 0.60400003 2366765
-0.020233335 0.15435144 0.60700005 2104370
-0.019108573 0.15460573 0.60800004 1380647
-0.017920954 0.15435144 0.60700005 2429224
-0.016764762 0.15435144 0.60700005 4403014
-0.071785718 0.15448287 0.60300004 3809280
-0.070520006 0.15422668 0.60200006 2433810
-0.069373339 0.15422668 0.60200006 1249536
-0.068000004 0.1537143 0.60000002 1379616
-0.066522859 0.15294571 0.597 1445409
-0.065276191 0.15268953 0.59600002 986645
-0.064140953 0.15268953 0.59600002 920852
-0.062900007 0.15243334 0.59500003 789766
-0.061766669 0.15243334 0.59500003 789766
-0.060531434 0.15217716 0.59400004 789516
-0.059400003 0.15217716 0.59400004 789516
-0.058072381 0.15166476 0.59200001 591887
-0.056944761 0.15166476 0.59200001 591887
-0.055817142 0.15166476 0.59200001 592137
-0.054689523 0.15166476 0.59200001 592137
-0.053471427 0.15140857 0.59100002 592387
-0.052345715 0.15140857 0.59100002 592387
-0.05122 0.15140857 0.59100002 592137
-0.050094288 0.15140857 0.59100002 723723
-0.048885714 0.15115239 0.59000003 658180
-0.047761906 0.15115239 0.59000003 723973
-0.046638098 0.15115239 0.59000003 723723
-0.045514286 0.15115239 0.59000003 789516
-0.044390481 0.15115239 0.59000003 789516
-0.043266669 0.15115239 0.59000003 789516
-0.042214286 0.15140857 0.59100002 396055
-0.041088574 0.15140857 0.59100002 264469
-0.040030476 0.15166476 0.59200001 461584
-0.038902856 0.15166476 0.59200001 461584
-0.037775241 0.15166476 0.59200001 461584
-0.036647618 0.15166476 0.59200001 395791
-0.035580005 0.15192096 0.59300005 657680
-0.034450479 0.15192096 0.59300005 723473
-0.033320956 0.15192096 0.59300005 788994
-0.032299999 0.15243334 0.59500003 788994
-0.03121905 0.15268953 0.59600002 657680
-0.030083811 0.15268953 0.59600002 789266
-0.028997144 0.15294571 0.597 855309
-0.027860001 0.15294571 0.597 921102
-0.026812382 0.1534581 0.59900004 1249817
-0.025714288 0.1537143 0.60000002 1644575
-0.02461238 0.15397048 0.60100001 1580331
-0.023467619 0.15397048 0.60100001 1711917
-0.022360003 0.15422668 0.60200006 2039083
-0.021213336 0.15422668 0.60200006 2039083
-0.020200001 0.15525143 0.60600001 2302255
-0.019077145 0.15550764 0.60700005 2104876
-0.017832382 0.15473905 0.60400003 2235933
-0.016681906 0.15473905 0.60400003 854280
-0.074082859 0.15563144 0.60300004 3353600
-0.072934292 0.15563144 0.60300004 2236183
-0.071666673 0.15537335 0.60200006 3091492
-0.070402861 0.15511523 0.60100001 2828577
-0.069258094 0.15511523 0.60100001 788994
-0.067886673 0.15459906 0.59900004 1116194
-0.066522859 0.15408286 0.597 1247780
-0.065276191 0.15382476 0.59600002 986645
-0.064033337 0.15356667 0.59500003 920852
-0.062900007 0.15356667 0.59500003 855309
-0.061766669 0.15356667 0.59500003 789516
-0.060531434 0.15330859 0.59400004 789516
-0.059300005 0.1530505 0.59300005 657930
-0.058072381 0.15279238 0.59200001 657680
-0.056944761 0.15279238 0.59200001 657680
-0.055817142 0.15279238 0.59200001 592137
-0.054689523 0.15279238 0.59200001 592137
-0.053471427 0.15253429 0.59100002 461312
-0.052345715 0.15253429 0.59100002 527105
-0.05122 0.15253429 0.59100002 592137
-0.050094288 0.15253429 0.59100002 592137
-0.048885714 0.1522762 0.59000003 395521
-0.047761906 0.1522762 0.59000003 461314
-0.046638098 0.1522762 0.59000003 592137
-0.045514286 0.1522762 0.59000003 657930
-0.044390481 0.1522762 0.59000003 788746
-0.043266669 0.1522762 0.59000003 788746
-0.042142861 0.1522762 0.59000003 526101
-0.041019052 0.1522762 0.59000003 460308
-0.03989524 0.1522762 0.59000003 526094
-0.038837146 0.15253429 0.59100002 591887
-0.037711427 0.15253429 0.59100002 461584
-0.036585715 0.15253429 0.59100002 461584
-0.035520002 0.15279238 0.59200001 657680
-0.034392379 0.15279238 0.59200001 657680
-0.033320956 0.1530505 0.59300005 461314
-0.032191429 0.1530505 0.59300005 527107
-0.031114288 0.15330859 0.59400004 657680
-0.030033335 0.15356667 0.59500003 789266
-0.028900001 0.15356667 0.59500003 921102
-0.027813334 0.15382476 0.59600002 986895
-0.026722858 0.15408286 0.597 1184024
-0.025628572 0.15434097 0.59800005 1447196
-0.024489526 0.15434097 0.59800005 1710368
-0.023428572 0.15485714 0.60000002 1710368
-0.022285715 0.15485714 0.60000002 1710368
-0.021178095 0.15511523 0.60100001 1841954
-0.020066667 0.15537335 0.60200006 2105126
-0.018982857 0.15588953 0.60400003 2499884
-0.017832382 0.15588953 0.60400003 2367015
-0.016681906 0.15588953 0.60400003 393225
-0.015531429 0.15588953 0.60400003 4861440
-0.075231433 0.15678002 0.60300004 8814158
-0.074082859 0.15678002 0.60300004 2169088
-0.07281334 0.15652001 0.60200006 1974551
-0.07154762 0.15626 0.60100001 3027239
-0.070285715 0.156 0.60000002 3157794
-0.068797141 0.15522 0.597 855040
-0.067546666 0.15496001 0.59600002 1116444
-0.066300005 0.15470001 0.59500003 1182237
-0.065166667 0.15470001 0.59500003 986645
-0.063925713 0.15444002 0.59400004 920852
-0.06279429 0.15444002 0.59400004 855309
-0.061559055 0.15418001 0.59300005 789516
-0.060327619 0.15391999 0.59200001 789516
-0.0592 0.15391999 0.59200001 789516
-0.058072381 0.15391999 0.59200001 723480
-0.056848574 0.15366 0.59100002 591894
-0.055722859 0.15366 0.59100002 657680
-0.054597147 0.15366 0.59100002 657680
-0.053380955 0.1534 0.59000003 592387
-0.052257147 0.1534 0.59000003 658180
-0.051133335 0.1534 0.59000003 657930
-0.050009526 0.1534 0.59000003 592137
-0.04880286 0.15314001 0.58900005 527105
-0.047680955 0.15314001 0.58900005 395520
-0.046559051 0.15314001 0.58900005 592137
-0.045437146 0.15314001 0.58900005 592137
-0.044315241 0.15314001 0.58900005 722953
-0.043193337 0.15314001 0.58900005 657160
-0.042142861 0.1534 0.59000003 722701
-0.041019052 0.1534 0.59000003 656908
-0.03989524 0.1534 0.59000003 723201
-0.038771432 0.1534 0.59000003 723201
-0.037711427 0.15366 0.59100002 591887
-0.036585715 0.15366 0.59100002 657680
-0.035520002 0.15391999 0.59200001 657930
-0.034392379 0.15391999 0.59200001 657930
-0.033264764 0.15391999 0.59200001 657930
-0.032137141 0.15391999 0.59200001 657930
-0.031061906 0.15418001 0.59300005 657680
-0.029982859 0.15444002 0.59400004 723473
-0.028900001 0.15470001 0.59500003 921102
-0.027766667 0.15470001 0.59500003 986895
-0.026722858 0.15522 0.597 1184024
-0.025585713 0.15522 0.597 1578782
-0.024489526 0.15548001 0.59800005 1578782
-0.023389526 0.15574001 0.59900004 1644575
-0.022285715 0.156 0.60000002 1644575
-0.021142857 0.156 0.60000002 1578782
-0.020033333 0.15626 0.60100001 1973540
-0.018920001 0.15652001 0.60200006 2105126
-0.017802857 0.15678002 0.60300004 2235431
-0.016681906 0.15704001 0.60400003 722192
-0.015531429 0.15704001 0.60400003 2755840
-0.075231433 0.15792859 0.60300004 7038008
-0.073960006 0.15766668 0.60200006 2103552
-0.072692387 0.15740477 0.60100001 2500134
-0.071428567 0.15714286 0.60000002 3223857
-0.07016857 0.15688096 0.59900004 2960669
-0.068681911 0.15609525 0.59600002 1973774
-0.067546666 0.15609525 0.59600002 1182771
-0.066300005 0.15583335 0.59500003 1051185
-0.065057144 0.15557143 0.59400004 986141
-0.063818097 0.15530953 0.59300005 986141
-0.062688574 0.15530953 0.59300005 921102
-0.061455239 0.15504763 0.59200001 855309
-0.060327619 0.15504763 0.59200001 1051659
-0.059099998 0.15478572 0.59100002 985866
-0.057974286 0.15478572 0.59100002 723232
-0.056752384 0.15452382 0.59000003 723232
-0.055628575 0.15452382 0.59000003 657680
-0.054504763 0.15452382 0.59000003 657680
-0.053380955 0.15452382 0.59000003 461834
-0.052168574 0.1542619 0.58900005 396041
-0.051046669 0.1542619 0.58900005 526094
-0.049924765 0.1542619 0.58900005 591887
-0.04880286 0.1542619 0.58900005 592137
-0.047680955 0.1542619 0.58900005 592137
-0.046559051 0.1542619 0.58900005 592137
-0.045437146 0.1542619 0.58900005 657930
-0.044315241 0.1542619 0.58900005 592137
-0.043193337 0.1542619 0.58900005 592137
-0.042071432 0.1542619 0.58900005 591887
-0.040949523 0.1542619 0.58900005 657680
-0.039827622 0.1542619 0.58900005 723456
-0.038771432 0.15452382 0.59000003 855041
-0.037711427 0.15478572 0.59100002 723723
-0.036585715 0.15478572 0.59100002 789516
-0.035460003 0.15478572 0.59100002 593420
-0.034334287 0.15478572 0.59100002 593420
-0.033264764 0.15504763 0.59200001 789266
-0.032137141 0.15504763 0.59200001 789266
-0.031009525 0.15504763 0.59200001 789516
-0.029881904 0.15504763 0.59200001 789516
-0.028851431 0.15557143 0.59400004 789766
-0.027766667 0.15583335 0.59500003 1052938
-0.026678097 0.15609525 0.59600002 1250067
-0.025542859 0.15609525 0.59600002 1447446
-0.02444857 0.15635714 0.597 1447196
-0.023350477 0.15661906 0.59800005 1447196
-0.022248574 0.15688096 0.59900004 1447196
-0.021107621 0.15688096 0.59900004 1710368
-0.02 0.15714286 0.60000002 2105376
-0.018888572 0.15740477 0.60100001 2105376
-0.017773336 0.15766668 0.60200006 2235179
-0.016654287 0.15792859 0.60300004 787733
-0.015505716 0.15792859 0.60300004 3345940
-0.014380952 0.15819047 0.60400003 11175307
-0.013274285 0.15871429 0.60600001 12629355
-0.075106673 0.15881334 0.60200006 5784586
-0.073960006 0.15881334 0.60200006 3284480
-0.072692387 0.15854953 0.60100001 2894892
-0.071428567 0.15828572 0.60000002 2894892
-0.069934286 0.15749429 0.597 2698017
-0.068681911 0.15723048 0.59600002 2500638
-0.067433335 0.15696667 0.59500003 2236210
-0.066188574 0.15670286 0.59400004 1775659
-0.064947627 0.15643907 0.59300005 920852
-0.063818097 0.15643907 0.59300005 789266
-0.062582858 0.15617524 0.59200001 920852
-0.061455239 0.15617524 0.59200001 789266
-0.060225718 0.15591143 0.59100002 985612
-0.059099998 0.15591143 0.59100002 985612
-0.057876196 0.15564762 0.59000003 723480
-0.056752384 0.15564762 0.59000003 723480
-0.055534288 0.15538383 0.58900005 657680
-0.054412384 0.15538383 0.58900005 723473
-0.053290483 0.15538383 0.58900005 461834
-0.052168574 0.15538383 0.58900005 461834
-0.050960001 0.15512 0.588 461584
-0.04984 0.15512 0.588 461584
-0.048719998 0.15512 0.588 592137
-0.047599997 0.15512 0.588 592137
-0.04648 0.15512 0.588 657930
-0.045359999 0.15512 0.588 657930
-0.044239998 0.15512 0.588 723723
-0.043120001 0.15512 0.588 723723
-0.042071432 0.15538383 0.58900005 657680
-0.040949523 0.15538383 0.58900005 789266
-0.039827622 0.15538383 0.58900005 789516
-0.038705718 0.15538383 0.58900005 789516
-0.03764762 0.15564762 0.59000003 593420
-0.036523812 0.15564762 0.59000003 593420
-0.035460003 0.15591143 0.59100002 528645
-0.034334287 0.15591143 0.59100002 462852
-0.033208571 0.15591143 0.59100002 790277
-0.032082856 0.15591143 0.59100002 790277
-0.031009525 0.15617524 0.59200001 855309
-0.029881904 0.15617524 0.59200001 986895
-0.028802859 0.15643907 0.59300005 986895
-0.027720002 0.15670286 0.59400004 1250067
-0.026633335 0.15696667 0.59500003 1315610
-0.025542859 0.15723048 0.59600002 1447196
-0.02440762 0.15723048 0.59600002 1446692
-0.023311427 0.15749429 0.597 1446692
-0.022211431 0.1577581 0.59800005 1447196
-0.021072382 0.1577581 0.59800005 1644575
-0.019966668 0.15802191 0.59900004 1972257
-0.018857144 0.15828572 0.60000002 2103843
-0.017743809 0.15854953 0.60100001 2300722
-0.016654287 0.15907715 0.60300004 787483
-0.015505716 0.15907715 0.60300004 3345924
-0.014380952 0.15934096 0.60400003 10648947
-0.013274285 0.15986857 0.60600001 11246191
-0.074981906 0.15969428 0.60100001 3486259
-0.073837139 0.15969428 0.60100001 2762536
-0.072571434 0.15942858 0.60000002 1645872
-0.071071431 0.15863143 0.597 1251114
-0.069817141 0.15836573 0.59600002 2432808
-0.068566665 0.15810001 0.59500003 3485496
-0.067320004 0.15783429 0.59400004 2697011
-0.066188574 0.15783429 0.59400004 2236460
-0.064838096 0.15730286 0.59200001 1711379
-0.063710481 0.15730286 0.59200001 658691
-0.062477149 0.15703715 0.59100002 789266
-0.061351426 0.15703715 0.59100002 723473
-0.060123812 0.15677144 0.59000003 723201
-0.059000004 0.15677144 0.59000003 986373
-0.057876196 0.15677144 0.59000003 985612
-0.056656197 0.15650572 0.58900005 919819
-0.055534288 0.15650572 0.58900005 723723
-0.05432 0.15624 0.588 723723
-0.053199999 0.15624 0.588 723723
-0.052079998 0.15624 0.588 789516
-0.050960001 0.15624 0.588 657687
-0.04984 0.15624 0.588 723480
-0.048637144 0.1559743 0.58700001 723723
-0.047519047 0.1559743 0.58700001 723723
-0.04648 0.15624 0.588 593170
-0.045359999 0.15624 0.588 593170
-0.044239998 0.15624 0.588 789766
-0.043120001 0.15624 0.588 789766
-0.041999999 0.15624 0.588 657680
-0.040879998 0.15624 0.588 789266
-0.039760001 0.15624 0.588 986645
-0.038705718 0.15650572 0.58900005 920852
-0.037583809 0.15650572 0.58900005 789766
-0.036461908 0.15650572 0.58900005 723973
-0.035400003 0.15677144 0.59000003 462852
-0.034276191 0.15677144 0.59000003 462852
-0.033152383 0.15677144 0.59000003 592640
-0.032082856 0.15703715 0.59100002 658432
-0.030957144 0.15703715 0.59100002 789516
-0.02983143 0.15703715 0.59100002 855309
-0.028754286 0.15730286 0.59200001 921102
-0.027626665 0.15730286 0.59200001 986895
-0.026588572 0.15783429 0.59400004 1249817
-0.025500001 0.15810001 0.59500003 1315610
-0.02440762 0.15836573 0.59600002 1314357
-0.023311427 0.15863143 0.597 1314357
-0.022174286 0.15863143 0.597 922401
-0.021072382 0.15889715 0.59800005 1185573
-0.019933335 0.15889715 0.59800005 1644071
-0.018857144 0.15942858 0.60000002 1644071
-0.017743809 0.15969428 0.60100001 1774905
-0.016626669 0.15996002 0.60200006 2235456
-0.015505716 0.16022572 0.60300004 4664327
-0.014380952 0.16049144 0.60400003 9664595
-0.013230477 0.16049144 0.60400003 10981993
-0.074981906 0.16083904 0.60100001 2961689
-0.073714286 0.16057143 0.60000002 1645829
-0.072450481 0.16030382 0.59900004 1972257
-0.071071431 0.15976857 0.597 1840671
-0.069817141 0.15950094 0.59600002 1707538
-0.068451434 0.15896572 0.59400004 2760226
-0.067206673 0.1586981 0.59300005 2761773
-0.065965712 0.15843047 0.59200001 2432808
-0.064838096 0.15843047 0.59200001 1907747
-0.063602857 0.15816286 0.59100002 855059
-0.062371433 0.15789524 0.59000003 985612
-0.061247624 0.15789524 0.59000003 919819
-0.060021911 0.15762763 0.58900005 788994
-0.058900002 0.15762763 0.58900005 986373
-0.057778098 0.15762763 0.58900005 1051155
-0.056559999 0.15736 0.588 853776
-0.055440001 0.15736 0.588 723203
-0.05432 0.15736 0.588 788996
-0.053199999 0.15736 0.588 854789
-0.052079998 0.15736 0.588 986375
-0.050960001 0.15736 0.588 657680
-0.04984 0.15736 0.588 789266
-0.048637144 0.15709239 0.58700001 789766
-0.047519047 0.15709239 0.58700001 789766
-0.04648 0.15736 0.588 593420
-0.045359999 0.15736 0.588 593420
-0.044239998 0.15736 0.588 724225
-0.043120001 0.15736 0.588 790018
-0.041999999 0.15736 0.588 723723
-0.040879998 0.15736 0.588 789516
-0.039760001 0.15736 0.588 527643
-0.03864 0.15736 0.588 461850
-0.037583809 0.15762763 0.58900005 593420
-0.036461908 0.15762763 0.58900005 593420
-0.03534 0.15762763 0.58900005 723723
-0.034218099 0.15762763 0.58900005 723723
-0.033096194 0.15762763 0.58900005 658691
-0.032028571 0.15789524 0.59000003 658691
-0.030904762 0.15789524 0.59000003 723723
-0.029780954 0.15789524 0.59000003 789516
-0.028705714 0.15816286 0.59100002 855059
-0.02758 0.15816286 0.59100002 920852
-0.026543811 0.1586981 0.59300005 1511202
-0.025457144 0.15896572 0.59400004 1642788
-0.024366667 0.15923333 0.59500003 987690
-0.023272382 0.15950094 0.59600002 856104
-0.022174286 0.15976857 0.597 856608
-0.021037143 0.15976857 0.597 790815
-0.019933335 0.16003619 0.59800005 1579032
-0.018825715 0.16030382 0.59900004 1381653
-0.017743809 0.16083904 0.60100001 987690
-0.016626669 0.16110668 0.60200006 2369343
-0.015505716 0.16137429 0.60300004 5520908
-0.014380952 0.16164191 0.60400003 8021042
-0.013230477 0.16164191 0.60400003 10783837
-0.012080001 0.16164191 0.60400003 13941901
-0.074857146 0.16171429 0.60000002 3026712
-0.073591433 0.16144477 0.59900004 1645059
-0.072329529 0.16117525 0.59800005 1645872
-0.070952378 0.16063619 0.59600002 1448493
-0.069700003 0.16036667 0.59500003 1905960
-0.068451434 0.16009715 0.59400004 1840167
-0.067093328 0.15955809 0.59200001 1775382
-0.065965712 0.15955809 0.59200001 1578003
-0.064728573 0.15928857 0.59100002 1446163
-0.063495241 0.15901907 0.59000003 1051405
-0.062371433 0.15901907 0.59000003 657680
-0.061143812 0.15874954 0.58900005 526094
-0.060021911 0.15874954 0.58900005 723201
-0.058800001 0.15848 0.588 854787
-0.05768 0.15848 0.588 855068
-0.056559999 0.15848 0.588 723482
-0.055440001 0.15848 0.588 461314
-0.05422762 0.15821047 0.58700001 658693
-0.053109523 0.15821047 0.58700001 658180
-0.051991429 0.15821047 0.58700001 592387
-0.050873332 0.15821047 0.58700001 592137
-0.049755238 0.15821047 0.58700001 723723
-0.048637144 0.15821047 0.58700001 265472
-0.047519047 0.15821047 0.58700001 331264
-0.046400953 0.15821047 0.58700001 594438
-0.045282859 0.15821047 0.58700001 462852
-0.044164762 0.15821047 0.58700001 658944
-0.043120001 0.15848 0.588 724736
-0.041999999 0.15848 0.588 657680
-0.040879998 0.15848 0.588 657680
-0.039760001 0.15848 0.588 593170
-0.03864 0.15848 0.588 461584
-0.037519999 0.15848 0.588 593420
-0.036461908 0.15874954 0.58900005 593420
-0.03534 0.15874954 0.58900005 593170
-0.034218099 0.15874954 0.58900005 593170
-0.033096194 0.15874954 0.58900005 789516
-0.032028571 0.15901907 0.59000003 855309
-0.030904762 0.15901907 0.59000003 855309
-0.029780954 0.15901907 0.59000003 921102
-0.028705714 0.15928857 0.59100002 789275
-0.02758 0.15928857 0.59100002 855068
-0.026543811 0.15982763 0.59300005 1510954
-0.025414288 0.15982763 0.59300005 3550537
-0.024325715 0.16009715 0.59400004 3289130
-0.023272382 0.16063619 0.59600002 1578512
-0.022174286 0.16090572 0.597 921897
-0.021037143 0.16090572 0.597 198174
-0.0199 0.16090572 0.597 986645
-0.018825715 0.16144477 0.59900004 1184024
-0.017714286 0.16171429 0.60000002 2430535
-0.016654287 0.16252287 0.60300004 5720185
-0.015531429 0.16279238 0.60400003 5916672
-0.014380952 0.16279238 0.60400003 6969351
-0.013230477 0.16279238 0.60400003 10192983
-0.012080001 0.16279238 0.60400003 13811598
-0.076126665 0.16312857 0.60100001 5392670
-0.074857146 0.16285715 0.60000002 3224091
-0.073591433 0.16258572 0.59900004 2434575
-0.072329529 0.1623143 0.59800005 2238759
-0.070952378 0.16177143 0.59600002 2304552
-0.069582857 0.16122858 0.59400004 2567210
-0.068336196 0.16095716 0.59300005 2304038
-0.067093328 0.16068572 0.59200001 988692
-0.065854289 0.16041429 0.59100002 659727
-0.064728573 0.16041429 0.59100002 1051659
-0.063495241 0.16014287 0.59000003 788487
-0.06226572 0.15987144 0.58900005 657680
-0.061143812 0.15987144 0.58900005 591887
-0.059919998 0.1596 0.588 788994
-0.058800001 0.1596 0.588 1052166
-0.05768 0.1596 0.588 1182741
-0.056559999 0.1596 0.588 985362
-0.055345718 0.15932857 0.58700001 658691
-0.05422762 0.15932857 0.58700001 724484
-0.053109523 0.15932857 0.58700001 789766
-0.051991429 0.15932857 0.58700001 592387
-0.050873332 0.15932857 0.58700001 264455
-0.049755238 0.15932857 0.58700001 461834
-0.048637144 0.15932857 0.58700001 330498
-0.047519047 0.15932857 0.58700001 462084
-0.046400953 0.15932857 0.58700001 528395
-0.045282859 0.15932857 0.58700001 528395
-0.044164762 0.15932857 0.58700001 723723
-0.043046668 0.15932857 0.58700001 789516
-0.041928571 0.15932857 0.58700001 593170
-0.040810477 0.15932857 0.58700001 593170
-0.039692383 0.15932857 0.58700001 593170
-0.03864 0.1596 0.588 593170
-0.037519999 0.1596 0.588 723723
-0.036400001 0.1596 0.588 789516
-0.035279997 0.1596 0.588 658963
-0.034159999 0.1596 0.588 790549
-0.033040002 0.1596 0.588 659727
-0.031974286 0.15987144 0.58900005 725520
-0.030904762 0.16014287 0.59000003 987649
-0.029780954 0.16014287 0.59000003 987649
-0.028657144 0.16014287 0.59000003 986116
-0.02758 0.16041429 0.59100002 986116
-0.026499048 0.16068572 0.59200001 1509909
-0.025414288 0.16095716 0.59300005 4404801
-0.024325715 0.16122858 0.59400004 5262686
-0.023233334 0.16150001 0.59500003 2170415
-0.022137145 0.16177143 0.59600002 1775657
-0.021037143 0.16204286 0.597 1315106
-0.0199 0.16204286 0.597 921102
-0.018794287 0.1623143 0.59800005 1250067
-0.017714286 0.16285715 0.60000002 4599589
-0.016654287 0.16367143 0.60300004 6507586
-0.015531429 0.16394287 0.60400003 6440970
-0.014428572 0.16448572 0.60600001 6835728
-0.013274285 0.16448572 0.60600001 9863766
-0.01212 0.16448572 0.60600001 13811346
-0.076126665 0.16427334 0.60100001 5655844
-0.074857146 0.164 0.60000002 3552320
-0.073591433 0.16372667 0.59900004 2433839
-0.072329529 0.16345334 0.59800005 1582087
-0.070833333 0.16263334 0.59500003 2174224
-0.069582857 0.16236001 0.59400004 2566929
-0.068220958 0.16181333 0.59200001 2566929
-0.066980004 0.16154 0.59100002 1579032
-0.065854289 0.16154 0.59100002 1250067
-0.064619049 0.16126668 0.59000003 921102
-0.063387625 0.16099335 0.58900005 855309
-0.06226572 0.16099335 0.58900005 789516
-0.061040003 0.16071999 0.588 789516
-0.059919998 0.16071999 0.588 789516
-0.058800001 0.16071999 0.588 855309
-0.057581905 0.16044667 0.58700001 855309
-0.056463812 0.16044667 0.58700001 855309
-0.055345718 0.16044667 0.58700001 789516
-0.05422762 0.16044667 0.58700001 789516
-0.053109523 0.16044667 0.58700001 789766
-0.051991429 0.16044667 0.58700001 658180
-0.050873332 0.16044667 0.58700001 461834
-0.049755238 0.16044667 0.58700001 461834
-0.048637144 0.16044667 0.58700001 593420
-0.047519047 0.16044667 0.58700001 593420
-0.046400953 0.16044667 0.58700001 658963
-0.045205716 0.16017334 0.58600003 724756
-0.044089526 0.16017334 0.58600003 593170
-0.042973336 0.16017334 0.58600003 593170
-0.041857142 0.16017334 0.58600003 461584
-0.040810477 0.16044667 0.58700001 461584
-0.039692383 0.16044667 0.58700001 461834
-0.038574286 0.16044667 0.58700001 396041
-0.037456192 0.16044667 0.58700001 723201
-0.036400001 0.16071999 0.588 788994
-0.035279997 0.16071999 0.588 789275
-0.034159999 0.16071999 0.588 855068
-0.033040002 0.16071999 0.588 1052688
-0.031919997 0.16071999 0.588 1250067
-0.030852385 0.16099335 0.58900005 922368
-0.029730478 0.16099335 0.58900005 2106641
-0.028657144 0.16126668 0.59000003 2434816
-0.027533336 0.16126668 0.59000003 1711104
-0.026499048 0.16181333 0.59200001 1840167
-0.025414288 0.16208668 0.59300005 3879750
-0.024284763 0.16208668 0.59300005 3683906
-0.023194287 0.16236001 0.59400004 2170667
-0.022100002 0.16263334 0.59500003 1316653
-0.021001905 0.16290666 0.59600002 1316653
-0.019866668 0.16290666 0.59600002 2828329
-0.018762857 0.16318001 0.597 4670533
-0.017714286 0.164 0.60000002 5457168
-0.016654287 0.16482002 0.60300004 5457168
-0.015531429 0.16509333 0.60400003 5519109
-0.014428572 0.16564 0.60600001 6834969
-0.013274285 0.16564 0.60600001 9666646
-0.01212 0.16564 0.60600001 13680019
-0.076126665 0.1654181 0.60100001 5590056
-0.074732378 0.16486762 0.59900004 4869434
-0.073468573 0.1645924 0.59800005 2829851
-0.072208568 0.16431715 0.597 1449747
-0.070833333 0.16376667 0.59500003 1778712
-0.069465719 0.1632162 0.59300005 2302730
-0.068220958 0.16294095 0.59200001 2039558
-0.066980004 0.16266572 0.59100002 1643542
-0.065854289 0.16266572 0.59100002 1446163
-0.064619049 0.16239049 0.59000003 1052438
-0.063387625 0.16211525 0.58900005 920852
-0.062159996 0.16184001 0.588 921102
-0.061040003 0.16184001 0.588 921102
-0.059919998 0.16184001 0.588 789266
-0.058700003 0.16156477 0.58700001 789266
-0.057581905 0.16156477 0.58700001 593170
-0.056463812 0.16156477 0.58700001 724756
-0.055345718 0.16156477 0.58700001 724756
-0.05422762 0.16156477 0.58700001 658963
-0.053109523 0.16156477 0.58700001 789516
-0.051991429 0.16156477 0.58700001 657930
-0.050873332 0.16156477 0.58700001 461834
-0.049755238 0.16156477 0.58700001 461834
-0.048554286 0.16128953 0.58600003 528395
-0.047438096 0.16128953 0.58600003 725774
-0.046321906 0.16128953 0.58600003 856856
-0.045205716 0.16128953 0.58600003 725270
-0.04401429 0.1610143 0.58500004 659981
-0.0429 0.1610143 0.58500004 725774
-0.041785717 0.1610143 0.58500004 659229
-0.040740956 0.16128953 0.58600003 198678
-0.039624766 0.16128953 0.58600003 658180
-0.038574286 0.16156477 0.58700001 723973
-0.037456192 0.16156477 0.58700001 1116928
-0.036338098 0.16156477 0.58700001 1182720
-0.035219997 0.16156477 0.58700001 1051155
-0.034101903 0.16156477 0.58700001 1051155
-0.03298381 0.16156477 0.58700001 2236431
-0.031919997 0.16184001 0.588 1710087
-0.0308 0.16184001 0.588 857088
-0.029730478 0.16211525 0.58900005 1975566
-0.028608572 0.16211525 0.58900005 2566679
-0.027533336 0.16239049 0.59000003 2435093
-0.026499048 0.16294095 0.59200001 2171169
-0.025414288 0.1632162 0.59300005 2368548
-0.024284763 0.1632162 0.59300005 2236962
-0.023194287 0.16349144 0.59400004 1513239
-0.022100002 0.16376667 0.59500003 265472
-0.021001905 0.16404191 0.59600002 1054987
-0.019866668 0.16404191 0.59600002 4600343
-0.018762857 0.16431715 0.597 5850410
-0.017714286 0.16514286 0.60000002 6244381
-0.016681906 0.16624382 0.60400003 5454865
-0.015582857 0.16679429 0.60600001 5058304
-0.014428572 0.16679429 0.60600001 7032089
-0.013274285 0.16679429 0.60600001 9600855
-0.01212 0.16679429 0.60600001 13745814
-0.077271432 0.16656286 0.60100001 10853506
-0.076000005 0.16628572 0.60000002 5261101
-0.074732378 0.16600858 0.59900004 4999974
-0.073468573 0.16573144 0.59800005 5328939
-0.072208568 0.16545428 0.597 3421765
-0.070714295 0.16462287 0.59400004 1579561
-0.069465719 0.16434573 0.59300005 1383170
-0.068220958 0.16406858 0.59200001 988416
-0.066980004 0.16379143 0.59100002 986645
-0.065854289 0.16379143 0.59100002 986645
-0.064509533 0.16323715 0.58900005 986645
-0.063387625 0.16323715 0.58900005 920852
-0.062159996 0.16295999 0.588 921102
-0.061040003 0.16295999 0.588 855309
-0.059818096 0.16268286 0.58700001 855309
-0.058700003 0.16268286 0.58700001 789516
-0.057581905 0.16268286 0.58700001 658963
-0.056463812 0.16268286 0.58700001 658963
-0.055345718 0.16268286 0.58700001 527643
-0.05422762 0.16268286 0.58700001 461850
-0.053109523 0.16268286 0.58700001 789516
-0.051991429 0.16268286 0.58700001 723723
-0.050873332 0.16268286 0.58700001 723723
-0.04967048 0.16240571 0.58600003 789516
-0.048554286 0.16240571 0.58600003 789516
-0.047438096 0.16240571 0.58600003 986895
-0.046321906 0.16240571 0.58600003 988442
-0.045128573 0.16212858 0.58500004 2172716
-0.043939054 0.16185144 0.58400005 1251614
-0.042826667 0.16185144 0.58400005 1185821
-0.041714288 0.16185144 0.58400005 1119780
-0.040671431 0.16212858 0.58500004 725022
-0.039557148 0.16212858 0.58500004 922651
-0.038508572 0.16240571 0.58600003 2370097
-0.037392382 0.16240571 0.58600003 3025664
-0.036276191 0.16240571 0.58600003 3354627
-0.035160001 0.16240571 0.58600003 3157042
-0.034101903 0.16268286 0.58700001 2696491
-0.03298381 0.16268286 0.58700001 2830856
-0.031865712 0.16268286 0.58700001 3094028
-0.0308 0.16295999 0.588 3027456
-0.029679999 0.16295999 0.588 2435328
-0.028608572 0.16323715 0.58900005 2303507
-0.027486669 0.16323715 0.58900005 2369300
-0.026454287 0.16379143 0.59100002 1380651
-0.025371429 0.16406858 0.59200001 788514
-0.024243811 0.16406858 0.59200001 1973765
-0.023155238 0.16434573 0.59300005 3421211
-0.022062859 0.16462287 0.59400004 5129728
-0.020966668 0.1649 0.59500003 5524483
-0.019833334 0.1649 0.59500003 5522707
-0.01873143 0.16517715 0.59600002 5456914
-0.017802857 0.16711715 0.60300004 5784348
-0.016737143 0.16794857 0.60600001 5389590
-0.015582857 0.16794857 0.60600001 5321487
-0.014452382 0.16822572 0.60700005 7163691
-0.013274285 0.16794857 0.60600001 9667174
-0.01212 0.16794857 0.60600001 13680547
-0.010965714 0.16794857 0.60600001 13352605
-0.077271432 0.16770762 0.60100001 10853767
-0.076000005 0.16742857 0.60000002 5721913
-0.074732378 0.16714953 0.59900004 5524268
-0.073468573 0.16687049 0.59800005 6050612
-0.072208568 0.16659144 0.597 5394765
-0.070714295 0.16575429 0.59400004 3289389
-0.069465719 0.16547526 0.59300005 1582087
-0.068220958 0.1651962 0.59200001 726784
-0.066980004 0.16491716 0.59100002 1051659
-0.065742865 0.1646381 0.59000003 1117452
-0.064509533 0.16435906 0.58900005 986895
-0.063387625 0.16435906 0.58900005 789516
-0.062159996 0.16407999 0.588 658180
-0.061040003 0.16407999 0.588 789766
-0.059818096 0.16380095 0.58700001 789266
-0.058700003 0.16380095 0.58700001 789266
-0.057483811 0.16352192 0.58600003 789266
-0.056367621 0.16352192 0.58600003 657680
-0.055251431 0.16352192 0.58600003 657680
-0.05422762 0.16380095 0.58700001 789266
-0.053109523 0.16380095 0.58700001 789516
-0.051991429 0.16380095 0.58700001 789516
-0.050873332 0.16380095 0.58700001 789766
-0.04967048 0.16352192 0.58600003 789766
-0.048554286 0.16352192 0.58600003 920852
-0.047438096 0.16352192 0.58600003 1447196
-0.046321906 0.16352192 0.58600003 1448745
-0.045128573 0.16324286 0.58500004 1909296
-0.043939054 0.16296382 0.58400005 1383954
-0.042826667 0.16296382 0.58400005 2436642
-0.041714288 0.16296382 0.58400005 2895421
-0.040601909 0.16296382 0.58400005 2369077
-0.039489526 0.16296382 0.58400005 922899
-0.038442858 0.16324286 0.58500004 2304552
-0.037328575 0.16324286 0.58500004 2961159
-0.036276191 0.16352192 0.58600003 3355917
-0.035160001 0.16352192 0.58600003 3222835
-0.034101903 0.16380095 0.58700001 2696491
-0.03298381 0.16380095 0.58700001 2698796
-0.031865712 0.16380095 0.58700001 2698796
-0.0308 0.16407999 0.588 2765063
-0.029679999 0.16407999 0.588 2238720
-0.028560001 0.16407999 0.588 1908749
-0.027486669 0.16435906 0.58900005 1645577
-0.026454287 0.16491716 0.59100002 462852
-0.025371429 0.1651962 0.59200001 726024
-0.024243811 0.1651962 0.59200001 2695936
-0.023155238 0.16547526 0.59300005 4735512
-0.022025717 0.16547526 0.59300005 5720608
-0.020931428 0.16575429 0.59400004 5852194
-0.0198 0.16575429 0.59400004 5850391
-0.01873143 0.16631238 0.59600002 5784598
-0.017802857 0.16826573 0.60300004 5716763
-0.016737143 0.16910285 0.60600001 5650970
-0.015582857 0.16910285 0.60600001 5388043
-0.014452382 0.16938192 0.60700005 7164454
-0.013274285 0.16910285 0.60600001 9864036
-0.01212 0.16910285 0.60600001 13614237
-0.010965714 0.16910285 0.60600001 13155229
-0.078546673 0.16913334 0.60200006 12693896
-0.077271432 0.16885237 0.60100001 11248014
-0.076000005 0.16857143 0.60000002 6510918
-0.074732378 0.1682905 0.59900004 5590318
-0.073468573 0.16800953 0.59800005 5787697
-0.072208568 0.16772857 0.597 5459765
-0.070714295 0.16688572 0.59400004 5525558
-0.069465719 0.16660477 0.59300005 4867626
-0.068220958 0.16632381 0.59200001 3946524
-0.066980004 0.16604285 0.59100002 2762784
-0.065742865 0.1657619 0.59000003 1315338
-0.064509533 0.16548097 0.58900005 659229
-0.063280001 0.16520001 0.588 396057
-0.062159996 0.16520001 0.588 329728
-0.061040003 0.16520001 0.588 527107
-0.059818096 0.16491905 0.58700001 657687
-0.058600001 0.1646381 0.58600003 591894
-0.057483811 0.1646381 0.58600003 657680
-0.056367621 0.1646381 0.58600003 591887
-0.055251431 0.1646381 0.58600003 526094
-0.054135241 0.1646381 0.58600003 789266
-0.053019051 0.1646381 0.58600003 789516
-0.051902857 0.1646381 0.58600003 723723
