# .PCD v0.7 - Point Cloud Data file format
VERSION 0.7
FIELDS x y z rgba
SIZE 4 4 4 4
TYPE F F F U
COUNT 1 1 1 1
WIDTH 1165
HEIGHT 1
VIEWPOINT 0 0 0 1 0 0 0
POINTS 1165
DATA ascii
-0.093907632 0.10510191 0.65300006 13555199
-0.09266381 0.10510191 0.65300006 13423615
-0.091279998 0.10494096 0.65200001 13357823
-0.089761913 0.10461906 0.65000004 13357823
-0.088523813 0.10461906 0.65000004 13751039
-0.087285712 0.10461906 0.65000004 14211583
-0.086047627 0.10461906 0.65000004 13488383
-0.080720954 0.10413619 0.64700001 6645936
-0.079488575 0.10413619 0.64700001 7567038
-0.11046857 0.10553142 0.648 11581117
-0.10923428 0.10553142 0.648 12173254
-0.108 0.10553142 0.648 12632827
-0.10676572 0.10553142 0.648 13488127
-0.10569429 0.10569429 0.64900005 13620223
-0.1044581 0.10569429 0.64900005 13554431
-0.10322192 0.10569429 0.64900005 13423356
-0.10198572 0.10569429 0.64900005 13357563
-0.10090476 0.10585715 0.65000004 13226749
-0.099666677 0.10585715 0.65000004 13555711
-0.098731428 0.10618286 0.65200001 13620987
-0.097639054 0.10634572 0.65300006 13555194
-0.096395247 0.10634572 0.65300006 13489401
-0.095151439 0.10634572 0.65300006 13226229
-0.093907632 0.10634572 0.65300006 13358074
-0.092521906 0.10618286 0.65200001 13489660
-0.091000006 0.10585715 0.65000004 13555196
-0.089761913 0.10585715 0.65000004 13686782
-0.088523813 0.10585715 0.65000004 13817594
-0.087285712 0.10585715 0.65000004 14146559
-0.086047627 0.10585715 0.65000004 14081279
-0.084679052 0.10569429 0.64900005 13225970
-0.083314285 0.10553142 0.648 12963071
-0.081953332 0.10536857 0.64700001 11778803
-0.080720954 0.10536857 0.64700001 10657490
-0.079488575 0.10536857 0.64700001 5986187
-0.077893339 0.10488001 0.64400005 7758466
-0.076666676 0.10488001 0.64400005 10390186
-0.11153048 0.10660095 0.64700001 10594791
-0.1102981 0.10660095 0.64700001 11975410
-0.10906572 0.10660095 0.64700001 12896511
-0.108 0.10676572 0.648 12766207
-0.10676572 0.10676572 0.648 13160959
-0.10553142 0.10676572 0.648 13226239
-0.1044581 0.10693048 0.64900005 13160447
-0.10322192 0.10693048 0.64900005 13160443
-0.10198572 0.10693048 0.64900005 13160443
-0.10090476 0.10709524 0.65000004 12898300
-0.099666677 0.10709524 0.65000004 13161471
-0.098428577 0.10709524 0.65000004 13358587
-0.097489521 0.10742477 0.65200001 13424380
-0.096247621 0.10742477 0.65200001 13489914
-0.095005721 0.10742477 0.65200001 13292535
-0.093907632 0.10758953 0.65300006 13227001
-0.092521906 0.10742477 0.65200001 13358587
-0.091000006 0.10709524 0.65000004 13358587
-0.089761913 0.10709524 0.65000004 13424380
-0.088523813 0.10709524 0.65000004 13489914
-0.087285712 0.10709524 0.65000004 13489914
-0.086047627 0.10709524 0.65000004 13686780
-0.084679052 0.10693048 0.64900005 13357815
-0.083185717 0.10660095 0.64700001 13028351
-0.081953332 0.10660095 0.64700001 12502013
-0.080596194 0.10643619 0.64600003 11183607
-0.079365723 0.10643619 0.64600003 4933272
-0.077893339 0.10610668 0.64400005 5716997
-0.076666676 0.10610668 0.64400005 9664577
-0.11399524 0.10783334 0.64700001 9743345
-0.11276285 0.10783334 0.64700001 12501474
-0.11153048 0.10783334 0.64700001 13093611
-0.1102981 0.10783334 0.64700001 13356799
-0.10906572 0.10783334 0.64700001 13751551
-0.10783334 0.10783334 0.64700001 13555455
-0.10660095 0.10783334 0.64700001 13292283
-0.10536857 0.10783334 0.64700001 13358074
-0.10429715 0.108 0.648 13358074
-0.10306286 0.108 0.648 13358074
-0.10198572 0.10816668 0.64900005 13358074
-0.10090476 0.10833334 0.65000004 13358074
-0.099666677 0.10833334 0.65000004 13358074
-0.098428577 0.10833334 0.65000004 13292794
-0.097489521 0.10866667 0.65200001 13358587
-0.096247621 0.10866667 0.65200001 13555707
-0.095005721 0.10866667 0.65200001 13358328
-0.093763813 0.10866667 0.65200001 13358074
-0.092238098 0.10833334 0.65000004 13423867
-0.090860009 0.10816668 0.64900005 13358328
-0.089623809 0.10816668 0.64900005 13424121
-0.088523813 0.10833334 0.65000004 13620987
-0.087151438 0.10816668 0.64900005 13686780
-0.085915245 0.10816668 0.64900005 13884159
-0.084418096 0.10783334 0.64700001 13555194
-0.082800008 0.10733335 0.64400005 13225471
-0.081573337 0.10733335 0.64400005 12830719
-0.080346674 0.10733335 0.64400005 11119838
-0.079120003 0.10733335 0.64400005 821
-0.077893339 0.10733335 0.64400005 65633
-0.076666676 0.10733335 0.64400005 6447042
-0.11451524 0.10839143 0.64300001 2309490
-0.11329047 0.10839143 0.64300001 10599408
-0.11206571 0.10839143 0.64300001 12895740
-0.11084095 0.10839143 0.64300001 12895740
-0.10978667 0.10856 0.64400005 12831487
-0.10856 0.10856 0.64400005 13357823
-0.10733335 0.10856 0.64400005 13227263
-0.10610668 0.10856 0.64400005 13029884
-0.10488001 0.10856 0.64400005 13292794
-0.10365334 0.10856 0.64400005 13227001
-0.10242668 0.10856 0.64400005 13358074
-0.10120001 0.10856 0.64400005 13358074
-0.10074953 0.10940287 0.64900005 13423610
-0.099513337 0.10940287 0.64900005 13489403
-0.098277152 0.10940287 0.64900005 13292794
-0.097040959 0.10940287 0.64900005 13292794
-0.095804766 0.10940287 0.64900005 13358074
-0.094568573 0.10940287 0.64900005 13358074
-0.093763813 0.10990857 0.65200001 13358074
-0.092238098 0.10957143 0.65000004 13358074
-0.090719998 0.10923428 0.648 13358074
-0.089485712 0.10923428 0.648 13489660
-0.088387623 0.10940287 0.64900005 13686780
-0.087151438 0.10940287 0.64900005 13686780
-0.085915245 0.10940287 0.64900005 13949439
-0.084418096 0.10906572 0.64700001 13686267
-0.082671426 0.10839143 0.64300001 13028863
-0.081446663 0.10839143 0.64300001 12173559
-0.079972379 0.1080543 0.64100003 8360918
-0.07875143 0.1080543 0.64100003 2380
-0.077530481 0.1080543 0.64100003 74
-0.076666676 0.10856 0.64400005 6183848
-0.11276191 0.10910477 0.64000005 12040703
-0.11154287 0.10910477 0.64000005 13552114
-0.11049619 0.10927524 0.64100003 13420528
-0.10961619 0.10961619 0.64300001 13093880
-0.10839143 0.10961619 0.64300001 13751807
-0.10716667 0.10961619 0.64300001 13687039
-0.1059419 0.10961619 0.64300001 13358076
-0.10488001 0.10978667 0.64400005 13292540
-0.10365334 0.10978667 0.64400005 13292540
-0.10242668 0.10978667 0.64400005 13489660
-0.10120001 0.10978667 0.64400005 13423867
-0.10074953 0.11063905 0.64900005 13423867
-0.099513337 0.11063905 0.64900005 13423867
-0.098277152 0.11063905 0.64900005 13423867
-0.097040959 0.11063905 0.64900005 13423867
-0.095804766 0.11063905 0.64900005 13555194
-0.094568573 0.11063905 0.64900005 13555194
-0.093332388 0.11063905 0.64900005 13555707
-0.091954283 0.11046857 0.648 13555707
-0.090719998 0.11046857 0.648 13818366
-0.089485712 0.11046857 0.648 13949951
-0.088387623 0.11063905 0.64900005 14147071
-0.087151438 0.11063905 0.64900005 13554935
-0.085915245 0.11063905 0.64900005 13423615
-0.083504766 0.10910477 0.64000005 11647206
-0.082028575 0.10876381 0.63800001 10003428
-0.080813333 0.10876381 0.63800001 4542609
-0.079972379 0.10927524 0.64100003 401294
-0.078628577 0.10910477 0.64000005 1910
-0.077409528 0.10910477 0.64000005 131197
-0.076190479 0.10910477 0.64000005 6183385
-0.11569143 0.10963429 0.63600004 3952494
-0.11448001 0.10963429 0.63600004 2601
-0.11326858 0.10963429 0.63600004 4331618
-0.11205714 0.10963429 0.63600004 13279466
-0.11084572 0.10963429 0.63600004 12698345
-0.10997905 0.10997905 0.63800001 13158896
-0.10876381 0.10997905 0.63800001 12765174
-0.10839143 0.11084095 0.64300001 13686271
-0.10716667 0.11084095 0.64300001 13555711
-0.10544763 0.11032382 0.64000005 13358335
-0.10422858 0.11032382 0.64000005 13358335
-0.10300954 0.11032382 0.64000005 13358335
-0.09940476 0.10773809 0.625 13555453
-0.098214284 0.10773809 0.625 13489660
-0.097644761 0.10842761 0.62900001 13424380
-0.096446671 0.10842761 0.62900001 13424380
-0.095248573 0.10842761 0.62900001 13555707
-0.093900949 0.10825524 0.62800002 13555707
-0.092704765 0.10825524 0.62800002 13686780
-0.091508567 0.10825524 0.62800002 13818366
-0.090312384 0.10825524 0.62800002 13884159
-0.089258097 0.10842761 0.62900001 13818366
-0.08820001 0.10860001 0.63000005 14015743
-0.087000005 0.10860001 0.63000005 13818366
-0.086617149 0.10963429 0.63600004 13554687
-0.085405715 0.10963429 0.63600004 13028348
-0.084194295 0.10963429 0.63600004 12238591
-0.082982861 0.10963429 0.63600004 10988531
-0.081771433 0.10963429 0.63600004 6456280
-0.080813333 0.10997905 0.63800001 337531
-0.079847619 0.11032382 0.64000005 65679
-0.078628577 0.11032382 0.64000005 141
-0.077409528 0.11032382 0.64000005 65668
-0.076190479 0.11032382 0.64000005 6249442
-0.11671905 0.11067144 0.63500005 7762829
-0.11550953 0.11067144 0.63500005 5133440
-0.11430001 0.11067144 0.63500005 815
-0.11309049 0.11067144 0.63500005 131156
-0.11188096 0.11067144 0.63500005 3617673
-0.11067144 0.11067144 0.63500005 8352138
-0.10928952 0.11049715 0.634 10786479
-0.10808191 0.11049715 0.634 12105160
-0.10687429 0.11049715 0.634 12565711
-0.10666667 0.11154287 0.64000005 13356772
-0.10544763 0.11154287 0.64000005 13619944
-0.10422858 0.11154287 0.64000005 13751807
-0.10059524 0.10892857 0.625 13620223
-0.09940476 0.10892857 0.625 13752575
-0.098214284 0.10892857 0.625 13752575
-0.097644761 0.10962571 0.62900001 13950207
-0.096446671 0.10962571 0.62900001 13884415
-0.095248573 0.10962571 0.62900001 13819135
-0.093900949 0.10945143 0.62800002 13819135
-0.092704765 0.10945143 0.62800002 13884415
-0.091508567 0.10945143 0.62800002 13489660
-0.090312384 0.10945143 0.62800002 13423359
-0.089258097 0.10962571 0.62900001 12239091
-0.08820001 0.1098 0.63000005 11187199
-0.087000005 0.1098 0.63000005 10002933
-0.086072385 0.11014858 0.63200003 5989887
-0.085405715 0.11084572 0.63600004 5200383
-0.084194295 0.11084572 0.63600004 331223
-0.082982861 0.11084572 0.63600004 199
-0.081771433 0.11084572 0.63600004 131224
-0.081066668 0.11154287 0.64000005 459421
-0.079598099 0.11119429 0.63800001 332712
-0.078382857 0.11119429 0.63800001 3233
-0.077167623 0.11119429 0.63800001 593810
-0.075952381 0.11119429 0.63800001 6120422
-0.11774285 0.11170476 0.634 9934252
-0.11653524 0.11170476 0.634 8486806
-0.11550953 0.11188096 0.63500005 5264772
-0.11430001 0.11188096 0.63500005 1075
-0.11291238 0.11170476 0.634 65624
-0.11170476 0.11170476 0.634 459870
-0.11014858 0.11135238 0.63200003 2296943
-0.10877238 0.1111762 0.63100004 7428797
-0.10740001 0.11100001 0.63000005 9274047
-0.10620001 0.11100001 0.63000005 11050458
-0.10516667 0.1111762 0.63100004 10724832
-0.10347048 0.11064762 0.62800002 11843313
-0.10227428 0.11064762 0.62800002 12697852
-0.10059524 0.11011904 0.625 12961023
-0.09940476 0.11011904 0.625 12963071
-0.098685719 0.11064762 0.62800002 13160447
-0.097644761 0.1108238 0.62900001 13358079
-0.096446671 0.1108238 0.62900001 13160703
-0.095248573 0.1108238 0.62900001 12701183
-0.093900949 0.11064762 0.62800002 12438015
-0.092704765 0.11064762 0.62800002 12371711
-0.091508567 0.11064762 0.62800002 11713787
-0.090312384 0.11064762 0.62800002 10726655
-0.089258097 0.1108238 0.62900001 10529279
-0.08820001 0.11100001 0.63000005 10463484
-0.087000005 0.11100001 0.63000005 8884452
-0.086072385 0.11135238 0.63200003 4350684
-0.08486858 0.11135238 0.63200003 732069
-0.084061913 0.11188096 0.63500005 198575
-0.082852393 0.11188096 0.63500005 425
-0.081642859 0.11188096 0.63500005 131234
-0.080560006 0.11205714 0.63600004 920238
-0.079473339 0.11223333 0.63700002 1055910
-0.078260005 0.11223333 0.63700002 332187
-0.076925717 0.11205714 0.63600004 1448592
-0.07571429 0.11205714 0.63600004 6185688
-0.11774285 0.11291238 0.634 9868457
-0.11653524 0.11291238 0.634 8618390
-0.11532762 0.11291238 0.634 6251142
-0.11412 0.11291238 0.634 198186
-0.11291238 0.11291238 0.634 196716
-0.11135238 0.1125562 0.63200003 393583
-0.10997429 0.11237811 0.63100004 327806
-0.10860001 0.11220001 0.63000005 393343
-0.10740001 0.11220001 0.63000005 262278
-0.10620001 0.11220001 0.63000005 196741
-0.10483333 0.11202191 0.62900001 131201
-0.10347048 0.11184381 0.62800002 1183633
-0.10227428 0.11184381 0.62800002 2173360
-0.10091715 0.11166572 0.62700003 3028669
-0.099722862 0.11166572 0.62700003 3426482
-0.098528571 0.11166572 0.62700003 3952826
-0.097334288 0.11166572 0.62700003 3493822
-0.096140005 0.11166572 0.62700003 3428029
-0.094945721 0.11166572 0.62700003 1984964
-0.093900949 0.11184381 0.62800002 1392827
-0.092557147 0.11166572 0.62700003 1853128
-0.091362864 0.11166572 0.62700003 800440
-0.090168573 0.11166572 0.62700003 1391805
-0.089116193 0.11184381 0.62800002 2641872
-0.087920003 0.11184381 0.62800002 1128381
-0.086861908 0.11202191 0.62900001 7330
-0.085800007 0.11220001 0.63000005 331200
-0.084734291 0.11237811 0.63100004 528579
-0.083664767 0.1125562 0.63200003 402618
-0.082852393 0.11309049 0.63500005 534204
-0.081642859 0.11309049 0.63500005 1450675
-0.080433339 0.11309049 0.63500005 1384882
-0.079348572 0.11326858 0.63600004 1779624
-0.078137144 0.11326858 0.63600004 2634933
-0.076925717 0.11326858 0.63600004 2765714
-0.07571429 0.11326858 0.63600004 5857985
-0.11774285 0.11412 0.634 10000556
-0.11653524 0.11412 0.634 8882075
-0.11496381 0.11376 0.63200003 6120596
-0.11376 0.11376 0.63200003 1847
-0.11237811 0.11358001 0.63100004 65644
-0.1111762 0.11358001 0.63100004 920697
-0.1098 0.1134 0.63000005 197760
-0.10860001 0.1134 0.63000005 123
-0.10722952 0.11322001 0.62900001 135
-0.10603143 0.11322001 0.62900001 135
-0.10483333 0.11322001 0.62900001 137
-0.10363524 0.11322001 0.62900001 65674
-0.10227428 0.11304 0.62800002 65691
-0.10091715 0.11286 0.62700003 65691
-0.099722862 0.11286 0.62700003 131225
-0.098528571 0.11286 0.62700003 328092
-0.097334288 0.11286 0.62700003 198832
-0.096140005 0.11286 0.62700003 2172622
-0.094945721 0.11286 0.62700003 4081616
-0.093900949 0.11304 0.62800002 3884237
-0.092557147 0.11286 0.62700003 4149714
-0.091362864 0.11286 0.62700003 1978545
-0.090168573 0.11286 0.62700003 1779899
-0.08897429 0.11286 0.62700003 529832
-0.087780006 0.11286 0.62700003 331701
-0.086723812 0.11304 0.62800002 265908
-0.085800007 0.1134 0.63000005 266685
-0.084600009 0.1134 0.63000005 924615
-0.083532386 0.11358001 0.63100004 2108857
-0.082460955 0.11376 0.63200003 1845685
-0.081514291 0.11412 0.634 2107315
-0.080433339 0.11430001 0.63500005 1909936
-0.079223812 0.11430001 0.63500005 1649067
-0.078137144 0.11448001 0.63600004 2372790
-0.076925717 0.11448001 0.63600004 2634644
-0.07571429 0.11448001 0.63600004 5068985
-0.11737143 0.11496381 0.63200003 9934248
-0.11616762 0.11496381 0.63200003 9013146
-0.11496381 0.11496381 0.63200003 6316949
-0.11376 0.11496381 0.63200003 132407
-0.11220001 0.11460001 0.63000005 65638
-0.11100001 0.11460001 0.63000005 986228
-0.1098 0.11460001 0.63000005 462726
-0.10842761 0.1144181 0.62900001 528519
-0.10705905 0.1142362 0.62800002 331674
-0.10586286 0.1142362 0.62800002 660639
-0.1045 0.11405428 0.62700003 660900
-0.10330572 0.11405428 0.62700003 463521
-0.10211143 0.11405428 0.62700003 461484
-0.10091715 0.11405428 0.62700003 593070
-0.099722862 0.11405428 0.62700003 461999
-0.098528571 0.11405428 0.62700003 2106824
-0.097023807 0.11369047 0.625 2503113
-0.095833331 0.11369047 0.625 4411110
-0.094642855 0.11369047 0.625 4345819
-0.093452379 0.11369047 0.625 3687889
-0.092261903 0.11369047 0.625 2571475
-0.091071427 0.11369047 0.625 1979338
-0.089880951 0.11369047 0.625 862401
-0.088690475 0.11369047 0.625 599229
-0.087780006 0.11405428 0.62700003 664770
-0.086585723 0.11405428 0.62700003 1256907
-0.08566381 0.1144181 0.62900001 1980864
-0.084600009 0.11460001 0.63000005 2046657
-0.083400004 0.11460001 0.63000005 2767550
-0.08233048 0.11478192 0.63100004 3162308
-0.081514291 0.11532762 0.634 2700983
-0.080433339 0.11550953 0.63500005 2043053
-0.079223812 0.11550953 0.63500005 1322162
-0.078137144 0.11569143 0.63600004 2111678
-0.076925717 0.11569143 0.63600004 2963878
-0.07571429 0.11569143 0.63600004 4608703
-0.11737143 0.11616762 0.63200003 9934761
-0.11616762 0.11616762 0.63200003 8816280
-0.11496381 0.11616762 0.63200003 6316429
-0.11358001 0.11598381 0.63100004 197680
-0.11220001 0.11580001 0.63000005 65632
-0.11100001 0.11580001 0.63000005 1118320
-0.10962571 0.11561619 0.62900001 397701
-0.10825524 0.11543238 0.62800002 529287
-0.10688858 0.11524858 0.62700003 464786
-0.10569429 0.11524858 0.62700003 727958
-0.10416666 0.11488095 0.625 660898
-0.10297619 0.11488095 0.625 726691
-0.10178571 0.11488095 0.625 792486
-0.10059524 0.11488095 0.625 792486
-0.09940476 0.11488095 0.625 1186213
-0.098214284 0.11488095 0.625 1975729
-0.096868575 0.11469714 0.62400001 1911735
-0.095680006 0.11469714 0.62400001 1977528
-0.094642855 0.11488095 0.625 1585350
-0.093452379 0.11488095 0.625 137904
-0.092261903 0.11488095 0.625 528571
-0.091071427 0.11488095 0.625 857536
-0.089880951 0.11488095 0.625 1253564
-0.088690475 0.11488095 0.625 1779908
-0.087499999 0.11488095 0.625 1452222
-0.086585723 0.11524858 0.62700003 2241738
-0.08566381 0.11561619 0.62900001 2441161
-0.084600009 0.11580001 0.63000005 2177989
-0.083400004 0.11580001 0.63000005 2112700
-0.08233048 0.11598381 0.63100004 2507458
-0.08125715 0.11616762 0.63200003 2832823
-0.080433339 0.11671905 0.63500005 2109100
-0.079223812 0.11671905 0.63500005 1191085
-0.078137144 0.11690287 0.63600004 3099082
-0.076925717 0.11690287 0.63600004 4411309
-0.075833336 0.11708666 0.63700002 4016551
-0.074737139 0.11727048 0.63800001 7432333
-0.11616762 0.11737143 0.63200003 8750487
-0.11478192 0.11718572 0.63100004 6382476
-0.11358001 0.11718572 0.63100004 132141
-0.11220001 0.11700001 0.63000005 65627
-0.1108238 0.11681429 0.62900001 1118059
-0.10945143 0.11662858 0.62800002 397953
-0.10825524 0.11662858 0.62800002 595332
-0.10688858 0.11644286 0.62700003 463760
-0.10569429 0.11644286 0.62700003 661139
-0.10416666 0.11607143 0.625 661661
-0.10297619 0.11607143 0.625 595868
-0.10178571 0.11607143 0.625 791975
-0.10059524 0.11607143 0.625 923561
-0.09940476 0.11607143 0.625 1121449
-0.098214284 0.11607143 0.625 989863
-0.096868575 0.11588571 0.62400001 661929
-0.095680006 0.11588571 0.62400001 464550
-0.094642855 0.11607143 0.625 463791
-0.093452379 0.11607143 0.625 397998
-0.092261903 0.11607143 0.625 529584
-0.091071427 0.11607143 0.625 924342
-0.089880951 0.11607143 0.625 1319611
-0.088690475 0.11607143 0.625 1977541
-0.087499999 0.11607143 0.625 1912764
-0.086585723 0.11644286 0.62700003 2504901
-0.08566381 0.11681429 0.62900001 3031499
-0.084600009 0.11700001 0.63000005 2570948
-0.083400004 0.11700001 0.63000005 2112446
-0.08233048 0.11718572 0.63100004 2178239
-0.08125715 0.11737143 0.63200003 2767537
-0.080433339 0.11792858 0.63500005 2306986
-0.079348572 0.11811429 0.63600004 1061811
-0.078260005 0.11830001 0.63700002 3167187
-0.07704667 0.11830001 0.63700002 4739254
-0.075952381 0.11848572 0.63800001 3949738
-0.074737139 0.11848572 0.63800001 6972560
-0.073752381 0.11885715 0.64000005 10722761
-0.11616762 0.11857525 0.63200003 8881560
-0.11478192 0.11838762 0.63100004 6644617
-0.11358001 0.11838762 0.63100004 328489
-0.11220001 0.1182 0.63000005 65628
-0.1108238 0.11801238 0.62900001 1184109
-0.10945143 0.11782476 0.62800002 398210
-0.10825524 0.11782476 0.62800002 529796
-0.10688858 0.11763714 0.62700003 463503
-0.10569429 0.11763714 0.62700003 595089
-0.10416666 0.1172619 0.625 529566
-0.10297619 0.1172619 0.625 661152
-0.10178571 0.1172619 0.625 726693
-0.10059524 0.1172619 0.625 792486
-0.09940476 0.1172619 0.625 859562
-0.098214284 0.1172619 0.625 925355
-0.096868575 0.11707429 0.62400001 924590
-0.095680006 0.11707429 0.62400001 924590
-0.09449143 0.11707429 0.62400001 662960
-0.093452379 0.1172619 0.625 662960
-0.092261903 0.1172619 0.625 925619
-0.091071427 0.1172619 0.625 991412
-0.089880951 0.1172619 0.625 1516986
-0.088690475 0.1172619 0.625 1977537
-0.087780006 0.11763714 0.62700003 1846971
-0.086585723 0.11763714 0.62700003 2439108
-0.08566381 0.11801238 0.62900001 2835140
-0.084600009 0.1182 0.63000005 2374589
-0.083400004 0.1182 0.63000005 1717949
-0.08233048 0.11838762 0.63100004 1783742
-0.081514291 0.11895048 0.634 2701744
-0.080433339 0.1191381 0.63500005 2306986
-0.079348572 0.11932572 0.63600004 1061807
-0.078382857 0.11970095 0.63800001 2969804
-0.077167623 0.11970095 0.63800001 4279486
-0.075952381 0.11970095 0.63800001 3687349
-0.074737139 0.11970095 0.63800001 7038103
-0.073752381 0.1200762 0.64000005 10656718
-0.11653524 0.12015809 0.634 8881560
-0.11496381 0.11977905 0.63200003 6644617
-0.11376 0.11977905 0.63200003 328489
-0.11237811 0.11958953 0.63100004 65632
-0.11100001 0.11940001 0.63000005 920941
-0.10962571 0.11921048 0.62900001 397953
-0.10825524 0.11902096 0.62800002 529539
-0.10688858 0.11883143 0.62700003 463503
-0.10569429 0.11883143 0.62700003 397710
-0.10416666 0.11845238 0.625 530077
-0.10297619 0.11845238 0.625 398491
-0.10178571 0.11845238 0.625 594598
-0.10059524 0.11845238 0.625 857770
-0.09940476 0.11845238 0.625 925351
-0.098214284 0.11845238 0.625 859558
-0.096868575 0.11826286 0.62400001 990385
-0.095680006 0.11826286 0.62400001 1121971
-0.09449143 0.11826286 0.62400001 925619
-0.093452379 0.11845238 0.625 794033
-0.092261903 0.11845238 0.625 991412
-0.091071427 0.11845238 0.625 925619
-0.089880951 0.11845238 0.625 1254584
-0.088690475 0.11845238 0.625 1780928
-0.087499999 0.11845238 0.625 2175413
-0.086585723 0.11883143 0.62700003 2175413
-0.08566381 0.11921048 0.62900001 1389245
-0.084600009 0.11940001 0.63000005 1257659
-0.083400004 0.11940001 0.63000005 862397
-0.08233048 0.11958953 0.63100004 665018
-0.081642859 0.12034763 0.63500005 795825
-0.080560006 0.12053715 0.63600004 1519548
-0.079348572 0.12053715 0.63600004 2110381
-0.078382857 0.1209162 0.63800001 4413136
-0.077167623 0.1209162 0.63800001 5593799
-0.075952381 0.1209162 0.63800001 4343732
-0.074737139 0.1209162 0.63800001 5985949
-0.073752381 0.12129524 0.64000005 10262494
-0.072533339 0.12129524 0.64000005 10854069
-0.11653524 0.12136571 0.634 8816280
-0.11496381 0.12098286 0.63200003 6514062
-0.11376 0.12098286 0.63200003 132141
-0.11237811 0.12079144 0.63100004 65632
-0.11100001 0.12060001 0.63000005 986734
-0.10962571 0.12040857 0.62900001 397953
-0.10842761 0.12040857 0.62900001 463746
-0.10705905 0.12021714 0.62800002 463503
-0.10569429 0.12002572 0.62700003 463503
-0.1045 0.12002572 0.62700003 529564
-0.10297619 0.11964285 0.625 463771
-0.10178571 0.11964285 0.625 529316
-0.10059524 0.11964285 0.625 792488
-0.09940476 0.11964285 0.625 1055147
-0.098057143 0.11945143 0.62400001 1120940
-0.096868575 0.11945143 0.62400001 924592
-0.095680006 0.11945143 0.62400001 990385
-0.09449143 0.11945143 0.62400001 727988
-0.093452379 0.11964285 0.625 727988
-0.092261903 0.11964285 0.625 859828
-0.091071427 0.11964285 0.625 925621
-0.089880951 0.11964285 0.625 925369
-0.088690475 0.11964285 0.625 1517506
-0.087499999 0.11964285 0.625 1453237
-0.086585723 0.12002572 0.62700003 1387444
-0.085800007 0.12060001 0.63000005 1321147
-0.084600009 0.12060001 0.63000005 1255354
-0.083400004 0.12060001 0.63000005 666040
-0.08233048 0.12079144 0.63100004 402868
-0.081514291 0.12136571 0.634 992684
-0.080433339 0.12155715 0.63500005 1979579
-0.079348572 0.12174857 0.63600004 2832812
-0.078382857 0.12213144 0.63800001 4411844
-0.077167623 0.12213144 0.63800001 4807864
-0.075952381 0.12213144 0.63800001 3426211
-0.074737139 0.12213144 0.63800001 4146309
-0.073752381 0.1225143 0.64000005 9541335
-0.072533339 0.1225143 0.64000005 10919864
-0.11653524 0.12257333 0.634 9078680
-0.11496381 0.12218667 0.63200003 7105172
-0.11376 0.12218667 0.63200003 328493
-0.1125562 0.12218667 0.63200003 65631
-0.1111762 0.12199333 0.63100004 1117807
-0.1098 0.12180001 0.63000005 594051
-0.10842761 0.12160667 0.62900001 659844
-0.10705905 0.12141334 0.62800002 463760
-0.10586286 0.12141334 0.62800002 595346
-0.1045 0.12122001 0.62700003 530077
-0.10297619 0.12083333 0.625 464284
-0.10178571 0.12083333 0.625 529316
-0.10059524 0.12083333 0.625 792488
-0.09940476 0.12083333 0.625 1055658
-0.098057143 0.12064 0.62400001 1055658
-0.096868575 0.12064 0.62400001 989874
-0.095680006 0.12064 0.62400001 989874
-0.09449143 0.12064 0.62400001 859828
-0.093452379 0.12083333 0.625 859828
-0.092261903 0.12083333 0.625 925367
-0.091071427 0.12083333 0.625 925367
-0.089880951 0.12083333 0.625 925369
-0.08897429 0.12122001 0.62700003 1056955
-0.087920003 0.12141334 0.62800002 991923
-0.086723812 0.12141334 0.62800002 991923
-0.085800007 0.12180001 0.63000005 1057207
-0.084600009 0.12180001 0.63000005 1254586
-0.083532386 0.12199333 0.63100004 1387192
-0.08233048 0.12199333 0.63100004 1255606
-0.081514291 0.12257333 0.634 2109618
-0.080433339 0.12276668 0.63500005 2833341
-0.079348572 0.12296 0.63600004 2832810
-0.078260005 0.12315334 0.63700002 2306466
-0.077167623 0.12334667 0.63800001 1781144
-0.075952381 0.12334667 0.63800001 3705
-0.074737139 0.12334667 0.63800001 2108018
-0.073752381 0.12373334 0.64000005 8884697
-0.11774285 0.12378095 0.634 10196652
-0.11653524 0.12378095 0.634 8946585
-0.11496381 0.12339049 0.63200003 6843780
-0.11376 0.12339049 0.63200003 132894
-0.1125562 0.12339049 0.63200003 65627
-0.1111762 0.12319525 0.63100004 1183852
-0.1098 0.12300001 0.63000005 594051
-0.10842761 0.12280477 0.62900001 594051
-0.10705905 0.12260953 0.62800002 659855
-0.10569429 0.12241429 0.62700003 988820
-0.1045 0.12241429 0.62700003 530077
-0.10297619 0.12202381 0.625 530077
-0.10178571 0.12202381 0.625 726693
-0.10059524 0.12202381 0.625 989865
-0.09940476 0.12202381 0.625 858797
-0.098057143 0.12182858 0.62400001 793004
-0.096868575 0.12182858 0.62400001 989874
-0.095680006 0.12182858 0.62400001 989874
-0.094642855 0.12202381 0.625 1055667
-0.093452379 0.12202381 0.625 1121460
-0.092261903 0.12202381 0.625 925367
-0.091071427 0.12202381 0.625 925367
-0.089880951 0.12202381 0.625 925369
-0.08897429 0.12241429 0.62700003 925369
-0.087920003 0.12260953 0.62800002 991414
-0.086723812 0.12260953 0.62800002 1188793
-0.085800007 0.12300001 0.63000005 1057207
-0.084600009 0.12300001 0.63000005 1583551
-0.083532386 0.12319525 0.63100004 1912766
-0.082460955 0.12339049 0.63200003 1781180
-0.081514291 0.12378095 0.634 2569908
-0.080560006 0.12417143 0.63600004 2701494
-0.079473339 0.12436667 0.63700002 2898612
-0.078260005 0.12436667 0.63700002 1977510
-0.077167623 0.12456191 0.63800001 1451159
-0.075952381 0.12456191 0.63800001 2685
-0.074737139 0.12456191 0.63800001 988790
-0.073752381 0.12495239 0.64000005 8752364
-0.11774285 0.12498858 0.634 10065323
-0.11653524 0.12498858 0.634 7565189
-0.11532762 0.12498858 0.634 5987685
-0.11412 0.12498858 0.634 263694
-0.1125562 0.12459429 0.63200003 65623
-0.1111762 0.12439714 0.63100004 986725
-0.1098 0.12420002 0.63000005 397953
-0.10842761 0.12400286 0.62900001 463746
-0.10705905 0.12380572 0.62800002 463760
-0.10569429 0.12360857 0.62700003 595346
-0.1045 0.12360857 0.62700003 530077
-0.10297619 0.12321428 0.625 530077
-0.10178571 0.12321428 0.625 858277
-0.10059524 0.12321428 0.625 989863
-0.09940476 0.12321428 0.625 924590
-0.098057143 0.12301714 0.62400001 924590
-0.096868575 0.12301714 0.62400001 1056178
-0.095680006 0.12301714 0.62400001 1056178
-0.094642855 0.12321428 0.625 859574
-0.093452379 0.12321428 0.625 859574
-0.092261903 0.12321428 0.625 925369
-0.091071427 0.12321428 0.625 925369
-0.089880951 0.12321428 0.625 1056953
-0.08897429 0.12360857 0.62700003 1056953
-0.087920003 0.12380572 0.62800002 1319611
-0.086723812 0.12380572 0.62800002 1451197
-0.085800007 0.12420002 0.63000005 2240441
-0.084600009 0.12420002 0.63000005 2832578
-0.083532386 0.12439714 0.63100004 2964164
-0.082460955 0.12459429 0.63200003 2372027
-0.081514291 0.12498858 0.634 1782452
-0.080560006 0.12538287 0.63600004 1979831
-0.079473339 0.12558001 0.63700002 2174652
-0.078260005 0.12558001 0.63700002 1319343
-0.077167623 0.12577716 0.63800001 794010
-0.075952381 0.12577716 0.63800001 3466
-0.074971437 0.12617144 0.64000005 2435207
-0.073752381 0.12617144 0.64000005 8817128
-0.11792858 0.12639524 0.63500005 10065836
-0.11671905 0.12639524 0.63500005 8092046
-0.11532762 0.12619619 0.634 5068148
-0.11412 0.12619619 0.634 1830
-0.1125562 0.12579811 0.63200003 66911
-0.11135238 0.12579811 0.63200003 856427
-0.1098 0.12540001 0.63000005 464005
-0.10860001 0.12540001 0.63000005 595591
-0.10722952 0.12520096 0.62900001 529555
-0.10586286 0.12500191 0.62800002 595348
-0.1045 0.12480287 0.62700003 529566
-0.10297619 0.12440476 0.625 463773
-0.10178571 0.12440476 0.625 791977
-0.10059524 0.12440476 0.625 989356
-0.09940476 0.12440476 0.625 662960
-0.098214284 0.12440476 0.625 728753
-0.097023807 0.12440476 0.625 859828
-0.095833331 0.12440476 0.625 859828
-0.094642855 0.12440476 0.625 925621
-0.093452379 0.12440476 0.625 859828
-0.092261903 0.12440476 0.625 925369
-0.091071427 0.12440476 0.625 991162
-0.090168573 0.12480287 0.62700003 1319611
-0.08897429 0.12480287 0.62700003 1516990
-0.087920003 0.12500191 0.62800002 1189563
-0.086723812 0.12500191 0.62800002 1584321
-0.085800007 0.12540001 0.63000005 3094719
-0.084600009 0.12540001 0.63000005 3094719
-0.083532386 0.12559906 0.63100004 2832578
-0.082460955 0.12579811 0.63200003 2108855
-0.081514291 0.12619619 0.634 1125040
-0.080433339 0.12639524 0.63500005 1256626
-0.079348572 0.12659429 0.63600004 1386422
-0.078260005 0.12679334 0.63700002 925871
-0.077167623 0.12699237 0.63800001 598932
-0.075952381 0.12699237 0.63800001 5767
-0.074971437 0.12739049 0.64000005 3485576
-0.073752381 0.12739049 0.64000005 8814809
-0.11792858 0.12760478 0.63500005 10066349
-0.11671905 0.12760478 0.63500005 8289938
-0.11550953 0.12760478 0.63500005 5659532
-0.11412 0.12740381 0.634 67127
-0.1125562 0.12700191 0.63200003 65639
-0.11135238 0.12700191 0.63200003 986741
-0.10997429 0.12680095 0.63100004 529798
-0.10860001 0.12660001 0.63000005 464005
-0.10722952 0.12639904 0.62900001 463762
-0.10603143 0.12639904 0.62900001 529555
-0.10466667 0.1261981 0.62800002 528801
-0.10330572 0.12599716 0.62700003 528801
-0.10178571 0.12559524 0.625 595625
-0.10059524 0.12559524 0.625 793004
-0.09940476 0.12559524 0.625 728753
-0.098214284 0.12559524 0.625 662960
-0.097023807 0.12559524 0.625 793783
-0.095833331 0.12559524 0.625 925369
-0.094642855 0.12559524 0.625 727988
-0.093452379 0.12559524 0.625 793781
-0.092261903 0.12559524 0.625 858808
-0.091071427 0.12559524 0.625 990394
-0.090168573 0.12599716 0.62700003 991932
-0.08897429 0.12599716 0.62700003 1123518
-0.087920003 0.1261981 0.62800002 1255356
-0.086723812 0.1261981 0.62800002 1452735
-0.085800007 0.12660001 0.63000005 1057727
-0.084600009 0.12660001 0.63000005 991934
-0.083532386 0.12680095 0.63100004 727745
-0.082460955 0.12700191 0.63200003 4022
-0.081514291 0.12740381 0.634 464300
-0.080433339 0.12760478 0.63500005 1253816
-0.079348572 0.12780572 0.63600004 1847727
-0.078260005 0.12800667 0.63700002 2045106
-0.077167623 0.12820761 0.63800001 2176415
-0.075952381 0.12820761 0.63800001 1189520
-0.075088575 0.12881048 0.64100003 1319813
-0.11811429 0.12901714 0.63600004 10066608
-0.11671905 0.12881429 0.63500005 8750748
-0.11550953 0.12881429 0.63500005 5726861
-0.11412 0.12861143 0.634 1842
-0.11291238 0.12861143 0.634 131684
-0.11135238 0.12820573 0.63200003 1250165
-0.10997429 0.12800287 0.63100004 529287
-0.10860001 0.12780002 0.63000005 660873
-0.10722952 0.12759715 0.62900001 529046
-0.10603143 0.12759715 0.62900001 594839
-0.10466667 0.12739429 0.62800002 528801
-0.10347048 0.12739429 0.62800002 528801
-0.10211143 0.12719144 0.62700003 596138
-0.10059524 0.12678571 0.625 925103
-0.09940476 0.12678571 0.625 859828
-0.098214284 0.12678571 0.625 991414
-0.097023807 0.12678571 0.625 1056953
-0.095833331 0.12678571 0.625 1122746
-0.094642855 0.12678571 0.625 925378
-0.093452379 0.12678571 0.625 662206
-0.092261903 0.12678571 0.625 662969
-0.091071427 0.12678571 0.625 991934
-0.090168573 0.12719144 0.62700003 1123009
-0.08897429 0.12719144 0.62700003 1123009
-0.087920003 0.12739429 0.62800002 1321149
-0.086723812 0.12739429 0.62800002 1255356
-0.085800007 0.12780002 0.63000005 926650
-0.084600009 0.12780002 0.63000005 729271
-0.083532386 0.12800287 0.63100004 595386
-0.082460955 0.12820573 0.63200003 529593
-0.081514291 0.12861143 0.634 530861
-0.080433339 0.12881429 0.63500005 1320377
-0.079348572 0.12901714 0.63600004 2372272
-0.078260005 0.12921999 0.63700002 2635444
-0.077167623 0.12942286 0.63800001 2701735
-0.076309532 0.13003144 0.64100003 1188496
-0.075205714 0.13023429 0.64200002 532352
-0.11671905 0.13002382 0.63500005 8619676
-0.11550953 0.13002382 0.63500005 5990285
-0.11412 0.12981905 0.634 1837
-0.11291238 0.12981905 0.634 65630
-0.11135238 0.12940952 0.63200003 1184111
-0.10997429 0.12920476 0.63100004 660873
-0.10860001 0.12900001 0.63000005 595080
-0.10722952 0.12879524 0.62900001 660632
-0.10603143 0.12879524 0.62900001 726425
-0.10466667 0.12859048 0.62800002 660898
-0.10347048 0.12859048 0.62800002 726691
-0.10211143 0.12838572 0.62700003 793006
-0.10091715 0.12838572 0.62700003 924592
-0.099722862 0.12838572 0.62700003 991412
-0.098214284 0.12797619 0.625 1122998
-0.097023807 0.12797619 0.625 1648315
-0.095833331 0.12797619 0.625 2437831
-0.094642855 0.12797619 0.625 2896336
-0.093452379 0.12797619 0.625 1843648
-0.092261903 0.12797619 0.625 1189311
-0.091071427 0.12797619 0.625 1649862
-0.090168573 0.12838572 0.62700003 1911494
-0.08897429 0.12838572 0.62700003 1582529
-0.087920003 0.12859048 0.62800002 994237
-0.086861908 0.12879524 0.62900001 994237
-0.085800007 0.12900001 0.63000005 1518267
-0.084734291 0.12920476 0.63100004 1715646
-0.083532386 0.12920476 0.63100004 1912764
-0.082460955 0.12940952 0.63200003 2044350
-0.081642859 0.13002382 0.63500005 2045365
-0.080433339 0.13002382 0.63500005 2111158
-0.079348572 0.13022858 0.63600004 2438833
-0.078260005 0.13043334 0.63700002 2373040
-0.077167623 0.13063809 0.63800001 2504360
-0.076309532 0.13125238 0.64100003 2438567
-0.075205714 0.13145714 0.64200002 5264272
-0.11811429 0.13144001 0.63600004 9804463
-0.11671905 0.13123335 0.63500005 9278119
-0.11550953 0.13123335 0.63500005 6058394
-0.11412 0.13102667 0.634 3639
-0.1125562 0.13061334 0.63200003 65627
-0.11135238 0.13061334 0.63200003 1052266
-0.10997429 0.13040666 0.63100004 463496
-0.10877238 0.13040666 0.63100004 529289
-0.10722952 0.12999333 0.62900001 529046
-0.10603143 0.12999333 0.62900001 660632
-0.10483333 0.12999333 0.62900001 660900
-0.10347048 0.12978667 0.62800002 792486
-0.10227428 0.12978667 0.62800002 793006
-0.1010781 0.12978667 0.62800002 793006
-0.099722862 0.12958001 0.62700003 859574
-0.098528571 0.12958001 0.62700003 1122746
-0.097334288 0.12958001 0.62700003 1451197
-0.096140005 0.12958001 0.62700003 2635471
-0.094945721 0.12958001 0.62700003 3489740
-0.093452379 0.12916666 0.625 1581743
-0.092261903 0.12916666 0.625 1188793
-0.091071427 0.12916666 0.625 1583551
-0.090168573 0.12958001 0.62700003 1517252
-0.08897429 0.12958001 0.62700003 1385666
-0.087920003 0.12978667 0.62800002 1060282
-0.086861908 0.12999333 0.62900001 994489
-0.085800007 0.1302 0.63000005 1059776
-0.084734291 0.13040666 0.63100004 1651913
-0.083664767 0.13061334 0.63200003 2111939
-0.082460955 0.13061334 0.63200003 1848767
-0.081642859 0.13123335 0.63500005 2111156
-0.080560006 0.13144001 0.63600004 1979570
-0.079348572 0.13144001 0.63600004 2306477
-0.078260005 0.13164666 0.63700002 2043305
-0.077409528 0.13226667 0.64000005 2240166
-0.076309532 0.13247333 0.64100003 3161268
-0.075205714 0.13268001 0.64200002 7496598
-0.074098095 0.13288668 0.64300001 11641557
-0.11811429 0.13265143 0.63600004 10000302
-0.11671905 0.13244288 0.63500005 9868716
-0.11550953 0.13244288 0.63500005 8621209
-0.11412 0.13223429 0.634 1055014
-0.1125562 0.13181715 0.63200003 65637
-0.11135238 0.13181715 0.63200003 722799
-0.10997429 0.13160858 0.63100004 331142
-0.10877238 0.13160858 0.63100004 725900
-0.10740001 0.13140002 0.63000005 661139
-0.10603143 0.13119143 0.62900001 595346
-0.10483333 0.13119143 0.62900001 595105
-0.10363524 0.13119143 0.62900001 792484
-0.10227428 0.13098286 0.62800002 595375
-0.1010781 0.13098286 0.62800002 792754
-0.09988191 0.13098286 0.62800002 793783
-0.098685719 0.13098286 0.62800002 793783
-0.097334288 0.13077429 0.62700003 991932
-0.096140005 0.13077429 0.62700003 2241999
-0.094945721 0.13077429 0.62700003 2306488
-0.093751431 0.13077429 0.62700003 990628
-0.092557147 0.13077429 0.62700003 859828
-0.091362864 0.13077429 0.62700003 991414
-0.090168573 0.13077429 0.62700003 925376
-0.089116193 0.13098286 0.62800002 1056962
-0.088059999 0.13119143 0.62900001 731833
-0.086861908 0.13119143 0.62900001 929212
-0.085936196 0.13160858 0.63100004 1583299
-0.084734291 0.13160858 0.63100004 2372815
-0.083664767 0.13181715 0.63200003 2897864
-0.082460955 0.13181715 0.63200003 2503106
-0.081642859 0.13244288 0.63500005 2241202
-0.080560006 0.13265143 0.63600004 2043823
-0.079348572 0.13265143 0.63600004 2042535
-0.078260005 0.13286 0.63700002 1779363
-0.077409528 0.13348572 0.64000005 2436514
-0.07642857 0.13390286 0.64200002 3883960
-0.075322859 0.13411143 0.64300001 6972261
-0.074098095 0.13411143 0.64300001 9735567
-0.11811429 0.13386287 0.63600004 10131116
-0.11671905 0.13365239 0.63500005 10723253
-0.11550953 0.13365239 0.63500005 9147581
-0.11412 0.1334419 0.634 2765660
-0.1125562 0.13302097 0.63200003 395900
-0.11135238 0.13302097 0.63200003 198521
-0.10997429 0.13281047 0.63100004 330879
-0.10877238 0.13281047 0.63100004 791430
-0.10740001 0.13260001 0.63000005 727184
-0.10603143 0.13238953 0.62900001 727184
-0.10483333 0.13238953 0.62900001 595868
-0.10363524 0.13238953 0.62900001 793247
-0.10243714 0.13238953 0.62900001 728742
-0.1010781 0.13217905 0.62800002 662949
-0.09988191 0.13217905 0.62800002 926128
-0.098685719 0.13217905 0.62800002 794542
-0.097489528 0.13217905 0.62800002 795316
-0.096293338 0.13217905 0.62800002 992695
-0.094945721 0.13196857 0.62700003 860855
-0.093751431 0.13196857 0.62700003 795062
-0.092557147 0.13196857 0.62700003 991932
-0.091362864 0.13196857 0.62700003 1057725
-0.090168573 0.13196857 0.62700003 729273
-0.089116193 0.13217905 0.62800002 992445
-0.088059999 0.13238953 0.62900001 863419
-0.086861908 0.13238953 0.62900001 1060798
-0.085936196 0.13281047 0.63100004 2503356
-0.084734291 0.13281047 0.63100004 2832321
-0.083532386 0.13281047 0.63100004 3094723
-0.082460955 0.13302097 0.63200003 2502586
-0.081642859 0.13365239 0.63500005 1781934
-0.080433339 0.13365239 0.63500005 1584555
-0.079348572 0.13386287 0.63600004 1977251
-0.078260005 0.13407335 0.63700002 1977251
-0.077530481 0.13491525 0.64100003 2435476
-0.07642857 0.13512571 0.64200002 3290785
-0.075322859 0.13533619 0.64300001 4011377
-0.074098095 0.13533619 0.64300001 7103648
-0.11671905 0.13486192 0.63500005 11052472
-0.11550953 0.13486192 0.63500005 10526154
-0.11412 0.13464953 0.634 7894434
-0.11291238 0.13464953 0.634 2437032
-0.11135238 0.13422476 0.63200003 2434
-0.11014858 0.13422476 0.63200003 330111
-0.10877238 0.13401239 0.63100004 988041
-0.10740001 0.1338 0.63000005 792461
-0.10603143 0.13358761 0.62900001 1121426
-0.10483333 0.13358761 0.62900001 1189270
-0.10363524 0.13358761 0.62900001 1518235
-0.10243714 0.13358761 0.62900001 1584037
-0.10123905 0.13358761 0.62900001 1518244
-0.10004095 0.13358761 0.62900001 1911980
-0.098685719 0.13337524 0.62800002 1714601
-0.097489528 0.13337524 0.62800002 1386674
-0.096293338 0.13337524 0.62800002 1386674
-0.095097147 0.13337524 0.62800002 1126839
-0.093900949 0.13337524 0.62800002 1258425
-0.092704765 0.13337524 0.62800002 3161032
-0.091508567 0.13337524 0.62800002 3095239
-0.090312384 0.13337524 0.62800002 2701753
-0.089116193 0.13337524 0.62800002 2899132
-0.088059999 0.13358761 0.62900001 2835140
-0.086861908 0.13358761 0.62900001 2571968
-0.085936196 0.13401239 0.63100004 2899132
-0.084734291 0.13401239 0.63100004 2833339
-0.083532386 0.13401239 0.63100004 2437563
-0.082460955 0.13422476 0.63200003 1713840
-0.081642859 0.13486192 0.63500005 924590
-0.080433339 0.13486192 0.63500005 661418
-0.079348572 0.13507429 0.63600004 1055136
-0.078260005 0.13528667 0.63700002 1844652
-0.077530481 0.1361362 0.64100003 2107273
-0.07642857 0.13634858 0.64200002 1317757
-0.075322859 0.13656096 0.64300001 788324
-0.074098095 0.13656096 0.64300001 87
-0.072986677 0.13677335 0.64400005 3282778
-0.11671905 0.13607144 0.63500005 10526394
-0.11550953 0.13607144 0.63500005 10525374
-0.11412 0.13585714 0.634 7893654
-0.11291238 0.13585714 0.634 4346000
-0.11170476 0.13585714 0.634 793178
-0.11014858 0.13542858 0.63200003 528759
-0.10877238 0.13521428 0.63100004 857724
-0.10757048 0.13521428 0.63100004 595080
-0.10620001 0.13500002 0.63000005 792459
-0.105 0.13500002 0.63000005 1320086
-0.10363524 0.13478573 0.62900001 1583258
-0.10243714 0.13478573 0.62900001 1977505
-0.10123905 0.13478573 0.62900001 1977505
-0.10004095 0.13478573 0.62900001 2109609
-0.098842859 0.13478573 0.62900001 1912230
-0.097644761 0.13478573 0.62900001 1584049
-0.096446671 0.13478573 0.62900001 1649842
-0.095248573 0.13478573 0.62900001 2570680
-0.094050474 0.13478573 0.62900001 2307508
-0.092852384 0.13478573 0.62900001 2701505
-0.091654286 0.13478573 0.62900001 2964677
-0.090456195 0.13478573 0.62900001 3162556
-0.089258097 0.13478573 0.62900001 2833591
-0.08820001 0.13500002 0.63000005 1850812
-0.087000005 0.13500002 0.63000005 1785019
-0.085936196 0.13521428 0.63100004 2506159
-0.084734291 0.13521428 0.63100004 2045608
-0.083664767 0.13542858 0.63200003 992175
-0.082721904 0.13585714 0.634 992175
-0.081642859 0.13607144 0.63500005 1253287
-0.080560006 0.13628572 0.63600004 1121701
-0.079473339 0.13650002 0.63700002 1318812
-0.078260005 0.13650002 0.63700002 1779363
-0.077530481 0.13735715 0.64100003 2437010
-0.07642857 0.13757142 0.64200002 1515908
-0.075322859 0.13778572 0.64300001 594051
-0.074098095 0.13778572 0.64300001 886
-0.072986677 0.13800001 0.64400005 459109
-0.11569143 0.13749716 0.63600004 3287943
-0.11430001 0.13728096 0.63500005 853602
-0.11291238 0.13706475 0.634 659280
-0.11170476 0.13706475 0.634 1580382
-0.11014858 0.13663238 0.63200003 792946
-0.10877238 0.1364162 0.63100004 595567
-0.10757048 0.1364162 0.63100004 397953
-0.10620001 0.13620001 0.63000005 463746
-0.105 0.13620001 0.63000005 727949
-0.10380001 0.13620001 0.63000005 925328
-0.10243714 0.13598381 0.62900001 727706
-0.10123905 0.13598381 0.62900001 1122464
-0.10004095 0.13598381 0.62900001 1121699
-0.098842859 0.13598381 0.62900001 1450664
-0.097644761 0.13598381 0.62900001 1254570
-0.096446671 0.13598381 0.62900001 1320363
-0.095248573 0.13598381 0.62900001 1057714
-0.094050474 0.13598381 0.62900001 728749
-0.092852384 0.13598381 0.62900001 531120
-0.091654286 0.13598381 0.62900001 596913
-0.090456195 0.13598381 0.62900001 860339
-0.089400008 0.13620001 0.63000005 860339
-0.08820001 0.13620001 0.63000005 466599
-0.087000005 0.13620001 0.63000005 6048
-0.085936196 0.1364162 0.63100004 333205
-0.08486858 0.13663238 0.63200003 464791
-0.083664767 0.13663238 0.63200003 924322
-0.082721904 0.13706475 0.634 1187494
-0.081771433 0.13749716 0.63600004 1385125
-0.080560006 0.13749716 0.63600004 1319332
-0.079598099 0.13792953 0.63800001 1122975
-0.078628577 0.13836192 0.64000005 925596
-0.077530481 0.1385781 0.64100003 594839
-0.07642857 0.13879429 0.64200002 726425
-0.075440004 0.13922669 0.64400005 988568
-0.074213333 0.13922669 0.64400005 1251740
-0.073213331 0.13965906 0.64600003 1251227
-0.072428577 0.14052381 0.65000004 646
-0.071190484 0.14052381 0.65000004 2692476
-0.11430001 0.13849048 0.63500005 589909
-0.11291238 0.13827239 0.634 196702
-0.11170476 0.13827239 0.634 920169
-0.11014858 0.1378362 0.63200003 1318007
-0.10894477 0.1378362 0.63200003 989042
-0.10757048 0.13761809 0.63100004 595589
-0.10636857 0.13761809 0.63100004 661382
-0.105 0.13740002 0.63000005 727947
-0.10380001 0.13740002 0.63000005 727947
-0.10260001 0.13740002 0.63000005 662424
-0.10140001 0.13740002 0.63000005 859803
-0.10004095 0.13718191 0.62900001 1056671
-0.098842859 0.13718191 0.62900001 990878
-0.097644761 0.13718191 0.62900001 1253287
-0.096446671 0.13718191 0.62900001 1384873
-0.095248573 0.13718191 0.62900001 1122734
-0.094200008 0.13740002 0.63000005 793769
-0.09300001 0.13740002 0.63000005 1055149
-0.091800004 0.13740002 0.63000005 1120942
-0.090600006 0.13740002 0.63000005 1120431
-0.089400008 0.13740002 0.63000005 1186224
-0.08820001 0.13740002 0.63000005 859562
-0.087000005 0.13740002 0.63000005 596390
-0.086072385 0.1378362 0.63200003 924322
-0.08486858 0.1378362 0.63200003 1450666
-0.083664767 0.1378362 0.63200003 1581995
-0.082721904 0.13827239 0.634 1516202
-0.081771433 0.13870858 0.63600004 1254570
-0.080813333 0.13914476 0.63800001 1122984
-0.079598099 0.13914476 0.63800001 926121
-0.078628577 0.13958097 0.64000005 794535
-0.077530481 0.13979904 0.64100003 660898
-0.07642857 0.14001715 0.64200002 792484
-0.075322859 0.14023523 0.64300001 1120420
-0.074098095 0.14023523 0.64300001 1383592
-0.073213331 0.14088953 0.64600003 1055910
-0.072317146 0.14154382 0.64900005 2708
-0.071190484 0.14176191 0.65000004 132991
-0.070275247 0.14241621 0.65300006 4672708
-0.069137141 0.14263429 0.65400004 7892131
-0.11641905 0.14080001 0.64000005 65635
-0.11448001 0.13992001 0.63600004 525418
-0.11309049 0.13970001 0.63500005 264316
-0.11170476 0.13947999 0.634 461695
-0.11049715 0.13947999 0.634 528258
-0.10894477 0.13904001 0.63200003 725637
-0.10774095 0.13904001 0.63200003 529287
-0.10636857 0.13882001 0.63100004 858252
-0.10516667 0.13882001 0.63100004 794253
-0.10380001 0.13860001 0.63000005 728460
-0.10260001 0.13860001 0.63000005 860564
-0.10140001 0.13860001 0.63000005 992150
-0.10004095 0.13837999 0.62900001 1057180
-0.098842859 0.13837999 0.62900001 1057180
-0.097644761 0.13837999 0.62900001 992164
-0.096446671 0.13837999 0.62900001 1189543
-0.095248573 0.13837999 0.62900001 1649069
-0.094200008 0.13860001 0.63000005 1517483
-0.09300001 0.13860001 0.63000005 2305194
-0.091800004 0.13860001 0.63000005 2502573
-0.090600006 0.13860001 0.63000005 2108594
-0.089400008 0.13860001 0.63000005 2042801
-0.088339999 0.13882001 0.63100004 1846705
-0.087138094 0.13882001 0.63100004 1517740
-0.086072385 0.13904001 0.63200003 1584051
-0.08486858 0.13904001 0.63200003 1518258
-0.083929524 0.13947999 0.634 1254836
-0.082852393 0.13970001 0.63500005 1057457
-0.082028575 0.14036 0.63800001 926639
-0.080813333 0.14036 0.63800001 860846
-0.079847619 0.14080001 0.64000005 859826
-0.078628577 0.14080001 0.64000005 859826
-0.077530481 0.14102001 0.64100003 989874
-0.07642857 0.14124 0.64200002 989874
-0.075322859 0.14146 0.64300001 1185970
-0.074098095 0.14146 0.64300001 1185970
-0.073213331 0.14212 0.64600003 1383601
-0.072317146 0.14278001 0.64900005 857257
-0.071409523 0.14343999 0.65200001 530595
-0.070167623 0.14343999 0.65200001 3030729
-0.06903144 0.14366001 0.65300006 7169196
-0.067891434 0.14388001 0.65400004 8485056
-0.11641905 0.14201906 0.64000005 131708
-0.11466 0.14135334 0.63700002 723845
-0.11326858 0.14113143 0.63600004 331910
-0.11188096 0.14090954 0.63500005 331910
-0.11049715 0.14068761 0.634 463242
-0.10928952 0.14068761 0.634 594828
-0.10774095 0.14024381 0.63200003 463762
-0.10653715 0.14024381 0.63200003 726934
-0.10516667 0.14002192 0.63100004 924313
-0.10396477 0.14002192 0.63100004 1121692
-0.10260001 0.13980001 0.63000005 924833
-0.10140001 0.13980001 0.63000005 1056419
-0.1002 0.13980001 0.63000005 1385125
-0.099000007 0.13980001 0.63000005 1516711
-0.097800009 0.13980001 0.63000005 1386408
-0.096600004 0.13980001 0.63000005 1649580
-0.095400006 0.13980001 0.63000005 1845937
-0.094200008 0.13980001 0.63000005 1845937
-0.09300001 0.13980001 0.63000005 2369971
-0.091800004 0.13980001 0.63000005 2633143
-0.090600006 0.13980001 0.63000005 2502836
-0.089400008 0.13980001 0.63000005 2437043
-0.088339999 0.14002192 0.63100004 1584823
-0.087138094 0.14002192 0.63100004 1584823
-0.086072385 0.14024381 0.63200003 1649851
-0.08486858 0.14024381 0.63200003 1584058
-0.083929524 0.14068761 0.634 928444
-0.082852393 0.14090954 0.63500005 599479
-0.082028575 0.14157525 0.63800001 926650
-0.080813333 0.14157525 0.63800001 926650
-0.079847619 0.14201906 0.64000005 1057207
-0.078628577 0.14201906 0.64000005 991414
-0.077530481 0.14224096 0.64100003 1056953
