# .PCD v0.7 - Point Cloud Data file format
VERSION 0.7
FIELDS x y z rgba
SIZE 4 4 4 4
TYPE F F F U
COUNT 1 1 1 1
WIDTH 1087
HEIGHT 1
VIEWPOINT 0 0 0 1 0 0 0
POINTS 1087
DATA ascii
-0.12660572 0.048388574 0.69600004 9767955
-0.12528001 0.048388574 0.69600004 9570576
-0.12359809 0.04824952 0.69400001 9702656
-0.12174763 0.048040956 0.69100004 9768448
-0.12043144 0.048040956 0.69100004 10161408
-0.11894286 0.047971431 0.69000006 10095616
-0.11762858 0.047971431 0.69000006 10096128
-0.1163143 0.047971431 0.69000006 10161920
-0.11500001 0.047971431 0.69000006 10292736
-0.11368572 0.047971431 0.69000006 10621696
-0.11237144 0.047971431 0.69000006 10686724
-0.11105715 0.047971431 0.69000006 10686724
-0.10942476 0.047832385 0.68800002 10489088
-0.04246667 0.047693335 0.68600005 13348000
-0.041160002 0.047693335 0.68600005 12886427
-0.03991143 0.047762856 0.68700004 12754841
-0.038602859 0.047762856 0.68700004 12950421
-0.020253334 0.047693335 0.68600005 10308608
-0.018946668 0.047693335 0.68600005 10177024
-0.017588571 0.047554284 0.68400002 10240512
-0.016261905 0.047484763 0.68300003 10766848
-0.014960953 0.047484763 0.68300003 9583104
-0.013660001 0.047484763 0.68300003 10504193
-0.012359047 0.047484763 0.68300003 9386240
-0.011058095 0.047484763 0.68300003 10044160
0.00064571429 0.047137145 0.67800003 12087040
0.001937143 0.047137145 0.67800003 15968809
0.013599999 0.047276188 0.68000001 12147712
0.014895238 0.047276188 0.68000001 11226624
0.016190477 0.047276188 0.68000001 10888448
0.01746 0.047206666 0.67900002 10230528
0.018753333 0.047206666 0.67900002 10228224
0.020046666 0.047206666 0.67900002 12794142
0.021340001 0.047206666 0.67900002 10702660
0.022633335 0.047206666 0.67900002 8268319
-0.13170287 0.04914286 0.68800002 8523264
-0.13039239 0.04914286 0.68800002 8915968
-0.12908192 0.04914286 0.68800002 13718849
-0.1287 0.049500003 0.69300002 13801030
-0.12738001 0.049500003 0.69300002 14393167
-0.12606001 0.049500003 0.69300002 13142417
-0.12474 0.049500003 0.69300002 9918560
-0.12342 0.049500003 0.69300002 8915502
-0.12174763 0.049357146 0.69100004 8915502
-0.12043144 0.049357146 0.69100004 9243904
-0.11894286 0.049285717 0.69000006 9112320
-0.11762858 0.049285717 0.69000006 9309184
-0.1163143 0.049285717 0.69000006 9440768
-0.11466667 0.04914286 0.68800002 9309184
-0.11335619 0.04914286 0.68800002 9111808
-0.11204571 0.04914286 0.68800002 9178112
-0.11073524 0.04914286 0.68800002 9243904
-0.10942476 0.04914286 0.68800002 9309184
-0.10811429 0.04914286 0.68800002 9309184
-0.10680381 0.04914286 0.68800002 9309184
-0.10534 0.049071431 0.68700004 9243392
-0.10388 0.049000002 0.68600005 9112832
-0.10257334 0.049000002 0.68600005 9112832
-0.10126667 0.049000002 0.68600005 8981504
-0.099960007 0.049000002 0.68600005 8915712
-0.08976762 0.04914286 0.68800002 8457216
-0.088457145 0.04914286 0.68800002 8588288
-0.08714667 0.04914286 0.68800002 8456704
-0.058570478 0.049357146 0.69100004 12032123
-0.057254288 0.049357146 0.69100004 12229243
-0.056100003 0.049500003 0.69300002 12426622
-0.054621909 0.049357146 0.69100004 12755576
-0.053305719 0.049357146 0.69100004 12821369
-0.045080002 0.049000002 0.68600005 12755576
-0.043773334 0.049000002 0.68600005 12885885
-0.04246667 0.049000002 0.68600005 12096369
-0.041160002 0.049000002 0.68600005 11699586
-0.03991143 0.049071431 0.68700004 11436414
-0.038602859 0.049071431 0.68700004 11237754
-0.025257142 0.048571426 0.68000001 9591296
-0.023961904 0.048571426 0.68000001 9328128
-0.022633335 0.048500001 0.67900002 9198600
-0.021434287 0.048714288 0.68200004 10777632
-0.020135241 0.048714288 0.68200004 9928970
-0.018836193 0.048714288 0.68200004 9863177
-0.017562857 0.048785716 0.68300003 10917632
-0.016261905 0.048785716 0.68300003 11378176
-0.014960953 0.048785716 0.68300003 11838976
-0.013660001 0.048785716 0.68300003 12299520
-0.012359047 0.048785716 0.68300003 11906306
-0.011041906 0.048714288 0.68200004 12235271
-0.0097428579 0.048714288 0.68200004 11642409
-0.00844381 0.048714288 0.68200004 11181858
-0.001937143 0.048428573 0.67800003 14988800
-0.00064571429 0.048428573 0.67800003 16304640
0.00064571429 0.048428573 0.67800003 15907157
0.001937143 0.048428573 0.67800003 15643985
0.0032285715 0.048428573 0.67800003 15118085
0.0045200004 0.048428573 0.67800003 12552192
0.0058200001 0.048500001 0.67900002 13402139
0.012286667 0.048500001 0.67900002 15312692
0.013580001 0.048500001 0.67900002 15116330
0.014873333 0.048500001 0.67900002 15905846
0.016166667 0.048500001 0.67900002 15180856
0.01746 0.048500001 0.67900002 13601824
0.018753333 0.048500001 0.67900002 13201193
0.020046666 0.048500001 0.67900002 11095817
0.021340001 0.048500001 0.67900002 9903410
0.022633335 0.048500001 0.67900002 8061206
-0.13301334 0.050453335 0.68800002 8588288
-0.13170287 0.050453335 0.68800002 10693656
-0.13039239 0.050453335 0.68800002 11226502
-0.12908192 0.050453335 0.68800002 14910910
-0.12832858 0.050673336 0.69100004 15314387
-0.12701239 0.050673336 0.69100004 15445973
-0.1256962 0.050673336 0.69100004 14663358
-0.12438001 0.050673336 0.69100004 12229017
-0.12306382 0.050673336 0.69100004 12417442
-0.12157144 0.050600003 0.69000006 12812200
-0.12025715 0.050600003 0.69000006 12480423
-0.1185981 0.050453335 0.68800002 8203878
-0.11728762 0.050453335 0.68800002 10826315
-0.11597715 0.050453335 0.68800002 13260656
-0.11466667 0.050453335 0.68800002 11820408
-0.11335619 0.050453335 0.68800002 9978204
-0.11204571 0.050453335 0.68800002 10434889
-0.11073524 0.050453335 0.68800002 11224405
-0.10926571 0.050380003 0.68700004 10764136
-0.10795715 0.050380003 0.68700004 9974620
-0.10664857 0.050380003 0.68700004 10235966
-0.10534 0.050380003 0.68700004 9051692
-0.10388 0.050306667 0.68600005 9703680
-0.10257334 0.050306667 0.68600005 10822153
-0.10126667 0.050306667 0.68600005 10227807
-0.099960007 0.050306667 0.68600005 9767256
-0.098653339 0.050306667 0.68600005 9899069
-0.097488575 0.050380003 0.68700004 9438518
-0.096180007 0.050380003 0.68700004 9571584
-0.094733343 0.050306667 0.68600005 9637376
-0.093426675 0.050306667 0.68600005 9571584
-0.092120007 0.050306667 0.68600005 9900544
-0.090813339 0.050306667 0.68600005 9898574
-0.089637145 0.050380003 0.68700004 9964367
-0.08832857 0.050380003 0.68700004 9964117
-0.087020002 0.050380003 0.68700004 9109576
-0.076885715 0.050600003 0.69000006 14396567
-0.075571433 0.050600003 0.69000006 13609891
-0.063558094 0.050453335 0.68800002 11566691
-0.062247619 0.050453335 0.68800002 11369807
-0.060848575 0.050380003 0.68700004 10843463
-0.05954 0.050380003 0.68700004 10842673
-0.058316194 0.050453335 0.68800002 10184743
-0.057005715 0.050453335 0.68800002 9856258
-0.055695239 0.050453335 0.68800002 10316809
-0.054384761 0.050453335 0.68800002 10645774
-0.053305719 0.050673336 0.69100004 10645774
-0.04638667 0.050306667 0.68600005 11237659
-0.04494857 0.050159998 0.68400002 11106073
-0.043645717 0.050159998 0.68400002 10514702
-0.042342857 0.050159998 0.68400002 10646288
-0.041040003 0.050159998 0.68400002 10513936
-0.039853338 0.050306667 0.68600005 10382350
-0.03854667 0.050306667 0.68600005 10249216
-0.026513334 0.049793333 0.67900002 10188800
-0.025257142 0.049866665 0.68000001 9993472
-0.023961904 0.049866665 0.68000001 9927680
-0.022633335 0.049793333 0.67900002 9339904
-0.021340001 0.049793333 0.67900002 10326784
-0.020076191 0.049866665 0.68000001 10003293
-0.018780952 0.049866665 0.68000001 10069086
-0.017537145 0.050013337 0.68200004 10136678
-0.016190477 0.049866665 0.68000001 10465643
-0.014895238 0.049866665 0.68000001 11517808
-0.01364 0.050013337 0.68200004 10794085
-0.012340954 0.050013337 0.68200004 10663274
-0.011041906 0.050013337 0.68200004 10268516
-0.0097142858 0.049866665 0.68000001 10006368
-0.008419048 0.049866665 0.68000001 7900992
-0.0071238093 0.049866665 0.68000001 5536283
-0.005828571 0.049866665 0.68000001 4286216
-0.0045333337 0.049866665 0.68000001 8676096
-0.003219048 0.04957334 0.67600006 13281590
-0.0019314287 0.04957334 0.67600006 15842136
-0.00064380956 0.04957334 0.67600006 16105308
0.00064380956 0.04957334 0.67600006 15907659
0.0019314287 0.04957334 0.67600006 15512901
0.003219048 0.04957334 0.67600006 14328595
0.0045066671 0.04957334 0.67600006 11828480
0.0058114287 0.04972 0.67800003 12412160
0.0071028573 0.04972 0.67800003 15964964
0.008394286 0.04972 0.67800003 15246903
0.0096857138 0.04972 0.67800003 15049524
0.010993334 0.049793333 0.67900002 14916659
0.012286667 0.049793333 0.67900002 15179831
0.013580001 0.049793333 0.67900002 15246410
0.014873333 0.049793333 0.67900002 15706961
0.016142858 0.04972 0.67800003 15704441
0.017434288 0.04972 0.67800003 13993823
0.018725716 0.04972 0.67800003 13528404
0.020017143 0.04972 0.67800003 11159856
0.021308571 0.04972 0.67800003 10295823
-0.13301334 0.05176381 0.68800002 9441536
-0.13170287 0.05176381 0.68800002 16758178
-0.13020287 0.051688574 0.68700004 16509432
-0.12889428 0.051688574 0.68700004 16773631
-0.12777144 0.05176381 0.68800002 15121407
-0.12646097 0.05176381 0.68800002 13739760
-0.1255143 0.05191429 0.69000006 13021345
-0.1242 0.05191429 0.69000006 15324100
-0.12252953 0.05176381 0.68800002 16313332
-0.12121905 0.05176381 0.68800002 16774911
-0.12025715 0.05191429 0.69000006 13083386
-0.1185981 0.05176381 0.68800002 9201599
-0.11728762 0.05176381 0.68800002 13809323
-0.11597715 0.05176381 0.68800002 16774634
-0.1145 0.051688574 0.68700004 16508662
-0.11319143 0.051688574 0.68700004 14798044
-0.11172 0.051613338 0.68600005 15984101
-0.11041334 0.051613338 0.68600005 16774902
-0.10910667 0.051613338 0.68600005 16247012
-0.10795715 0.051688574 0.68700004 13812671
-0.10664857 0.051688574 0.68700004 14004930
-0.10534 0.051688574 0.68700004 14136516
-0.10388 0.051613338 0.68600005 16308400
-0.10257334 0.051613338 0.68600005 16774605
-0.10126667 0.051613338 0.68600005 16644080
-0.099960007 0.051613338 0.68600005 14275532
-0.098653339 0.051613338 0.68600005 14792150
-0.097346671 0.051613338 0.68600005 13542083
-0.095760003 0.051462859 0.68400002 13541790
-0.094457142 0.051462859 0.68400002 15186615
-0.093154289 0.051462859 0.68400002 15912394
-0.091851428 0.051462859 0.68400002 16768731
-0.090548575 0.051462859 0.68400002 16508403
-0.089506678 0.051613338 0.68600005 14995164
-0.08820001 0.051613338 0.68600005 14459571
-0.087020002 0.051688574 0.68700004 5314344
-0.085711427 0.051688574 0.68700004 7998208
-0.084771439 0.05191429 0.69000006 16758179
-0.08345715 0.05191429 0.69000006 16643321
-0.081904761 0.05176381 0.68800002 16380149
-0.080594286 0.05176381 0.68800002 14794955
-0.079283811 0.05176381 0.68800002 12229028
-0.078200005 0.05191429 0.69000006 13805965
-0.076885715 0.05191429 0.69000006 14463895
-0.075571433 0.05191429 0.69000006 14266290
-0.063465714 0.051688574 0.68700004 9316101
-0.06215715 0.051688574 0.68700004 8934656
-0.060760003 0.051613338 0.68600005 8803072
-0.059453338 0.051613338 0.68600005 9132800
-0.05814667 0.051613338 0.68600005 10185473
-0.05692286 0.051688574 0.68700004 9925120
-0.055533338 0.051613338 0.68600005 9464576
-0.05422667 0.051613338 0.68600005 9398272
-0.053305719 0.051989529 0.69100004 9398272
-0.051989529 0.051989529 0.69100004 10189312
-0.046183813 0.051387619 0.68300003 9140224
-0.044817146 0.051312383 0.68200004 9140224
-0.0435181 0.051312383 0.68200004 8878080
-0.04221905 0.051312383 0.68200004 9864960
-0.040920004 0.051312383 0.68200004 9735168
-0.039737143 0.051462859 0.68400002 9537792
-0.038434289 0.051462859 0.68400002 9733632
-0.032980002 0.051086668 0.67900002 12498432
-0.031686667 0.051086668 0.67900002 12958976
-0.030393332 0.051086668 0.67900002 11512832
-0.029142857 0.051161904 0.68000001 9670656
-0.027847618 0.051161904 0.68000001 10522654
-0.026513334 0.051086668 0.67900002 11838514
-0.025220001 0.051086668 0.67900002 11510798
-0.023926668 0.051086668 0.67900002 11642384
-0.022600001 0.051011432 0.67800003 11316272
-0.021308571 0.051011432 0.67800003 11645237
-0.020046666 0.051086668 0.67900002 12500610
-0.018753333 0.051086668 0.67900002 12763782
-0.017382858 0.050860956 0.67600006 10325117
-0.01609524 0.050860956 0.67600006 9864566
-0.01480762 0.050860956 0.67600006 9333315
-0.013520001 0.050860956 0.67600006 9004350
-0.012232382 0.050860956 0.67600006 8739091
-0.010944762 0.050860956 0.67600006 7752196
-0.0096571436 0.050860956 0.67600006 8669977
-0.008357143 0.050785713 0.67500001 10775353
-0.0070714285 0.050785713 0.67500001 12294656
-0.0057942863 0.050860956 0.67600006 14860570
-0.0045066671 0.050860956 0.67600006 15384928
-0.0032142857 0.050785713 0.67500001 15977065
-0.0019285715 0.050785713 0.67500001 15908406
-0.00064380956 0.050860956 0.67600006 15579441
0.00064285717 0.050785713 0.67500001 15775495
0.0019285715 0.050785713 0.67500001 15643909
0.003219048 0.050860956 0.67600006 15246901
0.0045066671 0.050860956 0.67600006 14917936
0.0057942863 0.050860956 0.67600006 15181083
0.0070819054 0.050860956 0.67600006 16299564
0.008369525 0.050860956 0.67600006 15772995
0.0096857138 0.051011432 0.67800003 15641409
0.010977143 0.051011432 0.67800003 15179057
0.012232382 0.050860956 0.67600006 15047471
0.013520001 0.050860956 0.67600006 14454340
0.01480762 0.050860956 0.67600006 12414757
0.01609524 0.050860956 0.67600006 12074557
0.017331429 0.050710477 0.67400002 10166560
0.018615238 0.050710477 0.67400002 11409408
0.019958096 0.050860956 0.67600006 11869952
0.021308571 0.051011432 0.67800003 10557725
-0.1327619 0.052457143 0.68000001 8786176
-0.13146667 0.052457143 0.68000001 11098477
-0.13017143 0.052457143 0.68000001 16768240
-0.12963428 0.052765712 0.68400002 16644094
-0.12833142 0.052765712 0.68400002 13617616
-0.12702857 0.052765712 0.68400002 12099024
-0.12609334 0.052920006 0.68600005 4401243
-0.12478668 0.052920006 0.68600005 5975828
-0.12366 0.052997146 0.68700004 16767422
-0.12217335 0.052920006 0.68600005 16382459
-0.12086668 0.052920006 0.68600005 15329771
-0.11990858 0.053074285 0.68800002 11646408
-0.1185981 0.053074285 0.68800002 11251650
-0.11711715 0.052997146 0.68700004 14076138
-0.11564001 0.052920006 0.68600005 16510463
-0.11433334 0.052920006 0.68600005 15658216
-0.11302667 0.052920006 0.68600005 15395044
-0.11139429 0.052765712 0.68400002 15856120
-0.11009143 0.052765712 0.68400002 16185085
-0.10878857 0.052765712 0.68400002 15853040
-0.10748571 0.052765712 0.68400002 12826562
-0.10618286 0.052765712 0.68400002 12692611
-0.10518667 0.052920006 0.68600005 15324331
-0.10357714 0.052765712 0.68400002 15393013
-0.10227428 0.052765712 0.68400002 16774911
-0.10082381 0.052688573 0.68300003 16644094
-0.099522859 0.052688573 0.68300003 13288651
-0.098078102 0.052611433 0.68200004 13352377
-0.096779048 0.052611433 0.68200004 11575966
-0.095480002 0.052611433 0.68200004 11640956
-0.094319053 0.052688573 0.68300003 15391157
-0.0930181 0.052688573 0.68300003 15985141
-0.091717146 0.052688573 0.68300003 16775679
-0.090416193 0.052688573 0.68300003 16645118
-0.089115247 0.052688573 0.68300003 13618640
-0.08820001 0.052920006 0.68600005 14067112
-0.086893335 0.052920006 0.68600005 4921885
-0.085586667 0.052920006 0.68600005 6031616
-0.084771439 0.053228576 0.69000006 16769489
-0.08345715 0.053228576 0.69000006 16710398
-0.081904761 0.053074285 0.68800002 15920882
-0.080477148 0.052997146 0.68700004 13221269
-0.07916858 0.052997146 0.68700004 10721135
-0.077973336 0.053074285 0.68800002 13282202
-0.076885715 0.053228576 0.69000006 16571852
-0.075680956 0.053305719 0.69100004 16309759
-0.074364766 0.053305719 0.69100004 13151697
-0.063373342 0.052920006 0.68600005 10694931
-0.061704762 0.052611433 0.68200004 9330944
-0.060405716 0.052611433 0.68200004 8804608
-0.05910667 0.052611433 0.68200004 9398784
-0.057638094 0.052457143 0.68000001 12491049
-0.056342855 0.052457143 0.68000001 12232273
-0.055533338 0.052920006 0.68600005 11640136
-0.05422667 0.052920006 0.68600005 11246409
-0.052920006 0.052920006 0.68600005 11114823
-0.051613338 0.052920006 0.68600005 11444304
-0.049500003 0.052071426 0.67500001 11115339
-0.048714288 0.052611433 0.68200004 9869332
-0.047415242 0.052611433 0.68200004 10264090
-0.046116196 0.052611433 0.68200004 9608044
-0.04462 0.052379999 0.67900002 9410665
-0.043262858 0.05230286 0.67800003 9344588
-0.04197143 0.05230286 0.67800003 9739346
-0.040739998 0.052379999 0.67900002 10134370
-0.039446667 0.052379999 0.67900002 8686924
-0.038153335 0.052379999 0.67900002 8816218
-0.036697146 0.052148577 0.67600006 9803113
-0.035409529 0.052148577 0.67600006 11839852
-0.034121908 0.052148577 0.67600006 12563575
-0.032980002 0.052379999 0.67900002 12039528
-0.031686667 0.052379999 0.67900002 12105321
-0.030393332 0.052379999 0.67900002 10989422
-0.029100001 0.052379999 0.67900002 9213011
-0.027806668 0.052379999 0.67900002 10456960
-0.026513334 0.052379999 0.67900002 11970199
-0.025182858 0.05230286 0.67800003 12101517
-0.023891428 0.05230286 0.67800003 13088412
-0.022533335 0.052148577 0.67600006 13092780
-0.021245716 0.052148577 0.67600006 13158573
-0.019958096 0.052148577 0.67600006 14208206
-0.018670477 0.052148577 0.67600006 12826553
-0.017357143 0.052071426 0.67500001 10911325
-0.016071428 0.052071426 0.67500001 6503194
-0.014785714 0.052071426 0.67500001 10166272
-0.0135 0.052071426 0.67500001 10100480
-0.012214285 0.052071426 0.67500001 10295296
-0.010928571 0.052071426 0.67500001 9966336
-0.0096428571 0.052071426 0.67500001 11479296
-0.008344762 0.051994286 0.67400002 14242590
-0.007060953 0.051994286 0.67400002 15569743
-0.0057771429 0.051994286 0.67400002 16757615
-0.0044933339 0.051994286 0.67400002 16106633
-0.0032095239 0.051994286 0.67400002 15646082
-0.0019257143 0.051994286 0.67400002 15247162
-0.00064285717 0.052071426 0.67500001 15312955
0.00064285717 0.052071426 0.67500001 15770944
0.0019285715 0.052071426 0.67500001 15441979
0.0032142857 0.052071426 0.67500001 15374921
0.0044999998 0.052071426 0.67500001 15835472
0.0057857144 0.052071426 0.67500001 15771994
0.0070714285 0.052071426 0.67500001 15706201
0.008357143 0.052071426 0.67500001 15770713
0.0096571436 0.052148577 0.67600006 15704920
0.010944762 0.052148577 0.67600006 15441498
0.012196191 0.051994286 0.67400002 15112533
0.01348 0.051994286 0.67400002 13599058
0.014785714 0.052071426 0.67500001 10572580
0.016071428 0.052071426 0.67500001 10886656
0.017331429 0.051994286 0.67400002 10426112
0.018615238 0.051994286 0.67400002 11341824
0.019958096 0.052148577 0.67600006 11999745
0.021308571 0.05230286 0.67800003 10756901
-0.13326858 0.053436194 0.67600006 7604736
-0.13198097 0.053436194 0.67600006 16618370
-0.13108 0.053594287 0.67800003 16442322
-0.12978856 0.053594287 0.67800003 16775399
-0.12849715 0.053594287 0.67800003 16050430
-0.12739334 0.053673334 0.67900002 1707556
-0.1261 0.053673334 0.67900002 2621572
-0.12480666 0.053673334 0.67900002 2490498
-0.12351334 0.053673334 0.67900002 6564244
-0.12222001 0.053673334 0.67900002 16769023
-0.12092667 0.053673334 0.67900002 16382448
-0.11963334 0.053673334 0.67900002 14342865
-0.11834 0.053673334 0.67900002 13750485
-0.11704667 0.053673334 0.67900002 16316412
-0.11575333 0.053673334 0.67900002 16644094
-0.11446001 0.053673334 0.67900002 14604511
-0.11316667 0.053673334 0.67900002 14407634
-0.11187334 0.053673334 0.67900002 16776439
-0.11058 0.053673334 0.67900002 16578814
-0.10928667 0.053673334 0.67900002 15591919
-0.10799333 0.053673334 0.67900002 14932692
-0.10685714 0.053752381 0.68000001 7958634
-0.1055619 0.053752381 0.68000001 11965491
-0.10411333 0.053673334 0.67900002 16773520
-0.10282 0.053673334 0.67900002 16645118
-0.10152667 0.053673334 0.67900002 16645118
-0.10067619 0.053910479 0.68200004 16183277
-0.099377148 0.053910479 0.68200004 10590872
-0.097790472 0.053752381 0.68000001 9730633
-0.096495233 0.053752381 0.68000001 6046225
-0.095199995 0.053752381 0.68000001 9925632
-0.094180956 0.053910479 0.68200004 16636508
-0.0930181 0.053989526 0.68300003 16645109
-0.091314279 0.053752381 0.68000001 16710902
-0.090019047 0.053752381 0.68000001 16577510
-0.088723809 0.053752381 0.68000001 9208694
-0.08742857 0.053752381 0.68000001 11431680
-0.086133331 0.053752381 0.68000001 8997376
-0.084214285 0.053357143 0.67500001 9259776
-0.082928576 0.053357143 0.67500001 16771730
-0.081642851 0.053357143 0.67500001 16711161
-0.081785724 0.054305717 0.68700004 11381928
-0.080477148 0.054305717 0.68700004 5781539
-0.07916858 0.054305717 0.68700004 7689536
-0.077973336 0.054384761 0.68800002 13943202
-0.076662861 0.054384761 0.68800002 16775899
-0.075352386 0.054384761 0.68800002 16644605
-0.063003816 0.053910479 0.68200004 11552057
-0.061704762 0.053910479 0.68200004 10250755
-0.060228571 0.053752381 0.68000001 10184962
-0.058933333 0.053752381 0.68000001 10317353
-0.057553336 0.053673334 0.67900002 12685901
-0.056260001 0.053673334 0.67900002 12162343
-0.054723814 0.053436194 0.67600006 11833378
-0.053436194 0.053436194 0.67600006 11570688
-0.052148577 0.053436194 0.67600006 10649600
-0.050710477 0.053278096 0.67400002 10975265
-0.049500003 0.053357143 0.67500001 10251542
-0.048214287 0.053357143 0.67500001 10514432
-0.047206666 0.053673334 0.67900002 14527789
-0.045913331 0.053673334 0.67900002 15191219
-0.044422861 0.053436194 0.67600006 15257012
-0.043135241 0.053436194 0.67600006 14402998
-0.04184762 0.053436194 0.67600006 14402998
-0.040560003 0.053436194 0.67600006 14271925
-0.039272383 0.053436194 0.67600006 14403511
-0.037984762 0.053436194 0.67600006 14468307
-0.036642861 0.053357143 0.67500001 14270928
-0.035357144 0.053357143 0.67500001 14533825
-0.034071431 0.053357143 0.67500001 15454927
-0.032931432 0.053594287 0.67800003 15191480
-0.031640001 0.053594287 0.67800003 15059894
-0.030214285 0.053357143 0.67500001 14798006
-0.02892857 0.053357143 0.67500001 15719108
-0.027806668 0.053673334 0.67900002 15717865
-0.026474288 0.053594287 0.67800003 16310002
-0.025108574 0.053436194 0.67600006 15190751
-0.023820955 0.053436194 0.67600006 14861786
-0.022499999 0.053357143 0.67500001 14862806
-0.021214286 0.053357143 0.67500001 14994392
-0.019928573 0.053357143 0.67500001 15452878
-0.018642858 0.053357143 0.67500001 12426400
-0.017331429 0.053278096 0.67400002 10966353
-0.016047619 0.053278096 0.67400002 7084566
-0.01476381 0.053278096 0.67400002 9900032
-0.01348 0.053278096 0.67400002 10426373
-0.012196191 0.053278096 0.67400002 10425858
-0.010912381 0.053278096 0.67400002 10228480
-0.0096000005 0.053120002 0.67200005 11083270
-0.008320001 0.053120002 0.67200005 12399130
-0.0070400005 0.053120002 0.67200005 12342272
-0.0057600001 0.053120002 0.67200005 12144896
-0.0044800006 0.053120002 0.67200005 12606976
-0.0032000002 0.053120002 0.67200005 12935936
-0.0019200002 0.053120002 0.67200005 13198592
-0.00064000004 0.053120002 0.67200005 14777621
0.00064000004 0.053120002 0.67200005 13658916
0.0019200002 0.053120002 0.67200005 12935193
0.0032000002 0.053120002 0.67200005 13197844
0.0044933339 0.053278096 0.67400002 13329430
0.0057600001 0.053120002 0.67200005 13330191
0.0070190481 0.052961905 0.67000002 13461777
0.008295238 0.052961905 0.67000002 13461525
0.0096000005 0.053120002 0.67200005 13658904
0.010863809 0.053040951 0.671 12137271
0.012087619 0.052803814 0.66800004 11216169
0.01336 0.052803814 0.66800004 11212814
0.014785714 0.053357143 0.67500001 10554884
0.016071428 0.053357143 0.67500001 10948864
0.017331429 0.053278096 0.67400002 11277824
0.018615238 0.053278096 0.67400002 11473685
0.019899048 0.053278096 0.67400002 11802650
-0.13326858 0.054723814 0.67600006 7473664
-0.13198097 0.054723814 0.67600006 16756123
-0.13069335 0.054723814 0.67600006 16643071
-0.12940572 0.054723814 0.67600006 16775935
-0.12811811 0.054723814 0.67600006 14868732
-0.12739334 0.054966666 0.67900002 2368062
-0.12591429 0.054885715 0.67800003 5638144
-0.12462286 0.054885715 0.67800003 8861998
-0.12333143 0.054885715 0.67800003 12689100
-0.12204001 0.054885715 0.67800003 16772863
-0.12074857 0.054885715 0.67800003 15922676
-0.11910477 0.054723814 0.67600006 13356749
-0.11781715 0.054723814 0.67600006 13947071
-0.11652953 0.054723814 0.67600006 16776684
-0.11524191 0.054723814 0.67600006 16644607
-0.11395429 0.054723814 0.67600006 13552336
-0.11266667 0.054723814 0.67600006 13748938
-0.11137906 0.054723814 0.67600006 16776444
-0.11041714 0.054885715 0.67800003 16447487
-0.10912572 0.054885715 0.67800003 13552595
-0.10783429 0.054885715 0.67800003 13548711
-0.1067 0.054966666 0.67900002 10324854
-0.10525143 0.054885715 0.67800003 12163189
-0.10365334 0.054723814 0.67600006 16774610
-0.10236572 0.054723814 0.67600006 16645629
-0.10092857 0.054642856 0.67500001 16316664
-0.099642858 0.054642856 0.67500001 14537932
-0.098357141 0.054642856 0.67500001 9866629
-0.097071432 0.054642856 0.67500001 10778624
-0.095927626 0.054723814 0.67600006 11304960
-0.094640009 0.054723814 0.67600006 10844284
-0.094180956 0.055209529 0.68200004 16768738
-0.092473336 0.054966666 0.67900002 16710909
-0.090642862 0.054642856 0.67500001 14013396
-0.089357145 0.054642856 0.67500001 13936037
-0.088593334 0.054966666 0.67900002 9856871
-0.086785711 0.054642856 0.67500001 12615168
-0.085500002 0.054642856 0.67500001 13075712
-0.084214285 0.054642856 0.67500001 10251386
-0.082928576 0.054642856 0.67500001 16768491
-0.081642851 0.054642856 0.67500001 16710909
-0.080357142 0.054642856 0.67500001 3618102
-0.07860285 0.054319046 0.671 7080448
-0.077440001 0.054400001 0.67200005 13133396
-0.076159999 0.054400001 0.67200005 14796529
-0.062819049 0.055047616 0.68000001 11221286
-0.061523806 0.055047616 0.68000001 9654042
-0.060140003 0.054966666 0.67900002 9456663
-0.058846667 0.054966666 0.67900002 9586705
-0.056960005 0.054400001 0.67200005 9586705
-0.055680003 0.054400001 0.67200005 9719552
-0.054561906 0.054561906 0.67400002 9324800
-0.053120002 0.054400001 0.67200005 9912320
-0.051840004 0.054400001 0.67200005 9649152
-0.050710477 0.054561906 0.67400002 9712384
-0.049500003 0.054642856 0.67500001 8593920
-0.048214287 0.054642856 0.67500001 9834496
-0.046928573 0.054642856 0.67500001 16676958
-0.045642857 0.054642856 0.67500001 16172227
-0.044357143 0.054642856 0.67500001 15974848
-0.04300762 0.054561906 0.67400002 15385016
-0.04172381 0.054561906 0.67400002 15253430
-0.040320002 0.054400001 0.67200005 15318453
-0.039040003 0.054400001 0.67200005 15515832
-0.03792857 0.054642856 0.67500001 15318980
-0.036642861 0.054642856 0.67500001 14924222
-0.035357144 0.054642856 0.67500001 15055029
-0.034071431 0.054642856 0.67500001 15186615
-0.032931432 0.054885715 0.67800003 15251375
-0.031640001 0.054885715 0.67800003 14988203
-0.030214285 0.054642856 0.67500001 14856617
-0.02892857 0.054642856 0.67500001 15580340
-0.027806668 0.054966666 0.67900002 15779018
-0.026240002 0.054400001 0.67200005 15515846
-0.024960002 0.054400001 0.67200005 15186372
-0.023680001 0.054400001 0.67200005 14660028
-0.022400003 0.054400001 0.67200005 13146523
-0.021120002 0.054400001 0.67200005 13146523
-0.019810477 0.054319046 0.671 12547477
-0.018504761 0.054238096 0.67000002 11757961
-0.017228572 0.054238096 0.67000002 10364187
-0.015976191 0.054319046 0.671 9443085
-0.014698096 0.054319046 0.671 10883592
-0.01342 0.054319046 0.671 11212557
-0.012141905 0.054319046 0.671 10819339
-0.010863809 0.054319046 0.671 10556167
-0.0095857149 0.054319046 0.671 10227456
-0.0083076181 0.054319046 0.671 10161664
-0.0070295236 0.054319046 0.671 9899264
-0.0057514287 0.054319046 0.671 9833472
-0.0044733332 0.054319046 0.671 10292736
-0.0031952381 0.054319046 0.671 10621696
-0.0019085716 0.054076191 0.66800004 12269568
-0.00063619053 0.054076191 0.66800004 12730112
0.00064000004 0.054400001 0.67200005 13063437
0.0019200002 0.054400001 0.67200005 12800265
0.0032000002 0.054400001 0.67200005 12668441
0.0044933339 0.054561906 0.67400002 12339476
0.0057600001 0.054400001 0.67200005 12468998
0.0069980957 0.054076191 0.66800004 13126928
0.0082704769 0.054076191 0.66800004 12932640
0.0095428573 0.054076191 0.66800004 11945745
0.010799048 0.05399524 0.66700006 11806464
0.012069525 0.05399524 0.66700006 10622208
0.01332 0.053914286 0.66600001 11210240
0.014522858 0.053671431 0.66300005 11341824
0.015785715 0.053671431 0.66300005 11539200
0.017048571 0.053671431 0.66300005 11670784
0.018256191 0.053509526 0.66100001 11669783
0.019515239 0.053509526 0.66100001 12064541
0.020774284 0.053509526 0.66100001 11347239
-0.13544191 0.055845715 0.67400002 8916489
-0.1341581 0.055845715 0.67400002 8719110
-0.13307144 0.055928573 0.67500001 8391424
-0.13159047 0.055845715 0.67400002 16756635
-0.13030668 0.055845715 0.67400002 16709373
-0.12902285 0.055845715 0.67400002 16775935
-0.12773906 0.055845715 0.67400002 16576767
-0.12683049 0.056011431 0.67600006 11642292
-0.12554286 0.056011431 0.67600006 13482569
-0.12462286 0.056177147 0.67800003 15522152
-0.12296763 0.056011431 0.67600006 16709373
-0.12168001 0.056011431 0.67600006 16775935
-0.12039239 0.056011431 0.67600006 15658216
-0.11892857 0.055928573 0.67500001 8552572
-0.11764286 0.055928573 0.67500001 13615269
-0.11635715 0.055928573 0.67500001 16776160
-0.11507143 0.055928573 0.67500001 16645118
-0.11378571 0.055928573 0.67500001 14539742
-0.1125 0.055928573 0.67500001 15591658
-0.11121429 0.055928573 0.67500001 16776189
-0.10992857 0.055928573 0.67500001 16645118
-0.10864286 0.055928573 0.67500001 9407888
-0.1075162 0.056011431 0.67600006 11043168
-0.10622858 0.056011431 0.67600006 12359028
-0.10478572 0.055928573 0.67500001 13411787
-0.1035 0.055928573 0.67500001 16772351
-0.10206286 0.055845715 0.67400002 16710911
-0.10048001 0.055680003 0.67200005 12434366
-0.09920001 0.055680003 0.67200005 12427617
-0.09821143 0.055845715 0.67400002 7032591
-0.09692762 0.055845715 0.67400002 11368508
-0.095643811 0.055845715 0.67400002 16768931
-0.094499998 0.055928573 0.67500001 16710398
-0.093214288 0.055928573 0.67500001 16710398
-0.092064768 0.056011431 0.67600006 16644605
-0.090508573 0.055845715 0.67400002 9078410
-0.089224763 0.055845715 0.67400002 10315797
-0.087419048 0.055514287 0.67000002 5447168
-0.08614286 0.055514287 0.67000002 7998208
-0.085373335 0.055845715 0.67400002 16754581
-0.083715238 0.055597141 0.671 16509930
-0.082437143 0.055597141 0.671 16774901
-0.081159048 0.055597141 0.671 16643326
-0.079880953 0.055597141 0.671 2497831
-0.07860285 0.055597141 0.671 6359040
-0.077440001 0.055680003 0.67200005 16764863
-0.076159999 0.055680003 0.67200005 16645118
-0.075102858 0.055845715 0.67400002 16710911
-0.073380955 0.055514287 0.67000002 16646076
-0.07210476 0.055514287 0.67000002 3027200
-0.062819049 0.056342855 0.68000001 10032910
-0.061342862 0.056177147 0.67800003 9378849
-0.060051434 0.056177147 0.67800003 8852505
-0.058586672 0.056011431 0.67600006 8852738
-0.05687524 0.055597141 0.671 8786945
-0.055597141 0.055597141 0.671 8851968
-0.054319046 0.055597141 0.671 8917761
-0.053040951 0.055597141 0.671 9180160
-0.051840004 0.055680003 0.67200005 9180160
-0.050560005 0.055680003 0.67200005 9310720
-0.049280003 0.055680003 0.67200005 9047552
-0.048000004 0.055680003 0.67200005 9309184
-0.046720002 0.055680003 0.67200005 10164485
-0.04544 0.055680003 0.67200005 10433347
-0.044160005 0.055680003 0.67200005 10762312
-0.042880002 0.055680003 0.67200005 9513017
-0.041600004 0.055680003 0.67200005 8197157
-0.040320002 0.055680003 0.67200005 8785682
-0.039040003 0.055680003 0.67200005 8851475
-0.037760001 0.055680003 0.67200005 8260352
-0.036425717 0.055597141 0.671 8062976
-0.034938097 0.055265717 0.66700006 7998208
-0.033617143 0.055182859 0.66600001 7998208
-0.032348569 0.055182859 0.66600001 8063744
-0.031079998 0.055182859 0.66600001 8063744
-0.029811429 0.055182859 0.66600001 7998208
-0.028542858 0.055182859 0.66600001 7932416
-0.027315238 0.055265717 0.66700006 8653568
-0.026083812 0.055348575 0.66800004 8916736
-0.02481143 0.055348575 0.66800004 8981504
-0.02353905 0.055348575 0.66800004 8981504
-0.022266667 0.055348575 0.66800004 9112832
-0.020994287 0.055348575 0.66800004 9178624
-0.019721907 0.055348575 0.66800004 9899264
-0.018449524 0.055348575 0.66800004 10030848
-0.017177144 0.055348575 0.66800004 10620416
-0.015904762 0.055348575 0.66800004 10883584
-0.014676191 0.055514287 0.67000002 11014404
-0.013400001 0.055514287 0.67000002 10948611
-0.01212381 0.055514287 0.67000002 10751493
-0.010847619 0.055514287 0.67000002 10685700
-0.0095714284 0.055514287 0.67000002 10685954
-0.0082704769 0.055348575 0.66800004 10883333
-0.0069980957 0.055348575 0.66800004 10948872
-0.0057257148 0.055348575 0.66800004 10883079
-0.0044466672 0.055265717 0.66700006 10948608
-0.003157143 0.054934289 0.66300005 11014400
-0.0018942858 0.054934289 0.66300005 11407616
-0.00063142861 0.054934289 0.66300005 11473408
0.00063142861 0.054934289 0.66300005 11341824
0.0018914287 0.054851435 0.66200006 11341824
0.0031523814 0.054851435 0.66200006 11276288
0.0044133337 0.054851435 0.66200006 11342080
0.0056742863 0.054851435 0.66200006 11407616
0.0069561908 0.055017143 0.66400003 11473408
0.008220952 0.055017143 0.66400003 11407616
0.0095142853 0.055182859 0.66600001 11407616
0.010782857 0.055182859 0.66600001 11472901
0.011997144 0.054934289 0.66300005 11604487
0.013260001 0.054934289 0.66300005 11669783
0.014500954 0.054851435 0.66200006 11669783
0.015761906 0.054851435 0.66200006 11669776
0.017022859 0.054851435 0.66200006 11735569
0.018200954 0.054602861 0.65900004 11800851
0.019426668 0.054520003 0.65800005 11932437
0.020680003 0.054520003 0.65800005 11409693
0.021933336 0.054520003 0.65800005 11080728
-0.13504 0.056960005 0.67200005 9506048
-0.13376001 0.056960005 0.67200005 9506048
-0.13248 0.056960005 0.67200005 9309184
-0.1312 0.056960005 0.67200005 16752523
-0.12992002 0.056960005 0.67200005 16310747
-0.12864001 0.056960005 0.67200005 16773354
-0.12773906 0.057129528 0.67400002 16576254
-0.12664287 0.057214286 0.67500001 14339292
-0.12535714 0.057214286 0.67500001 14928539
-0.12425525 0.057299051 0.67600006 15783848
-0.12278572 0.057214286 0.67500001 16644605
-0.1215 0.057214286 0.67500001 16710398
-0.12021428 0.057214286 0.67500001 13419971
-0.11875238 0.057129528 0.67400002 10327700
-0.11746857 0.057129528 0.67400002 15386804
-0.11618476 0.057129528 0.67400002 16774368
-0.11456001 0.056960005 0.67200005 16645629
-0.11328001 0.056960005 0.67200005 15066597
-0.112 0.056960005 0.67200005 16315635
-0.11072001 0.056960005 0.67200005 16776186
-0.10944001 0.056960005 0.67200005 16710652
-0.10848191 0.057129528 0.67400002 11776177
-0.1071981 0.057129528 0.67400002 13345165
-0.10607143 0.057214286 0.67500001 13871509
-0.10463049 0.057129528 0.67400002 15257544
-0.10288666 0.05687524 0.671 16775152
-0.10145715 0.056790475 0.67000002 16711422
-0.10018095 0.056790475 0.67000002 13027014
-0.099052377 0.05687524 0.671 13806483
-0.097920008 0.056960005 0.67200005 11569521
-0.096496187 0.05687524 0.671 13010778
-0.0952181 0.05687524 0.671 16769974
-0.094080001 0.056960005 0.67200005 16711422
-0.092800006 0.056960005 0.67200005 16645629
-0.091792382 0.057129528 0.67400002 16645116
-0.090240002 0.056960005 0.67200005 11842227
-0.088695243 0.056790475 0.67000002 12747148
-0.087419048 0.056790475 0.67000002 5838883
-0.08614286 0.056790475 0.67000002 7998208
-0.084993333 0.05687524 0.671 16756894
-0.083715238 0.05687524 0.671 16644605
-0.082314283 0.056790475 0.67000002 16315640
-0.081038095 0.056790475 0.67000002 16574453
-0.079880953 0.05687524 0.671 4271162
-0.07860285 0.05687524 0.671 8194816
-0.077324763 0.05687524 0.671 16765117
-0.076046668 0.05687524 0.671 16644605
-0.074657142 0.056790475 0.67000002 16776447
-0.073161907 0.056620955 0.66800004 14469563
-0.071889527 0.056620955 0.66800004 4140062
-0.070511431 0.056536198 0.66700006 9309184
-0.069240957 0.056536198 0.66700006 10230278
-0.061342862 0.057468574 0.67800003 9705228
-0.059874289 0.057299051 0.67600006 9442056
-0.058066666 0.056790475 0.67000002 9442565
-0.056620955 0.056620955 0.66800004 9376772
-0.055265717 0.056536198 0.66700006 9244928
-0.05399524 0.056536198 0.66700006 9508099
-0.052724764 0.056536198 0.66700006 9311232
-0.05153143 0.056620955 0.66800004 9311232
-0.050409522 0.056790475 0.67000002 9508097
-0.049133334 0.056790475 0.67000002 9442304
-0.048000004 0.056960005 0.67200005 9571840
-0.046720002 0.056960005 0.67200005 9374464
-0.045372378 0.05687524 0.671 8653568
-0.044094287 0.05687524 0.671 8653568
-0.042816192 0.05687524 0.671 8588032
-0.04147619 0.056790475 0.67000002 8522240
-0.040200002 0.056790475 0.67000002 8194816
-0.038807619 0.056620955 0.66800004 8392192
-0.037535239 0.056620955 0.66800004 8719104
-0.036208577 0.056536198 0.66700006 8719104
-0.034885716 0.056451429 0.66600001 8391424
-0.033617143 0.056451429 0.66600001 8325632
-0.032348569 0.056451429 0.66600001 8653568
-0.030986669 0.056281909 0.66400003 8785152
-0.029721906 0.056281909 0.66400003 8981504
-0.028457144 0.056281909 0.66400003 8981504
-0.027274286 0.056451429 0.66600001 9702656
-0.026044764 0.056536198 0.66700006 10031616
-0.024774287 0.056536198 0.66700006 10554880
-0.023503812 0.056536198 0.66700006 10686464
-0.022233333 0.056536198 0.66700006 11013423
-0.020962859 0.056536198 0.66700006 10947630
-0.019692382 0.056536198 0.66700006 11275564
-0.018421907 0.056536198 0.66700006 11012392
-0.017151428 0.056536198 0.66700006 11079424
-0.015880954 0.056536198 0.66700006 11474176
-0.014610478 0.056536198 0.66700006 11409443
-0.01336 0.056620955 0.66800004 11541029
-0.012069525 0.056536198 0.66700006 11606580
-0.010799048 0.056536198 0.66700006 11672373
-0.0095285727 0.056536198 0.66700006 11868741
-0.0082580959 0.056536198 0.66700006 12066120
-0.0069876197 0.056536198 0.66700006 12067131
-0.0057085715 0.056451429 0.66600001 11146029
-0.0044133337 0.056112386 0.66200006 11604736
-0.0031523814 0.056112386 0.66200006 11604736
-0.0018914287 0.056112386 0.66200006 11604233
-0.00063047622 0.056112386 0.66200006 11472647
0.00063047622 0.056112386 0.66200006 11341568
0.0018885714 0.056027621 0.66100001 11341568
0.0031476191 0.056027621 0.66100001 11472896
0.0044066664 0.056027621 0.66100001 11538688
0.0056657144 0.056027621 0.66100001 11538688
0.0069352384 0.056112386 0.66200006 11472896
0.0081961909 0.056112386 0.66200006 11603968
0.009457144 0.056112386 0.66200006 11603968
0.010718096 0.056112386 0.66200006 11670017
0.011979048 0.056112386 0.66200006 11867396
0.013240001 0.056112386 0.66200006 11867416
0.014479048 0.056027621 0.66100001 11735830
0.015738094 0.056027621 0.66100001 11866887
0.016997144 0.056027621 0.66100001 11801094
0.018200954 0.055858098 0.65900004 11932167
0.019397143 0.055688571 0.65700001 11997960
0.020648571 0.055688571 0.65700001 11670800
0.021933336 0.055773336 0.65800005 11539214
-0.1346381 0.058066666 0.67000002 10031360
-0.13336191 0.058066666 0.67000002 11084042
-0.13208571 0.058066666 0.67000002 10096384
-0.13100477 0.058153335 0.671 11609614
-0.12953334 0.058066666 0.67000002 12285184
-0.12825714 0.058066666 0.67000002 14127368
-0.12717049 0.058153335 0.671 13140879
-0.12589237 0.058153335 0.671 12351363
-0.12461428 0.058153335 0.671 12288068
-0.12388762 0.058413334 0.67400002 12945998
-0.12260382 0.058413334 0.67400002 11959435
-0.12132 0.058413334 0.67400002 9919852
-0.12003619 0.058413334 0.67400002 10051584
-0.11822381 0.058153335 0.671 11433237
-0.11694571 0.058153335 0.671 12616825
-0.11566762 0.058153335 0.671 13208962
-0.11421905 0.058066666 0.67000002 11963484
-0.11294286 0.058066666 0.67000002 11766105
-0.11166666 0.058066666 0.67000002 12160412
-0.11039048 0.058066666 0.67000002 13673651
-0.10927714 0.058153335 0.671 14002061
-0.10816 0.058240004 0.67200005 14199440
-0.1071981 0.058413334 0.67400002 14330251
-0.10591429 0.058413334 0.67400002 12356461
-0.10432001 0.058240004 0.67200005 14332005
-0.10242667 0.057893336 0.66800004 14989935
-0.10115429 0.057893336 0.66800004 14726314
-0.09988191 0.057893336 0.66800004 14463142
-0.098609529 0.057893336 0.66800004 14330543
-0.097337149 0.057893336 0.66800004 13409441
-0.096064761 0.057893336 0.66800004 13669232
-0.094792388 0.057893336 0.66800004 16103573
-0.094080001 0.058240004 0.67200005 15450548
-0.092800006 0.058240004 0.67200005 15121583
-0.091792382 0.058413334 0.67400002 15189679
-0.090240002 0.058240004 0.67200005 15321265
-0.088430479 0.057893336 0.66800004 14326686
-0.087158099 0.057893336 0.66800004 6234147
-0.08614286 0.058066666 0.67000002 9440256
-0.084866665 0.058066666 0.67000002 16752007
-0.083590478 0.058066666 0.67000002 15251402
-0.082314283 0.058066666 0.67000002 14001335
-0.081038095 0.058066666 0.67000002 14001502
-0.079523817 0.057893336 0.66800004 6172160
-0.078134291 0.057806671 0.66700006 10095399
-0.076748572 0.057719998 0.66600001 16754113
-0.075479999 0.057719998 0.66600001 15710926
-0.074211434 0.057719998 0.66600001 12684448
-0.073052391 0.057806671 0.66700006 12946965
-0.071781911 0.057806671 0.66700006 7223040
-0.070405714 0.057719998 0.66600001 10423552
-0.069137141 0.057719998 0.66600001 11081482
-0.067868568 0.057719998 0.66600001 10948883
-0.061340958 0.057546668 0.66400003 10490129
-0.060076192 0.057546668 0.66400003 10227981
-0.059874289 0.058586672 0.67600006 10162188
-0.057806671 0.057806671 0.66700006 10097156
-0.056451429 0.057719998 0.66600001 10097156
-0.055017143 0.057546668 0.66400003 10162958
-0.053752381 0.057546668 0.66400003 10097165
-0.052487623 0.057546668 0.66400003 10162432
-0.051222861 0.057546668 0.66400003 10359810
-0.049958095 0.057546668 0.66400003 10359819
-0.048693337 0.057546668 0.66400003 10359819
-0.047428574 0.057546668 0.66400003 10489620
-0.046163812 0.057546668 0.66400003 10423827
-0.045169525 0.057893336 0.66800004 10293002
-0.043897144 0.057893336 0.66800004 10358795
-0.042752381 0.058066666 0.67000002 10491921
-0.041352384 0.057893336 0.66800004 10557714
-0.040020004 0.057806671 0.66700006 10425621
-0.038691428 0.057719998 0.66600001 11873067
-0.037422854 0.057719998 0.66600001 12541283
-0.036154289 0.057719998 0.66600001 15041417
-0.034728575 0.057460003 0.66300005 13398892
-0.033415239 0.057373337 0.66200006 13201513
-0.032154288 0.057373337 0.66200006 13267836
-0.030893337 0.057373337 0.66200006 14123145
-0.029632382 0.057373337 0.66200006 13531510
-0.028414289 0.057460003 0.66300005 13794682
-0.02715143 0.057460003 0.66300005 13924215
-0.025888573 0.057460003 0.66300005 14318973
-0.024625717 0.057460003 0.66300005 14121064
-0.023468571 0.057719998 0.66600001 14384236
-0.0222 0.057719998 0.66600001 14252689
-0.020931428 0.057719998 0.66600001 13857931
-0.019662857 0.057719998 0.66600001 12799067
-0.018394286 0.057719998 0.66600001 9706796
-0.017125715 0.057719998 0.66600001 11341574
-0.015857141 0.057719998 0.66600001 14960189
-0.014588571 0.057719998 0.66600001 13527389
-0.01332 0.057719998 0.66600001 14645870
-0.012051429 0.057719998 0.66600001 13923976
-0.010782857 0.057719998 0.66600001 13989769
-0.0095142853 0.057719998 0.66600001 13989751
-0.008245714 0.057719998 0.66600001 12081754
-0.0069352384 0.057373337 0.66200006 11735888
-0.0056742863 0.057373337 0.66200006 11275337
-0.0044066664 0.057286669 0.66100001 11603976
-0.0031476191 0.057286669 0.66100001 11801355
-0.0018885714 0.057286669 0.66100001 11735319
-0.00062952383 0.057286669 0.66100001 11735319
0.00062952383 0.057286669 0.66100001 11670037
0.0018828572 0.057113335 0.65900004 11670037
0.0031380954 0.057113335 0.65900004 11735578
0.0043933336 0.057113335 0.65900004 11801371
0.0056485715 0.057113335 0.65900004 11801621
0.0068828571 0.056939997 0.65700001 11670035
0.0081342859 0.056939997 0.65700001 11800851
0.0093857143 0.056939997 0.65700001 11866644
0.010637143 0.056939997 0.65700001 11866646
0.011960953 0.057286669 0.66100001 11866646
0.013139999 0.056939997 0.65700001 11997721
0.014391429 0.056939997 0.65700001 11931928
0.015690476 0.057113335 0.65900004 11866624
0.016945716 0.057113335 0.65900004 11866624
0.018145714 0.056939997 0.65700001 12062976
0.019397143 0.056939997 0.65700001 12326148
0.020648571 0.056939997 0.65700001 11737859
0.0219 0.056939997 0.65700001 11869445
-0.13933526 0.058634292 0.66200006 9601896
-0.13786572 0.058545712 0.66100001 11436405
-0.13660666 0.058545712 0.66100001 7488825
-0.13596192 0.05881143 0.66400003 10361344
-0.13469715 0.05881143 0.66400003 9966592
-0.13343239 0.05881143 0.66400003 10425344
-0.13216762 0.05881143 0.66400003 11149065
-0.13129714 0.058988571 0.66600001 10622464
-0.13022383 0.059077147 0.66700006 10754048
-0.12895335 0.059077147 0.66700006 9768192
-0.12787428 0.059165716 0.66800004 9899776
-0.1266019 0.059165716 0.66800004 10033451
-0.12570477 0.059342857 0.67000002 9243935
-0.12405715 0.059165716 0.66800004 9441024
-0.12241714 0.058988571 0.66600001 9769984
-0.12114857 0.058988571 0.66600001 9571876
-0.12096001 0.059520006 0.67200005 8913946
-0.11932381 0.059342857 0.67000002 9637888
-0.11769524 0.059165716 0.66800004 11348497
-0.11642287 0.059165716 0.66800004 10629678
-0.11515048 0.059165716 0.66800004 9445404
-0.1138781 0.059165716 0.66800004 9643008
-0.11260572 0.059165716 0.66800004 10169344
-0.11133334 0.059165716 0.66800004 10104842
-0.11006096 0.059165716 0.66800004 9183744
-0.10862572 0.059077147 0.66700006 9839360
-0.10735524 0.059077147 0.66700006 11615762
-0.10592572 0.058988571 0.66600001 10897727
-0.10465714 0.058988571 0.66600001 10174004
-0.10354382 0.059077147 0.66700006 10239263
-0.10212 0.058988571 0.66600001 10305056
-0.10085143 0.058988571 0.66600001 10175021
-0.099283814 0.05881143 0.66400003 10372400
-0.098019049 0.05881143 0.66400003 10700619
-0.09675429 0.05881143 0.66400003 10174275
-0.095489532 0.05881143 0.66400003 10104832
-0.093940958 0.058634292 0.66200006 10960133
-0.092680007 0.058634292 0.66200006 10832697
-0.091419049 0.058634292 0.66200006 10503732
-0.090158105 0.058634292 0.66200006 10833973
-0.088897154 0.058634292 0.66200006 11491903
-0.087768577 0.058722861 0.66300005 11816306
-0.086636193 0.05881143 0.66400003 8724035
-0.085628577 0.058988571 0.66600001 10622469
-0.084486671 0.059077147 0.66700006 12925224
-0.083216198 0.059077147 0.66700006 11686240
-0.082068577 0.059165716 0.66800004 10633552
-0.081038095 0.059342857 0.67000002 11154238
-0.079523817 0.059165716 0.66800004 9377827
-0.078017138 0.058988571 0.66600001 11480888
-0.076518096 0.05881143 0.66400003 13323092
-0.075139999 0.058722861 0.66300005 11884402
-0.073877148 0.058722861 0.66300005 8923717
-0.072723806 0.05881143 0.66400003 10953751
-0.071459055 0.05881143 0.66400003 10427407
-0.069982864 0.058634292 0.66200006 11412498
-0.068721905 0.058634292 0.66200006 10557189
-0.067562856 0.058722861 0.66300005 11079695
-0.063678101 0.058634292 0.66200006 10882827
-0.06241715 0.058634292 0.66200006 10817806
-0.061156195 0.058634292 0.66200006 10554634
-0.05998572 0.058722861 0.66300005 10620418
-0.058722861 0.058722861 0.66300005 10620418
-0.057460003 0.058722861 0.66300005 10555136
-0.056197144 0.058722861 0.66300005 10620928
-0.054934289 0.058722861 0.66300005 10751745
-0.05359048 0.058634292 0.66200006 10685952
-0.052329529 0.058634292 0.66200006 10751744
-0.050991427 0.058545712 0.66100001 10817536
-0.049732383 0.058545712 0.66100001 10882816
-0.048473332 0.058545712 0.66100001 10948608
-0.047214285 0.058545712 0.66100001 11276032
-0.045955241 0.058545712 0.66100001 11341824
-0.044831429 0.058722861 0.66300005 11341826
-0.043765716 0.058988571 0.66600001 11407619
-0.042369526 0.05881143 0.66400003 11473158
-0.041042857 0.058722861 0.66300005 11538951
-0.039780006 0.058722861 0.66300005 11407117
-0.038517147 0.058722861 0.66300005 12065047
-0.037254289 0.058722861 0.66300005 13194332
-0.035991434 0.058722861 0.66300005 14641778
-0.034676194 0.058634292 0.66200006 13660251
-0.033415239 0.058634292 0.66200006 13397079
-0.032154288 0.058634292 0.66200006 13527652
-0.030893337 0.058634292 0.66200006 13593445
-0.029632382 0.058634292 0.66200006 13461857
-0.028328571 0.058545712 0.66100001 13527650
-0.027069524 0.058545712 0.66100001 13725029
-0.025849525 0.058634292 0.66200006 13593443
-0.024588574 0.058634292 0.66200006 13000025
-0.023327621 0.058634292 0.66200006 14118506
-0.022066668 0.058634292 0.66200006 13728121
-0.020805717 0.058634292 0.66200006 13333363
-0.019544763 0.058634292 0.66200006 12339284
-0.01831143 0.058722861 0.66300005 9444392
