# .PCD v0.7 - Point Cloud Data file format
VERSION 0.7
FIELDS x y z rgba
SIZE 4 4 4 4
TYPE F F F U
COUNT 1 1 1 1
WIDTH 1095
HEIGHT 1
VIEWPOINT 0 0 0 1 0 0 0
POINTS 1095
DATA ascii
-0.086210482 0.051989529 0.69100004 11644089
-0.084894292 0.051989529 0.69100004 15920634
-0.083578095 0.051989529 0.69100004 15393513
-0.082261913 0.051989529 0.69100004 11709105
-0.080945715 0.051989529 0.69100004 12629176
-0.079629533 0.051989529 0.69100004 16445170
-0.078313336 0.051989529 0.69100004 15194592
-0.076997146 0.051989529 0.69100004 11312805
-0.075680956 0.051989529 0.69100004 9862556
-0.074364766 0.051989529 0.69100004 8415110
-0.073048577 0.051989529 0.69100004 11768711
-0.071732387 0.051989529 0.69100004 16772577
-0.070416197 0.051989529 0.69100004 16444911
-0.069100007 0.051989529 0.69100004 12760503
-0.067391433 0.051688574 0.68700004 11110322
-0.066082858 0.051688574 0.68700004 8083844
-0.064680003 0.051613338 0.68600005 8339055
-0.063188568 0.051462859 0.68400002 9128571
-0.061885718 0.051462859 0.68400002 11438508
-0.060760003 0.051613338 0.68600005 16770303
-0.059453338 0.051613338 0.68600005 15128558
-0.05814667 0.051613338 0.68600005 9009809
-0.057668574 0.05236572 0.69600004 8743424
-0.056180954 0.052215237 0.69400001 9006592
-0.05485905 0.052215237 0.69400001 8272640
-0.053537142 0.052215237 0.69400001 10312211
-0.052140001 0.052140001 0.69300002 14137179
-0.05082 0.052140001 0.69300002 16772497
-0.04914286 0.05176381 0.68800002 13876926
-0.047832385 0.05176381 0.68800002 1114112
-0.046454288 0.051688574 0.68700004 983296
-0.045145717 0.051688574 0.68700004 15062995
-0.043837145 0.051688574 0.68700004 16445177
-0.042528573 0.051688574 0.68700004 13550285
-0.040800001 0.051161904 0.68000001 12755076
-0.039504763 0.051161904 0.68000001 4267779
-0.038209524 0.051161904 0.68000001 7866880
-0.022766666 0.051387619 0.68300003 7672832
-0.021465715 0.051387619 0.68300003 7738624
-0.020253334 0.051613338 0.68600005 7411712
-0.018946668 0.051613338 0.68600005 7543297
-0.017588571 0.051462859 0.68400002 7477774
-0.016261905 0.051387619 0.68300003 7017223
-0.014939048 0.051312383 0.68200004 9460224
-0.01364 0.051312383 0.68200004 13078823
-0.012304761 0.051161904 0.68000001 12291196
-0.011009524 0.051161904 0.68000001 10120027
-0.0019514286 0.051387619 0.68300003 7276800
-0.0006504762 0.051387619 0.68300003 7211008
0.0006504762 0.051387619 0.68300003 7080448
0.0019485714 0.051312383 0.68200004 7146240
0.0032476194 0.051312383 0.68200004 7408128
0.0045533334 0.051387619 0.68300003 7473920
0.0058542858 0.051387619 0.68300003 7998208
0.0071552387 0.051387619 0.68300003 7998208
0.008456191 0.051387619 0.68300003 8325888
0.0097571434 0.051387619 0.68300003 8391680
0.011058095 0.051387619 0.68300003 8784896
0.012377143 0.051462859 0.68400002 8784896
0.013720001 0.051613338 0.68600005 9112832
0.014960953 0.051387619 0.68300003 9310208
0.016261905 0.051387619 0.68300003 9441284
0.017537145 0.051312383 0.68200004 9704456
0.018836193 0.051312383 0.68200004 9574403
0.020164762 0.051387619 0.68300003 9574403
0.021465715 0.051387619 0.68300003 9443337
0.022633335 0.051086668 0.67900002 9903888
0.023926668 0.051086668 0.67900002 9642513
0.025220001 0.051086668 0.67900002 9642513
0.026513334 0.051086668 0.67900002 9443337
0.027806668 0.051086668 0.67900002 9114372
0.029100001 0.051086668 0.67900002 9703168
0.030393332 0.051086668 0.67900002 9768960
0.031640001 0.051011432 0.67800003 9899776
0.032931432 0.051011432 0.67800003 9965568
0.03422286 0.051011432 0.67800003 10031104
0.035514288 0.051011432 0.67800003 10096897
0.036805719 0.051011432 0.67800003 9965568
0.038097143 0.051011432 0.67800003 9965568
0.039388571 0.051011432 0.67800003 9965568
0.040679999 0.051011432 0.67800003 9965568
0.04197143 0.051011432 0.67800003 9965312
0.043326665 0.051086668 0.67900002 10031104
0.04462 0.051086668 0.67900002 10096647
0.045913331 0.051086668 0.67900002 10096647
0.047206666 0.051086668 0.67900002 10096647
0.048428573 0.051011432 0.67800003 10096647
0.04972 0.051011432 0.67800003 10096134
0.051011432 0.051011432 0.67800003 10293513
0.05230286 0.051011432 0.67800003 9966858
-0.10297143 0.052457143 0.68000001 8784896
-0.10167619 0.052457143 0.68000001 8653312
-0.10038095 0.052457143 0.68000001 8266539
-0.099085711 0.052457143 0.68000001 16761803
-0.097790472 0.052457143 0.68000001 15130105
-0.096495233 0.052457143 0.68000001 12695764
-0.095199995 0.052457143 0.68000001 8422276
-0.093904756 0.052457143 0.68000001 7764346
-0.092881911 0.052611433 0.68200004 8479744
-0.09238857 0.053074285 0.68800002 12229935
-0.091078095 0.053074285 0.68800002 14992611
-0.090028577 0.053228576 0.69000006 15847920
-0.088714294 0.053228576 0.69000006 14471623
-0.087400004 0.053228576 0.69000006 11905696
-0.086085722 0.053228576 0.69000006 13419446
-0.084771439 0.053228576 0.69000006 16051166
-0.08345715 0.053228576 0.69000006 15000034
-0.082142867 0.053228576 0.69000006 11776177
-0.080828577 0.053228576 0.69000006 13089734
-0.07916858 0.052997146 0.68700004 15984626
-0.077860005 0.052997146 0.68700004 14537943
-0.076440006 0.052920006 0.68600005 10590363
-0.074914292 0.052765712 0.68400002 10850937
-0.073503807 0.052688573 0.68300003 10653558
-0.072202861 0.052688573 0.68300003 10983070
-0.071005717 0.052765712 0.68400002 16641268
-0.069600955 0.052688573 0.68300003 16182520
-0.068300001 0.052688573 0.68300003 11905975
-0.066999055 0.052688573 0.68300003 12425619
-0.065698095 0.052688573 0.68300003 8543832
-0.064397149 0.052688573 0.68300003 8732730
-0.063096188 0.052688573 0.68300003 13338240
-0.061795238 0.052688573 0.68300003 14794964
-0.060405716 0.052611433 0.68200004 16637168
-0.05910667 0.052611433 0.68200004 14472159
-0.057807621 0.052611433 0.68200004 8156031
-0.056508575 0.052611433 0.68200004 6624768
-0.055209529 0.052611433 0.68200004 8730135
-0.053910479 0.052611433 0.68200004 9195008
-0.052611433 0.052611433 0.68200004 12155679
-0.051312383 0.052611433 0.68200004 14200733
-0.050013337 0.052611433 0.68200004 16769230
-0.048714288 0.052611433 0.68200004 13875141
-0.047415242 0.052611433 0.68200004 3085089
-0.046116196 0.052611433 0.68200004 3081216
-0.044685714 0.052457143 0.68000001 16700363
-0.043390475 0.052457143 0.68000001 16183295
-0.04209524 0.052457143 0.68000001 13091024
-0.040800001 0.052457143 0.68000001 12161157
-0.039504763 0.052457143 0.68000001 4923927
-0.038209524 0.052457143 0.68000001 8784896
-0.037022859 0.052611433 0.68200004 9508610
-0.035723813 0.052611433 0.68200004 9639683
-0.034626666 0.052920006 0.68600005 9705476
-0.033320002 0.052920006 0.68600005 9574412
-0.032013334 0.052920006 0.68600005 9640205
-0.030706666 0.052920006 0.68600005 9377292
-0.029271429 0.052688573 0.68300003 9311499
-0.027970478 0.052688573 0.68300003 9180416
-0.026630478 0.052611433 0.68200004 8785664
-0.02533143 0.052611433 0.68200004 8653568
-0.023961904 0.052457143 0.68000001 8587776
-0.022666667 0.052457143 0.68000001 8391424
-0.021434287 0.052611433 0.68200004 8391424
-0.020135241 0.052611433 0.68200004 8326400
-0.018836193 0.052611433 0.68200004 8326400
-0.017537145 0.052611433 0.68200004 8654598
-0.016238095 0.052611433 0.68200004 8457219
-0.014895238 0.052457143 0.68000001 8457216
-0.013580001 0.052379999 0.67900002 9180931
-0.012286667 0.052379999 0.67900002 9380911
-0.010993334 0.052379999 0.67900002 8130844
-0.0097000003 0.052379999 0.67900002 8391424
-0.008406667 0.052379999 0.67900002 8391424
-0.0071028573 0.05230286 0.67800003 7932672
-0.0058114287 0.05230286 0.67800003 7866880
-0.004546667 0.052611433 0.68200004 7604480
-0.0032476194 0.052611433 0.68200004 7604480
-0.0019485714 0.052611433 0.68200004 7342336
-0.00064952386 0.052611433 0.68200004 7408128
0.00064952386 0.052611433 0.68200004 7539456
0.0019428571 0.052457143 0.68000001 7605248
0.0032380952 0.052457143 0.68000001 8194816
0.004546667 0.052611433 0.68200004 8326400
0.0058457148 0.052611433 0.68200004 8915968
0.0071238093 0.052457143 0.68000001 9047552
0.008419048 0.052457143 0.68000001 9506048
0.0097142858 0.052457143 0.68000001 9769216
0.011041906 0.052611433 0.68200004 10096437
0.012340954 0.052611433 0.68200004 9964851
0.01368 0.052765712 0.68400002 9900032
0.014939048 0.052611433 0.68200004 9768448
0.016190477 0.052457143 0.68000001 9899520
0.01746 0.052379999 0.67900002 11873306
0.018753333 0.052379999 0.67900002 10827835
0.020046666 0.052379999 0.67900002 11091007
0.021371428 0.052457143 0.68000001 10895419
0.022600001 0.05230286 0.67800003 11158591
0.023891428 0.05230286 0.67800003 11092047
0.025182858 0.05230286 0.67800003 9118257
0.026474288 0.05230286 0.67800003 10163206
0.027765715 0.05230286 0.67800003 10228999
0.029057145 0.05230286 0.67800003 10097156
0.030348573 0.05230286 0.67800003 9965570
0.031546671 0.052148577 0.67600006 10031360
0.032834288 0.052148577 0.67600006 10031360
0.034071431 0.052071426 0.67500001 10162432
0.035357144 0.052071426 0.67500001 10228224
0.036642861 0.052071426 0.67500001 10096896
0.03792857 0.052071426 0.67500001 9965312
0.039214283 0.052071426 0.67500001 9900032
0.0405 0.052071426 0.67500001 9834240
0.04184762 0.052148577 0.67600006 9768192
0.043135241 0.052148577 0.67600006 9833984
0.044422861 0.052148577 0.67600006 9899264
0.045710482 0.052148577 0.67600006 9899264
0.046998098 0.052148577 0.67600006 10030336
0.048428573 0.05230286 0.67800003 9964544
0.04972 0.05230286 0.67800003 9899264
0.050710477 0.051994286 0.67400002 9899264
0.051994286 0.051994286 0.67400002 10030592
-0.10365334 0.053436194 0.67600006 5516288
-0.10236572 0.053436194 0.67600006 8653568
-0.10107811 0.053436194 0.67600006 8653568
-0.10008572 0.053594287 0.67800003 8457737
-0.09894 0.053673334 0.67900002 16760248
-0.097646669 0.053673334 0.67900002 16311801
-0.096353337 0.053673334 0.67900002 15061734
-0.095199995 0.053752381 0.68000001 13810379
-0.093904756 0.053752381 0.68000001 10389143
-0.092473336 0.053673334 0.67900002 10712911
-0.091045722 0.053594287 0.67800003 15055249
-0.089754291 0.053594287 0.67800003 16245742
-0.088593334 0.053673334 0.67900002 15719398
-0.087300003 0.053673334 0.67900002 13681041
-0.087400004 0.054542862 0.69000006 10128219
-0.084588572 0.053594287 0.67800003 14272674
-0.083297148 0.053594287 0.67800003 16774864
-0.081763811 0.053436194 0.67600006 15722971
-0.080476195 0.053436194 0.67600006 12564907
-0.079188578 0.053436194 0.67600006 14933464
-0.077900954 0.053436194 0.67600006 16512496
-0.077066667 0.053752381 0.68000001 15128277
-0.07599429 0.053910479 0.68200004 10259595
-0.074695244 0.053910479 0.68200004 11837279
-0.073396191 0.053910479 0.68200004 12955760
-0.072097145 0.053910479 0.68200004 13677769
-0.070798099 0.053910479 0.68200004 16773375
-0.069499053 0.053910479 0.68200004 16576754
-0.0682 0.053910479 0.68200004 11773865
-0.066900954 0.053910479 0.68200004 12624501
-0.065601908 0.053910479 0.68200004 9400644
-0.064302862 0.053910479 0.68200004 11764087
-0.063003816 0.053910479 0.68200004 16771037
-0.061704762 0.053910479 0.68200004 16642047
-0.060228571 0.053752381 0.68000001 15984117
-0.058933333 0.053752381 0.68000001 15063247
-0.057553336 0.053673334 0.67900002 11839390
-0.056260001 0.053673334 0.67900002 11433884
-0.055047616 0.053752381 0.68000001 5117756
-0.053752381 0.053752381 0.68000001 8523520
-0.052457143 0.053752381 0.68000001 16754833
-0.051161904 0.053752381 0.68000001 15978707
-0.049866665 0.053752381 0.68000001 16770793
-0.048571426 0.053752381 0.68000001 14728381
-0.047276188 0.053752381 0.68000001 3543571
-0.045913331 0.053673334 0.67900002 6359055
-0.044554286 0.053594287 0.67800003 16766171
-0.043262858 0.053594287 0.67800003 16642810
-0.04197143 0.053594287 0.67800003 12958402
-0.040679999 0.053594287 0.67800003 12556150
-0.039388571 0.053594287 0.67800003 5121541
-0.038097143 0.053594287 0.67800003 8981504
-0.036860004 0.053673334 0.67900002 9639426
-0.035566669 0.053673334 0.67900002 9704448
-0.034626666 0.05422667 0.68600005 9704448
-0.033320002 0.05422667 0.68600005 9704195
-0.032013334 0.05422667 0.68600005 9769988
-0.030706666 0.05422667 0.68600005 9376522
-0.029271429 0.053989526 0.68300003 9179143
-0.027970478 0.053989526 0.68300003 9113359
-0.026630478 0.053910479 0.68200004 8981773
-0.025257142 0.053752381 0.68000001 8916491
-0.023961904 0.053752381 0.68000001 8850698
-0.022666667 0.053752381 0.68000001 8851200
-0.021340001 0.053673334 0.67900002 8916992
-0.020046666 0.053673334 0.67900002 8917261
-0.018780952 0.053752381 0.68000001 8785675
-0.017485715 0.053752381 0.68000001 8983300
-0.016190477 0.053752381 0.68000001 8785921
-0.014873333 0.053673334 0.67900002 8915968
-0.013560001 0.053594287 0.67800003 8850176
-0.012268572 0.053594287 0.67800003 8784896
-0.010977143 0.053594287 0.67800003 8784896
-0.0096857138 0.053594287 0.67800003 8981760
-0.008394286 0.053594287 0.67800003 9047552
-0.0070819054 0.053436194 0.67600006 9047552
-0.0057942863 0.053436194 0.67600006 10231820
-0.004546667 0.053910479 0.68200004 10834484
-0.0032476194 0.053910479 0.68200004 12216137
-0.0019428571 0.053752381 0.68000001 11295819
-0.00064761908 0.053752381 0.68000001 11098440
0.00064666668 0.053673334 0.67900002 11426911
0.001937143 0.053594287 0.67800003 11887462
0.0032285715 0.053594287 0.67800003 11558739
0.0045266668 0.053673334 0.67900002 12150876
0.0058114287 0.053594287 0.67800003 11753057
0.0071028573 0.053594287 0.67800003 11029334
0.008394286 0.053594287 0.67800003 11553109
0.0096857138 0.053594287 0.67800003 13132141
0.010977143 0.053594287 0.67800003 12081268
0.012196191 0.053278096 0.67400002 10962787
0.01348 0.053278096 0.67400002 10498317
0.014785714 0.053357143 0.67500001 8590336
0.016071428 0.053357143 0.67500001 9571848
0.017357143 0.053357143 0.67500001 12598326
0.018642858 0.053357143 0.67500001 11226183
0.019928573 0.053357143 0.67500001 11555148
0.021308571 0.053594287 0.67800003 11424836
0.022600001 0.053594287 0.67800003 11688008
0.023820955 0.053436194 0.67600006 10760538
0.025108574 0.053436194 0.67600006 8589369
0.026357144 0.053357143 0.67500001 9702656
0.027642857 0.053357143 0.67500001 9768448
0.02892857 0.053357143 0.67500001 9899264
0.030214285 0.053357143 0.67500001 9965056
0.031453334 0.053278096 0.67400002 10030592
0.032737143 0.053278096 0.67400002 10030592
0.034020953 0.053278096 0.67400002 10030592
0.035304762 0.053278096 0.67400002 10030592
0.036588576 0.053278096 0.67400002 10030592
0.037872382 0.053278096 0.67400002 9964800
0.039156191 0.053278096 0.67400002 10095872
0.040440001 0.053278096 0.67400002 10227456
0.04172381 0.053278096 0.67400002 10423808
0.04300762 0.053278096 0.67400002 10752768
0.044291429 0.053278096 0.67400002 10818048
0.045575239 0.053278096 0.67400002 10752256
0.046859052 0.053278096 0.67400002 10883584
0.048142858 0.053278096 0.67400002 11080960
0.049426667 0.053278096 0.67400002 11148288
0.050710477 0.053278096 0.67400002 11411456
0.051840004 0.053120002 0.67200005 11214080
0.053040951 0.053040951 0.671 12200967
0.054319046 0.053040951 0.671 9119281
0.055597141 0.053040951 0.671 7013905
0.056790475 0.052961905 0.67000002 1310981
0.057893336 0.052803814 0.66800004 917504
0.059165716 0.052803814 0.66800004 2
-0.10334668 0.054561906 0.67400002 5907975
-0.10206286 0.054561906 0.67400002 8981504
-0.10048001 0.054400001 0.67200005 8915712
-0.09920001 0.054400001 0.67200005 8784896
-0.098357141 0.054642856 0.67500001 16754321
-0.09721525 0.054723814 0.67600006 15524061
-0.096211433 0.054885715 0.67800003 15326682
-0.094920009 0.054885715 0.67800003 15980510
-0.093766667 0.054966666 0.67900002 12361895
-0.092337146 0.054885715 0.67800003 12883557
-0.091045722 0.054885715 0.67800003 15449484
-0.089754291 0.054885715 0.67800003 16378866
-0.088071428 0.054642856 0.67500001 14734041
-0.086785711 0.054642856 0.67500001 11182723
-0.085500002 0.054642856 0.67500001 10327414
-0.084214285 0.054642856 0.67500001 14663335
-0.083051436 0.054723814 0.67600006 16505539
-0.081763811 0.054723814 0.67600006 14537677
-0.080476195 0.054723814 0.67600006 13287610
-0.079071432 0.054642856 0.67500001 15064800
-0.077785715 0.054642856 0.67500001 15327972
-0.076840006 0.054885715 0.67800003 15126991
-0.075659998 0.054966666 0.67900002 12166306
-0.074366666 0.054966666 0.67900002 12559496
-0.073180959 0.055047616 0.68000001 13085840
-0.07188572 0.055047616 0.68000001 14268350
-0.070590481 0.055047616 0.68000001 16769512
-0.069295242 0.055047616 0.68000001 15984871
-0.068000004 0.055047616 0.68000001 12563635
-0.066704765 0.055047616 0.68000001 13282968
-0.065601908 0.055209529 0.68200004 10980213
-0.064302862 0.055209529 0.68200004 12752517
-0.063003816 0.055209529 0.68200004 16767689
-0.061523806 0.055047616 0.68000001 15459304
-0.060228571 0.055047616 0.68000001 14209237
-0.058933333 0.055047616 0.68000001 14337473
-0.057299051 0.054723814 0.67600006 12758441
-0.056011431 0.054723814 0.67600006 14262179
-0.054885715 0.054885715 0.67800003 5906468
-0.053673334 0.054966666 0.67900002 8719616
-0.052379999 0.054966666 0.67900002 16752007
-0.051086668 0.054966666 0.67900002 14799048
-0.049793333 0.054966666 0.67900002 14206911
-0.048500001 0.054966666 0.67900002 11637918
-0.047137145 0.054885715 0.67800003 3742758
-0.045845713 0.054885715 0.67800003 8653568
-0.044422861 0.054723814 0.67600006 16755608
-0.043135241 0.054723814 0.67600006 14404567
-0.04184762 0.054723814 0.67600006 11970226
-0.040560003 0.054723814 0.67600006 9663083
-0.039272383 0.054723814 0.67600006 5189159
-0.037703808 0.054319046 0.671 9112576
-0.036425717 0.054319046 0.671 9638915
-0.035095241 0.054238096 0.67000002 9965829
-0.03381905 0.054238096 0.67000002 9965829
-0.032542858 0.054238096 0.67000002 9835270
-0.031266667 0.054238096 0.67000002 9769477
-0.029990477 0.054238096 0.67000002 9442560
-0.028800001 0.054400001 0.67200005 9179392
-0.027520001 0.054400001 0.67200005 9047552
-0.026396191 0.054723814 0.67600006 8981760
-0.025071429 0.054642856 0.67500001 8850688
-0.023785714 0.054642856 0.67500001 8916480
-0.022533335 0.054723814 0.67600006 8851200
-0.021245716 0.054723814 0.67600006 8916992
-0.020017143 0.054885715 0.67800003 9113859
-0.018725716 0.054885715 0.67800003 9113859
-0.017382858 0.054723814 0.67600006 9179648
-0.01609524 0.054723814 0.67600006 9048064
-0.01480762 0.054723814 0.67600006 9309696
-0.0135 0.054642856 0.67500001 9309696
-0.012214285 0.054642856 0.67500001 9506048
-0.010928571 0.054642856 0.67500001 9571840
-0.0096428571 0.054642856 0.67500001 9637120
-0.008357143 0.054642856 0.67500001 9637120
-0.0070714285 0.054642856 0.67500001 9506048
-0.0057771429 0.054561906 0.67400002 10361348
-0.0044933339 0.054561906 0.67400002 11290420
-0.0032095239 0.054561906 0.67400002 12343108
-0.0019285715 0.054642856 0.67500001 11622715
-0.00064285717 0.054642856 0.67500001 11491129
0.00064285717 0.054642856 0.67500001 11754312
0.0019285715 0.054642856 0.67500001 11491140
0.0032142857 0.054642856 0.67500001 11423787
0.0044999998 0.054642856 0.67500001 11621166
0.0057771429 0.054561906 0.67400002 11489598
0.007060953 0.054561906 0.67400002 10897461
0.008344762 0.054561906 0.67400002 11223355
0.0096285716 0.054561906 0.67400002 11947078
0.010912381 0.054561906 0.67400002 11488854
0.01216 0.054400001 0.67200005 10699338
0.013440001 0.054400001 0.67200005 10368035
0.014720001 0.054400001 0.67200005 8262659
0.016000001 0.054400001 0.67200005 9309184
0.017280001 0.054400001 0.67200005 10954003
0.01856 0.054400001 0.67200005 10168115
0.01984 0.054400001 0.67200005 11549768
0.021120002 0.054400001 0.67200005 10766384
0.022400003 0.054400001 0.67200005 11226935
0.023750478 0.054561906 0.67400002 10365762
0.025034286 0.054561906 0.67400002 8589351
0.026240002 0.054400001 0.67200005 9899264
0.027520001 0.054400001 0.67200005 9899264
0.028885717 0.054561906 0.67400002 9899264
0.030080002 0.054400001 0.67200005 9899264
0.03136 0.054400001 0.67200005 10096128
0.032640003 0.054400001 0.67200005 10096128
0.033920001 0.054400001 0.67200005 10358016
0.035200004 0.054400001 0.67200005 10423808
0.036480006 0.054400001 0.67200005 10489600
0.037760001 0.054400001 0.67200005 10555392
0.039040003 0.054400001 0.67200005 10950657
0.040320002 0.054400001 0.67200005 12134931
0.041538097 0.054319046 0.671 12139567
0.042816192 0.054319046 0.671 12797497
0.044160005 0.054400001 0.67200005 12600388
0.04544 0.054400001 0.67200005 12995146
0.046650477 0.054319046 0.671 12799303
0.047928572 0.054319046 0.671 13457233
0.049206667 0.054319046 0.671 13327432
0.050484762 0.054319046 0.671 13327432
0.051762857 0.054319046 0.671 13195078
0.052961905 0.054238096 0.67000002 13260871
0.054238096 0.054238096 0.67000002 11161681
0.055514287 0.054238096 0.67000002 7608859
0.056790475 0.054238096 0.67000002 5775656
0.057893336 0.054076191 0.66800004 2490368
0.059165716 0.054076191 0.66800004 197120
-0.10463049 0.055845715 0.67400002 10577152
-0.10304001 0.055680003 0.67200005 6827008
-0.10160857 0.055597141 0.671 9309184
-0.10033047 0.055597141 0.671 9374976
-0.09920001 0.055680003 0.67200005 9309184
-0.09821143 0.055845715 0.67400002 9638144
-0.09692762 0.055845715 0.67400002 11169024
-0.095643811 0.055845715 0.67400002 14129692
-0.094499998 0.055928573 0.67500001 13212296
-0.093352392 0.056011431 0.67600006 11764850
-0.092064768 0.056011431 0.67600006 11366477
-0.090642862 0.055928573 0.67500001 11629649
-0.089357145 0.055928573 0.67500001 11037813
-0.087940954 0.055845715 0.67400002 9590367
-0.086657144 0.055845715 0.67400002 9326354
-0.085120007 0.055680003 0.67200005 9392147
-0.083840005 0.055680003 0.67200005 10641210
-0.082928576 0.055928573 0.67500001 11430726
-0.081642851 0.055928573 0.67500001 9918520
-0.080357142 0.055928573 0.67500001 8602660
-0.079071432 0.055928573 0.67500001 9261904
-0.077785715 0.055928573 0.67500001 9788248
-0.076613337 0.056011431 0.67600006 9983060
-0.07532572 0.056011431 0.67600006 9785681
-0.074038103 0.056011431 0.67600006 9915730
-0.073073335 0.056260001 0.67900002 9192007
-0.071357146 0.055928573 0.67500001 9319978
-0.070071429 0.055928573 0.67500001 9385771
-0.069193333 0.056260001 0.67900002 9648953
-0.068000004 0.056342855 0.68000001 9780539
-0.066704765 0.056342855 0.68000001 9386798
-0.065409526 0.056342855 0.68000001 8465696
-0.064114287 0.056342855 0.68000001 9119760
-0.062819049 0.056342855 0.68000001 9382932
-0.061523806 0.056342855 0.68000001 8266752
-0.060140003 0.056260001 0.67900002 7872000
-0.058760002 0.056177147 0.67800003 8530462
-0.056960005 0.055680003 0.67200005 9319978
-0.055680003 0.055680003 0.67200005 10170910
-0.054400001 0.055680003 0.67200005 8328706
-0.053357143 0.055928573 0.67500001 9178112
-0.052071426 0.055928573 0.67500001 9507072
-0.050785713 0.055928573 0.67500001 9179648
-0.049500003 0.055928573 0.67500001 8784896
-0.048214287 0.055928573 0.67500001 9050880
-0.046928573 0.055928573 0.67500001 8524544
-0.045710482 0.056011431 0.67600006 9309184
-0.044357143 0.055928573 0.67500001 9506560
-0.04307143 0.055928573 0.67500001 8982272
-0.041785713 0.055928573 0.67500001 8521728
-0.0405 0.055928573 0.67500001 9051648
-0.039214283 0.055928573 0.67500001 10367503
-0.037703808 0.055597141 0.671 9636908
-0.036425717 0.055597141 0.671 9505322
-0.035095241 0.055514287 0.67000002 9702659
-0.03381905 0.055514287 0.67000002 9702659
-0.032542858 0.055514287 0.67000002 9702656
-0.031266667 0.055514287 0.67000002 9702656
-0.029990477 0.055514287 0.67000002 9571328
-0.028714286 0.055514287 0.67000002 9571328
-0.027479049 0.055597141 0.671 9637376
-0.026240002 0.055680003 0.67200005 9637376
-0.024960002 0.055680003 0.67200005 9571840
-0.023680001 0.055680003 0.67200005 9703424
-0.022466667 0.055845715 0.67400002 9571840
-0.021182857 0.055845715 0.67400002 9506048
-0.019899048 0.055845715 0.67400002 9506048
-0.018615238 0.055845715 0.67400002 9506048
-0.017280001 0.055680003 0.67200005 9637120
-0.016000001 0.055680003 0.67200005 9702912
-0.01476381 0.055845715 0.67400002 9833728
-0.01348 0.055845715 0.67400002 10425860
-0.012196191 0.055845715 0.67400002 10031361
-0.010912381 0.055845715 0.67400002 9899776
-0.0096285716 0.055845715 0.67400002 10096640
-0.008344762 0.055845715 0.67400002 10162432
-0.0070400005 0.055680003 0.67200005 10161664
-0.0057600001 0.055680003 0.67200005 10293248
-0.0044800006 0.055680003 0.67200005 10556672
-0.0032000002 0.055680003 0.67200005 10490880
-0.0019171429 0.055597141 0.671 10556672
-0.00063904759 0.055597141 0.671 10688256
0.00063904759 0.055597141 0.671 10492160
0.0019142857 0.055514287 0.67000002 10294784
0.0031904762 0.055514287 0.67000002 11154944
0.0044666668 0.055514287 0.67000002 11352320
0.0057514287 0.055597141 0.671 11352320
0.0070295236 0.055597141 0.671 11352320
0.0083076181 0.055597141 0.671 11154723
0.0095857149 0.055597141 0.671 10036242
0.010863809 0.055597141 0.671 10625306
0.012141905 0.055597141 0.671 10493720
0.013400001 0.055514287 0.67000002 11022371
0.014676191 0.055514287 0.67000002 11219750
0.015976191 0.055597141 0.671 11552295
0.017254286 0.055597141 0.671 12144432
0.01853238 0.055597141 0.671 11685439
0.019810477 0.055597141 0.671 11422267
0.02108857 0.055597141 0.671 11686963
0.022400003 0.055680003 0.67200005 12344893
0.023680001 0.055680003 0.67200005 12081744
0.024960002 0.055680003 0.67200005 12213330
0.026200952 0.055597141 0.671 12145997
0.027479049 0.055597141 0.671 12080204
0.028757142 0.055597141 0.671 12538438
0.030035239 0.055597141 0.671 12604231
0.031313334 0.055597141 0.671 12999489
0.032591429 0.055597141 0.671 13591626
0.033869524 0.055597141 0.671 13264971
0.035147619 0.055597141 0.671 13725522
0.036425717 0.055597141 0.671 13067594
0.037703808 0.055597141 0.671 13330766
0.038981903 0.055597141 0.671 13265464
0.040200002 0.055514287 0.67000002 13791808
0.04147619 0.055514287 0.67000002 13791308
0.042752381 0.055514287 0.67000002 13791308
0.044028569 0.055514287 0.67000002 13527373
0.04530476 0.055514287 0.67000002 13395787
0.046580952 0.055514287 0.67000002 13526860
0.047857143 0.055514287 0.67000002 13921618
0.049133334 0.055514287 0.67000002 13791313
0.050484762 0.055597141 0.671 13922899
0.051685713 0.055514287 0.67000002 13461855
0.052961905 0.055514287 0.67000002 13725027
0.054238096 0.055514287 0.67000002 12547193
0.055514287 0.055514287 0.67000002 12744572
0.056790475 0.055514287 0.67000002 10518905
0.057893336 0.055348575 0.66800004 8676701
0.059165716 0.055348575 0.66800004 7499357
-0.10432001 0.056960005 0.67200005 9911304
-0.10304001 0.056960005 0.67200005 7871744
-0.10160857 0.05687524 0.671 9571840
-0.10033047 0.05687524 0.671 9769216
-0.09920001 0.056960005 0.67200005 9967616
-0.097920008 0.056960005 0.67200005 9836032
-0.096640006 0.056960005 0.67200005 8982016
-0.095360003 0.056960005 0.67200005 9837316
-0.094080001 0.056960005 0.67200005 9516589
-0.093076192 0.057129528 0.67400002 8200729
-0.091792382 0.057129528 0.67400002 8657152
-0.090508573 0.057129528 0.67400002 8393984
-0.089224763 0.057129528 0.67400002 8719110
-0.087680012 0.056960005 0.67200005 8521731
-0.08640001 0.056960005 0.67200005 8784896
-0.085120007 0.056960005 0.67200005 9048064
-0.083840005 0.056960005 0.67200005 9770240
-0.082560003 0.056960005 0.67200005 9375488
-0.081521906 0.057129528 0.67400002 9112832
-0.080238096 0.057129528 0.67400002 9047040
-0.078954287 0.057129528 0.67400002 8784896
-0.077670477 0.057129528 0.67400002 8784896
-0.076500006 0.057214286 0.67500001 8915968
-0.075102858 0.057129528 0.67400002 9113344
-0.073819049 0.057129528 0.67400002 9112846
-0.072535239 0.057129528 0.67400002 8915467
-0.071040004 0.056960005 0.67200005 8915968
-0.069656193 0.05687524 0.671 8850176
-0.068378091 0.05687524 0.671 8981504
-0.067200005 0.056960005 0.67200005 9178880
-0.066116191 0.057129528 0.67400002 9112832
-0.06464 0.056960005 0.67200005 9310208
-0.063360006 0.056960005 0.67200005 9310208
-0.061987616 0.05687524 0.671 9178624
-0.060709521 0.05687524 0.671 8784896
-0.060051434 0.057468574 0.67800003 8916480
-0.058586672 0.057299051 0.67600006 9573890
-0.05687524 0.05687524 0.671 9244928
-0.055597141 0.05687524 0.671 9900036
-0.054319046 0.05687524 0.671 10360587
-0.053040951 0.05687524 0.671 10231808
-0.051840004 0.056960005 0.67200005 9508096
-0.050560005 0.056960005 0.67200005 9833984
-0.049280003 0.056960005 0.67200005 9965568
-0.048000004 0.056960005 0.67200005 10824220
-0.046720002 0.056960005 0.67200005 11284771
-0.045575239 0.057129528 0.67400002 10695174
-0.044291429 0.057129528 0.67400002 9247744
-0.04300762 0.057129528 0.67400002 10031104
-0.04172381 0.057129528 0.67400002 10162688
-0.040259998 0.05687524 0.671 10296071
-0.038981903 0.05687524 0.671 10954001
-0.037703808 0.05687524 0.671 10362890
-0.036371432 0.056790475 0.67000002 9376000
-0.035095241 0.056790475 0.67000002 9899264
-0.03381905 0.056790475 0.67000002 9899264
-0.032542858 0.056790475 0.67000002 9767936
-0.031173335 0.056620955 0.66800004 9767936
-0.029856192 0.056536198 0.66700006 9833728
-0.028585717 0.056536198 0.66700006 9899520
-0.027356191 0.056620955 0.66800004 10030343
-0.026200952 0.05687524 0.671 10030343
-0.024922857 0.05687524 0.671 9964800
-0.023644762 0.05687524 0.671 9964800
-0.022366667 0.05687524 0.671 10030336
-0.02108857 0.05687524 0.671 10096128
-0.019810477 0.05687524 0.671 10161408
-0.01853238 0.05687524 0.671 10358784
-0.017254286 0.05687524 0.671 10621715
-0.016000001 0.056960005 0.67200005 10884887
-0.014720001 0.056960005 0.67200005 10952231
-0.01342 0.05687524 0.671 11873333
-0.012141905 0.05687524 0.671 11352379
-0.010880001 0.056960005 0.67200005 10694449
-0.0096000005 0.056960005 0.67200005 11083806
-0.008320001 0.056960005 0.67200005 11281185
-0.0070295236 0.05687524 0.671 11544107
-0.0057514287 0.05687524 0.671 11544107
-0.0044733332 0.05687524 0.671 11809328
-0.0031904762 0.056790475 0.67000002 11611949
-0.0019142857 0.056790475 0.67000002 11876638
-0.00063809525 0.056790475 0.67000002 12271396
0.00063619053 0.056620955 0.66800004 12074789
0.0019085716 0.056620955 0.66800004 11877410
0.0031809525 0.056620955 0.66800004 12141089
0.0044533336 0.056620955 0.66800004 13193777
0.0057428572 0.056790475 0.67000002 12670258
0.0070190481 0.056790475 0.67000002 12341293
0.0082704769 0.056620955 0.66800004 12274233
0.0095428573 0.056620955 0.66800004 11747889
0.010815239 0.056620955 0.66800004 11812912
0.012087619 0.056620955 0.66800004 11878705
0.01336 0.056620955 0.66800004 12141118
0.014632382 0.056620955 0.66800004 12470083
0.015904762 0.056620955 0.66800004 12802385
0.017177144 0.056620955 0.66800004 12802385
0.018449524 0.056620955 0.66800004 12803668
0.019780952 0.056790475 0.67000002 11948359
0.021057144 0.056790475 0.67000002 12340807
0.022366667 0.05687524 0.671 12669772
0.023644762 0.05687524 0.671 12474444
0.024922857 0.05687524 0.671 12342858
0.026161905 0.056790475 0.67000002 12276043
0.027438097 0.056790475 0.67000002 12276043
0.028714286 0.056790475 0.67000002 13064012
0.029990477 0.056790475 0.67000002 13261391
0.031266667 0.056790475 0.67000002 13787474
0.032542858 0.056790475 0.67000002 14050646
0.033869524 0.05687524 0.671 13657944
0.035095241 0.056790475 0.67000002 13526358
0.036371432 0.056790475 0.67000002 12803148
0.037703808 0.05687524 0.671 12605769
0.038923811 0.056790475 0.67000002 12338752
0.040200002 0.056790475 0.67000002 12404545
0.041352384 0.056620955 0.66800004 12404038
0.042624764 0.056620955 0.66800004 12338245
0.043897144 0.056620955 0.66800004 12206657
0.045169525 0.056620955 0.66800004 12338243
0.046441909 0.056620955 0.66800004 12338752
0.047714286 0.056620955 0.66800004 12799303
0.04898667 0.056620955 0.66800004 12406852
0.050409522 0.056790475 0.67000002 12933196
0.051685713 0.056790475 0.67000002 12672854
0.052803814 0.056620955 0.66800004 12936026
0.054076191 0.056620955 0.66800004 12875633
0.055348575 0.056620955 0.66800004 13007219
0.056620955 0.056620955 0.66800004 11437678
0.057893336 0.056620955 0.66800004 10911334
0.059165716 0.056620955 0.66800004 9142640
-0.10400952 0.058066666 0.67000002 8719379
-0.10273334 0.058066666 0.67000002 8850965
-0.10145715 0.058066666 0.67000002 9702656
-0.10018095 0.058066666 0.67000002 9834240
-0.098904766 0.058066666 0.67000002 9965325
-0.097628571 0.058066666 0.67000002 9833739
-0.096352383 0.058066666 0.67000002 9506048
-0.094792388 0.057893336 0.66800004 9374464
-0.093520008 0.057893336 0.66800004 8784896
-0.092247628 0.057893336 0.66800004 8653312
-0.091247626 0.058066666 0.67000002 8981504
-0.090105712 0.058153335 0.671 9113088
-0.088827617 0.058153335 0.671 9309184
-0.087549523 0.058153335 0.671 9309184
-0.086271428 0.058153335 0.671 9506048
-0.084993333 0.058153335 0.671 9637632
-0.083715238 0.058153335 0.671 9768960
-0.082437143 0.058153335 0.671 9637376
-0.081159048 0.058153335 0.671 9571584
-0.080000006 0.058240004 0.67200005 9505792
-0.078720003 0.058240004 0.67200005 9243904
-0.077440001 0.058240004 0.67200005 9243904
-0.076159999 0.058240004 0.67200005 9508097
-0.074768573 0.058153335 0.671 9705476
-0.073490478 0.058153335 0.671 9837834
-0.072212376 0.058153335 0.671 9574662
-0.070934288 0.058153335 0.671 9772041
-0.069656193 0.058153335 0.671 9640455
-0.068378091 0.058153335 0.671 10098722
-0.067100003 0.058153335 0.671 10361894
-0.065821901 0.058153335 0.671 10429212
-0.064543813 0.058153335 0.671 11481900
-0.063265711 0.058153335 0.671 11090229
-0.061895236 0.058066666 0.67000002 11156022
-0.060619049 0.058066666 0.67000002 10891826
-0.059431426 0.058153335 0.671 10891826
-0.058153335 0.058153335 0.671 11023403
-0.056790475 0.058066666 0.67000002 10233887
-0.055514287 0.058066666 0.67000002 10823207
-0.054238096 0.058066666 0.67000002 10954793
-0.052961905 0.058066666 0.67000002 10956058
-0.051685713 0.058066666 0.67000002 10890265
-0.050409522 0.058066666 0.67000002 11350303
-0.049133334 0.058066666 0.67000002 11876647
-0.047857143 0.058066666 0.67000002 11680822
-0.046580952 0.058066666 0.67000002 11417650
-0.045372378 0.058153335 0.671 11615508
-0.044160005 0.058240004 0.67200005 11681301
-0.042880002 0.058240004 0.67200005 11748125
-0.041538097 0.058153335 0.671 11879711
-0.040259998 0.058153335 0.671 11683645
-0.038981903 0.058153335 0.671 11749438
-0.03764762 0.058066666 0.67000002 11619106
-0.036371432 0.058066666 0.67000002 11948071
-0.035095241 0.058066666 0.67000002 12014152
-0.03381905 0.058066666 0.67000002 12277324
-0.032542858 0.058066666 0.67000002 12343887
-0.031173335 0.057893336 0.66800004 12541266
-0.029856192 0.057806671 0.66700006 12606556
-0.028585717 0.057806671 0.66700006 12606556
-0.027356191 0.057893336 0.66800004 12606058
-0.026161905 0.058066666 0.67000002 12474472
-0.024885716 0.058066666 0.67000002 12540256
-0.023644762 0.058153335 0.671 12540256
-0.022366667 0.058153335 0.671 12869728
-0.02108857 0.058153335 0.671 13330279
-0.019810477 0.058153335 0.671 13003105
-0.01853238 0.058153335 0.671 12937312
-0.017254286 0.058153335 0.671 13001316
-0.015976191 0.058153335 0.671 13396074
-0.014698096 0.058153335 0.671 13067627
-0.01342 0.058153335 0.671 13199213
-0.012141905 0.058153335 0.671 12605536
-0.010863809 0.058153335 0.671 12276571
-0.0095857149 0.058153335 0.671 12341071
-0.0083076181 0.058153335 0.671 12143692
-0.0070295236 0.058153335 0.671 12602449
-0.0057514287 0.058153335 0.671 13194586
-0.0044666668 0.058066666 0.67000002 12670799
-0.0031809525 0.057893336 0.66800004 12539213
-0.0019085716 0.057893336 0.66800004 12670538
-0.00063619053 0.057893336 0.66800004 13065296
0.00063619053 0.057893336 0.66800004 12801858
0.0019085716 0.057893336 0.66800004 12801858
0.0031761907 0.057806671 0.66700006 12670792
0.0044466672 0.057806671 0.66700006 12802378
0.0057257148 0.057893336 0.66800004 12603720
0.0069980957 0.057893336 0.66800004 12340548
0.0082704769 0.057893336 0.66800004 12207677
0.0095285727 0.057806671 0.66700006 12207677
0.010799048 0.057806671 0.66700006 11944507
0.012069525 0.057806671 0.66700006 11878714
0.013340001 0.057806671 0.66700006 11941940
0.014610478 0.057806671 0.66700006 11678768
0.015880954 0.057806671 0.66700006 11810100
0.017151428 0.057806671 0.66700006 11612721
0.018421907 0.057806671 0.66700006 11348777
0.019721907 0.057893336 0.66800004 10888226
0.020994287 0.057893336 0.66800004 11148838
0.022333333 0.058066666 0.67000002 10951459
0.023609525 0.058066666 0.67000002 10885391
0.024885716 0.058066666 0.67000002 10753805
0.026161905 0.058066666 0.67000002 10818569
0.027438097 0.058066666 0.67000002 10621190
0.028714286 0.058066666 0.67000002 11014413
0.029990477 0.058066666 0.67000002 11145999
0.031266667 0.058066666 0.67000002 11145479
0.032542858 0.058066666 0.67000002 11079686
0.03381905 0.058066666 0.67000002 10948615
0.035095241 0.058066666 0.67000002 10882822
0.036371432 0.058066666 0.67000002 10685959
0.03764762 0.058066666 0.67000002 10620166
0.038807619 0.057893336 0.66800004 10620416
0.040080003 0.057893336 0.66800004 10620416
0.041352384 0.057893336 0.66800004 10554880
0.042624764 0.057893336 0.66800004 10554880
0.043897144 0.057893336 0.66800004 10620416
0.045169525 0.057893336 0.66800004 10620416
0.046441909 0.057893336 0.66800004 10489344
0.047714286 0.057893336 0.66800004 10489344
0.04898667 0.057893336 0.66800004 10489344
0.05025905 0.057893336 0.66800004 10489344
0.05153143 0.057893336 0.66800004 10292736
0.052803814 0.057893336 0.66800004 10226944
0.054076191 0.057893336 0.66800004 9834241
0.055348575 0.057893336 0.66800004 10294792
0.056620955 0.057893336 0.66800004 8601899
0.057893336 0.057893336 0.66800004 11891549
0.059165716 0.057893336 0.66800004 9864816
-0.10497144 0.059165716 0.66800004 7555899
-0.10369906 0.059165716 0.66800004 9113088
-0.10242667 0.059165716 0.66800004 9442048
-0.10115429 0.059165716 0.66800004 9833734
-0.09988191 0.059165716 0.66800004 9833734
-0.098609529 0.059165716 0.66800004 9899520
-0.097337149 0.059165716 0.66800004 9965312
-0.095920965 0.059077147 0.66700006 9965568
-0.094650485 0.059077147 0.66700006 10031360
-0.09324 0.058988571 0.66600001 9899520
-0.091971427 0.058988571 0.66600001 10031104
-0.090839051 0.059077147 0.66700006 10294544
-0.08970286 0.059165716 0.66800004 10491923
-0.088430479 0.059165716 0.66800004 10557973
-0.087158099 0.059165716 0.66800004 10557973
-0.085885718 0.059165716 0.66800004 10491673
-0.084866665 0.059342857 0.67000002 10557466
-0.083590478 0.059342857 0.67000002 10558743
-0.082068577 0.059165716 0.66800004 10624536
-0.080796197 0.059165716 0.66800004 10428179
-0.079761907 0.059342857 0.67000002 10493972
-0.07848572 0.059342857 0.67000002 10760744
-0.077209525 0.059342857 0.67000002 11681846
-0.075933337 0.059342857 0.67000002 11160383
-0.074768573 0.059431426 0.671 11555141
-0.073490478 0.059431426 0.671 11555921
-0.07210476 0.059342857 0.67000002 11424335
-0.070828572 0.059342857 0.67000002 11358021
-0.069552377 0.059342857 0.67000002 11160642
-0.068276189 0.059342857 0.67000002 11158332
-0.066999994 0.059342857 0.67000002 11224125
-0.065723814 0.059342857 0.67000002 12014663
-0.064543813 0.059431426 0.671 12277835
-0.063171431 0.059342857 0.67000002 12672349
-0.061895236 0.059342857 0.67000002 12277591
-0.060619049 0.059342857 0.67000002 12276043
-0.059342857 0.059342857 0.67000002 11683906
-0.058066666 0.059342857 0.67000002 12010309
-0.056790475 0.059342857 0.67000002 11878723
-0.055514287 0.059342857 0.67000002 11944003
-0.054238096 0.059342857 0.67000002 11746624
-0.052961905 0.059342857 0.67000002 12074553
-0.051685713 0.059342857 0.67000002 12271932
-0.050409522 0.059342857 0.67000002 12009530
-0.049133334 0.059342857 0.67000002 11614772
-0.047857143 0.059342857 0.67000002 12006970
-0.046580952 0.059342857 0.67000002 12072763
-0.04530476 0.059342857 0.67000002 12073004
-0.044028569 0.059342857 0.67000002 12138797
-0.042624764 0.059165716 0.66800004 12140598
-0.041352384 0.059165716 0.66800004 12140598
-0.040080003 0.059165716 0.66800004 12075843
-0.038923811 0.059342857 0.67000002 12075843
-0.03764762 0.059342857 0.67000002 12142395
-0.036371432 0.059342857 0.67000002 12339774
-0.035095241 0.059342857 0.67000002 12341071
-0.03381905 0.059342857 0.67000002 12472657
-0.032542858 0.059342857 0.67000002 12672084
-0.031173335 0.059165716 0.66800004 12869463
-0.029856192 0.059077147 0.66700006 13463915
-0.028585717 0.059077147 0.66700006 13332329
-0.027356191 0.059165716 0.66800004 13266289
-0.026161905 0.059342857 0.67000002 13068910
-0.024885716 0.059342857 0.67000002 13133929
-0.023609525 0.059342857 0.67000002 12739171
-0.022333333 0.059342857 0.67000002 13330532
-0.021057144 0.059342857 0.67000002 13462118
-0.019780952 0.059342857 0.67000002 13265769
-0.018504761 0.059342857 0.67000002 12607839
-0.017228572 0.059342857 0.67000002 12671830
-0.01595238 0.059342857 0.67000002 12803416
-0.014632382 0.059165716 0.66800004 12934491
-0.01336 0.059165716 0.66800004 12605526
-0.01212381 0.059342857 0.67000002 12603729
-0.010847619 0.059342857 0.67000002 12537936
-0.0095714284 0.059342857 0.67000002 12537164
-0.008295238 0.059342857 0.67000002 11879234
-0.0070190481 0.059342857 0.67000002 12073284
-0.0057428572 0.059342857 0.67000002 12270663
-0.0044666668 0.059342857 0.67000002 11875133
-0.0031809525 0.059165716 0.66800004 11611961
-0.0019085716 0.059165716 0.66800004 11611188
-0.00063619053 0.059165716 0.66800004 11545395
0.00063619053 0.059165716 0.66800004 11479847
0.0019057144 0.059077147 0.66700006 11414054
0.0031761907 0.059077147 0.66700006 11479077
0.0044466672 0.059077147 0.66700006 11084319
0.005717143 0.059077147 0.66700006 11212816
0.0069876197 0.059077147 0.66700006 11081230
0.0082580959 0.059077147 0.66700006 11081219
0.0095285727 0.059077147 0.66700006 11147012
0.010799048 0.059077147 0.66700006 11080969
0.012069525 0.059077147 0.66700006 11015176
0.013340001 0.059077147 0.66700006 10948872
0.014610478 0.059077147 0.66700006 10817286
0.015880954 0.059077147 0.66700006 10686465
0.017151428 0.059077147 0.66700006 10620672
0.018421907 0.059077147 0.66700006 10554880
0.019692382 0.059077147 0.66700006 10554880
0.020962859 0.059077147 0.66700006 10620418
0.022266667 0.059165716 0.66800004 10620418
0.02353905 0.059165716 0.66800004 10620672
0.02481143 0.059165716 0.66800004 10620672
0.026083812 0.059165716 0.66800004 10554880
0.027356191 0.059165716 0.66800004 10489088
0.028628573 0.059165716 0.66800004 10358016
0.029900953 0.059165716 0.66800004 10489600
0.031173335 0.059165716 0.66800004 10358016
0.032445714 0.059165716 0.66800004 10423808
0.033718098 0.059165716 0.66800004 10423808
0.034990478 0.059165716 0.66800004 10423808
0.036262862 0.059165716 0.66800004 10358016
0.037535239 0.059165716 0.66800004 10423808
0.038807619 0.059165716 0.66800004 10292736
0.040080003 0.059165716 0.66800004 10292736
0.041290481 0.059077147 0.66700006 10030592
0.042560954 0.059077147 0.66700006 9964800
0.04383143 0.059077147 0.66700006 10292736
0.045101907 0.059077147 0.66700006 10358528
0.046372388 0.059077147 0.66700006 10423808
0.047642861 0.059077147 0.66700006 10423808
0.048913337 0.059077147 0.66700006 10423808
0.05025905 0.059165716 0.66800004 10423808
0.05153143 0.059165716 0.66800004 10292736
0.052803814 0.059165716 0.66800004 10292736
0.054076191 0.059165716 0.66800004 9899264
0.055348575 0.059165716 0.66800004 9965056
0.056620955 0.059165716 0.66800004 8666368
0.057893336 0.059165716 0.66800004 12416556
0.059165716 0.059165716 0.66800004 10126705
-0.10624382 0.060438097 0.66800004 11173742
-0.10497144 0.060438097 0.66800004 9726296
-0.10369906 0.060438097 0.66800004 10831696
-0.10242667 0.060438097 0.66800004 10765903
-0.10115429 0.060438097 0.66800004 11224386
-0.099732392 0.060347624 0.66700006 10829628
-0.098461911 0.060347624 0.66700006 11222310
-0.097045712 0.060257144 0.66600001 11419689
-0.095777147 0.060257144 0.66600001 11353910
-0.094508573 0.060257144 0.66600001 11551289
-0.09296 0.060076192 0.66400003 11355450
-0.091695242 0.060076192 0.66400003 11618622
-0.090702854 0.060257144 0.66600001 11486796
-0.089568578 0.060347624 0.66700006 11486796
-0.088298097 0.060347624 0.66700006 11486283
-0.08689715 0.060257144 0.66600001 12078420
-0.085628577 0.060257144 0.66600001 11818061
-0.084486671 0.060347624 0.66700006 11949647
-0.083216198 0.060347624 0.66700006 11883336
-0.081945717 0.060347624 0.66700006 11883336
-0.080675244 0.060347624 0.66700006 11817284
-0.079404771 0.060347624 0.66700006 11883077
-0.078251429 0.060438097 0.66800004 11621191
-0.076979049 0.060438097 0.66800004 11884363
-0.075706668 0.060438097 0.66800004 11818831
-0.074657142 0.060619049 0.67000002 11950417
-0.073380955 0.060619049 0.67000002 11949405
-0.07210476 0.060619049 0.67000002 11817819
-0.070828572 0.060619049 0.67000002 11751498
-0.069552377 0.060619049 0.67000002 11817291
-0.068276189 0.060619049 0.67000002 11420223
-0.066999994 0.060619049 0.67000002 11420223
-0.065723814 0.060619049 0.67000002 11616573
-0.064447619 0.060619049 0.67000002 11353401
-0.063171431 0.060619049 0.67000002 11746377
-0.061895236 0.060619049 0.67000002 11614791
-0.060438097 0.060438097 0.66800004 11679529
-0.059165716 0.060438097 0.66800004 11416357
-0.057893336 0.060438097 0.66800004 11546938
-0.056620955 0.060438097 0.66800004 11349559
-0.055348575 0.060438097 0.66800004 11282214
-0.054076191 0.060438097 0.66800004 10755870
-0.052803814 0.060438097 0.66800004 11279656
-0.05153143 0.060438097 0.66800004 11345449
-0.05025905 0.060438097 0.66800004 11345958
-0.04898667 0.060438097 0.66800004 11543337
-0.047714286 0.060438097 0.66800004 11214631
-0.046441909 0.060438097 0.66800004 11148838
-0.045169525 0.060438097 0.66800004 11082527
-0.043897144 0.060438097 0.66800004 11082527
-0.042624764 0.060438097 0.66800004 11082018
-0.041352384 0.060438097 0.66800004 10884639
-0.040080003 0.060438097 0.66800004 10885141
-0.038807619 0.060438097 0.66800004 11082520
-0.03764762 0.060619049 0.67000002 11016995
-0.036262862 0.060438097 0.66800004 10753823
-0.034990478 0.060438097 0.66800004 10884138
-0.03381905 0.060619049 0.67000002 10620966
-0.032542858 0.060619049 0.67000002 10817297
-0.031173335 0.060438097 0.66800004 10817297
-0.029856192 0.060347624 0.66700006 10752267
-0.028585717 0.060347624 0.66700006 10686474
-0.027356191 0.060438097 0.66800004 10686213
-0.026161905 0.060619049 0.67000002 10620420
-0.024885716 0.060619049 0.67000002 10489091
-0.023609525 0.060619049 0.67000002 10423298
-0.022333333 0.060619049 0.67000002 10423808
-0.021057144 0.060619049 0.67000002 10423808
-0.019780952 0.060619049 0.67000002 10489091
-0.018504761 0.060619049 0.67000002 10357505
-0.017228572 0.060619049 0.67000002 10424064
-0.015904762 0.060438097 0.66800004 10424064
-0.014632382 0.060438097 0.66800004 10489344
-0.01336 0.060438097 0.66800004 10489344
-0.012087619 0.060438097 0.66800004 10489344
-0.010815239 0.060438097 0.66800004 10555136
-0.0095428573 0.060438097 0.66800004 10554624
-0.0082704769 0.060438097 0.66800004 10488832
-0.0069980957 0.060438097 0.66800004 10489344
-0.0057257148 0.060438097 0.66800004 10555136
-0.0044533336 0.060438097 0.66800004 10489344
-0.0031761907 0.060347624 0.66700006 10423552
-0.0019057144 0.060347624 0.66700006 10489344
-0.00063523813 0.060347624 0.66700006 10489344
0.00063523813 0.060347624 0.66700006 10554880
0.0019057144 0.060347624 0.66700006 10554880
0.0031761907 0.060347624 0.66700006 10489344
0.0044466672 0.060347624 0.66700006 10489344
0.005717143 0.060347624 0.66700006 10424064
0.0069876197 0.060347624 0.66700006 10424064
0.0082580959 0.060347624 0.66700006 10489344
0.0095285727 0.060347624 0.66700006 10489344
0.010799048 0.060347624 0.66700006 10358016
0.012069525 0.060347624 0.66700006 10358016
0.013340001 0.060347624 0.66700006 10489344
0.014610478 0.060347624 0.66700006 10489344
0.015880954 0.060347624 0.66700006 10358016
0.017151428 0.060347624 0.66700006 10358016
0.018421907 0.060347624 0.66700006 10358016
0.019692382 0.060347624 0.66700006 10358016
0.020962859 0.060347624 0.66700006 10358016
0.022266667 0.060438097 0.66800004 10358016
0.02353905 0.060438097 0.66800004 10358016
0.02481143 0.060438097 0.66800004 10358016
0.026083812 0.060438097 0.66800004 10292736
0.027356191 0.060438097 0.66800004 10292736
0.028628573 0.060438097 0.66800004 10292736
0.029900953 0.060438097 0.66800004 10292736
0.031173335 0.060438097 0.66800004 10423808
0.032445714 0.060438097 0.66800004 10423808
0.033718098 0.060438097 0.66800004 10424064
