# .PCD v0.7 - Point Cloud Data file format
VERSION 0.7
FIELDS x y z rgb
SIZE 4 4 4 4
TYPE F F F F
COUNT 1 1 1 1
WIDTH 601
HEIGHT 1
VIEWPOINT 0 0 0 1 0 0 0
POINTS 601
DATA ascii
-0.13536096 0.0040047616 0.84100002 1.3265718e-38
-0.14835334 0.0055533336 0.83300006 1.1410579e-38
-0.14835334 0.0071400008 0.83300006 1.1307613e-38
-0.14676668 0.0071400008 0.83300006 1.1123221e-38
-0.14994001 0.0119 0.83300006 1.1853612e-38
-0.14799714 0.011871428 0.83100003 1.1945091e-38
-0.11950572 0.011871428 0.83100003 1.4996566e-38
-0.14799714 0.013454286 0.83100003 1.1208594e-38
-0.14483142 0.013454286 0.83100003 1.1392983e-38
-0.14324857 0.013454286 0.83100003 1.1392983e-38
-0.14008287 0.013454286 0.83100003 1.1301506e-38
-0.11820668 0.013486668 0.83300006 1.4440871e-38
-0.14483142 0.015037144 0.83100003 1.6027446e-38
-0.14324857 0.015037144 0.83100003 1.6027446e-38
-0.14166573 0.015037144 0.83100003 1.602924e-38
-0.13342954 0.015000953 0.82900006 1.7135571e-38
-0.1192181 0.015000953 0.82900006 1.3885527e-38
-0.14483142 0.016620001 0.83100003 1.8156207e-38
-0.14324857 0.016620001 0.83100003 1.8156207e-38
-0.14166573 0.016620001 0.83100003 1.8065087e-38
-0.13974573 0.016580001 0.82900006 1.8618261e-38
-0.13816668 0.016580001 0.82900006 1.852539e-38
-0.13658762 0.016580001 0.82900006 1.8248803e-38
-0.13500857 0.016580001 0.82900006 1.8800169e-38
-0.13342954 0.016580001 0.82900006 1.898456e-38
-0.13185048 0.016580001 0.82900006 1.9076371e-38
-0.13027143 0.016580001 0.82900006 1.9352958e-38
-0.12869239 0.016580001 0.82900006 1.9535251e-38
-0.12711334 0.016580001 0.82900006 1.9811838e-38
-0.1192181 0.016580001 0.82900006 1.3420233e-38
-0.11792286 0.016620001 0.83100003 1.4618776e-38
-0.14324857 0.018202858 0.83100003 2.0923806e-38
-0.14166573 0.018202858 0.83100003 2.0464266e-38
-0.13974573 0.018159049 0.82900006 2.1201831e-38
-0.13816668 0.018159049 0.82900006 1.9541277e-38
-0.13658762 0.018159049 0.82900006 1.8158342e-38
-0.13500857 0.018159049 0.82900006 1.8800875e-38
-0.13342954 0.018159049 0.82900006 2.1197962e-38
-0.13185048 0.018159049 0.82900006 2.1015262e-38
-0.13027143 0.018159049 0.82900006 2.2121593e-38
-0.12869239 0.018159049 0.82900006 2.0920999e-38
-0.12711334 0.018159049 0.82900006 2.0736608e-38
-0.1192181 0.018159049 0.82900006 1.3050021e-38
-0.11792286 0.018202858 0.83100003 1.3142216e-38
-0.14641428 0.019785715 0.83100003 1.953801e-38
-0.14324857 0.019785715 0.83100003 1.8619353e-38
-0.14166573 0.019785715 0.83100003 1.8987394e-38
-0.14008287 0.019785715 0.83100003 1.9540568e-38
-0.13500857 0.019738097 0.82900006 1.7509761e-38
-0.13342954 0.019738097 0.82900006 1.8984891e-38
-0.13185048 0.019738097 0.82900006 1.8893043e-38
-0.13027143 0.019738097 0.82900006 1.9814999e-38
-0.12869239 0.019738097 0.82900006 1.9542378e-38
-0.12711334 0.019738097 0.82900006 1.9542378e-38
-0.1255343 0.019738097 0.82900006 1.7507988e-38
-0.1192181 0.019738097 0.82900006 1.3050371e-38
-0.11792286 0.019785715 0.83100003 1.3050371e-38
-0.17097619 0.02147143 0.83500004 1.7693289e-38
-0.16104668 0.02142 0.83300006 1.7695206e-38
-0.14676668 0.02142 0.83300006 1.4837531e-38
-0.14483142 0.021368571 0.83100003 1.4926855e-38
-0.14166573 0.021368571 0.83100003 1.5943144e-38
-0.14008287 0.021368571 0.83100003 1.6127533e-38
-0.13850001 0.021368571 0.83100003 1.6310128e-38
-0.13342954 0.021317143 0.82900006 1.630654e-38
-0.13185048 0.021317143 0.82900006 1.6213987e-38
-0.13027143 0.021317143 0.82900006 1.6029599e-38
-0.12869239 0.021317143 0.82900006 1.7788464e-38
-0.12711334 0.021317143 0.82900006 2.0738689e-38
-0.1255343 0.021317143 0.82900006 1.8890882e-38
-0.1192181 0.021317143 0.82900006 1.2866694e-38
-0.11792286 0.021368571 0.83100003 1.295889e-38
-0.14518 0.023006668 0.83300006 1.6589939e-38
-0.14324857 0.02295143 0.83100003 1.6774327e-38
-0.14166573 0.02295143 0.83100003 1.7787388e-38
-0.14008287 0.02295143 0.83100003 1.7142028e-38
-0.13850001 0.02295143 0.83100003 1.6491646e-38
-0.13691714 0.02295143 0.83100003 1.72292e-38
-0.13533428 0.02295143 0.83100003 1.7411436e-38
-0.13185048 0.022896193 0.82900006 1.7783442e-38
-0.13027143 0.022896193 0.82900006 1.7506859e-38
-0.12869239 0.022896193 0.82900006 1.8246206e-38
-0.12711334 0.022896193 0.82900006 2.0919846e-38
-0.1255343 0.022896193 0.82900006 2.0363917e-38
-0.1192181 0.022896193 0.82900006 1.2774869e-38
-0.11792286 0.02295143 0.83100003 1.2682673e-38
-0.17097619 0.024652382 0.83500004 1.7234116e-38
-0.15907715 0.024534287 0.83100003 1.6488059e-38
-0.14518 0.024593335 0.83300006 1.7970341e-38
-0.14359334 0.024593335 0.83300006 1.8431312e-38
-0.14166573 0.024534287 0.83100003 1.861499e-38
-0.14008287 0.024534287 0.83100003 1.8430599e-38
-0.13850001 0.024534287 0.83100003 1.8705384e-38
-0.13691714 0.024534287 0.83100003 1.9074161e-38
-0.13533428 0.024534287 0.83100003 1.9073443e-38
-0.13375144 0.024534287 0.83100003 1.9257832e-38
-0.1255343 0.024475239 0.82900006 1.8243695e-38
-0.12395525 0.024475239 0.82900006 8.4711071e-39
-0.1192181 0.024475239 0.82900006 1.2587598e-38
-0.11792286 0.024534287 0.83100003 1.2403207e-38
-0.14042 0.026180001 0.83300006 1.574907e-38
-0.13850001 0.026117142 0.83100003 1.6025294e-38
-0.13691714 0.026117142 0.83100003 1.59331e-38
-0.13533428 0.026117142 0.83100003 1.6025294e-38
-0.13375144 0.026117142 0.83100003 1.6025294e-38
-0.13216858 0.026117142 0.83100003 1.5841982e-38
-0.13058572 0.026117142 0.83100003 1.5749788e-38
-0.1192181 0.026054287 0.82900006 1.2034755e-38
-0.11792286 0.026117142 0.83100003 1.2219143e-38
-0.14200668 0.027766669 0.83300006 1.2504694e-38
-0.14042 0.027766669 0.83300006 1.1859335e-38
-0.13883334 0.027766669 0.83300006 1.2595095e-38
-0.13691714 0.027700001 0.83100003 1.2779483e-38
-0.13533428 0.027700001 0.83100003 1.2782712e-38
-0.13375144 0.027700001 0.83100003 1.2782712e-38
-0.13216858 0.027700001 0.83100003 1.25994e-38
-0.13058572 0.027700001 0.83100003 1.2783788e-38
-0.12900285 0.027700001 0.83100003 1.3614971e-38
-0.12741999 0.027700001 0.83100003 1.4168136e-38
-0.14234763 0.029423811 0.83500004 1.389263e-38
-0.14042 0.029353335 0.83300006 1.453799e-38
-0.13883334 0.029353335 0.83300006 1.4816366e-38
-0.13724667 0.029353335 0.83300006 1.5185143e-38
-0.13533428 0.029282859 0.83100003 1.5094025e-38
-0.13375144 0.029282859 0.83100003 1.5001831e-38
-0.13216858 0.029282859 0.83100003 1.5095818e-38
-0.13058572 0.029282859 0.83100003 1.5188013e-38
-0.12900285 0.029282859 0.83100003 1.5556072e-38
-0.12741999 0.029282859 0.83100003 1.5924849e-38
-0.12583713 0.029282859 0.83100003 1.6018837e-38
-0.12425429 0.029282859 0.83100003 1.6387614e-38
-0.14234763 0.031014288 0.83500004 1.7869568e-38
-0.14042 0.030940004 0.83300006 1.8699329e-38
-0.13724667 0.030940004 0.83300006 1.9161366e-38
-0.13533428 0.030865714 0.83100003 1.8055392e-38
-0.13375144 0.030865714 0.83100003 1.7963196e-38
-0.13216858 0.030865714 0.83100003 1.7870644e-38
-0.13058572 0.030865714 0.83100003 1.796284e-38
-0.12900285 0.030865714 0.83100003 1.8145079e-38
-0.12741999 0.030865714 0.83100003 1.8237275e-38
-0.12583713 0.030865714 0.83100003 1.7868136e-38
-0.12425429 0.030865714 0.83100003 1.7960332e-38
-0.12267143 0.030865714 0.83100003 1.7684804e-38
-0.14042 0.032526668 0.83300006 1.6947346e-38
-0.13724667 0.032526668 0.83300006 1.6762241e-38
-0.13216858 0.032448575 0.83100003 1.657785e-38
-0.13058572 0.032448575 0.83100003 1.6393459e-38
-0.12900285 0.032448575 0.83100003 1.6576055e-38
-0.12741999 0.032448575 0.83100003 1.666825e-38
-0.12583713 0.032448575 0.83100003 1.6943395e-38
-0.12425429 0.032448575 0.83100003 1.68512e-38
-0.12267143 0.032448575 0.83100003 1.6575689e-38
-0.11950572 0.032448575 0.83100003 1.6668248e-38
-0.13757619 0.034195241 0.83500004 1.1023488e-38
-0.13407335 0.034113336 0.83300006 1.1024564e-38
-0.13058572 0.034031428 0.83100003 1.11164e-38
-0.12900285 0.034031428 0.83100003 1.1391548e-38
-0.12741999 0.034031428 0.83100003 1.1575936e-38
-0.12583713 0.034031428 0.83100003 1.1575577e-38
-0.12425429 0.034031428 0.83100003 1.1483383e-38
-0.12267143 0.034031428 0.83100003 1.1575577e-38
-0.11950572 0.034031428 0.83100003 1.1575577e-38
-0.13598572 0.035785716 0.83500004 1.1391548e-38
-0.13407335 0.035700005 0.83300006 1.1391548e-38
-0.13248667 0.035700005 0.83300006 1.1391548e-38
-0.12900285 0.035614286 0.83100003 1.1667054e-38
-0.12741999 0.035614286 0.83100003 1.1667054e-38
-0.12583713 0.035614286 0.83100003 1.1667054e-38
-0.12425429 0.035614286 0.83100003 1.1667054e-38
-0.12267143 0.035614286 0.83100003 1.175889e-38
-0.12108857 0.035614286 0.83100003 1.1851084e-38
-0.11950572 0.035614286 0.83100003 1.2034396e-38
-0.11820668 0.035700005 0.83300006 1.2034396e-38
-0.13598572 0.037376191 0.83500004 1.0197327e-38
-0.13407335 0.037286669 0.83300006 1.0289522e-38
-0.13248667 0.037286669 0.83300006 1.0656505e-38
-0.13090001 0.037286669 0.83300006 1.0840893e-38
-0.12741999 0.037197147 0.83100003 1.1391189e-38
-0.12583713 0.037197147 0.83100003 1.1299712e-38
-0.12425429 0.037197147 0.83100003 1.1299712e-38
-0.12267143 0.037197147 0.83100003 1.1023847e-38
-0.12108857 0.037197147 0.83100003 1.1023847e-38
-0.11950572 0.037197147 0.83100003 1.1023847e-38
-0.11820668 0.037286669 0.83300006 1.1116041e-38
-0.13407335 0.038873333 0.83300006 1.0382792e-38
-0.13248667 0.038873333 0.83300006 1.1023562e-38
-0.13090001 0.038873333 0.83300006 1.1023562e-38
-0.12931333 0.038873333 0.83300006 1.129903e-38
-0.12583713 0.03878 0.83100003 1.0565028e-38
-0.12425429 0.03878 0.83100003 1.0841611e-38
-0.12267143 0.03878 0.83100003 1.1299353e-38
-0.12108857 0.03878 0.83100003 1.1299353e-38
-0.11950572 0.03878 0.83100003 1.1299356e-38
-0.11820668 0.038873333 0.83300006 1.1207161e-38
-0.13757619 0.040557146 0.83500004 1.8247134e-38
-0.13566001 0.040460002 0.83300006 1.8982939e-38
-0.13248667 0.040460002 0.83300006 1.9903456e-38
-0.13090001 0.040460002 0.83300006 1.6123435e-38
-0.12931333 0.040460002 0.83300006 1.3992531e-38
-0.12583713 0.040362857 0.83100003 7.5330218e-39
-0.12425429 0.040362857 0.83100003 2.0809183e-38
-0.12267143 0.040362857 0.83100003 2.1101957e-38
-0.12108857 0.040362857 0.83100003 2.0733175e-38
-0.11950572 0.040362857 0.83100003 2.0457363e-38
-0.11820668 0.040460002 0.83300006 1.9904189e-38
-0.13757619 0.042147618 0.83500004 2.1201354e-38
-0.13566001 0.04204667 0.83300006 2.074438e-38
-0.12931333 0.04204667 0.83300006 1.5844723e-38
-0.14552858 0.043738097 0.83500004 1.9179913e-38
-0.13598572 0.043738097 0.83500004 2.111208e-38
-0.13407335 0.043633334 0.83300006 2.1296472e-38
-0.13598572 0.045328572 0.83500004 2.0284481e-38
-0.13407335 0.045220003 0.83300006 2.0376676e-38
-0.12962382 0.045328572 0.83500004 1.373106e-38
-0.12455334 0.045220003 0.83300006 2.0446888e-38
-0.12296667 0.045220003 0.83300006 2.1111352e-38
-0.12138001 0.045220003 0.83300006 2.1387939e-38
-0.13407335 0.046806671 0.83300006 2.065254e-38
-0.12962382 0.046919052 0.83500004 1.3274761e-38
-0.12803334 0.046919052 0.83500004 6.439597e-40
-0.11849048 0.046919052 0.83500004 2.0653266e-38
-0.14393811 0.048509523 0.83500004 3.1278019e-39
-0.12803334 0.048509523 0.83500004 2.578626e-39
-0.12644285 0.048509523 0.83500004 5.9711009e-39
-0.12485238 0.048509523 0.83500004 1.9708244e-38
-0.11849048 0.048509523 0.83500004 2.0653266e-38
-0.12993428 0.050219998 0.83700001 1.4105954e-38
-0.12803334 0.050100002 0.83500004 1.8441368e-40
-0.12644285 0.050100002 0.83500004 3.4908251e-39
-0.12485238 0.050100002 0.83500004 1.7688948e-38
-0.12326191 0.050100002 0.83500004 2.0464543e-38
-0.12167143 0.050100002 0.83500004 2.1663086e-38
-0.12008096 0.050100002 0.83500004 2.0837294e-38
-0.12993428 0.051814288 0.83700001 1.5300534e-38
-0.12803334 0.051690478 0.83500004 2.7619284e-39
-0.12644285 0.051690478 0.83500004 5.9711009e-39
-0.12485238 0.051690478 0.83500004 1.9062875e-38
-0.12326191 0.051690478 0.83500004 2.0464183e-38
-0.12167143 0.051690478 0.83500004 2.1847117e-38
-0.12993428 0.053408574 0.83700001 1.4107749e-38
-0.12803334 0.053280953 0.83500004 3.7694929e-43
-0.12644285 0.053280953 0.83500004 2.2966049e-39
-0.12485238 0.053280953 0.83500004 1.6033748e-38
-0.12326191 0.053280953 0.83500004 1.9820243e-38
-0.12167143 0.053280953 0.83500004 2.1479764e-38
-0.12834001 0.055002857 0.83700001 1.2018152e-39
-0.12644285 0.054871429 0.83500004 4.5932097e-39
-0.12485238 0.054871429 0.83500004 1.8145963e-38
-0.12326191 0.054871429 0.83500004 1.8345851e-38
-0.12167143 0.054871429 0.83500004 2.1019525e-38
-0.11877429 0.055002857 0.83700001 2.1114597e-38
-0.11399143 0.055002857 0.83700001 9.5046726e-39
-0.12644285 0.056461908 0.83500004 7.2838079e-39
-0.12485238 0.056461908 0.83500004 1.6134588e-38
-0.12326191 0.056461908 0.83500004 1.7976728e-38
-0.12167143 0.056461908 0.83500004 2.0926988e-38
-0.11399143 0.056597143 0.83700001 5.5518913e-39
-0.12485238 0.058052383 0.83500004 1.7513542e-38
-0.12326191 0.058052383 0.83500004 1.945076e-38
-0.12167143 0.058052383 0.83500004 2.1018085e-38
-0.12326191 0.059642859 0.83500004 2.0836212e-38
-0.12167143 0.059642859 0.83500004 2.0651821e-38
-0.11718 0.059785716 0.83700001 1.9273212e-38
-0.11558571 0.059785716 0.83700001 3.1389772e-39
-0.12326191 0.061233338 0.83500004 2.056106e-38
-0.12167143 0.061233338 0.83500004 2.0376669e-38
-0.11718 0.061379995 0.83700001 2.0652903e-38
-0.11558571 0.061379995 0.83700001 4.7952546e-39
-0.11399143 0.061379995 0.83700001 6.7423756e-39
-0.13280477 0.06282381 0.83500004 2.0191206e-38
-0.12167143 0.06282381 0.83500004 2.0743664e-38
-0.13631143 0.064568572 0.83700001 1.9634422e-38
-0.13471715 0.064568572 0.83700001 2.0925161e-38
-0.13280477 0.064414285 0.83500004 2.0191206e-38
-0.12167143 0.064414285 0.83500004 2.147866e-38
-0.13471715 0.066162854 0.83700001 2.1017695e-38
-0.13312286 0.066162854 0.83700001 2.065254e-38
-0.12167143 0.066004761 0.83500004 2.1387216e-38
-0.11371905 0.066004761 0.83500004 1.222682e-39
-0.11212858 0.066004761 0.83500004 1.6711548e-38
-0.13312286 0.067757145 0.83700001 2.0652184e-38
-0.13121429 0.067595243 0.83500004 2.1113162e-38
-0.11212858 0.067595243 0.83500004 2.0018559e-38
-0.1105381 0.067595243 0.83500004 2.1666336e-38
-0.13312286 0.069351427 0.83700001 2.0376313e-38
-0.11718 0.069351427 0.83700001 2.0378118e-38
-0.11558571 0.069351427 0.83700001 5.5346217e-39
-0.11212858 0.069185719 0.83500004 1.7172484e-38
-0.10258572 0.069185719 0.83500004 4.6922984e-39
-0.11718 0.070945717 0.83700001 2.1021685e-38
-0.1190581 0.072713338 0.83900005 2.1482664e-38
-0.11718 0.07254 0.83700001 2.0838736e-38
-0.11293428 0.079294287 0.84100002 2.1567316e-38
-0.099880956 0.080703817 0.83900005 2.3049986e-38
-0.12385239 0.082301915 0.83900005 1.6486624e-38
-0.11746 0.082301915 0.83900005 1.5855105e-38
-0.11133238 0.082498096 0.84100002 1.7323049e-38
-0.10973047 0.082498096 0.84100002 1.6493289e-38
-0.10812858 0.082498096 0.84100002 1.4842752e-38
-0.099880956 0.082301915 0.83900005 1.4843471e-38
-0.12196286 0.083700001 0.83700001 1.2686574e-38
-0.11746 0.083899997 0.83900005 4.3192153e-39
-0.11746 0.085498095 0.83900005 8.0840348e-39
-0.10946953 0.087096192 0.83900005 1.2586861e-38
-0.10787144 0.087096192 0.83900005 1.2587561e-38
-0.10627334 0.087096192 0.83900005 1.2679757e-38
-0.11293428 0.088905722 0.84100002 1.240246e-38
-0.11106763 0.088694289 0.83900005 1.2402104e-38
-0.10946953 0.088694289 0.83900005 1.2402104e-38
-0.10787144 0.088694289 0.83900005 1.231062e-38
-0.10627334 0.088694289 0.83900005 1.231062e-38
-0.10467524 0.088694289 0.83900005 1.2401741e-38
-0.11106763 0.090292387 0.83900005 1.2310979e-38
-0.10946953 0.090292387 0.83900005 1.2218785e-38
-0.10787144 0.090292387 0.83900005 1.2218785e-38
-0.10627334 0.090292387 0.83900005 1.212659e-38
-0.10467524 0.090292387 0.83900005 1.2126232e-38
-0.10307714 0.090292387 0.83900005 1.2218426e-38
-0.10678001 0.095540009 0.84300005 1.8143278e-38
-0.10332286 0.095313333 0.84100002 1.8972691e-38
-0.10678001 0.097145721 0.84300005 1.6845429e-38
-0.10332286 0.096915238 0.84100002 1.7582288e-38
-0.10172095 0.096915238 0.84100002 1.7490455e-38
-0.10172095 0.098517142 0.84100002 1.2770156e-38
-0.10011905 0.10011905 0.84100002 1.2586126e-38
-0.10381429 0.10381429 0.84500003 1.2864536e-38
-0.098985717 0.10864286 0.84500003 1.2862709e-38
-0.09737619 0.11025239 0.84500003 1.2861992e-38
-0.097606674 0.11374 0.84700006 1.3785742e-38
-0.092766672 0.12342 0.84700006 1.8229346e-38
-0.08975143 0.13018002 0.84900004 1.9518989e-38
-0.088134289 0.13503143 0.84900004 1.1954757e-38
-0.086517148 0.13826571 0.84900004 2.314039e-38
-0.083282866 0.14635143 0.84900004 2.175709e-38
-0.081858099 0.15155905 0.85100001 4.1516774e-39
-0.080237143 0.15155905 0.85100001 6.6373763e-40
-0.080237143 0.15318 0.85100001 9.4525989e-40
-0.047986668 0.15372001 0.85400003 2.3323343e-38
-0.062773332 0.15571049 0.85600007 2.3500819e-38
-0.078616194 0.1564219 0.85100001 2.3142384e-38
-0.078616194 0.15804286 0.85100001 2.2590803e-38
-0.078616194 0.15966381 0.85100001 2.3416496e-38
-0.076995239 0.15966381 0.85100001 2.3326213e-38
-0.076995239 0.16128476 0.85100001 2.341804e-38
-0.062920004 0.16261142 0.85800004 1.6669683e-38
-0.076995239 0.16290571 0.85100001 2.1387166e-38
-0.07564 0.16673334 0.85400003 2.3320291e-38
-0.072725721 0.17405143 0.85800004 1.2884951e-38
-0.074360006 0.17732 0.85800004 2.0718638e-38
-0.066188574 0.17732 0.85800004 1.9611236e-38
-0.064554289 0.17732 0.85800004 1.9527335e-38
-0.06634286 0.17937142 0.86000001 1.5465707e-38
-0.059651431 0.17895429 0.85800004 2.0089665e-38
-0.06634286 0.18100952 0.86000001 1.3627527e-38
-0.064704761 0.18100952 0.86000001 1.3630038e-38
-0.059790477 0.18100952 0.86000001 1.8158223e-38
-0.073064767 0.18307239 0.86200005 2.0073268e-38
-0.07142286 0.18307239 0.86200005 1.9983218e-38
-0.069780953 0.18307239 0.86200005 2.1089566e-38
-0.06634286 0.18264762 0.86000001 1.1230118e-38
-0.064704761 0.18264762 0.86000001 1.2426896e-38
-0.059790477 0.18264762 0.86000001 1.9815474e-38
-0.058017146 0.18222287 0.85800004 1.8160333e-38
-0.073064767 0.1847143 0.86200005 1.9797064e-38
-0.07142286 0.1847143 0.86200005 2.0442041e-38
-0.069780953 0.1847143 0.86200005 2.1824976e-38
-0.064704761 0.18428572 0.86000001 1.2792756e-38
-0.059790477 0.18428572 0.86000001 1.8702663e-38
-0.058017146 0.18385714 0.85800004 1.6403555e-38
-0.074533336 0.18592381 0.86000001 1.989145e-38
-0.073064767 0.1863562 0.86200005 1.9338276e-38
-0.07142286 0.1863562 0.86200005 1.9889963e-38
-0.069780953 0.1863562 0.86200005 2.1180702e-38
-0.051720005 0.1863562 0.86200005 1.5749481e-38
-0.074533336 0.1875619 0.86000001 1.9339015e-38
-0.073064767 0.1879981 0.86200005 1.8970232e-38
-0.07142286 0.1879981 0.86200005 1.9798149e-38
-0.068297148 0.18843429 0.86400002 1.9159655e-38
-0.066497147 0.1879981 0.86200005 1.1784005e-38
-0.064855248 0.1879981 0.86200005 1.3242248e-38
-0.049961902 0.1875619 0.86000001 1.5839471e-38
-0.074533336 0.1892 0.86000001 1.6660669e-38
-0.073064767 0.18964 0.86200005 1.7767017e-38
-0.07142286 0.18964 0.86200005 1.8321243e-38
-0.069780953 0.18964 0.86200005 2.0349547e-38
-0.068297148 0.19008 0.86400002 1.8880518e-38
-0.064855248 0.18964 0.86200005 1.4174605e-38
-0.063213333 0.18964 0.86200005 1.3990214e-38
-0.055131428 0.19008 0.86400002 1.7305652e-38
-0.053361908 0.18964 0.86200005 1.6752478e-38
-0.050078098 0.18964 0.86200005 1.8322265e-38
-0.069780953 0.19128191 0.86200005 1.9425766e-38
-0.068139054 0.19128191 0.86200005 1.9337197e-38
-0.066497147 0.19128191 0.86200005 1.7677676e-38
-0.064855248 0.19128191 0.86200005 1.5931306e-38
-0.063213333 0.19128191 0.86200005 1.4087422e-38
-0.055131428 0.19172572 0.86400002 1.7218438e-38
-0.053361908 0.19128191 0.86200005 1.7587215e-38
-0.069780953 0.19292381 0.86200005 1.8320203e-38
-0.068139054 0.19292381 0.86200005 1.8414547e-38
-0.066497147 0.19292381 0.86200005 2.0535047e-38
-0.064855248 0.19292381 0.86200005 1.9248922e-38
-0.063213333 0.19292381 0.86200005 1.888014e-38
-0.056777142 0.19337143 0.86400002 1.9895013e-38
-0.055131428 0.19337143 0.86400002 2.0170528e-38
-0.053361908 0.19292381 0.86200005 2.0815898e-38
-0.07634858 0.19456571 0.86200005 1.5838515e-38
-0.068139054 0.19456571 0.86200005 1.7955328e-38
-0.066497147 0.19456571 0.86200005 2.0352414e-38
-0.064855248 0.19456571 0.86200005 2.0535686e-38
-0.063213333 0.19456571 0.86200005 2.0535686e-38
-0.056777142 0.19501714 0.86400002 2.1365812e-38
-0.055131428 0.19501714 0.86400002 2.0905238e-38
-0.053361908 0.19456571 0.86200005 2.1550607e-38
-0.051720005 0.19456571 0.86200005 2.1278e-38
-0.07634858 0.19620763 0.86200005 1.6758673e-38
-0.058625717 0.19734572 0.86700004 2.0630748e-38
-0.056777142 0.19666286 0.86400002 2.1183922e-38
-0.055131428 0.19666286 0.86400002 1.9892198e-38
-0.053485714 0.19666286 0.86400002 1.9339024e-38
-0.051720005 0.19620763 0.86200005 1.7402248e-38
-0.07634858 0.19784953 0.86200005 1.5282445e-38
-0.060068574 0.19830857 0.86400002 2.0352064e-38
-0.056777142 0.19830857 0.86400002 2.0724083e-38
-0.055131428 0.19830857 0.86400002 1.9066037e-38
-0.051840004 0.19830857 0.86400002 1.5653684e-38
-0.050194286 0.19830857 0.86400002 1.3717576e-38
-0.048436191 0.19784953 0.86200005 1.3624298e-38
-0.066651426 0.1999543 0.86400002 2.0444957e-38
-0.06500572 0.1999543 0.86400002 2.0447456e-38
-0.063359998 0.1999543 0.86400002 2.0908434e-38
-0.061714288 0.1999543 0.86400002 1.9431939e-38
-0.060068574 0.1999543 0.86400002 1.7311439e-38
-0.05842286 0.1999543 0.86400002 1.8048639e-38
-0.056777142 0.1999543 0.86400002 1.9523769e-38
-0.055131428 0.1999543 0.86400002 1.8328816e-38
-0.048548572 0.1999543 0.86400002 1.7220686e-38
-0.046794288 0.19949144 0.86200005 1.9709968e-38
-0.06500572 0.2016 0.86400002 2.0358186e-38
-0.063359998 0.2016 0.86400002 1.943623e-38
-0.061714288 0.2016 0.86400002 1.8513555e-38
-0.060068574 0.2016 0.86400002 1.6669642e-38
-0.05842286 0.2016 0.86400002 1.6760048e-38
-0.056777142 0.2016 0.86400002 1.7958591e-38
-0.055131428 0.2016 0.86400002 1.8143365e-38
-0.053485714 0.2016 0.86400002 1.5008714e-38
-0.046902858 0.2016 0.86400002 1.9709261e-38
-0.068534292 0.20395145 0.86700004 2.0079804e-38
-0.066882864 0.20395145 0.86700004 2.1554934e-38
-0.05842286 0.20324571 0.86400002 1.7407933e-38
-0.053671431 0.20395145 0.86700004 1.574701e-38
-0.046902858 0.20324571 0.86400002 1.924969e-38
-0.045152385 0.20277525 0.86200005 1.8420286e-38
-0.073488571 0.20560287 0.86700004 2.0454101e-38
-0.066882864 0.20560287 0.86700004 2.0541871e-38
-0.065231435 0.20560287 0.86700004 1.9897944e-38
-0.063579999 0.20560287 0.86700004 1.491938e-38
-0.061928574 0.20560287 0.86700004 1.5374553e-38
-0.060277145 0.20560287 0.86700004 1.8970158e-38
-0.058625717 0.20560287 0.86700004 1.7594507e-38
-0.056974288 0.20560287 0.86700004 1.5658399e-38
-0.055322859 0.20560287 0.86700004 1.6209065e-38
-0.053671431 0.20560287 0.86700004 1.54715e-38
-0.051840004 0.20489143 0.86400002 1.5376773e-38
-0.046902858 0.20489143 0.86400002 1.9525564e-38
-0.045152385 0.20441715 0.86200005 1.7960431e-38
-0.074879996 0.20653714 0.86400002 1.9067203e-38
-0.073488571 0.20725429 0.86700004 1.8606225e-38
-0.066882864 0.20725429 0.86700004 2.0260978e-38
-0.065231435 0.20725429 0.86700004 1.9159581e-38
-0.063579999 0.20725429 0.86700004 1.6024935e-38
-0.061928574 0.20725429 0.86700004 1.6484212e-38
-0.060277145 0.20725429 0.86700004 1.7774951e-38
-0.058625717 0.20725429 0.86700004 1.722533e-38
-0.056974288 0.20725429 0.86700004 1.6303373e-38
-0.055322859 0.20725429 0.86700004 1.6394149e-38
-0.053671431 0.20725429 0.86700004 1.5195606e-38
-0.051840004 0.20653714 0.86400002 1.5283496e-38
-0.074879996 0.20818287 0.86400002 1.5925718e-38
-0.065231435 0.20890573 0.86700004 1.8695425e-38
-0.063579999 0.20890573 0.86700004 1.7035904e-38
-0.061928574 0.20890573 0.86700004 1.7038115e-38
-0.060277145 0.20890573 0.86700004 1.6945919e-38
-0.058625717 0.20890573 0.86700004 1.6485291e-38
-0.056974288 0.20890573 0.86700004 1.6393096e-38
-0.055322859 0.20890573 0.86700004 1.5839569e-38
-0.053671431 0.20890573 0.86700004 1.5194199e-38
-0.051840004 0.20818287 0.86400002 1.5191643e-38
-0.063579999 0.21055715 0.86700004 1.6944034e-38
-0.061928574 0.21055715 0.86700004 1.6021462e-38
-0.060277145 0.21055715 0.86700004 1.5652679e-38
-0.058625717 0.21055715 0.86700004 1.5835991e-38
-0.056974288 0.21055715 0.86700004 1.5743796e-38
-0.055322859 0.21055715 0.86700004 1.5561197e-38
-0.053671431 0.21055715 0.86700004 1.6298762e-38
-0.050194286 0.20982857 0.86400002 1.8605778e-38
-0.073658101 0.2126981 0.86900002 1.2505829e-38
-0.063579999 0.21220858 0.86700004 1.6942664e-38
-0.061928574 0.21220858 0.86700004 1.5837386e-38
-0.060277145 0.21220858 0.86700004 1.5837386e-38
-0.058625717 0.21220858 0.86700004 1.5743786e-38
-0.056974288 0.21220858 0.86700004 1.5743786e-38
-0.055322859 0.21220858 0.86700004 1.5282455e-38
-0.053671431 0.21220858 0.86700004 1.5559041e-38
-0.051840004 0.21147428 0.86400002 1.6670399e-38
-0.050194286 0.21147428 0.86400002 1.9251876e-38
-0.073658101 0.21435332 0.86900002 1.4072442e-38
-0.063579999 0.21386001 0.86700004 1.8324191e-38
-0.061928574 0.21386001 0.86700004 1.7590169e-38
-0.060277145 0.21386001 0.86700004 1.7590169e-38
-0.058625717 0.21386001 0.86700004 1.6854427e-38
-0.056974288 0.21386001 0.86700004 1.5563688e-38
-0.055322859 0.21386001 0.86700004 1.5191351e-38
-0.053671431 0.21386001 0.86700004 1.4638177e-38
-0.052020002 0.21386001 0.86700004 1.5283173e-38
-0.050368574 0.21386001 0.86700004 1.9800759e-38
-0.048717145 0.21386001 0.86700004 1.8977104e-38
-0.047065716 0.21386001 0.86700004 1.7317583e-38
-0.061928574 0.21551144 0.86700004 1.8695816e-38
-0.060277145 0.21551144 0.86700004 1.860362e-38
-0.058625717 0.21551144 0.86700004 1.7408709e-38
-0.056974288 0.21551144 0.86700004 1.611797e-38
-0.055322859 0.21551144 0.86700004 1.4640685e-38
-0.053671431 0.21551144 0.86700004 1.3718729e-38
-0.052020002 0.21551144 0.86700004 1.4638437e-38
-0.050368574 0.21551144 0.86700004 1.9985784e-38
-0.048717145 0.21551144 0.86700004 1.9439177e-38
-0.047065716 0.21551144 0.86700004 1.7410873e-38
-0.045414288 0.21551144 0.86700004 1.5747333e-38
-0.053795237 0.21766381 0.86900002 1.2887892e-38
-0.050368574 0.21716286 0.86700004 1.8785863e-38
-0.048717145 0.21716286 0.86700004 1.879056e-38
-0.047065716 0.21716286 0.86700004 1.8237387e-38
-0.045414288 0.21716286 0.86700004 1.6299821e-38
-0.032202858 0.21716286 0.86700004 1.2607041e-38
-0.030445714 0.21641144 0.86400002 1.1408498e-38
-0.063726671 0.21931905 0.86900002 1.3892305e-38
-0.058760952 0.21931905 0.86900002 1.8602917e-38
-0.057105716 0.21931905 0.86900002 1.8049743e-38
-0.055450477 0.21931905 0.86900002 1.6578203e-38
-0.053795237 0.21931905 0.86900002 1.3166965e-38
-0.052140001 0.21931905 0.86900002 1.4635206e-38
-0.050484765 0.21931905 0.86900002 1.9521572e-38
-0.048829522 0.21931905 0.86900002 1.9066066e-38
-0.047174286 0.21931905 0.86900002 1.8697283e-38
-0.045414288 0.21881428 0.86700004 1.7038465e-38
-0.043762859 0.21881428 0.86700004 1.5102357e-38
-0.030445714 0.21805714 0.86400002 1.0947151e-38
-0.063726671 0.2209743 0.86900002 1.1219412e-38
-0.062071431 0.2209743 0.86900002 1.3990205e-38
-0.060416192 0.2209743 0.86900002 1.6848249e-38
-0.058760952 0.2209743 0.86900002 1.7957898e-38
-0.057105716 0.2209743 0.86900002 1.8418876e-38
-0.055450477 0.2209743 0.86900002 1.7406504e-38
-0.053795237 0.2209743 0.86900002 1.7314308e-38
-0.052140001 0.2209743 0.86900002 1.694661e-38
-0.050484765 0.2209743 0.86900002 1.694661e-38
-0.048829522 0.2209743 0.86900002 1.6575699e-38
-0.047174286 0.2209743 0.86900002 1.6299112e-38
-0.04551905 0.2209743 0.86900002 1.6300534e-38
-0.043863807 0.2209743 0.86900002 1.5562969e-38
-0.04211143 0.22046572 0.86700004 1.4823278e-38
-0.062071431 0.22262952 0.86900002 1.1860052e-38
-0.060416192 0.22262952 0.86900002 1.5363472e-38
-0.058760952 0.22262952 0.86900002 1.675791e-38
-0.057105716 0.22262952 0.86900002 1.7679866e-38
-0.055450477 0.22262952 0.86900002 1.814121e-38
-0.053795237 0.22262952 0.86900002 1.8602188e-38
-0.052140001 0.22262952 0.86900002 1.7591639e-38
-0.050484765 0.22262952 0.86900002 1.4733574e-38
-0.048829522 0.22262952 0.86900002 1.5098379e-38
-0.047174286 0.22262952 0.86900002 1.5467161e-38
-0.04551905 0.22262952 0.86900002 1.5654474e-38
-0.043863807 0.22262952 0.86900002 1.5562278e-38
-0.04211143 0.22211714 0.86700004 1.4087161e-38
-0.062071431 0.22428477 0.86900002 1.2414362e-38
-0.060416192 0.22428477 0.86900002 1.0847037e-38
-0.058760952 0.22428477 0.86900002 1.3251575e-38
-0.057105716 0.22428477 0.86900002 1.6570598e-38
-0.055450477 0.22428477 0.86900002 1.7772781e-38
-0.053795237 0.22428477 0.86900002 1.9432302e-38
-0.052140001 0.22428477 0.86900002 1.7498712e-38
-0.050484765 0.22428477 0.86900002 1.436406e-38
-0.048829522 0.22428477 0.86900002 1.3533612e-38
-0.047174286 0.22428477 0.86900002 1.3810199e-38
-0.04551905 0.22428477 0.86900002 1.3903849e-38
-0.043863807 0.22428477 0.86900002 1.3258479e-38
-0.042208571 0.22428477 0.86900002 1.2331888e-38
-0.040460002 0.22376858 0.86700004 1.0672366e-38
-0.060416192 0.22594 0.86900002 1.0480412e-38
-0.050484765 0.22594 0.86900002 1.4177899e-38
-0.048829522 0.22594 0.86900002 1.3349596e-38
-0.047174286 0.22594 0.86900002 1.4363748e-38
-0.04551905 0.22594 0.86900002 1.3539382e-38
-0.043863807 0.22594 0.86900002 1.2986208e-38
-0.040553335 0.22594 0.86900002 1.030576e-38
-0.042305715 0.22811906 0.87100005 1.4915544e-38
-0.040553335 0.22759524 0.86900002 1.0858936e-38
-0.045623813 0.22977811 0.87100005 1.6110806e-38
-0.043964762 0.22977811 0.87100005 1.6387392e-38
-0.042305715 0.22977811 0.87100005 1.5649141e-38
