# .PCD v0.7 - Point Cloud Data file format
VERSION 0.7
FIELDS x y z rgb
SIZE 4 4 4 4
TYPE F F F F
COUNT 1 1 1 1
WIDTH 409
HEIGHT 1
VIEWPOINT 0 0 0 1 0 0 0
POINTS 409
DATA ascii
0.028900001 -0.14174762 1.4450001 1.0220379e-38
0.031520952 -0.14115904 1.439 9.1140312e-39
0.053448573 -0.13841809 1.439 1.0119162e-38
0.05070762 -0.13567714 1.439 1.0392923e-38
0.053448573 -0.13567714 1.439 1.0946097e-38
0.056189522 -0.13567714 1.439 9.2019234e-39
0.058930475 -0.13567714 1.439 6.9892283e-39
0.03165238 -0.13349049 1.4450001 1.5930416e-38
0.05070762 -0.13293619 1.439 1.52004e-38
0.053448573 -0.13293619 1.439 1.4278444e-38
0.056189522 -0.13293619 1.439 1.3080925e-38
0.058930475 -0.13293619 1.439 6.9038178e-39
0.061671425 -0.13293619 1.439 4.2305369e-39
0.042484764 -0.13019525 1.439 1.861195e-38
0.045225713 -0.13019525 1.439 1.7602506e-38
0.047966667 -0.13019525 1.439 1.6957137e-38
0.05070762 -0.13019525 1.439 1.7416339e-38
0.053448573 -0.13019525 1.439 1.4373883e-38
0.056189522 -0.13019525 1.439 1.3079166e-38
0.058930475 -0.13019525 1.439 5.703516e-39
0.061928574 -0.13073811 1.4450001 4.0461456e-39
0.039743807 -0.12745428 1.439 1.7782527e-38
0.042484764 -0.12745428 1.439 1.7874722e-38
0.045225713 -0.12745428 1.439 1.6865304e-38
0.047966667 -0.12745428 1.439 1.6957499e-38
0.05070762 -0.12745428 1.439 1.704826e-38
0.053448573 -0.12745428 1.439 1.4374587e-38
0.056189522 -0.12745428 1.439 1.261888e-38
0.058930475 -0.12745428 1.439 4.7822617e-39
0.061671425 -0.12745428 1.439 3.4004245e-39
0.039743807 -0.12471334 1.439 1.7323006e-38
0.042484764 -0.12471334 1.439 1.6769832e-38
0.045225713 -0.12471334 1.439 1.5576723e-38
0.047966667 -0.12471334 1.439 1.585331e-38
0.05070762 -0.12471334 1.439 1.6586935e-38
0.053448573 -0.12471334 1.439 1.4097652e-38
0.056189522 -0.12471334 1.439 1.2068235e-38
0.058930475 -0.12471334 1.439 4.9691711e-39
0.061671425 -0.12471334 1.439 4.0443506e-39
0.039743807 -0.12197238 1.439 1.4829745e-38
0.042484764 -0.12197238 1.439 1.4460963e-38
0.045225713 -0.12197238 1.439 1.3726311e-38
0.047966667 -0.12197238 1.439 1.4095094e-38
0.05070762 -0.12197238 1.439 1.409439e-38
0.053448573 -0.12197238 1.439 1.1605108e-38
0.056189522 -0.12197238 1.439 1.1052551e-38
0.058930475 -0.12197238 1.439 6.1662513e-39
0.061671425 -0.12197238 1.439 5.1532261e-39
0.039743807 -0.11923143 1.439 1.0856319e-38
0.042484764 -0.11923143 1.439 1.1040707e-38
0.045225713 -0.11923143 1.439 1.0948534e-38
0.047966667 -0.11923143 1.439 1.1132925e-38
0.05070762 -0.11923143 1.439 1.0857461e-38
0.053448573 -0.11923143 1.439 1.0949657e-38
0.056189522 -0.11923143 1.439 7.4533916e-39
0.058930475 -0.11923143 1.439 7.6377829e-39
0.061671425 -0.11923143 1.439 7.5535452e-39
0.067433335 -0.11972857 1.4450001 3.7754288e-39
0.037002858 -0.11649048 1.439 9.7388674e-39
0.039743807 -0.11649048 1.439 1.0386379e-38
0.042484764 -0.11649048 1.439 1.0386379e-38
0.045225713 -0.11649048 1.439 1.0386738e-38
0.047966667 -0.11649048 1.439 1.0478934e-38
0.05070762 -0.11649048 1.439 1.0852732e-38
0.053448573 -0.11649048 1.439 1.2143459e-38
0.056189522 -0.11649048 1.439 9.4784977e-39
0.058930475 -0.11649048 1.439 8.8331283e-39
0.061671425 -0.11649048 1.439 8.5691517e-39
0.067433335 -0.11697619 1.4450001 9.3107273e-39
0.037002858 -0.11374953 1.439 1.1956551e-38
0.039743807 -0.11374953 1.439 1.2143451e-38
0.042484764 -0.11374953 1.439 1.2512228e-38
0.045225713 -0.11374953 1.439 1.2790245e-38
0.047966667 -0.11374953 1.439 1.2790245e-38
0.05070762 -0.11374953 1.439 1.3067904e-38
0.053448573 -0.11374953 1.439 1.4911807e-38
0.056189522 -0.11374953 1.439 1.2707113e-38
0.058930475 -0.11374953 1.439 1.0310027e-38
0.067433335 -0.11422382 1.4450001 1.0602532e-38
0.037002858 -0.11100857 1.439 1.4456575e-38
0.039743807 -0.11100857 1.439 1.4272169e-38
0.042484764 -0.11100857 1.439 1.445656e-38
0.045225713 -0.11100857 1.439 1.4271468e-38
0.047966667 -0.11100857 1.439 1.4548055e-38
0.05070762 -0.11100857 1.439 1.454911e-38
0.053448573 -0.11100857 1.439 1.5378858e-38
0.056189522 -0.11100857 1.439 1.2615208e-38
0.058930475 -0.11100857 1.439 1.0586911e-38
0.067433335 -0.11147143 1.4450001 1.041704e-38
0.037002858 -0.10826762 1.439 1.3626851e-38
0.039743807 -0.10826762 1.439 1.3535709e-38
0.042484764 -0.10826762 1.439 1.3627905e-38
0.045225713 -0.10826762 1.439 1.3441751e-38
0.047966667 -0.10826762 1.439 1.2335403e-38
0.05070762 -0.10826762 1.439 1.325233e-38
0.053448573 -0.10826762 1.439 1.3713309e-38
0.056189522 -0.10826762 1.439 1.0124171e-38
0.058930475 -0.10826762 1.439 9.8475843e-39
0.037002858 -0.10552666 1.439 9.6499017e-39
0.039743807 -0.10552666 1.439 1.0208089e-38
0.042484764 -0.10552666 1.439 1.1130041e-38
0.045225713 -0.10552666 1.439 1.1316257e-38
0.047966667 -0.10552666 1.439 7.8128331e-39
0.05070762 -0.10552666 1.439 1.0105858e-38
0.053448573 -0.10552666 1.439 1.0566836e-38
0.056189522 -0.10552666 1.439 8.9137913e-39
0.058930475 -0.10552666 1.439 8.3606175e-39
0.037002858 -0.10278571 1.439 1.2800754e-38
0.039743807 -0.10278571 1.439 1.3444339e-38
0.042484764 -0.10278571 1.439 1.4366295e-38
0.045225713 -0.10278571 1.439 1.4271296e-38
0.047966667 -0.10278571 1.439 6.8956454e-39
0.05070762 -0.10278571 1.439 9.9218209e-39
0.053448573 -0.10278571 1.439 1.1028157e-38
0.056189522 -0.10278571 1.439 9.9254363e-39
0.058930475 -0.10278571 1.439 9.0956756e-39
0.037002858 -0.10004476 1.439 1.9815211e-38
0.039743807 -0.10004476 1.439 1.944752e-38
0.042484764 -0.10004476 1.439 2.0277281e-38
0.045225713 -0.10004476 1.439 1.8613476e-38
0.047966667 -0.10004476 1.439 9.1173257e-39
0.05070762 -0.10004476 1.439 9.2786137e-39
0.053448573 -0.10004476 1.439 1.0938127e-38
0.056189522 -0.10004476 1.439 9.9276069e-39
0.058930475 -0.10004476 1.439 9.1900418e-39
0.039743807 -0.097303808 1.439 1.7701558e-38
0.042484764 -0.097303808 1.439 1.6318624e-38
0.045225713 -0.097303808 1.439 1.6679891e-38
0.047966667 -0.097303808 1.439 6.722763e-39
0.05070762 -0.097303808 1.439 8.910913e-39
0.053448573 -0.097303808 1.439 1.0939206e-38
0.056189522 -0.097303808 1.439 9.8379266e-39
0.037157144 -0.094957143 1.4450001 1.9816614e-38
0.039909527 -0.094957143 1.4450001 1.7420267e-38
0.042661905 -0.094957143 1.4450001 1.8392211e-39
0.045414288 -0.094957143 1.4450001 5.6041177e-39
0.047966667 -0.094562858 1.439 6.8948495e-39
0.05070762 -0.094562858 1.439 1.0014385e-38
0.053448573 -0.094562858 1.439 1.139732e-38
0.056189522 -0.094562858 1.439 9.7457309e-39
0.037157144 -0.092204764 1.4450001 1.9448223e-38
0.039909527 -0.092204764 1.4450001 1.6959664e-38
0.042661905 -0.092204764 1.4450001 2.3005593e-39
0.045414288 -0.092204764 1.4450001 6.1551306e-39
0.048166666 -0.092204764 1.4450001 8.1834275e-39
0.05070762 -0.091821909 1.439 1.0662987e-38
0.053448573 -0.091821909 1.439 1.1216161e-38
0.056189522 -0.091821909 1.439 9.9308411e-39
0.034404762 -0.089452386 1.4450001 1.7140108e-38
0.037157144 -0.089452386 1.4450001 2.027476e-38
0.039909527 -0.089452386 1.4450001 1.8337917e-38
0.042661905 -0.089452386 1.4450001 3.8632033e-39
0.045414288 -0.089452386 1.4450001 7.8085283e-39
0.048166666 -0.089452386 1.4450001 1.0389998e-38
0.050919048 -0.089452386 1.4450001 1.0846662e-38
0.053448573 -0.089080952 1.439 1.1307641e-38
0.056189522 -0.089080952 1.439 9.8386454e-39
0.067433335 -0.089452386 1.4450001 5.0635345e-39
0.034404762 -0.0867 1.4450001 1.6680209e-38
0.037157144 -0.0867 1.4450001 1.9814861e-38
0.039909527 -0.0867 1.4450001 1.7971311e-38
0.042661905 -0.0867 1.4450001 3.6809883e-39
0.045414288 -0.0867 1.4450001 8.2680645e-39
0.048166666 -0.0867 1.4450001 1.0757338e-38
0.050919048 -0.0867 1.4450001 1.1032123e-38
0.053448573 -0.086339995 1.439 1.1400905e-38
0.056189522 -0.086339995 1.439 1.0116662e-38
0.067433335 -0.0867 1.4450001 4.4152785e-39
0.034404762 -0.083947621 1.4450001 1.68628e-38
0.037157144 -0.083947621 1.4450001 2.0550625e-38
0.039909527 -0.083947621 1.4450001 1.8799614e-38
0.042661905 -0.083947621 1.4450001 4.0483134e-39
0.045414288 -0.083947621 1.4450001 8.2680645e-39
0.048166666 -0.083947621 1.4450001 1.0849534e-38
0.050919048 -0.083947621 1.4450001 1.1306556e-38
0.053671431 -0.083947621 1.4450001 1.1767534e-38
0.067433335 -0.083947621 1.4450001 7.534098e-39
0.03165238 -0.081195243 1.4450001 1.5563041e-38
0.034404762 -0.081195243 1.4450001 1.6403619e-38
0.037157144 -0.081195243 1.4450001 1.9907053e-38
0.039909527 -0.081195243 1.4450001 1.8065309e-38
0.042661905 -0.081195243 1.4450001 3.2218122e-39
0.045414288 -0.081195243 1.4450001 7.9003638e-39
0.048166666 -0.081195243 1.4450001 1.075842e-38
0.050919048 -0.081195243 1.4450001 1.1398038e-38
0.067433335 -0.081195243 1.4450001 1.0380998e-38
0.03165238 -0.078442864 1.4450001 1.4738688e-38
0.034404762 -0.078442864 1.4450001 1.6770957e-38
0.037157144 -0.078442864 1.4450001 2.0458782e-38
0.039909527 -0.078442864 1.4450001 1.8983652e-38
0.042661905 -0.078442864 1.4450001 4.1401559e-39
0.045414288 -0.078442864 1.4450001 8.2680645e-39
0.048166666 -0.078442864 1.4450001 1.0572947e-38
0.050919048 -0.078442864 1.4450001 1.130621e-38
0.067433335 -0.078442864 1.4450001 7.7224325e-39
0.03165238 -0.075690478 1.4450001 1.5471208e-38
0.034404762 -0.075690478 1.4450001 1.6495815e-38
0.037157144 -0.075690478 1.4450001 1.9999249e-38
0.039909527 -0.075690478 1.4450001 1.8524132e-38
0.042661905 -0.075690478 1.4450001 4.0494177e-39
0.045414288 -0.075690478 1.4450001 8.2680645e-39
0.048166666 -0.075690478 1.4450001 1.0941729e-38
0.050919048 -0.075690478 1.4450001 1.1217251e-38
0.067433335 -0.075690478 1.4450001 5.071791e-39
0.03165238 -0.072938092 1.4450001 1.4462101e-38
0.034404762 -0.072938092 1.4450001 1.6770597e-38
0.037157144 -0.072938092 1.4450001 2.0827205e-38
0.039909527 -0.072938092 1.4450001 1.9443549e-38
0.042661905 -0.072938092 1.4450001 4.6922479e-39
0.045414288 -0.072938092 1.4450001 8.2680645e-39
0.048166666 -0.072938092 1.4450001 1.1033925e-38
0.050919048 -0.072938092 1.4450001 1.1491669e-38
0.064412385 -0.072635233 1.439 9.1162018e-39
0.067759998 -0.073291428 1.452 7.0054035e-39
0.028900001 -0.070185713 1.4450001 5.052746e-39
0.03165238 -0.070185713 1.4450001 1.5378649e-38
0.034404762 -0.070185713 1.4450001 1.6218512e-38
0.037157144 -0.070185713 1.4450001 2.0182924e-38
0.039909527 -0.070185713 1.4450001 1.8802158e-38
0.042661905 -0.070185713 1.4450001 4.1430524e-39
0.045414288 -0.070185713 1.4450001 8.176229e-39
0.048166666 -0.070185713 1.4450001 1.0849894e-38
0.050919048 -0.070185713 1.4450001 1.1398768e-38
0.068039998 -0.070817143 1.4580001 7.0054035e-39
0.028900001 -0.067433335 1.4450001 4.8687162e-39
0.03165238 -0.067433335 1.4450001 1.5747795e-38
0.034404762 -0.067433335 1.4450001 1.6953919e-38
0.037157144 -0.067433335 1.4450001 2.1102723e-38
0.039909527 -0.067433335 1.4450001 1.9997439e-38
0.042661905 -0.067433335 1.4450001 5.5227246e-39
0.045414288 -0.067433335 1.4450001 8.4520942e-39
0.048166666 -0.067433335 1.4450001 1.0941366e-38
0.050919048 -0.067433335 1.4450001 1.1581021e-38
0.068039998 -0.068039998 1.4580001 6.6380601e-39
0.028900001 -0.064680949 1.4450001 6.1551306e-39
0.03165238 -0.064680949 1.4450001 1.657323e-38
0.034404762 -0.064680949 1.4450001 1.7321247e-38
0.037157144 -0.064680949 1.4450001 2.0548094e-38
0.039909527 -0.064680949 1.4450001 1.9813426e-38
0.042661905 -0.064680949 1.4450001 5.3387117e-39
0.045414288 -0.064680949 1.4450001 8.8194362e-39
0.048166666 -0.064680949 1.4450001 1.1585297e-38
0.051165711 -0.06499429 1.452 1.1582091e-38
0.068320006 -0.065531433 1.4640001 5.9004951e-39
0.028900001 -0.061928574 1.4450001 6.8901733e-39
0.03165238 -0.061928574 1.4450001 1.5372166e-38
0.034404762 -0.061928574 1.4450001 1.6677243e-38
0.037157144 -0.061928574 1.4450001 1.7599199e-38
0.039909527 -0.061928574 1.4450001 1.7230108e-38
0.042661905 -0.061928574 1.4450001 5.7056543e-39
0.045414288 -0.061928574 1.4450001 9.1867782e-39
0.048166666 -0.061928574 1.4450001 1.1491663e-38
0.065262854 -0.062485714 1.4580001 7.5474566e-39
0.028900001 -0.059176192 1.4450001 7.1656798e-39
0.03165238 -0.059176192 1.4450001 1.4910104e-38
0.034404762 -0.059176192 1.4450001 1.2527388e-38
0.037157144 -0.059176192 1.4450001 1.3264953e-38
0.039909527 -0.059176192 1.4450001 1.3357894e-38
0.042661905 -0.059176192 1.4450001 6.6276134e-39
0.045414288 -0.059176192 1.4450001 9.5573558e-39
0.048166666 -0.059176192 1.4450001 1.1309073e-38
0.068320006 -0.059954289 1.4640001 5.9926907e-39
0.028900001 -0.056423813 1.4450001 1.0947828e-38
0.03165238 -0.056423813 1.4450001 1.2607349e-38
0.034404762 -0.056423813 1.4450001 1.160033e-38
0.037157144 -0.056423813 1.4450001 1.1139359e-38
0.039909527 -0.056423813 1.4450001 1.1878347e-38
0.042868573 -0.056697145 1.452 1.0126657e-38
0.045634285 -0.056697145 1.452 1.057226e-38
0.028900001 -0.053671431 1.4450001 1.3810533e-38
0.03165238 -0.053671431 1.4450001 1.4455903e-38
0.034404762 -0.053671431 1.4450001 1.3631858e-38
0.037157144 -0.053671431 1.4450001 1.3447467e-38
0.040102858 -0.05393143 1.452 1.3166939e-38
0.042868573 -0.05393143 1.452 1.067767e-38
0.029039999 -0.051165711 1.452 1.3626466e-38
0.034404762 -0.050919048 1.4450001 1.3998822e-38
0.037157144 -0.050919048 1.4450001 1.4183213e-38
0.040102858 -0.051165711 1.452 1.399636e-38
0.042868573 -0.051165711 1.452 1.2336838e-38
0.029039999 -0.0484 1.452 1.3719362e-38
0.031805713 -0.0484 1.452 1.4733513e-38
0.034404762 -0.048166666 1.4450001 1.4274324e-38
0.037157144 -0.048166666 1.4450001 1.4550911e-38
0.040102858 -0.0484 1.452 1.4551313e-38
0.042868573 -0.0484 1.452 1.4459117e-38
0.029039999 -0.045634285 1.452 1.4918607e-38
0.031805713 -0.045634285 1.452 1.4918607e-38
0.040102858 -0.045634285 1.452 1.501047e-38
0.042868573 -0.045634285 1.452 1.501047e-38
0.031805713 -0.042868573 1.452 1.4177514e-38
0.040102858 -0.042868573 1.452 1.4083523e-38
0.042868573 -0.042868573 1.452 1.4175719e-38
0.067759998 -0.042868573 1.452 1.6499781e-38
0.031805713 -0.040102858 1.452 1.3983466e-38
0.034571428 -0.040102858 1.452 1.2702715e-38
0.037337143 -0.040102858 1.452 8.2773916e-39
0.040102858 -0.040102858 1.452 1.0569713e-38
0.042868573 -0.040102858 1.452 1.167606e-38
0.067759998 -0.040102858 1.452 1.4374898e-38
0.029160002 -0.03749143 1.4580001 1.2325328e-38
0.034571428 -0.037337143 1.452 1.2889286e-38
0.037337143 -0.037337143 1.452 7.6341844e-39
0.040102858 -0.037337143 1.452 9.8325078e-39
0.042868573 -0.037337143 1.452 1.0477877e-38
0.067759998 -0.037337143 1.452 1.1330643e-38
0.037337143 -0.034571428 1.452 1.0215986e-38
0.034714285 -0.031937145 1.4580001 1.2614154e-38
0.03749143 -0.031937145 1.4580001 1.1046828e-38
0.032068573 -0.029280001 1.4640001 1.6484588e-38
0.034714285 -0.029160002 1.4580001 1.4922551e-38
0.03749143 -0.029160002 1.4580001 1.2525501e-38
0.054154288 -0.029160002 1.4580001 1.2321078e-38
0.032068573 -0.02649143 1.4640001 1.639131e-38
0.034714285 -0.026382858 1.4580001 1.5564399e-38
0.03749143 -0.026382858 1.4580001 1.279853e-38
0.054154288 -0.026382858 1.4580001 1.2505469e-38
0.029280001 -0.02370286 1.4640001 1.5287452e-38
0.032068573 -0.02370286 1.4640001 1.5840625e-38
0.034714285 -0.023605715 1.4580001 1.4827845e-38
0.03749143 -0.023605715 1.4580001 1.2338601e-38
0.054154288 -0.023605715 1.4580001 1.2321074e-38
0.029280001 -0.020914286 1.4640001 1.5658768e-38
0.032068573 -0.020914286 1.4640001 1.5013398e-38
0.03749143 -0.020828571 1.4580001 1.2337525e-38
0.029280001 -0.018125715 1.4640001 1.5473243e-38
0.032068573 -0.018125715 1.4640001 1.42747e-38
0.0484 -0.017977143 1.452 9.0145867e-39
0.029280001 -0.015337145 1.4640001 1.5106282e-38
0.032068573 -0.015337145 1.4640001 1.3999934e-38
0.02649143 -0.012548571 1.4640001 1.4365846e-38
0.029280001 -0.012548571 1.4640001 1.4550198e-38
0.032068573 -0.012548571 1.4640001 1.3904828e-38
0.068039998 -0.012497144 1.4580001 1.1984706e-38
0.02649143 -0.0097600007 1.4640001 1.3995628e-38
0.029280001 -0.0097600007 1.4640001 1.4178936e-38
0.032068573 -0.0097600007 1.4640001 1.3902349e-38
0.068320006 -0.0097600007 1.4640001 1.1892157e-38
0.02649143 -0.0069714291 1.4640001 1.3534302e-38
0.029280001 -0.0069714291 1.4640001 1.3440662e-38
0.032068573 -0.0069714291 1.4640001 1.2979684e-38
0.068320006 -0.0069714291 1.4640001 1.1707397e-38
0.02649143 -0.0041828575 1.4640001 1.2981139e-38
0.029280001 -0.0041828575 1.4640001 1.279493e-38
0.068320006 -0.0041828575 1.4640001 1.1707047e-38
0.02370286 -0.0013942858 1.4640001 1.2888583e-38
0.02649143 -0.0013942858 1.4640001 1.1505648e-38
0.029280001 -0.0013942858 1.4640001 1.2331488e-38
0.02370286 0.0013942858 1.4640001 1.3072265e-38
0.02649143 0.0013942858 1.4640001 1.2150309e-38
0.029280001 0.0013942858 1.4640001 1.2332901e-38
0.02370286 0.0041828575 1.4640001 1.2796069e-38
0.02649143 0.0041828575 1.4640001 1.2519482e-38
0.029280001 0.0041828575 1.4640001 1.2148516e-38
0.02370286 0.0069714291 1.4640001 1.2335419e-38
0.02649143 0.0069714291 1.4640001 1.2888593e-38
0.029280001 0.0069714291 1.4640001 1.1874103e-38
0.020914286 0.0097600007 1.4640001 8.9296652e-39
0.02370286 0.0097600007 1.4640001 1.233582e-38
0.02649143 0.0097600007 1.4640001 1.5470471e-38
0.029280001 0.0097600007 1.4640001 1.3626546e-38
0.020914286 0.012548571 1.4640001 1.0406212e-38
0.02370286 0.012548571 1.4640001 1.4089647e-38
0.02649143 0.012548571 1.4640001 1.6302342e-38
0.029280001 0.012548571 1.4640001 1.5564473e-38
0.023799999 0.0154 1.47 1.4363661e-38
0.023799999 0.018200001 1.47 1.528237e-38
0.021000002 0.021000002 1.47 1.5285607e-38
0.023799999 0.021000002 1.47 1.5558594e-38
0.021000002 0.023799999 1.47 1.5830909e-38
0.023799999 0.023799999 1.47 1.6018167e-38
-0.026726669 0.026726669 1.4770001 1.1882434e-38
0.021000002 0.0266 1.47 1.3623611e-38
0.023799999 0.0266 1.47 1.4450464e-38
-0.026726669 0.029540002 1.4770001 1.0496876e-38
0.021000002 0.0294 1.47 1.3902729e-38
0.023799999 0.0294 1.47 1.4727498e-38
-0.026726669 0.032353338 1.4770001 1.2334296e-38
0.018200001 0.032200001 1.47 1.3999972e-38
0.021000002 0.032200001 1.47 1.446095e-38
0.023799999 0.032200001 1.47 1.5201104e-38
0.018200001 0.035 1.47 1.39089e-38
0.021000002 0.035 1.47 1.4001096e-38
0.018200001 0.037800003 1.47 1.4643974e-38
0.021000002 0.037800003 1.47 1.3445431e-38
0.018200001 0.040600002 1.47 1.4920538e-38
0.021000002 0.040600002 1.47 1.3906386e-38
0.018200001 0.043400001 1.47 1.417825e-38
0.021000002 0.043400001 1.47 1.4086054e-38
0.0154 0.0462 1.47 1.4730653e-38
0.018200001 0.0462 1.47 1.5375326e-38
0.021000002 0.0462 1.47 1.4637761e-38
0.0154 0.048999999 1.47 1.593135e-38
0.018200001 0.048999999 1.47 1.5652622e-38
0.021000002 0.048999999 1.47 1.546823e-38
0.0154 0.051799998 1.47 1.6206537e-38
0.018200001 0.051799998 1.47 1.5652644e-38
0.021000002 0.051799998 1.47 1.5376057e-38
0.0154 0.0546 1.47 1.4638142e-38
0.018200001 0.0546 1.47 1.4637786e-38
0.021000002 0.0546 1.47 1.3623634e-38
0.0294 0.0546 1.47 1.6391651e-38
0.015473335 0.057673335 1.4770001 1.4546634e-38
0.01553619 0.06073238 1.483 1.4547761e-38
0.029540002 0.077366672 1.4770001 1.0669495e-38
-0.02978 0.083667621 1.4890001 1.2151077e-38
0.0099266665 0.083667621 1.4890001 1.5646906e-38
0.0099266665 0.086503811 1.4890001 1.4350412e-38
0.0099266665 0.089340009 1.4890001 9.6470403e-39
