# .PCD v0.7 - Point Cloud Data file format
VERSION 0.7
FIELDS x y z rgb
SIZE 4 4 4 4
TYPE F F F F
COUNT 1 1 1 1
WIDTH 479
HEIGHT 1
VIEWPOINT 0 0 0 1 0 0 0
POINTS 479
DATA ascii
-0.064787619 -0.07137619 1.153 1.5291536e-38
-0.055808574 -0.071128577 1.149 1.3724876e-38
-0.053620003 -0.071128577 1.149 1.4370246e-38
-0.066983812 -0.069179997 1.153 1.2711453e-38
-0.064787619 -0.069179997 1.153 1.3265021e-38
-0.057997145 -0.068939999 1.149 1.1696588e-38
-0.055808574 -0.068939999 1.149 1.2524188e-38
-0.053620003 -0.068939999 1.149 1.2524188e-38
-0.069179997 -0.066983812 1.153 9.9337151e-39
-0.060185716 -0.066751435 1.149 1.0112358e-38
-0.057997145 -0.066751435 1.149 1.0388945e-38
-0.055808574 -0.066751435 1.149 1.0481494e-38
-0.053620003 -0.066751435 1.149 1.0481494e-38
-0.029545715 -0.066751435 1.149 1.2607725e-38
-0.064562857 -0.064562857 1.149 1.2135993e-38
-0.06237429 -0.064562857 1.149 1.1675015e-38
-0.060185716 -0.064562857 1.149 1.1948718e-38
-0.057997145 -0.064562857 1.149 1.1948718e-38
-0.055808574 -0.064562857 1.149 1.1763961e-38
-0.053620003 -0.064562857 1.149 1.2224939e-38
-0.084846668 -0.062808573 1.1570001 1.0381014e-38
-0.082357138 -0.062591426 1.153 1.0565031e-38
-0.07796476 -0.062591426 1.153 1.1120749e-38
-0.075768568 -0.062591426 1.153 1.2227097e-38
-0.068939999 -0.06237429 1.149 1.3158027e-38
-0.066751435 -0.06237429 1.149 1.4079984e-38
-0.064562857 -0.06237429 1.149 1.3526836e-38
-0.06237429 -0.06237429 1.149 1.2789271e-38
-0.060185716 -0.06237429 1.149 1.2877148e-38
-0.057997145 -0.06237429 1.149 1.2784953e-38
-0.055808574 -0.06237429 1.149 1.2692747e-38
-0.053620003 -0.06237429 1.149 1.2600551e-38
-0.082357138 -0.060395237 1.153 1.1494504e-38
-0.07796476 -0.060395237 1.153 1.1681762e-38
-0.071128577 -0.060185716 1.149 1.2970689e-38
-0.068939999 -0.060185716 1.149 1.2971838e-38
-0.066751435 -0.060185716 1.149 1.3525012e-38
-0.064562857 -0.060185716 1.149 1.325061e-38
-0.06237429 -0.060185716 1.149 1.2697436e-38
-0.060185716 -0.060185716 1.149 1.260163e-38
-0.057997145 -0.060185716 1.149 1.260163e-38
-0.055808574 -0.060185716 1.149 1.2508363e-38
-0.053620003 -0.060185716 1.149 1.2508363e-38
-0.075505719 -0.057997145 1.149 1.8706131e-38
-0.07331714 -0.057997145 1.149 1.7875995e-38
-0.071128577 -0.057997145 1.149 1.0961427e-38
-0.068939999 -0.057997145 1.149 1.1582444e-38
-0.06237429 -0.057997145 1.149 1.2507284e-38
-0.060185716 -0.057997145 1.149 1.2600183e-38
-0.057997145 -0.057997145 1.149 1.2507987e-38
-0.055808574 -0.057997145 1.149 1.2599833e-38
-0.053620003 -0.057997145 1.149 1.2599833e-38
-0.08925429 -0.056197144 1.1570001 1.8982778e-38
-0.086749524 -0.056002859 1.153 1.8156973e-38
-0.084553331 -0.056002859 1.153 1.7695995e-38
-0.082071431 -0.055808574 1.149 1.7971863e-38
-0.07988286 -0.055808574 1.149 1.8064059e-38
-0.077694289 -0.055808574 1.149 1.8709431e-38
-0.075505719 -0.055808574 1.149 1.8617235e-38
-0.07331714 -0.055808574 1.149 1.8428577e-38
-0.071128577 -0.055808574 1.149 9.8543834e-39
-0.068939999 -0.055808574 1.149 1.1025641e-38
-0.06237429 -0.055808574 1.149 1.2411488e-38
-0.060185716 -0.055808574 1.149 1.2506548e-38
-0.057997145 -0.055808574 1.149 1.2506548e-38
-0.055808574 -0.055808574 1.149 1.2506198e-38
-0.053620003 -0.055808574 1.149 1.2506198e-38
-0.084553331 -0.053806666 1.153 1.5480021e-38
-0.082071431 -0.053620003 1.149 1.5939916e-38
-0.07988286 -0.053620003 1.149 1.6124304e-38
-0.077694289 -0.053620003 1.149 1.6956205e-38
-0.075505719 -0.053620003 1.149 1.8707895e-38
-0.07331714 -0.053620003 1.149 1.8060024e-38
-0.071128577 -0.053620003 1.149 1.0868874e-38
-0.068939999 -0.053620003 1.149 1.1024924e-38
-0.066751435 -0.053620003 1.149 1.2407859e-38
-0.064562857 -0.053620003 1.149 1.2041257e-38
-0.06237429 -0.053620003 1.149 1.1949061e-38
-0.060185716 -0.053620003 1.149 1.2041987e-38
-0.057997145 -0.053620003 1.149 1.2502965e-38
-0.055808574 -0.053620003 1.149 1.2320722e-38
-0.053620003 -0.053620003 1.149 1.2320722e-38
-0.082071431 -0.051431429 1.149 1.6305464e-38
-0.07988286 -0.051431429 1.149 1.6489853e-38
-0.077694289 -0.051431429 1.149 1.6490929e-38
-0.075505719 -0.051431429 1.149 1.8611399e-38
-0.07331714 -0.051431429 1.149 1.7782803e-38
-0.071128577 -0.051431429 1.149 9.5774378e-39
-0.068939999 -0.051431429 1.149 1.0841252e-38
-0.066751435 -0.051431429 1.149 1.1947587e-38
-0.064562857 -0.051431429 1.149 1.1855414e-38
-0.06237429 -0.051431429 1.149 1.1763218e-38
-0.060185716 -0.051431429 1.149 1.1765722e-38
-0.057997145 -0.051431429 1.149 1.1950114e-38
-0.055808574 -0.051431429 1.149 1.2224562e-38
-0.053620003 -0.051431429 1.149 1.2224562e-38
-0.082357138 -0.049414285 1.153 1.5382446e-38
-0.07988286 -0.049242858 1.149 1.5566834e-38
-0.077694289 -0.049242858 1.149 1.547464e-38
-0.075505719 -0.049242858 1.149 1.6212194e-38
-0.07331714 -0.049242858 1.149 1.5660463e-38
-0.071128577 -0.049242858 1.149 9.114673e-39
-0.068939999 -0.049242858 1.149 1.0565028e-38
-0.066751435 -0.049242858 1.149 1.1118193e-38
-0.064562857 -0.049242858 1.149 1.1485535e-38
-0.06237429 -0.049242858 1.149 1.1393341e-38
-0.060185716 -0.049242858 1.149 1.1485894e-38
-0.057997145 -0.049242858 1.149 1.1670283e-38
-0.055808574 -0.049242858 1.149 1.157917e-38
-0.053620003 -0.049242858 1.149 1.1486975e-38
-0.098069526 -0.047381908 1.1570001 1.2697692e-38
-0.09553428 -0.047218092 1.153 1.2424697e-38
-0.08925429 -0.047381908 1.1570001 1.3348433e-38
-0.086749524 -0.047218092 1.153 1.2796344e-38
-0.080160953 -0.047218092 1.153 1.334915e-38
-0.075505719 -0.047054287 1.149 1.3717569e-38
-0.07331714 -0.047054287 1.149 1.2979656e-38
-0.071128577 -0.047054287 1.149 9.6606637e-39
-0.068939999 -0.047054287 1.149 1.1210746e-38
-0.066751435 -0.047054287 1.149 1.1487329e-38
-0.064562857 -0.047054287 1.149 1.1579882e-38
-0.06237429 -0.047054287 1.149 1.1579882e-38
-0.060185716 -0.047054287 1.149 1.1672435e-38
-0.057997145 -0.047054287 1.149 1.2041212e-38
-0.055808574 -0.047054287 1.149 1.176714e-38
-0.053620003 -0.047054287 1.149 1.176714e-38
-0.09553428 -0.045021903 1.153 1.371434e-38
-0.087050483 -0.0451781 1.1570001 1.4641304e-38
-0.084553331 -0.045021903 1.153 1.4825693e-38
-0.07796476 -0.045021903 1.153 1.482641e-38
-0.071128577 -0.044865716 1.149 1.5473211e-38
-0.068939999 -0.044865716 1.149 1.5564324e-38
-0.066751435 -0.044865716 1.149 1.5840911e-38
-0.064562857 -0.044865716 1.149 1.6024236e-38
-0.06237429 -0.044865716 1.149 1.6393019e-38
-0.060185716 -0.044865716 1.149 1.6301189e-38
-0.057997145 -0.044865716 1.149 1.6301189e-38
-0.055808574 -0.044865716 1.149 1.6024952e-38
-0.053620003 -0.044865716 1.149 1.6024952e-38
-0.09553428 -0.042825714 1.153 1.5650846e-38
-0.087050483 -0.042974286 1.1570001 1.6022881e-38
-0.07796476 -0.042825714 1.153 1.5562269e-38
-0.075768568 -0.042825714 1.153 1.5470073e-38
-0.060185716 -0.042677142 1.149 1.6392755e-38
-0.057997145 -0.042677142 1.149 1.6208364e-38
-0.055808574 -0.042677142 1.149 1.6116872e-38
-0.053620003 -0.042677142 1.149 1.6116872e-38
-0.09553428 -0.040629521 1.153 1.1955834e-38
-0.073572382 -0.040629521 1.153 1.1120347e-38
-0.07137619 -0.040629521 1.153 1.1120347e-38
-0.069179997 -0.040629521 1.153 1.1211842e-38
-0.066983812 -0.040629521 1.153 1.1027451e-38
-0.064787619 -0.040629521 1.153 1.1119637e-38
-0.060185716 -0.040488571 1.149 1.1119286e-38
-0.057997145 -0.040488571 1.149 1.08427e-38
-0.055808574 -0.040488571 1.149 1.0935957e-38
-0.053620003 -0.040488571 1.149 1.1396929e-38
-0.07137619 -0.038433332 1.153 1.0105492e-38
-0.069179997 -0.038433332 1.153 1.0197327e-38
-0.066983812 -0.038433332 1.153 1.0197327e-38
-0.060185716 -0.0383 1.149 1.0013298e-38
-0.057997145 -0.0383 1.149 1.0105492e-38
-0.055808574 -0.0383 1.149 1.0197327e-38
-0.053620003 -0.0383 1.149 1.0289522e-38
-0.027357142 -0.0383 1.149 1.0933805e-38
-0.076031432 -0.03636286 1.1570001 8.5417773e-39
-0.073827624 -0.03636286 1.1570001 8.2680645e-39
-0.07137619 -0.036237143 1.153 8.9134255e-39
-0.069179997 -0.036237143 1.153 1.0013656e-38
-0.066983812 -0.036237143 1.153 1.0013656e-38
-0.06237429 -0.036111429 1.149 8.9101955e-39
-0.060185716 -0.036111429 1.149 9.0949427e-39
-0.057997145 -0.036111429 1.149 9.3715254e-39
-0.055808574 -0.036111429 1.149 9.7377912e-39
-0.053620003 -0.036111429 1.149 9.7377912e-39
-0.027357142 -0.036111429 1.149 1.0106927e-38
-0.084846668 -0.034159049 1.1570001 9.5897776e-39
-0.076031432 -0.034159049 1.1570001 6.155572e-39
-0.073827624 -0.034159049 1.1570001 7.8085283e-39
-0.07137619 -0.03404095 1.153 1.1588541e-38
-0.069179997 -0.03404095 1.153 1.5097772e-38
-0.066983812 -0.03404095 1.153 1.4913381e-38
-0.06237429 -0.033922859 1.149 9.6622234e-39
-0.060185716 -0.033922859 1.149 1.1683197e-38
-0.057997145 -0.033922859 1.149 1.5278814e-38
-0.055808574 -0.033922859 1.149 1.4641087e-38
-0.053620003 -0.033922859 1.149 1.4272305e-38
-0.087351426 -0.032065712 1.161 1.6777022e-38
-0.084846668 -0.031955238 1.1570001 1.7145805e-38
-0.076031432 -0.031955238 1.1570001 2.2987573e-39
-0.073827624 -0.031955238 1.1570001 5.052746e-39
-0.069179997 -0.031844761 1.153 2.1289247e-38
-0.066983812 -0.031844761 1.153 2.184242e-38
-0.060185716 -0.031734288 1.149 1.4557571e-38
-0.057997145 -0.031734288 1.149 2.1287852e-38
-0.055808574 -0.031734288 1.149 2.13829e-38
-0.053620003 -0.031734288 1.149 2.0921921e-38
-0.087351426 -0.029854285 1.161 1.2998433e-38
-0.084846668 -0.029751431 1.1570001 1.6501867e-38
-0.076031432 -0.029751431 1.1570001 3.036007e-39
-0.073827624 -0.029751431 1.1570001 5.052746e-39
-0.07162381 -0.029751431 1.1570001 1.8697692e-38
-0.066983812 -0.029648572 1.153 2.0463833e-38
-0.064787619 -0.029648572 1.153 1.8621016e-38
-0.060185716 -0.029545715 1.149 1.2812997e-38
-0.057997145 -0.029545715 1.149 2.0188647e-38
-0.055808574 -0.029545715 1.149 2.0281606e-38
-0.053620003 -0.029545715 1.149 1.9544041e-38
-0.033804763 -0.02944286 1.1450001 1.9730218e-38
-0.087351426 -0.027642857 1.161 3.7666903e-39
-0.084846668 -0.02754762 1.1570001 1.778042e-38
-0.076031432 -0.02754762 1.1570001 9.187165e-40
-0.073827624 -0.02754762 1.1570001 2.6639469e-39
-0.07162381 -0.02754762 1.1570001 1.6401093e-38
-0.066983812 -0.027452381 1.153 2.0463098e-38
-0.064787619 -0.027452381 1.153 1.7886303e-38
-0.057997145 -0.027357142 1.149 2.009506e-38
-0.055808574 -0.027357142 1.149 2.0095408e-38
-0.053620003 -0.027357142 1.149 1.686856e-38
-0.033804763 -0.027261905 1.1450001 1.4751725e-38
-0.076031432 -0.025343811 1.1570001 2.209098e-39
-0.073827624 -0.025343811 1.1570001 4.3177032e-39
-0.07162381 -0.025343811 1.1570001 1.7225086e-38
-0.066983812 -0.025256189 1.153 1.9911006e-38
-0.064787619 -0.025256189 1.153 1.8254016e-38
-0.057997145 -0.025168573 1.149 2.0006044e-38
-0.055808574 -0.025168573 1.149 1.9544064e-38
-0.053620003 -0.025168573 1.149 1.3551348e-38
-0.033804763 -0.025080955 1.1450001 1.3833663e-38
-0.076031432 -0.02314 1.1570001 2.7550649e-40
-0.073827624 -0.02314 1.1570001 2.2966049e-39
-0.07162381 -0.02314 1.1570001 1.5664966e-38
-0.066983812 -0.02306 1.153 2.0279073e-38
-0.064787619 -0.02306 1.153 1.8162536e-38
-0.033922859 -0.022980001 1.149 1.4935692e-38
-0.082928576 -0.021008572 1.161 1.9172725e-38
-0.080439053 -0.020936191 1.1570001 2.0002486e-38
-0.076031432 -0.020936191 1.1570001 1.4729791e-39
-0.073827624 -0.020936191 1.1570001 3.4908251e-39
-0.07162381 -0.020936191 1.1570001 1.6213818e-38
-0.062591426 -0.020863809 1.153 1.0693614e-38
-0.080439053 -0.018732382 1.1570001 2.0002486e-38
-0.076031432 -0.018732382 1.1570001 3.3183266e-39
-0.073827624 -0.018732382 1.1570001 1.1031022e-39
-0.07162381 -0.018732382 1.1570001 1.391829e-38
-0.069420002 -0.018732382 1.1570001 1.8343681e-38
-0.067216195 -0.018732382 1.1570001 1.963442e-38
-0.058199048 -0.018667618 1.153 1.8259063e-38
-0.056002859 -0.018667618 1.153 1.9452925e-38
-0.053806666 -0.018667618 1.153 1.4013383e-38
-0.073827624 -0.016528573 1.1570001 1.0226804e-38
-0.07162381 -0.016528573 1.1570001 1.5758542e-38
-0.069420002 -0.016528573 1.1570001 1.8802148e-38
-0.067216195 -0.016528573 1.1570001 1.9908495e-38
-0.06501238 -0.016528573 1.1570001 1.8806111e-38
-0.058199048 -0.016471429 1.153 1.908586e-38
-0.056002859 -0.016471429 1.153 1.9176338e-38
-0.053806666 -0.016471429 1.153 1.4843143e-38
-0.07162381 -0.014324762 1.1570001 1.8899751e-38
-0.069420002 -0.014324762 1.1570001 1.8990502e-38
-0.067216195 -0.014324762 1.1570001 1.945148e-38
-0.06501238 -0.014324762 1.1570001 1.8163258e-38
-0.062808573 -0.014324762 1.1570001 1.0511021e-38
-0.053806666 -0.014275238 1.153 1.9360363e-38
-0.074082859 -0.012162857 1.161 1.853091e-38
-0.07162381 -0.012120954 1.1570001 1.8807497e-38
-0.069420002 -0.012120954 1.1570001 1.8715347e-38
-0.067216195 -0.012120954 1.1570001 1.9268521e-38
-0.06501238 -0.012120954 1.1570001 1.8253668e-38
-0.062808573 -0.012120954 1.1570001 1.0970214e-38
-0.060604762 -0.012120954 1.1570001 1.0237581e-38
-0.058400955 -0.012120954 1.1570001 1.890397e-38
-0.11428096 -0.0099857152 1.1650001 1.6489719e-38
-0.069420002 -0.0099171428 1.1570001 1.8437662e-38
-0.067216195 -0.0099171428 1.1570001 2.0097183e-38
-0.06501238 -0.0099171428 1.1570001 1.8623164e-38
-0.062808573 -0.0099171428 1.1570001 1.069434e-38
-0.060604762 -0.0099171428 1.1570001 1.0511028e-38
-0.058400955 -0.0099171428 1.1570001 1.9177417e-38
-0.07187143 -0.0077399998 1.161 1.0422044e-38
-0.067216195 -0.0077133342 1.1570001 2.0463452e-38
-0.06501238 -0.0077133342 1.1570001 1.9358581e-38
-0.062808573 -0.0077133342 1.1570001 1.1429757e-38
-0.060604762 -0.0077133342 1.1570001 1.0236502e-38
-0.058400955 -0.0077133342 1.1570001 1.9548261e-38
-0.11428096 -0.0055476194 1.1650001 1.6674108e-38
-0.080995239 -0.0055476194 1.1650001 2.0830449e-38
-0.07850571 -0.0055285715 1.161 1.9543323e-38
-0.07187143 -0.0055285715 1.161 1.1708842e-38
-0.069660001 -0.0055285715 1.161 1.7790479e-38
-0.062808573 -0.0055095241 1.1570001 1.0601779e-38
-0.060604762 -0.0055095241 1.1570001 1.0142951e-38
-0.058400955 -0.0055095241 1.1570001 1.945471e-38
-0.080995239 -0.0033285718 1.1650001 2.0186161e-38
-0.07850571 -0.0033171428 1.161 1.9635168e-38
-0.07187143 -0.0033171428 1.161 1.3912167e-38
-0.069660001 -0.0033171428 1.161 1.73288e-38
-0.062808573 -0.0033057143 1.1570001 1.1153889e-38
-0.060604762 -0.0033057143 1.1570001 1.060383e-38
-0.058400955 -0.0033057143 1.1570001 2.009998e-38
-0.10799333 -0.0011133334 1.169 9.9221796e-39
-0.080995239 -0.0011095239 1.1650001 2.0647127e-38
-0.07850571 -0.0011057142 1.161 2.009541e-38
-0.07187143 -0.0011057142 1.161 1.4004009e-38
-0.069660001 -0.0011057142 1.161 1.7879093e-38
-0.067448571 -0.0011057142 1.161 2.1382527e-38
-0.060604762 -0.0011019048 1.1570001 9.1324022e-39
-0.058400955 -0.0011019048 1.1570001 1.8536356e-38
-0.080995239 0.0011095239 1.1650001 2.0095385e-38
-0.07850571 0.0011057142 1.161 1.9911758e-38
-0.07187143 0.0011057142 1.161 1.3727776e-38
-0.069660001 0.0011057142 1.161 1.6773844e-38
-0.067448571 0.0011057142 1.161 2.0922647e-38
-0.060604762 0.0011019048 1.1570001 1.0143215e-38
-0.058400955 0.0011019048 1.1570001 1.9270582e-38
-0.07850571 0.0033171428 1.161 2.0832615e-38
-0.07187143 0.0033171428 1.161 1.5656681e-38
-0.069660001 0.0033171428 1.161 1.7692563e-38
-0.067448571 0.0033171428 1.161 2.2210149e-38
-0.065237142 0.0033171428 1.161 2.0648937e-38
-0.056197144 0.0033057143 1.1570001 2.0189398e-38
-0.07187143 0.0055285715 1.161 1.6848015e-38
-0.069660001 0.0055285715 1.161 1.796697e-38
-0.067448571 0.0055285715 1.161 2.2300164e-38
-0.065237142 0.0055285715 1.161 2.0189058e-38
-0.063025713 0.0055285715 1.161 1.2444625e-38
-0.027452381 0.0054904758 1.153 2.0927682e-38
-0.07187143 0.0077399998 1.161 1.6472381e-38
-0.069660001 0.0077399998 1.161 1.7415116e-38
-0.067448571 0.0077399998 1.161 1.8521463e-38
-0.065237142 0.0077399998 1.161 1.6406496e-38
-0.063025713 0.0077399998 1.161 9.6762153e-39
-0.060814284 0.0077399998 1.161 1.1700185e-38
-0.074338101 0.0099857152 1.1650001 8.8194362e-39
-0.07187143 0.0099514285 1.161 1.4535557e-38
-0.069660001 0.0099514285 1.161 1.2615643e-38
-0.067448571 0.0099514285 1.161 1.3445404e-38
-0.065237142 0.0099514285 1.161 1.0967352e-38
-0.063025713 0.0099514285 1.161 7.2795269e-39
-0.060814284 0.0099514285 1.161 9.9441086e-39
-0.074338101 0.012204763 1.1650001 1.0288818e-38
-0.069660001 0.012162857 1.161 9.8296267e-39
-0.065237142 0.012162857 1.161 7.8096045e-39
-0.063025713 0.012162857 1.161 7.5330218e-39
-0.060814284 0.012162857 1.161 8.3595413e-39
-0.060814284 0.014374286 1.161 1.1116041e-38
-0.069900006 0.016642857 1.1650001 1.1486975e-38
-0.067680955 0.016642857 1.1650001 1.1394779e-38
-0.065461911 0.016642857 1.1650001 1.1761766e-38
-0.069900006 0.018861907 1.1650001 1.3712926e-38
-0.067680955 0.018861907 1.1650001 1.4081709e-38
-0.065461911 0.018861907 1.1650001 1.3898053e-38
-0.058602858 0.018797142 1.161 1.4082094e-38
-0.074338101 0.021080954 1.1650001 1.6301561e-38
-0.069900006 0.021080954 1.1650001 1.6301539e-38
-0.067680955 0.021080954 1.1650001 1.6670322e-38
-0.065461911 0.021080954 1.1650001 1.6577413e-38
-0.06324286 0.021080954 1.1650001 1.6669608e-38
-0.069900006 0.023300001 1.1650001 1.5096253e-38
-0.067680955 0.023300001 1.1650001 1.5188448e-38
-0.065461911 0.023300001 1.1650001 1.5373196e-38
-0.06324286 0.023300001 1.1650001 1.5281e-38
-0.069900006 0.025519049 1.1650001 1.0933446e-38
-0.067680955 0.025519049 1.1650001 1.1578807e-38
-0.065461911 0.025519049 1.1650001 1.1762477e-38
-0.06324286 0.025519049 1.1650001 1.1946865e-38
-0.061023813 0.025519049 1.1650001 1.1853615e-38
-0.093039051 0.028023811 1.177 1.1208242e-38
-0.07236667 0.027833333 1.169 9.8310616e-39
-0.069900006 0.027738096 1.1650001 1.0289522e-38
-0.067680955 0.027738096 1.1650001 1.0566104e-38
-0.065461911 0.027738096 1.1650001 1.1302233e-38
-0.06324286 0.027738096 1.1650001 1.1302233e-38
-0.061023813 0.027738096 1.1650001 1.166922e-38
-0.07236667 0.030060001 1.169 1.3623599e-38
-0.069900006 0.029957144 1.1650001 1.2605519e-38
-0.067680955 0.029957144 1.1650001 9.4708943e-39
-0.065461911 0.029957144 1.1650001 1.1212948e-38
-0.06324286 0.029957144 1.1650001 1.1489535e-38
-0.061023813 0.029957144 1.1650001 1.1948342e-38
-0.07236667 0.032286666 1.169 1.4178981e-38
-0.069900006 0.032176193 1.1650001 1.3164463e-38
-0.067680955 0.032176193 1.1650001 1.0214203e-38
-0.065461911 0.032176193 1.1650001 1.0478583e-38
-0.06324286 0.032176193 1.1650001 1.1031757e-38
-0.061023813 0.032176193 1.1650001 1.1856863e-38
-0.07236667 0.034513336 1.169 1.4364076e-38
-0.065461911 0.03439524 1.1650001 1.2147437e-38
-0.06324286 0.03439524 1.1650001 1.104109e-38
-0.061023813 0.03439524 1.1650001 1.1770069e-38
-0.065461911 0.036614288 1.1650001 1.3164814e-38
-0.06324286 0.036614288 1.1650001 1.2427249e-38
-0.061023813 0.036614288 1.1650001 1.1592847e-38
-0.070140004 0.038966667 1.169 1.3164463e-38
-0.065461911 0.038833335 1.1650001 1.3164448e-38
-0.06324286 0.038833335 1.1650001 1.5192752e-38
-0.061023813 0.038833335 1.1650001 1.3442454e-38
-0.065461911 0.041052382 1.1650001 1.3254088e-38
-0.06324286 0.041052382 1.1650001 1.5098e-38
-0.061023813 0.041052382 1.1650001 1.3810183e-38
-0.065461911 0.04327143 1.1650001 1.4639522e-38
-0.06324286 0.04327143 1.1650001 1.4086348e-38
-0.061023813 0.04327143 1.1650001 1.3992757e-38
-0.07038001 0.048037145 1.1730001 1.5380324e-38
-0.067913331 0.047873333 1.169 1.3812998e-38
-0.065686665 0.050099999 1.169 1.3164784e-38
-0.06346 0.050099999 1.169 1.2980393e-38
-0.065911435 0.054740004 1.1730001 1.3254832e-38
-0.065911435 0.056974292 1.1730001 1.5100887e-38
-0.093671434 0.077871434 1.1850001 1.2036907e-38
-0.064111434 0.097854294 1.1810001 2.2943237e-38
-0.094303817 0.10112096 1.1930001 1.5553202e-38
-0.094303817 0.10339334 1.1930001 1.7588797e-38
-0.094303817 0.10566572 1.1930001 1.7315827e-38
-0.092031434 0.11248287 1.1930001 1.4552077e-38
-0.092031434 0.11475525 1.1930001 1.5381089e-38
-0.064328574 0.11624286 1.1850001 1.2705226e-38
-0.062071431 0.1185 1.1850001 1.288173e-38
-0.062071431 0.12075715 1.1850001 1.2054126e-38
-0.062071431 0.12301429 1.1850001 1.1222943e-38
-0.09234 0.12654001 1.197 1.0473198e-38
-0.09234 0.12882 1.197 1.1301864e-38
-0.069307618 0.12838952 1.1930001 1.1784718e-38
-0.067035235 0.12838952 1.1930001 1.223995e-38
-0.09234 0.1311 1.197 1.9884003e-38
-0.069307618 0.1306619 1.1930001 1.6108615e-38
-0.067035235 0.1306619 1.1930001 1.5378903e-38
-0.09234 0.13338 1.197 1.9340218e-38
-0.069307618 0.13293429 1.1930001 1.6292953e-38
-0.067035235 0.13293429 1.1930001 1.6207257e-38
-0.062280957 0.13248858 1.189 1.6113638e-38
-0.069307618 0.13520667 1.1930001 1.3161211e-38
-0.067035235 0.13520667 1.1930001 1.389768e-38
-0.062280957 0.13475333 1.189 1.3531386e-38
-0.09234 0.13794 1.197 1.6675485e-38
-0.069307618 0.13747905 1.1930001 1.2887514e-38
-0.067035235 0.13747905 1.1930001 1.3253387e-38
-0.062280957 0.1370181 1.189 1.3071133e-38
-0.09234 0.14022 1.197 1.529635e-38
-0.067035235 0.13975143 1.1930001 1.2333579e-38
-0.062280957 0.13928285 1.189 1.3161191e-38
-0.046583813 0.13975143 1.1930001 1.2797491e-38
-0.044162858 0.13928285 1.189 1.2613075e-38
-0.041757144 0.13881429 1.1850001 1.270527e-38
-0.094303817 0.14202382 1.1930001 1.4832569e-38
-0.09234 0.1425 1.197 1.5754525e-38
-0.067035235 0.14202382 1.1930001 1.0483955e-38
-0.046427619 0.14154762 1.189 1.2981504e-38
-0.044162858 0.14154762 1.189 1.2704199e-38
-0.041757144 0.14107144 1.1850001 1.2335416e-38
-0.094303817 0.1442962 1.1930001 1.5481216e-38
-0.067035235 0.1442962 1.1930001 9.8346489e-39
-0.064762861 0.1442962 1.1930001 9.3736778e-39
-0.062490482 0.1442962 1.1930001 1.0570073e-38
-0.048856195 0.1442962 1.1930001 1.2519094e-38
-0.067035235 0.14656857 1.1930001 9.9290096e-39
-0.064762861 0.14656857 1.1930001 8.8226648e-39
-0.062490482 0.14656857 1.1930001 9.0041834e-39
-0.0602181 0.14656857 1.1930001 9.7417442e-39
-0.048856195 0.14656857 1.1930001 1.2056321e-38
-0.064762861 0.14884095 1.1930001 1.0755546e-38
-0.062490482 0.14884095 1.1930001 1.0385355e-38
-0.0602181 0.14884095 1.1930001 9.9243769e-39
-0.048856195 0.14884095 1.1930001 1.0855308e-38
-0.069539994 0.15162 1.197 1.2224549e-38
-0.064762861 0.15111333 1.1930001 1.1766472e-38
-0.062490482 0.15111333 1.1930001 1.1031078e-38
-0.0602181 0.15111333 1.1930001 1.1123273e-38
-0.048856195 0.15111333 1.1930001 1.0395004e-38
-0.064762861 0.15338571 1.1930001 1.148773e-38
-0.062490482 0.15338571 1.1930001 1.13959e-38
-0.0602181 0.15338571 1.1930001 1.1303704e-38
-0.092725717 0.15683238 1.202 1.5210031e-38
-0.064762861 0.1556581 1.1930001 1.1577409e-38
-0.062490482 0.1556581 1.1930001 1.1486634e-38
-0.0602181 0.1556581 1.1930001 1.1486634e-38
-0.064762861 0.15793048 1.1930001 1.1398418e-38
-0.062490482 0.15793048 1.1930001 1.1767554e-38
-0.0602181 0.15793048 1.1930001 1.3150488e-38
