# .PCD v0.7 - Point Cloud Data file format
VERSION 0.7
FIELDS x y z rgb
SIZE 4 4 4 4
TYPE F F F F
COUNT 1 1 1 1
WIDTH 307
HEIGHT 1
VIEWPOINT 0 0 0 1 0 0 0
POINTS 307
DATA ascii
-0.072092384 -0.10386191 1.2830001 1.6957853e-38
-0.072092384 -0.1014181 1.2830001 1.889181e-38
-0.074536197 -0.098974295 1.2830001 1.3447961e-38
-0.072092384 -0.098974295 1.2830001 1.3077384e-38
-0.069648571 -0.098974295 1.2830001 1.2155428e-38
-0.06256 -0.099360012 1.2880001 1.0589875e-38
-0.074536197 -0.096530482 1.2830001 9.2923086e-39
-0.069377147 -0.096154287 1.2780001 9.6610841e-39
-0.071811438 -0.093720004 1.2780001 7.9932755e-39
-0.069377147 -0.093720004 1.2780001 8.3620524e-39
-0.066942863 -0.093720004 1.2780001 9.1886069e-39
-0.064760961 -0.094086677 1.2830001 9.3729982e-39
-0.071811438 -0.09128572 1.2780001 9.4633609e-39
-0.069377147 -0.09128572 1.2780001 9.5555551e-39
-0.066942863 -0.09128572 1.2780001 9.6484668e-39
-0.064760961 -0.091642864 1.2830001 1.0570411e-38
-0.062317148 -0.091642864 1.2830001 1.075982e-38
-0.023125716 -0.09128572 1.2780001 1.168435e-38
-0.071811438 -0.088851437 1.2780001 1.3446737e-38
-0.069377147 -0.088851437 1.2780001 1.3446737e-38
-0.066942863 -0.088851437 1.2780001 1.3631831e-38
-0.062317148 -0.089199059 1.2830001 1.3908414e-38
-0.027775237 -0.088156193 1.268 1.1868735e-38
-0.069377147 -0.086417146 1.2780001 1.4835443e-38
-0.066942863 -0.086417146 1.2780001 1.5387511e-38
-0.06450858 -0.086417146 1.2780001 1.6125076e-38
-0.062074292 -0.086417146 1.2780001 1.5200673e-38
-0.059640005 -0.086417146 1.2780001 9.4845443e-39
-0.057205718 -0.086417146 1.2780001 1.0110167e-38
-0.054771435 -0.086417146 1.2780001 1.1954079e-38
-0.071811438 -0.083982863 1.2780001 1.4558079e-38
-0.066942863 -0.083982863 1.2780001 1.5388185e-38
-0.06450858 -0.083982863 1.2780001 1.6678905e-38
-0.062074292 -0.083982863 1.2780001 1.5754499e-38
-0.059640005 -0.083982863 1.2780001 1.0314992e-38
-0.057205718 -0.083982863 1.2780001 9.9257852e-39
-0.054771435 -0.083982863 1.2780001 1.0755546e-38
-0.069648571 -0.08186762 1.2830001 1.4278626e-38
-0.067204766 -0.08186762 1.2830001 1.4555209e-38
-0.06450858 -0.081548579 1.2780001 1.6767877e-38
-0.062074292 -0.081548579 1.2780001 1.6031488e-38
-0.059640005 -0.081548579 1.2780001 9.1168254e-39
-0.057205718 -0.081548579 1.2780001 9.6484724e-39
-0.054771435 -0.081548579 1.2780001 1.0017255e-38
-0.052337147 -0.081548579 1.2780001 1.0293842e-38
-0.047282856 -0.081229523 1.273 1.1033586e-38
-0.06450858 -0.079114296 1.2780001 1.5015104e-38
-0.062074292 -0.079114296 1.2780001 1.4278985e-38
-0.059640005 -0.079114296 1.2780001 8.4707483e-39
-0.057205718 -0.079114296 1.2780001 9.1878544e-39
-0.054771435 -0.079114296 1.2780001 9.4644413e-39
-0.052337147 -0.079114296 1.2780001 1.0014374e-38
-0.049902864 -0.079114296 1.2780001 1.0198762e-38
-0.047282856 -0.078804761 1.273 1.0384614e-38
-0.044858098 -0.078804761 1.273 1.0108027e-38
-0.064760961 -0.07698001 1.2830001 1.2524425e-38
-0.062074292 -0.076680005 1.2780001 1.2156006e-38
-0.059640005 -0.076680005 1.2780001 8.6526257e-39
-0.057205718 -0.076680005 1.2780001 9.740661e-39
-0.054771435 -0.076680005 1.2780001 1.0201632e-38
-0.052337147 -0.076680005 1.2780001 1.0108003e-38
-0.049902864 -0.076680005 1.2780001 1.0384586e-38
-0.047282856 -0.07638 1.273 1.0845198e-38
-0.044858098 -0.07638 1.273 1.0753004e-38
-0.062317148 -0.074536197 1.2830001 1.2985396e-38
-0.059640005 -0.074245721 1.2780001 1.2985396e-38
-0.057205718 -0.074245721 1.2780001 1.3168349e-38
-0.054771435 -0.074245721 1.2780001 1.362932e-38
-0.052337147 -0.074245721 1.2780001 1.3811915e-38
-0.049902864 -0.074245721 1.2780001 1.4365083e-38
-0.047282856 -0.073955238 1.273 1.408888e-38
-0.044858098 -0.073955238 1.273 1.408888e-38
-0.042433333 -0.073955238 1.273 1.3812633e-38
-0.057205718 -0.071811438 1.2780001 1.3626874e-38
-0.054771435 -0.071811438 1.2780001 1.3719069e-38
-0.052337147 -0.071811438 1.2780001 1.3811268e-38
-0.049902864 -0.071811438 1.2780001 1.4087855e-38
-0.047282856 -0.071530476 1.273 1.4087514e-38
-0.044858098 -0.071530476 1.273 1.3810927e-38
-0.042433333 -0.071530476 1.273 1.3718704e-38
-0.040008571 -0.071530476 1.273 1.399529e-38
-0.062074292 -0.069377147 1.2780001 9.0953014e-39
-0.054771435 -0.069377147 1.2780001 9.3708079e-39
-0.052337147 -0.069377147 1.2780001 9.3711667e-39
-0.049902864 -0.069377147 1.2780001 9.3711667e-39
-0.044858098 -0.069105707 1.273 9.2782578e-39
-0.042433333 -0.069105707 1.273 9.4626434e-39
-0.040008571 -0.069105707 1.273 9.5548377e-39
-0.037583809 -0.069105707 1.273 9.7392261e-39
-0.052337147 -0.066942863 1.2780001 8.4520942e-39
-0.049902864 -0.066942863 1.2780001 8.4520942e-39
-0.047468573 -0.066942863 1.2780001 8.727242e-39
-0.045034289 -0.066942863 1.2780001 8.8194362e-39
-0.042600002 -0.066942863 1.2780001 9.0949427e-39
-0.037583809 -0.066680953 1.273 9.0949427e-39
-0.035159048 -0.066680953 1.273 9.1871369e-39
-0.059873335 -0.064760961 1.2830001 1.1499949e-38
-0.049902864 -0.06450858 1.2780001 9.2891066e-39
-0.047468573 -0.06450858 1.2780001 1.0669893e-38
-0.045034289 -0.06450858 1.2780001 1.3620153e-38
-0.042600002 -0.06450858 1.2780001 1.2706034e-38
-0.040165719 -0.06450858 1.2780001 1.2521643e-38
-0.037583809 -0.064256191 1.273 1.2982599e-38
-0.035159048 -0.064256191 1.273 1.3259186e-38
-0.047468573 -0.062074292 1.2780001 1.2892642e-38
-0.045034289 -0.062074292 1.2780001 1.4367772e-38
-0.042600002 -0.062074292 1.2780001 1.4370987e-38
-0.040165719 -0.062074292 1.2780001 1.4186596e-38
-0.037583809 -0.061831426 1.273 1.4555015e-38
-0.035159048 -0.061831426 1.273 1.4278428e-38
-0.032734282 -0.061831426 1.273 1.3078087e-38
-0.047468573 -0.059640005 1.2780001 1.5115051e-38
-0.045034289 -0.059640005 1.2780001 1.8802876e-38
-0.042600002 -0.059640005 1.2780001 1.8986163e-38
-0.040165719 -0.059640005 1.2780001 1.9078359e-38
-0.037731431 -0.059640005 1.2780001 1.9079791e-38
-0.035159048 -0.059406664 1.273 1.9171987e-38
-0.032734282 -0.059406664 1.273 1.5571023e-38
-0.030309524 -0.059406664 1.273 1.4464675e-38
-0.045034289 -0.057205718 1.2780001 1.8344409e-38
-0.042600002 -0.057205718 1.2780001 1.7424255e-38
-0.040165719 -0.057205718 1.2780001 1.5856929e-38
-0.037731431 -0.057205718 1.2780001 1.5579617e-38
-0.035159048 -0.056981906 1.273 1.5579617e-38
-0.032734282 -0.056981906 1.273 1.2814802e-38
-0.030309524 -0.056981906 1.273 1.2722606e-38
-0.027884761 -0.056981906 1.273 1.6960406e-38
-0.042600002 -0.054771435 1.2780001 1.7606469e-38
-0.040165719 -0.054771435 1.2780001 4.5146894e-39
-0.037731431 -0.054771435 1.2780001 2.1129339e-39
-0.035159048 -0.054557141 1.273 2.5739092e-39
-0.032734282 -0.054557141 1.273 2.6639469e-39
-0.030309524 -0.054557141 1.273 1.3819615e-38
-0.027884761 -0.054557141 1.273 1.7421352e-38
-0.047654286 -0.052541912 1.2830001 1.3736761e-38
-0.040165719 -0.052337147 1.2780001 4.5139887e-39
-0.037731431 -0.052337147 1.2780001 3.4908251e-39
-0.035159048 -0.052132379 1.273 4.0439946e-39
-0.032734282 -0.052132379 1.273 3.6748548e-39
-0.030309524 -0.052132379 1.273 1.483052e-38
-0.027884761 -0.052132379 1.273 1.7697583e-38
-0.025459999 -0.052132379 1.273 1.9172713e-38
-0.037731431 -0.049902864 1.2780001 2.6639469e-39
-0.035297148 -0.049902864 1.2780001 4.0468785e-39
-0.032734282 -0.049707618 1.273 5.052746e-39
-0.030309524 -0.049707618 1.273 1.5655236e-38
-0.027884761 -0.049707618 1.273 1.7879816e-38
-0.025459999 -0.049707618 1.273 1.9723729e-38
-0.035297148 -0.047468573 1.2780001 7.2600293e-39
-0.032734282 -0.047282856 1.273 6.1551306e-39
-0.030309524 -0.047282856 1.273 1.5835665e-38
-0.027884761 -0.047282856 1.273 1.7144049e-38
-0.025459999 -0.047282856 1.273 1.8987961e-38
-0.013440953 -0.047654286 1.2830001 9.9215e-39
-0.010997144 -0.047654286 1.2830001 9.183935e-39
-0.042766668 -0.045210481 1.2830001 1.8160719e-38
-0.032734282 -0.044858098 1.273 1.3448581e-38
-0.030309524 -0.044858098 1.273 1.4647124e-38
-0.027884761 -0.044858098 1.273 1.7142607e-38
-0.025459999 -0.044858098 1.273 1.9355302e-38
-0.023125716 -0.045034289 1.2780001 1.7977056e-38
-0.040322863 -0.042766668 1.2830001 1.7882715e-38
-0.030309524 -0.042433333 1.273 1.4647827e-38
-0.027884761 -0.042433333 1.273 1.6591235e-38
-0.025459999 -0.042433333 1.273 1.8527343e-38
-0.023125716 -0.042600002 1.2780001 1.8251501e-38
-0.02069143 -0.042600002 1.2780001 1.8343696e-38
-0.030309524 -0.040008571 1.273 1.3729847e-38
-0.027884761 -0.040008571 1.273 1.7050048e-38
-0.025459999 -0.040008571 1.273 1.9262743e-38
-0.023125716 -0.040165719 1.2780001 1.7883419e-38
-0.02069143 -0.040165719 1.2780001 1.5209745e-38
-0.027884761 -0.037583809 1.273 1.6222099e-38
-0.025459999 -0.037583809 1.273 1.8803577e-38
-0.023125716 -0.037731431 1.2780001 1.7424255e-38
-0.02069143 -0.037731431 1.2780001 1.0970561e-38
-0.018257145 -0.037731431 1.2780001 1.1152068e-38
-0.027884761 -0.035159048 1.273 1.7049339e-38
-0.023125716 -0.035297148 1.2780001 1.8435867e-38
-0.02069143 -0.035297148 1.2780001 4.9753046e-39
-0.018257145 -0.035297148 1.2780001 3.2153186e-39
-0.015822859 -0.035297148 1.2780001 4.2294677e-39
-0.027884761 -0.032734282 1.273 1.6313582e-38
-0.023125716 -0.032862861 1.2780001 1.8803592e-38
-0.02069143 -0.032862861 1.2780001 5.9883999e-39
-0.018257145 -0.032862861 1.2780001 6.5224726e-39
-0.015822859 -0.032862861 1.2780001 7.7210074e-39
-0.013388573 -0.032862861 1.2780001 8.2680645e-39
-0.02069143 -0.030428573 1.2780001 5.2529803e-39
-0.018257145 -0.030428573 1.2780001 4.5932097e-39
-0.015822859 -0.030428573 1.2780001 5.8839444e-39
-0.013388573 -0.030428573 1.2780001 7.3497096e-39
-0.010954286 -0.030428573 1.2780001 1.352681e-38
-0.030428573 -0.027994288 1.2780001 1.4639621e-38
-0.018257145 -0.027994288 1.2780001 1.0853111e-38
-0.015822859 -0.027994288 1.2780001 1.2881415e-38
-0.013388573 -0.027994288 1.2780001 1.095182e-38
-0.010954286 -0.027994288 1.2780001 1.2611341e-38
-0.015822859 -0.025560003 1.2780001 1.9357833e-38
-0.013388573 -0.025560003 1.2780001 1.8341498e-38
-0.010997144 -0.023216194 1.2830001 1.5671459e-38
-0.0085533345 -0.023216194 1.2830001 1.631791e-38
0.030547623 -0.023216194 1.2830001 8.727242e-39
-0.0085533345 -0.020772383 1.2830001 1.253104e-38
-0.0061095241 -0.020772383 1.2830001 1.3360801e-38
-0.0061095241 -0.018328572 1.2830001 6.9841612e-39
-0.0061095241 -0.015884763 1.2830001 8.4520942e-39
-0.0036657148 -0.015884763 1.2830001 9.1046439e-39
-0.0012219049 -0.013440953 1.2830001 1.7944622e-38
0.0012219049 -0.010997144 1.2830001 1.4275756e-38
0.0012219049 -0.0085533345 1.2830001 1.4091368e-38
0.0036657148 -0.0085533345 1.2830001 1.3906979e-38
0.0036657148 -0.0061095241 1.2830001 1.5750539e-38
0.0061095241 -0.0036657148 1.2830001 1.5006574e-38
0.0085533345 -0.0012219049 1.2830001 1.1212556e-38
0.010997144 0.0012219049 1.2830001 1.1304401e-38
0.010997144 0.0036657148 1.2830001 1.1952295e-38
0.013440953 0.0036657148 1.2830001 1.18601e-38
0.015946668 0.0085866675 1.2880001 1.1581021e-38
0.0184 0.011040001 1.2880001 1.5272025e-38
0.020853335 0.013493334 1.2880001 1.3995234e-38
0.025760002 0.020853335 1.2880001 1.6301927e-38
0.028213335 0.023306668 1.2880001 1.6028164e-38
0.03066667 0.025760002 1.2880001 1.5101945e-38
0.033119999 0.028213335 1.2880001 1.371794e-38
0.035573337 0.03066667 1.2880001 1.2702396e-38
0.035573337 0.033119999 1.2880001 1.2978986e-38
0.038026668 0.033119999 1.2880001 1.2610204e-38
0.050644763 0.033351429 1.2970001 1.3165479e-38
0.038026668 0.035573337 1.2880001 1.2795678e-38
0.050644763 0.035821907 1.2970001 1.168863e-38
0.058056194 0.038292382 1.2970001 1.0850976e-38
0.043066666 0.040605716 1.2920001 9.8443669e-39
0.045527618 0.040605716 1.2920001 1.1217597e-38
0.048174284 0.04076286 1.2970001 1.1862967e-38
0.058056194 0.04076286 1.2970001 1.1493115e-38
0.043066666 0.043066666 1.2920001 1.1126851e-38
0.045527618 0.043066666 1.2920001 1.1767914e-38
0.048174284 0.043233335 1.2970001 1.2228892e-38
0.050644763 0.043233335 1.2970001 1.2137047e-38
0.060293335 0.043066666 1.2920001 9.8389817e-39
0.045527618 0.045527618 1.2920001 1.2137047e-38
0.048174284 0.04570381 1.2970001 1.2229242e-38
0.050644763 0.04570381 1.2970001 1.2228166e-38
0.053115241 0.04570381 1.2970001 1.2320362e-38
0.045527618 0.047988571 1.2920001 1.2137754e-38
0.048174284 0.048174284 1.2970001 1.2045559e-38
0.050644763 0.048174284 1.2970001 1.2228166e-38
0.053115241 0.048174284 1.2970001 1.2320362e-38
0.055585716 0.048174284 1.2970001 1.222995e-38
0.070408568 0.048174284 1.2970001 1.1426088e-38
0.048174284 0.050644763 1.2970001 1.2319992e-38
0.050644763 0.050644763 1.2970001 1.2228166e-38
0.053115241 0.050644763 1.2970001 1.2320362e-38
0.055585716 0.050644763 1.2970001 1.2229961e-38
0.058056194 0.050644763 1.2970001 1.1953374e-38
0.048174284 0.053115241 1.2970001 1.1578464e-38
0.050644763 0.053115241 1.2970001 1.1671388e-38
0.053115241 0.053115241 1.2970001 1.2408953e-38
0.055585716 0.053115241 1.2970001 1.2136336e-38
0.058056194 0.053115241 1.2970001 1.1306576e-38
0.060526669 0.053115241 1.2970001 9.9290194e-39
0.048174284 0.055585716 1.2970001 1.1026048e-38
0.050644763 0.055585716 1.2970001 1.11175e-38
0.053115241 0.055585716 1.2970001 1.1762869e-38
0.055585716 0.055585716 1.2970001 1.1764667e-38
0.058056194 0.055585716 1.2970001 1.1395885e-38
0.060526669 0.055585716 1.2970001 9.6520541e-39
0.062997147 0.055585716 1.2970001 1.4354021e-38
0.050644763 0.058056194 1.2970001 1.5284262e-38
0.053115241 0.058056194 1.2970001 1.2887176e-38
0.055585716 0.058056194 1.2970001 1.2879642e-38
0.060526669 0.058056194 1.2970001 1.0302458e-38
0.062997147 0.058056194 1.2970001 1.3252719e-38
0.065467626 0.058056194 1.2970001 1.1885636e-38
0.050840002 0.060760003 1.302 1.648536e-38
0.053319998 0.060760003 1.302 1.3811687e-38
0.055800002 0.060760003 1.302 1.4638198e-38
0.062997147 0.060526669 1.2970001 1.1689799e-38
0.065467626 0.060526669 1.2970001 1.1883838e-38
0.050840002 0.063239999 1.302 1.4179347e-38
0.053319998 0.063239999 1.302 1.1966652e-38
0.055800002 0.063239999 1.302 1.3901001e-38
0.058279999 0.063239999 1.302 1.8971761e-38
0.062997147 0.062997147 1.2970001 1.2338444e-38
0.065467626 0.062997147 1.2970001 1.1425018e-38
0.053319998 0.065720007 1.302 1.0676636e-38
0.055800002 0.065720007 1.302 1.1510665e-38
0.058279999 0.065720007 1.302 1.6765816e-38
0.060760003 0.065720007 1.302 1.2897373e-38
0.053319998 0.0682 1.302 9.2047429e-39
0.055800002 0.0682 1.302 1.1231194e-38
0.058279999 0.0682 1.302 1.7684873e-38
0.055800002 0.07068 1.302 1.104286e-38
0.058279999 0.07068 1.302 1.5376042e-38
0.062997147 0.070408568 1.2970001 1.2339099e-38
0.04570381 0.072879046 1.2970001 1.4925275e-38
0.062997147 0.072879046 1.2970001 1.2974702e-38
0.065467626 0.072879046 1.2970001 1.1794163e-38
0.067938097 0.072879046 1.2970001 1.1886359e-38
0.065467626 0.075349525 1.2970001 1.2070387e-38
0.067938097 0.075349525 1.2970001 1.2070387e-38
0.062997147 0.077820003 1.2970001 1.3804473e-38
0.065467626 0.077820003 1.2970001 1.2438091e-38
0.067938097 0.077820003 1.2970001 1.2161504e-38
0.070408568 0.077820003 1.2970001 1.1979262e-38
0.067676194 0.10459048 1.2920001 1.3910349e-38
