# .PCD v0.7 - Point Cloud Data file format
VERSION 0.7
FIELDS x y z rgb
SIZE 4 4 4 4
TYPE F F F F
COUNT 1 1 1 1
WIDTH 659
HEIGHT 1
VIEWPOINT 0 0 0 1 0 0 0
POINTS 659
DATA ascii
-0.15479811 -0.0076971436 0.89800006 1.1040377e-38
-0.15359905 -0.0077228574 0.90100002 1.1132222e-38
-0.17322667 0.0059733335 0.89600003 1.788452e-38
-0.17190287 0.0059866668 0.89800006 1.8253303e-38
-0.17019239 0.0059866668 0.89800006 1.9447893e-38
-0.17152001 0.0076800003 0.89600003 1.8898669e-38
-0.17019239 0.0076971436 0.89800006 1.9172388e-38
-0.17152001 0.0093866661 0.89600003 1.936e-38
-0.1684819 0.009407619 0.89800006 1.0689311e-38
-0.17190287 0.011118095 0.89800006 1.8528801e-38
-0.1684819 0.011118095 0.89800006 1.0874062e-38
-0.16677144 0.011118095 0.89800006 8.63508e-39
-0.17361334 0.012828573 0.89800006 1.5671462e-38
-0.17190287 0.012828573 0.89800006 1.6409027e-38
-0.17019239 0.012828573 0.89800006 1.7880917e-38
-0.1684819 0.012828573 0.89800006 1.1335028e-38
-0.16677144 0.012828573 0.89800006 8.7269379e-39
-0.16506097 0.012828573 0.89800006 8.7269379e-39
-0.17361334 0.014539048 0.89800006 1.5579629e-38
-0.17190287 0.014539048 0.89800006 1.6317194e-38
-0.17019239 0.014539048 0.89800006 1.8157517e-38
-0.1684819 0.014539048 0.89800006 1.1519431e-38
-0.16677144 0.014539048 0.89800006 9.003117e-39
-0.16506097 0.014539048 0.89800006 9.2797039e-39
-0.17361334 0.016249524 0.89800006 1.5856216e-38
-0.17190287 0.016249524 0.89800006 1.6501586e-38
-0.17019239 0.016249524 0.89800006 1.778874e-38
-0.1684819 0.016249524 0.89800006 1.3086763e-38
-0.16677144 0.016249524 0.89800006 1.0484416e-38
-0.16335048 0.016249524 0.89800006 1.3067187e-38
-0.17190287 0.017960001 0.89800006 1.6133522e-38
-0.17019239 0.017960001 0.89800006 1.7329194e-38
-0.1684819 0.017960001 0.89800006 1.2811608e-38
-0.16677144 0.017960001 0.89800006 1.2982246e-38
-0.16561238 0.01802 0.90100002 1.3904202e-38
-0.16335048 0.017960001 0.89800006 1.4823224e-38
-0.16164002 0.017960001 0.89800006 1.5099811e-38
-0.17019239 0.019670477 0.89800006 1.7235551e-38
-0.1684819 0.019670477 0.89800006 1.3916508e-38
-0.16677144 0.019670477 0.89800006 1.3721963e-38
-0.16506097 0.019670477 0.89800006 1.4643919e-38
-0.16335048 0.019670477 0.89800006 1.5287023e-38
-0.16164002 0.019670477 0.89800006 1.5563608e-38
-0.15992953 0.019670477 0.89800006 1.5378156e-38
-0.17190287 0.021380953 0.89800006 1.5855497e-38
-0.17019239 0.021380953 0.89800006 1.7142636e-38
-0.1684819 0.021380953 0.89800006 1.2901637e-38
-0.16677144 0.021380953 0.89800006 1.4181512e-38
-0.16506097 0.021380953 0.89800006 1.3997121e-38
-0.16335048 0.021380953 0.89800006 1.4270808e-38
-0.16164002 0.021380953 0.89800006 1.4363004e-38
-0.15992953 0.021380953 0.89800006 1.4361555e-38
-0.16981333 0.02304 0.89600003 1.6589818e-38
-0.1684819 0.02309143 0.89800006 1.2441015e-38
-0.16677144 0.02309143 0.89800006 1.3074444e-38
-0.16506097 0.02309143 0.89800006 6.9895422e-39
-0.16335048 0.02309143 0.89800006 1.0105492e-38
-0.16164002 0.02309143 0.89800006 1.0382075e-38
-0.15992953 0.02309143 0.89800006 1.0564669e-38
-0.15821905 0.02309143 0.89800006 1.0472475e-38
-0.15650858 0.02309143 0.89800006 1.0656864e-38
-0.1684819 0.024801906 0.89800006 1.2533574e-38
-0.16677144 0.024801906 0.89800006 1.2887565e-38
-0.16506097 0.024801906 0.89800006 7.1714364e-39
-0.16335048 0.024801906 0.89800006 1.0197327e-38
-0.16164002 0.024801906 0.89800006 1.047391e-38
-0.15992953 0.024801906 0.89800006 1.0656505e-38
-0.15821905 0.024801906 0.89800006 1.0656505e-38
-0.15650858 0.024801906 0.89800006 1.0748699e-38
-0.17019239 0.026512383 0.89800006 1.5944812e-38
-0.1684819 0.026512383 0.89800006 1.2441378e-38
-0.16677144 0.026512383 0.89800006 1.3072335e-38
-0.16506097 0.026512383 0.89800006 7.2640103e-39
-0.16335048 0.026512383 0.89800006 1.0564669e-38
-0.16164002 0.026512383 0.89800006 1.1117836e-38
-0.15992953 0.026512383 0.89800006 1.1484476e-38
-0.15821905 0.026512383 0.89800006 1.1207889e-38
-0.15650858 0.026512383 0.89800006 1.0380998e-38
-0.15479811 0.026512383 0.89800006 1.0565387e-38
-0.17019239 0.028222859 0.89800006 1.5116133e-38
-0.1684819 0.028222859 0.89800006 1.2258069e-38
-0.16677144 0.028222859 0.89800006 1.2796844e-38
-0.16506097 0.028222859 0.89800006 6.804128e-39
-0.16335048 0.028222859 0.89800006 1.0472834e-38
-0.16164002 0.028222859 0.89800006 1.1118193e-38
-0.15992953 0.028222859 0.89800006 1.1393359e-38
-0.15821905 0.028222859 0.89800006 1.074799e-38
-0.15650858 0.028222859 0.89800006 9.0949427e-39
-0.15479811 0.028222859 0.89800006 1.5733018e-38
-0.15308762 0.028222859 0.89800006 1.391399e-38
-0.1684819 0.029933335 0.89800006 1.2811608e-38
-0.16677144 0.029933335 0.89800006 1.3075594e-38
-0.16506097 0.029933335 0.89800006 6.5297047e-39
-0.15650858 0.029933335 0.89800006 7.9003638e-39
-0.15479811 0.029933335 0.89800006 1.96092e-38
-0.15308762 0.029933335 0.89800006 1.8157517e-38
-0.15137716 0.029933335 0.89800006 2.1015581e-38
-0.1684819 0.031643812 0.89800006 1.2813042e-38
-0.15137716 0.031643812 0.89800006 1.8903001e-38
-0.16389619 0.033465713 0.90100002 1.0656505e-38
-0.16218001 0.033465713 0.90100002 1.1301864e-38
-0.16046381 0.033465713 0.90100002 1.1208594e-38
-0.15874761 0.033465713 0.90100002 1.0563234e-38
-0.15703143 0.033465713 0.90100002 7.9011275e-39
-0.15137716 0.03335429 0.89800006 1.9360363e-38
-0.14966667 0.03335429 0.89800006 1.954512e-38
-0.16561238 0.035181906 0.90100002 6.1634179e-39
-0.16389619 0.035181906 0.90100002 1.0656505e-38
-0.16218001 0.035181906 0.90100002 1.120967e-38
-0.16046381 0.035181906 0.90100002 1.093237e-38
-0.15874761 0.035181906 0.90100002 1.0563593e-38
-0.15703143 0.035181906 0.90100002 9.3827372e-39
-0.15531525 0.035181906 0.90100002 2.2843299e-38
-0.14966667 0.035064761 0.89800006 1.9545836e-38
-0.14795619 0.035064761 0.89800006 1.5120446e-38
-0.16770001 0.036980003 0.90300006 1.2985145e-38
-0.16561238 0.036898095 0.90100002 6.5314507e-39
-0.16389619 0.036898095 0.90100002 1.0656505e-38
-0.16218001 0.036898095 0.90100002 1.1117476e-38
-0.16046381 0.036898095 0.90100002 1.0656505e-38
-0.15874761 0.036898095 0.90100002 1.0472116e-38
-0.15703143 0.036898095 0.90100002 1.1232768e-38
-0.15531525 0.036898095 0.90100002 2.2111852e-38
-0.14966667 0.036775239 0.89800006 1.9822058e-38
-0.14795619 0.036775239 0.89800006 1.3460559e-38
-0.14624573 0.036775239 0.89800006 1.0411607e-38
-0.16770001 0.038700003 0.90300006 1.1970654e-38
-0.16598001 0.038700003 0.90300006 6.438916e-39
-0.16218001 0.038614288 0.90100002 1.1117476e-38
-0.16046381 0.038614288 0.90100002 1.0472834e-38
-0.15874761 0.038614288 0.90100002 1.038064e-38
-0.15703143 0.038614288 0.90100002 1.2617841e-38
-0.15531525 0.038614288 0.90100002 2.1837404e-38
-0.14966667 0.038485717 0.89800006 1.9914975e-38
-0.14795619 0.038485717 0.89800006 1.2723716e-38
-0.14624573 0.038485717 0.89800006 9.023981e-39
-0.14453524 0.038485717 0.89800006 5.4283514e-39
-0.16825713 0.040554285 0.90600002 1.206177e-38
-0.16426 0.04042 0.90300006 1.0932011e-38
-0.16254 0.04042 0.90300006 1.1208594e-38
-0.16046381 0.040330477 0.90100002 1.0472834e-38
-0.15874761 0.040330477 0.90100002 1.0472834e-38
-0.15703143 0.040330477 0.90100002 1.298804e-38
-0.15531525 0.040330477 0.90100002 2.1746625e-38
-0.14966667 0.040196192 0.89800006 2.0098647e-38
-0.14795619 0.040196192 0.89800006 1.244641e-38
-0.14624573 0.040196192 0.89800006 8.4654444e-39
-0.14453524 0.040196192 0.89800006 6.3449449e-39
-0.14282477 0.040196192 0.89800006 1.0840536e-38
-0.16046381 0.04204667 0.90100002 1.0565028e-38
-0.15874761 0.04204667 0.90100002 1.038064e-38
-0.15703143 0.04204667 0.90100002 1.3358255e-38
-0.15531525 0.04204667 0.90100002 2.1563666e-38
-0.15359905 0.04204667 0.90100002 1.9545476e-38
-0.14795619 0.04190667 0.89800006 1.2354214e-38
-0.14624573 0.04190667 0.89800006 8.0909194e-39
-0.14453524 0.04190667 0.89800006 7.5377456e-39
-0.14282477 0.04190667 0.89800006 1.1391908e-38
-0.16561238 0.043762855 0.90100002 6.8069698e-39
-0.16389619 0.043762855 0.90100002 1.0932011e-38
-0.16218001 0.043762855 0.90100002 1.1208594e-38
-0.16046381 0.043762855 0.90100002 1.0656505e-38
-0.15874761 0.043762855 0.90100002 1.0564311e-38
-0.15703143 0.043762855 0.90100002 1.3080938e-38
-0.15531525 0.043762855 0.90100002 2.1839522e-38
-0.15359905 0.043762855 0.90100002 1.9545474e-38
-0.15188286 0.043762855 0.90100002 1.9637669e-38
-0.14453524 0.043617148 0.89800006 7.4455696e-39
-0.14282477 0.043617148 0.89800006 1.1391906e-38
-0.14111429 0.043617148 0.89800006 1.1207518e-38
-0.16770001 0.04558 0.90300006 1.2708572e-38
-0.16598001 0.04558 0.90300006 6.6236604e-39
-0.16426 0.04558 0.90300006 1.0748699e-38
-0.16254 0.04558 0.90300006 1.1209672e-38
-0.16046381 0.045479048 0.90100002 1.0565028e-38
-0.15703143 0.045479048 0.90100002 1.2619964e-38
-0.15531525 0.045479048 0.90100002 2.1655135e-38
-0.15359905 0.045479048 0.90100002 1.9637316e-38
-0.15188286 0.045479048 0.90100002 1.954512e-38
-0.15016666 0.045479048 0.90100002 2.0006099e-38
-0.14282477 0.045327619 0.89800006 1.1207518e-38
-0.14111429 0.045327619 0.89800006 1.1207518e-38
-0.13940382 0.045327619 0.89800006 9.9218209e-39
-0.15910001 0.047300003 0.90300006 1.0655787e-38
-0.15738 0.047300003 0.90300006 1.1972796e-38
-0.15566 0.047300003 0.90300006 2.1837729e-38
-0.15359905 0.047195237 0.90100002 1.9822063e-38
-0.15188286 0.047195237 0.90100002 2.009865e-38
-0.15016666 0.047195237 0.90100002 1.9913903e-38
-0.14845048 0.047195237 0.90100002 1.2722644e-38
-0.14111429 0.047038097 0.89800006 1.1116041e-38
-0.13940382 0.047038097 0.89800006 1.0105492e-38
-0.13769333 0.047038097 0.89800006 1.6190394e-38
-0.12743048 0.047038097 0.89800006 2.0744733e-38
-0.16942 0.049020004 0.90300006 1.2901946e-38
-0.16770001 0.049020004 0.90300006 1.3261393e-38
-0.16135429 0.049182858 0.90600002 1.093237e-38
-0.15910001 0.049020004 0.90300006 1.0655787e-38
-0.15738 0.049020004 0.90300006 1.1234131e-38
-0.15566 0.049020004 0.90300006 2.202102e-38
-0.15394001 0.049020004 0.90300006 1.9821344e-38
-0.15188286 0.04891143 0.90100002 1.991354e-38
-0.15016666 0.04891143 0.90100002 1.9730231e-38
-0.14845048 0.04891143 0.90100002 1.3368732e-38
-0.14673428 0.04891143 0.90100002 1.1601929e-38
-0.13940382 0.048748575 0.89800006 1.0380998e-38
-0.13769333 0.048748575 0.89800006 1.4161008e-38
-0.13598287 0.048748575 0.89800006 1.5664231e-38
-0.12743048 0.048748575 0.89800006 2.0007171e-38
-0.16135429 0.050908573 0.90600002 1.1207518e-38
-0.15910001 0.050740004 0.90300006 1.0838741e-38
-0.15738 0.050740004 0.90300006 1.03975e-38
-0.15566 0.050740004 0.90300006 2.3489633e-38
-0.15394001 0.050740004 0.90300006 2.0281241e-38
-0.15188286 0.050627619 0.90100002 2.0096849e-38
-0.15016666 0.050627619 0.90100002 1.9638395e-38
-0.14845048 0.050627619 0.90100002 1.3922266e-38
-0.14673428 0.050627619 0.90100002 1.2525693e-38
-0.14501809 0.050627619 0.90100002 5.8876073e-39
-0.14330192 0.050627619 0.90100002 1.093237e-38
-0.15962857 0.052634288 0.90600002 1.0746905e-38
-0.15738 0.052460004 0.90300006 9.0056183e-39
-0.15394001 0.052460004 0.90300006 2.0373792e-38
-0.15222001 0.052460004 0.90300006 1.9912814e-38
-0.14845048 0.052343812 0.90100002 1.5583595e-38
-0.14673428 0.052343812 0.90100002 1.3729981e-38
-0.14501809 0.052343812 0.90100002 4.6948095e-39
-0.14330192 0.052343812 0.90100002 1.0472834e-38
-0.14158572 0.052343812 0.90100002 1.1025999e-38
-0.13986953 0.052343812 0.90100002 1.0840176e-38
-0.13815333 0.052343812 0.90100002 1.2868467e-38
-0.16135429 0.054360002 0.90600002 1.1393359e-38
-0.15617715 0.054360002 0.90600002 2.2097038e-38
-0.15445143 0.054360002 0.90600002 2.0649285e-38
-0.15222001 0.054180004 0.90300006 2.0280502e-38
-0.15050001 0.054180004 0.90300006 1.9179212e-38
-0.14878 0.054180004 0.90300006 1.7335299e-38
-0.14330192 0.054060001 0.90100002 9.0949427e-39
-0.14158572 0.054060001 0.90100002 9.9246936e-39
-0.13986953 0.054060001 0.90100002 1.0656505e-38
-0.13815333 0.054060001 0.90100002 1.139406e-38
-0.13643715 0.054060001 0.90100002 1.4833032e-38
-0.13472095 0.054060001 0.90100002 2.2577464e-38
-0.15272571 0.056085713 0.90600002 1.9913878e-38
-0.15050001 0.055900004 0.90300006 1.9271405e-38
-0.14878 0.055900004 0.90300006 1.9179209e-38
-0.14706001 0.055900004 0.90300006 1.5580746e-38
-0.14158572 0.055776194 0.90100002 9.6484668e-39
-0.13986953 0.055776194 0.90100002 1.0380998e-38
-0.13815333 0.055776194 0.90100002 1.1026358e-38
-0.13643715 0.055776194 0.90100002 1.4464605e-38
-0.13472095 0.055776194 0.90100002 2.2485625e-38
-0.13300475 0.055776194 0.90100002 2.0375597e-38
-0.15050001 0.057620004 0.90300006 1.954619e-38
-0.14878 0.057620004 0.90300006 2.0099363e-38
-0.14706001 0.057620004 0.90300006 1.8622108e-38
-0.14534001 0.057620004 0.90300006 7.6508276e-39
-0.13643715 0.057492379 0.90100002 1.3451892e-38
-0.13472095 0.057492379 0.90100002 2.193389e-38
-0.13300475 0.057492379 0.90100002 2.0375597e-38
-0.15445143 0.059537143 0.90600002 1.7138249e-38
-0.15222001 0.059340004 0.90300006 2.1655835e-38
-0.15050001 0.059340004 0.90300006 1.9637669e-38
-0.14878 0.059340004 0.90300006 1.982206e-38
-0.14706001 0.059340004 0.90300006 1.9546568e-38
-0.14534001 0.059340004 0.90300006 1.106457e-38
-0.14362001 0.059340004 0.90300006 1.1410673e-38
-0.1419 0.059340004 0.90300006 1.0212129e-38
-0.13472095 0.059208572 0.90100002 2.2484131e-38
-0.13300475 0.059208572 0.90100002 2.0191209e-38
-0.13128857 0.059208572 0.90100002 2.0467796e-38
-0.12642001 0.059340004 0.90300006 5.052746e-39
-0.16308001 0.061262861 0.90600002 1.0843776e-38
-0.15222001 0.061060004 0.90300006 2.3491838e-38
-0.14927429 0.061262861 0.90600002 2.0003934e-38
-0.14706001 0.061060004 0.90300006 1.9729865e-38
-0.14534001 0.061060004 0.90300006 1.9914256e-38
-0.14362001 0.061060004 0.90300006 1.9912105e-38
-0.1419 0.061060004 0.90300006 1.9912105e-38
-0.14018001 0.061060004 0.90300006 1.9818823e-38
-0.13472095 0.060924761 0.90100002 1.9821347e-38
-0.13300475 0.060924761 0.90100002 2.0374881e-38
-0.13128857 0.060924761 0.90100002 2.0651468e-38
-0.12957239 0.060924761 0.90100002 2.0744382e-38
-0.12785619 0.060924761 0.90100002 1.1432624e-38
-0.12642001 0.061060004 0.90300006 3.3993483e-39
-0.15222001 0.062780008 0.90300006 2.3478855e-38
-0.14706001 0.062780008 0.90300006 1.9729865e-38
-0.14534001 0.062780008 0.90300006 1.9914256e-38
-0.14362001 0.062780008 0.90300006 2.0098294e-38
-0.1419 0.062780008 0.90300006 2.0835859e-38
-0.14018001 0.062780008 0.90300006 2.0926626e-38
-0.13846001 0.062780008 0.90300006 1.4196345e-38
-0.13472095 0.062640958 0.90100002 2.0189339e-38
-0.13300475 0.062640958 0.90100002 2.03756e-38
-0.13128857 0.062640958 0.90100002 2.0744382e-38
-0.12957239 0.062640958 0.90100002 2.0744743e-38
-0.12785619 0.062640958 0.90100002 1.1801766e-38
-0.12642001 0.062780008 0.90300006 5.6037589e-39
-0.15222001 0.064500004 0.90300006 1.6374425e-38
-0.14927429 0.06471429 0.90600002 2.2581297e-38
-0.14534001 0.064500004 0.90300006 2.0833691e-38
-0.14362001 0.064500004 0.90300006 2.0190846e-38
-0.1419 0.064500004 0.90300006 2.1297193e-38
-0.14018001 0.064500004 0.90300006 2.0743303e-38
-0.13846001 0.064500004 0.90300006 1.3828631e-38
-0.13472095 0.064357147 0.90100002 2.0924082e-38
-0.13300475 0.064357147 0.90100002 2.1388304e-38
-0.13128857 0.064357147 0.90100002 2.1757087e-38
-0.12957239 0.064357147 0.90100002 2.166562e-38
-0.12642001 0.064500004 0.90300006 6.6146977e-39
-0.14927429 0.066440001 0.90600002 2.1373076e-38
-0.14706001 0.066220008 0.90300006 2.0281944e-38
-0.14362001 0.066220008 0.90300006 2.0651458e-38
-0.1419 0.066220008 0.90300006 2.1112436e-38
-0.14018001 0.066220008 0.90300006 2.0651118e-38
-0.13846001 0.066220008 0.90300006 1.2814489e-38
-0.13472095 0.066073328 0.90100002 2.221185e-38
-0.13300475 0.066073328 0.90100002 2.1112799e-38
-0.12957239 0.066073328 0.90100002 2.1756739e-38
-0.12642001 0.066220008 0.90300006 9.1940019e-39
-0.14706001 0.067940004 0.90300006 1.1050116e-38
-0.1419 0.067940004 0.90300006 1.6775629e-38
-0.14018001 0.067940004 0.90300006 1.5484209e-38
-0.13846001 0.067940004 0.90300006 5.2504944e-39
-0.12957239 0.067789525 0.90100002 1.7423532e-38
-0.12642001 0.067940004 0.90300006 8.6351669e-39
-0.12470001 0.067940004 0.90300006 8.4507756e-39
-0.14706001 0.069660008 0.90300006 5.9711009e-39
-0.14018001 0.069660008 0.90300006 1.1695566e-38
-0.13846001 0.069660008 0.90300006 4.4121115e-39
-0.13674001 0.069660008 0.90300006 7.7170515e-39
-0.13330001 0.069660008 0.90300006 1.5481303e-38
-0.12957239 0.069505714 0.90100002 1.3641013e-38
-0.12470001 0.069660008 0.90300006 7.63316e-39
-0.14927429 0.071617141 0.90600002 1.1117852e-38
-0.14706001 0.071380004 0.90300006 9.7385086e-39
-0.13846001 0.071380004 0.90300006 6.7979791e-39
-0.13674001 0.071380004 0.90300006 8.6354065e-39
-0.13502 0.071380004 0.90300006 9.1885719e-39
-0.13128857 0.07122191 0.90100002 7.9896882e-39
-0.12957239 0.07122191 0.90100002 6.9816501e-39
-0.12470001 0.071380004 0.90300006 1.075157e-38
-0.12298001 0.071380004 0.90300006 1.1207877e-38
-0.14754859 0.07334286 0.90600002 1.2221681e-38
-0.14534001 0.073100001 0.90300006 1.1945094e-38
-0.14362001 0.073100001 0.90300006 1.0657224e-38
-0.13674001 0.073100001 0.90300006 1.0933446e-38
-0.13502 0.073100001 0.90300006 1.0841252e-38
-0.13128857 0.072938092 0.90100002 1.0840176e-38
-0.12957239 0.072938092 0.90100002 1.093237e-38
-0.12470001 0.073100001 0.90300006 1.1853595e-38
-0.12298001 0.073100001 0.90300006 1.1942921e-38
-0.12126 0.073100001 0.90300006 1.1666337e-38
-0.14237143 0.075068571 0.90600002 1.1578478e-38
-0.13502 0.074820004 0.90300006 1.148485e-38
-0.13300475 0.074654289 0.90100002 1.1759279e-38
-0.13128857 0.074654289 0.90100002 1.1759279e-38
-0.12957239 0.074654289 0.90100002 1.1759279e-38
-0.12470001 0.074820004 0.90300006 1.1851454e-38
-0.12298001 0.074820004 0.90300006 1.1942921e-38
-0.12126 0.074820004 0.90300006 1.2127312e-38
-0.11954001 0.074820004 0.90300006 1.1851451e-38
-0.14018001 0.076540001 0.90300006 1.2128025e-38
-0.13502 0.076540001 0.90300006 1.1484101e-38
-0.13300475 0.076370478 0.90100002 1.1576295e-38
-0.13128857 0.076370478 0.90100002 1.1576295e-38
-0.12957239 0.076370478 0.90100002 1.1484101e-38
-0.12470001 0.076540001 0.90300006 1.1576295e-38
-0.12298001 0.076540001 0.90300006 1.1759607e-38
-0.12126 0.076540001 0.90300006 1.1759607e-38
-0.11954001 0.076540001 0.90300006 1.1576295e-38
-0.11782 0.076540001 0.90300006 1.1576295e-38
-0.14018001 0.078260005 0.90300006 1.2968177e-38
-0.13846001 0.078260005 0.90300006 1.370573e-38
-0.13502 0.078260005 0.90300006 1.4355753e-38
-0.13300475 0.078086674 0.90100002 1.4174235e-38
-0.13128857 0.078086674 0.90100002 1.4266429e-38
-0.12957239 0.078086674 0.90100002 1.4358623e-38
-0.12298001 0.078260005 0.90300006 1.5095834e-38
-0.12126 0.078260005 0.90300006 1.5095834e-38
-0.11954001 0.078260005 0.90300006 1.5280582e-38
-0.11782 0.078260005 0.90300006 1.5372778e-38
-0.11610001 0.078260005 0.90300006 1.5282001e-38
-0.13891999 0.080245718 0.90600002 1.5742277e-38
-0.13674001 0.079980001 0.90300006 1.5467495e-38
-0.13502 0.079980001 0.90300006 1.5744082e-38
-0.13300475 0.079802856 0.90100002 1.5836996e-38
-0.13128857 0.079802856 0.90100002 1.5836996e-38
-0.12126 0.079980001 0.90300006 1.6297635e-38
-0.11954001 0.079980001 0.90300006 1.6298717e-38
-0.11782 0.079980001 0.90300006 1.6206521e-38
-0.11610001 0.079980001 0.90300006 1.6207914e-38
-0.13891999 0.081971429 0.90600002 1.7499735e-38
-0.13674001 0.081700005 0.90300006 1.7500085e-38
-0.13502 0.081700005 0.90300006 1.7961063e-38
-0.13330001 0.081700005 0.90300006 1.7499704e-38
-0.13158001 0.081700005 0.90300006 1.7684095e-38
-0.12986001 0.081700005 0.90300006 1.740682e-38
-0.12814002 0.081700005 0.90300006 1.740682e-38
-0.13719429 0.083697148 0.90600002 1.6482417e-38
-0.13502 0.083420001 0.90300006 1.620583e-38
-0.13330001 0.083420001 0.90300006 1.6111121e-38
-0.12338857 0.083697148 0.90600002 1.5739089e-38
-0.13546857 0.085422859 0.90600002 1.1945072e-38
-0.13374287 0.085422859 0.90600002 1.1668492e-38
-0.13158001 0.085140005 0.90300006 1.1576296e-38
-0.12511428 0.085422859 0.90600002 1.11164e-38
-0.12338857 0.085422859 0.90600002 1.1484101e-38
-0.11476 0.085422859 0.90600002 1.2311337e-38
-0.11303429 0.085422859 0.90600002 1.2495008e-38
-0.13201714 0.087148577 0.90600002 1.1392271e-38
-0.12986001 0.086860001 0.90300006 1.0750852e-38
-0.12338857 0.087148577 0.90600002 1.0934881e-38
-0.12166286 0.087148577 0.90600002 1.0934881e-38
-0.11476 0.087148577 0.90600002 1.2219152e-38
-0.11303429 0.087148577 0.90600002 1.2402823e-38
-0.11130857 0.087148577 0.90600002 1.2310627e-38
-0.13546857 0.088874288 0.90600002 1.2224566e-38
-0.12366096 0.089070477 0.90800005 1.2698051e-38
-0.12166286 0.088874288 0.90600002 1.0024418e-38
-0.10958286 0.088874288 0.90600002 1.2864897e-38
-0.12366096 0.090800002 0.90800005 1.3716886e-38
-0.12166286 0.090600006 0.90600002 1.1135413e-38
-0.11674286 0.090800002 0.90800005 1.2039795e-38
-0.11501334 0.090800002 0.90800005 1.2224187e-38
-0.10958286 0.090600006 0.90600002 1.2957811e-38
-0.10785715 0.090600006 0.90600002 1.2865615e-38
-0.12366096 0.092529528 0.90800005 1.5749088e-38
-0.11674286 0.092529528 0.90800005 1.1489885e-38
-0.11501334 0.092529528 0.90800005 1.075232e-38
-0.11328381 0.092529528 0.90800005 1.1946881e-38
-0.11700001 0.094466671 0.91000003 1.1684632e-38
-0.11501334 0.094259053 0.90800005 9.7485532e-39
-0.11328381 0.094259053 0.90800005 1.1486256e-38
-0.11155429 0.094259053 0.90800005 1.2223821e-38
-0.11501334 0.095988572 0.90800005 1.426971e-38
-0.11155429 0.095988572 0.90800005 9.6556443e-39
-0.10982477 0.095988572 0.90800005 1.1671402e-38
-0.11501334 0.097718097 0.90800005 1.592707e-38
-0.11328381 0.097718097 0.90800005 1.5100244e-38
-0.10982477 0.097718097 0.90800005 1.1124333e-38
-0.10809524 0.097718097 0.90800005 1.1308724e-38
-0.10636572 0.097718097 0.90800005 1.2317083e-38
-0.11526667 0.09966667 0.91000003 1.8138714e-38
-0.11328381 0.099447623 0.90800005 1.6116153e-38
-0.10982477 0.099447623 0.90800005 1.3438225e-38
-0.10809524 0.099447623 0.90800005 1.1594313e-38
-0.10636572 0.099447623 0.90800005 1.1859717e-38
-0.11006667 0.1014 0.91000003 1.4640338e-38
-0.10809524 0.10117715 0.90800005 1.2704229e-38
-0.10313334 0.10313334 0.91000003 1.361897e-38
-0.10313334 0.10486667 0.91000003 1.4082792e-38
-0.1014 0.10486667 0.91000003 1.3160835e-38
-0.1014 0.1066 0.91000003 1.6761466e-38
-0.09966667 0.1066 0.91000003 1.4634927e-38
-0.097933337 0.1066 0.91000003 1.5095905e-38
-0.09966667 0.10833333 0.91000003 1.4174954e-38
-0.097933337 0.10833333 0.91000003 1.8508148e-38
-0.096200004 0.10833333 0.91000003 1.9618635e-38
-0.097933337 0.11006667 0.91000003 2.2750216e-38
-0.096200004 0.11006667 0.91000003 2.2109349e-38
-0.094466671 0.11006667 0.91000003 1.9620067e-38
-0.096200004 0.11180001 0.91000003 2.2758275e-38
-0.094466671 0.11180001 0.91000003 1.7042146e-38
-0.092733338 0.11180001 0.91000003 1.8133923e-38
-0.094466671 0.11353334 0.91000003 1.6762229e-38
-0.092733338 0.11353334 0.91000003 1.8505211e-38
-0.094466671 0.11526667 0.91000003 1.749761e-38
-0.092733338 0.11526667 0.91000003 1.9150571e-38
-0.092733338 0.11700001 0.91000003 1.9519348e-38
-0.091000006 0.11700001 0.91000003 1.9703736e-38
-0.091000006 0.11873334 0.91000003 2.0438859e-38
-0.089266665 0.11873334 0.91000003 2.0255549e-38
-0.089266665 0.12046667 0.91000003 1.4350014e-38
-0.087533332 0.12046667 0.91000003 1.425782e-38
-0.0858 0.12046667 0.91000003 1.3706448e-38
-0.089560956 0.12260286 0.91300005 1.0758389e-38
-0.087533332 0.1222 0.91000003 1.1403758e-38
-0.0858 0.1222 0.91000003 9.4737669e-39
-0.084066667 0.1222 0.91000003 1.1133288e-38
-0.096200004 0.12393334 0.91000003 6.5231901e-39
-0.0858 0.12393334 0.91000003 2.2217705e-38
-0.084066667 0.12393334 0.91000003 2.3324052e-38
-0.082333334 0.12393334 0.91000003 2.2308809e-38
-0.0858 0.12566666 0.91000003 2.3326213e-38
-0.084066667 0.12566666 0.91000003 2.3326213e-38
-0.082333334 0.12566666 0.91000003 2.1758184e-38
-0.080600001 0.12566666 0.91000003 1.4013751e-38
-0.084066667 0.1274 0.91000003 2.341769e-38
-0.079126671 0.12955905 0.91300005 3.4915425e-39
-0.058577146 0.15125144 0.91800004 9.5883483e-39
-0.056828573 0.15125144 0.91800004 2.2772323e-38
-0.058577146 0.15300001 0.91800004 2.3325129e-38
-0.055080004 0.15649715 0.91800004 9.4863198e-39
-0.053331427 0.15824571 0.91800004 1.1780074e-38
-0.049942859 0.16209523 0.92000002 1.8967068e-38
-0.048190478 0.16209523 0.92000002 1.8229488e-38
-0.049942859 0.16384763 0.92000002 1.5474891e-38
-0.025492381 0.16438192 0.92300004 1.7701198e-38
-0.044685714 0.1656 0.92000002 1.9534658e-38
-0.023734286 0.16614 0.92300004 1.6867062e-38
-0.048347622 0.1678981 0.92300004 1.7422456e-38
-0.039557144 0.1678981 0.92300004 1.8971928e-38
-0.037676193 0.16735238 0.92000002 1.7865387e-38
-0.046589527 0.1696562 0.92300004 1.9352775e-38
-0.044831429 0.1696562 0.92300004 1.9994515e-38
-0.043073334 0.1696562 0.92300004 1.5937908e-38
-0.041315239 0.1696562 0.92300004 1.8236231e-38
-0.039557144 0.1696562 0.92300004 1.7867448e-38
-0.046589527 0.17141429 0.92300004 1.6490323e-38
-0.044831429 0.17141429 0.92300004 1.6672907e-38
-0.043073334 0.17141429 0.92300004 1.6304124e-38
-0.041315239 0.17141429 0.92300004 1.7497947e-38
-0.039557144 0.17141429 0.92300004 1.7405751e-38
-0.044831429 0.17317238 0.92300004 1.4272169e-38
-0.043073334 0.17317238 0.92300004 1.4917528e-38
-0.041315239 0.17317238 0.92300004 1.5558942e-38
-0.039557144 0.17317238 0.92300004 1.5466748e-38
-0.037799049 0.17317238 0.92300004 1.4915017e-38
-0.043073334 0.17493048 0.92300004 1.804716e-38
-0.041315239 0.17493048 0.92300004 1.8140747e-38
-0.039557144 0.17493048 0.92300004 1.8232943e-38
-0.037799049 0.17493048 0.92300004 1.8141815e-38
-0.036040954 0.17493048 0.92300004 1.8141815e-38
-0.025547622 0.17530954 0.92500007 7.2691097e-39
-0.041315239 0.17668858 0.92300004 2.0442083e-38
-0.039557144 0.17668858 0.92300004 2.0257692e-38
-0.037799049 0.17668858 0.92300004 2.016472e-38
-0.036040954 0.17668858 0.92300004 1.9980329e-38
-0.034282859 0.17668858 0.92300004 2.0257695e-38
-0.022023812 0.17707144 0.92500007 1.1672554e-38
-0.039557144 0.17844667 0.92300004 2.0625023e-38
-0.037799049 0.17844667 0.92300004 2.0440573e-38
-0.036040954 0.17844667 0.92300004 2.0256184e-38
-0.034282859 0.17844667 0.92300004 1.988742e-38
-0.032524761 0.17844667 0.92300004 1.9518637e-38
-0.0079542855 0.17941333 0.92800003 1.5358475e-38
-0.037799049 0.18020476 0.92300004 2.0438791e-38
-0.036040954 0.18020476 0.92300004 2.0623183e-38
-0.034282859 0.18020476 0.92300004 2.0161546e-38
-0.032524761 0.18020476 0.92300004 1.9516177e-38
-0.030766666 0.18020476 0.92300004 1.9243124e-38
-0.025547622 0.18059525 0.92500007 2.3309948e-38
-0.0079542855 0.18118095 0.92800003 1.5265926e-38
-0.037799049 0.18196286 0.92300004 1.9058751e-38
-0.036040954 0.18196286 0.92300004 2.1916815e-38
-0.034282859 0.18196286 0.92300004 2.0993889e-38
-0.025547622 0.18235716 0.92500007 2.2471411e-38
-0.023734286 0.18196286 0.92300004 2.0915798e-38
-0.009721905 0.18294857 0.92800003 1.5171573e-38
-0.036040954 0.18372096 0.92300004 2.0443137e-38
-0.009721905 0.18471619 0.92800003 1.4799193e-38
-0.030833337 0.18588097 0.92500007 2.3039181e-38
-0.025630476 0.18648382 0.92800003 2.1281356e-38
-0.023862859 0.18648382 0.92800003 2.0357874e-38
-0.022095239 0.18648382 0.92800003 1.7960787e-38
-0.020327618 0.18648382 0.92800003 1.9534549e-38
-0.01856 0.18648382 0.92800003 2.3498961e-38
-0.034282859 0.18723716 0.92300004 1.7128454e-38
-0.03259524 0.18764286 0.92500007 2.3397757e-38
-0.030833337 0.18764286 0.92500007 2.2393779e-38
-0.025630476 0.18825142 0.92800003 2.1838107e-38
-0.023862859 0.18825142 0.92800003 2.1836299e-38
-0.022095239 0.18825142 0.92800003 1.9992387e-38
-0.020327618 0.18825142 0.92800003 1.9530316e-38
-0.0079285717 0.18764286 0.92500007 1.1312772e-38
-0.034282859 0.18899524 0.92300004 1.7037678e-38
-0.032524761 0.18899524 0.92300004 1.6668895e-38
-0.030766666 0.18899524 0.92300004 1.6944748e-38
-0.025630476 0.19001906 0.92800003 2.1736537e-38
-0.023862859 0.19001906 0.92800003 2.275753e-38
-0.022095239 0.19001906 0.92800003 2.3498696e-38
-0.020327618 0.19001906 0.92800003 2.3132834e-38
-0.01856 0.19001906 0.92800003 2.2764052e-38
-0.0079542855 0.19001906 0.92800003 1.1874174e-38
-0.030766666 0.19075334 0.92300004 1.6020272e-38
-0.023862859 0.19178668 0.92800003 1.9430567e-38
-0.022095239 0.19178668 0.92800003 2.3394979e-38
-0.020327618 0.19178668 0.92800003 2.1197429e-38
-0.01856 0.19178668 0.92800003 2.1842799e-38
-0.016792381 0.19178668 0.92800003 2.2858007e-38
-0.0079542855 0.19178668 0.92800003 1.1782707e-38
-0.0061666667 0.19116668 0.92500007 1.4334972e-38
-0.023862859 0.1935543 0.92800003 1.4625161e-38
-0.022095239 0.1935543 0.92800003 1.24125e-38
-0.020327618 0.1935543 0.92800003 1.4630184e-38
-0.01856 0.1935543 0.92800003 1.7857008e-38
-0.016792381 0.1935543 0.92800003 1.7864697e-38
-0.015024763 0.1935543 0.92800003 2.1644718e-38
-0.0061666667 0.19292858 0.92500007 1.4520445e-38
-0.025630476 0.19532192 0.92800003 1.5191678e-38
-0.023862859 0.19532192 0.92800003 1.5825524e-38
-0.022095239 0.19532192 0.92800003 1.1215769e-38
-0.020327618 0.19532192 0.92800003 1.3780347e-38
-0.01856 0.19532192 0.92800003 1.4149124e-38
-0.016792381 0.19532192 0.92800003 1.6646299e-38
-0.015024763 0.19532192 0.92800003 1.9596559e-38
-0.013257143 0.19532192 0.92800003 2.0253164e-38
-0.030833337 0.19645239 0.92500007 1.6666771e-38
-0.025630476 0.19708952 0.92800003 1.5837386e-38
-0.023862859 0.19708952 0.92800003 1.5923833e-38
-0.022095239 0.19708952 0.92800003 1.2881377e-38
-0.020327618 0.19708952 0.92800003 1.4618402e-38
-0.01856 0.19708952 0.92800003 1.4065228e-38
-0.016792381 0.19708952 0.92800003 1.4517556e-38
-0.015024763 0.19708952 0.92800003 1.4240969e-38
-0.013257143 0.19708952 0.92800003 1.4149139e-38
-0.011489524 0.19708952 0.92800003 1.4702313e-38
-0.027398096 0.19885714 0.92800003 1.5284613e-38
-0.025630476 0.19885714 0.92800003 1.491583e-38
-0.023862859 0.19885714 0.92800003 1.3989933e-38
-0.022095239 0.19885714 0.92800003 1.2699194e-38
-0.016792381 0.19885714 0.92800003 1.4891038e-38
-0.015024763 0.19885714 0.92800003 1.4061278e-38
-0.013257143 0.19885714 0.92800003 1.433677e-38
-0.011489524 0.19885714 0.92800003 1.4705553e-38
-0.009721905 0.19885714 0.92800003 1.4801005e-38
-0.015024763 0.20062476 0.92800003 1.5354186e-38
-0.013257143 0.20062476 0.92800003 1.5077959e-38
-0.011489524 0.20062476 0.92800003 1.526235e-38
-0.009721905 0.20062476 0.92800003 1.5171589e-38
-0.0079542855 0.20062476 0.92800003 1.5448176e-38
-0.0186 0.20282859 0.93000007 1.47117e-38
-0.013257143 0.20239238 0.92800003 1.5262339e-38
-0.0097428579 0.20282859 0.93000007 1.5263418e-38
-0.0079542855 0.20239238 0.92800003 1.56322e-38
-0.0061866669 0.20239238 0.92800003 1.5265576e-38
0.00088380952 0.20239238 0.92800003 1.4645789e-38
-0.022142859 0.20460002 0.93000007 1.388411e-38
-0.02037143 0.20460002 0.93000007 1.4436531e-38
-0.0186 0.20460002 0.93000007 1.425214e-38
-0.016828572 0.20460002 0.93000007 1.4893924e-38
-0.011514287 0.20460002 0.93000007 1.5446381e-38
-0.0097428579 0.20460002 0.93000007 1.5171589e-38
-0.0079542855 0.20416 0.92800003 1.5355981e-38
-0.0061866669 0.20416 0.92800003 1.517374e-38
0.00088571431 0.20460002 0.93000007 1.4369918e-38
-0.013285715 0.20637144 0.93000007 1.5171589e-38
-0.011514287 0.20637144 0.93000007 1.5355981e-38
-0.0097428579 0.20637144 0.93000007 1.4988986e-38
-0.020437144 0.21059144 0.93300003 1.4805703e-38
-0.01866 0.21059144 0.93300003 1.4621312e-38
-0.016882857 0.21059144 0.93300003 1.4713481e-38
-0.015105714 0.21059144 0.93300003 1.4713481e-38
-0.0062333336 0.21104287 0.93500006 1.5174826e-38
-0.0044523813 0.21104287 0.93500006 1.489824e-38
-0.027604764 0.21282382 0.93500006 1.4531604e-38
-0.0080142869 0.21282382 0.93500006 1.4529107e-38
-0.0062333336 0.21282382 0.93500006 1.4807825e-38
-0.0044523813 0.21282382 0.93500006 1.4807825e-38
-0.0026714287 0.21282382 0.93500006 1.3336285e-38
-0.00088857143 0.21236856 0.93300003 1.6009958e-38
-0.027604764 0.21460478 0.93500006 1.4440128e-38
-0.0080142869 0.21460478 0.93500006 1.4069561e-38
-0.0062333336 0.21460478 0.93500006 1.4252883e-38
-0.0044523813 0.21460478 0.93500006 1.3791905e-38
-0.0026714287 0.21460478 0.93500006 1.3243371e-38
-0.027604764 0.21638572 0.93500006 1.361218e-38
