# .PCD v0.7 - Point Cloud Data file format
VERSION 0.7
FIELDS x y z rgb
SIZE 4 4 4 4
TYPE F F F F
COUNT 1 1 1 1
WIDTH 388
HEIGHT 1
VIEWPOINT 0 0 0 1 0 0 0
POINTS 388
DATA ascii
-0.048809525 -0.094047621 1.25 1.4004362e-38
-0.046428572 -0.094047621 1.25 1.4372422e-38
-0.051190477 -0.091666669 1.25 1.1416381e-38
-0.048809525 -0.091666669 1.25 1.1508577e-38
-0.046428572 -0.091666669 1.25 1.1507868e-38
-0.055952381 -0.089285716 1.25 1.1039686e-38
-0.053571429 -0.089285716 1.25 1.0763099e-38
-0.051190477 -0.089285716 1.25 1.1131153e-38
-0.048809525 -0.089285716 1.25 1.1131153e-38
-0.046428572 -0.089285716 1.25 1.1039686e-38
-0.055952381 -0.086904764 1.25 1.0942106e-38
-0.053571429 -0.086904764 1.25 1.0204541e-38
-0.051190477 -0.086904764 1.25 1.0662975e-38
-0.048809525 -0.086904764 1.25 1.1123953e-38
-0.046242855 -0.086557142 1.245 1.0755546e-38
-0.043871425 -0.086557142 1.245 1.0478959e-38
-0.0581 -0.084185712 1.245 1.1861544e-38
-0.05572857 -0.084185712 1.245 1.1675358e-38
-0.053357143 -0.084185712 1.245 1.1398771e-38
-0.050985713 -0.084185712 1.245 1.1583499e-38
-0.048614286 -0.084185712 1.245 1.1583499e-38
-0.046242855 -0.084185712 1.245 1.1581711e-38
-0.043871425 -0.084185712 1.245 1.1212928e-38
-0.034275241 -0.083915241 1.2410001 1.1580272e-38
-0.0581 -0.081814282 1.245 1.2136334e-38
-0.05572857 -0.081814282 1.245 1.176825e-38
-0.053357143 -0.081814282 1.245 1.1491663e-38
-0.050985713 -0.081814282 1.245 1.1583149e-38
-0.048614286 -0.081814282 1.245 1.1398757e-38
-0.046242855 -0.081814282 1.245 1.1581711e-38
-0.043871425 -0.081814282 1.245 1.1581711e-38
-0.034275241 -0.081551433 1.2410001 1.1950111e-38
-0.032014288 -0.081814282 1.245 1.1766825e-38
-0.0581 -0.079442859 1.245 1.1856496e-38
-0.05572857 -0.079442859 1.245 1.1490234e-38
-0.053357143 -0.079442859 1.245 1.1398038e-38
-0.050985713 -0.079442859 1.245 1.1397689e-38
-0.048614286 -0.079442859 1.245 1.1397689e-38
-0.046242855 -0.079442859 1.245 1.1398038e-38
-0.043871425 -0.079442859 1.245 1.1213647e-38
-0.032014288 -0.079442859 1.245 1.1858312e-38
-0.0581 -0.077071428 1.245 1.1302956e-38
-0.05572857 -0.077071428 1.245 1.1304055e-38
-0.053357143 -0.077071428 1.245 1.1488446e-38
-0.050985713 -0.077071428 1.245 1.130548e-38
-0.048614286 -0.077071428 1.245 1.1213284e-38
-0.046242855 -0.077071428 1.245 1.1488076e-38
-0.043871425 -0.077071428 1.245 1.1580272e-38
-0.029547621 -0.076823808 1.2410001 1.1857961e-38
-0.0581 -0.074699998 1.245 1.084341e-38
-0.05572857 -0.074699998 1.245 1.1027462e-38
-0.053357143 -0.074699998 1.245 1.1027462e-38
-0.050985713 -0.074699998 1.245 1.1302962e-38
-0.048614286 -0.074699998 1.245 1.1395157e-38
-0.046242855 -0.074699998 1.245 1.1487703e-38
-0.043871425 -0.074699998 1.245 1.1948681e-38
-0.029547621 -0.074460007 1.2410001 1.2041267e-38
-0.027271429 -0.074699998 1.245 1.2041267e-38
-0.0581 -0.072328568 1.245 1.0015091e-38
-0.05572857 -0.072328568 1.245 1.0657224e-38
-0.053357143 -0.072328568 1.245 1.0657224e-38
-0.050985713 -0.072328568 1.245 1.0749059e-38
-0.048614286 -0.072328568 1.245 1.0749059e-38
-0.046242855 -0.072328568 1.245 1.0933446e-38
-0.043871425 -0.072328568 1.245 1.1117835e-38
-0.029547621 -0.072096191 1.2410001 1.1578111e-38
-0.027271429 -0.072328568 1.245 1.1485942e-38
-0.0581 -0.069957145 1.245 1.0658299e-38
-0.05572857 -0.069957145 1.245 1.0842328e-38
-0.053357143 -0.069957145 1.245 1.0842328e-38
-0.050985713 -0.069957145 1.245 1.0750134e-38
-0.048614286 -0.069957145 1.245 1.0750134e-38
-0.046242855 -0.069957145 1.245 1.084197e-38
-0.043871425 -0.069957145 1.245 1.084197e-38
-0.029547621 -0.069732383 1.2410001 1.0842687e-38
-0.027271429 -0.069957145 1.245 1.1300788e-38
-0.05572857 -0.067585714 1.245 1.5194111e-38
-0.053357143 -0.067585714 1.245 1.53785e-38
-0.050985713 -0.067585714 1.245 1.5194111e-38
-0.048614286 -0.067585714 1.245 1.5101917e-38
-0.046242855 -0.067585714 1.245 1.519198e-38
-0.043871425 -0.067585714 1.245 1.4823197e-38
-0.029547621 -0.067368567 1.2410001 1.5097273e-38
-0.027271429 -0.067585714 1.245 1.4912865e-38
-0.055952381 -0.065476187 1.25 1.5654096e-38
-0.053357143 -0.065214284 1.245 1.5654096e-38
-0.050985713 -0.065214284 1.245 1.6022531e-38
-0.048614286 -0.065214284 1.245 1.5653748e-38
-0.046242855 -0.065214284 1.245 1.6020738e-38
-0.043871425 -0.065214284 1.245 1.5836347e-38
-0.029547621 -0.065004766 1.2410001 1.666825e-38
-0.027271429 -0.065214284 1.245 1.676008e-38
-0.055952381 -0.063095234 1.25 1.0842687e-38
-0.053571429 -0.063095234 1.25 1.121147e-38
-0.050985713 -0.062842853 1.245 1.1212193e-38
-0.048614286 -0.062842853 1.245 1.1212193e-38
-0.046242855 -0.062842853 1.245 1.1395868e-38
-0.043871425 -0.062842853 1.245 1.1303672e-38
-0.029547621 -0.062640958 1.2410001 1.3616409e-38
-0.027271429 -0.062842853 1.245 1.3434198e-38
-0.055952381 -0.060714286 1.25 9.5541202e-39
-0.053571429 -0.060714286 1.25 9.6463144e-39
-0.050985713 -0.060471427 1.245 9.7377912e-39
-0.048614286 -0.060471427 1.245 9.8299854e-39
-0.046242855 -0.060471427 1.245 9.9214622e-39
-0.043871425 -0.060471427 1.245 9.9214622e-39
-0.029547621 -0.060277145 1.2410001 1.0381716e-38
-0.027271429 -0.060471427 1.245 1.0197327e-38
-0.055952381 -0.058333334 1.25 9.6466746e-39
-0.053571429 -0.058333334 1.25 9.5544789e-39
-0.051190477 -0.058333334 1.25 1.0109111e-38
-0.048614286 -0.0581 1.245 1.0754481e-38
-0.046242855 -0.0581 1.245 1.0387851e-38
-0.043871425 -0.0581 1.245 1.0480046e-38
-0.029547621 -0.057913333 1.2410001 1.0384956e-38
-0.055952381 -0.055952381 1.25 1.1964113e-38
-0.053571429 -0.055952381 1.25 1.2056308e-38
-0.051190477 -0.055952381 1.25 1.4270192e-38
-0.048614286 -0.05572857 1.245 1.4546778e-38
-0.046242855 -0.05572857 1.245 1.4091153e-38
-0.043871425 -0.05572857 1.245 1.4091153e-38
-0.029547621 -0.055549525 1.2410001 1.4916633e-38
-0.055952381 -0.053571429 1.25 1.538948e-38
-0.053571429 -0.053571429 1.25 1.4283133e-38
-0.051190477 -0.053571429 1.25 1.898724e-38
-0.048809525 -0.053571429 1.25 2.0554565e-38
-0.046242855 -0.053357143 1.245 2.0462373e-38
-0.043871425 -0.053357143 1.245 2.0831155e-38
-0.055952381 -0.051190477 1.25 1.3552379e-38
-0.053571429 -0.051190477 1.25 1.2538227e-38
-0.051190477 -0.051190477 1.25 1.7791608e-38
-0.048809525 -0.051190477 1.25 1.9819912e-38
-0.046242855 -0.050985713 1.245 1.9544382e-38
-0.043871425 -0.050985713 1.245 1.9175599e-38
-0.055952381 -0.048809525 1.25 1.2815195e-38
-0.053571429 -0.048809525 1.25 1.0694696e-38
-0.051190477 -0.048809525 1.25 1.687179e-38
-0.048809525 -0.048809525 1.25 1.9637659e-38
-0.043871425 -0.048614286 1.245 7.9270095e-39
-0.055952381 -0.046428572 1.25 1.3275442e-38
-0.053571429 -0.046428572 1.25 1.1708116e-38
-0.051190477 -0.046428572 1.25 1.6963267e-38
-0.048809525 -0.046428572 1.25 1.9821332e-38
-0.046428572 -0.046428572 1.25 1.7977066e-38
-0.055952381 -0.04404762 1.25 1.3369105e-38
-0.053571429 -0.04404762 1.25 1.0326649e-38
-0.051190477 -0.04404762 1.25 1.6595211e-38
-0.048809525 -0.04404762 1.25 1.9914253e-38
-0.046428572 -0.04404762 1.25 1.8805741e-38
-0.055952381 -0.041666668 1.25 1.3646398e-38
-0.053571429 -0.041666668 1.25 1.0603942e-38
-0.051190477 -0.041666668 1.25 1.6502289e-38
-0.048809525 -0.041666668 1.25 1.9729136e-38
-0.046428572 -0.041666668 1.25 1.8438773e-38
-0.055952381 -0.039285716 1.25 1.3371629e-38
-0.053571429 -0.039285716 1.25 9.4994121e-39
-0.051190477 -0.039285716 1.25 1.5307702e-38
-0.048809525 -0.039285716 1.25 1.8811136e-38
-0.046428572 -0.039285716 1.25 1.8530956e-38
-0.029642858 -0.039128572 1.245 2.0279776e-38
-0.055952381 -0.03690476 1.25 1.4476156e-38
-0.053571429 -0.03690476 1.25 1.0511744e-38
-0.051190477 -0.03690476 1.25 1.6315374e-38
-0.048809525 -0.03690476 1.25 1.9726612e-38
-0.046428572 -0.03690476 1.25 1.8899385e-38
-0.055952381 -0.034523807 1.25 1.4568001e-38
-0.053571429 -0.034523807 1.25 9.866024e-39
-0.051190477 -0.034523807 1.25 1.5305894e-38
-0.048809525 -0.034523807 1.25 1.9362502e-38
-0.046428572 -0.034523807 1.25 1.9544748e-38
-0.055952381 -0.032142855 1.25 1.5397749e-38
-0.053571429 -0.032142855 1.25 1.0603576e-38
-0.051190477 -0.032142855 1.25 1.5303736e-38
-0.048809525 -0.032142855 1.25 1.9636931e-38
-0.046428572 -0.032142855 1.25 1.9268896e-38
-0.053571429 -0.029761905 1.25 9.8670834e-39
-0.051190477 -0.029761905 1.25 1.475273e-38
-0.048809525 -0.029761905 1.25 1.9731294e-38
-0.046428572 -0.029761905 1.25 1.9543306e-38
-0.053785719 -0.027490478 1.2550001 1.0419185e-38
-0.051190477 -0.027380953 1.25 1.4842032e-38
-0.048809525 -0.027380953 1.25 2.0189379e-38
-0.046428572 -0.027380953 1.25 1.9818476e-38
-0.027490478 -0.027490478 1.2550001 2.0095057e-38
-0.025100002 -0.027490478 1.2550001 4.8827783e-39
-0.051190477 -0.025 1.25 1.3921543e-38
-0.048809525 -0.025 1.25 2.0190846e-38
-0.046428572 -0.025 1.25 1.9911372e-38
-0.053785719 -0.022709524 1.2550001 1.0695412e-38
-0.051395241 -0.022709524 1.2550001 1.3552014e-38
-0.049004767 -0.022709524 1.2550001 1.9729121e-38
-0.046428572 -0.022619048 1.25 1.8992665e-38
-0.056355242 -0.020383811 1.2590001 1.7701198e-38
-0.053785719 -0.02031905 1.2550001 1.1247504e-38
-0.051395241 -0.02031905 1.2550001 1.3459861e-38
-0.049004767 -0.02031905 1.2550001 1.9636969e-38
-0.027490478 -0.02031905 1.2550001 1.9635874e-38
-0.056355242 -0.017985715 1.2590001 1.8436255e-38
-0.053785719 -0.017928572 1.2550001 1.2812321e-38
-0.051395241 -0.017928572 1.2550001 1.4010489e-38
-0.027490478 -0.017928572 1.2550001 2.0005007e-38
-0.051395241 -0.015538097 1.2550001 1.4379606e-38
-0.05155905 -0.0083933342 1.2590001 1.0380998e-38
-0.05155905 -0.0059952382 1.2590001 1.1024924e-38
-0.05155905 -0.0035971431 1.2590001 1.3526394e-38
-0.05155905 -0.0011990477 1.2590001 1.6023526e-38
-0.05155905 0.0011990477 1.2590001 1.4819669e-38
-0.05155905 0.0035971431 1.2590001 1.1300791e-38
-0.027578095 0.0035971431 1.2590001 1.5928518e-38
-0.056355242 0.0059952382 1.2590001 1.0841255e-38
-0.05155905 0.0059952382 1.2590001 1.1208595e-38
-0.05155905 0.0083933342 1.2590001 1.1579193e-38
-0.05176381 0.013241905 1.2640001 1.1584225e-38
-0.05176381 0.015649525 1.2640001 1.1959108e-38
-0.05176381 0.018057143 1.2640001 1.2515138e-38
-0.05176381 0.020464763 1.2640001 1.2704154e-38
-0.05176381 0.022872381 1.2640001 1.3996685e-38
-0.05176381 0.025280001 1.2640001 1.399739e-38
-0.05176381 0.027687619 1.2640001 1.3625374e-38
-0.05176381 0.03009524 1.2640001 1.4267864e-38
-0.027775237 0.035020951 1.268 1.7493255e-38
-0.027775237 0.037436187 1.268 1.4544088e-38
-0.027775237 0.039851431 1.268 1.196374e-38
-0.027775237 0.042266667 1.268 1.8334696e-38
-0.051927619 0.044681903 1.268 1.6406481e-38
-0.027775237 0.044681903 1.268 2.0464205e-38
-0.0012038095 0.044540953 1.2640001 2.1476491e-38
-0.051927619 0.047097143 1.268 7.563231e-39
-0.027775237 0.047097143 1.268 2.1753487e-38
-0.051927619 0.049512379 1.268 8.4923255e-39
-0.051927619 0.051927619 1.268 9.319533e-39
-0.051927619 0.054342858 1.268 1.3272872e-38
-0.052132379 0.056981906 1.273 1.7793038e-38
-0.052132379 0.059406664 1.273 1.8162529e-38
-0.052132379 0.061831426 1.273 1.7791939e-38
-0.025459999 0.064256191 1.273 1.9543678e-38
-0.054771435 0.066942863 1.2780001 2.111093e-38
-0.05742953 0.069648571 1.2830001 1.5947664e-38
-0.054771435 0.069377147 1.2780001 2.0096467e-38
-0.052337147 0.069377147 1.2780001 1.9361098e-38
-0.05742953 0.072092384 1.2830001 1.6219571e-38
-0.054985717 0.072092384 1.2830001 2.1198136e-38
-0.052337147 0.071811438 1.2780001 2.0649303e-38
-0.049902864 0.071811438 1.2780001 1.8252217e-38
-0.05742953 0.074536197 1.2830001 1.5754981e-38
-0.054985717 0.074536197 1.2830001 2.1655501e-38
-0.052337147 0.074245721 1.2780001 2.0556742e-38
-0.049902864 0.074245721 1.2780001 1.8620633e-38
-0.05742953 0.07698001 1.2830001 1.5107755e-38
-0.054985717 0.07698001 1.2830001 1.9440949e-38
-0.049902864 0.076680005 1.2780001 1.7138275e-38
-0.040008571 0.07638 1.273 8.6562354e-39
-0.05742953 0.079423815 1.2830001 1.2242102e-38
-0.054985717 0.079423815 1.2830001 1.3625017e-38
-0.052541912 0.079423815 1.2830001 1.6025029e-38
-0.05742953 0.08186762 1.2830001 1.315974e-38
-0.054985717 0.08186762 1.2830001 1.3528517e-38
-0.052541912 0.08186762 1.2830001 1.4824975e-38
-0.05742953 0.084311433 1.2830001 1.5648266e-38
-0.054985717 0.084311433 1.2830001 1.5740461e-38
-0.052541912 0.084311433 1.2830001 1.6390484e-38
-0.05742953 0.086755246 1.2830001 1.6389458e-38
-0.054985717 0.086755246 1.2830001 1.6481654e-38
-0.052541912 0.086755246 1.2830001 1.5931306e-38
-0.05742953 0.089199059 1.2830001 1.6115032e-38
-0.054985717 0.089199059 1.2830001 1.5654054e-38
-0.052541912 0.089199059 1.2830001 1.5376029e-38
-0.050098099 0.089199059 1.2830001 1.5376029e-38
-0.042600002 0.088851437 1.2780001 1.5929934e-38
-0.05742953 0.091642864 1.2830001 1.4731013e-38
-0.054985717 0.091642864 1.2830001 1.353247e-38
-0.052541912 0.091642864 1.2830001 1.3435295e-38
-0.050098099 0.091642864 1.2830001 1.3158708e-38
-0.05742953 0.094086677 1.2830001 1.4178898e-38
-0.054985717 0.094086677 1.2830001 1.159746e-38
-0.052541912 0.094086677 1.2830001 1.2788466e-38
-0.050098099 0.094086677 1.2830001 1.3157248e-38
-0.047654286 0.094086677 1.2830001 1.3434917e-38
-0.060106672 0.096906669 1.2880001 1.5008646e-38
-0.054985717 0.096530482 1.2830001 1.1413072e-38
-0.052541912 0.096530482 1.2830001 1.2330034e-38
-0.050098099 0.096530482 1.2830001 1.3159794e-38
-0.047654286 0.096530482 1.2830001 1.2884261e-38
-0.060106672 0.099360012 1.2880001 1.4270749e-38
-0.057653334 0.099360012 1.2880001 1.3807613e-38
-0.054985717 0.098974295 1.2830001 1.1133978e-38
-0.052541912 0.098974295 1.2830001 1.2141657e-38
-0.050098099 0.098974295 1.2830001 1.3893364e-38
-0.047654286 0.098974295 1.2830001 1.2333954e-38
-0.045034289 0.098588586 1.2780001 1.0951024e-38
-0.10212953 0.10212953 1.2920001 1.1316626e-38
-0.060106672 0.10181334 1.2880001 1.1414148e-38
-0.057653334 0.10181334 1.2880001 1.0942433e-38
-0.052541912 0.1014181 1.2830001 1.1865433e-38
-0.050098099 0.1014181 1.2830001 1.3617144e-38
-0.047654286 0.1014181 1.2830001 1.3071867e-38
-0.10212953 0.10459048 1.2920001 1.1871602e-38
-0.060106672 0.10426667 1.2880001 9.8486395e-39
-0.057653334 0.10426667 1.2880001 1.0114101e-38
-0.055200007 0.10426667 1.2880001 1.2142393e-38
-0.050098099 0.10386191 1.2830001 1.297681e-38
-0.047654286 0.10386191 1.2830001 1.3715078e-38
-0.10212953 0.10705143 1.2920001 1.2240035e-38
-0.060106672 0.10672001 1.2880001 1.5004073e-38
-0.057653334 0.10672001 1.2880001 1.4917889e-38
-0.055200007 0.10672001 1.2880001 1.6946192e-38
-0.052746668 0.10672001 1.2880001 1.5838863e-38
-0.050098099 0.10630573 1.2830001 1.4087146e-38
-0.047654286 0.10630573 1.2830001 1.3532122e-38
-0.060106672 0.10917334 1.2880001 1.6294404e-38
-0.057653334 0.10917334 1.2880001 1.6299806e-38
-0.055200007 0.10917334 1.2880001 1.6484197e-38
-0.052746668 0.10917334 1.2880001 1.5654121e-38
-0.050098099 0.10874953 1.2830001 1.3810208e-38
-0.047654286 0.10874953 1.2830001 1.2978981e-38
-0.10212953 0.11197334 1.2920001 1.242695e-38
-0.10005429 0.11240667 1.2970001 7.0796037e-39
-0.060106672 0.11162667 1.2880001 1.3899142e-38
-0.057653334 0.11162667 1.2880001 1.3807277e-38
-0.055200007 0.11162667 1.2880001 1.3622886e-38
-0.052746668 0.11162667 1.2880001 1.2884251e-38
-0.047654286 0.11119334 1.2830001 1.269773e-38
-0.060106672 0.11408001 1.2880001 1.3253772e-38
-0.057653334 0.11408001 1.2880001 1.279528e-38
-0.055200007 0.11408001 1.2880001 1.1781131e-38
-0.052746668 0.11408001 1.2880001 1.2328198e-38
-0.050293338 0.11408001 1.2880001 1.3342343e-38
-0.047840003 0.11408001 1.2880001 1.3159794e-38
-0.060106672 0.11653334 1.2880001 1.242044e-38
-0.057653334 0.11653334 1.2880001 1.1964819e-38
-0.055200007 0.11653334 1.2880001 1.2333601e-38
-0.052746668 0.11653334 1.2880001 1.3435996e-38
-0.050293338 0.11653334 1.2880001 1.6109669e-38
-0.047840003 0.11653334 1.2880001 1.4729974e-38
-0.030428573 0.11562858 1.2780001 1.3163715e-38
-0.060106672 0.11898667 1.2880001 1.0024092e-38
-0.057653334 0.11898667 1.2880001 1.1503843e-38
-0.055200007 0.11898667 1.2880001 1.2886778e-38
-0.052746668 0.11898667 1.2880001 1.3805883e-38
-0.050293338 0.11898667 1.2880001 1.5649795e-38
-0.047840003 0.11898667 1.2880001 1.4914035e-38
-0.030428573 0.11806287 1.2780001 1.2882472e-38
-0.027994288 0.11806287 1.2780001 1.2333248e-38
-0.060106672 0.12144001 1.2880001 9.3729827e-39
-0.057653334 0.12144001 1.2880001 9.6516954e-39
-0.055200007 0.12144001 1.2880001 9.6516954e-39
-0.052746668 0.12144001 1.2880001 1.1034989e-38
-0.050293338 0.12144001 1.2880001 1.3063292e-38
-0.047840003 0.12144001 1.2880001 1.3715091e-38
-0.045386672 0.12144001 1.2880001 1.4637047e-38
-0.060106672 0.12389334 1.2880001 1.0845583e-38
-0.057653334 0.12389334 1.2880001 9.374754e-39
-0.055200007 0.12389334 1.2880001 8.5450059e-39
-0.052746668 0.12389334 1.2880001 8.7293944e-39
-0.050293338 0.12389334 1.2880001 1.0665496e-38
-0.047840003 0.12389334 1.2880001 1.2605522e-38
-0.045386672 0.12389334 1.2880001 1.4265043e-38
-0.060106672 0.12634668 1.2880001 1.1396952e-38
-0.057653334 0.12634668 1.2880001 1.0295292e-38
-0.055200007 0.12634668 1.2880001 1.0203097e-38
-0.052746668 0.12634668 1.2880001 9.8346798e-39
-0.050293338 0.12634668 1.2880001 9.281506e-39
-0.047840003 0.12634668 1.2880001 1.0018321e-38
-0.045386672 0.12634668 1.2880001 1.130906e-38
-0.042933334 0.12634668 1.2880001 1.1129701e-38
-0.052746668 0.1288 1.2880001 1.0570803e-38
-0.050293338 0.1288 1.2880001 1.0017629e-38
-0.047840003 0.1288 1.2880001 9.0988888e-39
-0.045386672 0.1288 1.2880001 8.2691407e-39
-0.042933334 0.1288 1.2880001 8.7293944e-39
-0.030547623 0.12830001 1.2830001 1.1503912e-38
-0.062754288 0.13166095 1.2920001 1.0380998e-38
-0.060293335 0.13166095 1.2920001 1.1118555e-38
-0.047840003 0.13125335 1.2880001 9.7413813e-39
-0.045386672 0.13125335 1.2880001 9.2804074e-39
-0.042933334 0.13125335 1.2880001 9.0960189e-39
-0.062754288 0.13412191 1.2920001 1.0657241e-38
-0.060293335 0.13412191 1.2920001 1.1210414e-38
-0.057832383 0.13412191 1.2920001 1.130188e-38
-0.05537143 0.13412191 1.2920001 1.130188e-38
-0.047840003 0.13370667 1.2880001 1.0476079e-38
-0.045386672 0.13370667 1.2880001 1.0291688e-38
-0.042933334 0.13370667 1.2880001 9.6466984e-39
-0.062754288 0.13658285 1.2920001 1.2049565e-38
-0.060293335 0.13658285 1.2920001 1.278713e-38
-0.047840003 0.13616002 1.2880001 1.3070525e-38
-0.045386672 0.13616002 1.2880001 1.2978329e-38
-0.042933334 0.13616002 1.2880001 1.2609922e-38
