# .PCD v0.7 - Point Cloud Data file format
VERSION 0.7
FIELDS x y z rgb
SIZE 4 4 4 4
TYPE F F F F
COUNT 1 1 1 1
WIDTH 578
HEIGHT 1
VIEWPOINT 0 0 0 1 0 0 0
POINTS 578
DATA ascii
-0.13524573 0.021432383 0.77600002 1.4457056e-38
-0.13342287 0.021377144 0.77400005 7.3579926e-39
-0.13784572 0.025800001 0.77400005 1.465293e-38
-0.13637143 0.025800001 0.77400005 8.3836268e-39
-0.13194858 0.025800001 0.77400005 1.2035503e-38
-0.13784572 0.027274288 0.77400005 1.3821756e-38
-0.13637143 0.027274288 0.77400005 9.211975e-39
-0.13489716 0.027274288 0.77400005 1.0105851e-38
-0.13342287 0.027274288 0.77400005 1.1027801e-38
-0.13194858 0.027274288 0.77400005 1.1852177e-38
-0.13047428 0.027274288 0.77400005 1.2497546e-38
-0.13637143 0.028748574 0.77400005 1.0132496e-38
-0.13489716 0.028748574 0.77400005 1.0106581e-38
-0.13342287 0.028748574 0.77400005 1.0383168e-38
-0.13194858 0.028748574 0.77400005 1.1576662e-38
-0.13047428 0.028748574 0.77400005 1.6555226e-38
-0.13637143 0.030222857 0.77400005 1.0316888e-38
-0.13489716 0.030222857 0.77400005 1.0292404e-38
-0.13342287 0.030222857 0.77400005 1.0015817e-38
-0.13194858 0.030222857 0.77400005 1.1391548e-38
-0.12262572 0.030105716 0.77100003 1.7048151e-38
-0.13637143 0.031697143 0.77400005 1.0409083e-38
-0.13489716 0.031697143 0.77400005 1.0292044e-38
-0.13342287 0.031697143 0.77400005 9.7388702e-39
-0.13194858 0.031697143 0.77400005 1.093237e-38
-0.13047428 0.031697143 0.77400005 1.5726534e-38
-0.12883334 0.031656191 0.77300006 1.6399452e-38
-0.12736095 0.031656191 0.77300006 2.1654573e-38
-0.12294381 0.031656191 0.77300006 1.79723e-38
-0.12115715 0.031574287 0.77100003 1.6958148e-38
-0.11968857 0.031574287 0.77100003 1.7696628e-38
-0.13784572 0.03317143 0.77400005 1.4466044e-38
-0.13637143 0.03317143 0.77400005 1.0778219e-38
-0.13489716 0.03317143 0.77400005 1.066154e-38
-0.13342287 0.03317143 0.77400005 9.8317791e-39
-0.13194858 0.03317143 0.77400005 1.1023847e-38
-0.13047428 0.03317143 0.77400005 1.6278987e-38
-0.12900001 0.03317143 0.77400005 1.621584e-38
-0.12736095 0.033128574 0.77300006 2.0180252e-38
-0.12588859 0.033128574 0.77300006 1.8254963e-38
-0.12441619 0.033128574 0.77300006 1.8623746e-38
-0.12294381 0.033128574 0.77300006 1.899184e-38
-0.12147144 0.033128574 0.77300006 1.7424514e-38
-0.11999905 0.033128574 0.77300006 1.806971e-38
-0.13637143 0.034645718 0.77400005 1.0870775e-38
-0.13489716 0.034645718 0.77400005 1.0662651e-38
-0.13376762 0.034735236 0.77600002 9.2797165e-39
-0.13194858 0.034645718 0.77400005 1.1024206e-38
-0.13047428 0.034645718 0.77400005 1.6094964e-38
-0.12900001 0.034645718 0.77400005 1.6212911e-38
-0.12752572 0.034645718 0.77400005 2.0822665e-38
-0.12605143 0.034645718 0.77400005 1.9358753e-38
-0.12457716 0.034645718 0.77400005 2.0004123e-38
-0.12294381 0.034600955 0.77300006 1.9728252e-38
-0.13489716 0.036120001 0.77400005 1.1497061e-38
-0.13376762 0.036213335 0.77600002 8.8233879e-39
-0.13194858 0.036120001 0.77400005 1.1023847e-38
-0.13047428 0.036120001 0.77400005 1.6278987e-38
-0.12900001 0.036120001 0.77400005 1.4636282e-38
-0.12752572 0.036120001 0.77400005 2.0997758e-38
-0.12605143 0.036120001 0.77400005 1.8249944e-38
-0.12457716 0.036120001 0.77400005 1.9448487e-38
-0.11822 0.035980001 0.77100003 1.9261426e-38
-0.10059715 0.035980001 0.77100003 1.8887979e-38
-0.13489716 0.037594289 0.77400005 1.1588918e-38
-0.13376762 0.037691429 0.77600002 8.8230488e-39
-0.13047428 0.037594289 0.77400005 1.5909125e-38
-0.12752572 0.037594289 0.77400005 1.4170648e-38
-0.12605143 0.037594289 0.77400005 1.4455122e-38
-0.12457716 0.037594289 0.77400005 1.6483419e-38
-0.12294381 0.037545718 0.77300006 1.4366895e-38
-0.12147144 0.037545718 0.77300006 1.1416659e-38
-0.11999905 0.037545718 0.77300006 1.4731705e-38
-0.11852667 0.037545718 0.77300006 1.9710244e-38
-0.11675143 0.037448574 0.77100003 1.8795426e-38
-0.11528286 0.037448574 0.77100003 1.8795426e-38
-0.099385723 0.037545718 0.77300006 1.9166355e-38
-0.13376762 0.039169524 0.77600002 8.9156003e-39
-0.13228953 0.039169524 0.77600002 1.1667054e-38
-0.13081144 0.039169524 0.77600002 1.5908046e-38
-0.12605143 0.039068572 0.77400005 1.4354677e-38
-0.12457716 0.039068572 0.77400005 1.4723454e-38
-0.12310287 0.039068572 0.77400005 1.4631977e-38
-0.12162858 0.039068572 0.77400005 1.3525647e-38
-0.12015429 0.039068572 0.77400005 1.4540859e-38
-0.11852667 0.039018098 0.77300006 1.6292554e-38
-0.1170543 0.039018098 0.77300006 1.5837677e-38
-0.11558191 0.039018098 0.77300006 1.5745483e-38
-0.11381429 0.038917147 0.77100003 1.5747276e-38
-0.10969239 0.039018098 0.77300006 1.5747994e-38
-0.13228953 0.040647618 0.77600002 1.093237e-38
-0.13081144 0.040647618 0.77600002 1.1301147e-38
-0.12933333 0.040647618 0.77600002 1.212659e-38
-0.12785524 0.040647618 0.77600002 1.1942202e-38
-0.12637714 0.040647618 0.77600002 1.175889e-38
-0.12489904 0.040647618 0.77600002 1.1666695e-38
-0.12162858 0.04054286 0.77400005 1.1575219e-38
-0.12015429 0.04054286 0.77400005 1.2219143e-38
-0.11868001 0.04054286 0.77400005 1.2034755e-38
-0.1170543 0.040490478 0.77300006 1.2035831e-38
-0.11558191 0.040490478 0.77300006 1.1667054e-38
-0.11410953 0.040490478 0.77300006 1.2222372e-38
-0.10836001 0.04054286 0.77400005 1.2779483e-38
-0.12933333 0.042125717 0.77600002 1.175889e-38
-0.12785524 0.042125717 0.77600002 1.175889e-38
-0.12637714 0.042125717 0.77600002 1.157486e-38
-0.12489904 0.042125717 0.77600002 1.1851443e-38
-0.12015429 0.042017147 0.77400005 1.2592584e-38
-0.11868001 0.042017147 0.77400005 1.2961361e-38
-0.1170543 0.041962862 0.77300006 1.2778766e-38
-0.11558191 0.041962862 0.77300006 1.2963154e-38
-0.11410953 0.041962862 0.77300006 1.3425919e-38
-0.12785524 0.043603808 0.77600002 1.666599e-38
-0.12637714 0.043603808 0.77600002 1.6759261e-38
-0.12489904 0.043603808 0.77600002 1.6943649e-38
-0.12015429 0.043491431 0.77400005 1.7316013e-38
-0.11868001 0.043491431 0.77400005 1.7592596e-38
-0.11720572 0.043491431 0.77400005 1.768479e-38
-0.11573143 0.043491431 0.77400005 1.7869179e-38
-0.11410953 0.043435238 0.77300006 1.8237612e-38
-0.10983429 0.043491431 0.77400005 1.8699306e-38
-0.13263048 0.045198098 0.77800006 1.7221386e-38
-0.12637714 0.045081906 0.77600002 1.7868537e-38
-0.12489904 0.045081906 0.77600002 1.7960732e-38
-0.12015429 0.044965718 0.77400005 1.8239847e-38
-0.11868001 0.044965718 0.77400005 1.8055456e-38
-0.11720572 0.044965718 0.77400005 1.8607205e-38
-0.11573143 0.044965718 0.77400005 1.8330618e-38
-0.11425715 0.044965718 0.77400005 1.8882725e-38
-0.11159619 0.045081906 0.77600002 1.8791611e-38
-0.11011809 0.045081906 0.77600002 1.8699416e-38
-0.10836001 0.044965718 0.77400005 1.8423918e-38
-0.10688572 0.044965718 0.77400005 1.8239526e-38
-0.10541143 0.044965718 0.77400005 1.8238087e-38
-0.10393715 0.044965718 0.77400005 1.8053696e-38
-0.13263048 0.046680003 0.77800006 1.6208633e-38
-0.13114858 0.046680003 0.77800006 1.6024242e-38
-0.12342096 0.046560001 0.77600002 1.6206095e-38
-0.12194286 0.046560001 0.77600002 1.5837318e-38
-0.12046476 0.046560001 0.77600002 1.5651495e-38
-0.11898667 0.046560001 0.77600002 1.509833e-38
-0.11750858 0.046560001 0.77600002 1.3985224e-38
-0.11603048 0.046560001 0.77600002 1.2510093e-38
-0.11425715 0.046440005 0.77400005 1.2041212e-38
-0.11159619 0.046560001 0.77600002 1.1207877e-38
-0.10864001 0.046560001 0.77600002 1.1023847e-38
-0.10716191 0.046560001 0.77600002 1.130043e-38
-0.10568381 0.046560001 0.77600002 1.1945798e-38
-0.10420571 0.046560001 0.77600002 1.2037993e-38
-0.13114858 0.048161909 0.77800006 1.4546306e-38
-0.12966667 0.048161909 0.77800006 1.4545192e-38
-0.12818477 0.048161909 0.77800006 1.4268605e-38
-0.12194286 0.048038095 0.77600002 1.2413935e-38
-0.12046476 0.048038095 0.77600002 1.2405325e-38
-0.11898667 0.048038095 0.77600002 1.185216e-38
-0.11750858 0.048038095 0.77600002 1.093237e-38
-0.11603048 0.048038095 0.77600002 1.093237e-38
-0.11455239 0.048038095 0.77600002 9.9218209e-39
-0.11307429 0.048038095 0.77600002 1.0106209e-38
-0.11159619 0.048038095 0.77600002 1.0197327e-38
-0.11011809 0.048038095 0.77600002 1.047391e-38
-0.10246287 0.047914285 0.77400005 1.175889e-38
-0.10098858 0.047914285 0.77400005 1.1851084e-38
-0.12966667 0.049643811 0.77800006 1.1024564e-38
-0.12818477 0.049643811 0.77800006 1.1024564e-38
-0.12194286 0.04951619 0.77600002 1.157486e-38
-0.12046476 0.04951619 0.77600002 1.0656505e-38
-0.11898667 0.04951619 0.77600002 1.0472116e-38
-0.11750858 0.04951619 0.77600002 9.6456348e-39
-0.11603048 0.04951619 0.77600002 1.8588611e-38
-0.11455239 0.04951619 0.77600002 1.7967624e-38
-0.11307429 0.04951619 0.77600002 1.8520798e-38
-0.11159619 0.04951619 0.77600002 1.8611285e-38
-0.11011809 0.04951619 0.77600002 1.7689329e-38
-0.10864001 0.04951619 0.77600002 1.6764839e-38
-0.10272762 0.04951619 0.77600002 1.1299712e-38
-0.10124952 0.04951619 0.77600002 1.1391906e-38
-0.099514291 0.049388573 0.77400005 1.1483383e-38
-0.098040007 0.049388573 0.77400005 1.1575577e-38
-0.12342096 0.050994288 0.77600002 1.1850725e-38
-0.12194286 0.050994288 0.77600002 1.1666337e-38
-0.12046476 0.050994288 0.77600002 1.0197327e-38
-0.11898667 0.050994288 0.77600002 1.3700752e-38
-0.11750858 0.050994288 0.77600002 1.390209e-38
-0.11603048 0.050994288 0.77600002 1.8788458e-38
-0.11455239 0.050994288 0.77600002 1.9446431e-38
-0.11307429 0.050994288 0.77600002 2.1659126e-38
-0.11159619 0.050994288 0.77600002 2.0928411e-38
-0.11011809 0.050994288 0.77600002 2.0651824e-38
-0.10864001 0.050994288 0.77600002 1.8343389e-38
-0.10716191 0.050994288 0.77600002 9.4004132e-39
-0.099771433 0.050994288 0.77600002 1.1483383e-38
-0.098040007 0.05086286 0.77400005 1.1759966e-38
-0.12342096 0.052472383 0.77600002 1.1023847e-38
-0.12194286 0.052472383 0.77600002 1.0839458e-38
-0.12046476 0.052472383 0.77600002 1.2054571e-38
-0.11898667 0.052472383 0.77600002 2.3487189e-38
-0.11750858 0.052472383 0.77600002 2.1753855e-38
-0.11603048 0.052472383 0.77600002 2.2122638e-38
-0.11455239 0.052472383 0.77600002 2.1387951e-38
-0.11307429 0.052472383 0.77600002 2.1480147e-38
-0.11159619 0.052472383 0.77600002 2.1204276e-38
-0.11011809 0.052472383 0.77600002 2.2034037e-38
-0.10864001 0.052472383 0.77600002 2.1757816e-38
-0.10716191 0.052472383 0.77600002 1.3828991e-38
-0.10568381 0.052472383 0.77600002 1.1976728e-38
-0.098293334 0.052472383 0.77600002 1.6393906e-38
-0.096565716 0.052337144 0.77400005 1.491515e-38
-0.12046476 0.053950477 0.77600002 1.4095504e-38
-0.11898667 0.053950477 0.77600002 2.220872e-38
-0.11750858 0.053950477 0.77600002 2.1850367e-38
-0.11603048 0.053950477 0.77600002 2.074402e-38
-0.11455239 0.053950477 0.77600002 2.0100092e-38
-0.11307429 0.053950477 0.77600002 2.0100092e-38
-0.11188382 0.054089524 0.77800006 2.0099726e-38
-0.10864001 0.053950477 0.77600002 2.1481244e-38
-0.10716191 0.053950477 0.77600002 1.2999246e-38
-0.10568381 0.053950477 0.77600002 1.1425986e-38
-0.11898667 0.055428572 0.77600002 2.1477992e-38
-0.11750858 0.055428572 0.77600002 2.0375597e-38
-0.11603048 0.055428572 0.77600002 1.9822423e-38
-0.11455239 0.055428572 0.77600002 2.0099729e-38
-0.11188382 0.055571433 0.77800006 2.1113878e-38
-0.10864001 0.055428572 0.77600002 2.2034405e-38
-0.10716191 0.055428572 0.77600002 1.4382168e-38
-0.10568381 0.055428572 0.77600002 1.3825016e-38
-0.10420571 0.055428572 0.77600002 2.2030427e-38
-0.11603048 0.05690667 0.77600002 2.0283402e-38
-0.11455239 0.05690667 0.77600002 2.0652184e-38
-0.11307429 0.05690667 0.77600002 2.0467793e-38
-0.11188382 0.057053339 0.77800006 2.0100082e-38
-0.10420571 0.05690667 0.77600002 2.0837266e-38
-0.10272762 0.05690667 0.77600002 2.185073e-38
-0.11307429 0.058384761 0.77600002 1.0602497e-38
-0.10716191 0.058384761 0.77600002 8.5741782e-39
-0.10568381 0.058384761 0.77600002 1.0880479e-38
-0.10420571 0.058384761 0.77600002 2.0745411e-38
-0.10272762 0.058384761 0.77600002 2.157378e-38
-0.10124952 0.058384761 0.77600002 2.0836215e-38
-0.095091432 0.058234289 0.77400005 1.2893165e-39
-0.11307429 0.05986286 0.77600002 1.8453447e-39
-0.10864001 0.05986286 0.77600002 3.6734198e-40
-0.10716191 0.05986286 0.77600002 2.1190547e-39
-0.10568381 0.05986286 0.77600002 7.7382167e-39
-0.10420571 0.05986286 0.77600002 2.2305112e-38
-0.10272762 0.05986286 0.77600002 2.1573424e-38
-0.10124952 0.05986286 0.77600002 2.1204642e-38
-0.099771433 0.05986286 0.77600002 2.120644e-38
-0.095337145 0.05986286 0.77600002 2.6700958e-39
-0.093859047 0.05986286 0.77600002 6.8901733e-39
-0.11307429 0.061340958 0.77600002 7.3934749e-40
-0.11188382 0.061499052 0.77800006 3.4908251e-39
-0.10420571 0.061340958 0.77600002 2.3492197e-38
-0.10272762 0.061340958 0.77600002 2.1849648e-38
-0.10124952 0.061340958 0.77600002 2.1204279e-38
-0.099771433 0.061340958 0.77600002 2.1114241e-38
-0.098293334 0.061340958 0.77600002 2.1114241e-38
-0.096815243 0.061340958 0.77600002 1.7331369e-38
-0.095337145 0.061340958 0.77600002 1.2893291e-39
-0.093859047 0.061340958 0.77600002 6.1551306e-39
-0.092142865 0.06118286 0.77400005 1.5559078e-38
-0.11307429 0.062819049 0.77600002 2.024327e-39
-0.11188382 0.062980957 0.77800006 7.1656798e-39
-0.10272762 0.062819049 0.77600002 2.1941841e-38
-0.10124952 0.062819049 0.77600002 2.1019885e-38
-0.099771433 0.062819049 0.77600002 2.0929853e-38
-0.098546669 0.062980957 0.77800006 2.1390831e-38
-0.097064771 0.062980957 0.77800006 1.8067845e-38
-0.095582865 0.062980957 0.77800006 2.3023922e-39
-0.092380948 0.062819049 0.77600002 1.4725713e-38
-0.090902865 0.062819049 0.77600002 1.6864219e-38
-0.11307429 0.06429714 0.77600002 2.5764302e-39
-0.11188382 0.064462863 0.77800006 8.6354065e-39
-0.10124952 0.06429714 0.77600002 2.1020241e-38
-0.097064771 0.064462863 0.77800006 1.8529899e-38
-0.095582865 0.064462863 0.77800006 1.3815121e-39
-0.08919429 0.064131431 0.77400005 2.3410465e-38
-0.11307429 0.065775238 0.77600002 3.7738845e-39
-0.11188382 0.065944768 0.77800006 1.0105492e-38
-0.098546669 0.065944768 0.77800006 2.1667418e-38
-0.097064771 0.065944768 0.77800006 1.908235e-38
-0.095582865 0.065944768 0.77800006 2.0261585e-39
-0.089424767 0.065775238 0.77600002 2.3502296e-38
-0.11188382 0.067426667 0.77800006 1.0197327e-38
-0.098546669 0.067426667 0.77800006 2.1759248e-38
-0.097064771 0.067426667 0.77800006 1.8441297e-38
-0.095582865 0.067426667 0.77800006 2.1706113e-42
-0.090902865 0.067253336 0.77600002 1.4930615e-38
-0.089424767 0.067253336 0.77600002 2.3228222e-38
-0.087946668 0.067253336 0.77600002 2.2035837e-38
-0.092619054 0.068908572 0.77800006 8.3717816e-39
-0.089655243 0.068908572 0.77800006 2.3409383e-38
-0.088173337 0.068908572 0.77800006 2.1943642e-38
-0.08646857 0.068731427 0.77600002 2.1851446e-38
-0.084990479 0.068731427 0.77600002 2.2035481e-38
-0.10002857 0.070390478 0.77800006 2.0836931e-38
-0.098800004 0.07057143 0.78000003 2.1666692e-38
-0.092619054 0.070390478 0.77800006 1.6965438e-38
-0.091137148 0.070390478 0.77800006 1.7239188e-38
-0.089655243 0.070390478 0.77800006 2.1664566e-38
-0.088173337 0.070390478 0.77800006 2.1482664e-38
-0.086691439 0.070390478 0.77800006 2.1943642e-38
-0.085209534 0.070390478 0.77800006 2.1943286e-38
-0.083727628 0.070390478 0.77800006 1.5673983e-38
-0.082245722 0.070390478 0.77800006 9.5919679e-39
-0.10002857 0.071872383 0.77800006 2.0836931e-38
-0.092619054 0.071872383 0.77800006 2.1113881e-38
-0.091137148 0.071872383 0.77800006 2.1021683e-38
-0.089655243 0.071872383 0.77800006 2.1206074e-38
-0.088173337 0.071872383 0.77800006 2.0929853e-38
-0.086691439 0.071872383 0.77800006 2.1667418e-38
-0.080763817 0.071872383 0.77800006 1.4755898e-38
-0.079078101 0.071687624 0.77600002 2.0559623e-38
-0.091137148 0.073354289 0.77800006 2.1850727e-38
-0.089655243 0.073354289 0.77800006 2.1113162e-38
-0.088173337 0.073354289 0.77800006 2.0836938e-38
-0.086691439 0.073354289 0.77800006 2.2035481e-38
-0.085209534 0.073354289 0.77800006 2.2035481e-38
-0.077799998 0.073354289 0.77800006 2.2219863e-38
-0.0763181 0.073354289 0.77800006 2.1850727e-38
-0.089655243 0.074836195 0.77800006 2.129826e-38
-0.088173337 0.074836195 0.77800006 2.0745099e-38
-0.086691439 0.074836195 0.77800006 2.1851446e-38
-0.085209534 0.074836195 0.77800006 2.1944005e-38
-0.083727628 0.074836195 0.77800006 1.6227876e-38
-0.085209534 0.0763181 0.77800006 2.2128033e-38
-0.083727628 0.0763181 0.77800006 1.7702643e-38
-0.082245722 0.0763181 0.77800006 1.1438394e-38
-0.083727628 0.077799998 0.77800006 1.8255817e-38
-0.082245722 0.077799998 0.77800006 1.3092483e-38
-0.080763817 0.077799998 0.77800006 1.3184679e-38
-0.082245722 0.079281911 0.77800006 1.1716423e-38
-0.080763817 0.079281911 0.77800006 1.0702271e-38
-0.079281911 0.079281911 0.77800006 1.7981019e-38
-0.080763817 0.080763817 0.77800006 1.11636e-38
-0.079281911 0.080763817 0.77800006 1.7518968e-38
-0.077799998 0.080763817 0.77800006 2.231314e-38
-0.077799998 0.082245722 0.77800006 2.1853977e-38
-0.0763181 0.082245722 0.77800006 2.221951e-38
-0.0763181 0.083727628 0.77800006 2.2311705e-38
-0.074836195 0.083727628 0.77800006 2.2864879e-38
-0.074836195 0.085209534 0.77800006 2.2680488e-38
-0.073354289 0.085209534 0.77800006 2.2957794e-38
-0.071872383 0.086691439 0.77800006 1.1711732e-38
-0.067600004 0.088400006 0.78000003 1.8983315e-38
-0.066114292 0.088400006 0.78000003 1.972088e-38
-0.06917429 0.09000095 0.78100002 2.1667415e-38
-0.067686662 0.09000095 0.78100002 2.1666699e-38
-0.066199049 0.09000095 0.78100002 2.249646e-38
-0.064711429 0.09000095 0.78100002 2.3323343e-38
-0.06917429 0.091488577 0.78100002 2.3325856e-38
-0.067686662 0.091488577 0.78100002 2.3326213e-38
-0.066199049 0.091488577 0.78100002 2.3326213e-38
-0.064711429 0.09297619 0.78100002 2.341769e-38
-0.063223809 0.09446381 0.78100002 1.1155308e-38
-0.060248572 0.09595143 0.78100002 1.8515731e-38
-0.058760952 0.097439051 0.78100002 8.8194362e-39
-0.057273332 0.098926663 0.78100002 1.1115324e-38
-0.052945714 0.10216286 0.78300005 1.4060549e-38
-0.046860002 0.10934 0.78100002 1.8691403e-38
-0.045372382 0.10934 0.78100002 1.896799e-38
-0.041014288 0.11409429 0.78300005 1.332081e-38
-0.038031429 0.11558571 0.78300005 1.3874357e-38
-0.038031429 0.11707715 0.78300005 1.3966916e-38
-0.035048574 0.11707715 0.78300005 1.4058738e-38
-0.038031429 0.11856858 0.78300005 1.3966903e-38
-0.036540005 0.11856858 0.78300005 1.3966903e-38
-0.035048574 0.11856858 0.78300005 1.4057659e-38
-0.033557143 0.11856858 0.78300005 1.4334246e-38
-0.033642858 0.12036667 0.78500003 1.4152376e-38
-0.03214762 0.1218619 0.78500003 1.4152028e-38
-0.027591432 0.12155143 0.78300005 1.4243508e-38
-0.030652381 0.12335715 0.78500003 1.4152389e-38
-0.026166666 0.12335715 0.78500003 1.4427531e-38
-0.030652381 0.12485238 0.78500003 1.4244584e-38
-0.029157145 0.12485238 0.78500003 1.4428259e-38
-0.027661905 0.12485238 0.78500003 1.4428259e-38
-0.026166666 0.12485238 0.78500003 1.442825e-38
0.0082028583 0.12453429 0.78300005 1.685515e-38
-0.029157145 0.12634763 0.78500003 1.4429338e-38
-0.027661905 0.12634763 0.78500003 1.4337143e-38
-0.026166666 0.12634763 0.78500003 1.4520458e-38
-0.024734288 0.12816858 0.78700006 1.4521534e-38
-0.023235239 0.12816858 0.78700006 1.4520445e-38
-0.021736192 0.12816858 0.78700006 1.4612641e-38
-0.023235239 0.12966764 0.78700006 1.4612305e-38
-0.021736192 0.12966764 0.78700006 1.3966935e-38
-0.020237144 0.12966764 0.78700006 1.3598111e-38
-0.018738097 0.12966764 0.78700006 1.4059086e-38
-0.021791428 0.13150001 0.78900003 1.2767686e-38
-0.020288572 0.13150001 0.78900003 1.4061593e-38
-0.017239049 0.13116667 0.78700006 1.9154587e-38
-0.01574 0.13266572 0.78700006 1.7683797e-38
-0.014240953 0.13266572 0.78700006 1.7863823e-38
-0.01574 0.13416478 0.78700006 1.6485602e-38
-0.014240953 0.13416478 0.78700006 1.611071e-38
-0.012741906 0.13416478 0.78700006 1.5649732e-38
-0.014240953 0.13566381 0.78700006 1.5370607e-38
-0.012741906 0.13566381 0.78700006 1.6108161e-38
-0.011242858 0.13566381 0.78700006 1.6111059e-38
-0.0097438106 0.13566381 0.78700006 2.0720841e-38
-0.017239049 0.13716286 0.78700006 1.6853966e-38
-0.01574 0.13716286 0.78700006 1.4364722e-38
-0.014240953 0.13716286 0.78700006 1.5282407e-38
-0.012741906 0.13716286 0.78700006 1.7402906e-38
-0.011242858 0.13716286 0.78700006 1.7680242e-38
-0.0097438106 0.13716286 0.78700006 2.0538306e-38
-0.0082657151 0.13751143 0.78900003 1.9343998e-38
-0.014277143 0.13901429 0.78900003 1.6210435e-38
-0.012774286 0.13901429 0.78900003 1.6948e-38
-0.0097438106 0.13866192 0.78700006 1.878728e-38
-0.0082657151 0.13901429 0.78900003 1.7868111e-38
-0.0067628575 0.13901429 0.78900003 1.7222743e-38
-0.011271429 0.14051715 0.78900003 1.8237333e-38
-0.0097685717 0.14051715 0.78900003 1.6946595e-38
-0.0082657151 0.14051715 0.78900003 1.657559e-38
-0.0067628575 0.14051715 0.78900003 1.6483395e-38
-0.00526 0.14051715 0.78900003 1.7957486e-38
-0.0082657151 0.14202 0.78900003 1.5651854e-38
-0.0067628575 0.14202 0.78900003 1.6573796e-38
-0.00526 0.14202 0.78900003 1.7312113e-38
-0.0037571429 0.14202 0.78900003 1.9617004e-38
-0.0022542858 0.14202 0.78900003 1.8787915e-38
-0.0067628575 0.14352286 0.78900003 1.7128416e-38
-0.00526 0.14352286 0.78900003 1.804973e-38
-0.0037571429 0.14352286 0.78900003 1.9432665e-38
-0.0022542858 0.14352286 0.78900003 1.8786492e-38
-0.0007514286 0.14352286 0.78900003 1.8878688e-38
-0.0082657151 0.14502572 0.78900003 1.5563247e-38
-0.0067714285 0.14520952 0.79000002 1.8052502e-38
-0.00526 0.14502572 0.78900003 1.8974192e-38
-0.0037571429 0.14502572 0.78900003 1.8052236e-38
-0.0022542858 0.14502572 0.78900003 1.8415915e-38
-0.0007514286 0.14502572 0.78900003 1.9061284e-38
0.0007514286 0.14502572 0.78900003 1.8785835e-38
0.0022542858 0.14502572 0.78900003 1.6849727e-38
-0.0052666669 0.14671429 0.79000002 1.9066728e-38
-0.0037619048 0.14671429 0.79000002 1.6669642e-38
-0.0022542858 0.14652859 0.78900003 1.6941176e-38
-0.0007514286 0.14652859 0.78900003 1.7402154e-38
0.0007514286 0.14652859 0.78900003 1.7311411e-38
0.0022542858 0.14652859 0.78900003 1.6850433e-38
0.0037571429 0.14652859 0.78900003 1.6570281e-38
-0.0037619048 0.14821905 0.79000002 1.5562954e-38
-0.0022571429 0.14821905 0.79000002 1.5927021e-38
-0.00075238099 0.14821905 0.79000002 1.6941173e-38
0.0007514286 0.14803144 0.78900003 1.7125598e-38
0.0022542858 0.14803144 0.78900003 1.6572424e-38
0.0037619048 0.14821905 0.79000002 1.6477726e-38
-0.00075238099 0.14972381 0.79000002 1.6940503e-38
0.00075238099 0.14972381 0.79000002 1.6574578e-38
0.0022571429 0.14972381 0.79000002 1.5652622e-38
0.0037619048 0.14972381 0.79000002 1.6663569e-38
0.0052666669 0.14972381 0.79000002 1.8876264e-38
0.0067714285 0.14972381 0.79000002 1.7128801e-38
0.0082761906 0.14972381 0.79000002 1.3901957e-38
0.015799999 0.14972381 0.79000002 1.6292979e-38
0.0022571429 0.15122858 0.79000002 1.537677e-38
0.0037619048 0.15122858 0.79000002 1.6298379e-38
0.0052666669 0.15122858 0.79000002 1.8511074e-38
0.0067714285 0.15122858 0.79000002 1.6854427e-38
0.0082761906 0.15122858 0.79000002 1.3443189e-38
0.0097809527 0.15122858 0.79000002 1.5092245e-38
0.011285715 0.15122858 0.79000002 1.8595679e-38
0.015799999 0.15122858 0.79000002 1.5280294e-38
0.017348573 0.15161145 0.79200006 1.260662e-38
-0.0037714287 0.15312001 0.79200006 1.5094098e-38
0.0037619048 0.15273334 0.79000002 1.6482768e-38
0.0052666669 0.15273334 0.79000002 1.832668e-38
0.0067714285 0.15273334 0.79000002 1.7406153e-38
0.0082761906 0.15273334 0.79000002 1.620761e-38
0.0097809527 0.15273334 0.79000002 1.5740887e-38
0.011285715 0.15273334 0.79000002 1.4634539e-38
0.012790476 0.15273334 0.79000002 1.4996532e-38
0.015799999 0.15273334 0.79000002 1.4531622e-38
0.017348573 0.15312001 0.79200006 1.4623818e-38
0.027908573 0.15312001 0.79200006 1.4163556e-38
0.0052666669 0.15423809 0.79000002 1.7128831e-38
0.0067714285 0.15423809 0.79000002 1.7219629e-38
0.0082761906 0.15423809 0.79000002 1.6758651e-38
0.0097809527 0.15423809 0.79000002 1.574201e-38
0.011285715 0.15423809 0.79000002 1.2330772e-38
0.012790476 0.15423809 0.79000002 1.41621e-38
0.014295238 0.15423809 0.79000002 1.4715273e-38
0.015799999 0.15423809 0.79000002 1.499115e-38
0.017348573 0.15462859 0.79200006 1.5359932e-38
-0.0022571429 0.15574285 0.79000002 1.6204007e-38
-0.00075238099 0.15574285 0.79000002 1.5374247e-38
0.00075238099 0.15574285 0.79000002 1.5559729e-38
0.0067714285 0.15574285 0.79000002 1.4816785e-38
0.0082761906 0.15574285 0.79000002 1.4448002e-38
0.0097809527 0.15574285 0.79000002 1.4534499e-38
0.011285715 0.15574285 0.79000002 1.3704738e-38
0.012790476 0.15574285 0.79000002 1.4439426e-38
0.017348573 0.15613715 0.79200006 1.5452125e-38
0.03100381 0.15653142 0.79400003 1.4370624e-38
0.032598101 0.15692572 0.79600006 1.676771e-38
0.034199998 0.15732001 0.79800004 1.5485954e-38
0.035720002 0.15732001 0.79800004 1.5209367e-38
-0.0022628573 0.15764573 0.79200006 1.6481326e-38
-0.00075428578 0.15764573 0.79200006 1.5835956e-38
0.00075428578 0.15764573 0.79200006 1.5929597e-38
0.0022571429 0.15724762 0.79000002 1.6206183e-38
0.0037619048 0.15724762 0.79000002 1.6112919e-38
0.0052666669 0.15724762 0.79000002 1.3623637e-38
0.0067885718 0.15764573 0.79200006 1.3800129e-38
0.0082971435 0.15764573 0.79200006 1.2693781e-38
0.0098057147 0.15764573 0.79200006 1.3977345e-38
0.011314287 0.15764573 0.79200006 1.4991497e-38
0.017348573 0.15764573 0.79200006 1.5636156e-38
0.032516193 0.1580438 0.79400003 1.6768429e-38
0.03411429 0.15844192 0.79600006 1.557815e-38
0.035630479 0.15844192 0.79600006 1.5301563e-38
-0.0022628573 0.1591543 0.79200006 1.6759668e-38
-0.00075428578 0.1591543 0.79200006 1.5653321e-38
0.00075428578 0.1591543 0.79200006 1.4633858e-38
0.0022628573 0.1591543 0.79200006 1.3896293e-38
0.0037714287 0.1591543 0.79200006 1.425933e-38
0.0052800006 0.1591543 0.79200006 1.3429569e-38
0.0067885718 0.1591543 0.79200006 1.4255014e-38
0.0082971435 0.1591543 0.79200006 1.434721e-38
0.0098057147 0.1591543 0.79200006 1.4806756e-38
0.011314287 0.1591543 0.79200006 1.4991147e-38
0.012822858 0.1591543 0.79200006 1.5266655e-38
0.014331429 0.1591543 0.79200006 1.5451046e-38
0.0022628573 0.16066287 0.79200006 1.2328582e-38
0.0037714287 0.16066287 0.79200006 1.388479e-38
0.0083180955 0.16106857 0.79400003 1.5358488e-38
0.0098304767 0.16106857 0.79400003 1.5266655e-38
0.011342858 0.16106857 0.79400003 1.5266655e-38
0.012855238 0.16106857 0.79400003 1.5358132e-38
0.01436762 0.16106857 0.79400003 1.5450327e-38
0.01588 0.16106857 0.79400003 1.554216e-38
0.017392382 0.16106857 0.79400003 1.5634356e-38
0.018904762 0.16106857 0.79400003 1.5634721e-38
0.020417145 0.16106857 0.79400003 1.5726917e-38
0.012855238 0.16258095 0.79400003 1.5265576e-38
0.01588 0.16258095 0.79400003 1.5451049e-38
0.017392382 0.16258095 0.79400003 1.5358853e-38
0.018904762 0.16258095 0.79400003 1.5449262e-38
0.01288762 0.16450667 0.79600006 1.5266655e-38
0.01436762 0.16409333 0.79400003 1.5451046e-38
0.01288762 0.16602288 0.79600006 1.5266655e-38
0.01436762 0.16560571 0.79400003 1.5451046e-38
0.019000001 0.16644001 0.79800004 1.5451057e-38
0.020520002 0.16644001 0.79800004 1.5727644e-38
0.02204 0.16644001 0.79800004 1.5727281e-38
0.023560001 0.16644001 0.79800004 1.5635086e-38
0.025080001 0.16644001 0.79800004 1.5727281e-38
0.02204 0.16796 0.79800004 1.5632933e-38
0.023560001 0.16796 0.79800004 1.6278303e-38
0.025080001 0.16796 0.79800004 1.5820196e-38
0.026600001 0.16796 0.79800004 1.5728e-38
0.02812 0.16796 0.79800004 1.3980599e-38
0.029640002 0.16796 0.79800004 1.6008903e-38
0.023560001 0.16948001 0.79800004 1.6092852e-38
0.025080001 0.16948001 0.79800004 1.5634733e-38
0.026600001 0.16948001 0.79800004 1.5450341e-38
0.02812 0.16948001 0.79800004 1.4072439e-38
0.029640002 0.16948001 0.79800004 1.6192938e-38
0.028190477 0.17142858 0.80000001 1.4073121e-38
0.029714286 0.17142858 0.80000001 1.600923e-38
0.031238094 0.17142858 0.80000001 1.4459585e-38
0.028190477 0.17295238 0.80000001 1.314614e-38
0.029714286 0.17295238 0.80000001 1.5358835e-38
0.031238094 0.17295238 0.80000001 1.3723457e-38
0.032761905 0.17295238 0.80000001 1.7687869e-38
0.029714286 0.17447619 0.80000001 1.4163246e-38
0.031238094 0.17447619 0.80000001 1.363233e-38
0.032761905 0.17447619 0.80000001 1.7504547e-38
0.031238094 0.176 0.80000001 1.4742313e-38
0.032761905 0.176 0.80000001 1.6770617e-38
0.032761905 0.17752382 0.80000001 1.4568001e-38
0.034285713 0.18057144 0.80000001 1.5393771e-38
0.032761905 0.18209523 0.80000001 1.631317e-38
0.034285713 0.18209523 0.80000001 1.603914e-38
0.03284381 0.18407811 0.80200005 1.6039481e-38
0.034371432 0.18407811 0.80200005 1.640756e-38
