# .PCD v0.7 - Point Cloud Data file format
VERSION 0.7
FIELDS x y z rgb
SIZE 4 4 4 4
TYPE F F F F
COUNT 1 1 1 1
WIDTH 485
HEIGHT 1
VIEWPOINT 0 0 0 1 0 0 0
POINTS 485
DATA ascii
-0.0069400002 -0.044614285 1.041 1.0301042e-38
-0.016805716 -0.042508572 1.0380001 1.0115583e-38
-0.014771429 -0.042344764 1.034 1.0024442e-38
-0.0089228572 -0.042631429 1.041 9.6560128e-39
-0.016740954 -0.038405713 1.034 1.398312e-38
-0.010800953 -0.038294286 1.031 1.6479203e-38
-0.018710475 -0.036436193 1.034 1.3243746e-38
-0.016740954 -0.036436193 1.034 1.3243746e-38
-0.014728571 -0.036330476 1.031 1.3891604e-38
-0.012764761 -0.036330476 1.031 1.3522822e-38
-0.010800953 -0.036330476 1.031 1.3892355e-38
-0.008837143 -0.036330476 1.031 1.822555e-38
-0.0068733334 -0.036330476 1.031 1.5564399e-38
-0.0049095238 -0.036330476 1.031 1.9621006e-38
-0.032402854 -0.034366667 1.031 1.287318e-38
-0.018710475 -0.034466669 1.034 1.3059358e-38
-0.016692381 -0.034366667 1.031 1.2782771e-38
-0.014728571 -0.034366667 1.031 1.2779179e-38
-0.012764761 -0.034366667 1.031 1.1027462e-38
-0.010800953 -0.034366667 1.031 1.3062164e-38
-0.008837143 -0.034366667 1.031 1.8040717e-38
-0.0068733334 -0.034366667 1.031 1.5011979e-38
-0.0049095238 -0.034366667 1.031 1.8699804e-38
-0.034466669 -0.032497145 1.034 1.2503667e-38
-0.018710475 -0.032497145 1.034 1.2315693e-38
-0.016692381 -0.032402854 1.031 1.2500084e-38
-0.014728571 -0.032402854 1.031 1.231427e-38
-0.012764761 -0.032402854 1.031 1.0931336e-38
-0.010800953 -0.032402854 1.031 1.2874906e-38
-0.008837143 -0.032402854 1.031 2.2002264e-38
-0.0068733334 -0.032402854 1.031 1.9440271e-38
-0.0049095238 -0.032402854 1.031 1.8426119e-38
-0.018710475 -0.03052762 1.034 1.2406435e-38
-0.016692381 -0.030439047 1.031 1.2498631e-38
-0.014728571 -0.030439047 1.031 1.2589045e-38
-0.012764761 -0.030439047 1.031 1.1298307e-38
-0.010800953 -0.030439047 1.031 1.2686572e-38
-0.008837143 -0.030439047 1.031 2.2920274e-38
-0.0068733334 -0.030439047 1.031 2.0271154e-38
-0.036330476 -0.028475238 1.031 1.2223483e-38
-0.016740954 -0.028558096 1.034 1.2406435e-38
-0.014728571 -0.028475238 1.031 1.2221695e-38
-0.012764761 -0.028475238 1.031 1.1115347e-38
-0.010800953 -0.028475238 1.031 1.2220937e-38
-0.008837143 -0.028475238 1.031 2.1348292e-38
-0.0068733334 -0.028475238 1.031 1.8330743e-38
-0.018710475 -0.026588572 1.034 1.231459e-38
-0.016740954 -0.026588572 1.034 1.231459e-38
-0.012764761 -0.026511429 1.031 1.1576675e-38
-0.010800953 -0.026511429 1.031 1.1667772e-38
-0.008837143 -0.026511429 1.031 2.033415e-38
-0.0068733334 -0.026511429 1.031 1.6215265e-38
-0.016740954 -0.024619048 1.034 1.2038356e-38
-0.010800953 -0.024547618 1.031 1.1483384e-38
-0.008837143 -0.024547618 1.031 1.12068e-38
-0.0068733334 -0.024547618 1.031 1.0105492e-38
-0.016740954 -0.022649525 1.034 1.1761401e-38
-0.014771429 -0.022649525 1.034 1.1669206e-38
-0.008837143 -0.022583811 1.031 1.1023488e-38
0.0049095238 -0.022583811 1.031 1.0472834e-38
-0.020680001 -0.020680001 1.034 1.2037983e-38
-0.016740954 -0.020680001 1.034 1.249752e-38
-0.014771429 -0.020680001 1.034 1.2406043e-38
-0.012801905 -0.020680001 1.034 1.3235795e-38
0.0029457142 -0.020620001 1.031 1.4444719e-38
-0.01878286 -0.01878286 1.0380001 1.3613177e-38
-0.016805716 -0.01878286 1.0380001 1.3797566e-38
-0.014771429 -0.018710475 1.034 1.3799718e-38
-0.012801905 -0.018710475 1.034 1.3984107e-38
0.0029542858 -0.018710475 1.034 1.6386898e-38
-0.01878286 -0.016805716 1.0380001 1.7314602e-38
-0.016805716 -0.016805716 1.0380001 1.8144363e-38
-0.014828573 -0.016805716 1.0380001 1.7500085e-38
0.0009819048 -0.016692381 1.031 1.685399e-38
-0.020760002 -0.014828573 1.0380001 1.6208014e-38
-0.01878286 -0.014828573 1.0380001 1.6486316e-38
-0.016805716 -0.014828573 1.0380001 1.6578511e-38
-0.014828573 -0.014828573 1.0380001 1.6669317e-38
-0.020760002 -0.01285143 1.0380001 1.4270207e-38
-0.01878286 -0.01285143 1.0380001 1.3628962e-38
-0.016805716 -0.01285143 1.0380001 6.8065887e-39
-0.014828573 -0.01285143 1.0380001 9.3704492e-39
-0.020760002 -0.010874286 1.0380001 1.4739844e-38
-0.01878286 -0.010874286 1.0380001 1.2984006e-38
-0.016805716 -0.010874286 1.0380001 6.8069474e-39
-0.022737145 -0.0088971434 1.0380001 2.1937878e-38
-0.020760002 -0.0088971434 1.0380001 1.7143705e-38
-0.01878286 -0.0088971434 1.0380001 1.4190224e-38
-0.016805716 -0.0088971434 1.0380001 1.4835593e-38
-0.022737145 -0.0069200005 1.0380001 2.0834803e-38
-0.020760002 -0.0069200005 1.0380001 1.5579652e-38
-0.01878286 -0.0069200005 1.0380001 1.3457611e-38
-0.016805716 -0.0069200005 1.0380001 1.8989349e-38
-0.026588572 -0.0049238093 1.034 1.6955724e-38
-0.022737145 -0.0049428577 1.0380001 2.0834414e-38
-0.020760002 -0.0049428577 1.0380001 1.6316829e-38
-0.01878286 -0.0049428577 1.0380001 1.474981e-38
-0.016805716 -0.0049428577 1.0380001 2.0004961e-38
-0.026588572 -0.0029542858 1.034 1.622032e-38
-0.024714287 -0.0029657145 1.0380001 2.1475471e-38
-0.022737145 -0.0029657145 1.0380001 2.0651115e-38
-0.020760002 -0.0029657145 1.0380001 1.6410116e-38
-0.01878286 -0.0029657145 1.0380001 1.3458732e-38
-0.016854286 -0.0029742857 1.041 1.7423144e-38
-0.024714287 -0.00098857156 1.0380001 2.2210875e-38
-0.022737145 -0.00098857156 1.0380001 2.0834414e-38
-0.020760002 -0.00098857156 1.0380001 1.7330981e-38
-0.01878286 -0.00098857156 1.0380001 1.3549874e-38
-0.016854286 -0.00099142862 1.041 1.4722462e-39
-0.028558096 0.00098476198 1.034 1.8498168e-38
-0.024714287 0.00098857156 1.0380001 2.1566943e-38
-0.022737145 0.00098857156 1.0380001 2.0558919e-38
-0.020760002 0.00098857156 1.0380001 1.779305e-38
-0.01878286 0.00098857156 1.0380001 1.4470035e-38
-0.016854286 0.00099142862 1.041 2.76119e-39
-0.026691431 0.0029657145 1.0380001 1.6218512e-38
-0.024714287 0.0029657145 1.0380001 2.1842446e-38
-0.022737145 0.0029657145 1.0380001 2.0835133e-38
-0.020760002 0.0029657145 1.0380001 1.816146e-38
-0.01878286 0.0029657145 1.0380001 1.4930657e-38
-0.026691431 0.0049428577 1.0380001 1.5943004e-38
-0.024714287 0.0049428577 1.0380001 2.1566938e-38
-0.022737145 0.0049428577 1.0380001 2.074331e-38
-0.020760002 0.0049428577 1.0380001 1.8254028e-38
-0.01878286 0.0049428577 1.0380001 1.5480594e-38
-0.026691431 0.0069200005 1.0380001 1.5113599e-38
-0.024714287 0.0069200005 1.0380001 2.1751685e-38
-0.022737145 0.0069200005 1.0380001 2.0743301e-38
-0.020760002 0.0069200005 1.0380001 1.8622801e-38
-0.01878286 0.0069200005 1.0380001 1.5206168e-38
-0.028668575 0.0088971434 1.0380001 1.3069831e-38
-0.022737145 0.0088971434 1.0380001 2.0559275e-38
-0.020760002 0.0088971434 1.0380001 1.8807558e-38
-0.018837143 0.0089228572 1.041 1.5573871e-38
-0.028668575 0.010874286 1.0380001 1.0223298e-38
-0.026691431 0.010874286 1.0380001 1.3364764e-38
-0.020760002 0.010874286 1.0380001 1.9084498e-38
-0.018837143 0.010905715 1.041 1.557495e-38
-0.030645715 0.01285143 1.0380001 1.8522334e-38
-0.028668575 0.01285143 1.0380001 1.0224727e-38
-0.030645715 0.014828573 1.0380001 1.5668829e-38
-0.028668575 0.014828573 1.0380001 8.8463524e-39
-0.030645715 0.016805716 1.0380001 6.9070338e-39
-0.028668575 0.016805716 1.0380001 9.3041089e-39
-0.024785714 0.016854286 1.041 2.1017707e-38
-0.024857143 0.020879999 1.044 2.193354e-38
-0.026768571 0.022802858 1.041 1.5295815e-38
-0.030822858 0.026845716 1.044 9.7377912e-39
-0.028834287 0.026845716 1.044 1.2595846e-38
-0.032811429 0.028834287 1.044 6.1627271e-39
-0.030822858 0.028834287 1.044 9.7377912e-39
-0.032811429 0.030822858 1.044 6.5300649e-39
-0.030822858 0.030822858 1.044 1.0013298e-38
-0.030822858 0.032811429 1.044 1.0472834e-38
-0.034899998 0.036894288 1.0470001 8.2680645e-39
-0.034899998 0.03888857 1.0470001 1.5105504e-38
-0.034899998 0.040882859 1.0470001 1.6576373e-38
-0.036894288 0.042877145 1.0470001 1.6211489e-38
-0.034899998 0.042877145 1.0470001 1.53778e-38
-0.036894288 0.044871431 1.0470001 1.4919322e-38
-0.036894288 0.046865717 1.0470001 1.5932024e-38
-0.03888857 0.048860002 1.0470001 1.8143728e-38
-0.036894288 0.048860002 1.0470001 1.8235924e-38
-0.03888857 0.050854288 1.0470001 1.4723095e-38
-0.041000001 0.057 1.0500001 1.250042e-38
-0.041000001 0.059000004 1.0500001 1.2776661e-38
-0.04316381 0.063239999 1.054 1.2871003e-38
-0.049326669 0.065433331 1.057 1.2595142e-38
-0.04316381 0.065247618 1.054 1.2871366e-38
-0.049326669 0.067446664 1.057 1.2594788e-38
-0.045300003 0.071473338 1.057 1.2688063e-38
-0.047313333 0.073486671 1.057 1.2871015e-38
-0.045300003 0.073486671 1.057 1.296321e-38
-0.047313333 0.075500004 1.057 1.2501153e-38
-0.045300003 0.075500004 1.057 1.2962131e-38
-0.047313333 0.07751333 1.057 1.1760361e-38
-0.047313333 0.07952667 1.057 1.2227513e-38
-0.049326669 0.081540003 1.057 1.7323032e-38
-0.047313333 0.081540003 1.057 1.4368504e-38
-0.049326669 0.083553337 1.057 2.0823463e-38
-0.049326669 0.08556667 1.057 1.8693944e-38
-0.053504765 0.091866672 1.0600001 2.0175225e-38
-0.051485714 0.091866672 1.0600001 2.1294602e-38
-0.053504765 0.09388572 1.0600001 2.0830419e-38
-0.051485714 0.09388572 1.0600001 2.0745108e-38
-0.069854289 0.0961762 1.0630001 2.092301e-38
-0.053504765 0.095904768 1.0600001 2.1385472e-38
-0.051485714 0.095904768 1.0600001 2.2031156e-38
-0.082311429 0.098570473 1.067 1.9358208e-38
-0.055523813 0.097923815 1.0600001 1.770122e-38
-0.053504765 0.097923815 1.0600001 2.0835872e-38
-0.057705715 0.10225048 1.0630001 1.844378e-38
-0.055680957 0.10225048 1.0630001 2.1019171e-38
-0.057705715 0.10427524 1.0630001 1.8814743e-38
-0.055680957 0.10427524 1.0630001 2.0558907e-38
-0.053656194 0.10427524 1.0630001 2.0651102e-38
-0.059730481 0.1063 1.0630001 8.7606111e-39
-0.057705715 0.1063 1.0630001 2.037726e-38
-0.055680957 0.1063 1.0630001 2.0282685e-38
-0.053656194 0.1063 1.0630001 2.0467077e-38
-0.059730481 0.10832477 1.0630001 8.4859762e-39
-0.057705715 0.10832477 1.0630001 1.8904082e-38
-0.055680957 0.10832477 1.0630001 2.0743298e-38
-0.059730481 0.11034954 1.0630001 1.0882209e-38
-0.057705715 0.11034954 1.0630001 1.9548598e-38
-0.055680957 0.11034954 1.0630001 2.0926973e-38
-0.086861916 0.11343143 1.0730001 2.0205154e-39
-0.059730481 0.1123743 1.0630001 1.0699291e-38
-0.057705715 0.1123743 1.0630001 1.8074941e-38
-0.055680957 0.1123743 1.0630001 2.0652174e-38
-0.086861916 0.11547524 1.0730001 2.6690294e-39
-0.06175524 0.11439905 1.0630001 1.5027888e-38
-0.059730481 0.11439905 1.0630001 1.2351626e-38
-0.057705715 0.11439905 1.0630001 1.6869212e-38
-0.086861916 0.11751906 1.0730001 3.5038613e-39
-0.061987624 0.1168619 1.067 1.917417e-38
-0.059955239 0.1168619 1.067 1.309246e-38
-0.057705715 0.11642382 1.0630001 9.4046353e-39
-0.06402 0.11889429 1.067 2.1293944e-38
-0.061987624 0.11889429 1.067 2.0095401e-38
-0.059955239 0.11889429 1.067 1.4201364e-38
-0.057922855 0.11889429 1.067 8.1164524e-39
-0.088657148 0.12126668 1.0700001 1.8715716e-38
-0.086861916 0.12160668 1.0730001 1.7424977e-38
-0.06402 0.12092667 1.067 1.8893943e-38
-0.061987624 0.12092667 1.067 1.7971986e-38
-0.059955239 0.12092667 1.067 1.6591222e-38
-0.057922855 0.12092667 1.067 2.4852981e-39
-0.088657148 0.12330476 1.0700001 1.8804643e-38
-0.057922855 0.12295906 1.067 8.2867789e-39
-0.088657148 0.12534286 1.0700001 1.4096436e-38
-0.064200006 0.12534286 1.0700001 1.1588133e-38
-0.057922855 0.12499142 1.067 1.2604781e-38
-0.088657148 0.12738095 1.0700001 1.5840593e-38
-0.086861916 0.1277381 1.0730001 1.4365463e-38
-0.083082855 0.12821428 1.077 1.5838036e-38
-0.070511431 0.1277381 1.0730001 1.3619635e-38
-0.068467624 0.1277381 1.0730001 1.4537631e-38
-0.062161908 0.12738095 1.0700001 1.6013456e-38
-0.060123812 0.12738095 1.0700001 1.5921979e-38
-0.057922855 0.1270238 1.067 1.6014173e-38
-0.088657148 0.12941904 1.0700001 1.5565063e-38
-0.086861916 0.12978192 1.0730001 1.5011889e-38
-0.070511431 0.12978192 1.0730001 1.6206872e-38
-0.068467624 0.12978192 1.0730001 1.6850747e-38
-0.062161908 0.12941904 1.0700001 1.731135e-38
-0.060123812 0.12941904 1.0700001 1.749323e-38
-0.088657148 0.13145715 1.0700001 1.593135e-38
-0.072555244 0.13182572 1.0730001 1.6390187e-38
-0.070511431 0.13182572 1.0730001 1.6574578e-38
-0.068467624 0.13182572 1.0730001 1.7036956e-38
-0.066423811 0.13182572 1.0730001 1.6852565e-38
-0.062161908 0.13145715 1.0700001 1.7219514e-38
-0.060123812 0.13145715 1.0700001 1.7584705e-38
-0.088657148 0.13349526 1.0700001 1.5932028e-38
-0.086861916 0.13386953 1.0730001 1.4088139e-38
-0.072555244 0.13386953 1.0730001 1.5004717e-38
-0.070511431 0.13386953 1.0730001 1.5742282e-38
-0.068467624 0.13386953 1.0730001 1.6760337e-38
-0.066423811 0.13386953 1.0730001 1.7036919e-38
-0.064380005 0.13386953 1.0730001 1.7126961e-38
-0.062161908 0.13349526 1.0700001 1.7034767e-38
-0.060123812 0.13349526 1.0700001 1.7308121e-38
-0.087185711 0.13642 1.077 1.4546976e-38
-0.072555244 0.13591334 1.0730001 1.4173517e-38
-0.070511431 0.13591334 1.0730001 1.500327e-38
-0.068467624 0.13591334 1.0730001 1.5833731e-38
-0.066423811 0.13591334 1.0730001 1.7216656e-38
-0.064380005 0.13591334 1.0730001 1.6941163e-38
-0.060292382 0.13591334 1.0730001 1.72181e-38
-0.058248572 0.13591334 1.0730001 1.7125905e-38
-0.056047622 0.13553335 1.0700001 1.7307797e-38
-0.049933337 0.13553335 1.0700001 1.8599205e-38
-0.087185711 0.13847142 1.077 1.5095139e-38
-0.07459905 0.13795716 1.0730001 1.2973588e-38
-0.072555244 0.13795716 1.0730001 1.325016e-38
-0.070511431 0.13795716 1.0730001 1.3987725e-38
-0.068467624 0.13795716 1.0730001 1.4543024e-38
-0.066423811 0.13795716 1.0730001 1.4911807e-38
-0.062161908 0.13757144 1.0700001 1.583267e-38
-0.058085714 0.13757144 1.0700001 1.7402832e-38
-0.056047622 0.13757144 1.0700001 1.7126317e-38
-0.088905722 0.14000095 1.0730001 1.2971405e-38
-0.087185711 0.14052285 1.077 1.4815305e-38
-0.07459905 0.14000095 1.0730001 1.1685017e-38
-0.070511431 0.14000095 1.0730001 1.3710772e-38
-0.068467624 0.14000095 1.0730001 1.3252311e-38
-0.066423811 0.14000095 1.0730001 1.2883528e-38
-0.064380005 0.14000095 1.0730001 1.4448306e-38
-0.088905722 0.14204477 1.0730001 1.2788103e-38
-0.087185711 0.14257428 1.077 1.3156885e-38
-0.078979999 0.14257428 1.077 1.2145995e-38
-0.07459905 0.14204477 1.0730001 1.1777235e-38
-0.070511431 0.14204477 1.0730001 1.3252328e-38
-0.068467624 0.14204477 1.0730001 1.2610188e-38
-0.066423811 0.14204477 1.0730001 1.0858471e-38
-0.064380005 0.14204477 1.0730001 1.2602333e-38
-0.043696191 0.14125048 1.067 1.3808328e-38
-0.088905722 0.14408858 1.0730001 1.2881393e-38
-0.087185711 0.14462572 1.077 1.315798e-38
-0.078979999 0.14462572 1.077 1.2606936e-38
-0.076928571 0.14462572 1.077 1.2239971e-38
-0.074877143 0.14462572 1.077 1.1686797e-38
-0.070511431 0.14408858 1.0730001 1.2977516e-38
-0.068467624 0.14408858 1.0730001 1.1967677e-38
-0.066423811 0.14408858 1.0730001 1.0584758e-38
-0.064380005 0.14408858 1.0730001 1.1039631e-38
-0.062336192 0.14408858 1.0730001 1.306792e-38
-0.088905722 0.14613239 1.0730001 1.2238895e-38
-0.087185711 0.14667714 1.077 1.3990612e-38
-0.078979999 0.14667714 1.077 1.3346306e-38
-0.076928571 0.14667714 1.077 1.2519444e-38
-0.074877143 0.14667714 1.077 1.1874075e-38
-0.070511431 0.14613239 1.0730001 1.3624e-38
-0.068467624 0.14613239 1.0730001 1.3904485e-38
-0.062568568 0.14667714 1.077 1.2982167e-38
-0.060517143 0.14667714 1.077 1.2886422e-38
-0.045857143 0.14572382 1.0700001 1.7494697e-38
-0.089237146 0.14872858 1.077 1.1410919e-38
-0.08742857 0.14914286 1.08 1.3347015e-38
-0.078979999 0.14872858 1.077 1.3989172e-38
-0.076928571 0.14872858 1.077 1.3442823e-38
-0.074877143 0.14872858 1.077 1.224428e-38
-0.066671431 0.14872858 1.077 1.6021436e-38
-0.064619996 0.14872858 1.077 1.5562241e-38
-0.062568568 0.14872858 1.077 1.1413437e-38
-0.060292382 0.14817619 1.0730001 1.2604781e-38
-0.089237146 0.15077999 1.077 1.3258056e-38
-0.08742857 0.15120001 1.08 1.316586e-38
-0.078979999 0.15077999 1.077 1.4458783e-38
-0.076928571 0.15077999 1.077 1.4271821e-38
-0.074877143 0.15077999 1.077 1.2981091e-38
-0.072825715 0.15077999 1.077 1.3438527e-38
-0.070774287 0.15077999 1.077 1.5835613e-38
-0.068722859 0.15077999 1.077 1.5562954e-38
-0.066671431 0.15077999 1.077 1.500978e-38
-0.064619996 0.15077999 1.077 1.4456557e-38
-0.062568568 0.15077999 1.077 1.0953177e-38
-0.089237146 0.15283144 1.077 1.4365495e-38
-0.08742857 0.15325716 1.08 1.2982561e-38
-0.083314285 0.15325716 1.08 1.5558994e-38
-0.076928571 0.15283144 1.077 1.4638842e-38
-0.074877143 0.15283144 1.077 1.3163712e-38
-0.072825715 0.15283144 1.077 1.3437798e-38
-0.070774287 0.15283144 1.077 1.5834884e-38
-0.068722859 0.15283144 1.077 1.528784e-38
-0.066671431 0.15283144 1.077 1.4458079e-38
-0.064619996 0.15283144 1.077 1.2888898e-38
-0.062568568 0.15283144 1.077 1.1229401e-38
-0.093600005 0.15531428 1.08 1.4826143e-38
-0.076928571 0.15488285 1.077 1.3531386e-38
-0.074877143 0.15488285 1.077 1.2793833e-38
-0.072825715 0.15488285 1.077 1.3158683e-38
-0.070774287 0.15488285 1.077 1.3711857e-38
-0.068722859 0.15488285 1.077 1.3806936e-38
-0.066671431 0.15488285 1.077 1.4175719e-38
-0.064619996 0.15488285 1.077 1.334881e-38
-0.062568568 0.15488285 1.077 1.3164419e-38
-0.093600005 0.15737143 1.08 1.4457348e-38
-0.08948572 0.15737143 1.08 1.2980024e-38
-0.085371435 0.15737143 1.08 1.2236362e-38
-0.076928571 0.15693429 1.077 1.2881722e-38
-0.074877143 0.15693429 1.077 1.2881722e-38
-0.072825715 0.15693429 1.077 1.3066124e-38
-0.070774287 0.15693429 1.077 1.4080276e-38
-0.068722859 0.15693429 1.077 1.3069006e-38
-0.066671431 0.15693429 1.077 1.3069006e-38
-0.064619996 0.15693429 1.077 1.2886772e-38
-0.05436286 0.15693429 1.077 1.5933981e-38
-0.09539143 0.1589857 1.077 1.343887e-38
-0.093600005 0.15942858 1.08 1.2240667e-38
-0.085371435 0.15942858 1.08 1.2237825e-38
-0.078979999 0.1589857 1.077 1.1869756e-38
-0.076928571 0.1589857 1.077 1.150132e-38
-0.074877143 0.1589857 1.077 1.1132543e-38
-0.072825715 0.1589857 1.077 1.2423659e-38
-0.070774287 0.1589857 1.077 1.4636354e-38
-0.068722859 0.1589857 1.077 1.3069724e-38
-0.066671431 0.1589857 1.077 1.2608746e-38
-0.064619996 0.1589857 1.077 1.2423659e-38
-0.054160956 0.15839526 1.0730001 1.6209482e-38
-0.09539143 0.16103715 1.077 1.1780087e-38
-0.093600005 0.16148573 1.08 1.1778979e-38
-0.085371435 0.16148573 1.08 1.3162661e-38
-0.083314285 0.16148573 1.08 1.1687531e-38
-0.081257142 0.16148573 1.08 1.1778267e-38
-0.074877143 0.16103715 1.077 1.085596e-38
-0.072825715 0.16103715 1.077 1.1687506e-38
-0.070774287 0.16103715 1.077 1.2701658e-38
-0.068722859 0.16103715 1.077 1.2701305e-38
-0.066671431 0.16103715 1.077 1.2055935e-38
-0.064619996 0.16103715 1.077 1.2239983e-38
-0.09539143 0.16308856 1.077 1.1412056e-38
-0.093600005 0.16354285 1.08 1.2239611e-38
-0.085371435 0.16354285 1.08 1.3718343e-38
-0.083314285 0.16354285 1.08 1.25198e-38
-0.081257142 0.16354285 1.08 1.2612699e-38
-0.0792 0.16354285 1.08 1.2612699e-38
-0.085371435 0.1656 1.08 1.344248e-38
-0.083314285 0.1656 1.08 1.2612719e-38
-0.081257142 0.1656 1.08 1.270527e-38
-0.0792 0.1656 1.08 1.2613075e-38
-0.077142857 0.1656 1.08 1.2613804e-38
-0.075085714 0.1656 1.08 1.2705999e-38
-0.073028572 0.1656 1.08 1.2336501e-38
-0.070971429 0.1656 1.08 1.1875522e-38
-0.08948572 0.16765715 1.08 1.4085987e-38
-0.085371435 0.16765715 1.08 1.3442779e-38
-0.083314285 0.16765715 1.08 1.279742e-38
-0.081257142 0.16765715 1.08 1.2057014e-38
-0.0792 0.16765715 1.08 1.1319449e-38
-0.077142857 0.16765715 1.08 1.1502799e-38
-0.075085714 0.16765715 1.08 1.1502799e-38
-0.073028572 0.16765715 1.08 1.1501011e-38
-0.070971429 0.16765715 1.08 1.0025881e-38
-0.068914287 0.16765715 1.08 1.1687879e-38
-0.066857144 0.16765715 1.08 1.3255204e-38
-0.064800002 0.16765715 1.08 1.1872611e-38
-0.08948572 0.1697143 1.08 1.2328915e-38
-0.087752387 0.17034288 1.0840001 1.4541605e-38
-0.085687622 0.17034288 1.0840001 1.3625795e-38
-0.083622865 0.17034288 1.0840001 1.2703838e-38
-0.081257142 0.1697143 1.08 1.187226e-38
-0.0792 0.1697143 1.08 1.1595673e-38
-0.077142857 0.1697143 1.08 1.1411637e-38
-0.075085714 0.1697143 1.08 1.1411637e-38
-0.073028572 0.1697143 1.08 1.1593197e-38
-0.070971429 0.1697143 1.08 1.0579045e-38
-0.068914287 0.1697143 1.08 1.0946719e-38
-0.066857144 0.1697143 1.08 1.1684282e-38
-0.091542862 0.17177142 1.08 8.9120074e-39
-0.089817151 0.17240763 1.0840001 9.4637196e-39
-0.087752387 0.17240763 1.0840001 1.1492019e-38
-0.085687622 0.17240763 1.0840001 1.1039295e-38
-0.083622865 0.17240763 1.0840001 1.1223686e-38
-0.081783809 0.17288476 1.087 1.1408443e-38
-0.071234293 0.17240763 1.0840001 1.2888968e-38
-0.069169529 0.17240763 1.0840001 1.2150296e-38
-0.067104764 0.17240763 1.0840001 1.0121994e-38
-0.065040007 0.17240763 1.0840001 1.0849551e-38
-0.091542862 0.17382857 1.08 8.4535376e-39
-0.089817151 0.17447239 1.0840001 8.0854697e-39
-0.087752387 0.17447239 1.0840001 8.4542466e-39
-0.085687622 0.17447239 1.0840001 9.1957633e-39
-0.083854288 0.17495523 1.087 8.8269808e-39
-0.081783809 0.17495523 1.087 1.076269e-38
-0.07971333 0.17495523 1.087 1.3620743e-38
-0.069169529 0.17447239 1.0840001 1.2243967e-38
-0.067104764 0.17447239 1.0840001 8.3717508e-39
-0.091881916 0.17653716 1.0840001 1.0017279e-38
-0.089817151 0.17653716 1.0840001 9.5570237e-39
-0.087995239 0.17702571 1.087 9.5570237e-39
-0.08592476 0.17702571 1.087 9.1014335e-39
-0.083854288 0.17702571 1.087 7.9028903e-39
-0.081783809 0.17702571 1.087 8.1773052e-39
-0.07971333 0.17702571 1.087 1.1127563e-38
-0.077642858 0.17702571 1.087 1.2243942e-38
-0.075572379 0.17702571 1.087 1.2981507e-38
-0.069169529 0.17653716 1.0840001 1.1504239e-38
-0.067104764 0.17653716 1.0840001 8.6461741e-39
-0.091881916 0.17860192 1.0840001 1.0845944e-38
-0.089817151 0.17860192 1.0840001 1.0476809e-38
-0.087995239 0.17909618 1.087 1.0661201e-38
-0.08592476 0.17909618 1.087 9.5588089e-39
-0.083854288 0.17909618 1.087 8.4524614e-39
-0.081783809 0.17909618 1.087 7.534098e-39
-0.07971333 0.17909618 1.087 9.9311746e-39
-0.077642858 0.17909618 1.087 1.0584107e-38
-0.075572379 0.17909618 1.087 1.2888998e-38
-0.073501907 0.17909618 1.087 1.224331e-38
-0.071431428 0.17909618 1.087 1.1321354e-38
-0.091881916 0.18066667 1.0840001 1.0566113e-38
-0.089817151 0.18066667 1.0840001 1.0198409e-38
-0.087995239 0.18116666 1.087 1.0106214e-38
-0.08592476 0.18116666 1.087 9.6470375e-39
-0.083854288 0.18116666 1.087 9.4626462e-39
-0.075572379 0.18116666 1.087 1.5564145e-38
-0.073501907 0.18116666 1.087 1.4554652e-38
-0.071431428 0.18116666 1.087 1.0682436e-38
-0.060910482 0.18066667 1.0840001 1.0108729e-38
-0.09394668 0.18273145 1.0840001 1.0749432e-38
-0.091881916 0.18273145 1.0840001 1.0841628e-38
-0.089817151 0.18273145 1.0840001 1.0749432e-38
-0.087995239 0.18323715 1.087 1.0657236e-38
-0.08592476 0.18323715 1.087 1.0565757e-38
