# .PCD v0.7 - Point Cloud Data file format
VERSION 0.7
FIELDS x y z rgb
SIZE 4 4 4 4
TYPE F F F F
COUNT 1 1 1 1
WIDTH 81
HEIGHT 1
VIEWPOINT 0 0 0 1 0 0 0
POINTS 81
DATA ascii
-0.00124 -0.10044 1.302 1.1869811e-38
-0.00124 -0.097960003 1.302 1.2144603e-38
-0.00124 -0.095480002 1.302 1.1773299e-38
-0.00124 -0.093000002 1.302 1.1495993e-38
-0.00124 -0.090520002 1.302 1.1219046e-38
-0.00124 -0.088040002 1.302 1.0848834e-38
0.045527618 -0.079980955 1.2920001 1.4827128e-38
0.001244762 -0.070951432 1.307 1.390963e-38
-0.026240001 -0.068723813 1.312 1.6860607e-38
0.001244762 -0.068461902 1.307 1.695644e-38
-0.026240001 -0.066224761 1.312 1.944567e-38
-0.026240001 -0.063725717 1.312 1.7792665e-38
0.00124 -0.063239999 1.302 1.8435899e-38
0.00124 -0.060760003 1.302 1.8987255e-38
0.0037485715 -0.046232384 1.312 2.0246857e-39
0.0062476192 -0.011245715 1.312 1.4085629e-38
0.0062476192 -0.0087466668 1.312 1.2236362e-38
0.0062476192 -0.0062476192 1.312 1.139625e-38
0.0062476192 -0.0037485715 1.312 1.1673906e-38
0.0012495238 -0.0012495238 1.312 1.1767914e-38
0.0062476192 -0.0012495238 1.312 1.186046e-38
0.0062714284 0.0037628573 1.317 1.186011e-38
0.0062714284 0.0062714284 1.317 1.1767554e-38
0.0062714284 0.0087799998 1.317 1.1767554e-38
0.0012542857 0.011288572 1.317 1.2137047e-38
0.0062714284 0.011288572 1.317 1.1676434e-38
0.0012542857 0.013797143 1.317 1.1674639e-38
0.0062714284 0.013797143 1.317 1.1583879e-38
0.0087799998 0.013797143 1.317 1.6839029e-38
0.0062952382 0.01636762 1.322 1.1215769e-38
0.0088133328 0.023921905 1.322 1.2065393e-38
-0.026660001 0.029199049 1.3330001 1.9992081e-38
0.008853334 0.03161905 1.3280001 1.7796277e-38
0.046584763 0.031476188 1.322 1.1961983e-38
0.008853334 0.034148574 1.3280001 1.3730284e-38
-0.011382857 0.044266671 1.3280001 1.8900107e-38
0.011382857 0.049325716 1.3280001 2.0093605e-38
0.011382857 0.05185524 1.3280001 2.0093981e-38
-0.0012590477 0.054139048 1.322 9.0305432e-39
0.011382857 0.054384764 1.3280001 2.0092887e-38
0.011382857 0.056914289 1.3280001 1.8711384e-38
0.011382857 0.059443813 1.3280001 1.1604052e-38
0.011382857 0.061973337 1.3280001 1.0130968e-38
0.011425715 0.067284763 1.3330001 1.4178643e-38
0.011425715 0.069823809 1.3330001 1.3819265e-38
0.011425715 0.072362863 1.3330001 1.2446735e-38
0.011425715 0.074901909 1.3330001 1.3086625e-38
0.013964763 0.074901909 1.3330001 1.3271017e-38
0.011425715 0.077440955 1.3330001 1.3539682e-38
0.013964763 0.077440955 1.3330001 1.2433335e-38
-0.0012695239 0.079980001 1.3330001 1.3440627e-38
0.011425715 0.079980001 1.3330001 1.417788e-38
0.013964763 0.079980001 1.3330001 1.3993488e-38
0.008886667 0.082519054 1.3330001 1.4454405e-38
0.011425715 0.082519054 1.3330001 1.6018547e-38
0.013964763 0.082519054 1.3330001 1.6756112e-38
0.008886667 0.085058101 1.3330001 1.65774e-38
0.011425715 0.085058101 1.3330001 1.5469342e-38
0.013964763 0.085058101 1.3330001 1.5100559e-38
0.011468572 0.087925717 1.3380001 1.4458066e-38
0.011468572 0.090474285 1.3380001 1.3439964e-38
0.016503809 0.090136193 1.3330001 1.3258079e-38
0.0089199999 0.093022861 1.3380001 1.3258782e-38
0.014017143 0.093022861 1.3380001 1.2794582e-38
0.011468572 0.095571436 1.3380001 1.2058119e-38
0.014017143 0.095571436 1.3380001 1.1136162e-38
0.046796191 0.097386673 1.3280001 1.6308155e-38
0.014069525 0.10104477 1.3430001 1.4087836e-38
0.046796191 0.09991619 1.3280001 1.0943491e-38
0.014069525 0.10360286 1.3430001 1.5098742e-38
0.014069525 0.10616095 1.3430001 1.4267236e-38
0.014069525 0.10871905 1.3430001 1.3716183e-38
0.014069525 0.11127715 1.3430001 1.3074028e-38
0.016627621 0.11127715 1.3430001 1.2797479e-38
0.014069525 0.11383525 1.3430001 1.2612369e-38
0.016627621 0.11383525 1.3430001 1.1875167e-38
0.014069525 0.11639334 1.3430001 1.1873371e-38
0.016627621 0.11639334 1.3430001 1.1598242e-38
0.014069525 0.11895143 1.3430001 1.1323447e-38
0.016627621 0.11895143 1.3430001 1.1416735e-38
0.037092384 0.11895143 1.3430001 1.0849911e-38
