# .PCD v0.7 - Point Cloud Data file format
VERSION 0.7
FIELDS x y z rgb
SIZE 4 4 4 4
TYPE F F F F
COUNT 1 1 1 1
WIDTH 285
HEIGHT 1
VIEWPOINT 0 0 0 1 0 0 0
POINTS 285
DATA ascii
-0.015274285 -0.14024572 1.4580001 9.6632393e-39
-0.015274285 -0.13746858 1.4580001 1.0029138e-38
-0.015274285 -0.13469143 1.4580001 1.454998e-38
-0.015274285 -0.13191429 1.4580001 1.5378302e-38
-0.015274285 -0.12913714 1.4580001 1.353115e-38
-0.015274285 -0.12636001 1.4580001 1.3346758e-38
-0.015274285 -0.12358286 1.4580001 1.2698165e-38
-0.015274285 -0.12080572 1.4580001 1.18662e-38
-0.015274285 -0.11802858 1.4580001 1.1867944e-38
-0.012445714 -0.11754286 1.452 1.196014e-38
-0.015274285 -0.11525144 1.4580001 1.3163728e-38
-0.012445714 -0.11477714 1.452 1.3163728e-38
-0.015274285 -0.11247429 1.4580001 1.2796349e-38
-0.012445714 -0.11201143 1.452 1.2888545e-38
-0.015274285 -0.10969715 1.4580001 1.0020472e-38
-0.012445714 -0.10924571 1.452 1.0020472e-38
-0.015274285 -0.10692 1.4580001 9.3733191e-39
-0.012445714 -0.10648 1.452 9.5577075e-39
-0.015274285 -0.10414286 1.4580001 1.3535468e-38
0.026274286 -0.10371429 1.452 1.3998607e-38
-0.015274285 -0.10136572 1.4580001 1.935387e-38
-0.015274285 -0.098588578 1.4580001 1.7700144e-38
-0.031805713 -0.095417142 1.452 8.8493161e-39
-0.015274285 -0.095811434 1.4580001 1.7973829e-38
-0.031805713 -0.092651434 1.452 1.0134608e-38
-0.015274285 -0.09303429 1.4580001 1.8066406e-38
-0.0154 -0.057399999 1.47 7.3497096e-39
-0.0154 -0.0546 1.47 9.8299854e-39
0.046011433 -0.054377146 1.4640001 1.4645314e-38
-0.0154 -0.051799998 1.47 1.3531745e-38
-0.0154 -0.048999999 1.47 1.4823278e-38
-0.0126 -0.048999999 1.47 1.4731083e-38
-0.0154 -0.0462 1.47 1.2235304e-38
-0.0126 -0.0462 1.47 1.23275e-38
-0.0154 -0.043400001 1.47 1.0477139e-38
-0.0126 -0.043400001 1.47 1.0477139e-38
-0.0154 -0.040600002 1.47 1.1031068e-38
-0.0126 -0.040600002 1.47 1.1031068e-38
-0.0154 -0.037800003 1.47 1.1030699e-38
-0.0126 -0.037800003 1.47 1.1491677e-38
-0.0154 -0.035 1.47 1.0570073e-38
-0.0126 -0.035 1.47 1.1123247e-38
-0.0154 -0.032200001 1.47 1.0386037e-38
-0.0126 -0.032200001 1.47 1.0570429e-38
-0.0154 -0.0294 1.47 1.1316273e-38
-0.0126 -0.0294 1.47 1.0209925e-38
-0.0154 -0.0266 1.47 1.1874794e-38
-0.0126 -0.0266 1.47 9.5699044e-39
-0.0154 -0.023799999 1.47 1.3442473e-38
-0.0126 -0.023799999 1.47 1.2981494e-38
-0.0154 -0.021000002 1.47 1.3902732e-38
-0.0126 -0.021000002 1.47 1.3072971e-38
-0.0154 -0.018200001 1.47 1.5011588e-38
-0.0126 -0.018200001 1.47 1.3352066e-38
-0.018286668 -0.015473335 1.4770001 1.6576726e-38
-0.0126 -0.0154 1.47 1.501307e-38
-0.018286668 -0.012660001 1.4770001 1.3443899e-38
-0.015473335 -0.012660001 1.4770001 1.3352494e-38
-0.0126 -0.0126 1.47 1.4182254e-38
-0.018286668 -0.0098466668 1.4770001 1.1419911e-38
-0.015473335 -0.0098466668 1.4770001 1.0497662e-38
-0.0126 -0.0098000001 1.47 1.095864e-38
-0.018286668 -0.0070333341 1.4770001 1.8522978e-38
-0.015473335 -0.0070333341 1.4770001 1.79695e-38
-0.0126 -0.0070000002 1.47 1.7508522e-38
-0.0294 -0.0041999999 1.47 1.4836637e-38
-0.018286668 -0.00422 1.4770001 1.8061297e-38
-0.015473335 -0.00422 1.4770001 1.8802481e-38
-0.012660001 -0.00422 1.4770001 1.9447851e-38
-0.0294 -0.0014000001 1.47 1.9444659e-38
-0.018286668 -0.0014066667 1.4770001 9.6672246e-39
-0.015473335 -0.0014066667 1.4770001 1.5294346e-38
-0.012660001 -0.0014066667 1.4770001 2.0826084e-38
-0.0294 0.0014000001 1.47 1.8985411e-38
-0.018286668 0.0014066667 1.4770001 8.661636e-39
-0.015473335 0.0014066667 1.4770001 1.2803978e-38
-0.012660001 0.0014066667 1.4770001 2.0179628e-38
-0.0098466668 0.0014066667 1.4770001 1.9539678e-38
-0.0294 0.0041999999 1.47 1.8336356e-38
-0.018286668 0.00422 1.4770001 9.671584e-39
-0.015473335 0.00422 1.4770001 1.225198e-38
-0.012660001 0.00422 1.4770001 1.8613478e-38
-0.0098466668 0.00422 1.4770001 1.7145098e-38
-0.018286668 0.0070333341 1.4770001 1.2720861e-38
-0.015473335 0.0070333341 1.4770001 1.4656549e-38
-0.012660001 0.0070333341 1.4770001 1.7606809e-38
-0.0098466668 0.0070333341 1.4770001 1.5764714e-38
-0.018360954 0.0098866671 1.483 1.5852967e-38
-0.0098466668 0.0098466668 1.4770001 1.8434447e-38
-0.024010476 0.012711428 1.483 1.9261659e-38
-0.021185715 0.012711428 1.483 1.7881664e-38
-0.018360954 0.012711428 1.483 1.2626513e-38
-0.01553619 0.012711428 1.483 1.3080617e-38
-0.021185715 0.01553619 1.483 1.7699393e-38
-0.012660001 0.015473335 1.4770001 5.5296274e-39
-0.0098466668 0.015473335 1.4770001 1.3731689e-38
-0.021185715 0.018360954 1.483 1.7609015e-38
-0.012660001 0.018286668 1.4770001 9.0376478e-39
-0.0098466668 0.018286668 1.4770001 1.1156375e-38
-0.026726669 0.021100001 1.4770001 1.2163297e-38
-0.021185715 0.021185715 1.483 1.8345483e-38
-0.018360954 0.021185715 1.483 1.4749853e-38
-0.01553619 0.021185715 1.483 1.1617681e-38
-0.012711428 0.021185715 1.483 1.1986463e-38
-0.0098866671 0.021185715 1.483 1.4468288e-38
-0.0070619048 0.021185715 1.483 1.9354656e-38
-0.021185715 0.024010476 1.483 1.8988334e-38
-0.018360954 0.024010476 1.483 1.6406856e-38
-0.01553619 0.024010476 1.483 1.4377085e-38
-0.012711428 0.024010476 1.483 1.4930259e-38
-0.0098866671 0.024010476 1.483 1.8338286e-38
-0.0070619048 0.024010476 1.483 1.8614873e-38
-0.018360954 0.026835239 1.483 1.8155327e-38
-0.01553619 0.026835239 1.483 1.6680184e-38
-0.012711428 0.026835239 1.483 1.7048966e-38
-0.0098866671 0.026835239 1.483 1.5478439e-38
-0.0070619048 0.026835239 1.483 1.0499875e-38
-0.021185715 0.029660001 1.483 1.7694333e-38
-0.018360954 0.029660001 1.483 1.6772377e-38
-0.01553619 0.029660001 1.483 1.5573454e-38
-0.012711428 0.029660001 1.483 1.5850041e-38
-0.0098866671 0.029660001 1.483 1.3913925e-38
-0.0070619048 0.029660001 1.483 9.3963396e-39
-0.021185715 0.032484762 1.483 1.2889973e-38
-0.018360954 0.032484762 1.483 1.4365083e-38
-0.01553619 0.032484762 1.483 1.3814437e-38
-0.012711428 0.032484762 1.483 1.3998829e-38
-0.0098866671 0.032484762 1.483 1.4367991e-38
-0.0070619048 0.032484762 1.483 1.4736774e-38
-0.02410762 0.035452385 1.4890001 1.2147755e-38
-0.018360954 0.035309523 1.483 1.4916469e-38
-0.01553619 0.035309523 1.483 1.5100514e-38
-0.012711428 0.035309523 1.483 1.5008319e-38
-0.0098866671 0.035309523 1.483 1.5376398e-38
-0.0070619048 0.035309523 1.483 1.5837376e-38
-0.02410762 0.038288575 1.4890001 1.510015e-38
-0.01553619 0.038134284 1.483 1.5100524e-38
-0.012711428 0.038134284 1.483 1.454735e-38
-0.069813333 0.041318096 1.4960001 6.0694048e-39
-0.02410762 0.041124765 1.4890001 1.5285271e-38
-0.02127143 0.041124765 1.4890001 1.5100912e-38
-0.018360954 0.040959045 1.483 1.4824325e-38
-0.01553619 0.040959045 1.483 1.4915092e-38
-0.012711428 0.040959045 1.483 1.5007287e-38
-0.0070904768 0.041124765 1.4890001 1.408677e-38
-0.0042371433 0.040959045 1.483 1.3530722e-38
0.0042542857 0.041124765 1.4890001 1.6109309e-38
0.0070619048 0.040959045 1.483 1.6019619e-38
-0.02410762 0.043960955 1.4890001 1.3347728e-38
-0.02127143 0.043960955 1.4890001 1.3253772e-38
-0.01553619 0.04378381 1.483 1.3069762e-38
-0.012711428 0.04378381 1.483 1.3899523e-38
-0.0099266665 0.043960955 1.4890001 1.2887514e-38
-0.0070904768 0.043960955 1.4890001 1.2057753e-38
-0.02410762 0.046797145 1.4890001 1.1597819e-38
-0.02127143 0.046797145 1.4890001 1.2238882e-38
-0.018435238 0.046797145 1.4890001 1.2792056e-38
-0.0099266665 0.046797145 1.4890001 1.2149213e-38
-0.0070904768 0.046797145 1.4890001 1.2149213e-38
-0.0042542857 0.046797145 1.4890001 1.2055617e-38
-0.0014180953 0.046797145 1.4890001 1.2055617e-38
-0.02410762 0.049633335 1.4890001 1.1138283e-38
-0.02127143 0.049633335 1.4890001 1.1503115e-38
-0.018435238 0.049633335 1.4890001 1.2701658e-38
-0.015599049 0.049633335 1.4890001 1.2149598e-38
-0.012762858 0.049633335 1.4890001 1.1319838e-38
-0.0099266665 0.049633335 1.4890001 1.1320185e-38
-0.0070904768 0.049633335 1.4890001 1.2149946e-38
-0.0042542857 0.049633335 1.4890001 1.2612008e-38
-0.0014180953 0.049633335 1.4890001 1.27964e-38
-0.02410762 0.052469525 1.4890001 1.0492205e-38
-0.02127143 0.052469525 1.4890001 1.1410919e-38
-0.018435238 0.052469525 1.4890001 1.2517267e-38
-0.015599049 0.052469525 1.4890001 1.1965538e-38
-0.012762858 0.052469525 1.4890001 1.1412364e-38
-0.0099266665 0.052469525 1.4890001 1.09521e-38
-0.0070904768 0.052469525 1.4890001 1.2058431e-38
-0.0042542857 0.052469525 1.4890001 1.2796747e-38
-0.0014180953 0.052469525 1.4890001 1.2796747e-38
-0.02410762 0.055305716 1.4890001 1.150315e-38
-0.02127143 0.055305716 1.4890001 1.2519813e-38
-0.018435238 0.055305716 1.4890001 1.3072987e-38
-0.015599049 0.055305716 1.4890001 1.3166602e-38
-0.012762858 0.055305716 1.4890001 1.3443189e-38
-0.0099266665 0.055305716 1.4890001 1.3535372e-38
-0.0070904768 0.055305716 1.4890001 1.3811959e-38
-0.0042542857 0.055305716 1.4890001 1.3442833e-38
-0.0014180953 0.055305716 1.4890001 1.3258441e-38
-0.02410762 0.058141906 1.4890001 1.3716886e-38
-0.02127143 0.058141906 1.4890001 1.3627612e-38
-0.018435238 0.058141906 1.4890001 1.2982243e-38
-0.015599049 0.058141906 1.4890001 1.3534325e-38
-0.012762858 0.058141906 1.4890001 1.3810912e-38
-0.0099266665 0.058141906 1.4890001 1.4087501e-38
-0.0070904768 0.058141906 1.4890001 1.4087501e-38
-0.0042542857 0.058141906 1.4890001 1.3811268e-38
-0.0014180953 0.058141906 1.4890001 1.3442485e-38
-0.02127143 0.060978096 1.4890001 1.3903458e-38
-0.018435238 0.060978096 1.4890001 1.279711e-38
-0.015599049 0.060978096 1.4890001 1.2147109e-38
-0.012762858 0.060978096 1.4890001 1.1962718e-38
-0.0099266665 0.060978096 1.4890001 1.2332207e-38
-0.0070904768 0.060978096 1.4890001 1.2608794e-38
-0.0042542857 0.060978096 1.4890001 1.23347e-38
-0.0014180953 0.060978096 1.4890001 1.2426896e-38
-0.029660001 0.063557141 1.483 1.3990599e-38
-0.026943812 0.06381429 1.4890001 1.3992772e-38
-0.018435238 0.06381429 1.4890001 1.288823e-38
-0.015599049 0.06381429 1.4890001 1.1687531e-38
-0.012762858 0.06381429 1.4890001 1.150314e-38
-0.0099266665 0.06381429 1.4890001 1.1410579e-38
-0.0070904768 0.06381429 1.4890001 1.1226187e-38
-0.0042542857 0.06381429 1.4890001 1.1502046e-38
-0.0014180953 0.06381429 1.4890001 1.3161567e-38
-0.026943812 0.06665048 1.4890001 1.2239961e-38
-0.024220953 0.066963814 1.4960001 1.2516548e-38
-0.021371428 0.066963814 1.4960001 1.2516576e-38
-0.018521905 0.066963814 1.4960001 1.3807315e-38
-0.015599049 0.06665048 1.4890001 1.3073322e-38
-0.012762858 0.06665048 1.4890001 1.2520148e-38
-0.0099266665 0.06665048 1.4890001 1.261164e-38
-0.0070904768 0.06665048 1.4890001 1.1966271e-38
-0.0042542857 0.06665048 1.4890001 1.1873727e-38
-0.0014180953 0.06665048 1.4890001 1.2519097e-38
-0.026943812 0.06948667 1.4890001 1.141133e-38
-0.024220953 0.069813333 1.4960001 1.1226938e-38
-0.021371428 0.069813333 1.4960001 1.2424377e-38
-0.018521905 0.069813333 1.4960001 1.4176094e-38
-0.012762858 0.06948667 1.4890001 1.3166602e-38
-0.0099266665 0.06948667 1.4890001 1.2243942e-38
-0.0070904768 0.06948667 1.4890001 1.187516e-38
-0.0042542857 0.06948667 1.4890001 1.2149598e-38
-0.0014180953 0.06948667 1.4890001 1.2057403e-38
-0.026943812 0.07232286 1.4890001 9.2854969e-39
-0.024220953 0.07266286 1.4960001 9.9308663e-39
-0.021371428 0.07266286 1.4960001 1.085708e-38
-0.018521905 0.07266286 1.4960001 1.316197e-38
-0.015672382 0.07266286 1.4960001 1.3259108e-38
-0.012822858 0.07266286 1.4960001 1.3627888e-38
-0.0099733332 0.07266286 1.4960001 1.23347e-38
-0.0071238098 0.07266286 1.4960001 1.1781526e-38
-0.0042542857 0.07232286 1.4890001 1.1873727e-38
-0.0014180953 0.07232286 1.4890001 1.159714e-38
-0.024220953 0.075512379 1.4960001 8.1812723e-39
-0.021371428 0.075512379 1.4960001 9.1046341e-39
-0.018521905 0.075512379 1.4960001 1.150172e-38
-0.015672382 0.075512379 1.4960001 1.2426896e-38
-0.012822858 0.075512379 1.4960001 1.2703482e-38
-0.0099733332 0.075512379 1.4960001 1.2701327e-38
-0.0071238098 0.075512379 1.4960001 1.2793523e-38
-0.0042742854 0.075512379 1.4960001 1.2335429e-38
-0.0014180953 0.075159051 1.4890001 1.2151037e-38
-0.027070478 0.078361914 1.4960001 1.0114516e-38
-0.018521905 0.078361914 1.4960001 9.83753e-39
-0.015672382 0.078361914 1.4960001 1.0390024e-38
-0.012822858 0.078361914 1.4960001 1.1404176e-38
-0.0099733332 0.078361914 1.4960001 1.1040046e-38
-0.0071238098 0.078361914 1.4960001 1.3437132e-38
-0.0042742854 0.078361914 1.4960001 1.2797116e-38
-0.001424762 0.078361914 1.4960001 1.335029e-38
-0.027070478 0.081211433 1.4960001 1.1033952e-38
-0.024334285 0.081591427 1.503 1.1126147e-38
-0.021471428 0.081591427 1.503 1.0758794e-38
-0.015672382 0.081211433 1.4960001 9.9286733e-39
-0.012822858 0.081211433 1.4960001 9.5598907e-39
-0.0099733332 0.081211433 1.4960001 9.4730607e-39
-0.0071238098 0.081211433 1.4960001 1.3253082e-38
-0.0042742854 0.081211433 1.4960001 1.2612411e-38
-0.001424762 0.081211433 1.4960001 1.325778e-38
-0.027070478 0.084060952 1.4960001 1.1030008e-38
-0.024334285 0.084454283 1.503 1.1122204e-38
-0.021471428 0.084454283 1.503 1.0940321e-38
-0.01860857 0.084454283 1.503 1.1216908e-38
-0.015745714 0.084454283 1.503 1.0573321e-38
-0.0099733332 0.084060952 1.4960001 9.835756e-39
-0.0071238098 0.084060952 1.4960001 1.3800168e-38
-0.0042742854 0.084060952 1.4960001 1.2982998e-38
-0.001424762 0.084060952 1.4960001 1.3351781e-38
-0.024334285 0.087317139 1.503 1.1306556e-38
-0.021471428 0.087317139 1.503 1.1125402e-38
-0.01860857 0.087317139 1.503 1.1401989e-38
-0.015745714 0.087317139 1.503 1.1402368e-38
-0.0071238098 0.086910479 1.4960001 1.4260796e-38
-0.0042742854 0.086910479 1.4960001 1.2431276e-38
-0.001424762 0.086910479 1.4960001 1.2154689e-38
