# .PCD v0.7 - Point Cloud Data file format
VERSION 0.7
FIELDS x y z rgb
SIZE 4 4 4 4
TYPE F F F F
COUNT 1 1 1 1
WIDTH 181
HEIGHT 1
VIEWPOINT 0 0 0 1 0 0 0
POINTS 181
DATA ascii
-0.033799049 -0.11903144 1.5430001 1.9169141e-38
-0.031000003 -0.11366667 1.5500001 6.728839e-39
-0.072986677 -0.10575619 1.5640001 4.3296045e-39
-0.072986677 -0.10277715 1.5640001 4.605841e-39
-0.072986677 -0.099798106 1.5640001 3.870434e-39
-0.070007622 -0.099798106 1.5640001 7.8160757e-39
-0.070007622 -0.096819058 1.5640001 7.6313159e-39
-0.067028575 -0.096819058 1.5640001 7.5391203e-39
-0.070007622 -0.093840003 1.5640001 7.6306194e-39
-0.067028575 -0.093840003 1.5640001 7.9072063e-39
-0.064049527 -0.093840003 1.5640001 9.0949427e-39
-0.072986677 -0.090860955 1.5640001 4.5158034e-39
-0.070007622 -0.090860955 1.5640001 7.7210522e-39
-0.067028575 -0.090860955 1.5640001 8.0898348e-39
-0.064049527 -0.090860955 1.5640001 9.5541202e-39
-0.061070483 -0.090860955 1.5640001 9.2775375e-39
-0.054865714 -0.090454288 1.557 2.0904243e-38
-0.075965717 -0.087881915 1.5640001 5.2562201e-39
-0.072986677 -0.087881915 1.5640001 4.6108507e-39
-0.070007622 -0.087881915 1.5640001 7.8154115e-39
-0.067028575 -0.087881915 1.5640001 8.0919984e-39
-0.064049527 -0.087881915 1.5640001 1.0198409e-38
-0.061070483 -0.087881915 1.5640001 9.7374325e-39
-0.058091432 -0.087881915 1.5640001 9.7377912e-39
-0.054865714 -0.087488569 1.557 2.0709061e-38
-0.051900003 -0.087488569 1.557 1.7603585e-38
-0.072986677 -0.084902868 1.5640001 5.0736309e-39
-0.070007622 -0.084902868 1.5640001 9.6632491e-39
-0.067028575 -0.084902868 1.5640001 7.5427496e-39
-0.064049527 -0.084902868 1.5640001 1.0106581e-38
-0.061070483 -0.084902868 1.5640001 9.8299938e-39
-0.058091432 -0.084902868 1.5640001 9.7377912e-39
-0.051900003 -0.084522858 1.557 1.2986852e-38
-0.048934285 -0.084522858 1.557 1.6674677e-38
-0.070007622 -0.081923813 1.5640001 1.0212148e-38
-0.067028575 -0.081923813 1.5640001 7.5384743e-39
-0.064049527 -0.081923813 1.5640001 9.9225454e-39
-0.061070483 -0.081923813 1.5640001 1.0291328e-38
-0.058091432 -0.081923813 1.5640001 9.8307029e-39
-0.055112384 -0.081923813 1.5640001 9.8307029e-39
-0.045968574 -0.081557147 1.557 1.1794576e-38
-0.067028575 -0.078944765 1.5640001 5.2436224e-39
-0.064049527 -0.078944765 1.5640001 9.5541202e-39
-0.061070483 -0.078944765 1.5640001 1.0199485e-38
-0.058091432 -0.078944765 1.5640001 1.0106211e-38
-0.055112384 -0.078944765 1.5640001 1.0014015e-38
-0.052133337 -0.078944765 1.5640001 9.0031072e-39
-0.045968574 -0.078591429 1.557 7.0745618e-39
-0.064049527 -0.075965717 1.5640001 8.6354065e-39
-0.061070483 -0.075965717 1.5640001 9.3729617e-39
-0.058091432 -0.075965717 1.5640001 1.0014733e-38
-0.055112384 -0.075965717 1.5640001 1.0106927e-38
-0.052133337 -0.075965717 1.5640001 1.0014733e-38
-0.049154289 -0.075965717 1.5640001 1.0014733e-38
-0.061070483 -0.072986677 1.5640001 1.1954439e-38
-0.058091432 -0.072986677 1.5640001 1.2053409e-38
-0.055112384 -0.072986677 1.5640001 1.2145603e-38
-0.052133337 -0.072986677 1.5640001 1.2790245e-38
-0.049154289 -0.072986677 1.5640001 1.35278e-38
-0.046175241 -0.072986677 1.5640001 1.3069339e-38
-0.064377144 -0.070365719 1.572 9.2793312e-39
-0.06138286 -0.070365719 1.572 1.4534472e-38
-0.058091432 -0.070007622 1.5640001 1.3070826e-38
-0.055112384 -0.070007622 1.5640001 1.3070826e-38
-0.052133337 -0.070007622 1.5640001 1.3439217e-38
-0.049154289 -0.070007622 1.5640001 1.3623609e-38
-0.046175241 -0.070007622 1.5640001 1.3990261e-38
-0.043196194 -0.070007622 1.5640001 1.3990261e-38
-0.055112384 -0.067028575 1.5640001 1.2886425e-38
-0.052133337 -0.067028575 1.5640001 1.2886027e-38
-0.049154289 -0.067028575 1.5640001 1.2056279e-38
-0.046175241 -0.067028575 1.5640001 1.2233156e-38
-0.043196194 -0.067028575 1.5640001 1.1679982e-38
-0.040217146 -0.067028575 1.5640001 1.1864004e-38
-0.052133337 -0.064049527 1.5640001 1.1033891e-38
-0.049154289 -0.064049527 1.5640001 1.0296338e-38
-0.046175241 -0.064049527 1.5640001 1.0292033e-38
-0.043196194 -0.064049527 1.5640001 1.0199839e-38
-0.040217146 -0.064049527 1.5640001 1.0108003e-38
-0.049154289 -0.061070483 1.5640001 1.0474996e-38
-0.046175241 -0.061070483 1.5640001 1.0292055e-38
-0.043196194 -0.061070483 1.5640001 1.0292055e-38
-0.040217146 -0.061070483 1.5640001 1.0016916e-38
-0.037238099 -0.061070483 1.5640001 9.6481333e-39
-0.046175241 -0.058091432 1.5640001 1.0475443e-38
-0.043196194 -0.058091432 1.5640001 9.8300737e-39
-0.040217146 -0.058091432 1.5640001 9.4637196e-39
-0.037238099 -0.058091432 1.5640001 9.2793312e-39
-0.034259051 -0.058091432 1.5640001 9.7435393e-39
-0.043196194 -0.055112384 1.5640001 1.048942e-38
-0.040217146 -0.055112384 1.5640001 1.0115178e-38
-0.037238099 -0.055112384 1.5640001 9.5620123e-39
-0.034259051 -0.055112384 1.5640001 1.0299977e-38
-0.03128 -0.055112384 1.5640001 1.3526824e-38
-0.040217146 -0.052133337 1.5640001 9.7565237e-39
-0.037238099 -0.052133337 1.5640001 9.1111543e-39
-0.034259051 -0.052133337 1.5640001 1.0857417e-38
-0.03128 -0.052133337 1.5640001 1.2148156e-38
-0.028300956 -0.052133337 1.5640001 1.1965519e-38
-0.037238099 -0.049154289 1.5640001 1.0216448e-38
-0.034259051 -0.049154289 1.5640001 1.1319462e-38
-0.03128 -0.049154289 1.5640001 1.1872636e-38
-0.028300956 -0.049154289 1.5640001 1.2980024e-38
-0.034259051 -0.046175241 1.5640001 1.1780065e-38
-0.03128 -0.046175241 1.5640001 1.2609825e-38
-0.028300956 -0.046175241 1.5640001 1.3440668e-38
-0.064663813 -0.04361048 1.5790001 7.5330218e-39
-0.03128 -0.043196194 1.5640001 1.2613766e-38
-0.028300956 -0.043196194 1.5640001 1.2430098e-38
-0.025451429 -0.043417145 1.572 1.2337902e-38
-0.022457143 -0.040422857 1.572 9.7539341e-39
-0.019462857 -0.037428569 1.572 1.2430091e-38
-0.016468571 -0.034434289 1.572 1.4090017e-38
-0.013474287 -0.031440001 1.572 1.3354301e-38
-0.01048 -0.028445713 1.572 1.3637751e-38
-0.0074857143 -0.025451429 1.572 2.0276587e-38
-0.03128 -0.022342859 1.5640001 1.0589137e-38
0.040037144 -0.0014828572 1.557 1.8704194e-38
0.025451429 0.01048 1.572 1.4275055e-38
0.034434289 0.013474287 1.572 1.583446e-38
0.028572382 0.016541906 1.5790001 1.5747302e-38
0.031440001 0.016468571 1.572 1.3626145e-38
0.034434289 0.019462857 1.572 1.2059901e-38
0.037428569 0.022457143 1.572 1.3075823e-38
0.040602859 0.025564764 1.5790001 1.5374195e-38
0.043417145 0.028445713 1.572 1.6115368e-38
0.046411429 0.031440001 1.572 1.6574941e-38
0.052633338 0.034587622 1.5790001 1.4361205e-38
0.055640955 0.034587622 1.5790001 1.4267889e-38
0.064950481 0.034740951 1.5860001 1.9153589e-38
0.049625717 0.037595239 1.5790001 1.39917e-38
0.052633338 0.037595239 1.5790001 1.4729265e-38
0.055640955 0.037595239 1.5790001 1.4178217e-38
0.058648575 0.037595239 1.5790001 1.3625044e-38
0.049625717 0.040602859 1.5790001 1.3256662e-38
0.052633338 0.040602859 1.5790001 1.5100574e-38
0.055640955 0.040602859 1.5790001 1.4271132e-38
0.058648575 0.040602859 1.5790001 1.3810154e-38
0.061656196 0.040602859 1.5790001 1.3903033e-38
0.052633338 0.04361048 1.5790001 1.5102004e-38
0.055640955 0.04361048 1.5790001 1.3720138e-38
0.064663813 0.04361048 1.5790001 1.4363322e-38
0.055640955 0.0466181 1.5790001 1.3165182e-38
0.064663813 0.0466181 1.5790001 1.3533599e-38
0.067671433 0.0466181 1.5790001 1.3256274e-38
0.06138286 0.049405713 1.572 1.2427617e-38
0.067671433 0.049625717 1.5790001 1.233435e-38
0.070679054 0.049625717 1.5790001 1.085922e-38
0.067671433 0.052633338 1.5790001 1.0851005e-38
0.070679054 0.052633338 1.5790001 1.0021244e-38
0.073686667 0.052633338 1.5790001 1.1306556e-38
0.077034287 0.052866668 1.5860001 1.2228512e-38
0.080055244 0.052866668 1.5860001 1.2412188e-38
0.083076194 0.052866668 1.5860001 1.2596579e-38
0.086097151 0.052866668 1.5860001 1.2596582e-38
0.067671433 0.055640955 1.5790001 1.0391084e-38
0.070679054 0.055640955 1.5790001 1.066767e-38
0.073686667 0.055640955 1.5790001 1.1676055e-38
0.077034287 0.055887621 1.5860001 1.2044837e-38
0.080055244 0.055887621 1.5860001 1.2412909e-38
0.083076194 0.055887621 1.5860001 1.2505105e-38
0.086097151 0.055887621 1.5860001 1.2595863e-38
0.074013337 0.058908574 1.5860001 1.2320722e-38
0.077034287 0.058908574 1.5860001 1.2228526e-38
0.080055244 0.058908574 1.5860001 1.2503667e-38
0.083076194 0.058908574 1.5860001 1.2595863e-38
0.086097151 0.058908574 1.5860001 1.2596932e-38
0.067971431 0.061929524 1.5860001 1.2783138e-38
0.070992388 0.061929524 1.5860001 1.2783138e-38
0.074013337 0.061929524 1.5860001 1.2779905e-38
0.077034287 0.061929524 1.5860001 1.2595514e-38
0.080055244 0.061929524 1.5860001 1.2595514e-38
0.083076194 0.061929524 1.5860001 1.2687709e-38
0.086097151 0.061929524 1.5860001 1.2504376e-38
0.088724762 0.061656196 1.5790001 1.2780963e-38
0.064950481 0.064950481 1.5860001 1.1772946e-38
0.070992388 0.064950481 1.5860001 1.2597675e-38
0.080055244 0.064950481 1.5860001 1.2135267e-38
0.083076194 0.064950481 1.5860001 1.185868e-38
0.086097151 0.064950481 1.5860001 1.1583846e-38
0.094740003 0.064663813 1.5790001 9.925809e-39
