# .PCD v0.7 - Point Cloud Data file format
VERSION 0.7
FIELDS x y z rgb
SIZE 4 4 4 4
TYPE F F F F
COUNT 1 1 1 1
WIDTH 550
HEIGHT 1
VIEWPOINT 0 0 0 1 0 0 0
POINTS 550
DATA ascii
-0.10417333 -0.083567619 1.202 2.276979e-38
-0.10188381 -0.083567619 1.202 2.0280508e-38
-0.10188381 -0.081278101 1.202 1.8712476e-38
-0.037902862 -0.081548579 1.2060001 1.0032368e-38
-0.10188381 -0.078988574 1.202 7.6262922e-39
-0.099179998 -0.078660004 1.197 7.625607e-39
-0.084401913 -0.079777151 1.2140001 6.8908908e-39
-0.084401913 -0.077464767 1.2140001 9.1871369e-39
-0.082089528 -0.077464767 1.2140001 9.3704492e-39
-0.084401913 -0.075152382 1.2140001 1.0475346e-38
-0.077209525 -0.070295244 1.21 1.8338074e-38
-0.074904762 -0.065685712 1.21 1.6863293e-38
-0.070062861 -0.060874287 1.2060001 1.0396783e-38
-0.072360002 -0.058577146 1.2060001 1.2786299e-38
-0.070062861 -0.058577146 1.2060001 1.2786299e-38
-0.06776572 -0.058577146 1.2060001 1.2970329e-38
-0.07465715 -0.056280006 1.2060001 1.4734589e-38
-0.072360002 -0.056280006 1.2060001 1.4916489e-38
-0.070062861 -0.056280006 1.2060001 1.5193076e-38
-0.06776572 -0.056280006 1.2060001 1.4824629e-38
-0.065468572 -0.056280006 1.2060001 1.5193412e-38
-0.0726 -0.054161906 1.21 1.4454849e-38
-0.06776572 -0.053982858 1.2060001 1.427189e-38
-0.065468572 -0.053982858 1.2060001 1.4179694e-38
-0.070295244 -0.051857144 1.21 9.8299854e-39
-0.067990474 -0.049552381 1.21 1.0105492e-38
-0.065685712 -0.049552381 1.21 1.0197686e-38
-0.065685712 -0.047247618 1.21 1.6855188e-38
-0.063380957 -0.047247618 1.21 1.4826242e-38
-0.061076194 -0.047247618 1.21 1.1322808e-38
-0.065685712 -0.04494286 1.21 1.9625803e-38
-0.063380957 -0.04494286 1.21 1.8156103e-38
-0.061076194 -0.04494286 1.21 1.2163387e-38
-0.063590482 -0.042779051 1.2140001 1.9911725e-38
-0.061076194 -0.042638097 1.21 1.3181444e-38
-0.058771431 -0.042638097 1.21 1.3545911e-38
-0.058771431 -0.040333334 1.21 1.069714e-38
-0.056466665 -0.040333334 1.21 1.9363529e-38
-0.058771431 -0.038028572 1.21 1.1061678e-38
-0.056466665 -0.038028572 1.21 1.9820263e-38
-0.061076194 -0.035723813 1.21 1.1705991e-38
-0.058771431 -0.035723813 1.21 1.0696764e-38
-0.056466665 -0.035723813 1.21 1.963974e-38
-0.054161906 -0.035723813 1.21 2.0004319e-38
-0.05896572 -0.033529524 1.2140001 1.0144744e-38
-0.054161906 -0.033419047 1.21 1.9360729e-38
-0.051857144 -0.033419047 1.21 1.2907035e-38
-0.037777144 -0.033198096 1.202 2.119813e-38
-0.037777144 -0.030908573 1.202 2.2209975e-38
-0.035605714 -0.031011432 1.2060001 1.945472e-38
-0.051857144 -0.028809523 1.21 1.7424261e-38
-0.037777144 -0.028619049 1.202 1.972805e-38
-0.035605714 -0.028714286 1.2060001 1.9545836e-38
-0.051857144 -0.026504762 1.21 1.8805763e-38
-0.044794288 -0.026417146 1.2060001 2.009148e-38
-0.037777144 -0.026329523 1.202 2.0831431e-38
-0.026504762 -0.026504762 1.21 2.1751004e-38
-0.054161906 -0.0242 1.21 2.0095057e-38
-0.051857144 -0.0242 1.21 1.8619927e-38
-0.044794288 -0.024120001 1.2060001 1.8158914e-38
-0.042497143 -0.024120001 1.2060001 6.0812864e-39
-0.028714286 -0.024120001 1.2060001 1.7976703e-38
-0.054340959 -0.021967622 1.2140001 1.9820288e-38
-0.044794288 -0.021822859 1.2060001 1.3093186e-38
-0.042497143 -0.021822859 1.2060001 4.4267971e-39
-0.040200002 -0.021822859 1.2060001 8.6649249e-39
-0.028714286 -0.021822859 1.2060001 1.4109153e-38
-0.026504762 -0.021895239 1.21 1.4748076e-38
-0.044794288 -0.019525714 1.2060001 4.3177032e-39
-0.042497143 -0.019525714 1.2060001 4.8708714e-39
-0.040200002 -0.019525714 1.2060001 1.0042459e-38
-0.037902862 -0.019525714 1.2060001 2.1290326e-38
-0.028714286 -0.019525714 1.2060001 1.5630251e-39
-0.044794288 -0.017228574 1.2060001 8.2680645e-39
-0.042497143 -0.017228574 1.2060001 8.6368414e-39
-0.040200002 -0.017228574 1.2060001 1.1143414e-38
-0.037902862 -0.017228574 1.2060001 2.220689e-38
-0.047247618 -0.014980952 1.21 2.7611872e-39
-0.026592383 -0.015030477 1.2140001 6.8901733e-39
-0.047247618 -0.012676191 1.21 3.7767866e-39
-0.04494286 -0.012676191 1.21 7.8085283e-39
-0.042638097 -0.012676191 1.21 8.1773052e-39
-0.028809523 -0.012676191 1.21 1.8464588e-39
-0.04494286 -0.010371429 1.21 1.8524469e-38
-0.042638097 -0.010371429 1.21 1.428347e-38
-0.040333334 -0.010371429 1.21 1.4096936e-38
-0.038028572 -0.010371429 1.21 2.0919413e-38
-0.035723813 -0.010371429 1.21 2.000501e-38
-0.028809523 -0.010371429 1.21 1.7237728e-38
-0.026592383 -0.010405715 1.2140001 1.8798197e-38
-0.04494286 -0.0080666672 1.21 2.0739e-38
-0.042638097 -0.0080666672 1.21 1.5576045e-38
-0.040333334 -0.0080666672 1.21 1.6493974e-38
-0.038028572 -0.0080666672 1.21 2.1195951e-38
-0.035723813 -0.0080666672 1.21 1.9912458e-38
-0.033419047 -0.0080666672 1.21 1.9728067e-38
-0.028809523 -0.0080666672 1.21 2.0371281e-38
-0.026592383 -0.0080933347 1.2140001 2.1292158e-38
-0.042638097 -0.0057619051 1.21 1.4470398e-38
-0.040333334 -0.0057619051 1.21 1.5944375e-38
-0.038028572 -0.0057619051 1.21 1.8525852e-38
-0.033419047 -0.0057619051 1.21 1.8065665e-38
-0.031114288 -0.0057619051 1.21 1.779052e-38
-0.028809523 -0.0057619051 1.21 1.7974911e-38
-0.026592383 -0.005780953 1.2140001 1.9169854e-38
-0.056466665 -0.003457143 1.21 1.5941537e-38
-0.054161906 -0.003457143 1.21 1.4747704e-38
-0.04494286 -0.003457143 1.21 1.4012316e-38
-0.026592383 -0.0034685717 1.2140001 1.5300159e-38
-0.054340959 -0.0011561905 1.2140001 7.8085283e-39
-0.051857144 -0.001152381 1.21 7.4397514e-39
-0.042779051 -0.0011561905 1.2140001 6.6143081e-39
-0.04046667 -0.0011561905 1.2140001 7.7170515e-39
-0.038154289 -0.0011561905 1.2140001 8.0858285e-39
-0.035841908 -0.0011561905 1.2140001 7.7170515e-39
-0.033529524 -0.0011561905 1.2140001 7.2560804e-39
-0.051857144 0.001152381 1.21 1.0289522e-38
-0.038154289 0.0011561905 1.2140001 1.1207518e-38
-0.035841908 0.0011561905 1.2140001 1.093237e-38
-0.033529524 0.0011561905 1.2140001 1.0840176e-38
-0.031217147 0.0011561905 1.2140001 1.093237e-38
-0.028904764 0.0011561905 1.2140001 1.1024564e-38
-0.051857144 0.003457143 1.21 1.1301164e-38
-0.035841908 0.0034685717 1.2140001 1.139371e-38
-0.033529524 0.0034685717 1.2140001 1.139371e-38
-0.031217147 0.0034685717 1.2140001 1.1576662e-38
-0.028904764 0.0034685717 1.2140001 1.1761053e-38
-0.026592383 0.0034685717 1.2140001 1.166922e-38
-0.061530478 0.0058047622 1.2190001 1.3710412e-38
-0.035841908 0.005780953 1.2140001 1.2043364e-38
-0.033529524 0.005780953 1.2140001 1.1582393e-38
-0.031217147 0.005780953 1.2140001 1.1670641e-38
-0.028904764 0.005780953 1.2140001 1.1762836e-38
-0.026592383 0.005780953 1.2140001 1.1670641e-38
-0.02428 0.005780953 1.2140001 1.1486253e-38
-0.061530478 0.0081266677 1.2190001 1.6669258e-38
-0.033529524 0.0080933347 1.2140001 1.7590846e-38
-0.031217147 0.0080933347 1.2140001 1.6946173e-38
-0.028904764 0.0080933347 1.2140001 1.7314955e-38
-0.026592383 0.0080933347 1.2140001 1.7036243e-38
-0.02428 0.0080933347 1.2140001 1.666746e-38
-0.059208576 0.010448572 1.2190001 1.5005152e-38
-0.033529524 0.010405715 1.2140001 1.6668668e-38
-0.031217147 0.010405715 1.2140001 1.7128127e-38
-0.028904764 0.010405715 1.2140001 1.7681301e-38
-0.021967622 0.010405715 1.2140001 1.8601494e-38
-0.056886673 0.012770478 1.2190001 1.1393357e-38
-0.031217147 0.012718096 1.2140001 1.1950474e-38
-0.028904764 0.012718096 1.2140001 1.2134865e-38
-0.026701907 0.012770478 1.2190001 1.3333383e-38
-0.024380002 0.012770478 1.2190001 1.3794361e-38
-0.019655241 0.012718096 1.2140001 1.4350059e-38
-0.031217147 0.015030477 1.2140001 1.057331e-38
-0.028904764 0.015030477 1.2140001 9.1903753e-39
-0.026701907 0.015092382 1.2190001 1.1667772e-38
-0.024380002 0.015092382 1.2190001 1.2036548e-38
-0.022058096 0.015092382 1.2190001 1.2128743e-38
-0.017342858 0.015030477 1.2140001 1.2498955e-38
-0.054564763 0.017414287 1.2190001 1.1855784e-38
-0.028904764 0.017342858 1.2140001 8.640866e-39
-0.026701907 0.017414287 1.2190001 1.2128766e-38
-0.024380002 0.017414287 1.2190001 1.3235114e-38
-0.022058096 0.017414287 1.2190001 1.2867411e-38
-0.019736191 0.017414287 1.2190001 1.3051802e-38
-0.028904764 0.019655241 1.2140001 7.5417057e-39
-0.026701907 0.019736191 1.2190001 1.1851454e-38
-0.024380002 0.019736191 1.2190001 1.3787562e-38
-0.022058096 0.019736191 1.2190001 1.2871366e-38
-0.019736191 0.019736191 1.2190001 1.2871366e-38
-0.017414287 0.019736191 1.2190001 1.2870299e-38
-0.024380002 0.022058096 1.2190001 1.3236899e-38
-0.022058096 0.022058096 1.2190001 1.2778819e-38
-0.019736191 0.022058096 1.2190001 1.2871015e-38
-0.017414287 0.022058096 1.2190001 1.2871015e-38
-0.038154289 0.02428 1.2140001 1.9336953e-38
-0.024380002 0.024380002 1.2190001 1.295888e-38
-0.022058096 0.024380002 1.2190001 1.27781e-38
-0.019736191 0.024380002 1.2190001 1.3146883e-38
-0.017414287 0.024380002 1.2190001 1.3145451e-38
-0.015092382 0.024380002 1.2190001 1.3145451e-38
-0.03366762 0.026701907 1.2190001 2.0269823e-38
-0.022058096 0.026701907 1.2190001 1.2592998e-38
-0.019736191 0.026701907 1.2190001 1.2961781e-38
-0.017414287 0.026701907 1.2190001 1.3145456e-38
-0.015092382 0.026701907 1.2190001 1.3145456e-38
-0.012770478 0.026701907 1.2190001 1.3239084e-38
-0.031217147 0.028904764 1.2140001 1.9439903e-38
-0.022058096 0.029023811 1.2190001 1.2313521e-38
-0.019736191 0.029023811 1.2190001 1.3512064e-38
-0.017414287 0.029023811 1.2190001 1.2964299e-38
-0.015092382 0.029023811 1.2190001 1.2779908e-38
-0.012770478 0.029023811 1.2190001 1.333128e-38
-0.010448572 0.029023811 1.2190001 1.3515671e-38
-0.042955242 0.031345718 1.2190001 1.8410221e-38
-0.031217147 0.031217147 1.2140001 1.8239494e-38
-0.019736191 0.031345718 1.2190001 1.2961398e-38
-0.017414287 0.031345718 1.2190001 1.3146888e-38
-0.015092382 0.031345718 1.2190001 1.3423475e-38
-0.012770478 0.031345718 1.2190001 1.3146888e-38
-0.010448572 0.031345718 1.2190001 1.333128e-38
-0.019736191 0.03366762 1.2190001 1.2315705e-38
-0.017414287 0.03366762 1.2190001 1.3238365e-38
-0.015092382 0.03366762 1.2190001 1.3607148e-38
-0.012770478 0.03366762 1.2190001 1.3241965e-38
-0.010448572 0.03366762 1.2190001 1.3241965e-38
-0.0081266677 0.03366762 1.2190001 1.3424903e-38
-0.017414287 0.035989527 1.2190001 1.1117126e-38
-0.015092382 0.035989527 1.2190001 1.314543e-38
-0.012770478 0.035989527 1.2190001 1.3056855e-38
-0.010448572 0.035989527 1.2190001 1.3056855e-38
-0.0081266677 0.035989527 1.2190001 1.333164e-38
-0.0058047622 0.035989527 1.2190001 1.2317488e-38
-0.024460001 0.038437143 1.223 1.8974949e-38
-0.022058096 0.038311433 1.2190001 1.7500632e-38
-0.019736191 0.038311433 1.2190001 1.1784502e-38
-0.017414287 0.038311433 1.2190001 1.0840941e-38
-0.015092382 0.038311433 1.2190001 1.1855093e-38
-0.012770478 0.038311433 1.2190001 1.2682659e-38
-0.010448572 0.038311433 1.2190001 1.3881202e-38
-0.0081266677 0.038311433 1.2190001 1.3330561e-38
-0.0058047622 0.038311433 1.2190001 1.2132018e-38
-0.0034828575 0.038311433 1.2190001 1.3239433e-38
-0.040766668 0.040766668 1.223 1.7128396e-38
-0.017471429 0.040766668 1.223 1.6669764e-38
-0.015092382 0.040633336 1.2190001 1.1414613e-38
-0.012770478 0.040633336 1.2190001 1.1669617e-38
-0.010448572 0.040633336 1.2190001 1.2130595e-38
-0.0081266677 0.040633336 1.2190001 1.2866355e-38
-0.0058047622 0.040633336 1.2190001 1.212879e-38
-0.0034828575 0.040633336 1.2190001 1.2592979e-38
-0.0011609525 0.040633336 1.2190001 1.9784238e-38
-0.038311433 0.042955242 1.2190001 1.6665631e-38
-0.017471429 0.043096192 1.223 1.8794572e-38
-0.012770478 0.042955242 1.2190001 1.3806342e-38
-0.010448572 0.042955242 1.2190001 1.0763886e-38
-0.0081266677 0.042955242 1.2190001 1.3143328e-38
-0.0058047622 0.042955242 1.2190001 1.2313567e-38
-0.0034828575 0.042955242 1.2190001 1.287383e-38
-0.0011609525 0.042955242 1.2190001 1.9788499e-38
-0.035989527 0.045277145 1.2190001 1.6756032e-38
-0.015141904 0.045425717 1.223 2.0451894e-38
-0.012770478 0.045277145 1.2190001 1.7687554e-38
-0.010448572 0.045277145 1.2190001 1.5474858e-38
-0.0081266677 0.045277145 1.2190001 1.3254986e-38
-0.0058047622 0.045277145 1.2190001 1.0950095e-38
-0.0034828575 0.045277145 1.2190001 1.2237527e-38
-0.0011609525 0.045277145 1.2190001 1.6847308e-38
0.0011609525 0.045277145 1.2190001 1.6762967e-38
-0.036107622 0.047755238 1.223 1.6477373e-38
-0.022202859 0.047911432 1.2270001 1.7032256e-38
-0.015141904 0.047755238 1.223 1.8695803e-38
-0.010448572 0.047599051 1.2190001 1.4096205e-38
-0.0081266677 0.047599051 1.2190001 1.3448693e-38
-0.0058047622 0.047599051 1.2190001 1.2157954e-38
-0.0034828575 0.047599051 1.2190001 1.123384e-38
-0.0011609525 0.047599051 1.2190001 1.3446535e-38
0.0011609525 0.047599051 1.2190001 1.5286807e-38
0.0034828575 0.047599051 1.2190001 1.7222915e-38
-0.019800952 0.050084762 1.223 1.3250858e-38
-0.012812382 0.050084762 1.223 1.8526531e-38
-0.010448572 0.049920954 1.2190001 1.91719e-38
-0.0081266677 0.049920954 1.2190001 1.9724101e-38
-0.0058047622 0.049920954 1.2190001 2.0646058e-38
-0.0034828575 0.049920954 1.2190001 2.0277978e-38
-0.0011609525 0.049920954 1.2190001 1.6682349e-38
0.0011609525 0.049920954 1.2190001 1.7323003e-38
0.0034828575 0.049920954 1.2190001 1.1145896e-38
0.0058047622 0.049920954 1.2190001 1.3991675e-38
-0.03366762 0.05224286 1.2190001 1.5301989e-38
-0.019800952 0.052414287 1.223 1.3625031e-38
-0.0081266677 0.05224286 1.2190001 2.175162e-38
-0.0058047622 0.05224286 1.2190001 2.239699e-38
0.0034828575 0.05224286 1.2190001 9.7713201e-39
0.0058047622 0.05224286 1.2190001 1.1505658e-38
-0.010517144 0.054922864 1.2270001 1.3081756e-38
-0.0081800008 0.054922864 1.2270001 1.5758818e-38
0.0034828575 0.054564763 1.2190001 1.2993483e-38
0.0058047622 0.054564763 1.2190001 1.2152206e-38
0.0081266677 0.054564763 1.2190001 1.2797575e-38
0.031217147 0.054340959 1.2140001 1.3347034e-38
-0.0058428575 0.057260003 1.2270001 1.9428011e-38
0.0034828575 0.056886673 1.2190001 1.2347731e-38
0.0058047622 0.056886673 1.2190001 1.252597e-38
0.0081266677 0.056886673 1.2190001 1.3355731e-38
0.010448572 0.056886673 1.2190001 1.46403e-38
0.031217147 0.056653336 1.2140001 1.1687561e-38
0.0034828575 0.059208576 1.2190001 1.4552709e-38
0.0058047622 0.059208576 1.2190001 1.6581042e-38
0.0081266677 0.059208576 1.2190001 1.7410803e-38
0.010448572 0.059208576 1.2190001 1.611755e-38
0.012770478 0.059208576 1.2190001 1.4273637e-38
0.040633336 0.059208576 1.2190001 1.3791905e-38
-0.0035057145 0.061934292 1.2270001 1.0215661e-38
0.001164762 0.061732382 1.223 1.2241385e-38
0.0081266677 0.061530478 1.2190001 1.7589513e-38
0.010448572 0.061530478 1.2190001 1.6209032e-38
0.012770478 0.061530478 1.2190001 1.4641707e-38
0.015092382 0.061530478 1.2190001 1.4543484e-38
-0.0011685715 0.064271435 1.2270001 1.3545893e-38
0.001164762 0.064061902 1.223 1.4833382e-38
0.0034942857 0.064061902 1.223 1.5939729e-38
0.010448572 0.063852385 1.2190001 1.3166556e-38
0.012770478 0.063852385 1.2190001 1.4641665e-38
0.015092382 0.063852385 1.2190001 1.4267266e-38
0.017414287 0.063852385 1.2190001 1.3529701e-38
0.0034942857 0.066391431 1.223 1.4748076e-38
0.012770478 0.066174291 1.2190001 1.5005126e-38
0.015092382 0.066174291 1.2190001 1.584033e-38
0.017414287 0.066174291 1.2190001 1.3904221e-38
0.001164762 0.068720959 1.223 2.2218068e-38
0.0034942857 0.068720959 1.223 2.2402459e-38
0.0058238097 0.068720959 1.223 2.0003568e-38
0.0081533343 0.068720959 1.223 1.1982548e-38
0.015092382 0.068496197 1.2190001 1.869911e-38
0.017414287 0.068496197 1.2190001 2.1372784e-38
0.019736191 0.068496197 1.2190001 1.9437077e-38
0.001164762 0.07105048 1.223 2.249502e-38
0.0034942857 0.07105048 1.223 2.2126238e-38
0.0058238097 0.07105048 1.223 1.9634818e-38
0.0081533343 0.07105048 1.223 8.6635376e-39
0.010482857 0.07105048 1.223 1.0298131e-38
0.001164762 0.073380001 1.223 2.2584692e-38
0.0034942857 0.073380001 1.223 2.1201758e-38
0.0058238097 0.073380001 1.223 1.9264208e-38
0.0081533343 0.073380001 1.223 6.8177977e-39
0.010482857 0.073380001 1.223 1.140626e-38
0.012812382 0.073380001 1.223 1.795215e-38
0.015141904 0.073380001 1.223 1.7494662e-38
0.017471429 0.073380001 1.223 1.7494662e-38
0.019800952 0.073380001 1.223 1.8884096e-38
0.040633336 0.073140003 1.2190001 1.1951277e-38
0.043096192 0.073380001 1.223 1.2498276e-38
-0.0011685715 0.075957149 1.2270001 2.2398807e-38
0.001164762 0.075709529 1.223 2.2493939e-38
0.0034942857 0.075709529 1.223 2.0650026e-38
0.0058238097 0.075709529 1.223 1.861809e-38
0.0081533343 0.075709529 1.223 7.64681e-39
0.010482857 0.075709529 1.223 1.2973199e-38
0.012812382 0.075709529 1.223 1.8781522e-38
0.015141904 0.075709529 1.223 1.8231501e-38
0.017471429 0.075709529 1.223 1.7678333e-38
0.019800952 0.075709529 1.223 1.7769451e-38
0.022130478 0.075709529 1.223 2.1549449e-38
0.040633336 0.075461909 1.2190001 1.3163799e-38
0.043096192 0.075709529 1.223 1.4073131e-38
-0.0035200003 0.078613341 1.2320001 1.6033139e-38
0.0035057145 0.078294292 1.2270001 1.6683446e-38
0.0058428575 0.078294292 1.2270001 1.5571542e-38
0.0081533343 0.07803905 1.223 1.0961786e-38
0.010482857 0.07803905 1.223 1.4725315e-38
0.012812382 0.07803905 1.223 1.8597532e-38
0.015141904 0.07803905 1.223 1.7771962e-38
0.017471429 0.07803905 1.223 1.7403185e-38
0.019800952 0.07803905 1.223 1.5928436e-38
0.022130478 0.07803905 1.223 1.5375271e-38
0.024460001 0.07803905 1.223 1.51916e-38
0.040633336 0.077783816 1.2190001 1.814485e-38
-0.0035200003 0.080960013 1.2320001 2.100875e-38
0.0058428575 0.080631435 1.2270001 1.1879065e-38
0.010482857 0.080368571 1.223 1.6661398e-38
0.012812382 0.080368571 1.223 1.7767746e-38
0.015141904 0.080368571 1.223 1.6483044e-38
0.017471429 0.080368571 1.223 1.5192317e-38
0.019800952 0.080368571 1.223 1.3718645e-38
0.026789526 0.080368571 1.223 1.4820671e-38
-0.010517144 0.082968585 1.2270001 2.1203197e-38
0.0081800008 0.082968585 1.2270001 1.4361514e-38
0.010482857 0.082698092 1.223 1.5739432e-38
0.012812382 0.082698092 1.223 1.5739432e-38
0.015141904 0.082698092 1.223 1.6385829e-38
0.040766668 0.082698092 1.223 1.6020272e-38
0.04323715 0.082968585 1.2270001 1.2896789e-38
0.0011733334 0.085653335 1.2320001 1.1234064e-38
0.010517144 0.085305721 1.2270001 1.5741191e-38
0.012854287 0.085305721 1.2270001 1.6570951e-38
0.015191429 0.085305721 1.2270001 1.7856755e-38
0.017528573 0.085305721 1.2270001 1.7487972e-38
0.019865716 0.085305721 1.2270001 1.7581572e-38
0.022202859 0.085305721 1.2270001 1.8226941e-38
0.024540002 0.085305721 1.2270001 1.8228711e-38
0.026877144 0.085305721 1.2270001 1.8228711e-38
0.040766668 0.085027628 1.223 1.7768799e-38
0.012854287 0.087642863 1.2270001 1.8507462e-38
0.015191429 0.087642863 1.2270001 1.758918e-38
0.017528573 0.087642863 1.2270001 1.5653071e-38
0.019865716 0.087642863 1.2270001 1.5652368e-38
0.022202859 0.087642863 1.2270001 1.6389933e-38
0.024540002 0.087642863 1.2270001 1.5936083e-38
0.026877144 0.087642863 1.2270001 1.5751692e-38
0.029214289 0.087642863 1.2270001 1.5471917e-38
0.0035057145 0.089980014 1.2270001 1.7770992e-38
0.012854287 0.089980014 1.2270001 1.8785048e-38
0.015191429 0.089980014 1.2270001 1.6948877e-38
0.017528573 0.089980014 1.2270001 1.5012769e-38
0.019865716 0.089980014 1.2270001 1.3724536e-38
0.022202859 0.089980014 1.2270001 1.5199666e-38
0.024540002 0.089980014 1.2270001 1.3735704e-38
0.026877144 0.089980014 1.2270001 1.1615205e-38
0.029214289 0.089980014 1.2270001 1.1887806e-38
0.015191429 0.092317149 1.2270001 1.6859921e-38
0.017528573 0.092317149 1.2270001 1.6952117e-38
0.019865716 0.092317149 1.2270001 1.4282429e-38
0.022202859 0.092317149 1.2270001 1.5573168e-38
0.024640001 0.092693344 1.2320001 1.5668969e-38
0.026986668 0.092693344 1.2320001 1.6037752e-38
0.029214289 0.092317149 1.2270001 1.6680184e-38
0.031551428 0.092317149 1.2270001 1.8524097e-38
0.019946668 0.095040008 1.2320001 9.8645204e-39
0.022293337 0.095040008 1.2320001 1.2445998e-38
0.024640001 0.095040008 1.2320001 1.4378527e-38
0.026986668 0.095040008 1.2320001 1.4009745e-38
0.029333336 0.095040008 1.2320001 1.4739718e-38
0.033888575 0.094654292 1.2270001 1.5848604e-38
0.043413337 0.095040008 1.2320001 1.2891457e-38
0.019946668 0.097386681 1.2320001 1.390951e-38
0.022293337 0.097386681 1.2320001 1.4278292e-38
0.024640001 0.097386681 1.2320001 1.4371179e-38
0.026986668 0.097386681 1.2320001 1.4463373e-38
0.029333336 0.097386681 1.2320001 1.5290251e-38
0.031680003 0.097386681 1.2320001 1.5751223e-38
0.033888575 0.096991435 1.2270001 1.5751223e-38
0.036225718 0.096991435 1.2270001 1.547464e-38
0.060034286 0.097702861 1.2360001 1.3456561e-38
0.022293337 0.099733338 1.2320001 1.6298364e-38
0.024640001 0.099733338 1.2320001 1.5375316e-38
0.026986668 0.099733338 1.2320001 1.528312e-38
0.029333336 0.099733338 1.2320001 1.6019619e-38
0.031680003 0.099733338 1.2320001 1.620401e-38
0.055146672 0.099733338 1.2320001 1.5564096e-38
0.057680003 0.10005715 1.2360001 1.3732795e-38
0.022293337 0.10208001 1.2320001 1.7312901e-38
0.024640001 0.10208001 1.2320001 1.5195316e-38
0.026986668 0.10208001 1.2320001 6.7133183e-39
0.029333336 0.10208001 1.2320001 9.4626434e-39
0.031680003 0.10208001 1.2320001 1.0015809e-38
0.034026671 0.10208001 1.2320001 1.1026764e-38
0.03637334 0.10208001 1.2320001 1.0934569e-38
0.041066669 0.10208001 1.2320001 1.1948345e-38
0.024640001 0.10442667 1.2320001 1.6769119e-38
0.026986668 0.10442667 1.2320001 1.105299e-38
0.029333336 0.10442667 1.2320001 7.8078753e-39
0.031680003 0.10442667 1.2320001 7.623484e-39
0.034026671 0.10442667 1.2320001 7.9932755e-39
0.03637334 0.10442667 1.2320001 8.2698582e-39
0.041066669 0.10442667 1.2320001 7.5348155e-39
0.043554287 0.10476572 1.2360001 9.6499045e-39
0.024640001 0.10677334 1.2320001 1.879417e-38
0.026986668 0.10677334 1.2320001 1.9716126e-38
0.029333336 0.10677334 1.2320001 1.722654e-38
0.031680003 0.10677334 1.2320001 9.9430856e-39
0.034026671 0.10677334 1.2320001 1.0669061e-38
0.03637334 0.10677334 1.2320001 1.1130032e-38
0.038720001 0.10677334 1.2320001 1.1589627e-38
0.041066669 0.10677334 1.2320001 1.1958409e-38
0.043554287 0.10712001 1.2360001 1.2600535e-38
0.026986668 0.10912001 1.2320001 1.9806833e-38
0.029333336 0.10912001 1.2320001 1.9348457e-38
0.031680003 0.10912001 1.2320001 1.5752827e-38
0.034026671 0.10912001 1.2320001 1.2419483e-38
0.03637334 0.10912001 1.2320001 1.0298983e-38
0.038720001 0.10912001 1.2320001 1.2774869e-38
0.041066669 0.10912001 1.2320001 1.4065608e-38
0.043554287 0.10947429 1.2360001 1.3792954e-38
0.026986668 0.11146668 1.2320001 1.7776267e-38
0.029333336 0.11146668 1.2320001 1.7224699e-38
0.031680003 0.11146668 1.2320001 2.0267155e-38
0.034026671 0.11146668 1.2320001 1.7963061e-38
0.03637334 0.11146668 1.2320001 1.2431324e-38
0.038720001 0.11146668 1.2320001 1.2504776e-38
0.041066669 0.11146668 1.2320001 1.0753059e-38
0.043554287 0.11182857 1.2360001 1.2405328e-38
0.029333336 0.11381335 1.2320001 1.6852314e-38
0.031680003 0.11381335 1.2320001 2.0355748e-38
0.034026671 0.11381335 1.2320001 1.9717986e-38
0.03637334 0.11381335 1.2320001 1.6306748e-38
0.038720001 0.11381335 1.2320001 1.4176204e-38
0.041066669 0.11381335 1.2320001 1.1041552e-38
0.043554287 0.11418286 1.2360001 1.185149e-38
0.017600002 0.11616001 1.2320001 1.546893e-38
0.019946668 0.11616001 1.2320001 1.7961754e-38
0.024640001 0.11616001 1.2320001 1.9896614e-38
0.029333336 0.11616001 1.2320001 1.9898772e-38
0.031680003 0.11616001 1.2320001 1.9161207e-38
0.034026671 0.11616001 1.2320001 1.9165486e-38
0.03637334 0.11616001 1.2320001 2.0364029e-38
0.038720001 0.11616001 1.2320001 2.0085321e-38
0.041066669 0.11616001 1.2320001 1.63053e-38
0.043554287 0.11653715 1.2360001 1.5834912e-38
0.027074287 0.11889143 1.2360001 2.0265e-38
0.029333336 0.11850668 1.2320001 1.9258059e-38
0.031680003 0.11850668 1.2320001 1.8704885e-38
0.034026671 0.11850668 1.2320001 1.9072925e-38
0.03637334 0.11850668 1.2320001 2.0548055e-38
0.038720001 0.11850668 1.2320001 2.119241e-38
0.041066669 0.11850668 1.2320001 1.9164106e-38
0.043554287 0.11889143 1.2360001 1.6392489e-38
0.045908574 0.11889143 1.2360001 8.9246429e-39
0.031782858 0.12124572 1.2360001 1.5650071e-38
0.034137145 0.12124572 1.2360001 1.7038122e-38
0.03637334 0.12085334 1.2320001 2.0080578e-38
0.038720001 0.12085334 1.2320001 2.0451585e-38
0.043554287 0.12124572 1.2360001 1.7956578e-38
0.045908574 0.12124572 1.2360001 1.0212145e-38
0.048262861 0.12124572 1.2360001 1.2311014e-38
0.036491431 0.1236 1.2360001 1.9142414e-38
0.038845714 0.1236 1.2360001 1.8325685e-38
0.041200001 0.1236 1.2360001 1.8602272e-38
0.043554287 0.1236 1.2360001 1.7127155e-38
0.045908574 0.1236 1.2360001 1.0028091e-38
0.048262861 0.1236 1.2360001 1.2588677e-38
0.036491431 0.1259543 1.2360001 1.203476e-38
0.038845714 0.1259543 1.2360001 1.2219143e-38
0.041200001 0.1259543 1.2360001 1.2680114e-38
0.048262861 0.1259543 1.2360001 1.2960346e-38
0.050617144 0.1259543 1.2360001 1.2499368e-38
0.038845714 0.12830856 1.2360001 1.2587203e-38
0.041200001 0.12830856 1.2360001 1.2863788e-38
0.043730479 0.12882763 1.2410001 1.2773758e-38
0.046094287 0.12882763 1.2410001 1.3880105e-38
0.048458096 0.12882763 1.2410001 1.3329842e-38
0.050617144 0.12830856 1.2360001 1.2407886e-38
0.05297143 0.12830856 1.2360001 1.1501017e-38
0.038845714 0.13066287 1.2360001 1.314614e-38
0.041200001 0.13066287 1.2360001 1.3238336e-38
0.043730479 0.13119143 1.2410001 1.3329116e-38
0.046094287 0.13119143 1.2410001 1.3697898e-38
0.048458096 0.13119143 1.2410001 1.3146535e-38
0.050617144 0.13066287 1.2360001 1.2132383e-38
0.041200001 0.13301714 1.2360001 1.3330195e-38
0.043730479 0.13355523 1.2410001 1.3330549e-38
0.046094287 0.13355523 1.2410001 1.3791528e-38
0.048458096 0.13355523 1.2410001 1.3056855e-38
0.050617144 0.13301714 1.2360001 1.2227094e-38
0.041200001 0.13537145 1.2360001 1.3146518e-38
0.046094287 0.13591906 1.2410001 1.3606782e-38
0.048458096 0.13591906 1.2410001 1.3424903e-38
0.050617144 0.13537145 1.2360001 1.2687338e-38
0.029547621 0.13828287 1.2410001 1.3242667e-38
0.046094287 0.13828287 1.2410001 1.3699696e-38
0.048458096 0.13828287 1.2410001 1.3423835e-38
0.050617144 0.13772571 1.2360001 1.2594075e-38
0.05297143 0.13772571 1.2360001 1.1409547e-38
0.048458096 0.14064667 1.2410001 1.2870314e-38
0.05297143 0.14008002 1.2360001 1.104256e-38
0.048458096 0.14301048 1.2410001 1.2685905e-38
0.050821908 0.14301048 1.2410001 1.194834e-38
0.053185716 0.14301048 1.2410001 1.0675935e-38
0.031911429 0.14537428 1.2410001 1.2688441e-38
0.050821908 0.14537428 1.2410001 1.0474993e-38
0.053185716 0.14537428 1.2410001 9.7546979e-39
