# .PCD v0.7 - Point Cloud Data file format
VERSION 0.7
FIELDS x y z rgba
SIZE 4 4 4 4
TYPE F F F U
COUNT 1 1 1 1
WIDTH 1111
HEIGHT 1
VIEWPOINT 0 0 0 1 0 0 0
POINTS 1111
DATA ascii
-0.053118095 0.17818096 0.70600003 9924678
-0.051626671 0.1776762 0.70400006 11306331
-0.050214287 0.1774238 0.70300001 11700832
-0.048875239 0.1774238 0.70300001 11635039
-0.047400955 0.17691906 0.70100003 11503980
-0.046000004 0.17666668 0.70000005 11635566
-0.044666667 0.17666668 0.70000005 11636070
-0.043209527 0.1761619 0.69800001 11175519
-0.04188 0.1761619 0.69800001 10779476
-0.040492382 0.17590952 0.69700003 10647890
-0.039164763 0.17590952 0.69700003 10712654
-0.037837144 0.17590952 0.69700003 10581068
-0.036509525 0.17590952 0.69700003 10580550
-0.035181906 0.17590952 0.69700003 10777929
-0.033854287 0.17590952 0.69700003 10515534
-0.032526664 0.17590952 0.69700003 10515534
-0.031199049 0.17590952 0.69700003 10646093
-0.02987143 0.17590952 0.69700003 10646093
-0.028543809 0.17590952 0.69700003 10515275
-0.027216192 0.17590952 0.69700003 10712654
-0.025888572 0.17590952 0.69700003 10779719
-0.024560954 0.17590952 0.69700003 10977098
-0.023233334 0.17590952 0.69700003 11371865
-0.021905715 0.17590952 0.69700003 11240279
-0.020578096 0.17590952 0.69700003 10845523
-0.019278096 0.1761619 0.69800001 10713937
-0.017948572 0.1761619 0.69800001 10714194
-0.016666668 0.17666668 0.70000005 11174745
-0.015333334 0.17666668 0.70000005 11701850
-0.014 0.17666668 0.70000005 11701850
-0.012684762 0.17691906 0.70100003 11438176
-0.011349524 0.17691906 0.70100003 11701348
-0.010042857 0.1774238 0.70300001 11767393
-0.0087038092 0.1774238 0.70300001 11964772
-0.0073752385 0.1776762 0.70400006 11702867
-0.0060514286 0.17818096 0.70600003 12360797
-0.0047066668 0.17818096 0.70600003 11571574
-0.0033666666 0.17843334 0.70700002 11505781
-0.0020228571 0.17868571 0.708 11702120
-0.00067619048 0.17919049 0.71000004 11570534
0.00067714287 0.17944287 0.71100003 10390378
0.0020371431 0.17994764 0.71300006 11706238
0.0033952384 0.17994764 0.71300006 13156766
0.0047999998 0.18171428 0.72000003 16776666
0.0061885719 0.18221906 0.72200006 16645328
0.0075638103 0.18221906 0.72200006 16776914
-0.058828574 0.18054286 0.71000004 11317148
-0.057476193 0.18054286 0.71000004 9277565
-0.055965714 0.18003428 0.708 9145452
-0.054540001 0.17977999 0.70700002 9540210
-0.053118095 0.17952573 0.70600003 10452840
-0.051626671 0.17901716 0.70400006 10518633
-0.050214287 0.17876285 0.70300001 11174488
-0.048875239 0.17876285 0.70300001 11700832
-0.047400955 0.17825429 0.70100003 11701367
-0.046065718 0.17825429 0.70100003 12754055
-0.044666667 0.178 0.70000005 12097907
-0.043209527 0.17749143 0.69800001 11834735
-0.04188 0.17749143 0.69800001 11636341
-0.040492382 0.17723715 0.69700003 11241583
-0.039164763 0.17723715 0.69700003 11503980
-0.037837144 0.17723715 0.69700003 11569773
-0.036509525 0.17723715 0.69700003 11240806
-0.035181906 0.17723715 0.69700003 11175013
-0.033854287 0.17723715 0.69700003 11372135
-0.032526664 0.17723715 0.69700003 11569514
-0.031199049 0.17723715 0.69700003 11372135
-0.02987143 0.17723715 0.69700003 11043170
-0.028543809 0.17723715 0.69700003 11307346
-0.027216192 0.17723715 0.69700003 11438932
-0.025888572 0.17723715 0.69700003 11372894
-0.024560954 0.17723715 0.69700003 12030824
-0.023266668 0.17749143 0.69800001 11900517
-0.021937143 0.17749143 0.69800001 12229482
-0.020607619 0.17749143 0.69800001 11900024
-0.019278096 0.17749143 0.69800001 11834231
-0.017948572 0.17749143 0.69800001 12031601
-0.016666668 0.178 0.70000005 12163187
-0.015333334 0.178 0.70000005 11901023
-0.014 0.178 0.70000005 11966816
-0.012684762 0.17825429 0.70100003 11900267
-0.011349524 0.17825429 0.70100003 11768681
-0.010042857 0.17876285 0.70300001 11899735
-0.0087038092 0.17876285 0.70300001 12097114
-0.0073752385 0.17901716 0.70400006 12031299
-0.0060514286 0.17952573 0.70600003 12623436
-0.0047133337 0.17977999 0.70700002 11832953
-0.0033714285 0.18003428 0.708 11438195
-0.0020285714 0.18054286 0.71000004 11110751
-0.00067904766 0.18130574 0.71300006 11966060
0.00067904766 0.18130574 0.71300006 10655860
0.0020400002 0.18156001 0.71400005 12037513
0.0034142856 0.18232284 0.71700001 13354662
0.0047999998 0.18308572 0.72000003 16776669
0.0061885719 0.1835943 0.72200006 16645074
0.0075638103 0.1835943 0.72200006 16777174
-0.058828574 0.18189524 0.71000004 12239013
-0.057476193 0.18189524 0.71000004 8949363
-0.055965714 0.18138285 0.708 8553300
-0.05461714 0.18138285 0.708 9474402
-0.053193334 0.18112667 0.70700002 10651490
-0.051773336 0.18087047 0.70600003 10454111
-0.050285716 0.18035811 0.70400006 10976594
-0.048875239 0.18010192 0.70300001 11766110
-0.047400955 0.17958954 0.70100003 11636847
-0.046065718 0.17958954 0.70100003 12031605
-0.044666667 0.17933334 0.70000005 11834996
-0.043209527 0.17882095 0.69800001 11900789
-0.04188 0.17882095 0.69800001 11835003
-0.040492382 0.17856477 0.69700003 11506038
-0.039164763 0.17856477 0.69700003 11703401
-0.037837144 0.17856477 0.69700003 11703401
-0.036509525 0.17856477 0.69700003 10978901
-0.035181906 0.17856477 0.69700003 11242073
-0.033854287 0.17856477 0.69700003 11504482
-0.032526664 0.17856477 0.69700003 11438689
-0.031199049 0.17856477 0.69700003 11372644
-0.02987143 0.17856477 0.69700003 11570023
-0.028584762 0.17882095 0.69800001 11439718
-0.027255237 0.17882095 0.69800001 11439718
-0.025925715 0.17882095 0.69800001 11176553
-0.02459619 0.17882095 0.69800001 11637104
-0.023266668 0.17882095 0.69800001 11769712
-0.021937143 0.17882095 0.69800001 11769712
-0.020607619 0.17882095 0.69800001 11703408
-0.019278096 0.17882095 0.69800001 11703408
-0.017948572 0.17882095 0.69800001 12032882
-0.016666668 0.17933334 0.70000005 11901296
-0.015333334 0.17933334 0.70000005 11309924
-0.014 0.17933334 0.70000005 11638889
-0.012684762 0.17958954 0.70100003 11966582
-0.011349524 0.17958954 0.70100003 11703410
-0.010042857 0.18010192 0.70300001 11570016
-0.0087161912 0.18035811 0.70400006 11570016
-0.0073961904 0.18087047 0.70600003 11898191
-0.0060514286 0.18087047 0.70600003 12227156
-0.0047133337 0.18112667 0.70700002 11964020
-0.0033809526 0.18189524 0.71000004 11700848
-0.0020314287 0.18215142 0.71100003 10519895
-0.00067904766 0.18266381 0.71300006 10651481
0.00067904766 0.18266381 0.71300006 10393458
0.0020400002 0.18292001 0.71400005 11906697
0.0034142856 0.18368857 0.71700001 13618085
0.0047999998 0.18445715 0.72000003 16776406
0.0061885719 0.18496954 0.72200006 16578763
0.0075638103 0.18496954 0.72200006 16710349
-0.057476193 0.18324763 0.71000004 8882779
-0.055965714 0.18273142 0.708 8554077
-0.05461714 0.18273142 0.708 9475179
-0.053193334 0.18247333 0.70700002 10324578
-0.051846668 0.18247333 0.70700002 9995613
-0.050285716 0.18169905 0.70400006 10846041
-0.048875239 0.18144095 0.70300001 11701350
-0.047400955 0.18092477 0.70100003 11767645
-0.046065718 0.18092477 0.70100003 12162403
-0.044666667 0.18066667 0.70000005 12031601
-0.043209527 0.18015048 0.69800001 12689531
-0.04188 0.18015048 0.69800001 12163961
-0.040492382 0.17989239 0.69700003 11440238
-0.039164763 0.17989239 0.69700003 11835476
-0.037837144 0.17989239 0.69700003 11967062
-0.036509525 0.17989239 0.69700003 11834201
-0.035181906 0.17989239 0.69700003 12097373
-0.033854287 0.17989239 0.69700003 12097380
-0.032526664 0.17989239 0.69700003 12097380
-0.031199049 0.17989239 0.69700003 11834474
-0.029914286 0.18015048 0.69800001 12163439
-0.028584762 0.18015048 0.69800001 12032627
-0.027255237 0.18015048 0.69800001 12098420
-0.025925715 0.18015048 0.69800001 11900537
-0.02459619 0.18015048 0.69800001 11571572
-0.023266668 0.18015048 0.69800001 11768429
-0.021937143 0.18015048 0.69800001 11900015
-0.020607619 0.18015048 0.69800001 11834208
-0.019278096 0.18015048 0.69800001 11636829
-0.018000001 0.18066667 0.70000005 11901021
-0.016666668 0.18066667 0.70000005 12098400
-0.015333334 0.18066667 0.70000005 11439718
-0.014020001 0.18092477 0.70100003 11110753
-0.012720953 0.18144095 0.70300001 11241060
-0.011381905 0.18144095 0.70300001 11109474
-0.010042857 0.18144095 0.70300001 11043422
-0.0087161912 0.18169905 0.70400006 10911836
-0.0073961904 0.18221524 0.70600003 11306592
-0.0060514286 0.18221524 0.70600003 11701350
-0.0047133337 0.18247333 0.70700002 11373934
-0.0033809526 0.18324763 0.71000004 11439727
-0.0020314287 0.18350571 0.71100003 10260083
-0.00067904766 0.18402192 0.71300006 9602153
0.00067904766 0.18402192 0.71300006 8948080
0.0020400002 0.18428002 0.71400005 11579800
0.0034142856 0.18505429 0.71700001 13618076
0.0047999998 0.18582858 0.72000003 16777170
0.0061714291 0.18582858 0.72000003 16646097
0.007542857 0.18582858 0.72000003 16646097
-0.057476193 0.18460001 0.71000004 9540718
-0.056123812 0.18460001 0.71000004 8357205
-0.05461714 0.18407999 0.708 8686170
-0.05326857 0.18407999 0.708 9800549
-0.051846668 0.18381999 0.70700002 9734756
-0.050428573 0.18356 0.70600003 10780507
-0.048944768 0.18304001 0.70400006 10977886
-0.047536191 0.18278 0.70300001 11371095
-0.046065718 0.18226001 0.70100003 12423783
-0.044730477 0.18226001 0.70100003 11900036
-0.043333337 0.18200001 0.70000005 12031622
-0.04188 0.18148001 0.69800001 12163961
-0.040550474 0.18148001 0.69800001 11703410
-0.039164763 0.18122001 0.69700003 12097648
-0.037837144 0.18122001 0.69700003 12163441
-0.036509525 0.18122001 0.69700003 11372896
-0.035181906 0.18122001 0.69700003 11899240
-0.033854287 0.18122001 0.69700003 11702899
-0.032526664 0.18122001 0.69700003 11768692
-0.031199049 0.18122001 0.69700003 11834746
-0.029914286 0.18148001 0.69800001 11703160
-0.028584762 0.18148001 0.69800001 11571574
-0.027255237 0.18148001 0.69800001 11768953
-0.025925715 0.18148001 0.69800001 11966079
-0.02459619 0.18148001 0.69800001 11505528
-0.023266668 0.18148001 0.69800001 11438180
-0.021937143 0.18148001 0.69800001 12030317
-0.020607619 0.18148001 0.69800001 11833706
-0.019333335 0.18200001 0.70000005 11504741
-0.018000001 0.18200001 0.70000005 11306842
-0.016666668 0.18200001 0.70000005 11372635
-0.015355239 0.18226001 0.70100003 11437658
-0.01406 0.18278 0.70300001 11174486
-0.012720953 0.18278 0.70300001 11174488
-0.011381905 0.18278 0.70300001 11174488
-0.010057143 0.18304001 0.70400006 10188091
-0.0087161912 0.18304001 0.70400006 11043400
-0.0073961904 0.18356 0.70600003 10651724
-0.00606 0.18381999 0.70700002 11046482
-0.0047199996 0.18407999 0.708 10653289
-0.0033809526 0.18460001 0.71000004 10719082
-0.0020371431 0.18538001 0.71300006 9670759
-0.00068000006 0.18564001 0.71400005 8618071
0.00068000006 0.18564001 0.71400005 7371836
0.0020457143 0.18616 0.71600002 11385209
0.0034238098 0.18694001 0.71900004 13683612
0.0047999998 0.18720001 0.72000003 16776911
0.0061714291 0.18720001 0.72000003 16512970
0.007542857 0.18720001 0.72000003 16776399
-0.057719052 0.1867381 0.71300006 10131817
-0.056202859 0.1862143 0.71100003 8291946
-0.054771431 0.1859524 0.71000004 8094567
-0.05341905 0.1859524 0.71000004 9077867
-0.051919997 0.18542856 0.708 9538418
-0.050500002 0.18516667 0.70700002 10190951
-0.04908381 0.18490477 0.70600003 10256744
-0.047603812 0.18438096 0.70400006 10714205
-0.046197142 0.18411905 0.70300001 11306342
-0.044858098 0.18411905 0.70300001 11239803
-0.04339524 0.18359524 0.70100003 10516080
-0.042000003 0.18333335 0.70000005 10517839
-0.040550474 0.18280952 0.69800001 10781011
-0.039220951 0.18280952 0.69800001 10649948
-0.037891429 0.18280952 0.69800001 10649948
-0.036561903 0.18280952 0.69800001 10649182
-0.03523238 0.18280952 0.69800001 10583389
-0.033902857 0.18280952 0.69800001 10648923
-0.032573331 0.18280952 0.69800001 10780509
-0.031243809 0.18280952 0.69800001 10516845
-0.030000001 0.18333335 0.70000005 10056294
-0.028666668 0.18333335 0.70000005 10253160
-0.027333336 0.18333335 0.70000005 10911090
-0.026000001 0.18333335 0.70000005 10583905
-0.024666667 0.18333335 0.70000005 10452319
-0.023333335 0.18333335 0.70000005 10648923
-0.022000002 0.18333335 0.70000005 10319958
-0.020666666 0.18333335 0.70000005 10714968
-0.019333335 0.18333335 0.70000005 10780761
-0.018025715 0.18359524 0.70100003 10387802
-0.016738096 0.18411905 0.70300001 10322009
-0.015399048 0.18411905 0.70300001 10256723
-0.014080001 0.18438096 0.70400006 9861965
-0.012739048 0.18438096 0.70400006 10388311
-0.011398097 0.18438096 0.70400006 12296308
-0.010085714 0.18490477 0.70600003 12231024
-0.0087533332 0.18516667 0.70700002 12428403
-0.0074066669 0.18516667 0.70700002 12561011
-0.0060685715 0.18542856 0.708 12955769
-0.0047333334 0.1859524 0.71000004 12299899
-0.0033857143 0.1862143 0.71100003 11247211
-0.0020400002 0.18700001 0.71400005 9935969
-0.00068000006 0.18700001 0.71400005 8488523
0.00068190478 0.18752381 0.71600002 8291675
0.0020485714 0.18778571 0.71700001 11515532
0.0034238098 0.18830952 0.71900004 13946530
0.0047999998 0.18857144 0.72000003 16777172
0.0061714291 0.18857144 0.72000003 16580308
-0.057719052 0.18809621 0.71300006 10328689
-0.056202859 0.18756858 0.71100003 8883831
-0.054771431 0.18730478 0.71000004 7962729
-0.05341905 0.18730478 0.71000004 8028000
-0.051919997 0.18677714 0.708 8159586
-0.050500002 0.18651333 0.70700002 9864553
-0.04908381 0.18624954 0.70600003 9798760
-0.047739051 0.18624954 0.70600003 10320210
-0.04626286 0.18572192 0.70400006 10978140
-0.044858098 0.18545809 0.70300001 10977368
-0.043519046 0.18545809 0.70300001 10779989
-0.042000003 0.18466668 0.70000005 10320458
-0.04066667 0.18466668 0.70000005 10452044
-0.039333336 0.18466668 0.70000005 10125630
-0.038000003 0.18466668 0.70000005 10191423
-0.036561903 0.18413906 0.69800001 10190671
-0.03523238 0.18413906 0.69800001 10190671
-0.033902857 0.18413906 0.69800001 10057540
-0.032573331 0.18413906 0.69800001 10386505
-0.031243809 0.18413906 0.69800001 10253654
-0.030000001 0.18466668 0.70000005 10187861
-0.028666668 0.18466668 0.70000005 10188363
-0.027333336 0.18466668 0.70000005 10780500
-0.026000001 0.18466668 0.70000005 10322016
-0.024666667 0.18466668 0.70000005 10256223
-0.023333335 0.18466668 0.70000005 10716772
-0.022000002 0.18466668 0.70000005 10519393
-0.020666666 0.18466668 0.70000005 10256732
-0.019360952 0.18493049 0.70100003 10322525
-0.018077144 0.18545809 0.70300001 9863272
-0.016738096 0.18545809 0.70300001 9665893
-0.015399048 0.18545809 0.70300001 9471083
-0.014080001 0.18572192 0.70400006 9010532
-0.012739048 0.18572192 0.70400006 9798232
-0.011398097 0.18572192 0.70400006 11772022
-0.010085714 0.18624954 0.70600003 12100989
-0.0087533332 0.18651333 0.70700002 12758919
-0.0074171429 0.18677714 0.708 12562553
-0.0060857143 0.18730478 0.71000004 12694139
-0.0047400002 0.18756858 0.71100003 12038024
-0.0033857143 0.18756858 0.71100003 10590578
-0.0020400002 0.18836001 0.71400005 10066554
-0.00068000006 0.18836001 0.71400005 8619108
0.00068190478 0.18888761 0.71600002 8290913
0.0020485714 0.18915144 0.71700001 11580563
0.0034285716 0.18994285 0.72000003 14012836
0.0047999998 0.18994285 0.72000003 16776656
0.0061714291 0.18994285 0.72000003 16512968
-0.057800002 0.18972 0.71400005 10525814
-0.056440003 0.18972 0.71400005 9079938
-0.054848574 0.18892285 0.71100003 7961457
-0.05341905 0.18865715 0.71000004 8093282
-0.052066669 0.18865715 0.71000004 8159075
-0.050571427 0.18812571 0.708 8945511
-0.049153332 0.18786 0.70700002 10327164
-0.047739051 0.18759429 0.70600003 10916473
-0.04626286 0.18706287 0.70400006 11903368
-0.044858098 0.18679714 0.70300001 12166255
-0.043519046 0.18679714 0.70300001 12429427
-0.042060003 0.18626572 0.70100003 12166771
-0.040724762 0.18626572 0.70100003 10982497
-0.039389525 0.18626572 0.70100003 10719577
-0.038000003 0.18600002 0.70000005 11706472
-0.036666669 0.18600002 0.70000005 11574384
-0.03523238 0.18546857 0.69800001 11508591
-0.033902857 0.18546857 0.69800001 11246182
-0.032573331 0.18546857 0.69800001 11246182
-0.031243809 0.18546857 0.69800001 11245419
-0.030000001 0.18600002 0.70000005 10324317
-0.028666668 0.18600002 0.70000005 10322779
-0.027333336 0.18600002 0.70000005 10783330
-0.026000001 0.18600002 0.70000005 10520424
-0.024701906 0.18626572 0.70100003 10257252
-0.023333335 0.18600002 0.70000005 10521451
-0.022000002 0.18600002 0.70000005 11771518
-0.020666666 0.18600002 0.70000005 10126698
-0.019360952 0.18626572 0.70100003 9534561
-0.018077144 0.18679714 0.70300001 8287588
-0.016738096 0.18679714 0.70300001 6708556
-0.015420954 0.18706287 0.70400006 7236451
-0.014080001 0.18706287 0.70400006 7039072
-0.012739048 0.18706287 0.70400006 8681051
-0.011430477 0.18759429 0.70600003 10786427
-0.010085714 0.18759429 0.70600003 11968897
-0.0087533332 0.18786 0.70700002 13284757
-0.0074171429 0.18812571 0.708 13023084
-0.0060857143 0.18865715 0.71000004 12957291
-0.0047400002 0.18892285 0.71100003 11906175
-0.0033952384 0.1894543 0.71300006 9471834
-0.0020400002 0.18972 0.71400005 8817007
-0.00068000006 0.18972 0.71400005 8356456
0.00068190478 0.19025144 0.71600002 8487529
0.0020457143 0.19025144 0.71600002 11645593
0.0034285716 0.19131429 0.72000003 14077855
0.0047999998 0.19131429 0.72000003 16776910
-0.059408572 0.19188286 0.71700001 15591626
-0.057800002 0.19108002 0.71400005 10788737
-0.056440003 0.19108002 0.71400005 9145211
-0.054848574 0.19027714 0.71100003 8224109
-0.05341905 0.19000953 0.71000004 8290141
-0.052066669 0.19000953 0.71000004 8224348
-0.050714288 0.19000953 0.71000004 8224597
-0.049222857 0.18947428 0.708 9343078
-0.047806669 0.18920667 0.70700002 9998708
-0.046394285 0.18893905 0.70600003 11643533
-0.044921909 0.18840383 0.70400006 12432007
-0.043580953 0.18840383 0.70400006 12366214
-0.042180002 0.18813619 0.70300001 12169356
-0.04084095 0.18813619 0.70300001 10985082
-0.039389525 0.18760096 0.70100003 9997905
-0.038000003 0.18733335 0.70000005 11313765
-0.036666669 0.18733335 0.70000005 11181938
-0.035333335 0.18733335 0.70000005 10918766
-0.034000002 0.18733335 0.70000005 10853496
-0.032666668 0.18733335 0.70000005 10787703
-0.031333335 0.18733335 0.70000005 10919042
-0.030042859 0.18760096 0.70100003 9471596
-0.02870762 0.18760096 0.70100003 9600601
-0.027372383 0.18760096 0.70100003 10521703
-0.026037144 0.18760096 0.70100003 10851692
-0.024701906 0.18760096 0.70100003 9667418
-0.023333335 0.18733335 0.70000005 10063457
-0.022000002 0.18733335 0.70000005 10984559
-0.020696191 0.18760096 0.70100003 9406580
-0.019416191 0.18813619 0.70300001 8485478
-0.018077144 0.18813619 0.70300001 7501399
-0.016761906 0.18840383 0.70400006 7106641
-0.015420954 0.18840383 0.70400006 7305572
-0.014080001 0.18840383 0.70400006 7108193
-0.012739048 0.18840383 0.70400006 8156496
-0.011430477 0.18893905 0.70600003 10261872
-0.010100001 0.18920667 0.70700002 11640697
-0.0087657142 0.18947428 0.708 13022350
-0.0074380958 0.19000953 0.71000004 13023874
-0.0060942858 0.19027714 0.71100003 12826495
-0.0047400002 0.19027714 0.71100003 11775119
-0.0033952384 0.19081239 0.71300006 9143399
-0.0020400002 0.19108002 0.71400005 8553835
-0.00068000006 0.19108002 0.71400005 8290663
0.00068190478 0.19161524 0.71600002 8355432
0.0020457143 0.19161524 0.71600002 12039840
0.003409524 0.19161524 0.71600002 14012575
-0.059408572 0.19324857 0.71700001 15855318
-0.057961904 0.19297905 0.71600002 10855050
-0.056598097 0.19297905 0.71600002 9014145
-0.055080004 0.19244 0.71400005 8685180
-0.053494286 0.19163144 0.71100003 7962207
-0.052066669 0.1913619 0.71000004 7041105
-0.050714288 0.1913619 0.71000004 7238234
-0.049222857 0.19082285 0.708 9080438
-0.047874287 0.19082285 0.708 9867114
-0.046459999 0.19055334 0.70700002 11643525
-0.044921909 0.18974477 0.70400006 12234104
-0.043580953 0.18974477 0.70400006 12299897
-0.042240005 0.18974477 0.70400006 12365694
-0.04084095 0.18947524 0.70300001 11510385
-0.039501905 0.18947524 0.70300001 10128728
-0.038054287 0.1889362 0.70100003 10720865
-0.036719047 0.1889362 0.70100003 9997914
-0.035333335 0.18866667 0.70000005 8418882
-0.034000002 0.18866667 0.70000005 8353633
-0.032666668 0.18866667 0.70000005 7893082
-0.031333335 0.18866667 0.70000005 8286293
-0.030042859 0.1889362 0.70100003 7825742
-0.02870762 0.1889362 0.70100003 9536332
-0.027372383 0.1889362 0.70100003 9931090
-0.026037144 0.1889362 0.70100003 8812370
-0.024701906 0.1889362 0.70100003 8483405
-0.023366667 0.1889362 0.70100003 9866326
-0.02203143 0.1889362 0.70100003 10919014
-0.020696191 0.1889362 0.70100003 10326646
-0.019416191 0.18947524 0.70300001 9668716
-0.018102858 0.18974477 0.70400006 8222310
-0.016761906 0.18974477 0.70400006 7827552
-0.015420954 0.18974477 0.70400006 8092771
-0.014080001 0.18974477 0.70400006 8092771
-0.012739048 0.18974477 0.70400006 8485478
-0.011430477 0.19028381 0.70600003 9143408
-0.010100001 0.19055334 0.70700002 10195027
-0.0087657142 0.19082285 0.708 10918750
-0.0074380958 0.1913619 0.71000004 12299118
-0.0060942858 0.19163144 0.71100003 13022841
-0.0047533335 0.1921705 0.71300006 11906699
-0.0033952384 0.1921705 0.71300006 9143393
-0.0020457143 0.19297905 0.71600002 7962227
-0.00068190478 0.19297905 0.71600002 7106918
0.00068190478 0.19297905 0.71600002 7960942
0.0020457143 0.19297905 0.71600002 12171694
0.003409524 0.19297905 0.71600002 14013347
-0.059574291 0.19515716 0.71900004 16052695
-0.058042858 0.19461429 0.71700001 11052427
-0.056677144 0.19461429 0.71700001 9998980
-0.055234287 0.19434287 0.71600002 9077878
-0.053720001 0.19380002 0.71400005 7765857
-0.052140001 0.19298573 0.71100003 6844755
-0.050785713 0.19298573 0.71100003 6844496
-0.049361907 0.19271429 0.71000004 8620907
-0.047874287 0.19217142 0.708 9473369
-0.046525717 0.19217142 0.708 11447159
-0.045049526 0.19162858 0.70600003 12167809
-0.043580953 0.19108573 0.70400006 12365188
-0.042240005 0.19108573 0.70400006 12758924
-0.04084095 0.19081429 0.70300001 11245685
-0.039501905 0.19081429 0.70300001 10259798
-0.038162857 0.19081429 0.70300001 10194005
-0.036823809 0.19081429 0.70300001 9538649
-0.035484761 0.19081429 0.70300001 9209684
-0.034048576 0.19027144 0.70100003 9143650
-0.032713335 0.19027144 0.70100003 8156755
-0.031378098 0.19027144 0.70100003 8548685
-0.030128572 0.19081429 0.70300001 8811857
-0.028789524 0.19081429 0.70300001 9865308
-0.027450476 0.19081429 0.70300001 9799515
-0.026111428 0.19081429 0.70300001 8483151
-0.02477238 0.19081429 0.70300001 8680530
-0.023433333 0.19081429 0.70300001 10128478
-0.022094285 0.19081429 0.70300001 11049580
-0.020755239 0.19081429 0.70300001 11114624
-0.019416191 0.19081429 0.70300001 10654073
-0.018102858 0.19108573 0.70400006 9075809
-0.016761906 0.19108573 0.70400006 9075809
-0.015420954 0.19108573 0.70400006 9669234
-0.01412 0.19162858 0.70600003 9142890
-0.012775239 0.19162858 0.70600003 8355934
-0.011462857 0.19217142 0.708 8553313
-0.010142857 0.19271429 0.71000004 8749896
-0.0087904762 0.19271429 0.71000004 10197342
-0.0074485713 0.19298573 0.71100003 11312243
-0.0060942858 0.19298573 0.71100003 11838587
-0.0047533335 0.19352859 0.71300006 11313287
-0.0034 0.19380002 0.71400005 9339497
-0.0020457143 0.19434287 0.71600002 7831400
-0.00068190478 0.19434287 0.71600002 7173470
0.00068190478 0.19434287 0.71600002 7304797
0.0020457143 0.19434287 0.71600002 12305065
0.003409524 0.19434287 0.71600002 14144933
-0.059574291 0.19652668 0.71900004 16447196
-0.058042858 0.19598 0.71700001 12894374
-0.056677144 0.19598 0.71700001 10066579
-0.055234287 0.19570667 0.71600002 8684926
-0.053870477 0.19570667 0.71600002 7896677
-0.05228667 0.19488667 0.71300006 7765091
-0.050928578 0.19488667 0.71300006 7895653
-0.049361907 0.19406667 0.71000004 8750962
-0.048009526 0.19406667 0.71000004 9932887
-0.046525717 0.19351999 0.708 11709298
-0.045113333 0.19324668 0.70700002 12036223
-0.043704763 0.19297335 0.70600003 11838844
-0.042240005 0.19242668 0.70400006 11707260
-0.040899049 0.19242668 0.70400006 10259814
-0.039501905 0.19215333 0.70300001 9866328
-0.038162857 0.19215333 0.70300001 9932121
-0.036823809 0.19215333 0.70300001 9669978
-0.035484761 0.19215333 0.70300001 9472599
-0.034048576 0.19160667 0.70100003 9603422
-0.032713335 0.19160667 0.70100003 10656110
-0.031378098 0.19160667 0.70100003 10326377
-0.030128572 0.19215333 0.70300001 10326377
-0.028789524 0.19215333 0.70300001 10195045
-0.027450476 0.19215333 0.70300001 10326631
-0.026111428 0.19215333 0.70300001 9141886
-0.02477238 0.19215333 0.70300001 8878714
-0.023433333 0.19215333 0.70300001 9931886
-0.022094285 0.19215333 0.70300001 10852988
-0.020755239 0.19215333 0.70300001 10984057
-0.019416191 0.19215333 0.70300001 10786678
-0.018102858 0.19242668 0.70400006 9733741
-0.016809525 0.19297335 0.70600003 9602155
-0.015464762 0.19297335 0.70600003 9537890
-0.01412 0.19297335 0.70600003 9472097
-0.012793333 0.19324668 0.70700002 9472349
-0.011462857 0.19351999 0.708 9735521
-0.010142857 0.19406667 0.71000004 9538653
-0.0088028572 0.19434001 0.71100003 10130790
-0.0074485713 0.19434001 0.71100003 10195317
-0.0061114291 0.19488667 0.71300006 10195317
-0.0047599999 0.19516002 0.71400005 9933159
-0.0034 0.19516002 0.71400005 9275229
-0.0020457143 0.19570667 0.71600002 7896691
-0.00068190478 0.19570667 0.71600002 7238761
0.00068190478 0.19570667 0.71600002 7502426
0.0020457143 0.19570667 0.71600002 12568487
0.003409524 0.19570667 0.71600002 14210463
-0.059574291 0.1978962 0.71900004 16710629
-0.058042858 0.1973457 0.71700001 13092014
-0.056677144 0.1973457 0.71700001 10395789
-0.055234287 0.19707048 0.71600002 8158827
-0.053870477 0.19707048 0.71600002 7830889
-0.052360002 0.19652 0.71400005 7567717
-0.050928578 0.19624478 0.71300006 8026469
-0.049431432 0.19569428 0.71100003 8815985
-0.048009526 0.19541906 0.71000004 10261354
-0.046657145 0.19541906 0.71000004 11708800
-0.045177143 0.19486856 0.708 11774603
-0.043704763 0.1943181 0.70600003 11511431
-0.04236 0.1943181 0.70600003 10787713
-0.041015241 0.1943181 0.70600003 9274474
-0.039558098 0.19376762 0.70400006 8616525
-0.038217146 0.19376762 0.70400006 9406041
-0.03687619 0.19376762 0.70400006 9340509
-0.035535242 0.19376762 0.70400006 9143130
-0.034145713 0.19349238 0.70300001 9536861
-0.032806665 0.19349238 0.70300001 10523756
-0.03146762 0.19349238 0.70300001 10522473
-0.03017143 0.19376762 0.70400006 10390887
-0.02883048 0.19376762 0.70400006 9735010
-0.027489526 0.19376762 0.70400006 9932389
-0.026148573 0.19376762 0.70400006 9078130
-0.024807621 0.19376762 0.70400006 8880751
-0.023466667 0.19376762 0.70400006 9998182
-0.022125715 0.19376762 0.70400006 10721905
-0.020784764 0.19376762 0.70400006 10786676
-0.019443812 0.19376762 0.70400006 10655090
-0.018154286 0.1943181 0.70600003 9735020
-0.016809525 0.1943181 0.70600003 9471848
-0.015464762 0.1943181 0.70600003 9734242
-0.01414 0.19459333 0.70700002 9734242
-0.012793333 0.19459333 0.70700002 9931362
-0.011462857 0.19486856 0.708 10128741
-0.010142857 0.19541906 0.71000004 9670239
-0.0088028572 0.19569428 0.71100003 9538653
-0.0074485713 0.19569428 0.71100003 9276786
-0.0061114291 0.19624478 0.71300006 9276786
-0.0047599999 0.19652 0.71400005 8750962
-0.0034 0.19652 0.71400005 8224618
-0.0020457143 0.19707048 0.71600002 7633773
-0.00068190478 0.19707048 0.71600002 7304808
0.00068190478 0.19707048 0.71600002 7634273
0.0020457143 0.19707048 0.71600002 12700334
-0.059657145 0.19954287 0.72000003 16644321
-0.058204763 0.19926573 0.71900004 13486257
-0.056835238 0.19926573 0.71900004 10591892
-0.055311427 0.19871143 0.71700001 7762793
-0.053870477 0.19843429 0.71600002 7435631
-0.052360002 0.19788001 0.71400005 7238252
-0.051000003 0.19788001 0.71400005 7631979
-0.049570478 0.19760287 0.71300006 7763565
-0.048077144 0.19704857 0.71100003 8946012
-0.046657145 0.19677144 0.71000004 9603942
-0.045177143 0.19621713 0.708 9997688
-0.043766666 0.19594 0.70700002 10589825
-0.04236 0.19566287 0.70600003 10196833
-0.041015241 0.19566287 0.70600003 9078352
-0.039670479 0.19566287 0.70600003 9012335
-0.038217146 0.19510858 0.70400006 9143921
-0.03687619 0.19510858 0.70400006 9209194
-0.035535242 0.19510858 0.70400006 9011815
-0.034194287 0.19510858 0.70400006 9208683
-0.032806665 0.19483143 0.70300001 10063992
-0.03146762 0.19483143 0.70300001 10129252
-0.03017143 0.19510858 0.70400006 9997666
-0.02883048 0.19510858 0.70400006 9735006
-0.027489526 0.19510858 0.70400006 9800799
-0.026148573 0.19510858 0.70400006 9801062
-0.024807621 0.19510858 0.70400006 10195820
-0.023466667 0.19510858 0.70400006 10130277
-0.022125715 0.19510858 0.70400006 10196070
-0.020784764 0.19510858 0.70400006 10326629
-0.019443812 0.19510858 0.70400006 9866078
-0.018154286 0.19566287 0.70600003 10325605
-0.016809525 0.19566287 0.70600003 10457191
-0.015464762 0.19566287 0.70600003 10522214
-0.01414 0.19594 0.70700002 10324835
-0.012793333 0.19594 0.70700002 10390119
-0.011495238 0.19677144 0.71000004 10916463
-0.010142857 0.19677144 0.71000004 9932900
-0.0088028572 0.19704857 0.71100003 9472349
-0.0074695242 0.19760287 0.71300006 9014386
-0.0061200005 0.19788001 0.71400005 9211765
-0.0047733332 0.19843429 0.71600002 8686452
-0.003409524 0.19843429 0.71600002 7436385
-0.0020457143 0.19843429 0.71600002 7109237
-0.00068190478 0.19843429 0.71600002 7109237
0.00068190478 0.19843429 0.71600002 8027237
0.0020457143 0.19843429 0.71600002 13290677
0.003409524 0.19843429 0.71600002 14473124
0.0047733332 0.19843429 0.71600002 16776907
-0.059657145 0.20091429 0.72000003 16447196
-0.058204763 0.20063524 0.71900004 13749683
-0.056835238 0.20063524 0.71900004 11973011
-0.055311427 0.20007715 0.71700001 7893845
-0.053945716 0.20007715 0.71700001 7435883
-0.052506667 0.19979811 0.71600002 7238504
-0.051000003 0.19924001 0.71400005 7369318
-0.049570478 0.19896096 0.71300006 7435111
-0.048077144 0.19840287 0.71100003 8091994
-0.046657145 0.19812383 0.71000004 8618338
-0.045304764 0.19812383 0.71000004 9077860
-0.043828573 0.19756572 0.708 9275239
-0.04242 0.19728667 0.70700002 8882531
-0.041015241 0.19700761 0.70600003 8750945
-0.039670479 0.19700761 0.70600003 8882028
-0.038217146 0.19644953 0.70400006 8882028
-0.03687619 0.19644953 0.70400006 8816485
-0.035535242 0.19644953 0.70400006 8882278
-0.034194287 0.19644953 0.70400006 9145452
-0.032853335 0.19644953 0.70400006 9277038
-0.031512383 0.19644953 0.70400006 9340780
-0.03017143 0.19644953 0.70400006 9603952
-0.02883048 0.19644953 0.70400006 9406045
-0.027489526 0.19644953 0.70400006 9669217
-0.026148573 0.19644953 0.70400006 9931634
-0.024807621 0.19644953 0.70400006 9931634
-0.023466667 0.19644953 0.70400006 9865843
-0.022125715 0.19644953 0.70400006 9997429
-0.020784764 0.19644953 0.70400006 10260838
-0.019499049 0.19700761 0.70600003 9997666
-0.018154286 0.19700761 0.70600003 10522223
-0.016809525 0.19700761 0.70600003 11443325
-0.015486666 0.19728667 0.70700002 11574134
-0.01414 0.19728667 0.70700002 11047790
-0.012811428 0.19756572 0.708 10849891
-0.011495238 0.19812383 0.71000004 11047270
-0.010142857 0.19812383 0.71000004 10063973
-0.0088276202 0.19896096 0.71300006 9406043
-0.0074695242 0.19896096 0.71300006 8159329
-0.0061200005 0.19924001 0.71400005 9146224
-0.0047733332 0.19979811 0.71600002 8686711
-0.003409524 0.19979811 0.71600002 7502437
-0.0020457143 0.19979811 0.71600002 6977372
-0.00068190478 0.19979811 0.71600002 7174751
0.00068190478 0.19979811 0.71600002 8420189
0.0020457143 0.19979811 0.71600002 13354664
0.003409524 0.19979811 0.71600002 14735526
-0.061028574 0.20228572 0.72000003 16776662
-0.059657145 0.20228572 0.72000003 16315610
-0.058204763 0.20200478 0.71900004 14144441
-0.056835238 0.20200478 0.71900004 12170898
-0.055465717 0.20200478 0.71900004 7894353
-0.053945716 0.20144285 0.71700001 7239279
-0.052506667 0.20116191 0.71600002 6778728
-0.051000003 0.20060001 0.71400005 6713185
-0.049570478 0.20031907 0.71300006 6647392
-0.048077144 0.19975714 0.71100003 7172711
-0.046722859 0.19975714 0.71100003 8028020
-0.045304764 0.1994762 0.71000004 8618589
-0.043828573 0.19891429 0.708 9144933
-0.042479999 0.19891429 0.708 9275498
-0.041131429 0.19891429 0.708 9209705
-0.039670479 0.19835238 0.70600003 8947823
-0.038325716 0.19835238 0.70600003 9474167
-0.03687619 0.1977905 0.70400006 9604703
-0.035535242 0.1977905 0.70400006 9670496
-0.034194287 0.1977905 0.70400006 9539173
-0.032853335 0.1977905 0.70400006 9604966
-0.031512383 0.1977905 0.70400006 9604470
-0.03017143 0.1977905 0.70400006 9801849
-0.02883048 0.1977905 0.70400006 9143914
-0.027489526 0.1977905 0.70400006 9143914
-0.026148573 0.1977905 0.70400006 9078128
-0.024878096 0.19835238 0.70600003 9209714
-0.023533335 0.19835238 0.70600003 8749436
-0.022188572 0.19835238 0.70600003 7894127
-0.020843811 0.19835238 0.70600003 8222308
-0.019499049 0.19835238 0.70600003 9472375
-0.018154286 0.19835238 0.70600003 10456179
-0.016833335 0.19863333 0.70700002 11903625
-0.015486666 0.19863333 0.70700002 11639659
-0.01416 0.19891429 0.708 11179108
-0.012811428 0.19891429 0.708 10785890
-0.011495238 0.1994762 0.71000004 10391132
-0.010157143 0.19975714 0.71100003 9473380
-0.0088276202 0.20031907 0.71300006 9144415
-0.0074695242 0.20031907 0.71300006 9343090
-0.0061371429 0.20116191 0.71600002 10132606
-0.0047733332 0.20116191 0.71600002 10000761
-0.0034142856 0.20144285 0.71700001 9211245
-0.0020485714 0.20144285 0.71700001 8621149
-0.00068285712 0.20144285 0.71700001 7634254
0.00068285712 0.20144285 0.71700001 8092771
0.0020628572 0.20284763 0.72200006 12435109
0.0034380956 0.20284763 0.72200006 14603940
-0.061198097 0.20422287 0.72200006 16776139
-0.059822865 0.20422287 0.72200006 16118229
-0.058285713 0.20365715 0.72000003 14407611
-0.056914289 0.20365715 0.72000003 12106897
-0.05554286 0.20365715 0.72000003 7830352
-0.054096192 0.2033743 0.71900004 7108958
-0.052506667 0.20252572 0.71600002 6648407
-0.051142856 0.20252572 0.71600002 5925465
-0.04964 0.20196001 0.71400005 5859672
-0.048212387 0.20167716 0.71300006 6647651
-0.046722859 0.20111144 0.71100003 7371374
-0.045304764 0.20082858 0.71000004 8093532
-0.043828573 0.20026286 0.708 8948841
-0.042479999 0.20026286 0.708 9079659
-0.041073337 0.19998001 0.70700002 9013866
-0.039670479 0.19969715 0.70600003 8815983
-0.038325716 0.19969715 0.70600003 8881776
-0.036980953 0.19969715 0.70600003 9209196
-0.035535242 0.19913144 0.70400006 9340782
-0.034194287 0.19913144 0.70400006 9341291
-0.032853335 0.19913144 0.70400006 9341291
-0.031512383 0.19913144 0.70400006 9013612
-0.030257143 0.19969715 0.70600003 8882026
-0.02883048 0.19913144 0.70400006 7961948
-0.027489526 0.19913144 0.70400006 8159327
-0.026148573 0.19913144 0.70400006 8027750
-0.024878096 0.19969715 0.70600003 8619887
-0.023533335 0.19969715 0.70600003 8160369
-0.022188572 0.19969715 0.70600003 7305060
-0.020843811 0.19969715 0.70600003 7960132
-0.019499049 0.19969715 0.70600003 9341785
-0.01818 0.19998001 0.70700002 10062445
-0.016833335 0.19998001 0.70700002 11444098
-0.015486666 0.19998001 0.70700002 11442796
-0.01416 0.20026286 0.708 11113831
-0.012811428 0.20026286 0.708 10589803
-0.011495238 0.20082858 0.71000004 8944978
-0.010157143 0.20111144 0.71100003 8290126
-0.0088400003 0.20196001 0.71400005 9474400
-0.0074800006 0.20196001 0.71400005 9540469
-0.0061371429 0.20252572 0.71600002 10198399
-0.0047800001 0.20280857 0.71700001 10328454
-0.0034142856 0.20280857 0.71700001 9407352
-0.0020542857 0.2033743 0.71900004 8948843
-0.0006857143 0.20365715 0.72000003 7896155
0.0006857143 0.20365715 0.72000003 7632985
0.0020628572 0.20422287 0.72200006 12238495
0.0034380956 0.20422287 0.72200006 14407065
-0.061198097 0.20559812 0.72200006 16711378
-0.059822865 0.20559812 0.72200006 16512728
-0.058447625 0.20559812 0.72200006 14867903
-0.056914289 0.20502858 0.72000003 13619082
-0.05554286 0.20502858 0.72000003 8421435
-0.054096192 0.20474382 0.71900004 7043163
-0.052506667 0.20388952 0.71600002 6714198
-0.051142856 0.20388952 0.71600002 5662809
-0.04964 0.20332001 0.71400005 5597016
-0.048212387 0.20303525 0.71300006 6713448
-0.046722859 0.20246571 0.71100003 7239792
-0.045304764 0.20218095 0.71000004 8028000
-0.043828573 0.20161143 0.708 8488551
-0.042479999 0.20161143 0.708 8488290
-0.041073337 0.20132667 0.70700002 8290911
-0.039726667 0.20132667 0.70700002 7961959
-0.038325716 0.20104191 0.70600003 7698787
-0.036980953 0.20104191 0.70600003 7632740
-0.035535242 0.2004724 0.70400006 7501154
-0.034194287 0.2004724 0.70400006 7566697
-0.032853335 0.2004724 0.70400006 8027248
-0.031512383 0.2004724 0.70400006 8224849
-0.030257143 0.20104191 0.70600003 8422228
-0.028912382 0.20104191 0.70600003 8421736
-0.027567619 0.20104191 0.70600003 8816494
-0.026222857 0.20104191 0.70600003 8619376
-0.024878096 0.20104191 0.70600003 9672064
-0.023533335 0.20104191 0.70600003 9409135
-0.022188572 0.20104191 0.70600003 8948584
-0.020843811 0.20104191 0.70600003 9012335
-0.019526666 0.20132667 0.70700002 9801851
-0.01818 0.20132667 0.70700002 10785897
-0.016857143 0.20161143 0.708 11641206
-0.015508572 0.20161143 0.708 10981731
-0.01416 0.20161143 0.708 10850145
-0.01284762 0.20218095 0.71000004 10129248
-0.011511429 0.20246571 0.71100003 8747595
-0.010157143 0.20246571 0.71100003 7962216
-0.0088276202 0.20303525 0.71300006 9212283
-0.0074800006 0.20332001 0.71400005 9737589
-0.0061371429 0.20388952 0.71600002 11316621
-0.0047800001 0.20417428 0.71700001 10920574
-0.0034285716 0.20502858 0.72000003 8617819
-0.002057143 0.20502858 0.72000003 8160097
-0.00068761909 0.20559812 0.72200006 8160097
0.00068761909 0.20559812 0.72200006 8290150
0.0020657144 0.20588288 0.72300005 12435109
0.0034428574 0.20588288 0.72300005 14538649
-0.061198097 0.20697336 0.72200006 16711126
-0.059822865 0.20697336 0.72200006 16579034
-0.058447625 0.20697336 0.72200006 14934209
-0.056914289 0.20639999 0.72000003 13815707
-0.05554286 0.20639999 0.72000003 8354888
-0.054096192 0.20611334 0.71900004 7765339
-0.052506667 0.20525333 0.71600002 6449479
-0.051142856 0.20525333 0.71600002 5989975
-0.04964 0.20468001 0.71400005 6121561
-0.048212387 0.20439336 0.71300006 6976357
-0.046722859 0.20382001 0.71100003 7371115
-0.045304764 0.20353334 0.71000004 7896677
-0.043952383 0.20353334 0.71000004 7765091
-0.042479999 0.20296 0.708 7568219
-0.041131429 0.20296 0.708 7699805
-0.039726667 0.20267333 0.70700002 7502435
-0.038325716 0.20238668 0.70600003 6712919
-0.036980953 0.20238668 0.70600003 6582101
-0.035535242 0.20181336 0.70400006 6779480
-0.034194287 0.20181336 0.70400006 6451809
-0.032946669 0.20238668 0.70600003 7175532
-0.031601906 0.20238668 0.70600003 7962972
-0.030257143 0.20238668 0.70600003 8160351
-0.028912382 0.20238668 0.70600003 8421736
-0.027567619 0.20238668 0.70600003 8553322
-0.026222857 0.20238668 0.70600003 8619115
-0.024878096 0.20238668 0.70600003 9606010
-0.023533335 0.20238668 0.70600003 9540467
-0.022188572 0.20238668 0.70600003 8948330
-0.020843811 0.20238668 0.70600003 9077857
-0.019526666 0.20267333 0.70700002 10327924
-0.01818 0.20267333 0.70700002 11115375
-0.016857143 0.20296 0.708 11181168
-0.015508572 0.20296 0.708 10784098
-0.014200001 0.20353334 0.71000004 10915684
-0.01284762 0.20353334 0.71000004 10129252
-0.011511429 0.20382001 0.71100003 8681806
-0.010185715 0.20439336 0.71300006 7502148
-0.0088276202 0.20439336 0.71300006 9212766
-0.0074800006 0.20468001 0.71400005 9606502
-0.0061457143 0.20554 0.71700001 10856569
-0.0047800001 0.20554 0.71700001 10592644
-0.0034285716 0.20639999 0.72000003 8224096
-0.002057143 0.20639999 0.72000003 7306052
-0.00068857148 0.20726001 0.72300005 7832396
0.00069047621 0.20783333 0.72500002 8355684
0.0020771429 0.20840667 0.72700006 11908506
0.0034619051 0.20840667 0.72700006 14735778
0.0048666666 0.20926668 0.73000002 16776646
-0.059822865 0.20834859 0.72200006 16578770
-0.058447625 0.20834859 0.72200006 14999738
-0.056914289 0.20777144 0.72000003 13618571
-0.05554286 0.20777144 0.72000003 8091959
-0.054096192 0.20748286 0.71900004 7634007
-0.052506667 0.20661715 0.71600002 6383940
-0.051142856 0.20661715 0.71600002 6186854
-0.04964 0.20604001 0.71400005 7173749
-0.048212387 0.20575145 0.71300006 7173986
-0.046722859 0.2051743 0.71100003 7108193
-0.045304764 0.20488572 0.71000004 6516319
-0.043952383 0.20488572 0.71000004 5858389
-0.042479999 0.20430857 0.708 6319969
-0.041131429 0.20430857 0.708 7241071
-0.039726667 0.20402001 0.70700002 6911066
-0.038380001 0.20402001 0.70700002 5660999
-0.036980953 0.20373145 0.70600003 5989721
-0.035636194 0.20373145 0.70600003 6713444
-0.034291428 0.20373145 0.70600003 6779237
-0.032946669 0.20373145 0.70600003 7568753
-0.031601906 0.20373145 0.70600003 8028263
-0.030257143 0.20373145 0.70600003 8094056
-0.028912382 0.20373145 0.70600003 8421486
-0.027567619 0.20373145 0.70600003 8882037
-0.026222857 0.20373145 0.70600003 8947823
-0.024878096 0.20373145 0.70600003 9539960
-0.023533335 0.20373145 0.70600003 9934440
-0.022188572 0.20373145 0.70600003 9868647
-0.020843811 0.20373145 0.70600003 10261100
-0.019526666 0.20402001 0.70700002 11116409
-0.01818 0.20402001 0.70700002 11443557
-0.016857143 0.20430857 0.708 11180385
-0.015508572 0.20430857 0.708 10849641
-0.014200001 0.20488572 0.71000004 10915434
-0.01284762 0.20488572 0.71000004 10522473
-0.011511429 0.2051743 0.71100003 10983024
-0.010185715 0.20575145 0.71300006 10263135
-0.0088276202 0.20575145 0.71300006 10394721
-0.0075009526 0.20661715 0.71600002 10722407
-0.0061457143 0.20690572 0.71700001 11380337
-0.0047800001 0.20690572 0.71700001 10788725
-0.0034285716 0.20777144 0.72000003 8485970
-0.002057143 0.20777144 0.72000003 7109200
-0.00068857148 0.20863715 0.72300005 7635544
0.000692381 0.20979145 0.72700006 8289891
0.00208 0.21008001 0.72800004 11447955
0.0034761906 0.21065715 0.73000002 14340504
0.0048666666 0.21065715 0.73000002 16777160
0.0062571429 0.21065715 0.73000002 16646104
-0.059905719 0.2100143 0.72300005 16578772
-0.058528576 0.2100143 0.72300005 15262912
-0.057072386 0.20972383 0.72200006 13355399
-0.055697147 0.20972383 0.72200006 8420924
-0.054171428 0.20914286 0.72000003 7895903
-0.052579999 0.20827143 0.71700001 6711629
-0.051142856 0.20798096 0.71600002 6383443
-0.04964 0.20740001 0.71400005 7501924
-0.048212387 0.20710953 0.71300006 8225649
-0.046722859 0.20652857 0.71100003 7304547
-0.045304764 0.20623811 0.71000004 6057301
-0.043952383 0.20623811 0.71000004 5794129
-0.042479999 0.20565714 0.708 5991758
-0.041131429 0.20565714 0.708 6781274
-0.039726667 0.20536667 0.70700002 6648396
-0.038380001 0.20536667 0.70700002 6187845
-0.036980953 0.20507619 0.70600003 5793350
-0.035636194 0.20507619 0.70600003 6517073
-0.034291428 0.20507619 0.70600003 6713687
-0.032946669 0.20507619 0.70600003 7634789
-0.031601906 0.20507619 0.70600003 8027992
-0.030257143 0.20507619 0.70600003 8093785
-0.028912382 0.20507619 0.70600003 9144665
-0.027567619 0.20507619 0.70600003 9078872
-0.02626 0.20536667 0.70700002 9078872
-0.024878096 0.20507619 0.70600003 9802595
-0.023533335 0.20507619 0.70600003 9999461
-0.022220001 0.20536667 0.70700002 10065254
-0.020873332 0.20536667 0.70700002 10785136
-0.019526666 0.20536667 0.70700002 11640445
-0.018205713 0.20565714 0.708 11705704
-0.016857143 0.20565714 0.708 11047774
-0.015508572 0.20565714 0.708 10849121
-0.014200001 0.20623811 0.71000004 10980707
-0.012865715 0.20652857 0.71100003 10719075
-0.01154381 0.20710953 0.71300006 11377005
-0.010185715 0.20710953 0.71300006 11180898
-0.0088276202 0.20710953 0.71300006 11246691
-0.0075009526 0.20798096 0.71600002 11509102
-0.0061457143 0.20827143 0.71700001 12035446
-0.0047933338 0.2088524 0.71900004 10657400
-0.0034285716 0.20914286 0.72000003 8486231
-0.0020628572 0.20972383 0.72200006 7501905
-0.00068857148 0.2100143 0.72300005 7370319
0.000692381 0.2111762 0.72700006 8156496
0.00208 0.21146667 0.72800004 10393458
0.0034666669 0.21146667 0.72800004 14076294
0.0048666666 0.21204762 0.73000002 16775863
-0.059822865 0.21109907 0.72200006 16512726
-0.058447625 0.21109907 0.72200006 15328452
-0.057072386 0.21109907 0.72200006 13815437
-0.055697147 0.21109907 0.72200006 8683583
-0.054171428 0.21051429 0.72000003 6976357
-0.052579999 0.20963715 0.71700001 6384220
-0.051142856 0.20934477 0.71600002 6121307
-0.04964 0.20876001 0.71400005 7108202
-0.048280004 0.20876001 0.71400005 7897179
-0.046854287 0.20846763 0.71300006 7239249
-0.045368571 0.20788287 0.71100003 6647405
-0.043952383 0.20759049 0.71000004 7634300
-0.042479999 0.20700571 0.708 9475168
-0.041131429 0.20700571 0.708 9672547
-0.039726667 0.20671335 0.70700002 9998950
-0.038380001 0.20671335 0.70700002 9406813
-0.037033334 0.20671335 0.70700002 9274985
-0.035636194 0.20642096 0.70600003 9274985
-0.034291428 0.20642096 0.70600003 9866855
-0.032946669 0.20642096 0.70600003 10130027
-0.031601906 0.20642096 0.70600003 10129764
-0.030300001 0.20671335 0.70700002 10261350
-0.028912382 0.20642096 0.70600003 10326877
-0.027567619 0.20642096 0.70600003 10392670
-0.02626 0.20671335 0.70700002 10262106
-0.024913333 0.20671335 0.70700002 10327899
-0.023566667 0.20671335 0.70700002 10524006
-0.022220001 0.20671335 0.70700002 10918764
-0.020902857 0.20700571 0.708 11245699
-0.019554285 0.20700571 0.708 11574664
-0.018205713 0.20700571 0.708 11639911
-0.016904762 0.20759049 0.71000004 10718809
-0.015552383 0.20759049 0.71000004 10849380
-0.014200001 0.20759049 0.71000004 11375724
-0.012865715 0.20788287 0.71100003 11114085
-0.01154381 0.20846763 0.71300006 12298359
-0.010185715 0.20846763 0.71300006 11378275
-0.0088400003 0.20876001 0.71400005 11378275
-0.0075009526 0.20934477 0.71600002 11443570
-0.0061628572 0.21022192 0.71900004 12035707
-0.0047933338 0.21022192 0.71900004 10919291
-0.0034285716 0.21051429 0.72000003 10063982
-0.0020628572 0.21109907 0.72200006 7829887
-0.00068857148 0.21139143 0.72300005 6908785
0.000692381 0.21256097 0.72700006 7434598
0.00208 0.21285334 0.72800004 9737353
0.0034666669 0.21285334 0.72800004 13419391
0.0048666666 0.21343809 0.73000002 16776376
-0.058447625 0.2124743 0.72200006 15394247
-0.056914289 0.21188572 0.72000003 14144672
-0.05554286 0.21188572 0.72000003 8749646
-0.054171428 0.21188572 0.72000003 6583141
-0.052726667 0.21159144 0.71900004 5991004
-0.051214285 0.21100286 0.71700001 5990477
-0.04977905 0.21070857 0.71600002 7306337
-0.048280004 0.21012001 0.71400005 7765857
-0.046854287 0.20982572 0.71300006 6844755
-0.045368571 0.20923714 0.71100003 6777424
-0.043952383 0.20894288 0.71000004 9672316
-0.042600002 0.20894288 0.71000004 10393979
-0.041131429 0.20835428 0.708 10657151
-0.039782856 0.20835428 0.708 11049850
-0.038380001 0.20806001 0.70700002 10786678
-0.037033334 0.20806001 0.70700002 10456421
-0.035686668 0.20806001 0.70700002 10653800
-0.034339998 0.20806001 0.70700002 11113833
-0.032993335 0.20806001 0.70700002 10982247
-0.031646665 0.20806001 0.70700002 10850132
-0.030300001 0.20806001 0.70700002 11179097
-0.028953334 0.20806001 0.70700002 10917465
-0.027606668 0.20806001 0.70700002 11246430
-0.02626 0.20806001 0.70700002 11312493
-0.024913333 0.20806001 0.70700002 11246700
-0.023566667 0.20806001 0.70700002 11180126
-0.022251429 0.20835428 0.708 11377505
-0.020902857 0.20835428 0.708 11311221
-0.019554285 0.20835428 0.708 11508600
-0.018257145 0.20894288 0.71000004 11640177
-0.016904762 0.20894288 0.71000004 10719075
-0.015552383 0.20894288 0.71000004 10652244
-0.01422 0.20923714 0.71100003 11112795
-0.012865715 0.20923714 0.71100003 11114090
-0.01154381 0.20982572 0.71300006 11245676
-0.010200001 0.21012001 0.71400005 11048549
-0.0088647623 0.21070857 0.71600002 11311721
-0.0075114286 0.21100286 0.71700001 11246691
-0.0061628572 0.21159144 0.71900004 11773035
-0.0047999998 0.21188572 0.72000003 11312752
-0.0034285716 0.21188572 0.72000003 11049580
-0.0020628572 0.2124743 0.72200006 9867383
-0.00069047621 0.21335715 0.72500002 7301456
0.000692381 0.21394573 0.72700006 7171886
0.00208 0.21424001 0.72800004 10132571
0.0034761906 0.21482858 0.73000002 13353087
0.0048666666 0.21482858 0.73000002 16776379
-0.058447625 0.21384954 0.72200006 15131077
-0.057072386 0.21384954 0.72200006 13749653
-0.05554286 0.21325715 0.72000003 8946764
-0.054171428 0.21325715 0.72000003 6845561
-0.052726667 0.21296096 0.71900004 6516596
-0.051214285 0.21236856 0.71700001 5990756
-0.04977905 0.21207239 0.71600002 7372409
-0.04841524 0.21207239 0.71600002 7830875
-0.046920002 0.21148001 0.71400005 7041359
-0.045496192 0.21118382 0.71300006 8024411
