# .PCD v0.7 - Point Cloud Data file format
VERSION 0.7
FIELDS x y z rgba
SIZE 4 4 4 4
TYPE F F F U
COUNT 1 1 1 1
WIDTH 1080
HEIGHT 1
VIEWPOINT 0 0 0 1 0 0 0
POINTS 1080
DATA ascii
-0.013082858 0.033740003 0.72300005 13078388
-0.011689525 0.033693336 0.72200006 13341560
-0.010314287 0.033693336 0.72200006 14592853
-0.0089390483 0.033693336 0.72200006 15382369
-0.0075638103 0.033693336 0.72200006 14988670
-0.0061885719 0.033693336 0.72200006 14725498
-0.0048133335 0.033693336 0.72200006 14594918
-0.0034380956 0.033693336 0.72200006 14726504
-0.0020628572 0.033693336 0.72200006 14067831
-0.00068857148 0.033740003 0.72300005 13409901
0.00068761909 0.033693336 0.72200006 14001000
0.0020628572 0.033693336 0.72200006 14527344
0.0034380956 0.033693336 0.72200006 14659446
0.0048133335 0.033693336 0.72200006 14593653
0.0061885719 0.033693336 0.72200006 14395754
0.0075638103 0.033693336 0.72200006 12948308
0.0089142863 0.033600003 0.72000003 13013037
0.010285715 0.033600003 0.72000003 13605174
0.011657143 0.033600003 0.72000003 13606483
0.013028571 0.033600003 0.72000003 13672276
0.014400001 0.033600003 0.72000003 14132316
0.01577143 0.033600003 0.72000003 13737558
0.017142856 0.033600003 0.72000003 13671249
0.018514287 0.033600003 0.72000003 13144905
0.019940954 0.033693336 0.72200006 12948292
0.021257143 0.033600003 0.72000003 13014085
0.022628572 0.033600003 0.72000003 12620615
0.024 0.033600003 0.72000003 11962685
0.025336191 0.033553336 0.71900004 8152360
0.026705716 0.033553336 0.71900004 2296832
0.028075241 0.033553336 0.71900004 1901056
-0.075261906 0.035214286 0.72500002 4990976
-0.073880956 0.035214286 0.72500002 5710336
-0.072300009 0.035117142 0.72300005 9592115
-0.070922859 0.035117142 0.72300005 11897377
-0.069545716 0.035117142 0.72300005 12752686
-0.068357147 0.035214286 0.72500002 12945998
-0.066976197 0.035214286 0.72500002 13538135
-0.065595239 0.035214286 0.72500002 13473588
-0.064214289 0.035214286 0.72500002 13802553
-0.062833332 0.035214286 0.72500002 13474601
-0.061452381 0.035214286 0.72500002 13606187
-0.060071427 0.035214286 0.72500002 13345084
-0.058690481 0.035214286 0.72500002 13410877
-0.057309527 0.035214286 0.72500002 13672773
-0.055928573 0.035214286 0.72500002 13738566
-0.054547619 0.035214286 0.72500002 14064981
-0.053020004 0.035117142 0.72300005 16762494
-0.051642857 0.035117142 0.72300005 16105631
-0.050404765 0.035214286 0.72500002 15645080
-0.049023811 0.035214286 0.72500002 15251583
-0.047642857 0.035214286 0.72500002 16041099
-0.046261907 0.035214286 0.72500002 15120006
-0.044880953 0.035214286 0.72500002 15054213
-0.043500002 0.035214286 0.72500002 15383441
-0.04200286 0.035117142 0.72300005 15383441
-0.040625714 0.035117142 0.72300005 15383934
-0.039248575 0.035117142 0.72300005 16173450
-0.037871432 0.035117142 0.72300005 15382680
-0.036494289 0.035117142 0.72300005 14329992
-0.035117142 0.035117142 0.72300005 13738830
-0.033740003 0.035117142 0.72300005 14133588
-0.03236286 0.035117142 0.72300005 14135412
-0.030985717 0.035117142 0.72300005 16635546
-0.029608574 0.035117142 0.72300005 16311004
-0.028309524 0.035214286 0.72500002 16705762
-0.026928572 0.035214286 0.72500002 16578807
-0.02554762 0.035214286 0.72500002 16776443
-0.024166666 0.035214286 0.72500002 16645629
-0.022722857 0.035117142 0.72300005 16711422
-0.021345716 0.035117142 0.72300005 16711422
-0.019968573 0.035117142 0.72300005 16711422
-0.01859143 0.035117142 0.72300005 16711422
-0.017214287 0.035117142 0.72300005 16711422
-0.015837144 0.035117142 0.72300005 16711422
-0.01446 0.035117142 0.72300005 15132390
-0.013082858 0.035117142 0.72300005 14073020
-0.011689525 0.035068572 0.72200006 10914956
-0.010314287 0.035068572 0.72200006 13016397
-0.0089390483 0.035068572 0.72200006 15253359
-0.0075638103 0.035068572 0.72200006 15515027
-0.0061885719 0.035068572 0.72200006 15251855
-0.0048133335 0.035068572 0.72200006 14792038
-0.0034380956 0.035068572 0.72200006 14989417
-0.0020628572 0.035068572 0.72200006 14330222
-0.00068761909 0.035068572 0.72200006 13672292
0.00068761909 0.035068572 0.72200006 14197866
0.0020628572 0.035068572 0.72200006 15645312
0.0034380956 0.035068572 0.72200006 14396269
0.0048133335 0.035068572 0.72200006 12817237
0.0061714291 0.034971431 0.72000003 12948000
0.007542857 0.034971431 0.72000003 12816414
0.0089019043 0.034922861 0.71900004 12750092
0.010271429 0.034922861 0.71900004 12881678
0.011657143 0.034971431 0.72000003 12881703
0.013028571 0.034971431 0.72000003 13013289
0.014400001 0.034971431 0.72000003 13078329
0.01577143 0.034971431 0.72000003 13012536
0.017142856 0.034971431 0.72000003 12683069
0.018514287 0.034971431 0.72000003 12551483
0.019940954 0.035068572 0.72200006 12618037
0.021257143 0.034971431 0.72000003 12749623
0.022628572 0.034971431 0.72000003 12226090
0.023966668 0.034922861 0.71900004 11897125
0.025336191 0.034922861 0.71900004 10253923
0.026705716 0.034922861 0.71900004 9924958
0.028075241 0.034922861 0.71900004 10060116
-0.075261906 0.03659524 0.72500002 5058560
-0.073880956 0.03659524 0.72500002 5711616
-0.072300009 0.036494289 0.72300005 9067050
-0.070922859 0.036494289 0.72300005 11171104
-0.069545716 0.036494289 0.72300005 13210687
-0.068168573 0.036494289 0.72300005 13208659
-0.06679143 0.036494289 0.72300005 13537624
-0.065414287 0.036494289 0.72300005 13538863
-0.064214289 0.03659524 0.72500002 13538863
-0.062833332 0.03659524 0.72500002 13538600
-0.061452381 0.03659524 0.72500002 14130737
-0.060071427 0.03659524 0.72500002 13739077
-0.058528576 0.036494289 0.72300005 13607491
-0.057151429 0.036494289 0.72300005 13803853
-0.05577429 0.036494289 0.72300005 13409095
-0.054397147 0.036494289 0.72300005 14194751
-0.053020004 0.036494289 0.72300005 15905369
-0.051642857 0.036494289 0.72300005 15314816
-0.050404765 0.03659524 0.72500002 15249023
-0.049023811 0.03659524 0.72500002 14988402
-0.047642857 0.03659524 0.72500002 15119988
-0.046134286 0.036494289 0.72300005 15120249
-0.044757146 0.036494289 0.72300005 15120249
-0.043380003 0.036494289 0.72300005 15515014
-0.04200286 0.036494289 0.72300005 15317635
-0.040569525 0.036443811 0.72200006 14856566
-0.03919429 0.036443811 0.72200006 15514496
-0.03781905 0.036443811 0.72200006 15447942
-0.036494289 0.036494289 0.72300005 14395254
-0.035117142 0.036494289 0.72300005 13344331
-0.033740003 0.036494289 0.72300005 14528605
-0.03236286 0.036494289 0.72300005 14070964
-0.031071428 0.03659524 0.72500002 16702684
-0.029690476 0.03659524 0.72500002 16379116
-0.028309524 0.03659524 0.72500002 16775930
-0.026928572 0.03659524 0.72500002 16711422
-0.024878096 0.035636194 0.70600003 16711422
-0.023533335 0.035636194 0.70600003 16711422
-0.022188572 0.035636194 0.70600003 16711422
-0.020843811 0.035636194 0.70600003 16711422
-0.019499049 0.035636194 0.70600003 16711422
-0.018694287 0.036696192 0.72700006 16711422
-0.017309524 0.036696192 0.72700006 16711422
-0.015837144 0.036494289 0.72300005 16711422
-0.01446 0.036494289 0.72300005 16579836
-0.013082858 0.036494289 0.72300005 15327970
-0.011689525 0.036443811 0.72200006 13091008
-0.010314287 0.036443811 0.72200006 12295064
-0.0089390483 0.036443811 0.72200006 12558236
-0.0075638103 0.036443811 0.72200006 14067559
-0.0061885719 0.036443811 0.72200006 14067559
-0.0048133335 0.036443811 0.72200006 13934918
-0.0034380956 0.036443811 0.72200006 14000711
-0.0020628572 0.036443811 0.72200006 13605202
-0.00068761909 0.036443811 0.72200006 13473616
0.0006857143 0.036342856 0.72000003 13736781
0.002057143 0.036342856 0.72000003 14065746
0.0034285716 0.036342856 0.72000003 13672276
0.0047999998 0.036342856 0.72000003 12488002
0.0061714291 0.036342856 0.72000003 12815912
0.0075323815 0.036292382 0.71900004 13013291
0.0089019043 0.036292382 0.71900004 12749847
0.010271429 0.036292382 0.71900004 12881433
0.011640953 0.036292382 0.71900004 12815406
0.013028571 0.036342856 0.72000003 12815406
0.014400001 0.036342856 0.72000003 12618031
0.01577143 0.036342856 0.72000003 12618031
0.017142856 0.036342856 0.72000003 12683314
0.018514287 0.036342856 0.72000003 12749107
0.019885715 0.036342856 0.72000003 12618288
0.021227621 0.036292382 0.71900004 12618288
0.022597143 0.036292382 0.71900004 12291120
0.0239 0.036191426 0.71700001 12356913
0.025265714 0.036191426 0.71700001 12358492
0.02663143 0.036191426 0.71700001 12621664
-0.073880956 0.03797619 0.72500002 10781786
-0.072300009 0.037871432 0.72300005 10584407
-0.070922859 0.037871432 0.72300005 11566646
-0.069449529 0.03781905 0.72200006 13145678
-0.068074286 0.03781905 0.72200006 13406801
-0.06679143 0.037871432 0.72300005 13341008
-0.065414287 0.037871432 0.72300005 13340971
-0.064037152 0.037871432 0.72300005 13340971
-0.062660009 0.037871432 0.72300005 13341484
-0.061282866 0.037871432 0.72300005 13407277
-0.059905719 0.037871432 0.72300005 13276972
-0.058528576 0.037871432 0.72300005 13342765
-0.057151429 0.037871432 0.72300005 13144385
-0.055697147 0.03781905 0.72200006 12749627
-0.054321911 0.03781905 0.72200006 13339933
-0.052946672 0.03781905 0.72200006 13997863
-0.051571433 0.03781905 0.72200006 13538066
-0.050265718 0.037871432 0.72300005 13538066
-0.048888575 0.037871432 0.72300005 13276713
-0.047511432 0.037871432 0.72300005 13276713
-0.046134286 0.037871432 0.72300005 13342765
-0.044757146 0.037871432 0.72300005 13540144
-0.043380003 0.037871432 0.72300005 13343274
-0.041944765 0.03781905 0.72200006 13145895
-0.040569525 0.03781905 0.72200006 13144614
-0.03919429 0.03781905 0.72200006 12815649
-0.03781905 0.03781905 0.72200006 12551723
-0.036494289 0.037871432 0.72300005 12683309
-0.035117142 0.037871432 0.72300005 12885063
-0.033833336 0.03797619 0.72500002 16771733
-0.032541908 0.038080957 0.72700006 16711422
-0.031157147 0.038080957 0.72700006 16711422
-0.029772382 0.038080957 0.72700006 16645116
-0.028387621 0.038080957 0.72700006 16579323
-0.02626 0.037033334 0.70700002 16513530
-0.024878096 0.036980953 0.70600003 16447737
-0.023533335 0.036980953 0.70600003 16382457
-0.022188572 0.036980953 0.70600003 16382457
-0.020843811 0.036980953 0.70600003 16316664
-0.019499049 0.036980953 0.70600003 16448250
-0.018154286 0.036980953 0.70600003 16448250
-0.016809525 0.036980953 0.70600003 16448250
-0.015880954 0.03797619 0.72500002 16579834
-0.014500001 0.03797619 0.72500002 16711420
-0.013082858 0.037871432 0.72300005 16711422
-0.011689525 0.03781905 0.72200006 16711422
-0.010314287 0.03781905 0.72200006 16644332
-0.0089390483 0.03781905 0.72200006 9012344
-0.0075638103 0.03781905 0.72200006 11236352
-0.0061714291 0.037714288 0.72000003 12946951
-0.0047933338 0.037661906 0.71900004 13078058
-0.0034238098 0.037661906 0.71900004 13078058
-0.002057143 0.037714288 0.72000003 13144355
-0.0006857143 0.037714288 0.72000003 13144355
0.0006857143 0.037714288 0.72000003 13144355
0.002057143 0.037714288 0.72000003 13144355
0.0034285716 0.037714288 0.72000003 13013282
0.0047999998 0.037714288 0.72000003 13144868
0.0061628572 0.037661906 0.71900004 13209917
0.0075114286 0.037557144 0.71700001 13275710
0.0088771433 0.037557144 0.71700001 13144625
0.010242857 0.037557144 0.71700001 13276211
0.011640953 0.037661906 0.71900004 13144903
0.013010478 0.037661906 0.71900004 13276489
0.014380001 0.037661906 0.71900004 12815166
0.015749523 0.037661906 0.71900004 12683580
0.017119048 0.037661906 0.71900004 12749366
0.018488573 0.037661906 0.71900004 12683573
0.019858096 0.037661906 0.71900004 12684072
0.021168573 0.037557144 0.71700001 12749865
0.022534285 0.037557144 0.71700001 12487213
0.023866668 0.037504762 0.71600002 12355627
0.025230477 0.037504762 0.71600002 12225600
0.026520003 0.037400004 0.71400005 12554565
0.027880002 0.037400004 0.71400005 12226656
-0.072300009 0.039248575 0.72300005 10846302
-0.070824765 0.03919429 0.72200006 11763514
-0.069449529 0.03919429 0.72200006 12947788
-0.068074286 0.03919429 0.72200006 13143372
-0.06669905 0.03919429 0.72200006 12880200
-0.065323815 0.03919429 0.72200006 12683295
-0.063948572 0.03919429 0.72200006 12946467
-0.062573336 0.03919429 0.72200006 12946222
-0.061198097 0.03919429 0.72200006 12880429
-0.059822865 0.03919429 0.72200006 12880674
-0.058447625 0.03919429 0.72200006 13341225
-0.057072386 0.03919429 0.72200006 13143872
-0.055697147 0.03919429 0.72200006 12880700
-0.054171428 0.039085716 0.72000003 12880679
-0.052800003 0.039085716 0.72000003 12814886
-0.051428575 0.039085716 0.72000003 12815619
-0.050196193 0.03919429 0.72200006 12947205
-0.048820958 0.03919429 0.72200006 12815908
-0.047445718 0.03919429 0.72200006 12881701
-0.046070479 0.03919429 0.72200006 13012519
-0.044695243 0.03919429 0.72200006 13078312
-0.043320004 0.03919429 0.72200006 12815651
-0.041944765 0.03919429 0.72200006 12815651
-0.040569525 0.03919429 0.72200006 12618279
-0.03919429 0.03919429 0.72200006 11894556
-0.03781905 0.03919429 0.72200006 11303168
-0.036494289 0.039248575 0.72300005 14263838
-0.035117142 0.039248575 0.72300005 13874607
-0.033926666 0.039465718 0.72700006 16774896
-0.032586671 0.039520003 0.72800004 16711422
-0.03017143 0.038217146 0.70400006 16711422
-0.02883048 0.038217146 0.70400006 16447737
-0.027567619 0.038325716 0.70600003 16381944
-0.026222857 0.038325716 0.70600003 16316151
-0.024807621 0.038217146 0.70400006 16447737
-0.023466667 0.038217146 0.70400006 16382457
-0.022125715 0.038217146 0.70400006 16382457
-0.020784764 0.038217146 0.70400006 16382457
-0.019443812 0.038217146 0.70400006 16448250
-0.018102858 0.038217146 0.70400006 16448250
-0.016666668 0.038000003 0.70000005 16448250
-0.015333334 0.038000003 0.70000005 16514043
-0.014 0.038000003 0.70000005 16645629
-0.013082858 0.039248575 0.72300005 16711422
-0.011689525 0.03919429 0.72200006 16711422
-0.010314287 0.03919429 0.72200006 16711422
-0.0089390483 0.03919429 0.72200006 10987431
-0.0075323815 0.039031431 0.71900004 11430705
-0.0061628572 0.039031431 0.71900004 13141323
-0.0047933338 0.039031431 0.71900004 13275189
-0.0034238098 0.039031431 0.71900004 13406775
-0.0020542857 0.039031431 0.71900004 13275959
-0.00068476191 0.039031431 0.71900004 13275959
0.00068476191 0.039031431 0.71900004 13145127
0.0020542857 0.039031431 0.71900004 13013541
0.0034238098 0.039031431 0.71900004 13079334
0.0047933338 0.039031431 0.71900004 13210920
0.0061457143 0.038922857 0.71700001 13210168
0.0075114286 0.038922857 0.71700001 13210168
0.0088647623 0.038868573 0.71600002 13144373
0.010228572 0.038868573 0.71600002 13210166
0.011608572 0.038922857 0.71700001 13144642
0.012974286 0.038922857 0.71700001 13078849
0.01434 0.038922857 0.71700001 12749366
0.015683809 0.038868573 0.71600002 12749366
0.017047618 0.038868573 0.71600002 12683822
0.01841143 0.038868573 0.71600002 12683822
0.019802855 0.038922857 0.71700001 12618027
0.021139048 0.038868573 0.71600002 12618027
0.022502856 0.038868573 0.71600002 12420648
0.023866668 0.038868573 0.71600002 12420648
0.025230477 0.038868573 0.71600002 12159539
0.026520003 0.038760003 0.71400005 12488504
0.027880002 0.038760003 0.71400005 12029275
-0.072300009 0.040625714 0.72300005 10845017
-0.070824765 0.040569525 0.72200006 11696953
-0.06925714 0.040457144 0.72000003 12749641
-0.067885719 0.040457144 0.72000003 12814394
-0.066514291 0.040457144 0.72000003 12551222
-0.065142855 0.040457144 0.72000003 12617259
-0.063771427 0.040457144 0.72000003 12683052
-0.062400002 0.040457144 0.72000003 12814398
-0.061028574 0.040457144 0.72000003 12682812
-0.059657145 0.040457144 0.72000003 12815140
-0.058285713 0.040457144 0.72000003 13341484
-0.056914289 0.040457144 0.72000003 12814914
-0.05554286 0.040457144 0.72000003 12485949
-0.054171428 0.040457144 0.72000003 12683069
-0.052800003 0.040457144 0.72000003 12880448
-0.051428575 0.040457144 0.72000003 12749856
-0.050057143 0.040457144 0.72000003 13013028
-0.048685715 0.040457144 0.72000003 12947253
-0.047314286 0.040457144 0.72000003 13013046
-0.045942858 0.040457144 0.72000003 13209665
-0.044571429 0.040457144 0.72000003 13275458
-0.043200001 0.040457144 0.72000003 13078081
-0.041828573 0.040457144 0.72000003 12946495
-0.040457144 0.040457144 0.72000003 12684343
-0.039085716 0.040457144 0.72000003 11565862
-0.037714288 0.040457144 0.72000003 11436845
-0.036443811 0.040569525 0.72200006 16773017
-0.035214286 0.040738095 0.72500002 16711422
-0.033973332 0.040906668 0.72800004 16711422
-0.031512383 0.039558098 0.70400006 16514043
-0.030128572 0.039501905 0.70300001 16316664
-0.028789524 0.039501905 0.70300001 16382457
-0.027489526 0.039558098 0.70400006 16448250
-0.026222857 0.039670479 0.70600003 16382457
-0.024807621 0.039558098 0.70400006 16382457
-0.023466667 0.039558098 0.70400006 16448250
-0.022125715 0.039558098 0.70400006 16382457
-0.020784764 0.039558098 0.70400006 16382457
-0.019360952 0.039389525 0.70100003 16448250
-0.018000001 0.039333336 0.70000005 16448250
-0.016666668 0.039333336 0.70000005 16448250
-0.015333334 0.039333336 0.70000005 16448250
-0.01396 0.039220951 0.69800001 16448250
-0.012630476 0.039220951 0.69800001 16448250
-0.011300952 0.039220951 0.69800001 16711422
-0.010314287 0.040569525 0.72200006 16711422
-0.0089142863 0.040457144 0.72000003 14145495
-0.0075114286 0.040288571 0.71700001 12157357
-0.0061457143 0.040288571 0.71700001 12157357
-0.0047800001 0.040288571 0.71700001 12880441
-0.0034142856 0.040288571 0.71700001 13275199
-0.0020485714 0.040288571 0.71700001 13210425
-0.00068285712 0.040288571 0.71700001 13276218
0.00068285712 0.040288571 0.71700001 13210409
0.0020457143 0.040232379 0.71600002 13144616
0.003409524 0.040232379 0.71600002 13144112
0.0047800001 0.040288571 0.71700001 13144112
0.0061371429 0.040232379 0.71600002 13209637
0.0075009526 0.040232379 0.71600002 13209637
0.0088647623 0.040232379 0.71600002 13274914
0.010228572 0.040232379 0.71600002 13340707
0.011592381 0.040232379 0.71600002 12946987
0.012956191 0.040232379 0.71600002 12552229
0.014280002 0.040120002 0.71400005 12617005
0.01564 0.040120002 0.71400005 12682798
0.017000001 0.040120002 0.71400005 12683300
0.01841143 0.040232379 0.71600002 12749093
0.019775238 0.040232379 0.71600002 12749095
0.02108 0.040120002 0.71400005 12683302
0.022440001 0.040120002 0.71400005 12551464
0.023800001 0.040120002 0.71400005 12683050
0.025160002 0.040120002 0.71400005 12159537
0.02648286 0.040063813 0.71300006 12751674
0.027840953 0.040063813 0.71300006 12095327
0.029199049 0.040063813 0.71300006 12161120
-0.072200008 0.041944765 0.72200006 10451024
-0.070628576 0.041828573 0.72000003 11500067
-0.06925714 0.041828573 0.72000003 12881720
-0.067885719 0.041828573 0.72000003 12748110
-0.066514291 0.041828573 0.72000003 12221766
-0.065142855 0.041828573 0.72000003 12288794
-0.063505717 0.041654285 0.71700001 12420380
-0.062139999 0.041654285 0.71700001 12617008
-0.060774285 0.041654285 0.71700001 12748594
-0.059574291 0.041770477 0.71900004 12815147
-0.058204763 0.041770477 0.71900004 13012526
-0.056835238 0.041770477 0.71900004 12551987
-0.055465717 0.041770477 0.71900004 12486194
-0.054096192 0.041770477 0.71900004 12683319
-0.052726667 0.041770477 0.71900004 12946491
-0.051357146 0.041770477 0.71900004 12815919
-0.049987622 0.041770477 0.71900004 13013298
-0.048618097 0.041770477 0.71900004 13078849
-0.047248576 0.041770477 0.71900004 13078849
-0.045879051 0.041770477 0.71900004 13275458
-0.044509526 0.041770477 0.71900004 13275458
-0.043200001 0.041828573 0.72000003 13143872
-0.041828573 0.041828573 0.72000003 12814907
-0.040457144 0.041828573 0.72000003 12355620
-0.039085716 0.041828573 0.72000003 11697690
-0.03687619 0.040899049 0.70400006 12161150
-0.035484761 0.04084095 0.70300001 16774113
-0.034145713 0.04084095 0.70300001 16711422
-0.032806665 0.04084095 0.70300001 16711422
-0.03146762 0.04084095 0.70300001 16316662
-0.030128572 0.04084095 0.70300001 16382455
-0.028789524 0.04084095 0.70300001 16514043
-0.027489526 0.040899049 0.70400006 16448250
-0.026148573 0.040899049 0.70400006 16316664
-0.024807621 0.040899049 0.70400006 16448250
-0.023433333 0.04084095 0.70300001 16448250
-0.022094285 0.04084095 0.70300001 16448250
-0.020696191 0.040724762 0.70100003 16448250
-0.019360952 0.040724762 0.70100003 16448250
-0.018000001 0.04066667 0.70000005 16448250
-0.016666668 0.04066667 0.70000005 16448250
-0.015333334 0.04066667 0.70000005 16382457
-0.01396 0.040550474 0.69800001 16448250
-0.012630476 0.040550474 0.69800001 16448250
-0.011300952 0.040550474 0.69800001 16711422
-0.0099714287 0.040550474 0.69800001 16711422
-0.0089019043 0.041770477 0.71900004 15132390
-0.0075114286 0.041654285 0.71700001 13742008
-0.0061457143 0.041654285 0.71700001 11110288
-0.0047800001 0.041654285 0.71700001 12289037
-0.0034142856 0.041654285 0.71700001 13078553
-0.0020485714 0.041654285 0.71700001 13013298
-0.00068190478 0.041596193 0.71600002 12750126
0.00068190478 0.041596193 0.71600002 12947471
0.0020457143 0.041596193 0.71600002 13013264
0.003409524 0.041596193 0.71600002 13209121
0.0047733332 0.041596193 0.71600002 13143328
0.0061200005 0.041480005 0.71400005 13010718
0.0074695242 0.041421909 0.71300006 13010718
0.0088276202 0.041421909 0.71300006 12944907
0.010185715 0.041421909 0.71300006 13142286
0.01154381 0.041421909 0.71300006 13011231
0.012901906 0.041421909 0.71300006 12879645
0.014260001 0.041421909 0.71300006 12748320
0.015618097 0.041421909 0.71300006 12682527
0.016976191 0.041421909 0.71300006 12551180
0.018334286 0.041421909 0.71300006 12880145
0.019720001 0.041480005 0.71400005 12748582
0.02108 0.041480005 0.71400005 12748582
0.022408573 0.041421909 0.71300006 12682791
0.023766669 0.041421909 0.71300006 12748584
0.025124764 0.041421909 0.71300006 12225581
0.02648286 0.041421909 0.71300006 12620339
0.027840953 0.041421909 0.71300006 11832925
0.029199049 0.041421909 0.71300006 12030304
-0.072200008 0.043320004 0.72200006 11961174
-0.070628576 0.043200001 0.72000003 14922556
-0.069160953 0.043140002 0.71900004 16698967
-0.067791432 0.043140002 0.71900004 15184248
-0.066237144 0.043020003 0.71700001 13210458
-0.064871423 0.043020003 0.71700001 13340980
-0.063417144 0.042960003 0.71600002 13275187
-0.06205333 0.042960003 0.71600002 12946241
-0.060689528 0.042960003 0.71600002 12946241
-0.059325717 0.042960003 0.71600002 12946493
-0.058042858 0.043020003 0.71700001 13078079
-0.056677144 0.043020003 0.71700001 12947011
-0.055311427 0.043020003 0.71700001 12881218
-0.053945716 0.043020003 0.71700001 12946754
-0.052579999 0.043020003 0.71700001 12946754
-0.051214285 0.043020003 0.71700001 12880961
-0.049848571 0.043020003 0.71700001 13012547
-0.048482858 0.043020003 0.71700001 13143874
-0.04711714 0.043020003 0.71700001 13143874
-0.04575143 0.043020003 0.71700001 13209665
-0.044385713 0.043020003 0.71700001 13472837
-0.043020003 0.043020003 0.71700001 13143622
-0.041654285 0.043020003 0.71700001 12551485
-0.040400952 0.043140002 0.71900004 11960599
-0.038380001 0.04242 0.70700002 13737010
-0.03687619 0.042240005 0.70400006 12819671
-0.035484761 0.042180002 0.70300001 16772351
-0.034145713 0.042180002 0.70300001 16711422
-0.032806665 0.042180002 0.70300001 16448250
-0.03146762 0.042180002 0.70300001 16382457
-0.030042859 0.042060003 0.70100003 16448250
-0.02870762 0.042060003 0.70100003 16514043
-0.027372383 0.042060003 0.70100003 16448250
-0.026037144 0.042060003 0.70100003 16316664
-0.024666667 0.042000003 0.70000005 16448250
-0.023333335 0.042000003 0.70000005 16448250
-0.022000002 0.042000003 0.70000005 16448250
-0.020666666 0.042000003 0.70000005 16448250
-0.019333335 0.042000003 0.70000005 16448250
-0.018000001 0.042000003 0.70000005 16448250
-0.016666668 0.042000003 0.70000005 16448250
-0.015289525 0.04188 0.69800001 16448250
-0.01396 0.04188 0.69800001 16448250
-0.012630476 0.04188 0.69800001 16448250
-0.011300952 0.04188 0.69800001 16711422
-0.0099714287 0.04188 0.69800001 16711422
-0.0086419052 0.04188 0.69800001 15724527
-0.0075009526 0.042960003 0.71600002 14201296
-0.0061371429 0.042960003 0.71600002 11306404
-0.0047733332 0.042960003 0.71600002 13142279
-0.0034 0.04284 0.71400005 14129174
-0.0020400002 0.04284 0.71400005 13471271
-0.00068000006 0.04284 0.71400005 13142306
0.00068000006 0.04284 0.71400005 13077760
0.0020371431 0.042780001 0.71300006 13340928
0.0033952384 0.042780001 0.71300006 13273881
0.0047533335 0.042780001 0.71300006 13273881
0.0060942858 0.042660002 0.71100003 13273372
0.0074485713 0.042660002 0.71100003 13273372
0.0088028572 0.042660002 0.71100003 13141523
0.010157143 0.042660002 0.71100003 13075730
0.011511429 0.042660002 0.71100003 13207329
0.012865715 0.042660002 0.71100003 13273122
0.01422 0.042660002 0.71100003 13338902
0.015574286 0.042660002 0.71100003 13273109
0.016928572 0.042660002 0.71100003 13273865
0.018282857 0.042660002 0.71100003 13997588
0.019692382 0.042780001 0.71300006 13273381
0.021050479 0.042780001 0.71300006 13076002
0.022345716 0.042660002 0.71100003 12747557
0.023700001 0.042660002 0.71100003 12681764
0.025054287 0.042660002 0.71100003 12092709
0.02648286 0.042780001 0.71300006 12882225
0.027840953 0.042780001 0.71300006 12226915
0.029199049 0.042780001 0.71300006 12161122
-0.072760001 0.044200003 0.71400005 11760445
-0.071400002 0.044200003 0.71400005 12878926
-0.070236191 0.044323809 0.71600002 15447136
-0.068968572 0.044385713 0.71700001 15907687
-0.067602858 0.044385713 0.71700001 15380602
-0.066144764 0.044323809 0.71600002 14656879
-0.064599998 0.044200003 0.71400005 14262084
-0.063240007 0.044200003 0.71400005 14130498
-0.061880007 0.044200003 0.71400005 13408308
-0.060520004 0.044200003 0.71400005 13013550
-0.059160002 0.044200003 0.71400005 12946715
-0.057961904 0.044323809 0.71600002 13078301
-0.056598097 0.044323809 0.71600002 12946491
-0.055234287 0.044323809 0.71600002 12749112
-0.053870477 0.044323809 0.71600002 12815908
-0.052506667 0.044323809 0.71600002 12815908
-0.051142856 0.044323809 0.71600002 12683804
-0.04977905 0.044323809 0.71600002 12683804
-0.04841524 0.044323809 0.71600002 12815633
-0.04705143 0.044323809 0.71600002 13078805
-0.045560002 0.044200003 0.71400005 13209133
-0.044200003 0.044200003 0.71400005 13340719
-0.04284 0.044200003 0.71400005 13078321
-0.041421909 0.0441381 0.71300006 12091426
-0.040063813 0.0441381 0.71300006 11368192
-0.038380001 0.043766666 0.70700002 14197272
-0.03687619 0.043580953 0.70400006 14534350
-0.035484761 0.043519046 0.70300001 16774910
-0.034145713 0.043519046 0.70300001 16711422
-0.032713335 0.04339524 0.70100003 16448250
-0.031378098 0.04339524 0.70100003 16382457
-0.030000001 0.043333337 0.70000005 16448250
-0.028666668 0.043333337 0.70000005 16514043
-0.027333336 0.043333337 0.70000005 16448250
-0.026000001 0.043333337 0.70000005 16250871
-0.02459619 0.043209527 0.69800001 16448250
-0.023266668 0.043209527 0.69800001 16448250
-0.021937143 0.043209527 0.69800001 16448250
-0.020607619 0.043209527 0.69800001 16448250
-0.019278096 0.043209527 0.69800001 16448250
-0.017948572 0.043209527 0.69800001 16448250
-0.016619049 0.043209527 0.69800001 16448250
-0.015289525 0.043209527 0.69800001 16448250
-0.01396 0.043209527 0.69800001 16448250
-0.012630476 0.043209527 0.69800001 16448250
-0.011284763 0.04314762 0.69700003 16711422
-0.0099571431 0.04314762 0.69700003 16711422
-0.0086295241 0.04314762 0.69700003 15592941
-0.0075009526 0.044323809 0.71600002 14860489
-0.0061200005 0.044200003 0.71400005 11307667
-0.0047533335 0.0441381 0.71300006 13995789
-0.0033952384 0.0441381 0.71300006 15114270
-0.0020371431 0.0441381 0.71300006 13668128
-0.00067904766 0.0441381 0.71300006 13141784
0.00067714287 0.044014286 0.71100003 13274368
0.0020314287 0.044014286 0.71100003 13537537
0.0033857143 0.044014286 0.71100003 13404697
0.0047400002 0.044014286 0.71100003 13470490
0.0060942858 0.044014286 0.71100003 13602328
0.0074485713 0.044014286 0.71100003 13602328
0.0087904762 0.043952383 0.71000004 13536024
0.010142857 0.043952383 0.71000004 13207059
0.011495238 0.043952383 0.71000004 13600277
0.01284762 0.043952383 0.71000004 13863449
0.014200001 0.043952383 0.71000004 13797406
0.015552383 0.043952383 0.71000004 13534234
0.016904762 0.043952383 0.71000004 13797136
0.018257145 0.043952383 0.71000004 14126101
0.019637143 0.044014286 0.71100003 13666331
0.020991428 0.044014286 0.71100003 13403159
0.022314286 0.043952383 0.71000004 12879134
0.023666669 0.043952383 0.71000004 12747548
0.025054287 0.044014286 0.71100003 12157978
0.026408572 0.044014286 0.71100003 13079080
0.027762858 0.044014286 0.71100003 12358247
0.029199049 0.0441381 0.71300006 12292454
-0.072760001 0.045560002 0.71400005 11629908
-0.071400002 0.045560002 0.71400005 11498322
-0.070236191 0.04568762 0.71600002 14789376
-0.068872385 0.04568762 0.71600002 16171008
-0.067508571 0.04568762 0.71600002 15576406
-0.066144764 0.04568762 0.71600002 15313234
-0.064599998 0.045560002 0.71400005 15313464
-0.063151434 0.045496192 0.71300006 15379257
-0.061793335 0.045496192 0.71300006 15051057
-0.060520004 0.045560002 0.71400005 15051057
-0.059160002 0.045560002 0.71400005 14852411
-0.057800002 0.045560002 0.71400005 15115583
-0.056440003 0.045560002 0.71400005 14852430
-0.055080004 0.045560002 0.71400005 14260293
-0.053720001 0.045560002 0.71400005 14588978
-0.052360002 0.045560002 0.71400005 15575873
-0.051000003 0.045560002 0.71400005 14919712
-0.04964 0.045560002 0.71400005 13998610
-0.048280004 0.045560002 0.71400005 14654239
-0.046920002 0.045560002 0.71400005 15377962
-0.045560002 0.045560002 0.71400005 14786368
-0.0441381 0.045496192 0.71300006 14457403
-0.042780001 0.045496192 0.71300006 13141541
-0.041305717 0.045368571 0.71100003 12154646
-0.03989524 0.045304764 0.71000004 11039488
-0.038325716 0.045049526 0.70600003 14592292
-0.03687619 0.044921909 0.70400006 14207947
-0.035484761 0.044858098 0.70300001 16775930
-0.034048576 0.044730477 0.70100003 16711422
-0.032666668 0.044666667 0.70000005 16448250
-0.031243809 0.044539049 0.69800001 16448250
-0.029914286 0.044539049 0.69800001 16448250
-0.028584762 0.044539049 0.69800001 16514043
-0.027255237 0.044539049 0.69800001 16448250
-0.025925715 0.044539049 0.69800001 16382457
-0.024560954 0.044475239 0.69700003 16448250
-0.023233334 0.044475239 0.69700003 16448250
-0.021905715 0.044475239 0.69700003 16448250
-0.020607619 0.044539049 0.69800001 16448250
-0.019278096 0.044539049 0.69800001 16448250
-0.017922858 0.044475239 0.69700003 16448250
-0.016595239 0.044475239 0.69700003 16448250
-0.015267619 0.044475239 0.69700003 16448250
-0.013940001 0.044475239 0.69700003 16448250
-0.012612381 0.044475239 0.69700003 16448250
-0.011284763 0.044475239 0.69700003 16711422
-0.0099428575 0.044411432 0.69600004 16711422
-0.0086171431 0.044411432 0.69600004 15461355
-0.0074800006 0.045560002 0.71400005 15058120
-0.0061114291 0.045496192 0.71300006 10781575
-0.0047533335 0.045496192 0.71300006 13468672
-0.0033857143 0.045368571 0.71100003 15113482
-0.0020314287 0.045368571 0.71100003 14061600
-0.00067714287 0.045368571 0.71100003 13995807
0.00067619048 0.045304764 0.71000004 13930768
0.0020285714 0.045304764 0.71000004 14062354
0.0033809526 0.045304764 0.71000004 13601826
0.0047333334 0.045304764 0.71000004 13536033
0.0060857143 0.045304764 0.71000004 13667083
0.0074380958 0.045304764 0.71000004 13732876
0.0087904762 0.045304764 0.71000004 13601544
0.010114285 0.045177143 0.708 13338372
0.011462857 0.045177143 0.708 13731863
0.012811428 0.045177143 0.708 14981930
0.01416 0.045177143 0.708 13929012
0.015508572 0.045177143 0.708 13336875
0.016904762 0.045304764 0.71000004 13534475
0.018257145 0.045304764 0.71000004 13600268
0.019637143 0.045368571 0.71100003 13403400
0.020991428 0.045368571 0.71100003 13403400
0.022314286 0.045304764 0.71000004 13076234
0.023666669 0.045304764 0.71000004 13010441
0.025019048 0.045304764 0.71000004 12157978
0.026408572 0.045368571 0.71100003 13013287
0.027762858 0.045368571 0.71100003 12227172
-0.072760001 0.046920002 0.71400005 11564869
-0.071400002 0.046920002 0.71400005 10906939
-0.07004001 0.046920002 0.71400005 13400832
-0.068680003 0.046920002 0.71400005 15440396
-0.067320004 0.046920002 0.71400005 15178037
-0.065960005 0.046920002 0.71400005 14914865
-0.064599998 0.046920002 0.71400005 14980917
-0.063151434 0.046854287 0.71300006 15309882
-0.061793335 0.046854287 0.71300006 15375936
-0.060435243 0.046854287 0.71300006 15375936
-0.059077147 0.046854287 0.71300006 15507000
-0.057719052 0.046854287 0.71300006 15835965
-0.056360956 0.046854287 0.71300006 15836487
-0.055002861 0.046854287 0.71300006 15178557
-0.053720001 0.046920002 0.71400005 15375155
-0.05228667 0.046854287 0.71300006 16164671
-0.050928578 0.046854287 0.71300006 15640105
-0.049570478 0.046854287 0.71300006 14455831
-0.048212387 0.046854287 0.71300006 15309568
-0.046854287 0.046854287 0.71300006 16296448
-0.045496192 0.046854287 0.71300006 15773202
-0.0441381 0.046854287 0.71300006 14786307
-0.042660002 0.046722859 0.71100003 13734144
-0.041247621 0.046657145 0.71000004 13010432
-0.039782856 0.046525717 0.708 10840320
-0.038217146 0.04626286 0.70400006 13866781
-0.036823809 0.046197142 0.70300001 14206893
-0.035333335 0.046000004 0.70000005 16776418
-0.033854287 0.045802858 0.69700003 16711422
-0.032526664 0.045802858 0.69700003 16448250
-0.031199049 0.045802858 0.69700003 16448250
-0.02987143 0.045802858 0.69700003 16448250
-0.028543809 0.045802858 0.69700003 16448250
-0.027216192 0.045802858 0.69700003 16448250
-0.025888572 0.045802858 0.69700003 16316664
-0.024560954 0.045802858 0.69700003 16448250
-0.023233334 0.045802858 0.69700003 16514043
-0.021905715 0.045802858 0.69700003 16448250
-0.020578096 0.045802858 0.69700003 16448250
-0.019250477 0.045802858 0.69700003 16448250
-0.017922858 0.045802858 0.69700003 16448250
-0.016595239 0.045802858 0.69700003 16448250
-0.015267619 0.045802858 0.69700003 16448250
-0.013940001 0.045802858 0.69700003 16448250
-0.012594286 0.045737144 0.69600004 16448250
-0.011268572 0.045737144 0.69600004 16711422
-0.0099428575 0.045737144 0.69600004 16711422
-0.0086171431 0.045737144 0.69600004 15395562
-0.0074800006 0.046920002 0.71400005 15125197
-0.0061114291 0.046854287 0.71300006 10453894
-0.0047400002 0.046722859 0.71100003 13270016
-0.0033809526 0.046657145 0.71000004 14585857
-0.0020285714 0.046657145 0.71000004 14192162
-0.00067619048 0.046657145 0.71000004 14257955
0.00067619048 0.046657145 0.71000004 14061078
0.0020285714 0.046657145 0.71000004 14061078
0.0033809526 0.046657145 0.71000004 13732383
0.0047333334 0.046657145 0.71000004 13206039
0.0060857143 0.046657145 0.71000004 13337088
0.0074171429 0.046525717 0.708 13534464
0.0087657142 0.046525717 0.708 13403392
0.010114285 0.046525717 0.708 13600770
0.011462857 0.046525717 0.708 13731865
0.012811428 0.046525717 0.708 14060830
0.01414 0.046459999 0.70700002 13797926
0.015486666 0.046459999 0.70700002 13337375
0.016833335 0.046459999 0.70700002 13009153
0.01818 0.046459999 0.70700002 13140739
0.019609524 0.046657145 0.71000004 13008896
0.020902857 0.046525717 0.708 13140482
0.022251429 0.046525717 0.708 13272073
0.023600001 0.046525717 0.708 13008901
0.025019048 0.046657145 0.71000004 12091665
0.026371431 0.046657145 0.71000004 13012767
0.027762858 0.046722859 0.71100003 12161374
-0.073808573 0.048077144 0.71100003 10912854
-0.072454289 0.048077144 0.71100003 11433808
-0.071100004 0.048077144 0.71100003 11302222
-0.069745712 0.048077144 0.71100003 13204738
-0.068391435 0.048077144 0.71100003 13665289
-0.067037143 0.048077144 0.71100003 13598464
-0.065682858 0.048077144 0.71100003 13466880
-0.064328574 0.048077144 0.71100003 13532416
-0.062974289 0.048077144 0.71100003 13598208
-0.061620004 0.048077144 0.71100003 13664256
-0.060435243 0.048212387 0.71300006 13598464
-0.058911432 0.048077144 0.71100003 13598208
-0.057557143 0.048077144 0.71100003 13927168
-0.056202859 0.048077144 0.71100003 13664512
-0.055002861 0.048212387 0.71300006 13730304
-0.053644765 0.048212387 0.71300006 14058752
-0.052140001 0.048077144 0.71100003 15440384
-0.050785713 0.048077144 0.71100003 15243798
-0.049431432 0.048077144 0.71100003 15572763
-0.048077144 0.048077144 0.71100003 15910147
-0.046722859 0.048077144 0.71100003 16768026
-0.045368571 0.048077144 0.71100003 16178256
-0.043952383 0.048009526 0.71000004 15586119
-0.042600002 0.048009526 0.71000004 15980032
-0.041247621 0.048009526 0.71000004 16308992
-0.039782856 0.047874287 0.708 14930688
-0.038162857 0.047536191 0.70300001 13285888
-0.036561903 0.047198098 0.69800001 13418924
-0.035181906 0.04713048 0.69700003 16776680
-0.033805717 0.047062859 0.69600004 16711422
-0.032386668 0.04692762 0.69400001 16514043
-0.031064762 0.04692762 0.69400001 16448250
-0.029742856 0.04692762 0.69400001 16448250
-0.028420953 0.04692762 0.69400001 16448250
-0.027177144 0.047062859 0.69600004 16448250
-0.025851429 0.047062859 0.69600004 16448250
-0.024525715 0.047062859 0.69600004 16448250
-0.0232 0.047062859 0.69600004 16448250
-0.021874286 0.047062859 0.69600004 16448250
-0.020489523 0.04692762 0.69400001 16448250
-0.019167619 0.04692762 0.69400001 16448250
-0.017845714 0.04692762 0.69400001 16448250
-0.01652381 0.04692762 0.69400001 16448250
-0.015245715 0.047062859 0.69600004 16448250
-0.013920001 0.047062859 0.69600004 16448250
-0.012594286 0.047062859 0.69600004 16514043
-0.011268572 0.047062859 0.69600004 16711422
-0.0099428575 0.047062859 0.69600004 16711422
-0.0086171431 0.047062859 0.69600004 15066597
-0.0072914292 0.047062859 0.69600004 15387855
-0.0060857143 0.048009526 0.71000004 10716552
-0.0047199996 0.047874287 0.708 13072640
-0.0033714285 0.047874287 0.708 14388480
-0.0020228571 0.047874287 0.708 13929494
-0.00067428569 0.047874287 0.708 13732115
0.00067428569 0.047874287 0.708 13732106
0.0020228571 0.047874287 0.708 13797899
0.0033666666 0.047806669 0.70700002 13600520
0.0047133337 0.047806669 0.70700002 13205762
0.00606 0.047806669 0.70700002 13271555
0.0074171429 0.047874287 0.708 13337348
0.0087657142 0.047874287 0.708 13205762
0.010100001 0.047806669 0.70700002 13205762
0.011446667 0.047806669 0.70700002 13336576
0.012793333 0.047806669 0.70700002 13402368
0.01414 0.047806669 0.70700002 13270792
0.015464762 0.047739051 0.70600003 13270792
0.016809525 0.047739051 0.70600003 13073935
0.018154286 0.047739051 0.70600003 13139728
0.019526666 0.047806669 0.70700002 13073935
0.020873332 0.047806669 0.70700002 12942349
0.022220001 0.047806669 0.70700002 12943360
0.023566667 0.047806669 0.70700002 12877568
0.024948573 0.047874287 0.708 11960074
0.026297143 0.047874287 0.708 13407520
-0.073808573 0.049431432 0.71100003 10847063
-0.07235238 0.049361907 0.71000004 11564869
-0.071000002 0.049361907 0.71000004 11433283
-0.069647625 0.049361907 0.71000004 12744192
-0.06829524 0.049361907 0.71000004 13073152
-0.066942856 0.049361907 0.71000004 13204480
-0.065590478 0.049361907 0.71000004 13072896
-0.064238101 0.049361907 0.71000004 13006336
-0.062885717 0.049361907 0.71000004 13072128
-0.061533332 0.049361907 0.71000004 12941312
-0.060265716 0.049431432 0.71100003 13007104
-0.058911432 0.049431432 0.71100003 12743424
-0.057557143 0.049431432 0.71100003 13138176
-0.056123812 0.049361907 0.71000004 12613376
-0.054771431 0.049361907 0.71000004 13073920
-0.05341905 0.049361907 0.71000004 13337600
-0.052066669 0.049361907 0.71000004 15179784
-0.050714288 0.049361907 0.71000004 15642368
-0.049361907 0.049361907 0.71000004 15773952
-0.048009526 0.049361907 0.71000004 16179459
-0.046657145 0.049361907 0.71000004 16773652
-0.045304764 0.049361907 0.71000004 16382558
-0.043952383 0.049361907 0.71000004 16316765
-0.042479999 0.049222857 0.708 16315701
-0.041131429 0.049222857 0.708 16776766
-0.039726667 0.049153332 0.70700002 16313426
-0.038000003 0.048666667 0.70000005 12629018
-0.036561903 0.048527621 0.69800001 13350261
-0.035181906 0.048458096 0.69700003 16777151
-0.033805717 0.048388574 0.69600004 16711422
-0.032386668 0.04824952 0.69400001 16645629
-0.031064762 0.04824952 0.69400001 16514043
-0.029700002 0.048179999 0.69300002 16448250
-0.028380001 0.048179999 0.69300002 16448250
-0.027099047 0.04824952 0.69400001 16448250
-0.025777142 0.04824952 0.69400001 16448250
-0.024455238 0.04824952 0.69400001 16448250
-0.023133334 0.04824952 0.69400001 16448250
-0.021811429 0.04824952 0.69400001 16448250
-0.020489523 0.04824952 0.69400001 16448250
-0.019167619 0.04824952 0.69400001 16448250
-0.017845714 0.04824952 0.69400001 16448250
-0.01652381 0.04824952 0.69400001 16448250
-0.015201905 0.04824952 0.69400001 16448250
-0.01388 0.04824952 0.69400001 16514043
-0.012558095 0.04824952 0.69400001 16514043
-0.011236191 0.04824952 0.69400001 16711422
-0.0099142855 0.04824952 0.69400001 16645629
-0.0086171431 0.048388574 0.69600004 15000804
-0.0072914292 0.048388574 0.69600004 15387855
-0.0060000001 0.048666667 0.70000005 10453380
-0.0047133337 0.049153332 0.70700002 12809216
-0.0033666666 0.049153332 0.70700002 14256644
-0.00202 0.049153332 0.70700002 13797915
-0.00067333336 0.049153332 0.70700002 13271571
0.00067333336 0.049153332 0.70700002 13402624
0.0020171429 0.04908381 0.70600003 13534209
0.003361905 0.04908381 0.70600003 13337344
0.0047066668 0.04908381 0.70600003 13205760
0.00606 0.049153332 0.70700002 13140480
0.0074066669 0.049153332 0.70700002 13074688
0.0087533332 0.049153332 0.70700002 12943104
0.010100001 0.049153332 0.70700002 12811520
0.011430477 0.04908381 0.70600003 13072128
0.012775239 0.04908381 0.70600003 13072128
0.01412 0.04908381 0.70600003 13071875
0.015464762 0.04908381 0.70600003 12940289
0.016809525 0.04908381 0.70600003 12742912
0.018154286 0.04908381 0.70600003 13269248
0.019526666 0.049153332 0.70700002 12942336
0.020873332 0.049153332 0.70700002 13073920
0.022220001 0.049153332 0.70700002 13007899
0.023566667 0.049153332 0.70700002 12678934
0.024913333 0.049153332 0.70700002 11366144
0.026297143 0.049222857 0.708 13471503
-0.073808573 0.050785713 0.71100003 10847063
-0.07235238 0.050714288 0.71000004 11301961
-0.071000002 0.050714288 0.71000004 10972996
-0.069647625 0.050714288 0.71000004 12217088
-0.06829524 0.050714288 0.71000004 12282880
-0.066942856 0.050714288 0.71000004 12281088
-0.065590478 0.050714288 0.71000004 12478464
-0.064057142 0.050571427 0.708 12215552
-0.062708572 0.050571427 0.708 12412928
-0.061360002 0.050571427 0.708 12479488
-0.060180955 0.050714288 0.71000004 14584846
-0.058828574 0.050714288 0.71000004 14920192
-0.057476193 0.050714288 0.71000004 15972864
-0.056123812 0.050714288 0.71000004 16048640
-0.054771431 0.050714288 0.71000004 16246016
-0.05341905 0.050714288 0.71000004 16251136
-0.051919997 0.050571427 0.708 16776960
-0.050571427 0.050571427 0.708 16383757
-0.049222857 0.050571427 0.708 16711442
-0.047874287 0.050571427 0.708 16514901
-0.046525717 0.050571427 0.708 16514901
-0.045177143 0.050571427 0.708 16514895
-0.043828573 0.050571427 0.708 16514895
-0.042479999 0.050571427 0.708 16514899
-0.041131429 0.050571427 0.708 16711510
-0.039333336 0.050000004 0.70000005 16448300
-0.038000003 0.050000004 0.70000005 12171776
-0.036561903 0.049857143 0.69800001 12891040
-0.035181906 0.049785715 0.69700003 16312276
-0.033805717 0.04971429 0.69600004 16711674
-0.032340001 0.049500003 0.69300002 16711674
-0.031019999 0.049500003 0.69300002 16711422
-0.029700002 0.049500003 0.69300002 16514043
-0.028380001 0.049500003 0.69300002 16448250
-0.027099047 0.049571428 0.69400001 16448250
-0.025777142 0.049571428 0.69400001 16448250
-0.024455238 0.049571428 0.69400001 16448250
-0.023133334 0.049571428 0.69400001 16448250
-0.021780001 0.049500003 0.69300002 16448250
-0.02046 0.049500003 0.69300002 16448250
-0.01914 0.049500003 0.69300002 16448250
-0.017820001 0.049500003 0.69300002 16448250
-0.0165 0.049500003 0.69300002 16448250
-0.01518 0.049500003 0.69300002 16448250
-0.01386 0.049500003 0.69300002 16514043
-0.01254 0.049500003 0.69300002 16514043
-0.011236191 0.049571428 0.69400001 16645629
-0.0099142855 0.049571428 0.69400001 16645629
-0.0085923811 0.049571428 0.69400001 14869218
-0.0072914292 0.04971429 0.69600004 15715517
-0.0059742858 0.049785715 0.69700003 10123112
-0.0047066668 0.050428573 0.70600003 12544768
-0.003361905 0.050428573 0.70600003 13926403
-0.0020171429 0.050428573 0.70600003 13204738
-0.00067238096 0.050428573 0.70600003 12875776
0.00067238096 0.050428573 0.70600003 13072896
0.0020171429 0.050428573 0.70600003 13007104
0.003361905 0.050428573 0.70600003 13006592
0.0047066668 0.050428573 0.70600003 13072384
0.0060514286 0.050428573 0.70600003 12941824
0.0073961904 0.050428573 0.70600003 12941824
0.0087409532 0.050428573 0.70600003 12809472
0.010085714 0.050428573 0.70600003 12743680
0.011430477 0.050428573 0.70600003 12808192
0.012775239 0.050428573 0.70600003 12939776
0.01412 0.050428573 0.70600003 12941066
0.015420954 0.050285716 0.70400006 13072652
0.016761906 0.050285716 0.70400006 12877324
0.018102858 0.050285716 0.70400006 13074703
0.019526666 0.050500002 0.70700002 13010443
0.020873332 0.050500002 0.70700002 13405201
0.022220001 0.050500002 0.70700002 13339191
0.023566667 0.050500002 0.70700002 12352296
0.024913333 0.050500002 0.70700002 11299351
0.02626 0.050500002 0.70700002 13141555
-0.073808573 0.052140001 0.71100003 10189133
-0.07235238 0.052066669 0.71000004 11102763
-0.071000002 0.052066669 0.71000004 10971177
-0.069451429 0.051919997 0.708 11953664
-0.068102859 0.051919997 0.708 12019456
-0.066565715 0.051773336 0.70600003 11625216
-0.065220952 0.051773336 0.70600003 12085760
-0.063876189 0.051773336 0.70600003 12153344
-0.062531434 0.051773336 0.70600003 13798151
-0.061186668 0.051773336 0.70600003 14659072
-0.060011428 0.051919997 0.708 15251200
-0.058662858 0.051919997 0.708 15910656
-0.057314284 0.051919997 0.708 16436992
-0.055965714 0.051919997 0.708 16183808
-0.05461714 0.051919997 0.708 16776960
-0.05326857 0.051919997 0.708 16449331
-0.051919997 0.051919997 0.708 16449331
-0.050428573 0.051773336 0.70600003 16449335
-0.04908381 0.051773336 0.70600003 16580409
-0.047806669 0.051846668 0.70700002 16580440
-0.046459999 0.051846668 0.70700002 16711514
-0.045113333 0.051846668 0.70700002 16514928
-0.043766666 0.051846668 0.70700002 16318317
-0.04242 0.051846668 0.70700002 16514899
-0.041015241 0.051773336 0.70600003 16777047
-0.039333336 0.051333338 0.70000005 16513410
-0.038000003 0.051333338 0.70000005 12697416
-0.036561903 0.05118667 0.69800001 12891016
-0.035181906 0.051113334 0.69700003 15983287
-0.033660002 0.05082 0.69300002 15657187
-0.032340001 0.05082 0.69300002 16709875
-0.031019999 0.05082 0.69300002 16711422
-0.029614286 0.050673336 0.69100004 16645629
-0.028298097 0.050673336 0.69100004 16514043
-0.02706 0.05082 0.69300002 16448250
-0.025739999 0.05082 0.69300002 16448250
-0.024420001 0.05082 0.69300002 16448250
-0.0231 0.05082 0.69300002 16448250
-0.021717144 0.050673336 0.69100004 16448250
-0.020400954 0.050673336 0.69100004 16448250
-0.019084763 0.050673336 0.69100004 16448250
-0.017768573 0.050673336 0.69100004 16448250
-0.016452381 0.050673336 0.69100004 16448250
-0.01518 0.05082 0.69300002 16448250
-0.01386 0.05082 0.69300002 16579836
-0.01254 0.05082 0.69300002 16645629
-0.01122 0.05082 0.69300002 16645629
-0.0099142855 0.050893333 0.69400001 16577533
-0.0085923811 0.050893333 0.69400001 13682641
-0.0072914292 0.051040001 0.69600004 15052192
-0.0059742858 0.051113334 0.69700003 11433577
-0.0046933335 0.051626671 0.70400006 12808704
-0.0033523811 0.051626671 0.70400006 13861376
-0.0020114288 0.051626671 0.70400006 13401134
-0.00067047623 0.051626671 0.70400006 13269548
0.00067047623 0.051626671 0.70400006 13270562
0.0020114288 0.051626671 0.70400006 12941597
0.0033523811 0.051626671 0.70400006 13006592
0.0046933335 0.051626671 0.70400006 13598720
0.0060342862 0.051626671 0.70400006 13534223
0.0073752385 0.051626671 0.70400006 13600016
0.0087161912 0.051626671 0.70400006 13533490
0.010057143 0.051626671 0.70400006 13072939
0.011398097 0.051626671 0.70400006 13139712
0.012739048 0.051626671 0.70400006 13995008
0.014080001 0.051626671 0.70400006 13995858
0.015420954 0.051626671 0.70400006 14456409
0.016761906 0.051626671 0.70400006 13998177
0.018102858 0.051626671 0.70400006 13932384
0.019499049 0.051773336 0.70600003 13801302
0.020843811 0.051773336 0.70600003 14064474
0.022188572 0.051773336 0.70600003 14261358
0.023533335 0.051773336 0.70600003 11892810
