# .PCD v0.7 - Point Cloud Data file format
VERSION 0.7
FIELDS x y z rgb
SIZE 4 4 4 4
TYPE F F F F
COUNT 1 1 1 1
WIDTH 973
HEIGHT 1
VIEWPOINT 0 0 0 1 0 0 0
POINTS 973
DATA ascii
-0.068700954 0.080601908 0.56800002 1.8492656e-39
-0.067619048 0.080601908 0.56800002 1.9414598e-39
-0.066537149 0.080601908 0.56800002 2.126207e-39
-0.065455243 0.080601908 0.56800002 2.3105954e-39
-0.064373337 0.080601908 0.56800002 2.8616364e-39
-0.06329143 0.080601908 0.56800002 2.4928539e-39
-0.062209524 0.080601908 0.56800002 2.0315282e-39
-0.061127625 0.080601908 0.56800002 2.4925064e-39
-0.060045715 0.080601908 0.56800002 2.5857558e-39
-0.058963813 0.080601908 0.56800002 2.4013645e-39
-0.057881907 0.080601908 0.56800002 1.9403892e-39
-0.056800004 0.080601908 0.56800002 2.7701499e-39
-0.055718098 0.080601908 0.56800002 2.6786549e-39
-0.054732382 0.080743805 0.56900001 2.4020722e-39
-0.053648572 0.080743805 0.56900001 2.0318758e-39
-0.052749529 0.08102762 0.57100004 2.216267e-39
-0.051661909 0.08102762 0.57100004 1.8492656e-39
-0.05066286 0.081169531 0.57200003 2.3102367e-39
-0.049660001 0.081311427 0.57300001 2.4027897e-39
-0.048568573 0.081311427 0.57300001 2.4949839e-39
-0.047477145 0.081311427 0.57300001 2.4027897e-39
-0.046466667 0.081453331 0.574 3.7857143e-39
-0.045689523 0.082020953 0.57800001 4.9806407e-39
-0.04466572 0.082162865 0.57900006 6.5479636e-39
-0.043562863 0.082162865 0.57900006 8.2921402e-39
-0.042533338 0.082304768 0.58000004 9.1219009e-39
-0.041499998 0.082446672 0.58100003 9.3985144e-39
-0.040462855 0.082588576 0.58200002 9.9516882e-39
-0.039354287 0.082588576 0.58200002 1.0507013e-38
-0.038311429 0.08273048 0.583 1.2074339e-38
-0.037200954 0.08273048 0.583 1.4377078e-38
-0.036214288 0.083014295 0.58500004 1.9632229e-38
-0.03534 0.08358191 0.58900005 1.9725137e-38
-0.034218099 0.08358191 0.58900005 1.944855e-38
-0.033152383 0.083723813 0.59000003 1.9540733e-38
-0.032028571 0.083723813 0.59000003 1.9632929e-38
-0.030957144 0.083865717 0.59100002 1.9262351e-38
-0.029881904 0.084007621 0.59200001 1.9354547e-38
-0.028754286 0.084007621 0.59200001 1.9447108e-38
-0.027673336 0.084149532 0.59300005 1.898613e-38
-0.026588572 0.084291428 0.59400004 1.8986846e-38
-0.025500001 0.08443334 0.59500003 1.8710259e-38
-0.02444857 0.084717147 0.597 1.8802076e-38
-0.023311427 0.084717147 0.597 2.1291358e-38
-0.095122859 0.084991433 0.59100002 1.7420947e-38
-0.093838103 0.084847622 0.59000003 1.7696484e-38
-0.092714287 0.084847622 0.59000003 1.7512093e-38
-0.091435239 0.084703818 0.58900005 1.7328013e-38
-0.090159997 0.084559999 0.588 1.4101166e-38
-0.088888571 0.084416188 0.58700001 1.3365068e-38
-0.087770477 0.084416188 0.58700001 1.2996285e-38
-0.086504765 0.084272377 0.58600003 1.2719356e-38
-0.08524286 0.084128574 0.58500004 1.2719356e-38
-0.083409533 0.083409533 0.58000004 1.1889614e-38
-0.082162865 0.083265722 0.57900006 1.1152049e-38
-0.080920003 0.083121903 0.57800001 1.0506661e-38
-0.079680949 0.0829781 0.57700002 9.8612918e-39
-0.078581907 0.0829781 0.57700002 8.2053984e-39
-0.077079996 0.082546666 0.574 7.4678334e-39
-0.075986668 0.082546666 0.574 6.6401915e-39
-0.074632384 0.082259052 0.57200003 5.3494527e-39
-0.073414288 0.082115248 0.57100004 5.4402176e-39
-0.072073333 0.081827618 0.56900001 4.9792394e-39
-0.070989527 0.081827618 0.56900001 4.3363573e-39
-0.069905713 0.081827618 0.56900001 4.0597746e-39
-0.068700954 0.081683815 0.56800002 3.41585e-39
-0.067619048 0.081683815 0.56800002 3.2314615e-39
-0.066654287 0.081827618 0.56900001 2.2198361e-39
-0.065455243 0.081683815 0.56800002 2.4964202e-39
-0.064373337 0.081683815 0.56800002 2.1265881e-39
-0.063402854 0.081827618 0.56900001 1.7578056e-39
-0.062319044 0.081827618 0.56900001 2.1265881e-39
-0.061235234 0.081827618 0.56900001 2.3109794e-39
-0.060151428 0.081827618 0.56900001 2.0343925e-39
-0.058963813 0.081683815 0.56800002 1.66561e-39
-0.057881907 0.081683815 0.56800002 2.1240714e-39
-0.056800004 0.081683815 0.56800002 3.4148102e-39
-0.055718098 0.081683815 0.56800002 3.2286071e-39
-0.054924767 0.082115248 0.57100004 3.1364114e-39
-0.053837147 0.082115248 0.57100004 3.9647624e-39
-0.052749529 0.082115248 0.57100004 5.6242837e-39
-0.051661909 0.082115248 0.57100004 6.0851806e-39
-0.05066286 0.082259052 0.57200003 6.3617675e-39
-0.049660001 0.082402855 0.57300001 6.3635822e-39
-0.048653331 0.082546666 0.574 7.0089516e-39
-0.047559999 0.082546666 0.574 7.1929925e-39
-0.046547621 0.082690477 0.57500005 7.9305576e-39
-0.045689523 0.083121903 0.57800001 8.5730627e-39
-0.04466572 0.083265722 0.57900006 8.757454e-39
-0.043562863 0.083265722 0.57900006 9.6765138e-39
-0.042533338 0.083409533 0.58000004 1.0229688e-38
-0.041499998 0.083553337 0.58100003 1.0504872e-38
-0.040393334 0.083553337 0.58100003 1.0781459e-38
-0.039421905 0.083840951 0.583 1.133749e-38
-0.038311429 0.083840951 0.583 1.5670684e-38
-0.037200954 0.083840951 0.583 1.6683418e-38
-0.036090475 0.083840951 0.583 1.981807e-38
-0.035040002 0.08398477 0.58400005 1.981731e-38
-0.034159999 0.084559999 0.588 1.9448527e-38
-0.033152383 0.084847622 0.59000003 1.9540367e-38
-0.032028571 0.084847622 0.59000003 1.9355976e-38
-0.030957144 0.084991433 0.59100002 1.898649e-38
-0.02983143 0.084991433 0.59100002 1.898649e-38
-0.028754286 0.085135236 0.59200001 1.9079042e-38
-0.027673336 0.085279055 0.59300005 1.8802455e-38
-0.026588572 0.085422866 0.59400004 1.8433319e-38
-0.025500001 0.08556667 0.59500003 1.8248928e-38
-0.02440762 0.085710481 0.59600002 1.8525133e-38
-0.023311427 0.085854284 0.597 2.0553437e-38
-0.095122859 0.086117148 0.59100002 1.7236931e-38
-0.093679056 0.085825719 0.58900005 1.7513169e-38
-0.092557147 0.085825719 0.58900005 1.7052191e-38
-0.091124758 0.085534289 0.58700001 1.5946908e-38
-0.090006672 0.085534289 0.58700001 1.3457626e-38
-0.088737145 0.085388578 0.58600003 1.3365431e-38
-0.087620959 0.085388578 0.58600003 1.3088844e-38
-0.086357147 0.08524286 0.58500004 1.2258015e-38
-0.085097149 0.085097149 0.58400005 1.2442407e-38
-0.083265722 0.084368579 0.57900006 1.262681e-38
-0.082162865 0.084368579 0.57900006 1.179705e-38
-0.080920003 0.084222853 0.57800001 1.2072897e-38
-0.079819046 0.084222853 0.57800001 1.0874354e-38
-0.078718096 0.084222853 0.57800001 9.676553e-39
-0.077214286 0.08378572 0.57500005 9.1233793e-39
-0.07611905 0.08378572 0.57500005 8.0199254e-39
-0.075023815 0.08378572 0.57500005 7.5589472e-39
-0.073799998 0.083639994 0.574 7.0067964e-39
-0.072453335 0.08334858 0.57200003 6.0848401e-39
-0.071239047 0.083202861 0.57100004 4.7973355e-39
-0.070028573 0.08305715 0.57000005 5.0739224e-39
-0.06894286 0.08305715 0.57000005 4.800962e-39
-0.067857146 0.08305715 0.57000005 3.325832e-39
-0.066654287 0.082911424 0.56900001 2.7730015e-39
-0.065570474 0.082911424 0.56900001 3.0495842e-39
-0.064486668 0.082911424 0.56900001 3.415892e-39
-0.063514285 0.08305715 0.57000005 3.415892e-39
-0.062319044 0.082911424 0.56900001 3.7846773e-39
-0.061235234 0.082911424 0.56900001 3.3236992e-39
-0.060151428 0.082911424 0.56900001 2.6804513e-39
-0.059067618 0.082911424 0.56900001 3.3258208e-39
-0.057983808 0.082911424 0.56900001 4.5214941e-39
-0.056899998 0.082911424 0.56900001 4.0605159e-39
-0.055816192 0.082911424 0.56900001 4.3342091e-39
-0.055020954 0.08334858 0.57200003 4.8873829e-39
-0.05393143 0.08334858 0.57200003 5.898651e-39
-0.052841906 0.08334858 0.57200003 6.7284116e-39
-0.051752385 0.08334858 0.57200003 7.003544e-39
-0.050751429 0.083494283 0.57300001 7.5567178e-39
-0.049746666 0.083639994 0.574 7.2826672e-39
-0.048738096 0.08378572 0.57500005 8.1124279e-39
-0.047642861 0.08378572 0.57500005 8.1120888e-39
-0.046628572 0.083931431 0.57600003 8.8496538e-39
-0.04561048 0.08407715 0.57700002 9.1240897e-39
-0.04466572 0.084368579 0.57900006 9.8616548e-39
-0.043562863 0.084368579 0.57900006 1.0046039e-38
-0.042460002 0.084368579 0.57900006 1.0322626e-38
-0.041428573 0.08451429 0.58000004 1.0875084e-38
-0.040323813 0.08451429 0.58000004 1.0875084e-38
-0.039286669 0.084660001 0.58100003 1.2534957e-38
-0.038180001 0.084660001 0.58100003 1.7421325e-38
-0.037073337 0.084660001 0.58100003 1.7606453e-38
-0.035966668 0.084660001 0.58100003 1.9081583e-38
-0.03486 0.084660001 0.58100003 1.9355989e-38
-0.033869524 0.084951423 0.583 1.9079402e-38
-0.03281524 0.085097149 0.58400005 1.8802455e-38
-0.031865712 0.085534289 0.58700001 1.889465e-38
-0.030957144 0.086117148 0.59100002 1.8803185e-38
-0.02983143 0.086117148 0.59100002 1.8803185e-38
-0.028754286 0.086262859 0.59200001 1.8711709e-38
-0.027673336 0.086408578 0.59300005 1.8158536e-38
-0.026588572 0.086554289 0.59400004 1.8064534e-38
-0.025500001 0.0867 0.59500003 1.7880142e-38
-0.02440762 0.086845718 0.59600002 1.8063805e-38
-0.09608572 0.087095238 0.59000003 1.7142231e-38
-0.094800957 0.08694762 0.58900005 1.7142231e-38
-0.093520001 0.086800002 0.588 1.714293e-38
-0.092242859 0.086652383 0.58700001 1.5852192e-38
-0.090969525 0.086504765 0.58600003 1.5485564e-38
-0.089853331 0.086504765 0.58600003 1.3549456e-38
-0.088585719 0.086357147 0.58500004 1.3457277e-38
-0.087022856 0.085914284 0.58200002 1.3549473e-38
-0.085914284 0.085914284 0.58200002 1.2442069e-38
-0.08480572 0.085914284 0.58200002 1.2165482e-38
-0.083265722 0.085471436 0.57900006 1.2073639e-38
-0.082020953 0.085323811 0.57800001 1.1889248e-38
-0.080920003 0.085323811 0.57800001 1.1797386e-38
-0.079819046 0.085323811 0.57800001 1.1244212e-38
-0.078718096 0.085323811 0.57800001 1.0598857e-38
-0.077348575 0.085028574 0.57600003 1.0230074e-38
-0.07611905 0.084880956 0.57500005 8.7560667e-39
-0.075023815 0.084880956 0.57500005 8.4794798e-39
-0.073799998 0.084733337 0.574 8.4793999e-39
-0.072580002 0.084585719 0.57300001 8.7559868e-39
-0.071363814 0.0844381 0.57200003 8.020612e-39
-0.070151433 0.084290482 0.57100004 7.8362208e-39
-0.069063812 0.084290482 0.57100004 7.3763314e-39
-0.067976199 0.084290482 0.57100004 7.3763314e-39
-0.066771433 0.084142864 0.57000005 7.1919402e-39
-0.065685719 0.084142864 0.57000005 7.2841358e-39
-0.064600006 0.084142864 0.57000005 7.2841358e-39
-0.063625723 0.084290482 0.57100004 7.3763314e-39
-0.062428575 0.084142864 0.57000005 7.3763314e-39
-0.061342862 0.084142864 0.57000005 7.2841358e-39
-0.060257148 0.084142864 0.57000005 7.1926422e-39
-0.059067618 0.083995238 0.56900001 7.6536204e-39
-0.057983808 0.083995238 0.56900001 7.8362166e-39
-0.056899998 0.083995238 0.56900001 7.8362166e-39
-0.055816192 0.083995238 0.56900001 7.6514736e-39
-0.054924767 0.084290482 0.57100004 8.1124517e-39
-0.05393143 0.0844381 0.57200003 8.0205952e-39
-0.052841906 0.0844381 0.57200003 8.4815734e-39
-0.051842857 0.084585719 0.57300001 8.29648e-39
-0.050839998 0.084733337 0.574 8.3886757e-39
-0.049833339 0.084880956 0.57500005 8.4794224e-39
-0.048822861 0.085028574 0.57600003 8.6638136e-39
-0.047725718 0.085028574 0.57600003 9.3070671e-39
-0.046709526 0.085176192 0.57700002 9.8602408e-39
-0.04561048 0.085176192 0.57700002 9.952777e-39
-0.04466572 0.085471436 0.57900006 1.1335711e-38
-0.043562863 0.085471436 0.57900006 1.1151315e-38
-0.042460002 0.085471436 0.57900006 1.1427901e-38
-0.041428573 0.085619055 0.58000004 1.1336771e-38
-0.040323813 0.085619055 0.58000004 1.345727e-38
-0.039219052 0.085619055 0.58000004 1.3733173e-38
-0.038114291 0.085619055 0.58000004 1.7789781e-38
-0.037009526 0.085619055 0.58000004 1.8249305e-38
-0.035904765 0.085619055 0.58000004 1.8710283e-38
-0.0348 0.085619055 0.58000004 1.898613e-38
-0.033753335 0.085766673 0.58100003 1.9078325e-38
-0.032759048 0.086061902 0.583 1.852516e-38
-0.031648569 0.086061902 0.583 1.8432964e-38
-0.030590478 0.086209528 0.58400005 1.8249655e-38
-0.029478097 0.086209528 0.58400005 1.8341851e-38
-0.028462859 0.086504765 0.58600003 1.8434035e-38
-0.02744 0.086800002 0.588 1.8157448e-38
-0.026633335 0.087833337 0.59500003 1.8248562e-38
-0.025500001 0.087833337 0.59500003 1.7879779e-38
-0.09608572 0.088219054 0.59000003 1.732263e-38
-0.094800957 0.088069528 0.58900005 1.7691413e-38
-0.093360953 0.087770477 0.58700001 1.6865993e-38
-0.092085719 0.087620959 0.58600003 1.5298668e-38
-0.090814285 0.087471433 0.58500004 1.4838766e-38
-0.089700006 0.087471433 0.58500004 1.3824614e-38
-0.088434294 0.087321915 0.58400005 1.3364726e-38
-0.086873338 0.086873338 0.58100003 1.3456921e-38
-0.085766673 0.086873338 0.58100003 1.2995949e-38
-0.08451429 0.086723812 0.58000004 1.2350579e-38
-0.083265722 0.086574294 0.57900006 1.2073993e-38
-0.082020953 0.086424761 0.57800001 1.1889601e-38
-0.080920003 0.086424761 0.57800001 1.1798468e-38
-0.079819046 0.086424761 0.57800001 1.1429685e-38
-0.078718096 0.086424761 0.57800001 1.1151671e-38
-0.077482857 0.086275242 0.57700002 1.0598497e-38
-0.07611905 0.085976198 0.57500005 1.0044247e-38
-0.074893333 0.085826673 0.574 9.8598555e-39
-0.073799998 0.085826673 0.574 9.6754502e-39
-0.072580002 0.085677139 0.57300001 9.491059e-39
-0.071488574 0.085677139 0.57300001 8.7549499e-39
-0.070274286 0.085527621 0.57200003 8.5705586e-39
-0.069063812 0.085378096 0.57100004 7.8354977e-39
-0.067976199 0.085378096 0.57100004 7.7433021e-39
-0.066888571 0.085378096 0.57100004 7.9262514e-39
-0.065800957 0.085378096 0.57100004 8.1106426e-39
-0.064713337 0.085378096 0.57100004 8.3858016e-39
-0.063737147 0.085527621 0.57200003 8.3858016e-39
-0.062538095 0.085378096 0.57100004 8.2943291e-39
-0.061450478 0.085378096 0.57100004 8.2021334e-39
-0.060362861 0.085378096 0.57100004 8.1109958e-39
-0.059171431 0.085228577 0.57000005 8.4797783e-39
-0.058085717 0.085228577 0.57000005 8.3872267e-39
-0.057000004 0.085228577 0.57000005 8.3872267e-39
-0.056012385 0.085378096 0.57100004 7.5592667e-39
-0.054924767 0.085378096 0.57100004 8.1124405e-39
-0.05393143 0.085527621 0.57200003 7.9291184e-39
-0.052841906 0.085527621 0.57200003 8.1135097e-39
-0.051842857 0.085677139 0.57300001 8.2046361e-39
-0.050928578 0.085976198 0.57500005 8.3890274e-39
-0.049833339 0.085976198 0.57500005 9.0304409e-39
-0.048738096 0.085976198 0.57500005 9.1226366e-39
-0.047725718 0.086125717 0.57600003 1.041195e-38
-0.046709526 0.086275242 0.57700002 1.0504146e-38
-0.04561048 0.086275242 0.57700002 1.041195e-38
-0.044588573 0.086424761 0.57800001 1.1518298e-38
-0.04348762 0.086424761 0.57800001 1.1059475e-38
-0.042386666 0.086424761 0.57800001 1.1428257e-38
-0.041357145 0.086574294 0.57900006 1.1153831e-38
-0.040254291 0.086574294 0.57900006 1.4288483e-38
-0.039219052 0.086723812 0.58000004 1.5209001e-38
-0.038114291 0.086723812 0.58000004 1.8067066e-38
-0.037009526 0.086723812 0.58000004 1.8801753e-38
-0.035904765 0.086723812 0.58000004 1.8617361e-38
-0.0348 0.086723812 0.58000004 1.8709187e-38
-0.03369524 0.086723812 0.58000004 1.8709187e-38
-0.032646671 0.086873338 0.58100003 1.7973041e-38
-0.031648569 0.087172382 0.583 1.8157433e-38
-0.030538093 0.087172382 0.583 1.8249641e-38
-0.029478097 0.087321915 0.58400005 1.7788663e-38
-0.028462859 0.087620959 0.58600003 1.7603911e-38
-0.02744 0.087920003 0.588 1.7696107e-38
-0.026319999 0.087920003 0.588 1.8063455e-38
-0.097044773 0.089191437 0.58900005 1.5576354e-38
-0.095922865 0.089191437 0.58900005 1.6219527e-38
-0.094800957 0.089191437 0.58900005 1.67727e-38
-0.093201913 0.088737145 0.58600003 1.6497558e-38
-0.091928579 0.088585719 0.58500004 1.5022428e-38
-0.090659052 0.088434294 0.58400005 1.437922e-38
-0.089546673 0.088434294 0.58400005 1.3549459e-38
-0.088131428 0.088131428 0.58200002 1.3365089e-38
-0.086873338 0.087980002 0.58100003 1.3641676e-38
-0.085619055 0.087828577 0.58000004 1.3088142e-38
-0.084368579 0.087677151 0.57900006 1.2811555e-38
-0.083121903 0.08752571 0.57800001 1.2074002e-38
-0.082020953 0.08752571 0.57800001 1.1797415e-38
-0.080920003 0.08752571 0.57800001 1.1982507e-38
-0.079680949 0.087374285 0.57700002 1.2074703e-38
-0.078581907 0.087374285 0.57700002 1.1520453e-38
-0.077348575 0.087222867 0.57600003 1.1428257e-38
-0.07611905 0.087071441 0.57500005 1.1519723e-38
-0.074893333 0.086920001 0.574 1.1519723e-38
-0.073799998 0.086920001 0.574 1.0598156e-38
-0.072580002 0.086768575 0.57300001 1.0505961e-38
-0.071488574 0.086768575 0.57300001 1.0321569e-38
-0.070397139 0.086768575 0.57300001 1.0044982e-38
-0.069184765 0.086617149 0.57200003 9.4925093e-39
-0.068095237 0.086617149 0.57200003 9.4925093e-39
-0.067005716 0.086617149 0.57200003 9.031534e-39
-0.065800957 0.086465724 0.57100004 8.9393383e-39
-0.064713337 0.086465724 0.57100004 8.47837e-39
-0.063737147 0.086617149 0.57200003 8.3861744e-39
-0.062647626 0.086617149 0.57200003 8.3865247e-39
-0.061450478 0.086465724 0.57100004 8.7553072e-39
-0.060362861 0.086465724 0.57100004 8.4787203e-39
-0.059275243 0.086465724 0.57100004 8.2943291e-39
-0.058187623 0.086465724 0.57100004 8.1117357e-39
-0.057100005 0.086465724 0.57100004 8.7571051e-39
-0.056012385 0.086465724 0.57100004 9.1244428e-39
-0.054924767 0.086465724 0.57100004 9.2166385e-39
-0.05393143 0.086617149 0.57200003 9.2169902e-39
-0.052841906 0.086617149 0.57200003 9.4013815e-39
-0.051842857 0.086768575 0.57300001 1.0598123e-38
-0.050839998 0.086920001 0.574 1.0782514e-38
-0.049746666 0.086920001 0.574 1.0690342e-38
-0.048653331 0.086920001 0.574 1.1059125e-38
-0.047559999 0.086920001 0.574 1.1243139e-38
-0.046547621 0.087071441 0.57500005 1.1243139e-38
-0.045452382 0.087071441 0.57500005 1.1242787e-38
-0.044434287 0.087222867 0.57600003 1.1519374e-38
-0.043337144 0.087222867 0.57600003 1.1612646e-38
-0.042313334 0.087374285 0.57700002 1.2534602e-38
-0.041285716 0.08752571 0.57800001 1.2718653e-38
-0.040184762 0.08752571 0.57800001 1.6037696e-38
-0.039083812 0.08752571 0.57800001 1.6406468e-38
-0.038048577 0.087677151 0.57900006 1.8250381e-38
-0.036945716 0.087677151 0.57900006 1.8250007e-38
-0.035842858 0.087677151 0.57900006 1.7881224e-38
-0.034740005 0.087677151 0.57900006 1.8525515e-38
-0.03369524 0.087828577 0.58000004 1.8525515e-38
-0.032590479 0.087828577 0.58000004 1.7880833e-38
-0.031594284 0.088131428 0.58200002 1.7880833e-38
-0.030485716 0.088131428 0.58200002 1.7789354e-38
-0.029478097 0.088434294 0.58400005 1.7604962e-38
-0.028365716 0.088434294 0.58400005 1.7050735e-38
-0.027393334 0.088888571 0.58700001 1.6958539e-38
-0.026275238 0.088888571 0.58700001 1.7049666e-38
-0.025199998 0.089039996 0.588 1.7049666e-38
-0.098166667 0.090313345 0.58900005 2.0463426e-38
-0.096879996 0.090159997 0.588 1.5023884e-38
-0.095759995 0.090159997 0.588 1.5206096e-38
-0.094318099 0.089853331 0.58600003 1.5667075e-38
-0.093042865 0.089700006 0.58500004 1.5391942e-38
-0.091614284 0.089393333 0.583 1.4930964e-38
-0.090503804 0.089393333 0.583 1.4287031e-38
-0.08924 0.08924 0.58200002 1.3549466e-38
-0.087980002 0.089086674 0.58100003 1.3180337e-38
-0.086723812 0.088933334 0.58000004 1.3272533e-38
-0.085471436 0.088780008 0.57900006 1.3364366e-38
-0.084368579 0.088780008 0.57900006 1.2903387e-38
-0.083121903 0.088626668 0.57800001 1.2719362e-38
-0.082020953 0.088626668 0.57800001 1.2534971e-38
-0.080779999 0.088473335 0.57700002 1.1982507e-38
-0.079680949 0.088473335 0.57700002 1.1798116e-38
-0.078445718 0.088320009 0.57600003 1.197927e-38
-0.077214286 0.088166669 0.57500005 1.2071466e-38
-0.07611905 0.088166669 0.57500005 1.1704114e-38
-0.074893333 0.088013336 0.574 1.1519723e-38
-0.073799998 0.088013336 0.574 1.0046412e-38
-0.07270667 0.088013336 0.574 1.0230803e-38
-0.071488574 0.087860003 0.57300001 1.0598146e-38
-0.070397139 0.087860003 0.57300001 1.0229364e-38
-0.069305718 0.087860003 0.57300001 1.0136072e-38
-0.068214282 0.087860003 0.57300001 9.9516812e-39
-0.067005716 0.08770667 0.57200003 9.4921281e-39
-0.065800957 0.087553337 0.57100004 9.4921281e-39
-0.064713337 0.087553337 0.57100004 9.4006626e-39
-0.063737147 0.08770667 0.57200003 8.8474888e-39
-0.062647626 0.08770667 0.57200003 8.8474818e-39
-0.061558098 0.08770667 0.57200003 9.1240687e-39
-0.060468573 0.08770667 0.57200003 9.1244428e-39
-0.059379049 0.08770667 0.57200003 9.0322472e-39
-0.058289524 0.08770667 0.57200003 8.8493007e-39
-0.0572 0.08770667 0.57200003 8.8493007e-39
-0.056110479 0.08770667 0.57200003 9.4006528e-39
-0.055020954 0.08770667 0.57200003 9.4928484e-39
-0.05393143 0.08770667 0.57200003 9.6765166e-39
-0.052841906 0.08770667 0.57200003 9.9531035e-39
-0.051842857 0.087860003 0.57300001 1.1149861e-38
-0.050751429 0.087860003 0.57300001 1.1057666e-38
-0.049660001 0.087860003 0.57300001 1.0781442e-38
-0.048653331 0.088013336 0.574 1.1334616e-38
-0.047559999 0.088013336 0.574 1.1243136e-38
-0.046466667 0.088013336 0.574 1.1243136e-38
-0.045373332 0.088013336 0.574 1.1335334e-38
-0.044434287 0.088320009 0.57600003 1.1704117e-38
-0.043337144 0.088320009 0.57600003 1.2165092e-38
-0.042240001 0.088320009 0.57600003 1.2718266e-38
-0.041142859 0.088320009 0.57600003 1.3362573e-38
-0.04004572 0.088320009 0.57600003 1.7050399e-38
-0.039016195 0.088473335 0.57700002 1.723514e-38
-0.037982855 0.088626668 0.57800001 1.788051e-38
-0.036881905 0.088626668 0.57800001 1.7422052e-38
-0.035780951 0.088626668 0.57800001 1.7422052e-38
-0.034740005 0.088780008 0.57900006 1.8157096e-38
-0.033637147 0.088780008 0.57900006 1.7788314e-38
-0.032590479 0.088933334 0.58000004 1.6958536e-38
-0.031539999 0.089086674 0.58100003 1.7327319e-38
-0.030433334 0.089086674 0.58100003 1.7512432e-38
-0.02942762 0.089393333 0.583 1.7235845e-38
-0.028365716 0.089546673 0.58400005 1.6589052e-38
-0.0273 0.089700006 0.58500004 1.6681247e-38
-0.026275238 0.090006672 0.58700001 1.6589774e-38
-0.025199998 0.090159997 0.588 1.6497578e-38
-0.024080001 0.090159997 0.588 1.6589767e-38
-0.02299905 0.090313345 0.58900005 1.6774158e-38
-0.021877145 0.090313345 0.58900005 1.8431874e-38
-0.098166667 0.091435239 0.58900005 2.0002064e-38
-0.096715242 0.091124758 0.58700001 1.4470326e-38
-0.09559714 0.091124758 0.58700001 1.4838759e-38
-0.094318099 0.090969525 0.58600003 1.5299737e-38
-0.092883818 0.090659052 0.58400005 1.5023513e-38
-0.091457151 0.090348572 0.58200002 1.4562535e-38
-0.090348572 0.090348572 0.58200002 1.4287021e-38
-0.089086674 0.090193339 0.58100003 1.3918239e-38
-0.087828577 0.090038106 0.58000004 1.327218e-38
-0.086723812 0.090038106 0.58000004 1.327218e-38
-0.085471436 0.089882866 0.57900006 1.3179972e-38
-0.084222853 0.089727625 0.57800001 1.2811189e-38
-0.0829781 0.089572385 0.57700002 1.2811189e-38
-0.08187905 0.089572385 0.57700002 1.2903385e-38
-0.080640003 0.089417152 0.57600003 1.2074343e-38
-0.079404771 0.089261912 0.57500005 1.170556e-38
-0.078309529 0.089261912 0.57500005 1.197927e-38
-0.077079996 0.089106664 0.574 1.2071466e-38
-0.075986668 0.089106664 0.574 1.1612646e-38
-0.074762858 0.088951431 0.57300001 1.1612646e-38
-0.07367143 0.088951431 0.57300001 1.0875812e-38
-0.072580002 0.088951431 0.57300001 1.133679e-38
-0.071363814 0.088796198 0.57200003 1.1428618e-38
-0.070274286 0.088796198 0.57200003 1.1336422e-38
-0.069184765 0.088796198 0.57200003 1.1427178e-38
-0.068095237 0.088796198 0.57200003 1.1242787e-38
-0.067005716 0.088796198 0.57200003 1.1059824e-38
-0.065800957 0.088640958 0.57100004 1.1612998e-38
-0.064713337 0.088640958 0.57100004 1.0875433e-38
-0.063737147 0.088796198 0.57200003 1.0783237e-38
-0.062647626 0.088796198 0.57200003 1.0968329e-38
-0.061558098 0.088796198 0.57200003 1.1244916e-38
-0.060468573 0.088796198 0.57200003 1.0507013e-38
-0.059275243 0.088640958 0.57100004 1.0599209e-38
-0.058187623 0.088640958 0.57100004 1.0690702e-38
-0.057100005 0.088640958 0.57100004 1.115168e-38
-0.056012385 0.088640958 0.57100004 1.1152373e-38
-0.054924767 0.088640958 0.57100004 1.1982133e-38
-0.053837147 0.088640958 0.57100004 1.115272e-38
-0.052749529 0.088640958 0.57100004 1.1244916e-38
-0.051661909 0.088640958 0.57100004 1.1613698e-38
-0.05066286 0.088796198 0.57200003 1.1705894e-38
-0.049660001 0.088951431 0.57300001 1.1612995e-38
-0.048568573 0.088951431 0.57300001 1.1612995e-38
-0.047477145 0.088951431 0.57300001 1.2073253e-38
-0.046466667 0.089106664 0.574 1.234984e-38
-0.045373332 0.089106664 0.574 1.1980352e-38
-0.044357147 0.089261912 0.57500005 1.2533526e-38
-0.043261908 0.089261912 0.57500005 1.225837e-38
-0.042166673 0.089261912 0.57500005 1.37335e-38
-0.041071434 0.089261912 0.57500005 1.4284186e-38
-0.04004572 0.089417152 0.57600003 1.7511033e-38
-0.039016195 0.089572385 0.57700002 1.7327332e-38
-0.037917141 0.089572385 0.57700002 1.714294e-38
-0.036881905 0.089727625 0.57800001 1.7235506e-38
-0.035780951 0.089727625 0.57800001 1.714331e-38
-0.034680001 0.089727625 0.57800001 1.7235129e-38
-0.033637147 0.089882866 0.57900006 1.7327325e-38
-0.03253429 0.089882866 0.57900006 1.6957837e-38
-0.031485714 0.090038106 0.58000004 1.6865642e-38
-0.030380953 0.090038106 0.58000004 1.6681247e-38
-0.029377144 0.090348572 0.58200002 1.6220269e-38
-0.028317142 0.090503804 0.583 1.6219579e-38
-0.027253335 0.090659052 0.58400005 1.640397e-38
-0.026230477 0.090969525 0.58600003 1.6404663e-38
-0.025199998 0.091279998 0.588 1.6035881e-38
-0.024080001 0.091279998 0.588 1.5852221e-38
-0.02299905 0.091435239 0.58900005 1.6589786e-38
-0.021877145 0.091435239 0.58900005 1.7879791e-38
-0.020755239 0.091435239 0.58900005 2.1936398e-38
-0.097666666 0.092085719 0.58600003 1.9448525e-38
-0.09655048 0.092085719 0.58600003 1.4285569e-38
-0.095434286 0.092085719 0.58600003 1.4377778e-38
-0.094157144 0.091928579 0.58500004 1.4654365e-38
-0.092724763 0.091614284 0.583 1.4561816e-38
-0.091457151 0.091457151 0.58200002 1.4285229e-38
-0.090193339 0.091300003 0.58100003 1.4101557e-38
-0.088933334 0.091142863 0.58000004 1.4101557e-38
-0.087677151 0.090985723 0.57900006 1.3271814e-38
-0.086574294 0.090985723 0.57900006 1.3271814e-38
-0.085323811 0.090828575 0.57800001 1.30867e-38
-0.084222853 0.090828575 0.57800001 1.2717917e-38
-0.082690477 0.090357147 0.57500005 1.2534954e-38
-0.081595249 0.090357147 0.57500005 1.2534954e-38
-0.080500007 0.090357147 0.57500005 1.2257291e-38
-0.079266667 0.0902 0.574 1.2257291e-38
-0.078173332 0.0902 0.574 1.2164376e-38
-0.076945715 0.090042859 0.57300001 1.2164376e-38
-0.075854287 0.090042859 0.57300001 1.1795608e-38
-0.074632384 0.089885719 0.57200003 1.1519021e-38
-0.073542856 0.089885719 0.57200003 1.1059475e-38
-0.072453335 0.089885719 0.57200003 1.1520453e-38
-0.071239047 0.089728571 0.57100004 1.1521165e-38
-0.070028573 0.089571439 0.57000005 1.1613361e-38
-0.06894286 0.089571439 0.57000005 1.1704841e-38
-0.067976199 0.089728571 0.57100004 1.1243863e-38
-0.066888571 0.089728571 0.57100004 1.1243136e-38
-0.065800957 0.089728571 0.57100004 1.179631e-38
-0.064713337 0.089728571 0.57100004 1.0966549e-38
-0.063625723 0.089728571 0.57100004 1.1427527e-38
-0.062538095 0.089728571 0.57100004 1.1244928e-38
-0.061450478 0.089728571 0.57100004 1.1152733e-38
-0.060362861 0.089728571 0.57100004 1.0691044e-38
-0.059275243 0.089728571 0.57100004 1.078324e-38
-0.058187623 0.089728571 0.57100004 1.0874005e-38
-0.057100005 0.089728571 0.57100004 1.1519374e-38
-0.056012385 0.089728571 0.57100004 1.1335685e-38
-0.054924767 0.089728571 0.57100004 1.142788e-38
-0.05374286 0.089571439 0.57000005 1.1335685e-38
-0.052657146 0.089571439 0.57000005 1.1612272e-38
-0.051571433 0.089571439 0.57000005 1.1521518e-38
-0.050574288 0.089728571 0.57100004 1.1521518e-38
-0.049573336 0.089885719 0.57200003 1.1612995e-38
-0.048568573 0.090042859 0.57300001 1.1981777e-38
-0.047477145 0.090042859 0.57300001 1.2073973e-38
-0.046385717 0.090042859 0.57300001 1.2166169e-38
-0.045294289 0.090042859 0.57300001 1.1980708e-38
-0.04428 0.0902 0.574 1.2533882e-38
-0.043261908 0.090357147 0.57500005 1.225837e-38
-0.042166673 0.090357147 0.57500005 1.4471065e-38
-0.041071434 0.090357147 0.57500005 1.4931691e-38
-0.039976191 0.090357147 0.57500005 1.7052191e-38
-0.038948573 0.090514295 0.57600003 1.723514e-38
-0.03785143 0.090514295 0.57600003 1.723514e-38
-0.036818095 0.090671428 0.57700002 1.723514e-38
-0.035719048 0.090671428 0.57700002 1.7142945e-38
-0.034680001 0.090828575 0.57800001 1.7050385e-38
-0.033579048 0.090828575 0.57800001 1.7050385e-38
-0.03253429 0.090985723 0.57900006 1.6681966e-38
-0.031431429 0.090985723 0.57900006 1.6497575e-38
-0.030380953 0.091142863 0.58000004 1.6496506e-38
-0.029326668 0.091300003 0.58100003 1.5758941e-38
-0.028268572 0.091457151 0.58200002 1.539124e-38
-0.027253335 0.091771439 0.58400005 1.5852218e-38
-0.026185717 0.091928579 0.58500004 1.6405012e-38
-0.025157144 0.092242859 0.58700001 1.5944034e-38
-0.024080001 0.092399999 0.588 1.5759633e-38
-0.02296 0.092399999 0.588 1.6220611e-38
-0.021877145 0.092557147 0.58900005 1.7694683e-38
-0.020755239 0.092557147 0.58900005 2.1751291e-38
-0.097666666 0.093201913 0.58600003 1.8988616e-38
-0.09655048 0.093201913 0.58600003 1.4102247e-38
-0.095434286 0.093201913 0.58600003 1.4285582e-38
-0.093996197 0.092883818 0.58400005 1.4654365e-38
-0.092724763 0.092724763 0.583 1.4469973e-38
-0.091300003 0.092406675 0.58100003 1.3824604e-38
-0.090038106 0.092247628 0.58000004 1.4100838e-38
-0.088780008 0.09208858 0.57900006 1.3824251e-38
-0.087677151 0.09208858 0.57900006 1.3547311e-38
-0.086424761 0.091929525 0.57800001 1.3547311e-38
-0.085176192 0.091770478 0.57700002 1.3271443e-38
-0.083931431 0.091611437 0.57600003 1.2810465e-38
-0.082690477 0.09145239 0.57500005 1.2442761e-38
-0.081453331 0.091293335 0.574 1.2627152e-38
-0.080359995 0.091293335 0.574 1.2627853e-38
-0.079266667 0.091293335 0.574 1.2535657e-38
-0.078037143 0.091134287 0.57300001 1.2256572e-38
-0.076811425 0.09097524 0.57200003 1.2533159e-38
-0.075721905 0.09097524 0.57200003 1.1704141e-38
-0.074501909 0.0908162 0.57100004 1.1335358e-38
-0.073414288 0.0908162 0.57100004 1.1427904e-38
-0.072200008 0.090657152 0.57000005 1.1704491e-38
-0.070989527 0.090498097 0.56900001 1.1705193e-38
-0.069905713 0.090498097 0.56900001 1.1705193e-38
-0.068821907 0.090498097 0.56900001 1.1705193e-38
-0.067857146 0.090657152 0.57000005 1.1428606e-38
-0.066771433 0.090657152 0.57000005 1.1151671e-38
-0.065685719 0.090657152 0.57000005 1.179704e-38
-0.064600006 0.090657152 0.57000005 1.170519e-38
-0.063625723 0.0908162 0.57100004 1.1336408e-38
-0.062538095 0.0908162 0.57100004 1.1336413e-38
-0.061450478 0.0908162 0.57100004 1.1428609e-38
-0.060362861 0.0908162 0.57100004 1.1520802e-38
-0.059275243 0.0908162 0.57100004 1.1612998e-38
-0.058187623 0.0908162 0.57100004 1.1244229e-38
-0.057000004 0.090657152 0.57000005 1.1613012e-38
-0.05591429 0.090657152 0.57000005 1.1429322e-38
-0.054828573 0.090657152 0.57000005 1.106054e-38
-0.05374286 0.090657152 0.57000005 1.1152382e-38
-0.052657146 0.090657152 0.57000005 1.1797752e-38
-0.051571433 0.090657152 0.57000005 1.1705553e-38
-0.050574288 0.0908162 0.57100004 1.1613358e-38
-0.049486667 0.0908162 0.57100004 1.1706272e-38
-0.048483811 0.09097524 0.57200003 1.1982859e-38
-0.047394291 0.09097524 0.57200003 1.2073624e-38
-0.046385717 0.091134287 0.57300001 1.2350211e-38
-0.045294289 0.091134287 0.57300001 1.2442053e-38
-0.04420286 0.091134287 0.57300001 1.3179618e-38
-0.043111429 0.091134287 0.57300001 1.3363638e-38
-0.042093333 0.091293335 0.574 1.5207551e-38
-0.040999997 0.091293335 0.574 1.5484491e-38
-0.039976191 0.09145239 0.57500005 1.7144012e-38
-0.038880955 0.09145239 0.57500005 1.7143293e-38
-0.03785143 0.091611437 0.57600003 1.6405728e-38
-0.036754288 0.091611437 0.57600003 1.6405365e-38
-0.035657145 0.091611437 0.57600003 1.6497561e-38
-0.034620002 0.091770478 0.57700002 1.6219909e-38
-0.033579048 0.091929525 0.57800001 1.6127714e-38
-0.032478098 0.091929525 0.57800001 1.5482357e-38
-0.031431429 0.09208858 0.57900006 1.5390161e-38
-0.030328574 0.09208858 0.57900006 1.5758941e-38
-0.029326668 0.092406675 0.58100003 1.5297963e-38
-0.028268572 0.092565715 0.58200002 1.5207199e-38
-0.027253335 0.092883818 0.58400005 1.5299395e-38
-0.026185717 0.093042865 0.58500004 1.5208254e-38
-0.025157144 0.093360953 0.58700001 1.5023863e-38
-0.024039049 0.093360953 0.58700001 1.5023144e-38
-0.02296 0.093520001 0.588 1.5945101e-38
-0.021877145 0.093679056 0.58900005 1.7051115e-38
-0.020755239 0.093679056 0.58900005 2.1292114e-38
-0.097666666 0.094318099 0.58600003 1.8803884e-38
-0.09655048 0.094318099 0.58600003 1.3733124e-38
-0.095271431 0.094157144 0.58500004 1.3732055e-38
-0.093996197 0.093996197 0.58400005 1.4193033e-38
-0.092565715 0.093674287 0.58200002 1.4193396e-38
-0.091142863 0.093352385 0.58000004 1.3916809e-38
-0.089882866 0.093191437 0.57900006 1.4100136e-38
-0.088780008 0.093191437 0.57900006 1.3731353e-38
-0.08752571 0.093030475 0.57800001 1.2901578e-38
-0.086275242 0.09286952 0.57700002 1.3454752e-38
-0.085176192 0.09286952 0.57700002 1.3546951e-38
-0.08378572 0.092547625 0.57500005 1.2901581e-38
-0.082546666 0.092386663 0.574 1.2533159e-38
-0.081311427 0.092225716 0.57300001 1.2901941e-38
-0.080219999 0.092225716 0.57300001 1.2719345e-38
-0.079128571 0.092225716 0.57300001 1.2350563e-38
-0.077900954 0.092064768 0.57200003 1.2165099e-38
-0.076677151 0.091903813 0.57100004 1.2165099e-38
-0.075589523 0.091903813 0.57100004 1.1980002e-38
-0.074371435 0.091742866 0.57000005 1.2164393e-38
-0.073285721 0.091742866 0.57000005 1.2165099e-38
-0.072073333 0.091581903 0.56900001 1.2165099e-38
-0.070864767 0.091420956 0.56800002 1.1980701e-38
-0.069782861 0.091420956 0.56800002 1.1980701e-38
-0.068700954 0.091420956 0.56800002 1.179704e-38
-0.067619048 0.091420956 0.56800002 1.1520453e-38
-0.066537149 0.091420956 0.56800002 1.1243139e-38
-0.065570474 0.091581903 0.56900001 1.1980704e-38
-0.064486668 0.091581903 0.56900001 1.2165448e-38
-0.063514285 0.091742866 0.57000005 1.1612275e-38
-0.062538095 0.091903813 0.57100004 1.1611558e-38
-0.061342862 0.091742866 0.57000005 1.1888145e-38
-0.060257148 0.091742866 0.57000005 1.1705193e-38
-0.059067618 0.091581903 0.56900001 1.1612998e-38
-0.057983808 0.091581903 0.56900001 1.1152022e-38
-0.056899998 0.091581903 0.56900001 1.1797392e-38
-0.055816192 0.091581903 0.56900001 1.1706639e-38
-0.054732382 0.091581903 0.56900001 1.1430052e-38
-0.053648572 0.091581903 0.56900001 1.1613358e-38
-0.052564763 0.091581903 0.56900001 1.1705553e-38
-0.051571433 0.091742866 0.57000005 1.1889582e-38
-0.050485719 0.091742866 0.57000005 1.1797386e-38
-0.049486667 0.091903813 0.57100004 1.2350913e-38
-0.04839905 0.091903813 0.57100004 1.2350913e-38
-0.047394291 0.092064768 0.57200003 1.2257644e-38
-0.046304762 0.092064768 0.57200003 1.2534231e-38
-0.045215238 0.092064768 0.57200003 1.2350565e-38
-0.044125713 0.092064768 0.57200003 1.3180326e-38
-0.043111429 0.092225716 0.57300001 1.3639146e-38
-0.042020001 0.092225716 0.57300001 1.5575254e-38
-0.040928572 0.092225716 0.57300001 1.5944037e-38
-0.039906666 0.092386663 0.574 1.6497211e-38
-0.038813334 0.092386663 0.574 1.6129884e-38
-0.037785716 0.092547625 0.57500005 1.5945493e-38
-0.036754288 0.09270858 0.57600003 1.6037316e-38
-0.035657145 0.09270858 0.57600003 1.594512e-38
-0.034620002 0.09286952 0.57700002 1.6035878e-38
-0.033520956 0.09286952 0.57700002 1.5943682e-38
-0.032478098 0.093030475 0.57800001 1.5207548e-38
-0.031431429 0.093191437 0.57900006 1.5207548e-38
-0.030328574 0.093191437 0.57900006 1.5576333e-38
-0.029377144 0.093674287 0.58200002 1.5115355e-38
-0.028268572 0.093674287 0.58200002 1.4931335e-38
-0.027253335 0.093996197 0.58400005 1.4654749e-38
-0.026185717 0.094157144 0.58500004 1.437922e-38
-0.025157144 0.094479047 0.58700001 1.4287024e-38
-0.024039049 0.094479047 0.58700001 1.4839825e-38
-0.02296 0.094640002 0.588 1.6038368e-38
-0.021877145 0.094800957 0.58900005 1.659086e-38
-0.020755239 0.094800957 0.58900005 2.0924054e-38
-0.097666666 0.095434286 0.58600003 1.8435477e-38
-0.09655048 0.095434286 0.58600003 1.308813e-38
-0.095271431 0.095271431 0.58500004 1.3454769e-38
-0.093835235 0.094945714 0.583 1.3823552e-38
-0.092406675 0.094620004 0.58100003 1.4100478e-38
-0.091142863 0.09445715 0.58000004 1.3639499e-38
-0.089882866 0.094294295 0.57900006 1.3270378e-38
-0.088626668 0.094131432 0.57800001 1.3270378e-38
-0.08752571 0.094131432 0.57800001 1.3270009e-38
-0.086275242 0.093968578 0.57700002 1.3362205e-38
-0.084880956 0.093642861 0.57500005 1.3087049e-38
-0.083639994 0.093479998 0.574 1.2626071e-38
-0.082546666 0.093479998 0.574 1.2349858e-38
-0.081311427 0.093317144 0.57300001 1.2073271e-38
-0.080080003 0.093154289 0.57200003 1.2533159e-38
-0.078852385 0.092991434 0.57100004 1.2164376e-38
-0.077764772 0.092991434 0.57100004 1.216438e-38
-0.076542869 0.092828579 0.57000005 1.1703402e-38
-0.075457156 0.092828579 0.57000005 1.1979999e-38
-0.074240953 0.092665717 0.56900001 1.216439e-38
-0.073157147 0.092665717 0.56900001 1.2165092e-38
-0.071946666 0.092502862 0.56800002 1.2072897e-38
-0.070739999 0.092340007 0.56700003 1.1888505e-38
-0.069660008 0.092340007 0.56700003 1.1980701e-38
-0.068700954 0.092502862 0.56800002 1.1981078e-38
-0.067619048 0.092502862 0.56800002 1.1888882e-38
-0.066537149 0.092502862 0.56800002 1.1797389e-38
-0.065455243 0.092502862 0.56800002 1.1889584e-38
-0.064486668 0.092665717 0.56900001 1.2073253e-38
-0.063402854 0.092665717 0.56900001 1.1888861e-38
-0.062428575 0.092828579 0.57000005 1.2256925e-38
-0.061342862 0.092828579 0.57000005 1.2349121e-38
-0.060151428 0.092665717 0.56900001 1.2074692e-38
-0.059067618 0.092665717 0.56900001 1.2074692e-38
-0.057983808 0.092665717 0.56900001 1.1520819e-38
-0.056899998 0.092665717 0.56900001 1.1981797e-38
-0.055816192 0.092665717 0.56900001 1.1706639e-38
-0.054636192 0.092502862 0.56800002 1.1706639e-38
-0.053554289 0.092502862 0.56800002 1.1890661e-38
-0.052564763 0.092665717 0.56900001 1.2167248e-38
-0.051480953 0.092665717 0.56900001 1.1890661e-38
-0.050485719 0.092828579 0.57000005 1.1429683e-38
-0.049400005 0.092828579 0.57000005 1.235054e-38
-0.04839905 0.092991434 0.57100004 1.2534931e-38
-0.047311429 0.092991434 0.57100004 1.2443109e-38
-0.046223812 0.092991434 0.57100004 1.26275e-38
-0.045136191 0.092991434 0.57100004 1.2628219e-38
-0.044125713 0.093154289 0.57200003 1.4011153e-38
-0.043036193 0.093154289 0.57200003 1.4377441e-38
-0.041946668 0.093154289 0.57200003 1.4930615e-38
-0.040857144 0.093154289 0.57200003 1.5759277e-38
-0.039837144 0.093317144 0.57300001 1.5759277e-38
-0.038745716 0.093317144 0.57300001 1.5207928e-38
-0.037719999 0.093479998 0.574 1.4931341e-38
-0.036690477 0.093642861 0.57500005 1.5297603e-38
-0.035595242 0.093642861 0.57500005 1.5205407e-38
-0.034560002 0.093805715 0.57600003 1.5297237e-38
-0.033520956 0.093968578 0.57700002 1.5205041e-38
-0.032421906 0.093968578 0.57700002 1.4838759e-38
-0.031431429 0.094294295 0.57900006 1.4930954e-38
-0.030328574 0.094294295 0.57900006 1.4655078e-38
-0.029377144 0.094782859 0.58200002 1.3825317e-38
-0.028268572 0.094782859 0.58200002 1.3732798e-38
-0.027206667 0.094945714 0.583 1.3087428e-38
-0.026185717 0.095271431 0.58500004 1.3732798e-38
-0.025157144 0.09559714 0.58700001 1.4193776e-38
-0.024039049 0.09559714 0.58700001 1.5023863e-38
-0.02296 0.095759995 0.588 1.6222406e-38
-0.021877145 0.095922865 0.58900005 1.6498664e-38
-0.020755239 0.095922865 0.58900005 2.0831859e-38
-0.097666666 0.09655048 0.58600003 1.8250004e-38
-0.096220955 0.096220955 0.58400005 1.3824614e-38
-0.094945714 0.096056193 0.583 1.354733e-38
-0.093674287 0.095891431 0.58200002 1.3731722e-38
-0.092247628 0.095561907 0.58000004 1.4284513e-38
-0.090985723 0.095397152 0.57900006 1.3454752e-38
-0.089882866 0.095397152 0.57900006 1.3361845e-38
-0.088626668 0.095232382 0.57800001 1.345404e-38
-0.08752571 0.095232382 0.57800001 1.3270009e-38
-0.085976198 0.094738103 0.57500005 1.3270009e-38
-0.084733337 0.094573334 0.574 1.2995583e-38
-0.083639994 0.094573334 0.574 1.2811192e-38
-0.082402855 0.094408579 0.57300001 1.2903034e-38
-0.081169531 0.09424381 0.57200003 1.2349861e-38
-0.079940006 0.094079047 0.57100004 1.271755e-38
-0.078852385 0.094079047 0.57100004 1.2164376e-38
-0.077628583 0.093914293 0.57000005 1.2255493e-38
-0.076542869 0.093914293 0.57000005 1.2439884e-38
-0.075457156 0.093914293 0.57000005 1.2440967e-38
-0.074240953 0.093749523 0.56900001 1.2440967e-38
-0.073157147 0.093749523 0.56900001 1.2166534e-38
-0.071946666 0.093584761 0.56800002 1.1705556e-38
-0.070739999 0.093419999 0.56700003 1.1335672e-38
-0.069660008 0.093419999 0.56700003 1.1981042e-38
-0.068580002 0.093419999 0.56700003 1.179704e-38
-0.06750001 0.093419999 0.56700003 1.1704844e-38
-0.066420004 0.093419999 0.56700003 1.1980708e-38
-0.065340005 0.093419999 0.56700003 1.1888512e-38
-0.064373337 0.093584761 0.56800002 1.1796317e-38
-0.06329143 0.093584761 0.56800002 1.2165099e-38
-0.062319044 0.093749523 0.56900001 1.2258015e-38
-0.061235234 0.093749523 0.56900001 1.2073624e-38
-0.060151428 0.093749523 0.56900001 1.2166538e-38
-0.058963813 0.093584761 0.56800002 1.2074343e-38
-0.057881907 0.093584761 0.56800002 1.1520813e-38
-0.056800004 0.093584761 0.56800002 1.2073987e-38
-0.055718098 0.093584761 0.56800002 1.2074353e-38
-0.054540001 0.093419999 0.56700003 1.1982157e-38
-0.053460002 0.093419999 0.56700003 1.1982507e-38
-0.052380003 0.093419999 0.56700003 1.2074703e-38
-0.05139048 0.093584761 0.56800002 1.1982859e-38
-0.050397143 0.093749523 0.56900001 1.1982859e-38
-0.049313333 0.093749523 0.56900001 1.2350187e-38
-0.048314288 0.093914293 0.57000005 1.2534578e-38
-0.047311429 0.094079047 0.57100004 1.2442758e-38
-0.046223812 0.094079047 0.57100004 1.262715e-38
-0.045136191 0.094079047 0.57100004 1.2627877e-38
-0.044048574 0.094079047 0.57100004 1.3918616e-38
-0.043036193 0.09424381 0.57200003 1.4377787e-38
-0.041946668 0.09424381 0.57200003 1.4930961e-38
-0.040857144 0.09424381 0.57200003 1.5389432e-38
-0.039767619 0.09424381 0.57200003 1.5573824e-38
-0.038678098 0.09424381 0.57200003 1.5206849e-38
-0.037719999 0.094573334 0.574 1.4930262e-38
-0.036690477 0.094738103 0.57500005 1.5021016e-38
-0.035595242 0.094738103 0.57500005 1.5021016e-38
-0.034560002 0.094902858 0.57600003 1.5111767e-38
-0.03346286 0.094902858 0.57600003 1.5111767e-38
-0.032421906 0.095067628 0.57700002 1.4377441e-38
-0.03137714 0.095232382 0.57800001 1.419305e-38
-0.030328574 0.095397152 0.57900006 1.4010444e-38
-0.029326668 0.095726676 0.58100003 1.3641662e-38
-0.028220002 0.095726676 0.58100003 1.4194126e-38
-0.027160002 0.095891431 0.58200002 1.3825344e-38
-0.026140954 0.096220955 0.58400005 1.3917165e-38
-0.025071429 0.096385725 0.58500004 1.4562535e-38
-0.023998097 0.09655048 0.58600003 1.5024233e-38
-0.022881905 0.09655048 0.58600003 1.5669602e-38
-0.021839999 0.096879996 0.588 1.668126e-38
-0.020755239 0.097044773 0.58900005 2.110665e-38
-0.097666666 0.097666666 0.58600003 1.9265936e-38
-0.096220955 0.097333342 0.58400005 1.410298e-38
-0.094945714 0.097166665 0.583 1.3455507e-38
-0.093513332 0.096833333 0.58100003 1.3639899e-38
-0.092247628 0.096666671 0.58000004 1.3823891e-38
-0.090985723 0.096500009 0.57900006 1.3362912e-38
-0.089727625 0.096333332 0.57800001 1.3453687e-38
-0.088473335 0.09616667 0.57700002 1.3545883e-38
-0.087374285 0.09616667 0.57700002 1.3362559e-38
-0.085976198 0.095833339 0.57500005 1.2901581e-38
-0.084733337 0.095666662 0.574 1.2626094e-38
-0.083494283 0.0955 0.57300001 1.2626094e-38
-0.082115248 0.095166676 0.57100004 1.2719348e-38
-0.08102762 0.095166676 0.57100004 1.225837e-38
-0.079940006 0.095166676 0.57100004 1.225837e-38
-0.078714296 0.095000006 0.57000005 1.2166174e-38
-0.077628583 0.095000006 0.57000005 1.2440963e-38
-0.076408572 0.094833337 0.56900001 1.2440963e-38
-0.075324766 0.094833337 0.56900001 1.2166171e-38
-0.074110478 0.094666667 0.56800002 1.2350563e-38
-0.073028572 0.094666667 0.56800002 1.2258364e-38
-0.071946666 0.094666667 0.56800002 1.1889582e-38
-0.070739999 0.094500005 0.56700003 1.1980681e-38
-0.069660008 0.094500005 0.56700003 1.2165073e-38
-0.068580002 0.094500005 0.56700003 1.1797037e-38
-0.067380957 0.094333343 0.56600004 1.1797037e-38
-0.066302858 0.094333343 0.56600004 1.179704e-38
-0.065224767 0.094333343 0.56600004 1.1520453e-38
-0.064260006 0.094500005 0.56700003 1.1887803e-38
-0.063180007 0.094500005 0.56700003 1.2256586e-38
-0.062100001 0.094500005 0.56700003 1.2166174e-38
-0.061020005 0.094500005 0.56700003 1.1428609e-38
-0.059940003 0.094500005 0.56700003 1.1981431e-38
-0.058756195 0.094333343 0.56600004 1.1981431e-38
-0.0576781 0.094333343 0.56600004 1.1981431e-38
-0.056700002 0.094500005 0.56700003 1.2442409e-38
-0.055620003 0.094500005 0.56700003 1.1981807e-38
-0.054443814 0.094333343 0.56600004 1.1889611e-38
-0.053365719 0.094333343 0.56600004 1.1982154e-38
-0.052287623 0.094333343 0.56600004 1.1982154e-38
-0.0513 0.094500005 0.56700003 1.2074336e-38
-0.050220001 0.094500005 0.56700003 1.2074336e-38
-0.049140003 0.094500005 0.56700003 1.2258364e-38
-0.048144761 0.094666667 0.56800002 1.235056e-38
-0.047062855 0.094666667 0.56800002 1.2350565e-38
-0.046142861 0.095000006 0.57000005 1.2627152e-38
-0.045136191 0.095166676 0.57100004 1.2719712e-38
-0.044048574 0.095166676 0.57100004 1.4102647e-38
-0.042960957 0.095166676 0.57100004 1.4194475e-38
-0.041873336 0.095166676 0.57100004 1.4286671e-38
-0.040785719 0.095166676 0.57100004 1.4377085e-38
-0.039767619 0.095333338 0.57200003 1.4192694e-38
-0.038678098 0.095333338 0.57200003 1.4192694e-38
-0.037654288 0.0955 0.57300001 1.4008303e-38
-0.03656286 0.0955 0.57300001 1.4100504e-38
-0.035595242 0.095833339 0.57500005 1.4469287e-38
-0.034500003 0.095833339 0.57500005 1.4467836e-38
-0.03346286 0.096000001 0.57600003 1.3730271e-38
-0.032421906 0.09616667 0.57700002 1.363917e-38
-0.03137714 0.096333332 0.57800001 1.3546974e-38
-0.03027619 0.096333332 0.57800001 1.3547681e-38
-0.029326668 0.096833333 0.58100003 1.3547681e-38
-0.028220002 0.096833333 0.58100003 1.3824621e-38
-0.027160002 0.097000003 0.58200002 1.4193403e-38
-0.026140954 0.097333342 0.58400005 1.3825341e-38
-0.025071429 0.097500004 0.58500004 1.4747297e-38
-0.023998097 0.097666666 0.58600003 1.4932043e-38
-0.022881905 0.097666666 0.58600003 1.5577412e-38
-0.021839999 0.097999997 0.588 1.6589067e-38
-0.020755239 0.098166667 0.58900005 2.1106653e-38
-0.096220955 0.098445721 0.58400005 1.4103375e-38
-0.094945714 0.098277144 0.583 1.3640246e-38
-0.093513332 0.097940005 0.58100003 1.3455855e-38
-0.092247628 0.097771436 0.58000004 1.3731689e-38
-0.090985723 0.097602867 0.57900006 1.3362907e-38
-0.089727625 0.097434282 0.57800001 1.3362205e-38
-0.088473335 0.09726572 0.57700002 1.3362205e-38
-0.087071441 0.096928582 0.57500005 1.3638795e-38
-0.085976198 0.096928582 0.57500005 1.2901229e-38
-0.084733337 0.096759997 0.574 1.2625354e-38
-0.083494283 0.096591435 0.57300001 1.2809746e-38
-0.082115248 0.096254297 0.57100004 1.2626801e-38
-0.080885723 0.09608572 0.57000005 1.2258018e-38
-0.07980001 0.09608572 0.57000005 1.2166174e-38
-0.078714296 0.09608572 0.57000005 1.2166174e-38
-0.077492386 0.095917143 0.56900001 1.225837e-38
-0.076408572 0.095917143 0.56900001 1.2166174e-38
-0.075192384 0.095748574 0.56800002 1.179631e-38
-0.074110478 0.095748574 0.56800002 1.1980701e-38
-0.073028572 0.095748574 0.56800002 1.2072195e-38
-0.071946666 0.095748574 0.56800002 1.1979999e-38
-0.070739999 0.095580004 0.56700003 1.1980338e-38
-0.069660008 0.095580004 0.56700003 1.2072534e-38
-0.068580002 0.095580004 0.56700003 1.179704e-38
-0.067380957 0.095411435 0.56600004 1.179704e-38
-0.066302858 0.095411435 0.56600004 1.1981431e-38
-0.065224767 0.095411435 0.56600004 1.1889236e-38
-0.064146668 0.095411435 0.56600004 1.2164743e-38
-0.063180007 0.095580004 0.56700003 1.2164743e-38
-0.061990481 0.095411435 0.56600004 1.2810839e-38
-0.060912386 0.095411435 0.56600004 1.2257665e-38
-0.05983429 0.095411435 0.56600004 1.1981431e-38
-0.058756195 0.095411435 0.56600004 1.1981431e-38
-0.0576781 0.095411435 0.56600004 1.207399e-38
-0.056600004 0.095411435 0.56600004 1.2350577e-38
-0.055521909 0.095411435 0.56600004 1.1704491e-38
-0.054443814 0.095411435 0.56600004 1.2073274e-38
-0.053365719 0.095411435 0.56600004 1.1889952e-38
-0.052287623 0.095411435 0.56600004 1.1982147e-38
-0.0513 0.095580004 0.56700003 1.1888861e-38
-0.050220001 0.095580004 0.56700003 1.2257644e-38
-0.049140003 0.095580004 0.56700003 1.2810102e-38
-0.048144761 0.095748574 0.56800002 1.2717906e-38
-0.047062855 0.095748574 0.56800002 1.2256925e-38
-0.046061907 0.095917143 0.56900001 1.2810099e-38
-0.045057148 0.09608572 0.57000005 1.2994853e-38
-0.044048574 0.096254297 0.57100004 1.3824614e-38
-0.042960957 0.096254297 0.57100004 1.3549453e-38
-0.041873336 0.096254297 0.57100004 1.382604e-38
