# .PCD v0.7 - Point Cloud Data file format
VERSION 0.7
FIELDS x y z rgb
SIZE 4 4 4 4
TYPE F F F F
COUNT 1 1 1 1
WIDTH 1002
HEIGHT 1
VIEWPOINT 0 0 0 1 0 0 0
POINTS 1002
DATA ascii
-0.04252762 0.11221144 0.53800005 1.2719348e-38
-0.041580003 0.11242001 0.53900003 1.308813e-38
-0.040553335 0.11242001 0.53900003 1.3087745e-38
-0.0396 0.11262857 0.54000002 1.2718963e-38
-0.038571429 0.11262857 0.54000002 1.2534249e-38
-0.037681911 0.11304572 0.54200006 1.271864e-38
-0.036717143 0.11325429 0.54300004 1.2903001e-38
-0.035814285 0.11367143 0.54500002 1.3363979e-38
-0.034839999 0.11387999 0.546 1.2995583e-38
-0.033861909 0.11408859 0.54700005 1.3456561e-38
-0.032880001 0.11429715 0.54800004 1.382497e-38
-0.031836193 0.11429715 0.54800004 1.4839122e-38
-0.10385905 0.11534096 0.54800004 2.0095738e-38
-0.10262763 0.11513048 0.54700005 1.7790847e-38
-0.10158572 0.11513048 0.54700005 1.6684131e-38
-0.10036 0.11492 0.546 1.2996306e-38
-0.099320002 0.11492 0.546 1.3087049e-38
-0.098279998 0.11492 0.546 1.2626071e-38
-0.096883811 0.11449905 0.54400003 1.2625354e-38
-0.095495246 0.1140781 0.54200006 1.2440963e-38
-0.094288565 0.11386763 0.54100001 1.2532799e-38
-0.092913337 0.11344668 0.53900003 1.2348407e-38
-0.091545716 0.11302572 0.537 1.2071805e-38
-0.090354286 0.11281524 0.53600001 1.2440588e-38
-0.089333333 0.11281524 0.53600001 1.1797037e-38
-0.088147625 0.11260477 0.53500003 1.1797037e-38
-0.08712858 0.11260477 0.53500003 1.1796687e-38
-0.085948579 0.11239429 0.53400004 1.1427904e-38
-0.084931433 0.11239429 0.53400004 1.161157e-38
-0.083914295 0.11239429 0.53400004 1.1519374e-38
-0.082586668 0.11197333 0.53200001 1.1242787e-38
-0.08157333 0.11197333 0.53200001 1.1888157e-38
-0.080559999 0.11197333 0.53200001 1.1612296e-38
-0.079546668 0.11197333 0.53200001 1.15201e-38
-0.078533329 0.11197333 0.53200001 1.1520799e-38
-0.077520005 0.11197333 0.53200001 1.1520799e-38
-0.076506667 0.11197333 0.53200001 1.1428966e-38
-0.075351432 0.11176286 0.53100002 1.1428966e-38
-0.074340001 0.11176286 0.53100002 1.1428969e-38
-0.071037143 0.11134192 0.52900004 1.1153829e-38
-0.070029527 0.11134192 0.52900004 1.1428983e-38
-0.06902191 0.11134192 0.52900004 1.1521179e-38
-0.068014294 0.11134192 0.52900004 1.1520453e-38
-0.067133337 0.11155239 0.53000003 1.1612649e-38
-0.066123806 0.11155239 0.53000003 1.1979999e-38
-0.06511429 0.11155239 0.53000003 1.1887803e-38
-0.064104766 0.11155239 0.53000003 1.1888505e-38
-0.063095242 0.11155239 0.53000003 1.2072897e-38
-0.06006667 0.11155239 0.53000003 1.197927e-38
-0.059391435 0.11218382 0.53300005 1.2348053e-38
-0.057360958 0.11218382 0.53300005 1.1980002e-38
-0.05634572 0.11218382 0.53300005 1.1889236e-38
-0.055330478 0.11218382 0.53300005 1.1981431e-38
-0.054315243 0.11218382 0.53300005 1.2165092e-38
-0.053300004 0.11218382 0.53300005 1.2165092e-38
-0.052284766 0.11218382 0.53300005 1.2348768e-38
-0.051269528 0.11218382 0.53300005 1.2440963e-38
-0.050254289 0.11218382 0.53300005 1.2533152e-38
-0.049239051 0.11218382 0.53300005 1.2809739e-38
-0.048314288 0.11239429 0.53400004 1.2809746e-38
-0.047208574 0.11218382 0.53300005 1.2809746e-38
-0.046193339 0.11218382 0.53300005 1.2626801e-38
-0.045262862 0.11239429 0.53400004 1.2534605e-38
-0.044328574 0.11260477 0.53500003 1.2627152e-38
-0.043552384 0.1132362 0.53800005 1.2534957e-38
-0.04252762 0.1132362 0.53800005 1.262715e-38
-0.041580003 0.11344668 0.53900003 1.2534954e-38
-0.040553335 0.11344668 0.53900003 1.2810452e-38
-0.0396 0.11365715 0.54000002 1.2810452e-38
-0.038571429 0.11365715 0.54000002 1.225837e-38
-0.037681911 0.1140781 0.54200006 1.2166174e-38
-0.036649525 0.1140781 0.54200006 1.2257275e-38
-0.035682861 0.11428858 0.54300004 1.3179232e-38
-0.034903809 0.11513048 0.54700005 1.2995932e-38
-0.033985715 0.11555143 0.54900002 1.3641301e-38
-0.03294 0.11555143 0.54900002 1.4100852e-38
-0.031894289 0.11555143 0.54900002 1.4377439e-38
-0.10385905 0.11638477 0.54800004 1.9818786e-38
-0.10262763 0.11617239 0.54700005 1.8067069e-38
-0.10158572 0.11617239 0.54700005 1.6868511e-38
-0.10036 0.11596 0.546 1.3549469e-38
-0.099320002 0.11596 0.546 1.3179251e-38
-0.098279998 0.11596 0.546 1.2718273e-38
-0.096883811 0.11553524 0.54400003 1.2349858e-38
-0.095495246 0.11511049 0.54200006 1.2257662e-38
-0.094288565 0.1148981 0.54100001 1.216582e-38
-0.092913337 0.11447334 0.53900003 1.1889233e-38
-0.091545716 0.11404857 0.537 1.1980676e-38
-0.090354286 0.11383619 0.53600001 1.2441654e-38
-0.089333333 0.11383619 0.53600001 1.1797389e-38
-0.088147625 0.11362381 0.53500003 1.1797389e-38
-0.086965717 0.11341143 0.53400004 1.1888512e-38
-0.085948579 0.11341143 0.53400004 1.151973e-38
-0.084931433 0.11341143 0.53400004 1.1335711e-38
-0.083757147 0.11319906 0.53300005 1.1335711e-38
-0.082586668 0.11298667 0.53200001 1.1243876e-38
-0.08157333 0.11298667 0.53200001 1.1520463e-38
-0.080559999 0.11298667 0.53200001 1.1704494e-38
-0.079397149 0.11277429 0.53100002 1.1427907e-38
-0.078385711 0.11277429 0.53100002 1.1520066e-38
-0.077374287 0.11277429 0.53100002 1.1612262e-38
-0.076362856 0.11277429 0.53100002 1.1428606e-38
-0.075351432 0.11277429 0.53100002 1.1520802e-38
-0.074340001 0.11277429 0.53100002 1.1613358e-38
-0.071037143 0.11234953 0.52900004 1.1613365e-38
-0.070029527 0.11234953 0.52900004 1.1613365e-38
-0.06902191 0.11234953 0.52900004 1.170556e-38
-0.068014294 0.11234953 0.52900004 1.152045e-38
-0.067133337 0.11256191 0.53000003 1.152045e-38
-0.066123806 0.11256191 0.53000003 1.1704844e-38
-0.06511429 0.11256191 0.53000003 1.2165822e-38
-0.064104766 0.11256191 0.53000003 1.1797389e-38
-0.063095242 0.11256191 0.53000003 1.1612998e-38
-0.057360958 0.11319906 0.53300005 1.1889601e-38
-0.05634572 0.11319906 0.53300005 1.1982147e-38
-0.055330478 0.11319906 0.53300005 1.2074343e-38
-0.054315243 0.11319906 0.53300005 1.2073603e-38
-0.053300004 0.11319906 0.53300005 1.2073603e-38
-0.052284766 0.11319906 0.53300005 1.2348772e-38
-0.051269528 0.11319906 0.53300005 1.2348772e-38
-0.050254289 0.11319906 0.53300005 1.2348419e-38
-0.049239051 0.11319906 0.53300005 1.2717201e-38
-0.048223816 0.11319906 0.53300005 1.2717917e-38
-0.047208574 0.11319906 0.53300005 1.2717917e-38
-0.046193339 0.11319906 0.53300005 1.262645e-38
-0.045262862 0.11341143 0.53400004 1.2534255e-38
-0.044411428 0.11383619 0.53600001 1.2627152e-38
-0.043552384 0.11426096 0.53800005 1.2719348e-38
-0.04260667 0.11447334 0.53900003 1.2535317e-38
-0.041580003 0.11447334 0.53900003 1.225873e-38
-0.040553335 0.11447334 0.53900003 1.290409e-38
-0.039526667 0.11447334 0.53900003 1.2996285e-38
-0.038500004 0.11447334 0.53900003 1.2719006e-38
-0.037542857 0.11468572 0.54000002 1.3179984e-38
-0.036649525 0.11511049 0.54200006 1.3272167e-38
-0.035682861 0.11532287 0.54300004 1.3548754e-38
-0.034839999 0.11596 0.546 1.3548754e-38
-0.033861909 0.11617239 0.54700005 1.4286319e-38
-0.03294 0.11659715 0.54900002 1.4101931e-38
-0.031894289 0.11659715 0.54900002 1.3825344e-38
-0.10442762 0.11807143 0.551 1.9818432e-38
-0.10262763 0.1172143 0.54700005 1.8527694e-38
-0.1014 0.117 0.546 1.6960355e-38
-0.10036 0.117 0.546 1.3733508e-38
-0.099320002 0.117 0.546 1.3639497e-38
-0.098279998 0.117 0.546 1.2994127e-38
-0.09670572 0.11635716 0.54300004 1.2534615e-38
-0.095495246 0.11614287 0.54200006 1.2442419e-38
-0.094288565 0.11592857 0.54100001 1.2350577e-38
-0.092913337 0.11550001 0.53900003 1.1797403e-38
-0.091545716 0.11507142 0.537 1.2073603e-38
-0.090354286 0.11485714 0.53600001 1.2165799e-38
-0.089333333 0.11485714 0.53600001 1.1889584e-38
-0.088147625 0.11464287 0.53500003 1.198178e-38
-0.086965717 0.11442858 0.53400004 1.1797389e-38
-0.085948579 0.11442858 0.53400004 1.1520802e-38
-0.084931433 0.11442858 0.53400004 1.1427904e-38
-0.083757147 0.11421429 0.53300005 1.1335709e-38
-0.082586668 0.114 0.53200001 1.1244229e-38
-0.081420004 0.11378572 0.53100002 1.1520816e-38
-0.080408573 0.11378572 0.53100002 1.1704854e-38
-0.079397149 0.11378572 0.53100002 1.1520463e-38
-0.078385711 0.11378572 0.53100002 1.1336408e-38
-0.077228576 0.11357144 0.53000003 1.1428604e-38
-0.076219052 0.11357144 0.53000003 1.1427527e-38
-0.075209521 0.11357144 0.53000003 1.179631e-38
-0.074200004 0.11357144 0.53000003 1.1704841e-38
-0.070294291 0.11378572 0.53100002 1.1334616e-38
-0.06902191 0.11335715 0.52900004 1.1887789e-38
-0.068014294 0.11335715 0.52900004 1.1612646e-38
-0.066123806 0.11357144 0.53000003 1.1429346e-38
-0.06511429 0.11357144 0.53000003 1.1798129e-38
-0.057360958 0.11421429 0.53300005 1.2073283e-38
-0.05634572 0.11421429 0.53300005 1.1982154e-38
-0.055330478 0.11421429 0.53300005 1.1982154e-38
-0.054315243 0.11421429 0.53300005 1.2166169e-38
-0.053300004 0.11421429 0.53300005 1.2073973e-38
-0.052284766 0.11421429 0.53300005 1.2256572e-38
-0.051269528 0.11421429 0.53300005 1.2256572e-38
-0.050254289 0.11421429 0.53300005 1.2072537e-38
-0.049239051 0.11421429 0.53300005 1.2717906e-38
-0.048223816 0.11421429 0.53300005 1.2627152e-38
-0.047208574 0.11421429 0.53300005 1.2627152e-38
-0.046193339 0.11421429 0.53300005 1.2626801e-38
-0.0451781 0.11421429 0.53300005 1.2534605e-38
-0.044245716 0.11442858 0.53400004 1.2627517e-38
-0.043552384 0.11528572 0.53800005 1.2535321e-38
-0.04260667 0.11550001 0.53900003 1.2627877e-38
-0.041580003 0.11550001 0.53900003 1.2535681e-38
-0.040553335 0.11550001 0.53900003 1.2904099e-38
-0.039526667 0.11550001 0.53900003 1.2996295e-38
-0.038500004 0.11550001 0.53900003 1.2719362e-38
-0.037542857 0.11571429 0.54000002 1.318034e-38
-0.036581904 0.11592857 0.54100001 1.336401e-38
-0.035814285 0.11678571 0.54500002 1.3548401e-38
-0.034839999 0.117 0.546 1.3272882e-38
-0.033861909 0.1172143 0.54700005 1.3918251e-38
-0.03294 0.11764286 0.54900002 1.39179e-38
-0.031894289 0.11764286 0.54900002 1.3733508e-38
-0.10442762 0.11912096 0.551 1.972624e-38
-0.10262763 0.1182562 0.54700005 1.8527696e-38
-0.1014 0.11804 0.546 1.7052551e-38
-0.10036 0.11804 0.546 1.3825704e-38
-0.099320002 0.11804 0.546 1.3547681e-38
-0.098279998 0.11804 0.546 1.2994507e-38
-0.09670572 0.11739144 0.54300004 1.2534264e-38
-0.095319048 0.11695904 0.54100001 1.2442069e-38
-0.094114289 0.11674286 0.54000002 1.2073639e-38
-0.09274096 0.11631048 0.53800005 1.1981444e-38
-0.091545716 0.11609428 0.537 1.2074343e-38
-0.090354286 0.1158781 0.53600001 1.2258734e-38
-0.089333333 0.1158781 0.53600001 1.2258715e-38
-0.087982863 0.11544573 0.53400004 1.1889932e-38
-0.086965717 0.11544573 0.53400004 1.1981407e-38
-0.085948579 0.11544573 0.53400004 1.2073603e-38
-0.084931433 0.11544573 0.53400004 1.179704e-38
-0.083757147 0.11522953 0.53300005 1.2258018e-38
-0.082586668 0.11501333 0.53200001 1.1428623e-38
-0.081420004 0.11479715 0.53100002 1.1336428e-38
-0.080408573 0.11479715 0.53100002 1.1705204e-38
-0.079397149 0.11479715 0.53100002 1.1705204e-38
-0.078385711 0.11479715 0.53100002 1.1612646e-38
-0.077228576 0.11458096 0.53000003 1.152045e-38
-0.076219052 0.11458096 0.53000003 1.1244229e-38
-0.075209521 0.11458096 0.53000003 1.1336425e-38
-0.074200004 0.11458096 0.53000003 1.1521169e-38
-0.057360958 0.11522953 0.53300005 1.1981103e-38
-0.05634572 0.11522953 0.53300005 1.1982157e-38
-0.055330478 0.11522953 0.53300005 1.1982157e-38
-0.054315243 0.11522953 0.53300005 1.2074343e-38
-0.053300004 0.11522953 0.53300005 1.2627517e-38
-0.052284766 0.11522953 0.53300005 1.2442758e-38
-0.051269528 0.11522953 0.53300005 1.2534954e-38
-0.050254289 0.11522953 0.53300005 1.2627152e-38
-0.049239051 0.11522953 0.53300005 1.2627152e-38
-0.048223816 0.11522953 0.53300005 1.2811189e-38
-0.047208574 0.11522953 0.53300005 1.2811189e-38
-0.046193339 0.11522953 0.53300005 1.2718993e-38
-0.0451781 0.11522953 0.53300005 1.2626798e-38
-0.044245716 0.11544573 0.53400004 1.2627512e-38
-0.043552384 0.11631048 0.53800005 1.2443121e-38
-0.04260667 0.11652667 0.53900003 1.2811901e-38
-0.041580003 0.11652667 0.53900003 1.2811901e-38
-0.040553335 0.11652667 0.53900003 1.2904099e-38
-0.039526667 0.11652667 0.53900003 1.2996295e-38
-0.038571429 0.11674286 0.54000002 1.3088142e-38
-0.037542857 0.11674286 0.54000002 1.3456924e-38
-0.036581904 0.11695904 0.54100001 1.3548401e-38
-0.035879999 0.11804 0.546 1.3732792e-38
-0.034839999 0.11804 0.546 1.3825323e-38
-0.033861909 0.1182562 0.54700005 1.4194105e-38
-0.03294 0.11868858 0.54900002 1.3826396e-38
-0.031952381 0.11890477 0.55000001 1.290444e-38
-0.10281525 0.1195162 0.54800004 1.908087e-38
-0.10177144 0.1195162 0.54800004 1.6869239e-38
-0.10036 0.11908 0.546 1.3918979e-38
-0.099320002 0.11908 0.546 1.4194835e-38
-0.098279998 0.11908 0.546 1.2904097e-38
-0.096527629 0.11820763 0.54200006 1.2811921e-38
-0.095319048 0.11798953 0.54100001 1.2627529e-38
-0.094114289 0.11777143 0.54000002 1.1982157e-38
-0.09274096 0.11733525 0.53800005 1.2074353e-38
-0.091545716 0.11711714 0.537 1.2166185e-38
-0.090354286 0.11689905 0.53600001 1.207399e-38
-0.089333333 0.11689905 0.53600001 1.1982862e-38
-0.087982863 0.11646286 0.53400004 1.1706275e-38
-0.086965717 0.11646286 0.53400004 1.1335672e-38
-0.085948579 0.11646286 0.53400004 1.1888846e-38
-0.084931433 0.11646286 0.53400004 1.1519021e-38
-0.083757147 0.11624478 0.53300005 1.1703412e-38
-0.082586668 0.11602667 0.53200001 1.1336422e-38
-0.081420004 0.11580858 0.53100002 1.1613009e-38
-0.080408573 0.11580858 0.53100002 1.1798119e-38
-0.079397149 0.11580858 0.53100002 1.1798119e-38
-0.078385711 0.11580858 0.53100002 1.170556e-38
-0.077374287 0.11580858 0.53100002 1.1428973e-38
-0.076362856 0.11580858 0.53100002 1.1152394e-38
-0.075209521 0.11559048 0.53000003 1.142898e-38
-0.074200004 0.11559048 0.53000003 1.1614444e-38
-0.059391435 0.11624478 0.53300005 1.2073627e-38
-0.058376197 0.11624478 0.53300005 1.2074002e-38
-0.057360958 0.11624478 0.53300005 1.1981807e-38
-0.05634572 0.11624478 0.53300005 1.189068e-38
-0.055330478 0.11624478 0.53300005 1.189068e-38
-0.054213334 0.11602667 0.53200001 1.1705923e-38
-0.053199999 0.11602667 0.53200001 1.2351293e-38
-0.052186668 0.11602667 0.53200001 1.2443121e-38
-0.051269528 0.11624478 0.53300005 1.2535317e-38
-0.050254289 0.11624478 0.53300005 1.2627161e-38
-0.049239051 0.11624478 0.53300005 1.2719356e-38
-0.048314288 0.11646286 0.53400004 1.2903385e-38
-0.047297146 0.11646286 0.53400004 1.299558e-38
-0.04628 0.11646286 0.53400004 1.2811541e-38
-0.045262862 0.11646286 0.53400004 1.262715e-38
-0.044494286 0.11711714 0.537 1.2536036e-38
-0.043552384 0.11733525 0.53800005 1.2536036e-38
-0.04260667 0.11755334 0.53900003 1.2904104e-38
-0.041657142 0.11777143 0.54000002 1.2904104e-38
-0.040628571 0.11777143 0.54000002 1.2904104e-38
-0.0396 0.11777143 0.54000002 1.3088495e-38
-0.038571429 0.11777143 0.54000002 1.3180337e-38
-0.037751433 0.11842572 0.54300004 1.3364729e-38
-0.036852382 0.11886191 0.54500002 1.3548401e-38
-0.035879999 0.11908 0.546 1.3456205e-38
-0.034839999 0.11908 0.546 1.3640931e-38
-0.033861909 0.1192981 0.54700005 1.3825323e-38
-0.03294 0.11973429 0.54900002 1.3365077e-38
-0.031952381 0.11995238 0.55000001 1.225873e-38
-0.10356572 0.12144001 0.55200005 1.9265264e-38
-0.10251429 0.12144001 0.55200005 1.7883014e-38
-0.10146286 0.12144001 0.55200005 1.3918602e-38
-0.10041144 0.12144001 0.55200005 1.4010437e-38
-0.097560011 0.11924001 0.54200006 1.3088481e-38
-0.096527629 0.11924001 0.54200006 1.2811921e-38
-0.095319048 0.11902 0.54100001 1.2811921e-38
-0.094114289 0.11880001 0.54000002 1.2442782e-38
-0.09274096 0.11836001 0.53800005 1.2258391e-38
-0.091545716 0.11814 0.537 1.2166185e-38
-0.090522863 0.11814 0.537 1.2166185e-38
-0.089333333 0.11792 0.53600001 1.1982507e-38
-0.088147625 0.1177 0.53500003 1.1890312e-38
-0.086965717 0.11748001 0.53400004 1.1704844e-38
-0.085948579 0.11748001 0.53400004 1.2442409e-38
-0.084931433 0.11748001 0.53400004 1.2165099e-38
-0.083757147 0.11726001 0.53300005 1.1611926e-38
-0.082586668 0.11703999 0.53200001 1.1520819e-38
-0.081420004 0.11682 0.53100002 1.1889601e-38
-0.080408573 0.11682 0.53100002 1.1982147e-38
-0.079397149 0.11682 0.53100002 1.1982147e-38
-0.078385711 0.11682 0.53100002 1.1705204e-38
-0.077374287 0.11682 0.53100002 1.1705204e-38
-0.076362856 0.11682 0.53100002 1.1521898e-38
-0.075209521 0.11660001 0.53000003 1.1521898e-38
-0.074200004 0.11660001 0.53000003 1.170556e-38
-0.059280001 0.11703999 0.53200001 1.1982157e-38
-0.058266666 0.11703999 0.53200001 1.2074e-38
-0.057253335 0.11703999 0.53200001 1.2074e-38
-0.05624 0.11703999 0.53200001 1.1982157e-38
-0.055226665 0.11703999 0.53200001 1.2074353e-38
-0.054213334 0.11703999 0.53200001 1.2074353e-38
-0.053199999 0.11703999 0.53200001 1.2258744e-38
-0.052186668 0.11703999 0.53200001 1.2442769e-38
-0.051269528 0.11726001 0.53300005 1.2534965e-38
-0.050254289 0.11726001 0.53300005 1.2534965e-38
-0.049239051 0.11726001 0.53300005 1.2627161e-38
-0.048314288 0.11748001 0.53400004 1.2811189e-38
-0.047297146 0.11748001 0.53400004 1.3087776e-38
-0.04628 0.11748001 0.53400004 1.2719693e-38
-0.045262862 0.11748001 0.53400004 1.2719693e-38
-0.044494286 0.11814 0.537 1.2811908e-38
-0.043552384 0.11836001 0.53800005 1.2811908e-38
-0.04260667 0.11858001 0.53900003 1.2995946e-38
-0.041657142 0.11880001 0.54000002 1.3088142e-38
-0.040628571 0.11880001 0.54000002 1.3180686e-38
-0.0396 0.11880001 0.54000002 1.3918251e-38
-0.038642857 0.11902 0.54100001 1.3456561e-38
-0.037751433 0.11946 0.54300004 1.327217e-38
-0.036852382 0.1199 0.54500002 1.354803e-38
-0.035879999 0.12012 0.546 1.354803e-38
-0.034839999 0.12012 0.546 1.3088481e-38
-0.033861909 0.12034 0.54700005 1.2627503e-38
-0.03294 0.12078001 0.54900002 1.2259449e-38
-0.10356572 0.12249144 0.55200005 1.9357817e-38
-0.10251429 0.12249144 0.55200005 1.7975226e-38
-0.10146286 0.12249144 0.55200005 1.410301e-38
-0.10041144 0.12249144 0.55200005 1.3733864e-38
-0.099360012 0.12249144 0.55200005 1.318069e-38
-0.096171431 0.11982857 0.54000002 1.3364375e-38
-0.095142856 0.11982857 0.54000002 1.3179984e-38
-0.094114289 0.11982857 0.54000002 1.2719725e-38
-0.093085721 0.11982857 0.54000002 1.2350942e-38
-0.0917162 0.11938477 0.53800005 1.2166185e-38
-0.090522863 0.11916286 0.537 1.2166185e-38
-0.089333333 0.11894095 0.53600001 1.2166538e-38
-0.088147625 0.11871905 0.53500003 1.2074343e-38
-0.086965717 0.11849716 0.53400004 1.1428969e-38
-0.085948579 0.11849716 0.53400004 1.2074339e-38
-0.084931433 0.11849716 0.53400004 1.2166185e-38
-0.083757147 0.11827525 0.53300005 1.1613012e-38
-0.082586668 0.11805333 0.53200001 1.1888157e-38
-0.08157333 0.11805333 0.53200001 1.2256939e-38
-0.080559999 0.11805333 0.53200001 1.2073624e-38
-0.079397149 0.11783143 0.53100002 1.1981428e-38
-0.078385711 0.11783143 0.53100002 1.2072548e-38
-0.077374287 0.11783143 0.53100002 1.2164743e-38
-0.076362856 0.11783143 0.53100002 1.1797766e-38
-0.075351432 0.11783143 0.53100002 1.170557e-38
-0.074340001 0.11783143 0.53100002 1.1797389e-38
-0.059280001 0.11805333 0.53200001 1.1890324e-38
-0.058157146 0.11783143 0.53100002 1.2350226e-38
-0.057145715 0.11783143 0.53100002 1.2258031e-38
-0.05624 0.11805333 0.53200001 1.2074343e-38
-0.055226665 0.11805333 0.53200001 1.235093e-38
-0.054213334 0.11805333 0.53200001 1.2443488e-38
-0.053199999 0.11805333 0.53200001 1.2351293e-38
-0.052186668 0.11805333 0.53200001 1.2166534e-38
-0.051173333 0.11805333 0.53200001 1.2535317e-38
-0.050159998 0.11805333 0.53200001 1.2534965e-38
-0.049146667 0.11805333 0.53200001 1.2442769e-38
-0.048223816 0.11827525 0.53300005 1.2442407e-38
-0.047208574 0.11827525 0.53300005 1.2534602e-38
-0.04628 0.11849716 0.53400004 1.2626061e-38
-0.04534762 0.11871905 0.53500003 1.3363626e-38
-0.044494286 0.11916286 0.537 1.3271814e-38
-0.043552384 0.11938477 0.53800005 1.3179618e-38
-0.04260667 0.11960667 0.53900003 1.3456561e-38
-0.041657142 0.11982857 0.54000002 1.3364366e-38
-0.040628571 0.11982857 0.54000002 1.3180686e-38
-0.0396 0.11982857 0.54000002 1.373386e-38
-0.038642857 0.12005048 0.54100001 1.3456205e-38
-0.037751433 0.1204943 0.54300004 1.3179618e-38
-0.036852382 0.12093809 0.54500002 1.3454769e-38
-0.035879999 0.12116 0.546 1.3270378e-38
-0.034903809 0.12138192 0.54700005 1.2628216e-38
-0.033923812 0.12160382 0.54800004 1.2075042e-38
-0.03294 0.12182572 0.54900002 1.1798831e-38
-0.10499619 0.12399048 0.55400002 1.944965e-38
-0.10356572 0.12354288 0.55200005 1.9634041e-38
-0.10251429 0.12354288 0.55200005 1.8436567e-38
-0.10146286 0.12354288 0.55200005 1.4472155e-38
-0.10041144 0.12354288 0.55200005 1.2904123e-38
-0.099360012 0.12354288 0.55200005 1.2719732e-38
-0.096171431 0.12085714 0.54000002 1.2904111e-38
-0.095142856 0.12085714 0.54000002 1.2996306e-38
-0.094114289 0.12085714 0.54000002 1.2811558e-38
-0.093085721 0.12085714 0.54000002 1.2627166e-38
-0.091886669 0.12063334 0.53900003 1.2534249e-38
-0.090691432 0.12040953 0.53800005 1.2442053e-38
-0.089333333 0.11996191 0.53600001 1.2442407e-38
-0.088147625 0.1197381 0.53500003 1.2350211e-38
-0.08712858 0.1197381 0.53500003 1.2075058e-38
-0.085948579 0.11951429 0.53400004 1.1982862e-38
-0.084931433 0.11951429 0.53400004 1.2166538e-38
-0.083757147 0.11929049 0.53300005 1.1889952e-38
-0.082586668 0.11906667 0.53200001 1.1981078e-38
-0.08157333 0.11906667 0.53200001 1.2257665e-38
-0.080559999 0.11906667 0.53200001 1.2074343e-38
-0.079397149 0.11884286 0.53100002 1.0967995e-38
-0.078385711 0.11884286 0.53100002 1.1889236e-38
-0.077374287 0.11884286 0.53100002 1.1889236e-38
-0.076362856 0.11884286 0.53100002 1.1798119e-38
-0.075351432 0.11884286 0.53100002 1.1613728e-38
-0.074340001 0.11884286 0.53100002 1.1797736e-38
-0.059280001 0.11906667 0.53200001 1.2166548e-38
-0.058157146 0.11884286 0.53100002 1.2442422e-38
-0.057145715 0.11884286 0.53100002 1.2442422e-38
-0.05624 0.11906667 0.53200001 1.2350565e-38
-0.055226665 0.11906667 0.53200001 1.2627152e-38
-0.054213334 0.11906667 0.53200001 1.2627152e-38
-0.053199999 0.11906667 0.53200001 1.2534957e-38
-0.052186668 0.11906667 0.53200001 1.2627152e-38
-0.051173333 0.11906667 0.53200001 1.2811544e-38
-0.050159998 0.11906667 0.53200001 1.2718996e-38
-0.049146667 0.11906667 0.53200001 1.2626801e-38
-0.048223816 0.11929049 0.53300005 1.271864e-38
-0.047208574 0.11929049 0.53300005 1.3087423e-38
-0.04628 0.11951429 0.53400004 1.3087776e-38
-0.04534762 0.1197381 0.53500003 1.4009732e-38
-0.044577144 0.12040953 0.53800005 1.3271814e-38
-0.043552384 0.12040953 0.53800005 1.3271814e-38
-0.04260667 0.12063334 0.53900003 1.354838e-38
-0.041657142 0.12085714 0.54000002 1.3456184e-38
-0.040628571 0.12085714 0.54000002 1.3455834e-38
-0.0396 0.12085714 0.54000002 1.4101203e-38
-0.03871429 0.12130477 0.54200006 1.3640225e-38
-0.037890475 0.12197619 0.54500002 1.3271443e-38
-0.03692 0.1222 0.546 1.2534267e-38
-0.035879999 0.1222 0.546 1.1981093e-38
-0.034903809 0.12242382 0.54700005 1.1706966e-38
-0.033923812 0.12264763 0.54800004 1.1891357e-38
-0.03294 0.12287143 0.54900002 1.1706639e-38
-0.10499619 0.12504572 0.55400002 1.9542201e-38
-0.10375334 0.12482 0.55300003 1.9634397e-38
-0.10251429 0.12459429 0.55200005 1.8897534e-38
-0.10146286 0.12459429 0.55200005 1.4748731e-38
-0.10041144 0.12459429 0.55200005 1.2812271e-38
-0.099360012 0.12459429 0.55200005 1.2166901e-38
-0.096349522 0.12211142 0.54100001 1.2350926e-38
-0.095319048 0.12211142 0.54100001 1.2535317e-38
-0.094114289 0.12188572 0.54000002 1.2442772e-38
-0.093085721 0.12188572 0.54000002 1.2534968e-38
-0.091886669 0.12166001 0.53900003 1.2902664e-38
-0.090691432 0.12143429 0.53800005 1.299486e-38
-0.089499995 0.12120857 0.537 1.2534249e-38
-0.088147625 0.12075715 0.53500003 1.2442053e-38
-0.08712858 0.12075715 0.53500003 1.235093e-38
-0.085948579 0.12053143 0.53400004 1.235093e-38
-0.084931433 0.12053143 0.53400004 1.2166538e-38
-0.083914295 0.12053143 0.53400004 1.1889952e-38
-0.082586668 0.12008 0.53200001 1.1981428e-38
-0.08157333 0.12008 0.53200001 1.2350211e-38
-0.080559999 0.12008 0.53200001 1.2167253e-38
-0.079546668 0.12008 0.53200001 1.1798471e-38
-0.078533329 0.12008 0.53200001 1.1889584e-38
-0.077374287 0.11985429 0.53100002 1.198178e-38
-0.076362856 0.11985429 0.53100002 1.1890315e-38
-0.075351432 0.11985429 0.53100002 1.1890315e-38
-0.074340001 0.11985429 0.53100002 1.1982496e-38
-0.063095242 0.11962858 0.53000003 1.2259107e-38
-0.062085714 0.11962858 0.53000003 1.2259094e-38
-0.061191428 0.11985429 0.53100002 1.235129e-38
-0.060293335 0.12008 0.53200001 1.2442772e-38
-0.059280001 0.12008 0.53200001 1.2534968e-38
-0.058266666 0.12008 0.53200001 1.2534615e-38
-0.057253335 0.12008 0.53200001 1.2442419e-38
-0.05624 0.12008 0.53200001 1.2810102e-38
-0.055226665 0.12008 0.53200001 1.2902297e-38
-0.054213334 0.12008 0.53200001 1.2901941e-38
-0.053199999 0.12008 0.53200001 1.2994137e-38
-0.052186668 0.12008 0.53200001 1.2811189e-38
-0.051173333 0.12008 0.53200001 1.2811189e-38
-0.050159998 0.12008 0.53200001 1.2994504e-38
-0.049146667 0.12008 0.53200001 1.2994504e-38
-0.048223816 0.12030572 0.53300005 1.2994853e-38
-0.047297146 0.12053143 0.53400004 1.3179244e-38
-0.04628 0.12053143 0.53400004 1.3179972e-38
-0.04534762 0.12075715 0.53500003 1.3179972e-38
-0.044577144 0.12143429 0.53800005 1.3271464e-38
-0.043552384 0.12143429 0.53800005 1.3363659e-38
-0.04260667 0.12166001 0.53900003 1.3731709e-38
-0.041657142 0.12188572 0.54000002 1.3547318e-38
-0.040628571 0.12188572 0.54000002 1.3547311e-38
-0.0396 0.12188572 0.54000002 1.3455115e-38
-0.038642857 0.12211142 0.54100001 1.2903387e-38
-0.037890475 0.12301429 0.54500002 1.2718996e-38
-0.03692 0.12324001 0.546 1.1707002e-38
-0.035879999 0.12324001 0.546 1.133822e-38
-0.034903809 0.12346572 0.54700005 1.1430389e-38
-0.033923812 0.12369143 0.54800004 1.161478e-38
-0.03294 0.12391715 0.54900002 1.15226e-38
-0.10356572 0.12564573 0.55200005 1.9542201e-38
-0.10251429 0.12564573 0.55200005 1.8990433e-38
-0.10127905 0.1254181 0.551 1.4933826e-38
-0.10022952 0.1254181 0.551 1.2904129e-38
-0.099179998 0.1254181 0.551 1.1521194e-38
-0.096349522 0.1231419 0.54100001 1.1797766e-38
-0.095319048 0.1231419 0.54100001 1.2443135e-38
-0.094114289 0.12291428 0.54000002 1.2534968e-38
-0.093085721 0.12291428 0.54000002 1.2719359e-38
-0.091886669 0.12268668 0.53900003 1.2719345e-38
-0.090691432 0.12245906 0.53800005 1.3088128e-38
-0.089499995 0.12223143 0.537 1.262645e-38
-0.088312387 0.12200381 0.53600001 1.2442059e-38
-0.087291434 0.12200381 0.53600001 1.2442407e-38
-0.085948579 0.12154858 0.53400004 1.2442407e-38
-0.084931433 0.12154858 0.53400004 1.2534605e-38
-0.083914295 0.12154858 0.53400004 1.2442409e-38
-0.082586668 0.12109333 0.53200001 1.2166538e-38
-0.08157333 0.12109333 0.53200001 1.2258734e-38
-0.080559999 0.12109333 0.53200001 1.2443822e-38
-0.079546668 0.12109333 0.53200001 1.2443822e-38
-0.078533329 0.12109333 0.53200001 1.1890301e-38
-0.077374287 0.12086572 0.53100002 1.1982496e-38
-0.076362856 0.12086572 0.53100002 1.207435e-38
-0.075493328 0.12109333 0.53200001 1.1982154e-38
-0.074480005 0.12109333 0.53200001 1.1982507e-38
-0.068014294 0.12041048 0.52900004 1.2350913e-38
-0.06700667 0.12041048 0.52900004 1.26275e-38
-0.064104766 0.1206381 0.53000003 1.2167262e-38
-0.063095242 0.1206381 0.53000003 1.2167262e-38
-0.062085714 0.1206381 0.53000003 1.235093e-38
-0.061191428 0.12086572 0.53100002 1.2258734e-38
-0.060293335 0.12109333 0.53200001 1.2350577e-38
-0.059280001 0.12109333 0.53200001 1.2534968e-38
-0.058266666 0.12109333 0.53200001 1.2534968e-38
-0.057253335 0.12109333 0.53200001 1.2442772e-38
-0.05624 0.12109333 0.53200001 1.2534605e-38
-0.055226665 0.12109333 0.53200001 1.2811192e-38
-0.054213334 0.12109333 0.53200001 1.2718993e-38
-0.053100001 0.12086572 0.53100002 1.299558e-38
-0.05208857 0.12086572 0.53100002 1.308813e-38
-0.051269528 0.12132096 0.53300005 1.3272522e-38
-0.050254289 0.12132096 0.53300005 1.3271814e-38
-0.049239051 0.12132096 0.53300005 1.3271814e-38
-0.048314288 0.12154858 0.53400004 1.3732043e-38
-0.047297146 0.12154858 0.53400004 1.4008629e-38
-0.04628 0.12154858 0.53400004 1.3179972e-38
-0.045432381 0.12200381 0.53600001 1.3179972e-38
-0.044577144 0.12245906 0.53800005 1.3271829e-38
-0.043552384 0.12245906 0.53800005 1.3271829e-38
-0.04260667 0.12268668 0.53900003 1.3455132e-38
-0.041657142 0.12291428 0.54000002 1.3178545e-38
-0.040628571 0.12291428 0.54000002 1.2442053e-38
-0.0396 0.12291428 0.54000002 1.2073271e-38
-0.038642857 0.1231419 0.54100001 1.1336428e-38
-0.037751433 0.12359715 0.54300004 1.1336428e-38
-0.03692 0.12428 0.546 1.1153452e-38
-0.035879999 0.12428 0.546 1.1245647e-38
-0.034903809 0.12450764 0.54700005 1.1154177e-38
-0.033923812 0.12473525 0.54800004 1.1246373e-38
-0.03294 0.12496285 0.54900002 1.1430764e-38
-0.031952381 0.12519047 0.55000001 1.1338569e-38
-0.10356572 0.12669715 0.55200005 1.9449653e-38
-0.10251429 0.12669715 0.55200005 1.9082653e-38
-0.10072763 0.12577905 0.54800004 1.5118241e-38
-0.099501915 0.12554954 0.54700005 1.3919344e-38
-0.098460011 0.12554954 0.54700005 1.1522258e-38
-0.0974181 0.12554954 0.54700005 1.15226e-38
-0.096023813 0.12509048 0.54500002 1.2167969e-38
-0.094288565 0.12417237 0.54100001 1.2351293e-38
-0.093085721 0.12394285 0.54000002 1.2259097e-38
-0.091886669 0.12371334 0.53900003 1.1890663e-38
-0.090691432 0.12348381 0.53800005 1.2259446e-38
-0.089499995 0.12325429 0.537 1.2534957e-38
-0.088477142 0.12325429 0.537 1.2442761e-38
-0.087291434 0.12302477 0.53600001 1.2809386e-38
-0.086109526 0.12279525 0.53500003 1.2901581e-38
-0.085090473 0.12279525 0.53500003 1.2810113e-38
-0.083914295 0.12256573 0.53400004 1.2625722e-38
-0.082586668 0.12210667 0.53200001 1.225873e-38
-0.08157333 0.12210667 0.53200001 1.2627512e-38
-0.080559999 0.12210667 0.53200001 1.2628579e-38
-0.079546668 0.12210667 0.53200001 1.2351992e-38
-0.078533329 0.12210667 0.53200001 1.1889584e-38
-0.077374287 0.12187714 0.53100002 1.2166171e-38
-0.076362856 0.12187714 0.53100002 1.2627529e-38
-0.075351432 0.12187714 0.53100002 1.2443138e-38
-0.074340001 0.12187714 0.53100002 1.2074703e-38
-0.073328577 0.12187714 0.53100002 1.2074703e-38
-0.072317146 0.12187714 0.53100002 1.2719695e-38
-0.071305715 0.12187714 0.53100002 1.2719695e-38
-0.070161909 0.12164763 0.53000003 1.2073993e-38
-0.069152378 0.12164763 0.53000003 1.2166188e-38
-0.068014294 0.1214181 0.52900004 1.2534954e-38
-0.06700667 0.1214181 0.52900004 1.262715e-38
-0.065999053 0.1214181 0.52900004 1.2536383e-38
-0.064991429 0.1214181 0.52900004 1.2536383e-38
-0.064104766 0.12164763 0.53000003 1.2720072e-38
-0.063095242 0.12164763 0.53000003 1.2627877e-38
-0.062085714 0.12164763 0.53000003 1.225873e-38
-0.061191428 0.12187714 0.53100002 1.225873e-38
-0.060293335 0.12210667 0.53200001 1.2166174e-38
-0.059280001 0.12210667 0.53200001 1.2995935e-38
-0.058266666 0.12210667 0.53200001 1.2996306e-38
-0.057253335 0.12210667 0.53200001 1.2811915e-38
-0.05624 0.12210667 0.53200001 1.2442769e-38
-0.055226665 0.12210667 0.53200001 1.2627161e-38
-0.054213334 0.12210667 0.53200001 1.2718993e-38
-0.053100001 0.12187714 0.53100002 1.3087776e-38
-0.05208857 0.12187714 0.53100002 1.3088495e-38
-0.051269528 0.12233621 0.53300005 1.3088495e-38
-0.050254289 0.12233621 0.53300005 1.3179972e-38
-0.049239051 0.12233621 0.53300005 1.3364363e-38
-0.048314288 0.12256573 0.53400004 1.3640566e-38
-0.047297146 0.12256573 0.53400004 1.354837e-38
-0.046366669 0.12279525 0.53500003 1.299558e-38
-0.045432381 0.12302477 0.53600001 1.3087776e-38
-0.044577144 0.12348381 0.53800005 1.3087791e-38
-0.043633334 0.12371334 0.53900003 1.3087791e-38
-0.042685717 0.12394285 0.54000002 1.3088144e-38
-0.041657142 0.12394285 0.54000002 1.2811558e-38
-0.040628571 0.12394285 0.54000002 1.2075072e-38
-0.039673336 0.12417237 0.54100001 1.1337507e-38
-0.03871429 0.12440191 0.54200006 1.0786128e-38
-0.037751433 0.12463143 0.54300004 1.0786128e-38
-0.03692 0.12532 0.546 1.087723e-38
-0.035879999 0.12532 0.546 1.087723e-38
-0.034903809 0.12554954 0.54700005 1.1061256e-38
-0.033985715 0.12600857 0.54900002 1.1153452e-38
-0.03294 0.12600857 0.54900002 1.0970868e-38
-0.031952381 0.12623809 0.55000001 1.0970868e-38
-0.10356572 0.12774858 0.55200005 1.9450018e-38
-0.10251429 0.12774858 0.55200005 1.9266338e-38
-0.10072763 0.12682287 0.54800004 1.5578512e-38
-0.099501915 0.12659143 0.54700005 1.3919344e-38
-0.098460011 0.12659143 0.54700005 1.1614454e-38
-0.0974181 0.12659143 0.54700005 1.1153098e-38
-0.096023813 0.12612857 0.54500002 1.133749e-38
-0.094462864 0.12543429 0.54200006 1.1337124e-38
-0.093085721 0.12497143 0.54000002 1.1152733e-38
-0.092057146 0.12497143 0.54000002 1.1520453e-38
-0.090860009 0.12474 0.53900003 1.2442409e-38
-0.089666672 0.12450858 0.53800005 1.2443109e-38
-0.088477142 0.12427714 0.537 1.2719695e-38
-0.087454289 0.12427714 0.537 1.2442758e-38
-0.086109526 0.12381429 0.53500003 1.2442758e-38
-0.085090473 0.12381429 0.53500003 1.2534249e-38
-0.083914295 0.12358286 0.53400004 1.2442053e-38
-0.082741909 0.12335144 0.53300005 1.2350923e-38
-0.08157333 0.12312 0.53200001 1.2811901e-38
-0.080559999 0.12312 0.53200001 1.2995912e-38
-0.079546668 0.12312 0.53200001 1.2811521e-38
-0.078533329 0.12312 0.53200001 1.2442761e-38
-0.077374287 0.12288857 0.53100002 1.2442761e-38
-0.076362856 0.12288857 0.53100002 1.2627166e-38
-0.075351432 0.12288857 0.53100002 1.2534971e-38
-0.074340001 0.12288857 0.53100002 1.225873e-38
-0.073328577 0.12288857 0.53100002 1.2074339e-38
-0.072317146 0.12288857 0.53100002 1.2443462e-38
-0.071305715 0.12288857 0.53100002 1.2627853e-38
-0.070161909 0.12265715 0.53000003 1.2441706e-38
-0.069152378 0.12265715 0.53000003 1.234951e-38
-0.068014294 0.12242573 0.52900004 1.2719345e-38
-0.06700667 0.12242573 0.52900004 1.2719345e-38
-0.065999053 0.12242573 0.52900004 1.2628229e-38
-0.064991429 0.12242573 0.52900004 1.2628229e-38
-0.064104766 0.12265715 0.53000003 1.2811901e-38
-0.063095242 0.12265715 0.53000003 1.2811901e-38
-0.062085714 0.12265715 0.53000003 1.2719345e-38
-0.061306667 0.12312 0.53200001 1.2811541e-38
-0.060293335 0.12312 0.53200001 1.2719345e-38
-0.059280001 0.12312 0.53200001 1.345691e-38
-0.058266666 0.12312 0.53200001 1.3179972e-38
-0.057253335 0.12312 0.53200001 1.3087776e-38
-0.05624 0.12312 0.53200001 1.2903736e-38
-0.055226665 0.12312 0.53200001 1.2811541e-38
-0.054315243 0.12335144 0.53300005 1.2811192e-38
-0.053199999 0.12312 0.53200001 1.3179974e-38
-0.052186668 0.12312 0.53200001 1.3363638e-38
-0.051269528 0.12335144 0.53300005 1.3271443e-38
-0.050254289 0.12335144 0.53300005 1.3180671e-38
-0.049239051 0.12335144 0.53300005 1.3457258e-38
-0.048495241 0.12404571 0.53600001 1.3548367e-38
-0.047474284 0.12404571 0.53600001 1.2810802e-38
-0.046453334 0.12404571 0.53600001 1.2719345e-38
-0.045517143 0.12427714 0.537 1.2903736e-38
-0.044577144 0.12450858 0.53800005 1.2350926e-38
-0.043633334 0.12474 0.53900003 1.2074339e-38
-0.042685717 0.12497143 0.54000002 1.1428623e-38
-0.041657142 0.12497143 0.54000002 1.1428623e-38
-0.040703811 0.12520285 0.54100001 1.1152046e-38
-0.039673336 0.12520285 0.54100001 1.0783264e-38
-0.038785715 0.12566572 0.54300004 1.0783977e-38
-0.037820954 0.12589714 0.54400003 1.1060564e-38
-0.03692 0.12636 0.546 1.1060906e-38
-0.035879999 0.12636 0.546 1.0784319e-38
-0.03503143 0.1270543 0.54900002 1.0875793e-38
-0.033985715 0.1270543 0.54900002 1.115238e-38
-0.03294 0.1270543 0.54900002 1.0693929e-38
-0.031952381 0.12728572 0.55000001 1.1154908e-38
-0.10072763 0.12786667 0.54800004 1.5762904e-38
-0.099501915 0.12763335 0.54700005 1.3827868e-38
-0.098460011 0.12763335 0.54700005 1.1338586e-38
-0.097239994 0.1274 0.546 1.0877225e-38
-0.096200004 0.1274 0.546 1.0785029e-38
-0.094637156 0.1267 0.54300004 1.1335334e-38
-0.093430489 0.12646668 0.54200006 1.142753e-38
-0.092057146 0.126 0.54000002 1.1519374e-38
-0.090860009 0.12576668 0.53900003 1.2256939e-38
-0.089666672 0.12553334 0.53800005 1.2074343e-38
-0.088477142 0.12530001 0.537 1.2443125e-38
-0.087454289 0.12530001 0.537 1.2443121e-38
-0.086109526 0.12483335 0.53500003 1.225873e-38
-0.085090473 0.12483335 0.53500003 1.2074343e-38
-0.084071428 0.12483335 0.53500003 1.2258734e-38
-0.082897149 0.12460002 0.53400004 1.2443109e-38
-0.081726678 0.12436667 0.53300005 1.2443109e-38
-0.080711439 0.12436667 0.53300005 1.2626061e-38
-0.079546668 0.12413333 0.53200001 1.2902648e-38
-0.078533329 0.12413333 0.53200001 1.308597e-38
-0.077520005 0.12413333 0.53200001 1.2901578e-38
-0.076506667 0.12413333 0.53200001 1.2442407e-38
-0.075493328 0.12413333 0.53200001 1.2534602e-38
-0.074340001 0.1239 0.53100002 1.2442758e-38
-0.073328577 0.1239 0.53100002 1.2442758e-38
-0.072317146 0.1239 0.53100002 1.2443109e-38
-0.071305715 0.1239 0.53100002 1.26275e-38
-0.070294291 0.1239 0.53100002 1.2901958e-38
-0.069152378 0.12366667 0.53000003 1.2901958e-38
-0.068014294 0.12343334 0.52900004 1.2902664e-38
-0.06700667 0.12343334 0.52900004 1.2902664e-38
-0.066123806 0.12366667 0.53000003 1.2627526e-38
-0.06511429 0.12366667 0.53000003 1.2627526e-38
-0.064225718 0.1239 0.53100002 1.299558e-38
-0.063214287 0.1239 0.53100002 1.2903385e-38
-0.06220286 0.1239 0.53100002 1.2534957e-38
-0.061306667 0.12413333 0.53200001 1.2719348e-38
-0.060293335 0.12413333 0.53200001 1.2903001e-38
-0.059391435 0.12436667 0.53300005 1.3179588e-38
-0.058376197 0.12436667 0.53300005 1.3087423e-38
-0.057360958 0.12436667 0.53300005 1.3087423e-38
-0.05634572 0.12436667 0.53300005 1.2811189e-38
-0.055330478 0.12436667 0.53300005 1.2811189e-38
-0.054315243 0.12436667 0.53300005 1.2903387e-38
-0.053300004 0.12436667 0.53300005 1.2903387e-38
-0.052284766 0.12436667 0.53300005 1.3271443e-38
-0.051269528 0.12436667 0.53300005 1.3271443e-38
-0.050348576 0.12460002 0.53400004 1.3179237e-38
-0.049423814 0.12483335 0.53500003 1.354802e-38
-0.048585713 0.12530001 0.537 1.3548736e-38
-0.04756286 0.12530001 0.537 1.2811171e-38
-0.04654 0.12530001 0.537 1.2627152e-38
-0.045601908 0.12553334 0.53800005 1.2534957e-38
-0.044660002 0.12576668 0.53900003 1.189137e-38
-0.043714285 0.126 0.54000002 1.1338196e-38
-0.042685717 0.126 0.54000002 1.1059827e-38
-0.041657142 0.126 0.54000002 1.1152022e-38
-0.040703811 0.12623332 0.54100001 1.0968002e-38
-0.039746672 0.12646668 0.54200006 1.0875807e-38
-0.038785715 0.1267 0.54300004 1.0690702e-38
-0.037820954 0.12693335 0.54400003 1.0875093e-38
-0.03692 0.1274 0.546 1.0875807e-38
-0.035945717 0.12763335 0.54700005 1.0691415e-38
-0.03503143 0.12810001 0.54900002 1.0415896e-38
-0.033985715 0.12810001 0.54900002 1.096907e-38
-0.033 0.12833333 0.55000001 1.0876874e-38
-0.031952381 0.12833333 0.55000001 1.1430048e-38
-0.10072763 0.12891048 0.54800004 1.6314999e-38
-0.099501915 0.12867525 0.54700005 1.4102669e-38
-0.098460011 0.12867525 0.54700005 1.1428996e-38
-0.097239994 0.12843999 0.546 1.0785035e-38
-0.096200004 0.12843999 0.546 1.0231861e-38
-0.094985716 0.12820476 0.54500002 9.9535001e-39
-0.093602858 0.1277343 0.54300004 9.6769132e-39
-0.092227623 0.12726381 0.54100001 1.0045336e-38
-0.091028571 0.12702857 0.54000002 1.0690705e-38
-0.089833334 0.12679334 0.53900003 1.0691055e-38
-0.088806674 0.12679334 0.53900003 1.0967642e-38
-0.087617151 0.12655811 0.53800005 1.1428969e-38
-0.086431429 0.12632287 0.537 1.1982143e-38
-0.085090473 0.12585239 0.53500003 1.2166171e-38
-0.084071428 0.12585239 0.53500003 1.2166171e-38
-0.082897149 0.12561715 0.53400004 1.2626411e-38
-0.081726678 0.12538192 0.53300005 1.2718607e-38
-0.080711439 0.12538192 0.53300005 1.2901581e-38
-0.079696193 0.12538192 0.53300005 1.2624994e-38
-0.078680955 0.12538192 0.53300005 1.2809746e-38
-0.077665724 0.12538192 0.53300005 1.2625354e-38
-0.076506667 0.12514667 0.53200001 1.2534957e-38
-0.075493328 0.12514667 0.53200001 1.2442761e-38
-0.074480005 0.12514667 0.53200001 1.2534954e-38
-0.073466666 0.12514667 0.53200001 1.2534954e-38
-0.072453335 0.12514667 0.53200001 1.2534957e-38
-0.071305715 0.12491143 0.53100002 1.2534957e-38
-0.070294291 0.12491143 0.53100002 1.2534605e-38
-0.06928286 0.12491143 0.53100002 1.2626801e-38
-0.068271436 0.12491143 0.53100002 1.2534605e-38
-0.067133337 0.12467619 0.53000003 1.2626801e-38
-0.066123806 0.12467619 0.53000003 1.2350592e-38
-0.06511429 0.12467619 0.53000003 1.2258396e-38
-0.064225718 0.12491143 0.53100002 1.2534605e-38
-0.063214287 0.12491143 0.53100002 1.2626801e-38
-0.06220286 0.12491143 0.53100002 1.3087049e-38
-0.061306667 0.12514667 0.53200001 1.327144e-38
-0.06040667 0.12538192 0.53300005 1.3179575e-38
-0.059391435 0.12538192 0.53300005 1.3271771e-38
-0.058376197 0.12538192 0.53300005 1.3179271e-38
-0.057360958 0.12538192 0.53300005 1.3732445e-38
-0.05634572 0.12538192 0.53300005 1.290409e-38
-0.055330478 0.12538192 0.53300005 1.2811894e-38
-0.054315243 0.12538192 0.53300005 1.2811192e-38
-0.053300004 0.12538192 0.53300005 1.2811192e-38
-0.052284766 0.12538192 0.53300005 1.2903385e-38
-0.051269528 0.12538192 0.53300005 1.2903385e-38
-0.050348576 0.12561715 0.53400004 1.2350923e-38
-0.04951619 0.12608762 0.53600001 1.1889945e-38
-0.048676193 0.12655811 0.53800005 1.1706269e-38
-0.047651432 0.12655811 0.53800005 1.1521878e-38
-0.046626668 0.12655811 0.53800005 1.1244226e-38
-0.045601908 0.12655811 0.53800005 1.0967639e-38
-0.04474286 0.12702857 0.54000002 1.0692808e-38
-0.043714285 0.12702857 0.54000002 1.0785004e-38
-0.042685717 0.12702857 0.54000002 1.0876874e-38
-0.041734286 0.12726381 0.54100001 1.0784679e-38
-0.04077905 0.12749906 0.54200006 1.0876163e-38
-0.039820004 0.1277343 0.54300004 1.0783967e-38
-0.038857147 0.12796953 0.54400003 1.0322283e-38
-0.037820954 0.12796953 0.54400003 1.0230087e-38
-0.03692 0.12843999 0.546 1.0322283e-38
-0.035945717 0.12867525 0.54700005 1.0506674e-38
-0.03503143 0.12914573 0.54900002 1.0599586e-38
-0.033985715 0.12914573 0.54900002 1.1060564e-38
-0.033 0.12938096 0.55000001 1.1060906e-38
-0.032010477 0.12961619 0.551 1.1614079e-38
-0.099683814 0.12995429 0.54800004 1.5024247e-38
-0.098640002 0.12995429 0.54800004 1.2073987e-38
-0.097239994 0.12947999 0.546 1.0785035e-38
-0.096200004 0.12947999 0.546 9.4021003e-39
-0.094985716 0.12924285 0.54500002 9.5850833e-39
-0.093775243 0.12900572 0.54400003 9.4928877e-39
-0.092398107 0.12853144 0.54200006 9.0337074e-39
-0.091028571 0.12805715 0.54000002 9.125903e-39
-0.089833334 0.12782001 0.53900003 9.1262365e-39
-0.088806674 0.12782001 0.53900003 9.7716059e-39
-0.087617151 0.12758286 0.53800005 1.1059827e-38
-0.086592384 0.12758286 0.53800005 1.1520805e-38
-0.085408568 0.12734571 0.537 1.1887426e-38
-0.084071428 0.12687144 0.53500003 1.2348405e-38
-0.082897149 0.12663428 0.53400004 1.2256925e-38
-0.081880003 0.12663428 0.53400004 1.2625708e-38
-0.080862865 0.12663428 0.53400004 1.2625354e-38
-0.079696193 0.12639715 0.53300005 1.2625354e-38
-0.078680955 0.12639715 0.53300005 1.2810116e-38
-0.077665724 0.12639715 0.53300005 1.271792e-38
-0.076506667 0.12616 0.53200001 1.2627161e-38
-0.075493328 0.12616 0.53200001 1.2442769e-38
-0.074480005 0.12616 0.53200001 1.2719345e-38
-0.073466666 0.12616 0.53200001 1.2719345e-38
-0.072453335 0.12616 0.53200001 1.2717917e-38
-0.071440004 0.12616 0.53200001 1.2625722e-38
-0.070426665 0.12616 0.53200001 1.2442407e-38
-0.06928286 0.12592286 0.53100002 1.2350211e-38
-0.068271436 0.12592286 0.53100002 1.1889584e-38
-0.067259997 0.12592286 0.53100002 1.2442758e-38
-0.066248573 0.12592286 0.53100002 1.2442419e-38
-0.065237142 0.12592286 0.53100002 1.2350224e-38
-0.064225718 0.12592286 0.53100002 1.2442761e-38
-0.063214287 0.12592286 0.53100002 1.2534957e-38
-0.06220286 0.12592286 0.53100002 1.3362557e-38
-0.061306667 0.12616 0.53200001 1.3454752e-38
-0.06040667 0.12639715 0.53300005 1.3455456e-38
-0.059391435 0.12639715 0.53300005 1.3271064e-38
-0.058376197 0.12639715 0.53300005 1.2718996e-38
-0.057360958 0.12639715 0.53300005 1.2995583e-38
-0.05634572 0.12639715 0.53300005 1.2996295e-38
-0.055330478 0.12639715 0.53300005 1.2627512e-38
-0.054417148 0.12663428 0.53400004 1.235056e-38
-0.053400002 0.12663428 0.53400004 1.2258364e-38
-0.05238286 0.12663428 0.53400004 1.2165092e-38
-0.051365718 0.12663428 0.53400004 1.2257288e-38
-0.050537147 0.12710857 0.53600001 1.1706988e-38
-0.049608573 0.12734571 0.537 1.0877228e-38
-0.048676193 0.12758286 0.53800005 1.07836e-38
-0.047651432 0.12758286 0.53800005 1.0875795e-38
-0.046626668 0.12758286 0.53800005 1.0692131e-38
-0.045601908 0.12758286 0.53800005 1.0692131e-38
-0.04474286 0.12805715 0.54000002 1.0233653e-38
-0.043714285 0.12805715 0.54000002 1.0418045e-38
-0.042685717 0.12805715 0.54000002 1.0602085e-38
-0.041734286 0.12829429 0.54100001 1.0417694e-38
-0.04085429 0.12876858 0.54300004 1.050774e-38
-0.039820004 0.12876858 0.54300004 1.0599936e-38
-0.038857147 0.12900572 0.54400003 1.0322283e-38
-0.037820954 0.12900572 0.54400003 1.0137891e-38
-0.03692 0.12947999 0.546 1.0046765e-38
-0.036011431 0.12995429 0.54800004 1.0415547e-38
-0.03503143 0.13019143 0.54900002 1.0140756e-38
-0.034047619 0.13042857 0.55000001 1.0601734e-38
-0.033059999 0.13066572 0.551 1.1153098e-38
-0.032126669 0.13114001 0.55300003 1.2075055e-38
-0.099683814 0.1309981 0.54800004 1.53941e-38
-0.098640002 0.1309981 0.54800004 1.2351644e-38
-0.0974181 0.13075906 0.54700005 1.0876523e-38
-0.096200004 0.13052 0.546 9.309197e-39
-0.094985716 0.13028096 0.54500002 9.2173924e-39
-0.093947619 0.13028096 0.54500002 9.309588e-39
-0.092398107 0.12956381 0.54200006 9.2180986e-39
-0.091197148 0.12932476 0.54100001 8.5727292e-39
-0.089999996 0.12908572 0.54000002 7.9291184e-39
-0.088971436 0.12908572 0.54000002 7.7447272e-39
-0.087780006 0.12884666 0.53900003 8.3886785e-39
-0.086592384 0.12860763 0.53800005 9.6794173e-39
-0.085408568 0.12836857 0.537 1.032118e-38
-0.084071428 0.12789048 0.53500003 1.0413375e-38
-0.082897149 0.12765144 0.53400004 1.0321554e-38
-0.081880003 0.12765144 0.53400004 1.1151315e-38
-0.080862865 0.12765144 0.53400004 1.1152382e-38
-0.079696193 0.12741239 0.53300005 1.1244578e-38
-0.078680955 0.12741239 0.53300005 1.1336072e-38
-0.077665724 0.12741239 0.53300005 1.1336072e-38
-0.076506667 0.12717333 0.53200001 1.170592e-38
-0.075493328 0.12717333 0.53200001 1.170592e-38
-0.074480005 0.12717333 0.53200001 1.1982496e-38
-0.073466666 0.12717333 0.53200001 1.2166887e-38
-0.072589532 0.12741239 0.53300005 1.2166185e-38
-0.071574293 0.12741239 0.53300005 1.1797403e-38
-0.070426665 0.12717333 0.53200001 1.2074339e-38
-0.069413334 0.12717333 0.53200001 1.225873e-38
-0.068399996 0.12717333 0.53200001 1.2258717e-38
-0.067259997 0.12693429 0.53100002 1.2350913e-38
-0.066248573 0.12693429 0.53100002 1.2259449e-38
-0.065237142 0.12693429 0.53100002 1.2259449e-38
-0.064225718 0.12693429 0.53100002 1.2074692e-38
-0.063214287 0.12693429 0.53100002 1.1521518e-38
-0.06220286 0.12693429 0.53100002 1.2258715e-38
-0.061306667 0.12717333 0.53200001 1.2258715e-38
-0.06040667 0.12741239 0.53300005 1.2074323e-38
-0.059391435 0.12741239 0.53300005 1.1889932e-38
-0.058376197 0.12741239 0.53300005 1.1428966e-38
-0.057360958 0.12741239 0.53300005 1.0691401e-38
-0.05634572 0.12741239 0.53300005 1.1428973e-38
-0.055330478 0.12741239 0.53300005 1.1428973e-38
-0.054417148 0.12765144 0.53400004 1.0875433e-38
-0.053400002 0.12765144 0.53400004 1.050665e-38
-0.05238286 0.12765144 0.53400004 1.0875433e-38
-0.051461909 0.12789048 0.53500003 1.0875433e-38
-0.050725717 0.12860763 0.53800005 1.0324044e-38
-0.049700957 0.12860763 0.53800005 1.0231848e-38
-0.048766669 0.12884666 0.53900003 1.0415901e-38
-0.047740001 0.12884666 0.53900003 1.0600292e-38
-0.046713337 0.12884666 0.53900003 1.0692483e-38
-0.04568667 0.12884666 0.53900003 1.0692483e-38
-0.04474286 0.12908572 0.54000002 1.0692839e-38
-0.043714285 0.12908572 0.54000002 1.0969426e-38
-0.042685717 0.12908572 0.54000002 1.0785035e-38
-0.041811433 0.12956381 0.54200006 1.0231861e-38
-0.04085429 0.12980287 0.54300004 1.0230776e-38
-0.039893333 0.13004191 0.54400003 1.0415168e-38
-0.038857147 0.13004191 0.54400003 1.0230453e-38
-0.037890475 0.13028096 0.54500002 1.050704e-38
-0.037055239 0.1309981 0.54800004 1.096871e-38
-0.036077142 0.13123715 0.54900002 1.1614079e-38
-0.03503143 0.13123715 0.54900002 1.1799174e-38
-0.034171432 0.1319543 0.55200005 1.2260152e-38
-0.033119999 0.1319543 0.55200005 1.3088841e-38
-0.032126669 0.13219334 0.55300003 1.3457623e-38
-0.097239994 0.13156 0.546 1.1430767e-38
-0.096200004 0.13156 0.546 9.4024633e-39
-0.094985716 0.13131906 0.54500002 8.8500364e-39
-0.093947619 0.13131906 0.54500002 8.8500364e-39
-0.092398107 0.13059619 0.54200006 8.8500364e-39
-0.091197148 0.13035524 0.54100001 8.5734495e-39
