# .PCD v0.7 - Point Cloud Data file format
VERSION 0.7
FIELDS x y z rgb
SIZE 4 4 4 4
TYPE F F F F
COUNT 1 1 1 1
WIDTH 1025
HEIGHT 1
VIEWPOINT 0 0 0 1 0 0 0
POINTS 1025
DATA ascii
-0.11139334 0.21611336 0.53900003 9.1284113e-39
-0.1118 0.21891999 0.546 9.3124467e-39
-0.11116572 0.21972193 0.54800004 8.1139035e-39
-0.11032286 0.22012287 0.54900002 8.2961395e-39
-0.10947619 0.2205238 0.55000001 8.3883352e-39
-0.10842858 0.2205238 0.55000001 8.6649094e-39
-0.10738095 0.2205238 0.55000001 1.0877605e-38
-0.10652667 0.22092475 0.551 1.1706652e-38
-0.10547714 0.22092475 0.551 1.1614456e-38
-0.10480667 0.22172669 0.55300003 1.1062362e-38
-0.10450382 0.2233305 0.55700004 1.1615535e-38
-0.10362858 0.22373144 0.55800003 1.1247842e-38
-0.10274953 0.22413239 0.55900002 1.1524429e-38
-0.10168476 0.22413239 0.55900002 1.1616977e-38
-0.10062 0.22413239 0.55900002 1.0602825e-38
-0.16580668 0.21714 0.53900003 9.8641715e-39
-0.16478001 0.21714 0.53900003 9.0344108e-39
-0.16375335 0.21714 0.53900003 9.0340605e-39
-0.16272667 0.21714 0.53900003 9.0340605e-39
-0.1617 0.21714 0.53900003 8.2975913e-39
-0.16067335 0.21714 0.53900003 7.9288088e-39
-0.15935048 0.21673717 0.53800005 8.2043194e-39
-0.15803142 0.21633428 0.537 8.7574932e-39
-0.15613145 0.21512572 0.53400004 8.3876317e-39
-0.15511429 0.21512572 0.53400004 8.4798273e-39
-0.15380858 0.21472287 0.53300005 8.2965151e-39
-0.15279335 0.21472287 0.53300005 8.2965151e-39
-0.15177812 0.21472287 0.53300005 8.4812539e-39
-0.15076287 0.21472287 0.53300005 8.6656451e-39
-0.14918572 0.21391715 0.53100002 8.573102e-39
-0.14817429 0.21391715 0.53100002 8.573102e-39
-0.14771715 0.21472287 0.53300005 8.3901176e-39
-0.14642666 0.21431999 0.53200001 8.0213351e-39
-0.14541334 0.21431999 0.53200001 7.9288116e-39
-0.14412858 0.21391715 0.53100002 7.8366159e-39
-0.14311714 0.21391715 0.53100002 7.7451209e-39
-0.14237334 0.21431999 0.53200001 8.2060991e-39
-0.14136 0.21431999 0.53200001 8.4815706e-39
-0.14008287 0.21391715 0.53100002 8.2971793e-39
-0.13907143 0.21391715 0.53100002 8.3886757e-39
-0.13806 0.21391715 0.53100002 8.4808713e-39
-0.13704857 0.21391715 0.53100002 8.3883253e-39
-0.13603714 0.21391715 0.53100002 8.3883253e-39
-0.13502572 0.21391715 0.53100002 8.7574736e-39
-0.13401429 0.21391715 0.53100002 9.3106474e-39
-0.13300286 0.21391715 0.53100002 9.6783355e-39
-0.13224 0.21431999 0.53200001 9.9549224e-39
-0.13122666 0.21431999 0.53200001 9.4031933e-39
-0.13021334 0.21431999 0.53200001 9.5875846e-39
-0.1292 0.21431999 0.53200001 9.402843e-39
-0.12818667 0.21431999 0.53200001 9.8638212e-39
-0.12765144 0.21512572 0.53400004 1.0415547e-38
-0.12663428 0.21512572 0.53400004 1.0507743e-38
-0.12561715 0.21512572 0.53400004 1.0599586e-38
-0.12506667 0.21593143 0.53600001 1.0876172e-38
-0.12427714 0.21633428 0.537 1.0875807e-38
-0.12325429 0.21633428 0.537 1.0875807e-38
-0.12223143 0.21633428 0.537 1.0691781e-38
-0.12120857 0.21633428 0.537 1.0691781e-38
-0.12018571 0.21633428 0.537 1.0693582e-38
-0.11916286 0.21633428 0.537 1.0785777e-38
-0.11836001 0.21673717 0.53800005 1.1061661e-38
-0.11733525 0.21673717 0.53800005 1.0324096e-38
-0.11674286 0.21754287 0.54000002 9.5872539e-39
-0.11571429 0.21754287 0.54000002 9.2184714e-39
-0.11468572 0.21754287 0.54000002 8.2050453e-39
-0.11386763 0.21794571 0.54100001 8.0206541e-39
-0.11304572 0.21834859 0.54200006 8.0209609e-39
-0.11222 0.21875143 0.54300004 8.0209609e-39
-0.1118 0.21996 0.546 8.4809063e-39
-0.11096287 0.22036289 0.54700005 9.6794495e-39
-0.11012191 0.22076572 0.54800004 9.9560168e-39
-0.10927714 0.22116858 0.54900002 1.0601386e-38
-0.10842858 0.22157143 0.55000001 1.0968371e-38
-0.10757619 0.22197428 0.551 1.1705936e-38
-0.10652667 0.22197428 0.551 1.1614807e-38
-0.10566858 0.22237715 0.55200005 1.1799198e-38
-0.10499619 0.22318287 0.55400002 1.1615888e-38
-0.10450382 0.22439145 0.55700004 1.2076867e-38
-0.10362858 0.2247943 0.55800003 1.1708804e-38
-0.10256572 0.2247943 0.55800003 1.1893196e-38
-0.10168476 0.22519714 0.55900002 1.1615888e-38
-0.10062 0.22519714 0.55900002 9.495389e-39
-0.1661143 0.21857144 0.54000002 1.0138961e-38
-0.16508572 0.21857144 0.54000002 9.4935911e-39
-0.16405715 0.21857144 0.54000002 9.1262561e-39
-0.16302858 0.21857144 0.54000002 8.5730823e-39
-0.162 0.21857144 0.54000002 8.3883352e-39
-0.16097143 0.21857144 0.54000002 8.2961395e-39
-0.15964667 0.21816668 0.53900003 8.112121e-39
-0.15803142 0.21735714 0.537 8.2043166e-39
-0.1567162 0.21695238 0.53600001 8.2035964e-39
-0.15569524 0.21695238 0.53600001 8.3879876e-39
-0.15409715 0.21614286 0.53400004 8.3879876e-39
-0.15308 0.21614286 0.53400004 8.4801833e-39
-0.15206286 0.21614286 0.53400004 8.942232e-39
-0.15076287 0.21573812 0.53300005 8.5734495e-39
-0.14974764 0.21573812 0.53300005 8.2975717e-39
-0.14873239 0.21573812 0.53300005 8.3897673e-39
-0.14771715 0.21573812 0.53300005 8.206455e-39
-0.14670192 0.21573812 0.53300005 8.206455e-39
-0.14568667 0.21573812 0.53300005 8.4826916e-39
-0.1444 0.21533334 0.53200001 7.9295178e-39
-0.14338666 0.21533334 0.53200001 7.9298653e-39
-0.14237334 0.21533334 0.53200001 8.2064522e-39
-0.14136 0.21533334 0.53200001 8.6652584e-39
-0.14008287 0.21492857 0.53100002 8.3886715e-39
-0.13907143 0.21492857 0.53100002 8.2961395e-39
-0.13832 0.21533334 0.53200001 8.3883352e-39
-0.13704857 0.21492857 0.53100002 8.2972185e-39
-0.13603714 0.21492857 0.53100002 8.4816098e-39
-0.13528 0.21533334 0.53200001 8.2983003e-39
-0.13426666 0.21533334 0.53200001 9.128061e-39
-0.13325334 0.21533334 0.53200001 9.4039136e-39
-0.13224 0.21533334 0.53200001 9.4039136e-39
-0.13147335 0.21573812 0.53300005 9.1262365e-39
-0.13045812 0.21573812 0.53300005 9.4028234e-39
-0.12944287 0.21573812 0.53300005 9.3106446e-39
-0.12842762 0.21573812 0.53300005 9.5872315e-39
-0.12765144 0.21614286 0.53400004 1.0601383e-38
-0.12663428 0.21614286 0.53400004 1.0324797e-38
-0.12561715 0.21614286 0.53400004 1.0598869e-38
-0.12506667 0.21695238 0.53600001 1.0691065e-38
-0.12427714 0.21735714 0.537 1.0691781e-38
-0.12325429 0.21735714 0.537 1.0691781e-38
-0.12223143 0.21735714 0.537 1.0232954e-38
-0.12120857 0.21735714 0.537 1.032515e-38
-0.12018571 0.21735714 0.537 1.0509541e-38
-0.11938477 0.21776192 0.53800005 1.0601737e-38
-0.11836001 0.21776192 0.53800005 1.0969816e-38
-0.11733525 0.21776192 0.53800005 1.0140055e-38
-0.11674286 0.21857144 0.54000002 8.9436641e-39
-0.11571429 0.21857144 0.54000002 8.8514685e-39
-0.1148981 0.21897618 0.54100001 7.6529407e-39
-0.1140781 0.21938097 0.54200006 7.4685495e-39
-0.11325429 0.21978574 0.54300004 6.7316585e-39
-0.11263334 0.22059524 0.54500002 7.7458104e-39
-0.1118 0.221 0.546 8.5723607e-39
-0.11096287 0.22140478 0.54700005 1.0139686e-38
-0.11012191 0.22180954 0.54800004 1.0415194e-38
-0.10927714 0.2222143 0.54900002 1.1060564e-38
-0.10823143 0.2222143 0.54900002 1.0968371e-38
-0.10738095 0.22261904 0.55000001 1.161374e-38
-0.10672001 0.22342859 0.55200005 1.1246753e-38
-0.10586 0.22383334 0.55300003 1.1431144e-38
-0.10518571 0.22464286 0.55500001 1.1340025e-38
-0.10450382 0.22545239 0.55700004 1.1340025e-38
-0.10344286 0.22545239 0.55700004 1.0971245e-38
-0.10256572 0.22585715 0.55800003 1.0879049e-38
-0.10168476 0.22626191 0.55900002 1.0970516e-38
-0.10062 0.22626191 0.55900002 1.0325147e-38
-0.16642191 0.22000667 0.54100001 1.0048563e-38
-0.16539142 0.22000667 0.54100001 9.2188021e-39
-0.16436096 0.22000667 0.54100001 9.1262561e-39
-0.16333048 0.22000667 0.54100001 8.5730823e-39
-0.16230001 0.22000667 0.54100001 8.2050229e-39
-0.16126953 0.22000667 0.54100001 7.6518491e-39
-0.15994285 0.21959999 0.54000002 8.2961395e-39
-0.15803142 0.21837999 0.537 8.2961395e-39
-0.15700856 0.21837999 0.537 8.1121042e-39
-0.15569524 0.21797334 0.53600001 8.2964955e-39
-0.15409715 0.21716002 0.53400004 8.2961395e-39
-0.15308 0.21716002 0.53400004 8.3883352e-39
-0.15206286 0.21716002 0.53400004 8.6652654e-39
-0.15076287 0.21675335 0.53300005 8.2042872e-39
-0.14974764 0.21675335 0.53300005 8.1131566e-39
-0.14873239 0.21675335 0.53300005 8.2053522e-39
-0.14771715 0.21675335 0.53300005 8.3897407e-39
-0.14670192 0.21675335 0.53300005 8.297545e-39
-0.14568667 0.21675335 0.53300005 8.1135307e-39
-0.1444 0.21634667 0.53200001 7.9291395e-39
-0.14338666 0.21634667 0.53200001 8.1131776e-39
-0.14237334 0.21634667 0.53200001 8.2975689e-39
-0.14162573 0.21675335 0.53300005 8.6652584e-39
-0.14034666 0.21634667 0.53200001 8.6652584e-39
-0.13933334 0.21634667 0.53200001 8.5723789e-39
-0.13832 0.21634667 0.53200001 8.4801833e-39
-0.13704857 0.21594001 0.53100002 8.4819629e-39
-0.13603714 0.21594001 0.53100002 8.4819629e-39
-0.13528 0.21634667 0.53200001 8.4809035e-39
-0.13426666 0.21634667 0.53200001 9.4950555e-39
-0.13325334 0.21634667 0.53200001 9.4953722e-39
-0.13224 0.21634667 0.53200001 8.8500027e-39
-0.13147335 0.21675335 0.53300005 8.7585134e-39
-0.13045812 0.21675335 0.53300005 8.9429046e-39
-0.12944287 0.21675335 0.53300005 9.1273323e-39
-0.12842762 0.21675335 0.53300005 9.219528e-39
-0.12765144 0.21716002 0.53400004 9.8638184e-39
-0.12663428 0.21716002 0.53400004 1.0324797e-38
-0.12561715 0.21716002 0.53400004 1.0508837e-38
-0.12506667 0.21797334 0.53600001 1.0324446e-38
-0.12427714 0.21837999 0.537 1.0599939e-38
-0.12325429 0.21837999 0.537 1.078433e-38
-0.12223143 0.21837999 0.537 1.0599936e-38
-0.12120857 0.21837999 0.537 1.0323349e-38
-0.12040953 0.21878667 0.53800005 9.2187993e-39
-0.11938477 0.21878667 0.53800005 9.1266036e-39
-0.11858001 0.21919334 0.53900003 8.3897673e-39
-0.11755334 0.21919334 0.53900003 7.8365935e-39
-0.11674286 0.21959999 0.54000002 7.8366131e-39
-0.11592857 0.22000667 0.54100001 9.2195476e-39
-0.11511049 0.22041336 0.54200006 8.2983101e-39
-0.11428858 0.22082002 0.54300004 8.1139189e-39
-0.11346287 0.22122668 0.54400003 8.1142692e-39
-0.11284 0.22204 0.546 8.5752474e-39
-0.1118 0.22204 0.546 9.1273547e-39
-0.11096287 0.22244668 0.54700005 1.0602485e-38
-0.11012191 0.22285335 0.54800004 1.1153831e-38
-0.10927714 0.22326 0.54900002 1.1338223e-38
-0.10823143 0.22326 0.54900002 1.0969816e-38
-0.10738095 0.22366667 0.55000001 1.1338598e-38
-0.10672001 0.22448002 0.55200005 1.1338595e-38
-0.10586 0.22488667 0.55300003 1.1338595e-38
-0.10518571 0.22569999 0.55500001 1.1614454e-38
-0.10450382 0.22651336 0.55700004 1.1706649e-38
-0.10344286 0.22651336 0.55700004 1.1247106e-38
-0.10256572 0.22692001 0.55800003 1.0048563e-38
-0.10150286 0.22692001 0.55800003 9.5890335e-39
-0.16600287 0.2218543 0.54300004 9.034408e-39
-0.16496858 0.2218543 0.54300004 8.9415117e-39
-0.16393429 0.2218543 0.54300004 8.4805336e-39
-0.16290002 0.2218543 0.54300004 8.2050229e-39
-0.16126953 0.22103715 0.54100001 7.928436e-39
-0.15994285 0.22062857 0.54000002 8.1128273e-39
-0.15832573 0.21981144 0.53800005 8.1128273e-39
-0.15730096 0.21981144 0.53800005 8.2039341e-39
-0.15598571 0.21940285 0.537 8.1117385e-39
-0.15467429 0.21899429 0.53600001 7.7440419e-39
-0.15336667 0.21858573 0.53500003 8.2050201e-39
-0.15206286 0.21817715 0.53400004 8.205376e-39
-0.15076287 0.21776859 0.53300005 7.6522022e-39
-0.14974764 0.21776859 0.53300005 7.8362166e-39
-0.14901143 0.21817715 0.53400004 7.9284122e-39
-0.14799429 0.21817715 0.53400004 8.2057263e-39
-0.14670192 0.21776859 0.53300005 8.1135307e-39
-0.14568667 0.21776859 0.53300005 7.9287835e-39
-0.14467144 0.21776859 0.53300005 7.9287835e-39
-0.14365621 0.21776859 0.53300005 8.2042998e-39
-0.14264096 0.21776859 0.53300005 8.4808867e-39
-0.14162573 0.21776859 0.53300005 8.9397041e-39
-0.1406105 0.21776859 0.53300005 8.9397041e-39
-0.13933334 0.21735999 0.53200001 8.5723607e-39
-0.13832 0.21735999 0.53200001 8.7567519e-39
-0.13730666 0.21735999 0.53200001 8.5734495e-39
-0.13654953 0.21776859 0.53300005 8.2968626e-39
-0.1355343 0.21776859 0.53300005 8.2972185e-39
-0.13451906 0.21776859 0.53300005 8.3894142e-39
-0.13350382 0.21776859 0.53300005 8.757454e-39
-0.13248858 0.21776859 0.53300005 8.8496496e-39
-0.13172001 0.21817715 0.53400004 8.4823104e-39
-0.13070287 0.21817715 0.53400004 8.9432886e-39
-0.12968573 0.21817715 0.53400004 8.9440201e-39
-0.12866858 0.21817715 0.53400004 9.0362157e-39
-0.12765144 0.21817715 0.53400004 9.4950358e-39
-0.12687144 0.21858573 0.53500003 1.0140405e-38
-0.12585239 0.21858573 0.53500003 1.0601386e-38
-0.12530001 0.21940285 0.537 1.0324799e-38
-0.12427714 0.21940285 0.537 1.0599586e-38
-0.12348381 0.21981144 0.53800005 1.0599586e-38
-0.12245906 0.21981144 0.53800005 1.0417345e-38
-0.12143429 0.21981144 0.53800005 9.3109977e-39
-0.12040953 0.21981144 0.53800005 9.0340549e-39
-0.11960667 0.22022001 0.53900003 8.6652724e-39
-0.11880001 0.22062857 0.54000002 8.2972185e-39
-0.11777143 0.22062857 0.54000002 7.7440447e-39
-0.11674286 0.22062857 0.54000002 7.8362166e-39
-0.11592857 0.22103715 0.54100001 9.1269554e-39
-0.11511049 0.22144572 0.54200006 8.7592785e-39
-0.11428858 0.2218543 0.54300004 9.4968435e-39
-0.11367143 0.22267143 0.54500002 9.3138914e-39
-0.11284 0.22308001 0.546 9.6826739e-39
-0.11200477 0.2234886 0.54700005 9.9581818e-39
-0.11116572 0.22389714 0.54800004 1.0603551e-38
-0.11032286 0.22430572 0.54900002 1.0879049e-38
-0.10927714 0.22430572 0.54900002 1.0879049e-38
-0.10842858 0.22471429 0.55000001 1.087797e-38
-0.10757619 0.22512285 0.551 1.1431144e-38
-0.10691334 0.22594002 0.55300003 1.1614103e-38
-0.10605143 0.22634858 0.55400002 1.1521908e-38
-0.10518571 0.22675714 0.55500001 1.1430418e-38
-0.10450382 0.2275743 0.55700004 1.1799201e-38
-0.10344286 0.2275743 0.55700004 1.1798845e-38
-0.10256572 0.22798288 0.55800003 9.3095628e-39
-0.10150286 0.22798288 0.55800003 8.6649094e-39
-0.16703714 0.22288859 0.54300004 1.0049265e-38
-0.16600287 0.22288859 0.54300004 8.758526e-39
-0.16496858 0.22288859 0.54300004 8.9415117e-39
-0.16393429 0.22288859 0.54300004 8.6649249e-39
-0.16290002 0.22288859 0.54300004 8.3897673e-39
-0.16156763 0.22247811 0.54200006 7.8365935e-39
-0.15994285 0.22165714 0.54000002 7.7440419e-39
-0.15862001 0.22124669 0.53900003 7.9284332e-39
-0.15730096 0.22083621 0.53800005 8.1117357e-39
-0.15598571 0.22042572 0.537 7.9273444e-39
-0.15496285 0.22042572 0.537 7.7443923e-39
-0.15365332 0.22001524 0.53600001 7.9287835e-39
-0.15234762 0.21960476 0.53500003 7.5610856e-39
-0.15104572 0.21919431 0.53400004 7.2844987e-39
-0.15002859 0.21919431 0.53400004 7.1923157e-39
-0.14901143 0.21919431 0.53400004 6.9157288e-39
-0.14799429 0.21919431 0.53400004 7.8376599e-39
-0.14697714 0.21919431 0.53400004 7.8376599e-39
-0.14596 0.21919431 0.53400004 7.9287863e-39
-0.14467144 0.21878383 0.53300005 8.020982e-39
-0.14365621 0.21878383 0.53300005 7.9277298e-39
-0.14264096 0.21878383 0.53300005 7.374556e-39
-0.14162573 0.21878383 0.53300005 8.4787203e-39
-0.1406105 0.21878383 0.53300005 8.2943291e-39
-0.13933334 0.21837334 0.53200001 8.1113853e-39
-0.13832 0.21837334 0.53200001 8.6645591e-39
-0.13756476 0.21878383 0.53300005 8.297922e-39
-0.13654953 0.21878383 0.53300005 7.4681613e-39
-0.13578857 0.21919431 0.53400004 8.1131776e-39
-0.13477144 0.21919431 0.53400004 8.2975689e-39
-0.1337543 0.21919431 0.53400004 8.6652752e-39
-0.13273714 0.21919431 0.53400004 8.7574708e-39
-0.13172001 0.21919431 0.53400004 9.218449e-39
-0.13070287 0.21919431 0.53400004 9.4028402e-39
-0.12968573 0.21919431 0.53400004 9.219528e-39
-0.12866858 0.21919431 0.53400004 9.5883105e-39
-0.12765144 0.21919431 0.53400004 9.8638184e-39
-0.12687144 0.21960476 0.53500003 9.8638184e-39
-0.12632287 0.22042572 0.537 1.0232601e-38
-0.12530001 0.22042572 0.537 1.0232601e-38
-0.12427714 0.22042572 0.537 1.0415197e-38
-0.12348381 0.22083621 0.53800005 1.0507393e-38
-0.12245906 0.22083621 0.53800005 9.6805061e-39
-0.12143429 0.22083621 0.53800005 7.7443979e-39
-0.12063334 0.22124669 0.53900003 6.5476876e-39
-0.11982857 0.22165714 0.54000002 6.0867094e-39
-0.11880001 0.22165714 0.54000002 7.0068679e-39
-0.11777143 0.22165714 0.54000002 7.6522373e-39
-0.11695904 0.22206762 0.54100001 7.7443923e-39
-0.11592857 0.22206762 0.54100001 8.9429355e-39
-0.11532287 0.22288859 0.54300004 9.4035633e-39
-0.11449905 0.22329907 0.54400003 1.032552e-38
-0.11367143 0.22370952 0.54500002 1.1154908e-38
-0.11284 0.22412001 0.546 1.1154908e-38
-0.1118 0.22412001 0.546 1.0694658e-38
-0.11096287 0.22453049 0.54700005 1.0879049e-38
-0.11012191 0.22494097 0.54800004 1.1062362e-38
-0.10927714 0.22535142 0.54900002 1.1062362e-38
-0.10823143 0.22535142 0.54900002 1.115491e-38
-0.10757619 0.22617239 0.551 1.1523693e-38
-0.10691334 0.22699335 0.55300003 1.1706299e-38
-0.10605143 0.2274038 0.55400002 1.1614103e-38
-0.10518571 0.22781429 0.55500001 1.1430415e-38
-0.10450382 0.22863525 0.55700004 1.133822e-38
-0.10344286 0.22863525 0.55700004 1.0324799e-38
-0.10238191 0.22863525 0.55700004 8.5730823e-39
-0.16765238 0.22474761 0.54500002 1.0049265e-38
-0.16661429 0.22474761 0.54500002 9.2195041e-39
-0.16527238 0.22433525 0.54400003 9.2177483e-39
-0.1642362 0.22433525 0.54400003 8.8489658e-39
-0.16320002 0.22433525 0.54400003 8.482686e-39
-0.16156763 0.22351049 0.54200006 7.6529253e-39
-0.15994285 0.22268572 0.54000002 7.8358648e-39
-0.15862001 0.22227333 0.53900003 7.7436692e-39
-0.15759334 0.22227333 0.53900003 7.8355047e-39
-0.1562762 0.22186098 0.53800005 7.8355047e-39
-0.15496285 0.22144857 0.537 7.8355047e-39
-0.15365332 0.2210362 0.53600001 7.8355047e-39
-0.15263239 0.2210362 0.53600001 7.4681711e-39
-0.15104572 0.22021145 0.53400004 7.4681711e-39
-0.15002859 0.22021145 0.53400004 7.5618241e-39
-0.14901143 0.22021145 0.53400004 7.1930416e-39
-0.14799429 0.22021145 0.53400004 7.3774076e-39
-0.14697714 0.22021145 0.53400004 7.5617989e-39
-0.14596 0.22021145 0.53400004 7.9287835e-39
-0.14494288 0.22021145 0.53400004 7.9287835e-39
-0.14392573 0.22021145 0.53400004 7.8362166e-39
-0.14290859 0.22021145 0.53400004 8.1128034e-39
-0.14189143 0.22021145 0.53400004 8.4808741e-39
-0.1406105 0.21979906 0.53300005 8.2042872e-39
-0.13959526 0.21979906 0.53300005 8.0191897e-39
-0.13858001 0.21979906 0.53300005 8.3879722e-39
-0.13756476 0.21979906 0.53300005 8.205376e-39
-0.13654953 0.21979906 0.53300005 8.1131804e-39
-0.13578857 0.22021145 0.53400004 8.3890274e-39
-0.13477144 0.22021145 0.53400004 8.5734187e-39
-0.1337543 0.22021145 0.53400004 9.0318941e-39
-0.13273714 0.22021145 0.53400004 9.6772635e-39
-0.13172001 0.22021145 0.53400004 1.0046412e-38
-0.13070287 0.22021145 0.53400004 9.7698249e-39
-0.12992857 0.22062382 0.53500003 8.4808741e-39
-0.12890953 0.22062382 0.53500003 9.5872217e-39
-0.12789048 0.22062382 0.53500003 9.8638184e-39
-0.12710857 0.2210362 0.53600001 9.956014e-39
-0.12632287 0.22144857 0.537 1.0048212e-38
-0.12553334 0.22186098 0.53800005 1.0048212e-38
-0.12450858 0.22186098 0.53800005 1.0505961e-38
-0.12348381 0.22186098 0.53800005 1.0690352e-38
-0.12245906 0.22186098 0.53800005 9.7716255e-39
-0.12143429 0.22186098 0.53800005 7.651126e-39
-0.12063334 0.22227333 0.53900003 6.1796057e-39
-0.11982857 0.22268572 0.54000002 6.0874101e-39
-0.11880001 0.22268572 0.54000002 6.5476469e-39
-0.11798953 0.2230981 0.54100001 7.4696032e-39
-0.11717525 0.22351049 0.54200006 7.9284332e-39
-0.11635716 0.22392288 0.54300004 9.1269764e-39
-0.11553524 0.22433525 0.54400003 1.0506314e-38
-0.11470953 0.22474761 0.54500002 1.1612661e-38
-0.11387999 0.22516 0.546 1.1430065e-38
-0.11284 0.22516 0.546 1.1061283e-38
-0.1118 0.22516 0.546 1.0601033e-38
-0.11096287 0.22557241 0.54700005 1.1154207e-38
-0.11012191 0.22598477 0.54800004 1.1062364e-38
-0.10927714 0.22639716 0.54900002 1.1062364e-38
-0.10823143 0.22639716 0.54900002 1.1522614e-38
-0.10757619 0.22722189 0.551 1.1614809e-38
-0.10710667 0.22845905 0.55400002 1.1706289e-38
-0.10605143 0.22845905 0.55400002 1.1706289e-38
-0.10518571 0.22887143 0.55500001 1.1522261e-38
-0.10450382 0.2296962 0.55700004 1.0415913e-38
-0.10344286 0.2296962 0.55700004 8.8503895e-39
-0.16796 0.2262 0.546 9.7723094e-39
-0.16692001 0.2262 0.546 9.3113312e-39
-0.16587999 0.2262 0.546 9.1262757e-39
-0.16453809 0.22578572 0.54500002 8.6652976e-39
-0.16320002 0.22537144 0.54400003 8.5738026e-39
-0.16156763 0.22454287 0.54200006 7.7440419e-39
-0.15994285 0.22371429 0.54000002 7.7436692e-39
-0.15862001 0.22330001 0.53900003 7.7436692e-39
-0.15759334 0.22330001 0.53900003 7.9269913e-39
-0.1562762 0.22288573 0.53800005 7.8347956e-39
-0.15496285 0.22247143 0.537 7.743658e-39
-0.15393999 0.22247143 0.537 7.8358536e-39
-0.15263239 0.22205715 0.53600001 7.4685214e-39
-0.15104572 0.22122858 0.53400004 7.5607171e-39
-0.15002859 0.22122858 0.53400004 7.6532812e-39
-0.14929047 0.22164287 0.53500003 7.5610856e-39
-0.14799429 0.22122858 0.53400004 7.6529155e-39
-0.14697714 0.22122858 0.53400004 7.5607199e-39
-0.14596 0.22122858 0.53400004 7.6521966e-39
-0.14494288 0.22122858 0.53400004 7.4678054e-39
-0.14392573 0.22122858 0.53400004 7.9287373e-39
-0.14290859 0.22122858 0.53400004 8.1131285e-39
-0.14189143 0.22122858 0.53400004 8.1124377e-39
-0.1408743 0.22122858 0.53400004 8.0202421e-39
-0.13959526 0.2208143 0.53300005 7.9269913e-39
-0.13858001 0.2208143 0.53300005 7.9269913e-39
-0.13756476 0.2208143 0.53300005 7.6514988e-39
-0.13654953 0.2208143 0.53300005 8.2046726e-39
-0.13578857 0.22122858 0.53400004 8.2053494e-39
-0.13477144 0.22122858 0.53400004 8.3897407e-39
-0.1337543 0.22122858 0.53400004 9.0340549e-39
-0.13273714 0.22122858 0.53400004 9.5872287e-39
-0.13172001 0.22122858 0.53400004 9.5875846e-39
-0.13070287 0.22122858 0.53400004 9.5875846e-39
-0.12992857 0.22164287 0.53500003 9.1255527e-39
-0.12890953 0.22164287 0.53500003 9.4943352e-39
-0.12789048 0.22164287 0.53500003 1.0138961e-38
-0.12710857 0.22205715 0.53600001 1.0323352e-38
-0.12632287 0.22247143 0.537 1.0506314e-38
-0.12553334 0.22288573 0.53800005 1.0506314e-38
-0.12450858 0.22288573 0.53800005 1.0139349e-38
-0.12348381 0.22288573 0.53800005 9.7705662e-39
-0.12245906 0.22288573 0.53800005 8.9418817e-39
-0.12166001 0.22330001 0.53900003 7.374556e-39
-0.12085714 0.22371429 0.54000002 8.0210044e-39
-0.11982857 0.22371429 0.54000002 9.0351563e-39
-0.11880001 0.22371429 0.54000002 9.219528e-39
-0.11798953 0.22412857 0.54100001 9.6805061e-39
-0.11739144 0.22495715 0.54300004 9.863838e-39
-0.11657143 0.22537144 0.54400003 1.0601403e-38
-0.11574762 0.22578572 0.54500002 1.1060566e-38
-0.11492 0.2262 0.546 1.1429349e-38
-0.11387999 0.2262 0.546 1.1152762e-38
-0.11284 0.2262 0.546 1.0876175e-38
-0.1118 0.2262 0.546 1.0600327e-38
-0.11096287 0.22661431 0.54700005 1.1614479e-38
-0.11012191 0.22702859 0.54800004 1.1246052e-38
-0.10927714 0.22744288 0.54900002 1.1153857e-38
-0.10823143 0.22744288 0.54900002 1.1522611e-38
-0.10757619 0.22827142 0.551 1.1614807e-38
-0.10710667 0.22951429 0.55400002 1.15226e-38
-0.10624286 0.22992857 0.55500001 1.087723e-38
-0.10537525 0.23034286 0.55600005 9.7691242e-39
-0.16992857 0.22848858 0.54900002 9.5875846e-39
-0.16826764 0.2276562 0.54700005 9.1262365e-39
-0.16722573 0.2276562 0.54700005 9.4028234e-39
-0.16587999 0.22724 0.546 9.2180986e-39
-0.16484 0.22724 0.546 9.0337074e-39
-0.1635 0.22682382 0.54500002 9.0340605e-39
-0.16186573 0.22599144 0.54300004 8.2964955e-39
-0.15994285 0.22474286 0.54000002 8.2028411e-39
-0.15891428 0.22474286 0.54000002 8.2950367e-39
-0.15788573 0.22474286 0.54000002 8.2039313e-39
-0.1562762 0.2239105 0.53800005 7.9273444e-39
-0.15525143 0.2239105 0.53800005 7.4667194e-39
-0.15393999 0.22349429 0.537 7.8355019e-39
-0.15291715 0.22349429 0.537 7.7440419e-39
-0.15161143 0.2230781 0.53600001 7.6518463e-39
-0.15059048 0.2230781 0.53600001 7.46889e-39
-0.14956953 0.2230781 0.53600001 7.3766944e-39
-0.14827144 0.22266191 0.53500003 7.5603569e-39
-0.14697714 0.22224572 0.53400004 7.5603569e-39
-0.14596 0.22224572 0.53400004 7.8355047e-39
-0.14494288 0.22224572 0.53400004 7.9277003e-39
-0.14392573 0.22224572 0.53400004 7.8362166e-39
-0.14290859 0.22224572 0.53400004 7.8362166e-39
-0.14189143 0.22224572 0.53400004 7.6522022e-39
-0.1408743 0.22224572 0.53400004 7.6522022e-39
-0.13959526 0.22182953 0.53300005 7.8347956e-39
-0.13858001 0.22182953 0.53300005 7.8347956e-39
-0.13756476 0.22182953 0.53300005 7.3752426e-39
-0.13654953 0.22182953 0.53300005 8.2971989e-39
-0.13578857 0.22224572 0.53400004 8.1145985e-39
-0.13477144 0.22224572 0.53400004 8.3911854e-39
-0.1337543 0.22224572 0.53400004 9.1266233e-39
-0.13273714 0.22224572 0.53400004 9.3110145e-39
-0.13172001 0.22224572 0.53400004 9.7716227e-39
-0.13119237 0.2230781 0.53600001 9.4028402e-39
-0.13017143 0.2230781 0.53600001 9.2184518e-39
-0.12915048 0.2230781 0.53600001 9.402843e-39
-0.12812953 0.2230781 0.53600001 1.0321187e-38
-0.12734571 0.22349429 0.537 1.0874361e-38
-0.12632287 0.22349429 0.537 1.0414115e-38
-0.12530001 0.22349429 0.537 1.0598507e-38
-0.12450858 0.2239105 0.53800005 1.0417012e-38
-0.12348381 0.2239105 0.53800005 9.4028598e-39
-0.12245906 0.2239105 0.53800005 8.2972185e-39
-0.12166001 0.22432669 0.53900003 8.3894142e-39
-0.12085714 0.22474286 0.54000002 8.8496889e-39
-0.11982857 0.22474286 0.54000002 9.4950583e-39
-0.11902 0.22515905 0.54100001 9.7716255e-39
-0.11820763 0.22557525 0.54200006 1.0140408e-38
-0.11760762 0.22640763 0.54400003 9.9560336e-39
-0.11657143 0.22640763 0.54400003 1.0509207e-38
-0.11574762 0.22682382 0.54500002 1.0509558e-38
-0.11492 0.22724 0.546 1.087834e-38
-0.11387999 0.22724 0.546 1.0509191e-38
-0.11284 0.22724 0.546 1.0601386e-38
-0.11200477 0.2276562 0.54700005 1.0601033e-38
-0.11096287 0.2276562 0.54700005 1.087762e-38
-0.11012191 0.22807239 0.54800004 1.1061661e-38
-0.10927714 0.22848858 0.54900002 1.1061661e-38
-0.10823143 0.22848858 0.54900002 1.1245674e-38
-0.10816191 0.23056953 0.55400002 1.1522261e-38
-0.1073 0.23098572 0.55500001 1.1798485e-38
-0.16992857 0.2295343 0.54900002 9.1273323e-39
-0.16888286 0.2295343 0.54900002 9.3109977e-39
-0.16753143 0.2291162 0.54800004 9.3109977e-39
-0.16648763 0.2291162 0.54800004 9.3106446e-39
-0.16544382 0.2291162 0.54800004 9.1262533e-39
-0.16410002 0.22869812 0.54700005 9.0347808e-39
-0.16156763 0.22660764 0.54200006 8.9425851e-39
-0.15994285 0.22577144 0.54000002 8.7581771e-39
-0.15891428 0.22577144 0.54000002 8.8503727e-39
-0.15788573 0.22577144 0.54000002 8.6649094e-39
-0.15656666 0.22535335 0.53900003 8.2039313e-39
-0.15525143 0.22493526 0.53800005 7.6521966e-39
-0.15422668 0.22493526 0.53800005 7.6521966e-39
-0.15291715 0.22451714 0.537 7.8358901e-39
-0.15161143 0.22409904 0.53600001 7.8358901e-39
-0.15059048 0.22409904 0.53600001 7.4681865e-39
-0.14956953 0.22409904 0.53600001 7.2837953e-39
-0.14827144 0.22368096 0.53500003 7.6514736e-39
-0.14697714 0.22326286 0.53400004 7.7436692e-39
-0.14596 0.22326286 0.53400004 7.5600066e-39
-0.14494288 0.22326286 0.53400004 7.5600066e-39
-0.14392573 0.22326286 0.53400004 7.2834169e-39
-0.14290859 0.22326286 0.53400004 7.3756126e-39
-0.14189143 0.22326286 0.53400004 7.374556e-39
-0.1408743 0.22326286 0.53400004 7.5589472e-39
-0.13959526 0.22284479 0.53300005 8.75531e-39
-0.13858001 0.22284479 0.53300005 9.1240925e-39
-0.13756476 0.22284479 0.53300005 8.7574736e-39
-0.13654953 0.22284479 0.53300005 8.8496692e-39
-0.13578857 0.22326286 0.53400004 8.7581939e-39
-0.13477144 0.22326286 0.53400004 8.8503895e-39
-0.1337543 0.22326286 0.53400004 9.4032102e-39
-0.13273714 0.22326286 0.53400004 9.4032102e-39
-0.13221334 0.22409904 0.53600001 9.7716227e-39
-0.13119237 0.22409904 0.53600001 9.3106446e-39
-0.13017143 0.22409904 0.53600001 9.3106474e-39
-0.12915048 0.22409904 0.53600001 9.2184518e-39
-0.12812953 0.22409904 0.53600001 9.769801e-39
-0.12734571 0.22451714 0.537 1.0138584e-38
-0.12632287 0.22451714 0.537 1.0322273e-38
-0.12530001 0.22451714 0.537 1.059886e-38
-0.12427714 0.22451714 0.537 1.0140758e-38
-0.12348381 0.22493526 0.53800005 9.5875846e-39
-0.12245906 0.22493526 0.53800005 9.3124523e-39
-0.12166001 0.22535335 0.53900003 1.0050017e-38
-0.12085714 0.22577144 0.54000002 1.0324816e-38
-0.11982857 0.22577144 0.54000002 9.7716424e-39
-0.11902 0.22618952 0.54100001 9.9556637e-39
-0.11842572 0.22702573 0.54300004 1.0324446e-38
-0.11760762 0.22744381 0.54400003 9.9563839e-39
-0.11678571 0.22786191 0.54500002 1.0601753e-38
-0.11574762 0.22786191 0.54500002 1.087727e-38
-0.11492 0.22827999 0.546 1.1338248e-38
-0.11387999 0.22827999 0.546 1.1153478e-38
-0.11284 0.22827999 0.546 1.0876891e-38
-0.11200477 0.22869812 0.54700005 1.0601033e-38
-0.11096287 0.22869812 0.54700005 1.0140055e-38
-0.11032286 0.2295343 0.54900002 1.0875822e-38
-0.10927714 0.2295343 0.54900002 1.050704e-38
-0.10882286 0.23078859 0.55200005 1.0599586e-38
-0.10816191 0.23162477 0.55400002 1.0322999e-38
-0.16992857 0.23058 0.54900002 8.9429411e-39
-0.16888286 0.23058 0.54900002 9.1266036e-39
-0.16783714 0.23058 0.54900002 9.3109949e-39
-0.16679144 0.23058 0.54900002 9.3106446e-39
-0.16574572 0.23058 0.54900002 9.218449e-39
-0.16470002 0.23058 0.54900002 8.7585694e-39
-0.16156763 0.22764002 0.54200006 8.6663738e-39
-0.15994285 0.22680001 0.54000002 8.5738026e-39
-0.15891428 0.22680001 0.54000002 8.5738026e-39
-0.15788573 0.22680001 0.54000002 8.4819629e-39
-0.15685715 0.22680001 0.54000002 8.205376e-39
-0.15554002 0.22638002 0.53900003 8.2975717e-39
-0.15422668 0.22596002 0.53800005 8.0209848e-39
-0.15291715 0.22554 0.537 7.8358676e-39
-0.15189429 0.22554 0.537 7.9280633e-39
-0.15059048 0.22512001 0.53600001 7.7443979e-39
-0.14956953 0.22512001 0.53600001 7.467811e-39
-0.14827144 0.2247 0.53500003 7.7436692e-39
-0.14697714 0.22428001 0.53400004 7.8358648e-39
-0.14596 0.22428001 0.53400004 7.7443979e-39
-0.14494288 0.22428001 0.53400004 7.5600066e-39
-0.14392573 0.22428001 0.53400004 7.1897681e-39
-0.14290859 0.22428001 0.53400004 7.7429419e-39
-0.14189143 0.22428001 0.53400004 7.650417e-39
-0.1408743 0.22428001 0.53400004 7.9270039e-39
-0.13985714 0.22428001 0.53400004 9.0319095e-39
-0.13884 0.22428001 0.53400004 9.3084964e-39
-0.13782287 0.22428001 0.53400004 8.8496692e-39
-0.13680573 0.22428001 0.53400004 8.9418649e-39
-0.13578857 0.22428001 0.53400004 8.6659982e-39
-0.13502382 0.2247 0.53500003 8.7581939e-39
-0.13425525 0.22512001 0.53600001 9.4950358e-39
-0.13323428 0.22512001 0.53600001 9.5872315e-39
-0.13221334 0.22512001 0.53600001 1.0324799e-38
-0.13119237 0.22512001 0.53600001 9.3106474e-39
-0.13017143 0.22512001 0.53600001 9.219172e-39
-0.12915048 0.22512001 0.53600001 9.1269764e-39
-0.12812953 0.22512001 0.53600001 9.2166385e-39
-0.12734571 0.22554 0.537 9.6776166e-39
-0.12632287 0.22554 0.537 9.6776292e-39
-0.12530001 0.22554 0.537 9.9542161e-39
-0.12427714 0.22554 0.537 9.402843e-39
-0.12348381 0.22596002 0.53800005 9.402843e-39
-0.12245906 0.22596002 0.53800005 9.5876014e-39
-0.12188572 0.22680001 0.54000002 1.0140775e-38
-0.12085714 0.22680001 0.54000002 1.0324816e-38
-0.11982857 0.22680001 0.54000002 1.0324816e-38
-0.11902 0.22722 0.54100001 1.0691065e-38
-0.11864381 0.22848001 0.54400003 1.0506674e-38
-0.11760762 0.22848001 0.54400003 1.0140405e-38
-0.11678571 0.2289 0.54500002 1.0509188e-38
-0.11596 0.22931999 0.546 1.0324446e-38
-0.11492 0.22931999 0.546 1.087762e-38
-0.11387999 0.22931999 0.546 1.0785775e-38
-0.11304668 0.22974002 0.54700005 1.0601383e-38
-0.11220953 0.23016001 0.54800004 1.0693579e-38
-0.11116572 0.23016001 0.54800004 1.0693579e-38
-0.11072476 0.23142 0.551 1.1337519e-38
-0.10967524 0.23142 0.551 1.0599954e-38
-0.10882286 0.23184001 0.55200005 1.0691431e-38
-0.17023809 0.23204763 0.55000001 8.8507426e-39
-0.16919048 0.23204763 0.55000001 8.6645563e-39
-0.16783714 0.23162572 0.54900002 8.480165e-39
-0.16679144 0.23162572 0.54900002 9.219151e-39
-0.16574572 0.23162572 0.54900002 9.6801292e-39
-0.16470002 0.23162572 0.54900002 8.9426104e-39
-0.16186573 0.2290943 0.54300004 8.6660235e-39
-0.16023906 0.22825049 0.54100001 8.6659982e-39
-0.15891428 0.22782859 0.54000002 8.6659982e-39
-0.15788573 0.22782859 0.54000002 8.8493007e-39
-0.15685715 0.22782859 0.54000002 8.5727138e-39
-0.15554002 0.22740667 0.53900003 8.6652752e-39
-0.15422668 0.22698477 0.53800005 8.5730795e-39
-0.15320192 0.22698477 0.53800005 8.2050229e-39
-0.15189429 0.22656286 0.537 8.4816098e-39
-0.15087143 0.22656286 0.537 7.9287863e-39
-0.14984858 0.22656286 0.537 7.5600038e-39
-0.14854857 0.22614096 0.53600001 8.0213323e-39
-0.14725238 0.22571905 0.53500003 8.4823104e-39
-0.14596 0.22529715 0.53400004 7.9284332e-39
-0.14494288 0.22529715 0.53400004 8.0206288e-39
-0.14392573 0.22529715 0.53400004 8.1114007e-39
-0.14290859 0.22529715 0.53400004 8.8489658e-39
-0.14189143 0.22529715 0.53400004 8.5723789e-39
-0.1408743 0.22529715 0.53400004 8.4801833e-39
-0.13985714 0.22529715 0.53400004 8.6649249e-39
-0.13884 0.22529715 0.53400004 8.6649249e-39
-0.13782287 0.22529715 0.53400004 8.6649249e-39
-0.13680573 0.22529715 0.53400004 8.5727292e-39
-0.13578857 0.22529715 0.53400004 8.6645563e-39
-0.1352762 0.22614096 0.53600001 8.6645563e-39
-0.13425525 0.22614096 0.53600001 8.6656115e-39
-0.13323428 0.22614096 0.53600001 9.2187853e-39
-0.13221334 0.22614096 0.53600001 9.1273323e-39
-0.13119237 0.22614096 0.53600001 9.1273323e-39
-0.13017143 0.22614096 0.53600001 9.0347808e-39
-0.12915048 0.22614096 0.53600001 9.1269764e-39
-0.12812953 0.22614096 0.53600001 9.3106446e-39
-0.12758286 0.22698477 0.53800005 9.4028402e-39
-0.12655811 0.22698477 0.53800005 9.677632e-39
-0.12553334 0.22698477 0.53800005 9.9542189e-39
-0.12450858 0.22698477 0.53800005 9.7698277e-39
-0.12371334 0.22740667 0.53900003 9.4932408e-39
-0.12268668 0.22740667 0.53900003 9.7716255e-39
-0.12188572 0.22782859 0.54000002 9.9560168e-39
-0.12108095 0.22825049 0.54100001 1.0048212e-38
-0.12005048 0.22825049 0.54100001 1.0232604e-38
-0.11924001 0.2286724 0.54200006 1.0415194e-38
-0.11864381 0.22951621 0.54400003 1.0322999e-38
-0.11760762 0.22951621 0.54400003 1.0140756e-38
-0.11678571 0.2299381 0.54500002 1.0232951e-38
-0.11596 0.23036 0.546 1.0324799e-38
-0.11492 0.23036 0.546 1.0509191e-38
-0.11387999 0.23036 0.546 1.0416992e-38
-0.11304668 0.23078193 0.54700005 1.0416992e-38
-0.11220953 0.23120382 0.54800004 1.0601734e-38
-0.11116572 0.23120382 0.54800004 1.0786125e-38
-0.11072476 0.23246953 0.551 1.0968721e-38
-0.16919048 0.23309523 0.55000001 8.2961297e-39
-0.16783714 0.23267144 0.54900002 8.480521e-39
-0.16679144 0.23267144 0.54900002 9.5857867e-39
-0.16574572 0.23267144 0.54900002 9.5857867e-39
-0.16470002 0.23267144 0.54900002 8.8500364e-39
-0.1633562 0.23224764 0.54800004 8.8500364e-39
-0.16171999 0.2314 0.546 9.215935e-39
-0.15950286 0.22970478 0.54200006 9.3081307e-39
-0.15817811 0.22928096 0.54100001 9.3084838e-39
-0.15714762 0.22928096 0.54100001 9.0318969e-39
-0.15582858 0.22885714 0.54000002 8.6649249e-39
-0.15480001 0.22885714 0.54000002 8.5727292e-39
-0.15320192 0.22800954 0.53800005 8.6645563e-39
-0.15217716 0.22800954 0.53800005 8.6645563e-39
-0.15087143 0.2275857 0.537 8.3897617e-39
-0.14984858 0.2275857 0.537 8.4819573e-39
-0.14882571 0.2275857 0.537 8.5738026e-39
-0.14752762 0.2271619 0.53600001 8.481607e-39
-0.14623335 0.22673811 0.53500003 8.2039313e-39
-0.14521429 0.22673811 0.53500003 8.2961269e-39
-0.14446476 0.2271619 0.53600001 7.7440419e-39
-0.14344381 0.2271619 0.53600001 8.3894114e-39
-0.14215715 0.22673811 0.53500003 8.2053984e-39
-0.1408743 0.22631431 0.53400004 8.1132028e-39
-0.13985714 0.22631431 0.53400004 8.480521e-39
-0.1391 0.22673811 0.53500003 8.5727166e-39
-0.13833904 0.2271619 0.53600001 8.5730697e-39
-0.1373181 0.2271619 0.53600001 8.5730697e-39
-0.13629714 0.2271619 0.53600001 8.4808741e-39
-0.1352762 0.2271619 0.53600001 8.6652654e-39
-0.13425525 0.2271619 0.53600001 8.4815706e-39
-0.13348286 0.2275857 0.537 9.0347443e-39
-0.13246 0.2275857 0.537 8.6670772e-39
-0.13143714 0.2275857 0.537 8.9436641e-39
-0.13041428 0.2275857 0.537 8.9436641e-39
-0.12939143 0.2275857 0.537 8.8514685e-39
-0.12836857 0.2275857 0.537 9.219528e-39
-0.12758286 0.22800954 0.53800005 9.219528e-39
-0.12655811 0.22800954 0.53800005 1.0138607e-38
-0.12553334 0.22800954 0.53800005 1.0046412e-38
-0.12474 0.22843334 0.53900003 9.9538658e-39
-0.12371334 0.22843334 0.53900003 9.9538658e-39
-0.12291428 0.22885714 0.54000002 1.004821e-38
-0.12188572 0.22885714 0.54000002 1.004821e-38
-0.12108095 0.22928096 0.54100001 1.0048212e-38
-0.12005048 0.22928096 0.54100001 1.0048212e-38
-0.11946 0.23012859 0.54300004 1.0322999e-38
-0.11864381 0.23055239 0.54400003 1.0322999e-38
-0.11782381 0.23097619 0.54500002 1.0323352e-38
-0.117 0.2314 0.546 1.0415547e-38
-0.11596 0.2314 0.546 1.0140408e-38
-0.11492 0.2314 0.546 1.0324799e-38
-0.11408859 0.23182383 0.54700005 1.0141484e-38
-0.11325334 0.23224764 0.54800004 1.0049289e-38
-0.11220953 0.23224764 0.54800004 1.032515e-38
-0.11116572 0.23224764 0.54800004 1.0417345e-38
-0.16919048 0.23414285 0.55000001 8.4808741e-39
-0.16783714 0.23371716 0.54900002 8.4808741e-39
-0.16679144 0.23371716 0.54900002 8.757454e-39
-0.16574572 0.23371716 0.54900002 8.6652584e-39
-0.16470002 0.23371716 0.54900002 8.5730627e-39
-0.1633562 0.23329145 0.54800004 8.757454e-39
-0.16201621 0.23286574 0.54700005 8.7574736e-39
-0.15950286 0.23073715 0.54200006 8.7574736e-39
-0.15847048 0.23073715 0.54200006 8.7578239e-39
-0.1574381 0.23073715 0.54200006 8.7578239e-39
-0.15611714 0.23031144 0.54100001 8.5730992e-39
-0.15480001 0.22988571 0.54000002 8.4809035e-39
-0.15377143 0.22988571 0.54000002 8.6652752e-39
-0.15274286 0.22988571 0.54000002 8.6652752e-39
-0.15171428 0.22988571 0.54000002 8.5741529e-39
-0.15068571 0.22988571 0.54000002 8.5741529e-39
-0.14910287 0.2290343 0.53800005 8.5734495e-39
-0.14780284 0.22860856 0.537 8.5734495e-39
-0.14650667 0.22818287 0.53600001 8.7574736e-39
-0.14548573 0.22818287 0.53600001 8.8496692e-39
-0.14473428 0.22860856 0.537 8.6652752e-39
-0.14371143 0.22860856 0.537 8.7574708e-39
-0.14242285 0.22818287 0.53600001 8.7574932e-39
-0.1414019 0.22818287 0.53600001 8.573102e-39
-0.14038096 0.22818287 0.53600001 8.9422012e-39
-0.13936 0.22818287 0.53600001 9.1265924e-39
-0.13859713 0.22860856 0.537 8.9425683e-39
-0.13757429 0.22860856 0.537 9.1269596e-39
-0.13655142 0.22860856 0.537 9.1266036e-39
-0.13552856 0.22860856 0.537 9.5875818e-39
-0.13450572 0.22860856 0.537 9.2191412e-39
-0.13348286 0.22860856 0.537 9.2191412e-39
-0.13246 0.22860856 0.537 9.219172e-39
-0.13143714 0.22860856 0.537 9.1269764e-39
-0.13041428 0.22860856 0.537 9.219528e-39
-0.12939143 0.22860856 0.537 9.219528e-39
-0.12836857 0.22860856 0.537 9.219528e-39
-0.12782001 0.22946002 0.53900003 9.3117236e-39
-0.12679334 0.22946002 0.53900003 9.8620205e-39
-0.12576668 0.22946002 0.53900003 9.8620205e-39
-0.12474 0.22946002 0.53900003 9.9535155e-39
-0.12394285 0.22988571 0.54000002 1.0045711e-38
-0.12291428 0.22988571 0.54000002 1.0231156e-38
-0.12188572 0.22988571 0.54000002 1.0231156e-38
-0.12108095 0.23031144 0.54100001 1.0322999e-38
-0.12005048 0.23031144 0.54100001 1.0138607e-38
-0.11946 0.23116288 0.54300004 1.0507743e-38
-0.11864381 0.23158859 0.54400003 1.0507743e-38
-0.11782381 0.23201428 0.54500002 9.956014e-39
-0.117 0.23243999 0.546 9.956014e-39
-0.11596 0.23243999 0.546 9.8638212e-39
-0.11513048 0.23286574 0.54700005 9.8638212e-39
-0.11429715 0.23329145 0.54800004 9.8641715e-39
-0.11325334 0.23329145 0.54800004 9.5875846e-39
-0.11220953 0.23329145 0.54800004 8.7578407e-39
-0.11136857 0.23371716 0.54900002 8.204667e-39
-0.16783714 0.23476286 0.54900002 8.3886855e-39
-0.16679144 0.23476286 0.54900002 8.5730697e-39
-0.16365428 0.23476286 0.54900002 8.6659674e-39
-0.16201621 0.23390764 0.54700005 9.1269764e-39
-0.16068 0.23348001 0.546 8.9425851e-39
-0.15905525 0.23262477 0.54400003 8.9440201e-39
-0.15772857 0.23219717 0.54300004 8.3908463e-39
-0.15640573 0.23176955 0.54200006 8.6656451e-39
-0.15508667 0.2313419 0.54100001 8.5734495e-39
-0.15377143 0.23091429 0.54000002 8.5738026e-39
-0.15274286 0.23091429 0.54000002 8.5738026e-39
-0.15171428 0.23091429 0.54000002 8.8493007e-39
-0.15068571 0.23091429 0.54000002 8.8493007e-39
-0.14965715 0.23091429 0.54000002 8.4819629e-39
-0.14862858 0.23091429 0.54000002 8.5741585e-39
-0.14650667 0.22920381 0.53600001 8.7574736e-39
-0.14548573 0.22920381 0.53600001 8.8496692e-39
-0.14473428 0.22963144 0.537 8.5730795e-39
-0.14371143 0.22963144 0.537 8.8496664e-39
-0.14242285 0.22920381 0.53600001 8.8500364e-39
-0.1414019 0.22920381 0.53600001 8.5734495e-39
-0.14038096 0.22920381 0.53600001 8.9418649e-39
-0.13961999 0.22963144 0.537 8.9418649e-39
-0.13859713 0.22963144 0.537 8.7571051e-39
-0.1378305 0.23005907 0.53800005 8.9414963e-39
-0.13655142 0.22963144 0.537 9.0340605e-39
-0.13552856 0.22963144 0.537 9.2184518e-39
-0.13450572 0.22963144 0.537 9.1269456e-39
-0.13373144 0.23005907 0.53800005 9.3113368e-39
-0.13246 0.22963144 0.537 9.3106474e-39
-0.13143714 0.22963144 0.537 9.3106474e-39
-0.13041428 0.22963144 0.537 9.6794271e-39
-0.1296324 0.23005907 0.53800005 9.4950358e-39
-0.12860763 0.23005907 0.53800005 9.3110145e-39
-0.12805715 0.23091429 0.54000002 9.3110145e-39
-0.12702857 0.23091429 0.54000002 9.0340605e-39
-0.126 0.23091429 0.54000002 9.4950386e-39
-0.12497143 0.23091429 0.54000002 9.8616702e-39
-0.12394285 0.23091429 0.54000002 9.8616702e-39
-0.12291428 0.23091429 0.54000002 9.8620205e-39
-0.12211142 0.2313419 0.54100001 9.9542161e-39
-0.12108095 0.2313419 0.54100001 9.6794299e-39
-0.12005048 0.2313419 0.54100001 9.7716255e-39
-0.1199 0.23305237 0.54500002 1.0140408e-38
-0.11886191 0.23305237 0.54500002 1.0140408e-38
-0.11782381 0.23305237 0.54500002 9.4961148e-39
-0.117 0.23348001 0.546 9.4961148e-39
-0.11617239 0.23390764 0.54700005 9.402843e-39
-0.11513048 0.23390764 0.54700005 9.9560168e-39
-0.16231239 0.23537906 0.54800004 8.1135307e-39
-0.16068 0.23452 0.546 8.0213351e-39
-0.15905525 0.23366097 0.54400003 8.3893805e-39
-0.15772857 0.23323144 0.54300004 8.6659674e-39
-0.15669429 0.23323144 0.54300004 8.4812539e-39
-0.15537335 0.23280193 0.54200006 8.8500364e-39
-0.15434097 0.23280193 0.54200006 9.0340549e-39
-0.15330859 0.23280193 0.54200006 8.757468e-39
-0.1522762 0.23280193 0.54200006 8.5730697e-39
-0.15096477 0.23237237 0.54100001 8.5730697e-39
-0.14965715 0.23194286 0.54000002 8.3897673e-39
-0.14862858 0.23194286 0.54000002 8.5741585e-39
-0.14732668 0.23151335 0.53900003 8.7574736e-39
-0.1463 0.23151335 0.53900003 8.665278e-39
-0.14527333 0.23151335 0.53900003 8.6652752e-39
-0.14397906 0.23108383 0.53800005 8.7574708e-39
-0.1429543 0.23108383 0.53800005 8.5738026e-39
-0.14192954 0.23108383 0.53800005 8.2972157e-39
-0.14090477 0.23108383 0.53800005 8.7574736e-39
-0.13988 0.23108383 0.53800005 8.7574736e-39
-0.13885525 0.23108383 0.53800005 8.5727292e-39
-0.1378305 0.23108383 0.53800005 8.6649249e-39
-0.13680573 0.23108383 0.53800005 8.9418817e-39
-0.13578096 0.23108383 0.53800005 8.8496861e-39
-0.13475621 0.23108383 0.53800005 8.850709e-39
-0.13373144 0.23108383 0.53800005 9.1272959e-39
-0.13270667 0.23108383 0.53800005 9.2187993e-39
-0.1316819 0.23108383 0.53800005 9.2187993e-39
-0.13065715 0.23108383 0.53800005 9.402843e-39
-0.1296324 0.23108383 0.53800005 9.5872343e-39
-0.12884666 0.23151335 0.53900003 9.4028626e-39
-0.12805715 0.23194286 0.54000002 9.2184714e-39
-0.12702857 0.23194286 0.54000002 9.3106474e-39
-0.126 0.23194286 0.54000002 9.402843e-39
-0.12497143 0.23194286 0.54000002 9.5854364e-39
-0.12417237 0.23237237 0.54100001 8.940067e-39
-0.1231419 0.23237237 0.54100001 9.8620205e-39
-0.12211142 0.23237237 0.54100001 9.9542161e-39
-0.12130477 0.23280193 0.54200006 9.5872511e-39
-0.12027239 0.23280193 0.54200006 9.4028598e-39
-0.1199 0.23409049 0.54500002 9.219172e-39
-0.11886191 0.23409049 0.54500002 9.1269764e-39
-0.11804 0.23452 0.546 9.4028402e-39
-0.117 0.23452 0.546 9.4950358e-39
-0.15964 0.23556 0.546 8.3890274e-39
-0.15830953 0.23512858 0.54500002 8.6656143e-39
-0.15669429 0.23426573 0.54300004 8.4809035e-39
-0.15566 0.23426573 0.54300004 8.5730992e-39
-0.15462573 0.23426573 0.54300004 8.7574736e-39
-0.15330859 0.23383431 0.54200006 8.7574736e-39
-0.1522762 0.23383431 0.54200006 8.7556631e-39
-0.15124382 0.23383431 0.54200006 8.8478588e-39
-0.14993428 0.23340285 0.54100001 8.5723607e-39
-0.14862858 0.23297143 0.54000002 8.6645563e-39
-0.14732668 0.23254003 0.53900003 8.7571205e-39
-0.1463 0.23254003 0.53900003 8.7571205e-39
-0.14527333 0.23254003 0.53900003 8.7571205e-39
-0.14397906 0.23210859 0.53800005 8.6649249e-39
-0.1429543 0.23210859 0.53800005 8.7571051e-39
-0.14192954 0.23210859 0.53800005 8.6649094e-39
-0.14090477 0.23210859 0.53800005 8.6652752e-39
-0.13988 0.23210859 0.53800005 8.7574708e-39
-0.13885525 0.23210859 0.53800005 8.6645563e-39
-0.1378305 0.23210859 0.53800005 8.6645563e-39
-0.13680573 0.23210859 0.53800005 9.2180986e-39
-0.13578096 0.23210859 0.53800005 9.0337074e-39
-0.13475621 0.23210859 0.53800005 9.2169902e-39
-0.13373144 0.23210859 0.53800005 9.5857727e-39
-0.13270667 0.23210859 0.53800005 9.218449e-39
-0.1316819 0.23210859 0.53800005 9.0340577e-39
-0.13065715 0.23210859 0.53800005 9.1262533e-39
-0.12987334 0.23254003 0.53900003 9.4950358e-39
-0.12908572 0.23297143 0.54000002 9.5872315e-39
-0.12805715 0.23297143 0.54000002 9.3106446e-39
-0.12702857 0.23297143 0.54000002 9.0347808e-39
-0.126 0.23297143 0.54000002 9.0347808e-39
-0.12497143 0.23297143 0.54000002 9.6769132e-39
-0.12417237 0.23340285 0.54100001 9.6769132e-39
-0.1231419 0.23340285 0.54100001 9.7716227e-39
-0.12211142 0.23340285 0.54100001 9.6794271e-39
-0.12130477 0.23383431 0.54200006 9.4039388e-39
-0.12027239 0.23383431 0.54200006 9.1273519e-39
-0.1199 0.23512858 0.54500002 9.0351367e-39
-0.15830953 0.23616667 0.54500002 8.6652654e-39
-0.15669429 0.23530002 0.54300004 8.4805532e-39
-0.15566 0.23530002 0.54300004 8.3883576e-39
-0.15462573 0.23530002 0.54300004 8.6649094e-39
-0.15359144 0.23530002 0.54300004 8.2961269e-39
-0.15255715 0.23530002 0.54300004 8.3886785e-39
-0.15124382 0.23486669 0.54200006 8.5730697e-39
-0.14993428 0.23443332 0.54100001 8.5727292e-39
-0.14862858 0.23400001 0.54000002 8.4805336e-39
-0.14732668 0.23356667 0.53900003 8.8482567e-39
-0.1463 0.23356667 0.53900003 8.9404524e-39
-0.14527333 0.23356667 0.53900003 8.8493161e-39
-0.14424668 0.23356667 0.53900003 8.6649249e-39
-0.1429543 0.23313336 0.53800005 8.5730697e-39
-0.14192954 0.23313336 0.53800005 8.6652654e-39
-0.14090477 0.23313336 0.53800005 8.5738026e-39
-0.14014 0.23356667 0.53900003 8.6659982e-39
-0.13911335 0.23356667 0.53900003 8.4812539e-39
-0.13808668 0.23356667 0.53900003 8.2968626e-39
-0.13706 0.23356667 0.53900003 9.1262561e-39
-0.13603334 0.23356667 0.53900003 9.1262561e-39
-0.13500667 0.23356667 0.53900003 9.0340549e-39
-0.13398002 0.23356667 0.53900003 9.2184462e-39
-0.13295335 0.23356667 0.53900003 9.1262561e-39
-0.13192667 0.23356667 0.53900003 9.0340605e-39
-0.13090001 0.23356667 0.53900003 9.1262533e-39
-0.12987334 0.23356667 0.53900003 9.1262533e-39
-0.12908572 0.23400001 0.54000002 8.9429046e-39
-0.12805715 0.23400001 0.54000002 8.9429046e-39
-0.12702857 0.23400001 0.54000002 9.1262533e-39
-0.12623332 0.23443332 0.54100001 9.1262533e-39
-0.12543429 0.23486669 0.54200006 9.4013983e-39
-0.12440191 0.23486669 0.54200006 9.4935939e-39
-0.12336953 0.23486669 0.54200006 9.0340549e-39
-0.12233715 0.23486669 0.54200006 8.8496636e-39
-0.12152858 0.23530002 0.54300004 8.573102e-39
-0.12071619 0.23573335 0.54400003 8.2965151e-39
-0.15698287 0.23676954 0.54400003 7.9277326e-39
-0.15594667 0.23676954 0.54400003 8.1121238e-39
-0.15462573 0.23633429 0.54300004 8.2975717e-39
-0.15359144 0.23633429 0.54300004 7.9287891e-39
-0.15255715 0.23633429 0.54300004 8.2042844e-39
-0.15152287 0.23633429 0.54300004 8.4808713e-39
-0.15021144 0.23589908 0.54200006 9.3106446e-39
-0.1489038 0.23546381 0.54100001 8.4808839e-39
-0.14760001 0.23502858 0.54000002 8.8478588e-39
-0.14657144 0.23502858 0.54000002 9.1244456e-39
-0.14554286 0.23502858 0.54000002 9.0318997e-39
-0.14424668 0.23459335 0.53900003 9.0318997e-39
-0.1429543 0.23415811 0.53800005 8.4812539e-39
-0.14192954 0.23415811 0.53800005 8.4812539e-39
-0.14090477 0.23415811 0.53800005 8.7592729e-39
-0.14014 0.23459335 0.53900003 8.6670772e-39
-0.13911335 0.23459335 0.53900003 8.5738026e-39
-0.13808668 0.23459335 0.53900003 8.5738026e-39
-0.13706 0.23459335 0.53900003 9.1262561e-39
-0.13628572 0.23502858 0.54000002 9.0340605e-39
-0.13525714 0.23502858 0.54000002 8.8496692e-39
-0.13422857 0.23502858 0.54000002 8.9418649e-39
-0.13295335 0.23459335 0.53900003 8.9418649e-39
-0.13192667 0.23459335 0.53900003 8.8496692e-39
-0.13090001 0.23459335 0.53900003 9.3084838e-39
