# .PCD v0.7 - Point Cloud Data file format
VERSION 0.7
FIELDS x y z rgb
SIZE 4 4 4 4
TYPE F F F F
COUNT 1 1 1 1
WIDTH 962
HEIGHT 1
VIEWPOINT 0 0 0 1 0 0 0
POINTS 962
DATA ascii
0.016919049 0.0026714287 0.93500006 1.1340766e-38
0.018700002 0.0026714287 0.93500006 1.1340744e-38
0.020480953 0.0026714287 0.93500006 1.1340744e-38
0.022261906 0.0026714287 0.93500006 1.1432586e-38
-0.10718572 0.0043571433 0.91500002 1.1431527e-38
-0.10544286 0.0043571433 0.91500002 1.1431527e-38
-0.1037 0.0043571433 0.91500002 1.1616627e-38
-0.10173429 0.0043476191 0.91300005 1.0786866e-38
-0.09966667 0.0043333336 0.91000003 8.6674682e-39
-0.097718097 0.0043238099 0.90800005 7.3767294e-39
-0.095777147 0.0043142857 0.90600002 7.5625626e-39
-0.093740009 0.0043000001 0.90300006 7.9313451e-39
-0.091816194 0.0042904764 0.90100002 8.2064901e-39
-0.090100005 0.0042904764 0.90100002 8.8518595e-39
-0.088089526 0.0042761909 0.89800006 7.7494678e-39
-0.08618667 0.0042666667 0.89600003 5.3523814e-39
-0.084480003 0.0042666667 0.89600003 3.2357663e-39
-0.082311429 0.004242857 0.89100003 6.4626049e-39
-0.080433331 0.0042333333 0.88900006 8.3930267e-39
-0.078740001 0.0042333333 0.88900006 9.4993743e-39
-0.076873332 0.0042238096 0.88700002 9.3164376e-39
-0.075183809 0.0042238096 0.88700002 9.3164376e-39
-0.073494285 0.0042238096 0.88700002 9.1331309e-39
-0.071642861 0.0042142859 0.88500005 9.4097178e-39
-0.069957145 0.0042142859 0.88500005 9.5015575e-39
-0.068271436 0.0042142859 0.88500005 9.9625356e-39
-0.066585712 0.0042142859 0.88500005 1.0696513e-38
-0.064900003 0.0042142859 0.88500005 6.1789275e-39
-0.063000001 0.0042000003 0.88200003 3.6888818e-39
-0.061319999 0.0042000003 0.88200003 7.1923157e-39
-0.059640002 0.0042000003 0.88200003 9.9589105e-39
-0.05796 0.0042000003 0.88200003 1.1157454e-38
-0.056152385 0.0041904761 0.88000005 1.0330229e-38
-0.054476194 0.0041904761 0.88000005 1.0238034e-38
-0.052800003 0.0041904761 0.88000005 9.9621755e-39
-0.051123813 0.0041904761 0.88000005 9.9621755e-39
-0.049560003 0.0042000003 0.88200003 1.0054005e-38
-0.047880001 0.0042000003 0.88200003 1.0054005e-38
-0.046357144 0.0042142859 0.88500005 1.0145129e-38
-0.044671431 0.0042142859 0.88500005 1.0237325e-38
-0.042985715 0.0042142859 0.88500005 9.9614566e-39
-0.041393336 0.0042238096 0.88700002 9.9614566e-39
-0.039703812 0.0042238096 0.88700002 9.8699743e-39
-0.038014285 0.0042238096 0.88700002 9.8699743e-39
-0.036324766 0.0042238096 0.88700002 9.594109e-39
-0.034635238 0.0042238096 0.88700002 9.4097178e-39
-0.032945715 0.0042238096 0.88700002 9.4097178e-39
-0.031326666 0.0042333333 0.88900006 9.3175222e-39
-0.029700002 0.004242857 0.89100003 9.2238888e-39
-0.028097145 0.004257143 0.89400005 9.2238888e-39
-0.026453335 0.0042666667 0.89600003 9.0394975e-39
-0.024746668 0.0042666667 0.89600003 8.8551063e-39
-0.02309143 0.0042761909 0.89800006 8.6710681e-39
-0.021452382 0.0042904764 0.90100002 8.4866769e-39
-0.019736189 0.0042904764 0.90100002 8.5774278e-39
-0.018060001 0.0043000001 0.90300006 8.024254e-39
-0.016340001 0.0043000001 0.90300006 8.1146476e-39
-0.01462 0.0043000001 0.90300006 9.7741689e-39
-0.0129 0.0043000001 0.90300006 1.0694302e-38
0.0062533333 0.0044666668 0.93800002 9.0354996e-39
0.0080400007 0.0044666668 0.93800002 8.8496889e-39
0.0098266667 0.0044666668 0.93800002 9.4028626e-39
0.011613334 0.0044666668 0.93800002 9.4043074e-39
0.013400001 0.0044666668 0.93800002 1.0234068e-38
0.015186667 0.0044666668 0.93800002 1.0510995e-38
0.016919049 0.0044523813 0.93500006 1.1525147e-38
0.018700002 0.0044523813 0.93500006 1.1525135e-38
0.020546667 0.0044666668 0.93800002 1.1340744e-38
-0.10578857 0.00612 0.91800004 1.1431166e-38
-0.10404 0.00612 0.91800004 1.1524063e-38
-0.10173429 0.0060866671 0.91300005 1.115528e-38
-0.09966667 0.0060666669 0.91000003 9.1273674e-39
-0.097718097 0.0060533336 0.90800005 7.5600416e-39
-0.095777147 0.0060399999 0.90600002 7.4700166e-39
-0.093740009 0.0060200007 0.90300006 7.8387991e-39
-0.092020005 0.0060200007 0.90300006 8.2990388e-39
-0.090100005 0.0060066669 0.90100002 8.6678213e-39
-0.088089526 0.0059866668 0.89800006 7.7508999e-39
-0.086379051 0.0059866668 0.89800006 5.4460092e-39
-0.084480003 0.0059733335 0.89600003 1.6752944e-39
-0.082588576 0.0059600002 0.89400005 4.1645764e-39
-0.080614291 0.0059400005 0.89100003 7.5639695e-39
-0.078740001 0.0059266672 0.88900006 9.8688602e-39
-0.07704667 0.0059266672 0.88900006 9.8681666e-39
-0.075183809 0.0059133335 0.88700002 9.5915797e-39
-0.073494285 0.0059133335 0.88700002 9.3160872e-39
-0.071804762 0.0059133335 0.88700002 9.7770654e-39
-0.070115238 0.0059133335 0.88700002 9.4097122e-39
-0.068425715 0.0059133335 0.88700002 9.7784947e-39
-0.066585712 0.0059000002 0.88500005 1.0237678e-38
-0.064900003 0.0059000002 0.88500005 7.932787e-39
-0.063214287 0.0059000002 0.88500005 3.3277125e-39
-0.061528575 0.0059000002 0.88500005 9.3062613e-40
-0.059640002 0.0058800001 0.88200003 6.9186099e-39
-0.05796 0.0058800001 0.88200003 1.1344e-38
-0.056280002 0.0058800001 0.88200003 1.0973798e-38
-0.0546 0.0058800001 0.88200003 1.0328429e-38
-0.052800003 0.0058666668 0.88000005 1.0145135e-38
-0.051123813 0.0058666668 0.88000005 1.0145135e-38
-0.049560003 0.0058800001 0.88200003 9.9621755e-39
-0.04804286 0.0059000002 0.88500005 9.9621755e-39
-0.046357144 0.0059000002 0.88500005 1.0146564e-38
-0.044671431 0.0059000002 0.88500005 1.023876e-38
-0.042985715 0.0059000002 0.88500005 1.0054366e-38
-0.041393336 0.0059133335 0.88700002 9.8699743e-39
-0.039703812 0.0059133335 0.88700002 9.8699743e-39
-0.038014285 0.0059133335 0.88700002 9.7777786e-39
-0.036324766 0.0059133335 0.88700002 9.7770626e-39
-0.034713335 0.0059266672 0.88900006 9.6848669e-39
-0.033020001 0.0059266672 0.88900006 9.5926713e-39
-0.031397145 0.0059400005 0.89100003 9.5004757e-39
-0.0298 0.0059600002 0.89400005 9.4089891e-39
-0.028097145 0.0059600002 0.89400005 9.1324022e-39
-0.026453335 0.0059733335 0.89600003 8.9473047e-39
-0.024801906 0.0059866668 0.89800006 8.8551091e-39
-0.02309143 0.0059866668 0.89800006 8.9462159e-39
-0.021452382 0.0060066669 0.90100002 8.669629e-39
-0.019736189 0.0060066669 0.90100002 8.4845189e-39
-0.018060001 0.0060200007 0.90300006 8.1157364e-39
-0.016340001 0.0060200007 0.90300006 8.4820008e-39
-0.01462 0.0060200007 0.90300006 1.0233718e-38
-0.0129 0.0060200007 0.90300006 1.115491e-38
0.0044761905 0.006266667 0.94000006 1.1064867e-38
0.0062533333 0.0062533333 0.93800002 8.4833894e-39
0.0080400007 0.0062533333 0.93800002 8.3923205e-39
0.0098266667 0.0062533333 0.93800002 9.7752549e-39
0.011613334 0.0062533333 0.93800002 1.0234418e-38
0.013400001 0.0062533333 0.93800002 1.0511005e-38
0.015186667 0.0062533333 0.93800002 1.0694678e-38
0.016973333 0.0062533333 0.93800002 1.1340047e-38
0.018759999 0.0062533333 0.93800002 1.1340744e-38
0.020546667 0.0062533333 0.93800002 1.1340744e-38
-0.10521238 0.0078257145 0.91300005 1.1340037e-38
-0.10347334 0.0078257145 0.91300005 1.1616261e-38
-0.10173429 0.0078257145 0.91300005 1.1339674e-38
-0.09966667 0.0078000003 0.91000003 9.7720179e-39
-0.097718097 0.0077828579 0.90800005 7.8359097e-39
-0.095777147 0.0077657145 0.90600002 7.7455119e-39
-0.093740009 0.0077400007 0.90300006 8.1142944e-39
-0.092020005 0.0077400007 0.90300006 8.0238911e-39
-0.090300001 0.0077400007 0.90300006 8.3926736e-39
-0.088383809 0.0077228574 0.90100002 6.3697955e-39
-0.086379051 0.0076971436 0.89800006 4.7102742e-39
-0.084480003 0.0076800003 0.89600003 1.7689221e-39
-0.082773335 0.0076800003 0.89600003 4.7191823e-39
-0.080614291 0.0076371427 0.89100003 7.5625276e-39
-0.078917146 0.0076371427 0.89100003 9.683027e-39
-0.07704667 0.0076200003 0.88900006 9.8681722e-39
-0.075353332 0.0076200003 0.88900006 9.5915853e-39
-0.073494285 0.0076028574 0.88700002 9.0409353e-39
-0.071804762 0.0076028574 0.88700002 9.3175222e-39
-0.070115238 0.0076028574 0.88700002 9.4097178e-39
-0.068425715 0.0076028574 0.88700002 9.7785003e-39
-0.066736192 0.0076028574 0.88700002 1.0146201e-38
-0.065046668 0.0076028574 0.88700002 7.656919e-39
-0.063214287 0.0075857146 0.88500005 4.1585199e-39
-0.061528575 0.0075857146 0.88500005 1.0238685e-39
-0.059842858 0.0075857146 0.88500005 5.7200303e-39
-0.058157146 0.0075857146 0.88500005 1.1159572e-38
-0.056280002 0.0075600003 0.88200003 1.0790854e-38
-0.0546 0.0075600003 0.88200003 1.0237681e-38
-0.052920002 0.0075600003 0.88200003 9.9618098e-39
-0.051240001 0.0075600003 0.88200003 9.9618098e-39
-0.049728576 0.0075857146 0.88500005 9.8699799e-39
-0.04804286 0.0075857146 0.88500005 9.9621755e-39
-0.046357144 0.0075857146 0.88500005 1.0146214e-38
-0.044671431 0.0075857146 0.88500005 1.0054018e-38
-0.043082856 0.0076028574 0.88700002 9.962523e-39
-0.041393336 0.0076028574 0.88700002 9.8703274e-39
-0.039703812 0.0076028574 0.88700002 9.8699743e-39
-0.038014285 0.0076028574 0.88700002 9.8699743e-39
-0.036324766 0.0076028574 0.88700002 9.7770626e-39
-0.034713335 0.0076200003 0.88900006 9.6848669e-39
-0.033094287 0.0076371427 0.89100003 9.5004757e-39
-0.031502858 0.0076628574 0.89400005 9.5004757e-39
-0.0298 0.0076628574 0.89400005 9.3160844e-39
-0.028097145 0.0076628574 0.89400005 9.2238888e-39
-0.026453335 0.0076800003 0.89600003 9.0394975e-39
-0.024801906 0.0076971436 0.89800006 8.9473019e-39
-0.02309143 0.0076971436 0.89800006 8.8540203e-39
-0.021452382 0.0077228574 0.90100002 8.4852377e-39
-0.019780001 0.0077400007 0.90300006 8.4845161e-39
-0.018060001 0.0077400007 0.90300006 8.1157336e-39
-0.016340001 0.0077400007 0.90300006 8.4819979e-39
-0.01462 0.0077400007 0.90300006 1.0510302e-38
-0.0129 0.0077400007 0.90300006 1.1339302e-38
0.0026800002 0.0080400007 0.93800002 1.1614119e-38
0.0044666668 0.0080400007 0.93800002 9.9596139e-39
0.0062533333 0.0080400007 0.93800002 8.3922882e-39
0.0080400007 0.0080400007 0.93800002 8.3011912e-39
0.0098266667 0.0080400007 0.93800002 9.6841257e-39
0.011613334 0.0080400007 0.93800002 1.0235497e-38
0.013400001 0.0080400007 0.93800002 1.0696476e-38
0.015186667 0.0080400007 0.93800002 1.1156375e-38
0.016973333 0.0080400007 0.93800002 1.1156375e-38
0.018759999 0.0080400007 0.93800002 1.1248911e-38
0.020546667 0.0080400007 0.93800002 1.1248911e-38
-0.10347334 0.009564762 0.91300005 1.1798848e-38
-0.10173429 0.009564762 0.91300005 1.1614456e-38
-0.09966667 0.0095333336 0.91000003 1.0510286e-38
-0.097718097 0.0095123816 0.90800005 7.8366131e-39
-0.095777147 0.0094914287 0.90600002 7.5614738e-39
-0.094051436 0.0094914287 0.90600002 8.1146476e-39
-0.092020005 0.0094600003 0.90300006 8.0238911e-39
-0.090300001 0.0094600003 0.90300006 8.5770648e-39
-0.088383809 0.0094390474 0.90100002 7.5647458e-39
-0.08666762 0.0094390474 0.90100002 6.7349851e-39
-0.084480003 0.0093866661 0.89600003 6.8282219e-39
-0.082773335 0.0093866661 0.89600003 7.1048088e-39
-0.080614291 0.0093342857 0.89100003 7.5614738e-39
-0.078917146 0.0093342857 0.89100003 7.8380607e-39
-0.07704667 0.0093133338 0.88900006 8.1150427e-39
-0.075353332 0.0093133338 0.88900006 9.7745641e-39
-0.073660001 0.0093133338 0.88900006 9.1331253e-39
-0.071804762 0.0092923809 0.88700002 9.0409297e-39
-0.070115238 0.0092923809 0.88700002 9.5004757e-39
-0.068425715 0.0092923809 0.88700002 9.9614538e-39
-0.066736192 0.0092923809 0.88700002 1.042099e-38
-0.065046668 0.0092923809 0.88700002 7.6551212e-39
-0.063214287 0.0092714289 0.88500005 4.3382267e-39
-0.061528575 0.0092714289 0.88500005 1.019184e-39
-0.059842858 0.0092714289 0.88500005 2.217772e-39
-0.058157146 0.0092714289 0.88500005 8.0260967e-39
-0.05647143 0.0092714289 0.88500005 1.0972725e-38
-0.054785714 0.0092714289 0.88500005 1.1157116e-38
-0.053100005 0.0092714289 0.88500005 1.0513539e-38
-0.051414289 0.0092714289 0.88500005 1.0421343e-38
-0.049728576 0.0092714289 0.88500005 1.0146564e-38
-0.04804286 0.0092714289 0.88500005 9.6855858e-39
-0.046357144 0.0092714289 0.88500005 7.6558863e-39
-0.044772383 0.0092923809 0.88700002 6.9183212e-39
-0.043082856 0.0092923809 0.88700002 6.92007e-39
-0.041393336 0.0092923809 0.88700002 9.0405695e-39
-0.039703812 0.0092923809 0.88700002 1.0422072e-38
-0.038014285 0.0092923809 0.88700002 1.0422072e-38
-0.036406666 0.0093133338 0.88900006 1.0054005e-38
-0.034791429 0.0093342857 0.89100003 9.7774185e-39
-0.033205714 0.0093657151 0.89400005 9.5930244e-39
-0.031502858 0.0093657151 0.89400005 9.4086332e-39
-0.0298 0.0093657151 0.89400005 9.3160844e-39
-0.028097145 0.0093657151 0.89400005 9.1316932e-39
-0.026512383 0.009407619 0.89800006 9.0394975e-39
-0.024801906 0.009407619 0.89800006 8.8551063e-39
-0.023168571 0.0094390474 0.90100002 8.8540203e-39
-0.021500001 0.0094600003 0.90300006 8.5774334e-39
-0.019780001 0.0094600003 0.90300006 8.4845161e-39
-0.018060001 0.0094600003 0.90300006 8.0235379e-39
-0.016340001 0.0094600003 0.90300006 8.5741936e-39
-0.014668572 0.0094914287 0.90600002 1.0879084e-38
-0.012942857 0.0094914287 0.90600002 1.1247103e-38
0.0026800002 0.0098266667 0.93800002 9.4032228e-39
0.0044666668 0.0098266667 0.93800002 8.8540203e-39
0.0062533333 0.0098266667 0.93800002 9.6837809e-39
0.0080400007 0.0098266667 0.93800002 9.7766772e-39
0.0098266667 0.0098266667 0.93800002 1.0053264e-38
0.011613334 0.0098266667 0.93800002 1.060428e-38
0.013400001 0.0098266667 0.93800002 1.0973062e-38
0.015186667 0.0098266667 0.93800002 1.1340047e-38
0.016973333 0.0098266667 0.93800002 1.1155656e-38
0.018759999 0.0098266667 0.93800002 1.1247839e-38
-0.1037 0.011328571 0.91500002 1.1614106e-38
-0.10195714 0.011328571 0.91500002 1.1890693e-38
-0.09966667 0.011266666 0.91000003 1.0601779e-38
-0.097718097 0.011241905 0.90800005 7.9281053e-39
-0.095777147 0.011217142 0.90600002 7.6536694e-39
-0.094051436 0.011217142 0.90600002 8.1146476e-39
-0.092020005 0.01118 0.90300006 7.9316954e-39
-0.090300001 0.01118 0.90300006 7.7473042e-39
-0.088383809 0.011155238 0.90100002 8.0235505e-39
-0.08666762 0.011155238 0.90100002 7.8391593e-39
-0.084480003 0.011093334 0.89600003 7.8391467e-39
-0.082773335 0.011093334 0.89600003 7.009386e-39
-0.080885723 0.011068572 0.89400005 5.6267851e-39
-0.078917146 0.011031428 0.89100003 4.6126331e-39
-0.07722 0.011031428 0.89100003 7.1933975e-39
-0.075353332 0.011006667 0.88900006 1.0604636e-38
-0.073660001 0.011006667 0.88900006 9.8699799e-39
-0.07196667 0.011006667 0.88900006 9.3168061e-39
-0.070273332 0.011006667 0.88900006 9.5926713e-39
-0.068580002 0.011006667 0.88900006 1.0238041e-38
-0.066736192 0.010981904 0.88700002 1.0696138e-38
-0.065046668 0.010981904 0.88700002 5.9941607e-39
-0.063357145 0.010981904 0.88700002 5.5334558e-39
-0.061528575 0.010957144 0.88500005 4.980282e-39
-0.059842858 0.010957144 0.88500005 3.2300714e-39
-0.058157146 0.010957144 0.88500005 6.4569185e-39
-0.05647143 0.010957144 0.88500005 8.6699737e-39
-0.054785714 0.010957144 0.88500005 1.0237299e-38
-0.053100005 0.010957144 0.88500005 1.1156753e-38
-0.051414289 0.010957144 0.88500005 1.1064557e-38
-0.049840953 0.010981904 0.88700002 1.0605772e-38
-0.04815143 0.010981904 0.88700002 8.1164903e-39
-0.046461903 0.010981904 0.88700002 7.6547582e-39
-0.044772383 0.010981904 0.88700002 7.470367e-39
-0.043082856 0.010981904 0.88700002 6.0867094e-39
-0.041393336 0.010981904 0.88700002 8.5759914e-39
-0.039793335 0.011006667 0.88900006 1.0972727e-38
-0.0381 0.011006667 0.88900006 1.0603945e-38
-0.03648857 0.011031428 0.89100003 9.8706777e-39
-0.034791429 0.011031428 0.89100003 9.6862865e-39
-0.033205714 0.011068572 0.89400005 9.3171662e-39
-0.031502858 0.011068572 0.89400005 9.2249706e-39
-0.0298 0.011068572 0.89400005 9.2238888e-39
-0.02816 0.011093334 0.89600003 9.1316932e-39
-0.026512383 0.011118095 0.89800006 8.947655e-39
-0.024884764 0.011155238 0.90100002 8.8554594e-39
-0.023220003 0.01118 0.90300006 8.7618246e-39
-0.021571428 0.011217142 0.90600002 8.5774334e-39
-0.019845715 0.011217142 0.90600002 8.4845161e-39
-0.01812 0.011217142 0.90600002 8.0235379e-39
-0.016394285 0.011217142 0.90600002 8.6656703e-39
-0.014668572 0.011217142 0.90600002 1.0970561e-38
-0.012942857 0.011217142 0.90600002 1.1247106e-38
-0.00089333334 0.011613334 0.93800002 1.1892145e-38
0.00089333334 0.011613334 0.93800002 1.0972334e-38
0.0026800002 0.011613334 0.93800002 9.1284211e-39
0.0044666668 0.011613334 0.93800002 8.1182447e-39
0.0062533333 0.011613334 0.93800002 9.5011791e-39
0.0080400007 0.011613334 0.93800002 1.0144741e-38
0.0098266667 0.011613334 0.93800002 1.0513523e-38
0.011613334 0.011613334 0.93800002 1.0972334e-38
0.013400001 0.011613334 0.93800002 1.1156725e-38
0.015186667 0.011613334 0.93800002 1.1156365e-38
0.016973333 0.011613334 0.93800002 1.1156365e-38
0.018759999 0.011613334 0.93800002 1.1340388e-38
-0.10195714 0.013071429 0.91500002 1.1890693e-38
-0.10021429 0.013071429 0.91500002 1.0970554e-38
-0.097933337 0.013 0.91000003 8.1124896e-39
-0.095988572 0.012971429 0.90800005 7.468925e-39
-0.094051436 0.012942857 0.90600002 7.9299032e-39
-0.092325717 0.012942857 0.90600002 7.5614738e-39
-0.090300001 0.0129 0.90300006 5.3487787e-39
-0.088383809 0.012871428 0.90100002 5.5346343e-39
-0.08666762 0.012871428 0.90100002 7.10196e-39
-0.084668577 0.012828573 0.89800006 7.8366313e-39
-0.082773335 0.012800001 0.89600003 7.0990663e-39
-0.080885723 0.012771429 0.89400005 4.1538102e-39
-0.079182863 0.012771429 0.89400005 9.7216482e-41
-0.07722 0.012728572 0.89100003 2.9567243e-39
-0.075522862 0.012728572 0.89100003 1.0701157e-38
-0.073825717 0.012728572 0.89100003 1.1157486e-38
-0.072128572 0.012728572 0.89100003 1.023553e-38
-0.070273332 0.012700001 0.88900006 9.9618098e-39
-0.068580002 0.012700001 0.88900006 1.079157e-38
-0.066886671 0.012700001 0.88900006 9.5926741e-39
-0.065193333 0.012700001 0.88900006 1.9404368e-39
-0.063357145 0.012671429 0.88700002 1.667768e-39
-0.061667617 0.012671429 0.88700002 6.1853538e-39
-0.059978094 0.012671429 0.88700002 5.8094191e-39
-0.058157146 0.012642858 0.88500005 3.8733109e-39
-0.05647143 0.012642858 0.88500005 7.10328e-39
-0.054785714 0.012642858 0.88500005 8.7628013e-39
-0.053100005 0.012642858 0.88500005 9.9592958e-39
-0.051530477 0.012671429 0.88700002 1.2079795e-38
-0.049840953 0.012671429 0.88700002 1.1802861e-38
-0.04815143 0.012671429 0.88700002 7.7462532e-39
-0.046461903 0.012671429 0.88700002 7.4714361e-39
-0.044772383 0.012671429 0.88700002 8.2090012e-39
-0.043180004 0.012700001 0.88900006 6.7317481e-39
-0.041486669 0.012700001 0.88900006 6.3629656e-39
-0.039882861 0.012728572 0.89100003 6.7335278e-39
-0.038185716 0.012728572 0.89100003 6.3647453e-39
-0.03661143 0.012771429 0.89400005 5.9070069e-39
-0.034908574 0.012771429 0.89400005 8.9494627e-39
-0.033205714 0.012771429 0.89400005 9.9600119e-39
-0.031573333 0.012800001 0.89600003 9.7756206e-39
-0.029866667 0.012800001 0.89600003 9.5915853e-39
-0.02816 0.012800001 0.89600003 9.3149984e-39
-0.026600951 0.012871428 0.90100002 9.4071912e-39
-0.024940003 0.0129 0.90300006 9.2228e-39
-0.023297142 0.012942857 0.90600002 9.0387562e-39
-0.021571428 0.012942857 0.90600002 8.5777781e-39
-0.019845715 0.012942857 0.90600002 8.4845161e-39
-0.01812 0.012942857 0.90600002 8.3001248e-39
-0.016430477 0.012971429 0.90800005 9.1266485e-39
-0.014700953 0.012971429 0.90800005 1.0878365e-38
-0.012971429 0.012971429 0.90800005 1.1246027e-38
-0.011241905 0.012971429 0.90800005 1.1153831e-38
-0.009879048 0.013471429 0.94300002 1.124462e-38
-0.0080400007 0.013400001 0.93800002 1.1613403e-38
-0.0062533333 0.013400001 0.93800002 1.2259826e-38
-0.0044666668 0.013400001 0.93800002 1.364276e-38
-0.0026800002 0.013400001 0.93800002 1.1893224e-38
-0.00089333334 0.013400001 0.93800002 9.311746e-39
0.00089333334 0.013400001 0.93800002 8.7618064e-39
0.0026800002 0.013400001 0.93800002 9.4993715e-39
0.0044666668 0.013400001 0.93800002 9.7759612e-39
0.0062533333 0.013400001 0.93800002 1.0052548e-38
0.0080400007 0.013400001 0.93800002 1.0419538e-38
0.0098266667 0.013400001 0.93800002 1.0972712e-38
0.011613334 0.013400001 0.93800002 1.1064166e-38
0.013428572 0.013428572 0.94000006 1.1064166e-38
-0.10054287 0.014862858 0.91800004 1.106311e-38
-0.098256193 0.014781905 0.91300005 8.2972409e-39
-0.096200004 0.014733333 0.91000003 7.4692781e-39
-0.094259053 0.014700953 0.90800005 7.9302563e-39
-0.092325717 0.014668572 0.90600002 7.8369817e-39
-0.090600006 0.014668572 0.90600002 6.3618516e-39
-0.088580005 0.01462 0.90300006 6.3607698e-39
-0.08666762 0.014587619 0.90100002 6.0841829e-39
-0.084668577 0.014539048 0.89800006 6.5465679e-39
-0.082773335 0.014506667 0.89600003 7.284133e-39
-0.080885723 0.014474287 0.89400005 4.4297216e-39
-0.079182863 0.014474287 0.89400005 2.2170265e-39
-0.077480003 0.014474287 0.89400005 3.8772233e-39
-0.075522862 0.014425715 0.89100003 1.0238722e-38
-0.073825717 0.014425715 0.89100003 1.0054366e-38
-0.072128572 0.014425715 0.89100003 8.948018e-39
-0.070431434 0.014425715 0.89100003 8.7636197e-39
-0.068734288 0.014425715 0.89100003 9.3167935e-39
-0.066886671 0.014393334 0.88900006 8.3948596e-39
-0.065193333 0.014393334 0.88900006 1.9411655e-39
-0.063357145 0.014360953 0.88700002 9.3020294e-40
-0.061667617 0.014360953 0.88700002 6.0009626e-39
-0.059978094 0.014360953 0.88700002 7.1004956e-39
-0.058288574 0.014360953 0.88700002 7.1926913e-39
-0.056599047 0.014360953 0.88700002 6.3640544e-39
-0.054909527 0.014360953 0.88700002 7.1938151e-39
-0.05322 0.014360953 0.88700002 7.7494678e-39
-0.051530477 0.014360953 0.88700002 1.1345097e-38
-0.049840953 0.014360953 0.88700002 1.1804287e-38
-0.04815143 0.014360953 0.88700002 8.0242666e-39
-0.046461903 0.014360953 0.88700002 8.2990388e-39
-0.044772383 0.014360953 0.88700002 7.6536694e-39
-0.043180004 0.014393334 0.88900006 4.9821668e-39
-0.041579999 0.014425715 0.89100003 6.0885143e-39
-0.039882861 0.014425715 0.89100003 6.7324516e-39
-0.03831429 0.014474287 0.89400005 6.5480603e-39
-0.03661143 0.014474287 0.89400005 5.4441987e-39
-0.034986667 0.014506667 0.89600003 8.6710457e-39
-0.03328 0.014506667 0.89600003 1.0419185e-38
-0.031573333 0.014506667 0.89600003 1.0234794e-38
-0.029866667 0.014506667 0.89600003 9.4993897e-39
-0.028222859 0.014539048 0.89800006 9.2228028e-39
-0.026600951 0.014587619 0.90100002 9.0398507e-39
-0.025022857 0.014668572 0.90600002 8.947655e-39
-0.023297142 0.014668572 0.90600002 9.4064724e-39
-0.021571428 0.014668572 0.90600002 8.6689073e-39
-0.019889524 0.014700953 0.90800005 8.4845161e-39
-0.01816 0.014700953 0.90800005 8.2079292e-39
-0.016430477 0.014700953 0.90800005 9.1266485e-39
-0.014733333 0.014733333 0.91000003 1.0970561e-38
-0.013 0.014733333 0.91000003 1.1429702e-38
-0.011675238 0.015267619 0.94300002 1.1337507e-38
-0.009879048 0.015267619 0.94300002 1.1244264e-38
-0.0080400007 0.015186667 0.93800002 1.1981829e-38
-0.0062533333 0.015186667 0.93800002 1.2168376e-38
-0.0044666668 0.015186667 0.93800002 1.2352767e-38
-0.0026800002 0.015186667 0.93800002 1.1157103e-38
-0.00089333334 0.015186667 0.93800002 8.9444082e-39
0.00089333334 0.015186667 0.93800002 8.3940931e-39
0.0026800002 0.015186667 0.93800002 9.8692232e-39
0.0044666668 0.015186667 0.93800002 1.0512084e-38
0.0062533333 0.015186667 0.93800002 1.0512084e-38
0.0080400007 0.015186667 0.93800002 1.0786873e-38
0.0098266667 0.015186667 0.93800002 1.1155656e-38
0.011613334 0.015186667 0.93800002 1.1064166e-38
-0.099995241 0.016520953 0.91300005 1.1338615e-38
-0.098256193 0.016520953 0.91300005 8.9415286e-39
-0.096517146 0.016520953 0.91300005 7.5611235e-39
-0.094259053 0.016430477 0.90800005 8.0221016e-39
-0.092529528 0.016430477 0.90800005 7.9291773e-39
-0.090600006 0.016394285 0.90600002 6.8228297e-39
-0.088874288 0.016394285 0.90600002 5.44134e-39
-0.086860001 0.016340001 0.90300006 9.2375416e-40
-0.084951431 0.016303809 0.90100002 2.492114e-39
-0.082958095 0.016249524 0.89800006 6.2721321e-39
-0.081066668 0.016213333 0.89600003 5.994546e-39
-0.079182863 0.016177142 0.89400005 4.6116116e-39
-0.077480003 0.016177142 0.89400005 4.2449773e-39
-0.075777143 0.016177142 0.89400005 5.3513248e-39
-0.074074291 0.016177142 0.89400005 6.0877632e-39
-0.072371431 0.016177142 0.89400005 5.903372e-39
-0.070431434 0.016122857 0.89100003 6.088852e-39
-0.068734288 0.016122857 0.89100003 7.0108083e-39
-0.067037143 0.016122857 0.89100003 8.1178467e-39
-0.065193333 0.016086668 0.88900006 5.4441735e-39
-0.063500002 0.016086668 0.88900006 4.9861268e-39
-0.061806668 0.016086668 0.88900006 5.5393006e-39
-0.059978094 0.016050477 0.88700002 7.1912591e-39
-0.058288574 0.016050477 0.88700002 1.1893236e-38
-0.056599047 0.016050477 0.88700002 1.1893239e-38
-0.054909527 0.016050477 0.88700002 7.6522401e-39
-0.05322 0.016050477 0.88700002 6.2732433e-39
-0.051530477 0.016050477 0.88700002 7.103004e-39
-0.049840953 0.016050477 0.88700002 7.747307e-39
-0.04815143 0.016050477 0.88700002 7.9316982e-39
-0.046461903 0.016050477 0.88700002 6.7342312e-39
-0.044873338 0.016086668 0.88900006 3.9683623e-39
-0.043180004 0.016086668 0.88900006 3.6935705e-39
-0.041579999 0.016122857 0.89100003 6.551635e-39
-0.040017143 0.016177142 0.89400005 7.3778308e-39
-0.03831429 0.016177142 0.89400005 8.7607653e-39
-0.03661143 0.016177142 0.89400005 7.5618689e-39
-0.034986667 0.016213333 0.89600003 7.9306515e-39
-0.03328 0.016213333 0.89600003 9.4997218e-39
-0.031573333 0.016213333 0.89600003 9.7763087e-39
-0.029933335 0.016249524 0.89800006 8.8540147e-39
-0.028222859 0.016249524 0.89800006 8.3930365e-39
-0.026660001 0.016340001 0.90300006 8.4848846e-39
-0.025022857 0.016394285 0.90600002 8.9458628e-39
-0.023297142 0.016394285 0.90600002 9.1302386e-39
-0.021619048 0.016430477 0.90800005 8.4848692e-39
-0.019889524 0.016430477 0.90800005 8.3923205e-39
-0.01816 0.016430477 0.90800005 8.3923205e-39
-0.016466668 0.016466668 0.91000003 9.1273674e-39
-0.014781905 0.016520953 0.91300005 1.0510302e-38
-0.013042858 0.016520953 0.91300005 1.0601386e-38
-0.011675238 0.01706381 0.94300002 1.1246756e-38
-0.009879048 0.01706381 0.94300002 1.2628968e-38
-0.0080571435 0.017009525 0.94000006 1.3366533e-38
-0.0062533333 0.016973333 0.93800002 1.1523385e-38
-0.0044666668 0.016973333 0.93800002 9.4950807e-39
-0.0026800002 0.016973333 0.93800002 9.1295478e-39
-0.00089333334 0.016973333 0.93800002 9.7749172e-39
0.00089333334 0.016973333 0.93800002 9.8688728e-39
0.0026800002 0.016973333 0.93800002 1.0053264e-38
0.0044666668 0.016973333 0.93800002 1.0419891e-38
0.0062533333 0.016973333 0.93800002 1.0604283e-38
0.0080400007 0.016973333 0.93800002 1.0879778e-38
0.0098476186 0.017009525 0.94000006 1.0971974e-38
-0.098471433 0.018300001 0.91500002 8.9422474e-39
-0.096517146 0.01826 0.91300005 8.2061173e-39
-0.094466671 0.018200001 0.91000003 8.1139217e-39
-0.092529528 0.01816 0.90800005 8.0224519e-39
-0.090600006 0.01812 0.90600002 6.6395175e-39
-0.088874288 0.01812 0.90600002 5.5342363e-39
-0.086860001 0.018060001 0.90300006 2.3995849e-39
-0.085140005 0.018060001 0.90300006 3.5044569e-39
-0.083235241 0.01802 0.90100002 7.7454503e-39
-0.081066668 0.01792 0.89600003 8.6653228e-39
-0.079360001 0.01792 0.89600003 5.7150627e-39
-0.077480003 0.017880002 0.89400005 2.0333808e-39
-0.075777143 0.017880002 0.89400005 3.969489e-39
-0.074074291 0.017880002 0.89400005 6.5455114e-39
-0.072371431 0.017880002 0.89400005 6.5455114e-39
-0.070431434 0.017820001 0.89100003 5.5313594e-39
-0.068734288 0.017820001 0.89100003 8.0206414e-39
-0.067037143 0.017820001 0.89100003 8.9451439e-39
-0.065340005 0.017820001 0.89100003 6.7324488e-39
-0.063500002 0.01778 0.88900006 6.2732685e-39
-0.061806668 0.01778 0.88900006 5.6278991e-39
-0.060113337 0.01778 0.88900006 4.9861268e-39
-0.058420002 0.01778 0.88900006 1.0425669e-38
-0.056726668 0.01778 0.88900006 1.1617057e-38
-0.055033337 0.01778 0.88900006 7.5604494e-39
-0.053340003 0.01778 0.88900006 6.3636467e-39
-0.051646668 0.01778 0.88900006 7.3777986e-39
-0.049953338 0.01778 0.88900006 7.470367e-39
-0.048260003 0.01778 0.88900006 7.3781713e-39
-0.046566669 0.01778 0.88900006 4.8024446e-39
-0.044873338 0.01778 0.88900006 2.6819451e-39
-0.043277144 0.017820001 0.89100003 3.6924817e-39
-0.041579999 0.017820001 0.89100003 7.3803069e-39
-0.040017143 0.017880002 0.89400005 7.6544177e-39
-0.03831429 0.017880002 0.89400005 8.576374e-39
-0.036693335 0.01792 0.89600003 7.6558624e-39
-0.034986667 0.01792 0.89600003 8.024645e-39
-0.03328 0.01792 0.89600003 9.4993743e-39
-0.031643812 0.017960001 0.89800006 8.9462005e-39
-0.029933335 0.017960001 0.89800006 8.1164524e-39
-0.028317144 0.01802 0.90100002 8.0242568e-39
-0.026748572 0.01812 0.90600002 8.116437e-39
-0.025022857 0.01812 0.90600002 8.9461977e-39
-0.023348572 0.01816 0.90800005 8.9462159e-39
-0.021666666 0.018200001 0.91000003 8.4852377e-39
-0.019933334 0.018200001 0.91000003 8.6696136e-39
-0.018200001 0.018200001 0.91000003 8.3008311e-39
-0.016520953 0.01826 0.91300005 9.1277205e-39
-0.014814286 0.018300001 0.91500002 1.0695046e-38
-0.013071429 0.018300001 0.91500002 1.0876586e-38
-0.011712381 0.018920001 0.94600004 1.2628303e-38
-0.009879048 0.018859999 0.94300002 1.3274739e-38
-0.0080571435 0.018800002 0.94000006 1.2537174e-38
-0.0062533333 0.018759999 0.93800002 1.0696844e-38
-0.0044666668 0.018759999 0.93800002 8.9451271e-39
-0.0026800002 0.018759999 0.93800002 8.8540203e-39
-0.00089333334 0.018759999 0.93800002 9.9603678e-39
0.00089333334 0.018759999 0.93800002 1.0237655e-38
0.0026800002 0.018759999 0.93800002 1.014546e-38
0.0044666668 0.018759999 0.93800002 1.0695397e-38
0.0062533333 0.018759999 0.93800002 1.0879788e-38
0.0080571435 0.018800002 0.94000006 1.0971974e-38
-0.10109048 0.020218095 0.92300004 1.1155296e-38
-0.098794289 0.020108571 0.91800004 9.8645568e-39
-0.096728571 0.020042857 0.91500002 8.2990388e-39
-0.094985716 0.020042857 0.91500002 7.9302563e-39
-0.093039051 0.019999048 0.91300005 8.0220988e-39
-0.091000006 0.019933334 0.91000003 8.2986857e-39
-0.089070477 0.019889524 0.90800005 8.0242414e-39
-0.087148577 0.019845715 0.90600002 8.2086326e-39
-0.085422859 0.019845715 0.90600002 9.0355249e-39
-0.083420001 0.019780001 0.90300006 1.0234068e-38
-0.081519045 0.019736189 0.90100002 9.1291498e-39
-0.079360001 0.019626666 0.89600003 5.9944984e-39
-0.077653334 0.019626666 0.89600003 4.8892901e-39
-0.075946666 0.019626666 0.89600003 4.7048988e-39
-0.074074291 0.019582856 0.89400005 6.3607698e-39
-0.072371431 0.019582856 0.89400005 6.6373567e-39
-0.070668571 0.019582856 0.89400005 6.0849116e-39
-0.068734288 0.019517142 0.89100003 8.1132154e-39
-0.067037143 0.019517142 0.89100003 8.0221436e-39
-0.065340005 0.019517142 0.89100003 6.7314048e-39
-0.063642859 0.019517142 0.89100003 6.0878207e-39
-0.061945714 0.019517142 0.89100003 5.5346469e-39
-0.060248572 0.019517142 0.89100003 6.0892276e-39
-0.058551431 0.019517142 0.89100003 1.0975596e-38
-0.057045717 0.019582856 0.89400005 1.134151e-38
-0.055157144 0.019517142 0.89100003 7.6536848e-39
-0.053460002 0.019517142 0.89100003 6.3643851e-39
-0.051937148 0.019582856 0.89400005 7.2863414e-39
-0.050065715 0.019517142 0.89100003 7.9316982e-39
-0.048368573 0.019517142 0.89100003 7.0097419e-39
-0.046828572 0.019582856 0.89400005 1.3927071e-39
-0.045125719 0.019582856 0.89400005 3.6503825e-42
-0.043422859 0.019582856 0.89400005 1.2972226e-39
-0.041720003 0.019582856 0.89400005 7.0133517e-39
-0.040106665 0.019626666 0.89600003 7.3796287e-39
-0.038399998 0.019626666 0.89600003 8.301585e-39
-0.036693335 0.019626666 0.89600003 8.9448034e-39
-0.035064761 0.019670477 0.89800006 8.6682165e-39
-0.03335429 0.019670477 0.89800006 8.3001276e-39
-0.031749524 0.019736189 0.90100002 8.1157364e-39
-0.030100001 0.019780001 0.90300006 8.3930267e-39
-0.028474286 0.019845715 0.90600002 8.1164398e-39
-0.026807619 0.019889524 0.90800005 7.931666e-39
-0.025078095 0.019889524 0.90800005 9.3146004e-39
-0.023400001 0.019933334 0.91000003 9.2220811e-39
-0.021666666 0.019933334 0.91000003 8.3923205e-39
-0.019999048 0.019999048 0.91300005 8.3004779e-39
-0.01826 0.019999048 0.91300005 8.3926736e-39
-0.016611429 0.020108571 0.91800004 9.5872511e-39
-0.014862858 0.020108571 0.91800004 1.3736054e-38
-0.013514286 0.020721905 0.94600004 1.4748777e-38
-0.011712381 0.020721905 0.94600004 1.511756e-38
-0.009879048 0.020656191 0.94300002 1.1615971e-38
-0.0080828574 0.020656191 0.94300002 8.9422979e-39
-0.0062533333 0.020546667 0.93800002 9.0387619e-39
-0.0044666668 0.020546667 0.93800002 1.0145109e-38
-0.0026800002 0.020546667 0.93800002 1.0052908e-38
-0.00089333334 0.020546667 0.93800002 1.0052908e-38
0.00089333334 0.020546667 0.93800002 1.0236939e-38
0.0026800002 0.020546667 0.93800002 1.0329135e-38
0.0044666668 0.020546667 0.93800002 1.0879788e-38
-0.10109048 0.021976192 0.92300004 1.106345e-38
-0.099332385 0.021976192 0.92300004 1.0510277e-38
-0.097045712 0.021857142 0.91800004 9.2202692e-39
-0.094985716 0.021785714 0.91500002 7.8373348e-39
-0.093039051 0.021738095 0.91300005 7.286326e-39
-0.091000006 0.021666666 0.91000003 8.0238911e-39
-0.089070477 0.021619048 0.90800005 8.3008311e-39
-0.087340958 0.021619048 0.90800005 8.7618092e-39
-0.085422859 0.021571428 0.90600002 8.7618218e-39
-0.083420001 0.021500001 0.90300006 9.1306044e-39
-0.081519045 0.021452382 0.90100002 8.2097369e-39
-0.079537146 0.021380953 0.89800006 6.4580199e-39
-0.077826671 0.021380953 0.89800006 6.9168429e-39
-0.075946666 0.021333335 0.89600003 5.2573215e-39
-0.074239999 0.021333335 0.89600003 5.070031e-39
-0.072371431 0.021285716 0.89400005 5.4388135e-39
-0.070668571 0.021285716 0.89400005 5.0742979e-39
-0.068965718 0.021285716 0.89400005 6.8260149e-39
-0.067262866 0.021285716 0.89400005 7.3774805e-39
-0.065560006 0.021285716 0.89400005 6.7321111e-39
-0.063857146 0.021285716 0.89400005 5.1669336e-39
-0.062154286 0.021285716 0.89400005 5.2591292e-39
-0.060451429 0.021285716 0.89400005 6.0917457e-39
-0.058748577 0.021285716 0.89400005 1.0148353e-38
-0.057045717 0.021285716 0.89400005 1.1157136e-38
-0.055342861 0.021285716 0.89400005 7.4693104e-39
-0.053640001 0.021285716 0.89400005 6.9146722e-39
-0.051937148 0.021285716 0.89400005 8.1132154e-39
-0.050234288 0.021285716 0.89400005 8.115386e-39
-0.048531432 0.021285716 0.89400005 5.9026909e-39
-0.046828572 0.021285716 0.89400005 8.4021015e-40
-0.045125719 0.021285716 0.89400005 9.7292152e-42
-0.043422859 0.021285716 0.89400005 1.2982918e-39
-0.041720003 0.021285716 0.89400005 5.7236821e-39
-0.040106665 0.021333335 0.89600003 4.3397036e-39
-0.038399998 0.021333335 0.89600003 7.2899638e-39
-0.036693335 0.021333335 0.89600003 8.4870552e-39
-0.035064761 0.021380953 0.89800006 6.8275339e-39
-0.033465713 0.021452382 0.90100002 6.3629432e-39
-0.031820003 0.021500001 0.90300006 7.2848995e-39
-0.030100001 0.021500001 0.90300006 9.2188469e-39
-0.028474286 0.021571428 0.90600002 8.7578688e-39
-0.026807619 0.021619048 0.90800005 7.102648e-39
-0.025133334 0.021666666 0.91000003 8.6699737e-39
-0.023477143 0.021738095 0.91300005 8.669629e-39
-0.021738095 0.021738095 0.91300005 8.3008465e-39
-0.019999048 0.021738095 0.91300005 8.3926736e-39
-0.018300001 0.021785714 0.91500002 8.0238911e-39
-0.016611429 0.021857142 0.91800004 1.0322301e-38
-0.014862858 0.021857142 0.91800004 1.4286713e-38
-0.013514286 0.022523811 0.94600004 1.4474717e-38
-0.011712381 0.022523811 0.94600004 1.3460565e-38
-0.009879048 0.022452381 0.94300002 8.3059136e-39
-0.0080828574 0.022452381 0.94300002 7.5683485e-39
-0.006266667 0.022380954 0.94000006 8.8558097e-39
-0.0044666668 0.022333333 0.93800002 9.777766e-39
-0.0026800002 0.022333333 0.93800002 1.0328782e-38
-0.00089333334 0.022333333 0.93800002 1.0236586e-38
0.00089333334 0.022333333 0.93800002 1.0235497e-38
0.0026800002 0.022333333 0.93800002 1.0696476e-38
0.0044666668 0.022333333 0.93800002 1.0880138e-38
-0.099332385 0.023734286 0.92300004 1.115456e-38
-0.096728571 0.02352857 0.91500002 9.6815949e-39
-0.094985716 0.02352857 0.91500002 7.6532911e-39
-0.093039051 0.023477143 0.91300005 7.1941304e-39
-0.091000006 0.023400001 0.91000003 7.9316954e-39
-0.089266665 0.023400001 0.91000003 8.0238911e-39
-0.087340958 0.023348572 0.90800005 8.2082823e-39
-0.085422859 0.023297142 0.90600002 8.3923205e-39
-0.083697148 0.023297142 0.90600002 8.6689073e-39
-0.081700005 0.023220003 0.90300006 8.7607526e-39
-0.079802856 0.023168571 0.90100002 7.3778182e-39
-0.078086674 0.023168571 0.90100002 6.7327991e-39
-0.076116197 0.02309143 0.89800006 4.520104e-39
-0.074405722 0.02309143 0.89800006 4.0587559e-39
-0.072533339 0.02304 0.89600003 9.2410449e-40
-0.070826672 0.02304 0.89600003 5.0222537e-42
-0.068965718 0.022988571 0.89400005 4.4304125e-39
-0.067262866 0.022988571 0.89400005 7.0068959e-39
-0.065560006 0.022988571 0.89400005 7.8366566e-39
-0.063857146 0.022988571 0.89400005 7.2859757e-39
-0.062154286 0.022988571 0.89400005 6.6406063e-39
-0.060451429 0.022988571 0.89400005 5.9087922e-39
-0.058748577 0.022988571 0.89400005 9.5966174e-39
-0.057045717 0.022988571 0.89400005 1.0697952e-38
-0.055342861 0.022988571 0.89400005 8.3930617e-39
-0.053640001 0.022988571 0.89400005 8.1171559e-39
-0.051937148 0.022988571 0.89400005 8.3015471e-39
-0.050234288 0.022988571 0.89400005 7.1008936e-39
-0.048531432 0.022988571 0.89400005 4.3350247e-39
-0.046828572 0.022988571 0.89400005 3.9673114e-39
-0.045125719 0.022988571 0.89400005 4.2438983e-39
-0.043422859 0.022988571 0.89400005 4.1549621e-39
-0.041813336 0.02304 0.89600003 7.1974178e-39
-0.040106665 0.02304 0.89600003 7.1040984e-39
-0.038399998 0.02304 0.89600003 6.8275115e-39
-0.036775239 0.02309143 0.89800006 5.3570757e-39
-0.035181906 0.023168571 0.90100002 4.1585326e-39
-0.033465713 0.023168571 0.90100002 4.1592556e-39
-0.031820003 0.023220003 0.90300006 5.0812119e-39
-0.030200001 0.023297142 0.90600002 7.284566e-39
-0.028474286 0.023297142 0.90600002 8.1143267e-39
-0.026866667 0.023400001 0.91000003 8.0231876e-39
-0.025133334 0.023400001 0.91000003 8.7607526e-39
-0.023477143 0.023477143 0.91300005 8.7614561e-39
-0.021738095 0.023477143 0.91300005 8.4848692e-39
-0.020042857 0.02352857 0.91500002 8.3923205e-39
-0.018300001 0.02352857 0.91500002 8.2079292e-39
-0.016611429 0.023605715 0.91800004 8.8504301e-39
-0.015316191 0.024325715 0.94600004 9.7723864e-39
-0.013514286 0.024325715 0.94600004 9.6805439e-39
-0.011712381 0.024325715 0.94600004 9.3117614e-39
-0.009879048 0.024248572 0.94300002 9.5912322e-39
-0.0080828574 0.024248572 0.94300002 1.0236602e-38
-0.006266667 0.024171429 0.94000006 1.0329498e-38
-0.0044666668 0.024119999 0.93800002 1.0052911e-38
-0.0026800002 0.024119999 0.93800002 1.0419538e-38
-0.00089333334 0.024119999 0.93800002 1.0511734e-38
0.00089333334 0.024119999 0.93800002 1.0786873e-38
0.0026800002 0.024119999 0.93800002 1.0879069e-38
-0.098794289 0.025354287 0.91800004 1.1430791e-38
-0.096728571 0.025271429 0.91500002 9.773443e-39
-0.094985716 0.025271429 0.91500002 7.7451392e-39
-0.093039051 0.025216192 0.91300005 7.4710704e-39
-0.091300003 0.025216192 0.91300005 7.8398529e-39
-0.089560956 0.025216192 0.91300005 8.3912344e-39
-0.087533332 0.025133334 0.91000003 8.6678213e-39
-0.085611433 0.025078095 0.90800005 8.7596638e-39
-0.083697148 0.025022857 0.90600002 9.0362507e-39
-0.081700005 0.024940003 0.90300006 9.3124873e-39
-0.079980001 0.024940003 0.90300006 8.7593135e-39
-0.078086674 0.024884764 0.90100002 6.9175589e-39
-0.076370478 0.024884764 0.90100002 4.6126682e-39
-0.074405722 0.024801906 0.89800006 3.7836236e-39
-0.072533339 0.024746668 0.89600003 1.87994e-40
-0.070826672 0.024746668 0.89600003 1.4349296e-42
-0.069120005 0.024746668 0.89600003 4.7034093e-39
-0.067413338 0.024746668 0.89600003 6.2685966e-39
-0.06570667 0.024746668 0.89600003 8.0203135e-39
-0.064000003 0.024746668 0.89600003 8.3908841e-39
-0.062293336 0.024746668 0.89600003 6.915754e-39
-0.060451429 0.024691431 0.89400005 5.724045e-39
-0.058748577 0.024691431 0.89400005 9.5040658e-39
-0.057045717 0.024691431 0.89400005 1.0514267e-38
-0.055342861 0.024691431 0.89400005 9.6845068e-39
-0.053640001 0.024691431 0.89400005 7.7509167e-39
-0.051937148 0.024691431 0.89400005 6.0913954e-39
-0.050234288 0.024691431 0.89400005 5.5335707e-39
-0.048531432 0.024691431 0.89400005 4.9803969e-39
-0.046828572 0.024691431 0.89400005 5.4384632e-39
-0.045125719 0.024691431 0.89400005 5.8072457e-39
-0.043520004 0.024746668 0.89600003 6.7324488e-39
-0.041813336 0.024746668 0.89600003 7.930992e-39
-0.040106665 0.024746668 0.89600003 7.5650765e-39
-0.038485717 0.024801906 0.89800006 7.4728809e-39
-0.036775239 0.024801906 0.89800006 3.3349026e-39
-0.035181906 0.024884764 0.90100002 2.1363594e-39
-0.033540003 0.024940003 0.90300006 2.4147385e-39
-0.031925712 0.025022857 0.90600002 3.7054774e-39
-0.030200001 0.025022857 0.90600002 6.4580101e-39
-0.028537145 0.025078095 0.90800005 8.0253358e-39
-0.026955239 0.025216192 0.91300005 8.9444082e-39
-0.025216192 0.025216192 0.91300005 9.0366039e-39
-0.02352857 0.025271429 0.91500002 8.7614561e-39
-0.021785714 0.025271429 0.91500002 8.4848692e-39
-0.020042857 0.025271429 0.91500002 8.760017e-39
-0.018300001 0.025271429 0.91500002 8.760017e-39
-0.016557142 0.025271429 0.91500002 8.3919701e-39
-0.015316191 0.02612762 0.94600004 8.9451439e-39
-0.013514286 0.02612762 0.94600004 8.669629e-39
-0.011712381 0.02612762 0.94600004 9.1306072e-39
-0.009879048 0.026044762 0.94300002 1.0327728e-38
-0.0080828574 0.026044762 0.94300002 1.0327728e-38
-0.006266667 0.025961906 0.94000006 1.0789037e-38
-0.0044666668 0.025906667 0.93800002 1.0420254e-38
-0.0026800002 0.025906667 0.93800002 1.069468e-38
-0.00089333334 0.025906667 0.93800002 1.0879072e-38
0.00089333334 0.025906667 0.93800002 1.0879772e-38
-0.098794289 0.02710286 0.91800004 1.1523343e-38
-0.096728571 0.027014285 0.91500002 1.0695387e-38
-0.094985716 0.027014285 0.91500002 8.1139091e-39
-0.093242854 0.027014285 0.91500002 7.4707173e-39
-0.091300003 0.026955239 0.91300005 7.9316954e-39
-0.089560956 0.026955239 0.91300005 8.3912344e-39
-0.087533332 0.026866667 0.91000003 8.5756257e-39
-0.085611433 0.026807619 0.90800005 8.5752726e-39
-0.083697148 0.026748572 0.90600002 8.8518595e-39
-0.081700005 0.026660001 0.90300006 8.8533112e-39
-0.079980001 0.026660001 0.90300006 8.7611156e-39
-0.078260005 0.026660001 0.90300006 6.7346222e-39
-0.076370478 0.026600951 0.90100002 6.1814484e-39
-0.074654289 0.026600951 0.90100002 4.7970945e-39
-0.07269524 0.026512383 0.89800006 3.2297688e-39
-0.070826672 0.026453335 0.89600003 4.1498978e-39
-0.069120005 0.026453335 0.89600003 4.9796584e-39
-0.067413338 0.026453335 0.89600003 5.6235803e-39
-0.06570667 0.026453335 0.89600003 6.5455366e-39
-0.064000003 0.026453335 0.89600003 6.3643851e-39
-0.062293336 0.026453335 0.89600003 4.7048638e-39
-0.060586669 0.026453335 0.89600003 5.447821e-39
-0.058880001 0.026453335 0.89600003 9.5044287e-39
-0.057173334 0.026453335 0.89600003 1.0422425e-38
-0.055466667 0.026453335 0.89600003 1.0238034e-38
-0.053640001 0.026394285 0.89400005 8.3941309e-39
-0.051937148 0.026394285 0.89400005 5.9970446e-39
-0.050234288 0.026394285 0.89400005 7.0090483e-39
-0.048531432 0.026394285 0.89400005 7.3778308e-39
-0.046828572 0.026394285 0.89400005 7.6529407e-39
-0.045226667 0.026453335 0.89600003 7.1919626e-39
-0.043520004 0.026453335 0.89600003 6.3665585e-39
-0.041813336 0.026453335 0.89600003 7.6572974e-39
-0.040196192 0.026512383 0.89800006 7.5650765e-39
-0.038485717 0.026512383 0.89800006 7.5650765e-39
-0.036898095 0.026600951 0.90100002 5.3553003e-39
-0.035181906 0.026600951 0.90100002 4.0645615e-39
-0.033540003 0.026660001 0.90300006 4.6202464e-39
-0.031925712 0.026748572 0.90600002 6.8329415e-39
-0.030266669 0.026807619 0.90800005 8.9469011e-39
-0.028537145 0.026807619 0.90800005 9.3156837e-39
-0.026955239 0.026955239 0.91300005 9.2227874e-39
-0.025216192 0.026955239 0.91300005 8.7618092e-39
-0.02352857 0.027014285 0.91500002 8.7614561e-39
-0.021785714 0.027014285 0.91500002 8.4848692e-39
-0.020042857 0.027014285 0.91500002 8.3008311e-39
-0.018300001 0.027014285 0.91500002 9.314983e-39
-0.017118096 0.027929526 0.94600004 1.0142598e-38
-0.015316191 0.027929526 0.94600004 1.1064555e-38
-0.013514286 0.027929526 0.94600004 1.1342208e-38
-0.011675238 0.027840951 0.94300002 1.1526599e-38
-0.009879048 0.027840951 0.94300002 1.1341877e-38
-0.0080828574 0.027840951 0.94300002 1.0143334e-38
-0.0062866667 0.027840951 0.94300002 1.041881e-38
-0.0044761905 0.027752383 0.94000006 1.0695397e-38
-0.0026857145 0.027752383 0.94000006 1.0787582e-38
-0.00089523813 0.027752383 0.94000006 1.0879778e-38
-0.096728571 0.028757144 0.91500002 1.0786876e-38
-0.094985716 0.028757144 0.91500002 8.2053984e-39
-0.093242854 0.028757144 0.91500002 7.9291773e-39
-0.091300003 0.028694287 0.91300005 8.2979598e-39
-0.089560956 0.028694287 0.91300005 8.3912344e-39
-0.087821908 0.028694287 0.91300005 8.3912344e-39
-0.0858 0.0286 0.91000003 8.6674682e-39
-0.083881907 0.028537145 0.90800005 8.9440551e-39
-0.081971429 0.028474286 0.90600002 8.669629e-39
-0.079980001 0.028380001 0.90300006 8.5774334e-39
-0.078260005 0.028380001 0.90300006 7.1015942e-39
-0.076540001 0.028380001 0.90300006 6.6406161e-39
-0.074654289 0.028317144 0.90100002 7.3763791e-39
-0.072938092 0.028317144 0.90100002 6.1778359e-39
-0.070984766 0.028222859 0.89800006 5.8079463e-39
-0.069274291 0.028222859 0.89800006 6.5455114e-39
-0.067563809 0.028222859 0.89800006 6.7288489e-39
-0.065853335 0.028222859 0.89800006 6.5444576e-39
-0.06414286 0.028222859 0.89800006 7.3763791e-39
-0.062293336 0.02816 0.89600003 6.5466184e-39
-0.060586669 0.02816 0.89600003 5.3559813e-39
-0.058880001 0.02816 0.89600003 9.1360022e-39
-0.057173334 0.02816 0.89600003 1.0330952e-38
-0.055466667 0.02816 0.89600003 9.9621699e-39
-0.05376 0.02816 0.89600003 8.3945065e-39
-0.052053336 0.02816 0.89600003 6.6427895e-39
-0.050346669 0.02816 0.89600003 7.4689278e-39
-0.048640002 0.02816 0.89600003 7.7455147e-39
-0.046933334 0.02816 0.89600003 7.5629129e-39
-0.045226667 0.02816 0.89600003 7.4707173e-39
-0.043617148 0.028222859 0.89800006 6.917203e-39
-0.04190667 0.028222859 0.89800006 7.5625724e-39
-0.040196192 0.028222859 0.89800006 7.8398683e-39
-0.038614288 0.028317144 0.90100002 8.1164552e-39
-0.036898095 0.028317144 0.90100002 8.4838182e-39
-0.035260003 0.028380001 0.90300006 8.2072313e-39
-0.033651426 0.028474286 0.90600002 8.2983354e-39
-0.031925712 0.028474286 0.90600002 9.4046829e-39
-0.030266669 0.028537145 0.90800005 9.4071884e-39
-0.0286 0.0286 0.91000003 9.1306016e-39
-0.027014285 0.028757144 0.91500002 8.7618218e-39
-0.025271429 0.028757144 0.91500002 8.5774306e-39
-0.02352857 0.028757144 0.91500002 8.5774334e-39
-0.021785714 0.028757144 0.91500002 8.1164552e-39
-0.020108571 0.028851429 0.91800004 7.8402187e-39
-0.018360002 0.028851429 0.91800004 9.7763269e-39
-0.01706381 0.029637143 0.94300002 9.6848697e-39
-0.015267619 0.029637143 0.94300002 1.1067804e-38
-0.013471429 0.029637143 0.94300002 1.1067438e-38
-0.011675238 0.029637143 0.94300002 1.060646e-38
-0.009879048 0.029637143 0.94300002 1.0973801e-38
-0.0080828574 0.029637143 0.94300002 1.014404e-38
-0.0062866667 0.029637143 0.94300002 1.04188e-38
-0.0044904761 0.029637143 0.94300002 1.0787582e-38
-0.0026942857 0.029637143 0.94300002 1.0970889e-38
-0.096728571 0.0305 0.91500002 1.0971265e-38
-0.094778098 0.030433334 0.91300005 8.9429607e-39
-0.093039051 0.030433334 0.91300005 7.5625598e-39
-0.091300003 0.030433334 0.91300005 7.746951e-39
-0.089560956 0.030433334 0.91300005 7.9316982e-39
-0.087821908 0.030433334 0.91300005 8.2082851e-39
-0.0858 0.030333333 0.91000003 8.3923205e-39
-0.084066667 0.030333333 0.91000003 8.6689073e-39
-0.082152382 0.030266669 0.90800005 8.762175e-39
-0.080245718 0.030200001 0.90600002 8.8543706e-39
-0.078260005 0.030100001 0.90300006 7.4718243e-39
-0.076540001 0.030100001 0.90300006 6.2732811e-39
-0.074820004 0.030100001 0.90300006 6.9171932e-39
-0.072938092 0.030033333 0.90100002 7.0093888e-39
-0.07122191 0.030033333 0.90100002 6.3629432e-39
-0.069505714 0.030033333 0.90100002 7.3770951e-39
-0.067789525 0.030033333 0.90100002 7.4674957e-39
-0.066073328 0.030033333 0.90100002 6.9143219e-39
-0.06414286 0.029933335 0.89800006 7.1934269e-39
-0.062432382 0.029933335 0.89800006 8.4841658e-39
-0.060586669 0.029866667 0.89600003 6.8282247e-39
-0.058880001 0.029866667 0.89600003 9.2253111e-39
-0.057300955 0.029933335 0.89800006 1.0329873e-38
-0.055466667 0.029866667 0.89600003 1.0329873e-38
-0.05376 0.029866667 0.89600003 9.1320743e-39
-0.052053336 0.029866667 0.89600003 7.6569442e-39
-0.050346669 0.029866667 0.89600003 7.0122629e-39
-0.048640002 0.029866667 0.89600003 7.2888498e-39
