# .PCD v0.7 - Point Cloud Data file format
VERSION 0.7
FIELDS x y z rgb
SIZE 4 4 4 4
TYPE F F F F
COUNT 1 1 1 1
WIDTH 945
HEIGHT 1
VIEWPOINT 0 0 0 1 0 0 0
POINTS 945
DATA ascii
-0.017118096 -0.0081085712 0.94600004 9.6855858e-39
-0.015316191 -0.0081085712 0.94600004 9.5933902e-39
-0.013514286 -0.0081085712 0.94600004 9.4093619e-39
-0.011737144 -0.008125715 0.94800007 9.2249706e-39
-0.0099628577 -0.0081514288 0.95100003 9.2238888e-39
-0.0081771435 -0.0081771435 0.95400006 9.2238888e-39
-0.0063600005 -0.0081771435 0.95400006 9.0402066e-39
-0.0045428574 -0.0081771435 0.95400006 9.0402066e-39
-0.0027314285 -0.0081942854 0.95600003 9.1306016e-39
-0.00091333338 -0.0082200002 0.95900005 6.6413195e-39
0.00091333338 -0.0082200002 0.95900005 6.1814232e-39
0.0027485716 -0.0082457149 0.96200007 6.9189882e-39
0.0045904764 -0.0082628578 0.96400005 7.8377075e-39
0.0064266669 -0.0082628578 0.96400005 1.1248946e-38
0.0082628578 -0.0082628578 0.96400005 1.143223e-38
-0.078280956 -0.006446667 0.96700007 9.9574657e-39
-0.076201908 -0.0064266669 0.96400005 8.2993919e-39
-0.074211434 -0.006413334 0.96200007 5.9945012e-39
-0.072379053 -0.006413334 0.96200007 5.7168297e-39
-0.070546672 -0.006413334 0.96200007 6.638786e-39
-0.068500005 -0.0063933334 0.95900005 8.0220988e-39
-0.066464759 -0.0063733337 0.95600003 9.3128376e-39
-0.064508572 -0.0063600005 0.95400006 8.9465662e-39
-0.062494289 -0.0063399998 0.95100003 9.0387619e-39
-0.060491435 -0.0063200006 0.94800007 8.8554594e-39
-0.058561906 -0.0063066669 0.94600004 9.1320463e-39
-0.056760002 -0.0063066669 0.94600004 9.1320463e-39
-0.05478381 -0.0062866667 0.94300002 9.5930244e-39
-0.05298762 -0.0062866667 0.94300002 9.4097122e-39
-0.051191427 -0.0062866667 0.94300002 9.5941034e-39
-0.049395241 -0.0062866667 0.94300002 9.6855858e-39
-0.047599047 -0.0062866667 0.94300002 9.7777814e-39
-0.045802858 -0.0062866667 0.94300002 9.5948293e-39
-0.043866668 -0.006266667 0.94000006 9.6870249e-39
-0.042076193 -0.006266667 0.94000006 9.5955482e-39
-0.040285718 -0.006266667 0.94000006 9.6877438e-39
-0.038495239 -0.006266667 0.94000006 9.9625356e-39
-0.036704764 -0.006266667 0.94000006 1.0054731e-38
-0.034914289 -0.006266667 0.94000006 1.0054731e-38
-0.03312381 -0.006266667 0.94000006 1.0146927e-38
-0.031333335 -0.006266667 0.94000006 1.0054731e-38
-0.02954286 -0.006266667 0.94000006 1.0054731e-38
-0.027752383 -0.006266667 0.94000006 9.9625356e-39
-0.026044762 -0.0062866667 0.94300002 9.9625356e-39
-0.024248572 -0.0062866667 0.94300002 9.6877438e-39
-0.022523811 -0.0063066669 0.94600004 9.6877438e-39
-0.020721905 -0.0063066669 0.94600004 9.5948293e-39
-0.018920001 -0.0063066669 0.94600004 9.5948293e-39
-0.017118096 -0.0063066669 0.94600004 9.7781346e-39
-0.015348572 -0.0063200006 0.94800007 9.6859389e-39
-0.013542858 -0.0063200006 0.94800007 9.2260468e-39
-0.011737144 -0.0063200006 0.94800007 9.2260468e-39
-0.0099628577 -0.0063399998 0.95100003 9.0409353e-39
-0.0081771435 -0.0063600005 0.95400006 9.0409353e-39
-0.0063733337 -0.0063733337 0.95600003 9.0398507e-39
-0.0045523811 -0.0063733337 0.95600003 9.1320463e-39
-0.0027400001 -0.0063933334 0.95900005 9.0384059e-39
-0.00091333338 -0.0063933334 0.95900005 7.1944933e-39
0.00091619056 -0.006413334 0.96200007 7.4685523e-39
0.0027542859 -0.0064266669 0.96400005 7.7451392e-39
0.0045904764 -0.0064266669 0.96400005 9.3128124e-39
0.006446667 -0.006446667 0.96700007 1.1341116e-38
-0.078280956 -0.0046047624 0.96700007 1.0510279e-38
-0.076201908 -0.0045904764 0.96400005 8.8522126e-39
-0.07436572 -0.0045904764 0.96400005 7.0083e-39
-0.072529532 -0.0045904764 0.96400005 7.1011991e-39
-0.070546672 -0.0045809527 0.96200007 7.4699816e-39
-0.068500005 -0.0045666667 0.95900005 7.9316982e-39
-0.066464759 -0.0045523811 0.95600003 8.9458502e-39
-0.064508572 -0.0045428574 0.95400006 8.8543706e-39
-0.062691435 -0.0045428574 0.95400006 9.0387619e-39
-0.060682859 -0.0045285714 0.95100003 8.8554594e-39
-0.05868572 -0.0045142858 0.94800007 8.947655e-39
-0.056760002 -0.0045047617 0.94600004 9.2242419e-39
-0.054958098 -0.0045047617 0.94600004 9.7774157e-39
-0.05298762 -0.0044904761 0.94300002 9.685576e-39
-0.051191427 -0.0044904761 0.94300002 9.685576e-39
-0.049395241 -0.0044904761 0.94300002 9.6859389e-39
-0.047599047 -0.0044904761 0.94300002 9.6859389e-39
-0.045802858 -0.0044904761 0.94300002 9.5026337e-39
-0.044006668 -0.0044904761 0.94300002 9.5948293e-39
-0.042210475 -0.0044904761 0.94300002 9.5948293e-39
-0.040414285 -0.0044904761 0.94300002 9.7792206e-39
-0.038495239 -0.0044761905 0.94000006 1.0055084e-38
-0.036704764 -0.0044761905 0.94000006 1.0055084e-38
-0.034914289 -0.0044761905 0.94000006 1.023876e-38
-0.03312381 -0.0044761905 0.94000006 1.023876e-38
-0.031333335 -0.0044761905 0.94000006 1.0146577e-38
-0.02954286 -0.0044761905 0.94000006 1.0054381e-38
-0.027752383 -0.0044761905 0.94000006 9.9625356e-39
-0.026044762 -0.0044904761 0.94300002 9.9625356e-39
-0.024325715 -0.0045047617 0.94600004 9.962886e-39
-0.022523811 -0.0045047617 0.94600004 9.8706903e-39
-0.020721905 -0.0045047617 0.94600004 9.8703302e-39
-0.018960001 -0.0045142858 0.94800007 9.8703302e-39
-0.017154286 -0.0045142858 0.94800007 9.8703302e-39
-0.015348572 -0.0045142858 0.94800007 9.5937433e-39
-0.013542858 -0.0045142858 0.94800007 9.3171662e-39
-0.011774287 -0.0045285714 0.95100003 9.3171662e-39
-0.0099942861 -0.0045428574 0.95400006 9.2238888e-39
-0.0081771435 -0.0045428574 0.95400006 9.1316932e-39
-0.0063733337 -0.0045523811 0.95600003 9.0402066e-39
-0.0045523811 -0.0045523811 0.95600003 8.8558153e-39
-0.0027400001 -0.0045666667 0.95900005 8.7636141e-39
-0.00091333338 -0.0045666667 0.95900005 8.3948316e-39
0.00091619056 -0.0045809527 0.96200007 8.2089956e-39
0.0027542859 -0.0045904764 0.96400005 7.9324087e-39
0.0045904764 -0.0045904764 0.96400005 9.2213454e-39
0.006446667 -0.0046047624 0.96700007 1.1065258e-38
-0.078523815 -0.0027714286 0.97000003 1.1340034e-38
-0.076439053 -0.0027628574 0.96700007 9.8656386e-39
-0.074597143 -0.0027628574 0.96700007 7.5607479e-39
-0.072529532 -0.0027542859 0.96400005 7.28524e-39
-0.070546672 -0.0027485716 0.96200007 7.7462182e-39
-0.068714291 -0.0027485716 0.96200007 8.2064901e-39
-0.066673338 -0.0027400001 0.95900005 9.1284464e-39
-0.064643808 -0.0027314285 0.95600003 8.4870272e-39
-0.062691435 -0.0027257146 0.95400006 8.7636141e-39
-0.060682859 -0.0027171429 0.95100003 8.8554594e-39
-0.05868572 -0.0027085717 0.94800007 9.2242419e-39
-0.056760002 -0.0027028571 0.94600004 9.2242419e-39
-0.054958098 -0.0027028571 0.94600004 9.5930244e-39
-0.053156193 -0.0027028571 0.94600004 9.5930244e-39
-0.051354285 -0.0027028571 0.94600004 9.6852201e-39
-0.049395241 -0.0026942857 0.94300002 9.5926713e-39
-0.047599047 -0.0026942857 0.94300002 9.7770626e-39
-0.045802858 -0.0026942857 0.94300002 9.7777786e-39
-0.044006668 -0.0026942857 0.94300002 9.8699743e-39
-0.042210475 -0.0026942857 0.94300002 9.6870249e-39
-0.040414285 -0.0026942857 0.94300002 9.7792206e-39
-0.038618095 -0.0026942857 0.94300002 9.9621825e-39
-0.036704764 -0.0026857145 0.94000006 1.0146574e-38
-0.034914289 -0.0026857145 0.94000006 1.0054731e-38
-0.03312381 -0.0026857145 0.94000006 1.0146927e-38
-0.031333335 -0.0026857145 0.94000006 1.0054381e-38
-0.02954286 -0.0026857145 0.94000006 1.0054381e-38
-0.027752383 -0.0026857145 0.94000006 9.6873879e-39
-0.02612762 -0.0027028571 0.94600004 9.6873879e-39
-0.024325715 -0.0027028571 0.94600004 9.7795765e-39
-0.022523811 -0.0027028571 0.94600004 9.6873809e-39
-0.020721905 -0.0027028571 0.94600004 9.8699743e-39
-0.018960001 -0.0027085717 0.94800007 9.8699743e-39
-0.017154286 -0.0027085717 0.94800007 9.7777786e-39
-0.015348572 -0.0027085717 0.94800007 9.685583e-39
-0.013585715 -0.0027171429 0.95100003 9.4097178e-39
-0.011774287 -0.0027171429 0.95100003 9.2253265e-39
-0.0099942861 -0.0027257146 0.95400006 9.1331253e-39
-0.0081942854 -0.0027314285 0.95600003 9.1331253e-39
-0.0063733337 -0.0027314285 0.95600003 8.8568943e-39
-0.0045523811 -0.0027314285 0.95600003 8.5803074e-39
-0.0027400001 -0.0027400001 0.95900005 8.8543706e-39
-0.00091333338 -0.0027400001 0.95900005 8.5777837e-39
0.00091619056 -0.0027485716 0.96200007 8.4862887e-39
0.0027542859 -0.0027542859 0.96400005 8.3018975e-39
0.0046047624 -0.0027628574 0.96700007 9.4057395e-39
0.006446667 -0.0027628574 0.96700007 1.1065261e-38
-0.076439053 -0.00092095241 0.96700007 9.8656386e-39
-0.074597143 -0.00092095241 0.96700007 7.7451392e-39
-0.072529532 -0.00091809529 0.96400005 7.5607703e-39
-0.070693336 -0.00091809529 0.96400005 8.2983354e-39
-0.068714291 -0.00091619056 0.96200007 8.0235407e-39
-0.066673338 -0.00091333338 0.95900005 8.8533014e-39
-0.064643808 -0.0009104762 0.95600003 8.8543706e-39
-0.062822863 -0.0009104762 0.95600003 8.8543706e-39
-0.060874287 -0.00090857147 0.95400006 9.0380584e-39
-0.058871429 -0.00090571429 0.95100003 9.4068409e-39
-0.05706 -0.00090571429 0.95100003 9.0394975e-39
-0.054958098 -0.00090095244 0.94600004 9.3160844e-39
-0.053156193 -0.00090095244 0.94600004 9.5933804e-39
-0.051354285 -0.00090095244 0.94600004 9.5933804e-39
-0.049552381 -0.00090095244 0.94600004 9.5926713e-39
-0.047750477 -0.00090095244 0.94600004 9.6848669e-39
-0.045802858 -0.00089809526 0.94300002 9.5015575e-39
-0.044006668 -0.00089809526 0.94300002 9.7781444e-39
-0.042210475 -0.00089809526 0.94300002 9.9614566e-39
-0.040414285 -0.00089809526 0.94300002 1.0053652e-38
-0.038618095 -0.00089809526 0.94300002 1.0053662e-38
-0.036821906 -0.00089809526 0.94300002 1.0238053e-38
-0.035025716 -0.00089809526 0.94300002 1.023876e-38
-0.033229522 -0.00089809526 0.94300002 1.023876e-38
-0.031433333 -0.00089809526 0.94300002 1.0054731e-38
-0.029637143 -0.00089809526 0.94300002 1.0054731e-38
-0.027840951 -0.00089809526 0.94300002 9.9621825e-39
-0.02612762 -0.00090095244 0.94600004 9.9621825e-39
-0.024325715 -0.00090095244 0.94600004 9.7795765e-39
-0.022523811 -0.00090095244 0.94600004 9.5951852e-39
-0.020721905 -0.00090095244 0.94600004 9.8699743e-39
-0.018960001 -0.00090285722 0.94800007 9.685583e-39
-0.017154286 -0.00090285722 0.94800007 9.6855858e-39
-0.015397143 -0.00090571429 0.95100003 9.6855858e-39
-0.013585715 -0.00090571429 0.95100003 9.5930244e-39
-0.011811429 -0.00090857147 0.95400006 9.4086332e-39
-0.010015239 -0.0009104762 0.95600003 9.3167935e-39
-0.0081942854 -0.0009104762 0.95600003 9.1324022e-39
-0.0063733337 -0.0009104762 0.95600003 9.040201e-39
-0.0045666667 -0.00091333338 0.95900005 8.7636141e-39
-0.0027400001 -0.00091333338 0.95900005 8.8543706e-39
-0.00091619056 -0.00091619056 0.96200007 8.4855881e-39
0.00091809529 -0.00091809529 0.96400005 8.3937274e-39
0.0027542859 -0.00091809529 0.96400005 8.6703142e-39
0.0046047624 -0.00092095241 0.96700007 9.5901308e-39
-0.076439053 0.00092095241 0.96700007 9.77345e-39
-0.074597143 0.00092095241 0.96700007 7.8373418e-39
-0.07275524 0.00092095241 0.96700007 7.8384138e-39
-0.070693336 0.00091809529 0.96400005 8.2071963e-39
-0.068714291 0.00091619056 0.96200007 8.0238939e-39
-0.066673338 0.00091333338 0.95900005 8.7614589e-39
-0.064846672 0.00091333338 0.95900005 8.7618218e-39
-0.062822863 0.0009104762 0.95600003 9.0384087e-39
-0.060874287 0.00090857147 0.95400006 8.8554594e-39
-0.058871429 0.00090571429 0.95100003 9.0398507e-39
-0.05706 0.00090571429 0.95100003 9.0394975e-39
-0.054958098 0.00090095244 0.94600004 9.5004757e-39
-0.053156193 0.00090095244 0.94600004 9.5008288e-39
-0.051354285 0.00090095244 0.94600004 9.5930244e-39
-0.049552381 0.00090095244 0.94600004 9.4097178e-39
-0.047750477 0.00090095244 0.94600004 9.4097178e-39
-0.045948572 0.00090095244 0.94600004 9.7770626e-39
-0.044006668 0.00089809526 0.94300002 1.0145845e-38
-0.042210475 0.00089809526 0.94300002 1.0054005e-38
-0.040414285 0.00089809526 0.94300002 1.0146201e-38
-0.038618095 0.00089809526 0.94300002 1.0146564e-38
-0.036821906 0.00089809526 0.94300002 1.0330955e-38
-0.035025716 0.00089809526 0.94300002 1.023876e-38
-0.033229522 0.00089809526 0.94300002 1.023876e-38
-0.031433333 0.00089809526 0.94300002 1.0054731e-38
-0.029637143 0.00089809526 0.94300002 1.0054731e-38
-0.027840951 0.00089809526 0.94300002 9.7788731e-39
-0.02612762 0.00090095244 0.94600004 9.7788731e-39
-0.024325715 0.00090095244 0.94600004 9.5948321e-39
-0.022523811 0.00090095244 0.94600004 9.5026365e-39
-0.020721905 0.00090095244 0.94600004 9.7777842e-39
-0.018960001 0.00090285722 0.94800007 9.6855886e-39
-0.017154286 0.00090285722 0.94800007 9.5926741e-39
-0.015397143 0.00090571429 0.95100003 9.5004785e-39
-0.013585715 0.00090571429 0.95100003 9.5008288e-39
-0.011811429 0.00090857147 0.95400006 9.3164376e-39
-0.010015239 0.0009104762 0.95600003 9.1334812e-39
-0.0081942854 0.0009104762 0.95600003 9.0412856e-39
-0.0063733337 0.0009104762 0.95600003 8.8558153e-39
-0.0045666667 0.00091333338 0.95900005 8.5792284e-39
-0.0027400001 0.00091333338 0.95900005 8.9458474e-39
-0.00091619056 0.00091619056 0.96200007 8.3926736e-39
0.00091809529 0.00091809529 0.96400005 8.2071935e-39
0.0027628574 0.00092095241 0.96700007 9.3135411e-39
0.004619048 0.00092380954 0.97000003 9.6812446e-39
-0.07667619 0.0027714286 0.97000003 1.1064529e-38
-0.074597143 0.0027628574 0.96700007 7.9298779e-39
-0.07275524 0.0027628574 0.96700007 7.1944807e-39
-0.070693336 0.0027542859 0.96400005 7.7476545e-39
-0.068857148 0.0027542859 0.96400005 7.7476727e-39
-0.06688191 0.0027485716 0.96200007 8.4852377e-39
-0.064846672 0.0027400001 0.95900005 8.5774278e-39
-0.062822863 0.0027314285 0.95600003 8.9462103e-39
-0.060874287 0.0027257146 0.95400006 9.0384115e-39
-0.059057143 0.0027257146 0.95400006 9.1306072e-39
-0.05706 0.0027171429 0.95100003 9.3149984e-39
-0.055074289 0.0027085717 0.94800007 9.5915853e-39
-0.053156193 0.0027028571 0.94600004 9.4086332e-39
-0.051354285 0.0027028571 0.94600004 9.5008288e-39
-0.049552381 0.0027028571 0.94600004 9.5004757e-39
-0.047750477 0.0027028571 0.94600004 9.6848669e-39
-0.045948572 0.0027028571 0.94600004 9.7770626e-39
-0.044146664 0.0027028571 0.94600004 9.9614538e-39
-0.042344764 0.0027028571 0.94600004 1.0054005e-38
-0.04054286 0.0027028571 0.94600004 1.0146201e-38
-0.038618095 0.0026942857 0.94300002 1.0237678e-38
-0.036821906 0.0026942857 0.94300002 1.0329873e-38
-0.035025716 0.0026942857 0.94300002 1.0146564e-38
-0.033229522 0.0026942857 0.94300002 1.0146564e-38
-0.031433333 0.0026942857 0.94300002 1.0054378e-38
-0.029637143 0.0026942857 0.94300002 1.0054378e-38
-0.027840951 0.0026942857 0.94300002 1.0146577e-38
-0.02612762 0.0027028571 0.94600004 9.8699897e-39
-0.024325715 0.0027028571 0.94600004 9.5948321e-39
-0.022571431 0.0027085717 0.94800007 9.4104409e-39
-0.020765714 0.0027085717 0.94800007 9.5937531e-39
-0.018960001 0.0027085717 0.94800007 9.5937531e-39
-0.017154286 0.0027085717 0.94800007 9.5926713e-39
-0.015397143 0.0027171429 0.95100003 9.3160844e-39
-0.013585715 0.0027171429 0.95100003 9.3164376e-39
-0.011811429 0.0027257146 0.95400006 9.2242419e-39
-0.010015239 0.0027314285 0.95600003 9.3167879e-39
-0.0081942854 0.0027314285 0.95600003 9.040201e-39
-0.0063933334 0.0027400001 0.95900005 9.1306016e-39
-0.0045666667 0.0027400001 0.95900005 8.8540147e-39
-0.0027485716 0.0027485716 0.96200007 8.7614589e-39
-0.00091809529 0.0027542859 0.96400005 8.3926764e-39
0.00091809529 0.0027542859 0.96400005 8.4830797e-39
0.0027714286 0.0027714286 0.97000003 9.6816229e-39
0.004619048 0.0027714286 0.97000003 1.0142223e-38
-0.074828573 0.004619048 0.97000003 8.1135658e-39
-0.07275524 0.0046047624 0.96700007 7.4696313e-39
-0.070913337 0.0046047624 0.96700007 7.8384138e-39
-0.068857148 0.0045904764 0.96400005 7.8395026e-39
-0.06688191 0.0045809527 0.96200007 8.484872e-39
-0.064846672 0.0045666667 0.95900005 8.3930365e-39
-0.062822863 0.0045523811 0.95600003 8.9462103e-39
-0.060874287 0.0045428574 0.95400006 8.7636197e-39
-0.059057143 0.0045428574 0.95400006 9.0402066e-39
-0.057240006 0.0045428574 0.95400006 9.0398507e-39
-0.055074289 0.0045142858 0.94800007 9.3164376e-39
-0.053268574 0.0045142858 0.94800007 9.3164376e-39
-0.051462859 0.0045142858 0.94800007 9.5008288e-39
-0.049552381 0.0045047617 0.94600004 9.5930244e-39
-0.047750477 0.0045047617 0.94600004 9.7774157e-39
-0.045948572 0.0045047617 0.94600004 9.6855858e-39
-0.044146664 0.0045047617 0.94600004 9.7777814e-39
-0.042344764 0.0045047617 0.94600004 9.8699743e-39
-0.04054286 0.0045047617 0.94600004 1.0054366e-38
-0.038740952 0.0045047617 0.94600004 1.0054366e-38
-0.036939051 0.0045047617 0.94600004 1.0146561e-38
-0.035137143 0.0045047617 0.94600004 1.0146564e-38
-0.033335239 0.0045047617 0.94600004 1.0146564e-38
-0.031533334 0.0045047617 0.94600004 1.0054378e-38
-0.029637143 0.0044904761 0.94300002 1.0054378e-38
-0.027840951 0.0044904761 0.94300002 9.9621825e-39
-0.02612762 0.0045047617 0.94600004 9.8699869e-39
-0.024377145 0.0045142858 0.94800007 9.5948321e-39
-0.022571431 0.0045142858 0.94800007 9.4104409e-39
-0.020765714 0.0045142858 0.94800007 9.6855858e-39
-0.018960001 0.0045142858 0.94800007 9.7777814e-39
-0.017154286 0.0045142858 0.94800007 9.6848669e-39
-0.015445715 0.0045428574 0.95400006 9.5926713e-39
-0.013628571 0.0045428574 0.95400006 9.4086332e-39
-0.011836191 0.0045523811 0.95600003 9.3164376e-39
-0.010015239 0.0045523811 0.95600003 9.1324022e-39
-0.0082200002 0.0045666667 0.95900005 9.0402066e-39
-0.0063933334 0.0045666667 0.95900005 8.8558153e-39
-0.0045666667 0.0045666667 0.95900005 8.7636197e-39
-0.0027485716 0.0045809527 0.96200007 8.9458474e-39
-0.00091809529 0.0045904764 0.96400005 8.3004779e-39
0.00091809529 0.0045904764 0.96400005 8.5741936e-39
0.0027714286 0.004619048 0.97000003 1.0510302e-38
0.0046333335 0.0046333335 0.97300005 1.060463e-38
-0.075060003 0.0064866669 0.97300005 9.405364e-39
-0.072980955 0.0064666667 0.97000003 7.5636318e-39
-0.070913337 0.006446667 0.96700007 7.6558274e-39
-0.069071427 0.006446667 0.96700007 7.9313451e-39
-0.067020953 0.0064266669 0.96400005 8.3001276e-39
-0.065049522 0.006413334 0.96200007 8.3930365e-39
-0.063020006 0.0063933334 0.95900005 8.9462103e-39
-0.061001904 0.0063733337 0.95600003 8.9462131e-39
-0.059057143 0.0063600005 0.95400006 9.2228e-39
-0.057240006 0.0063600005 0.95400006 9.0398507e-39
-0.055248573 0.0063399998 0.95100003 9.1320463e-39
-0.053268574 0.0063200006 0.94800007 9.2242419e-39
-0.051462859 0.0063200006 0.94800007 9.4086332e-39
-0.049657144 0.0063200006 0.94800007 9.5004757e-39
-0.047851432 0.0063200006 0.94800007 9.6848669e-39
-0.046045717 0.0063200006 0.94800007 9.6859389e-39
-0.044146664 0.0063066669 0.94600004 9.7781346e-39
-0.042344764 0.0063066669 0.94600004 9.8699743e-39
-0.04054286 0.0063066669 0.94600004 9.9621699e-39
-0.038740952 0.0063066669 0.94600004 1.0054366e-38
-0.036939051 0.0063066669 0.94600004 1.0054366e-38
-0.035137143 0.0063066669 0.94600004 9.9625356e-39
-0.033335239 0.0063066669 0.94600004 9.9625356e-39
-0.031533334 0.0063066669 0.94600004 9.9621825e-39
-0.029731428 0.0063066669 0.94600004 9.9621825e-39
-0.027929526 0.0063066669 0.94600004 9.8699869e-39
-0.02618286 0.0063200006 0.94800007 9.7777912e-39
-0.024377145 0.0063200006 0.94800007 9.8699799e-39
-0.022571431 0.0063200006 0.94800007 9.6855886e-39
-0.020765714 0.0063200006 0.94800007 9.6855858e-39
-0.01902 0.0063399998 0.95100003 9.6855858e-39
-0.017208571 0.0063399998 0.95100003 9.5926713e-39
-0.015445715 0.0063600005 0.95400006 9.5004757e-39
-0.013657142 0.0063733337 0.95600003 9.4086332e-39
-0.011836191 0.0063733337 0.95600003 9.3164376e-39
-0.010015239 0.0063733337 0.95600003 9.2245979e-39
-0.0082200002 0.0063933334 0.95900005 8.948011e-39
-0.0063933334 0.0063933334 0.95900005 8.7632638e-39
-0.0045809527 0.006413334 0.96200007 8.6710681e-39
-0.0027485716 0.006413334 0.96200007 8.5774278e-39
-0.00092095241 0.006446667 0.96700007 8.024254e-39
0.00092095241 0.006446667 0.96700007 8.3912344e-39
0.0027714286 0.0064666667 0.97000003 1.0511734e-38
0.0046428572 0.0065000001 0.97500002 1.1248182e-38
-0.075060003 0.0083400002 0.97300005 9.5897552e-39
-0.072980955 0.0083142864 0.97000003 7.746951e-39
-0.070913337 0.0082885725 0.96700007 7.746951e-39
-0.069071427 0.0082885725 0.96700007 8.2990388e-39
-0.067020953 0.0082628578 0.96400005 8.5756257e-39
-0.065049522 0.0082457149 0.96200007 8.2086453e-39
-0.063020006 0.0082200002 0.95900005 8.8540147e-39
-0.061001904 0.0081942854 0.95600003 8.5792228e-39
-0.059180956 0.0081942854 0.95600003 9.040201e-39
-0.057240006 0.0081771435 0.95400006 9.1324022e-39
-0.055422861 0.0081771435 0.95400006 9.2245979e-39
-0.053437144 0.0081514288 0.95100003 9.3164376e-39
-0.051625714 0.0081514288 0.95100003 9.5008288e-39
-0.049814284 0.0081514288 0.95100003 9.5008288e-39
-0.048002861 0.0081514288 0.95100003 9.5930244e-39
-0.046045717 0.008125715 0.94800007 9.594109e-39
-0.044240002 0.008125715 0.94800007 9.594109e-39
-0.04243429 0.008125715 0.94800007 9.7777786e-39
-0.040628575 0.008125715 0.94800007 9.9621699e-39
-0.03882286 0.008125715 0.94800007 9.6870249e-39
-0.037017144 0.008125715 0.94800007 9.7792206e-39
-0.035137143 0.0081085712 0.94600004 9.9625356e-39
-0.033335239 0.0081085712 0.94600004 9.9625356e-39
-0.031533334 0.0081085712 0.94600004 9.7788731e-39
-0.029731428 0.0081085712 0.94600004 9.7788731e-39
-0.027929526 0.0081085712 0.94600004 9.6866746e-39
-0.02618286 0.008125715 0.94800007 9.594479e-39
-0.024377145 0.008125715 0.94800007 9.7777842e-39
-0.022571431 0.008125715 0.94800007 9.6855886e-39
-0.020831428 0.0081514288 0.95100003 9.594109e-39
-0.01908 0.0081771435 0.95400006 9.594109e-39
-0.017262857 0.0081771435 0.95400006 9.4097178e-39
-0.015478096 0.0081942854 0.95600003 9.3175222e-39
-0.013657142 0.0081942854 0.95600003 9.4086332e-39
-0.011836191 0.0081942854 0.95600003 9.3164376e-39
-0.010046667 0.0082200002 0.95900005 9.1320463e-39
-0.0082200002 0.0082200002 0.95900005 9.1320463e-39
-0.006413334 0.0082457149 0.96200007 8.7632638e-39
-0.0045809527 0.0082457149 0.96200007 8.5788725e-39
-0.0027542859 0.0082628578 0.96400005 8.3930393e-39
-0.00092095241 0.0082885725 0.96700007 7.9320612e-39
0.00092095241 0.0082885725 0.96700007 8.4837832e-39
0.0027714286 0.0083142864 0.97000003 1.0788674e-38
-0.075214282 0.010214286 0.97500002 1.0234756e-38
-0.073206671 0.010193334 0.97300005 8.5749251e-39
-0.071133338 0.010161905 0.97000003 7.7451644e-39
-0.069071427 0.010130477 0.96700007 7.6547582e-39
-0.067020953 0.010099048 0.96400005 8.3001276e-39
-0.065049522 0.010078096 0.96200007 8.3011968e-39
-0.063217148 0.010078096 0.96200007 8.762175e-39
-0.06119334 0.010046667 0.95900005 8.5792284e-39
-0.059180956 0.010015239 0.95600003 8.8558153e-39
-0.057360001 0.010015239 0.95600003 9.3149984e-39
-0.055422861 0.0099942861 0.95400006 9.407194e-39
-0.053605717 0.0099942861 0.95400006 9.3164376e-39
-0.051788572 0.0099942861 0.95400006 9.4086332e-39
-0.049814284 0.0099628577 0.95100003 9.4086332e-39
-0.048002861 0.0099628577 0.95100003 9.4086332e-39
-0.046191432 0.0099628577 0.95100003 9.5004757e-39
-0.044380002 0.0099628577 0.95100003 9.6848669e-39
-0.042568572 0.0099628577 0.95100003 9.6855886e-39
-0.040628575 0.0099314293 0.94800007 9.8699799e-39
-0.03882286 0.0099314293 0.94800007 9.8699799e-39
-0.037017144 0.0099314293 0.94800007 9.9621755e-39
-0.035211433 0.0099314293 0.94800007 1.0054371e-38
-0.033405717 0.0099314293 0.94800007 1.0054371e-38
-0.031600002 0.0099314293 0.94800007 1.0054384e-38
-0.029794287 0.0099314293 0.94800007 9.8699925e-39
-0.027988574 0.0099314293 0.94800007 9.594479e-39
-0.02618286 0.0099314293 0.94800007 9.594479e-39
-0.024454286 0.0099628577 0.95100003 9.7777842e-39
-0.022642858 0.0099628577 0.95100003 9.6855886e-39
-0.020897144 0.0099942861 0.95400006 9.6848669e-39
-0.01908 0.0099942861 0.95400006 9.5926713e-39
-0.017299049 0.010015239 0.95600003 9.4082801e-39
-0.015478096 0.010015239 0.95600003 9.5004757e-39
-0.013657142 0.010015239 0.95600003 9.4089891e-39
-0.011873334 0.010046667 0.95900005 9.2245979e-39
-0.010046667 0.010046667 0.95900005 9.0398507e-39
-0.0082457149 0.010078096 0.96200007 8.947655e-39
-0.006413334 0.010078096 0.96200007 9.1306044e-39
-0.0045904764 0.010099048 0.96400005 8.7618218e-39
-0.0027628574 0.010130477 0.96700007 8.3930393e-39
-0.00092095241 0.010130477 0.96700007 8.1164524e-39
0.00092095241 0.010130477 0.96700007 8.7603701e-39
0.0027714286 0.010161905 0.97000003 1.0973065e-38
-0.071133338 0.012009524 0.97000003 7.6533191e-39
-0.069071427 0.011972382 0.96700007 7.1944835e-39
-0.067020953 0.011935239 0.96400005 8.3008311e-39
-0.065184765 0.011935239 0.96400005 8.3011968e-39
-0.063217148 0.011910477 0.96200007 8.762175e-39
-0.06119334 0.011873334 0.95900005 8.5792284e-39
-0.05936667 0.011873334 0.95900005 8.8558153e-39
-0.057360001 0.011836191 0.95600003 8.948011e-39
-0.055422861 0.011811429 0.95400006 9.2245979e-39
-0.053605717 0.011811429 0.95400006 9.2242419e-39
-0.051788572 0.011811429 0.95400006 9.3164376e-39
-0.049971428 0.011811429 0.95400006 9.3164376e-39
-0.048154291 0.011811429 0.95400006 9.4086332e-39
-0.046337146 0.011811429 0.95400006 9.5004757e-39
-0.044380002 0.011774287 0.95100003 9.6848669e-39
-0.042568572 0.011774287 0.95100003 9.594109e-39
-0.040757146 0.011774287 0.95100003 9.6863047e-39
-0.038945716 0.011774287 0.95100003 9.8699743e-39
-0.037134286 0.011774287 0.95100003 9.9621699e-39
-0.035322856 0.011774287 0.95100003 9.6873809e-39
-0.033405717 0.011737144 0.94800007 9.8717721e-39
-0.031600002 0.011737144 0.94800007 1.0054378e-38
-0.029888572 0.011774287 0.95100003 9.9621825e-39
-0.028077144 0.011774287 0.95100003 9.5948321e-39
-0.026265714 0.011774287 0.95100003 9.5948321e-39
-0.02453143 0.011811429 0.95400006 9.7777842e-39
-0.022714287 0.011811429 0.95400006 9.6855886e-39
-0.020940954 0.011836191 0.95600003 9.5015575e-39
-0.01912 0.011836191 0.95600003 9.4093619e-39
-0.017299049 0.011836191 0.95600003 9.5008288e-39
-0.015526668 0.011873334 0.95900005 9.5008288e-39
-0.013700001 0.011873334 0.95900005 9.1331253e-39
-0.011873334 0.011873334 0.95900005 9.0409297e-39
-0.010078096 0.011910477 0.96200007 9.0402066e-39
-0.0082628578 0.011935239 0.96400005 8.8558153e-39
-0.0064266669 0.011935239 0.96400005 9.0384087e-39
-0.0046047624 0.011972382 0.96700007 8.6696262e-39
-0.0027714286 0.012009524 0.97000003 8.3933868e-39
-0.00092380954 0.012009524 0.97000003 8.0246043e-39
0.00092380954 0.012009524 0.97000003 8.760017e-39
0.0027714286 0.012009524 0.97000003 1.0972712e-38
-0.073206671 0.013900001 0.97300005 1.0326617e-38
-0.071353339 0.013900001 0.97300005 7.7451392e-39
-0.069285713 0.013857143 0.97000003 7.5618241e-39
-0.067229524 0.013814286 0.96700007 8.3915848e-39
-0.065184765 0.01377143 0.96400005 8.3004779e-39
-0.063348576 0.01377143 0.96400005 8.4848692e-39
-0.061384764 0.013742859 0.96200007 8.5774306e-39
-0.059552386 0.013742859 0.96200007 9.0384087e-39
-0.057540003 0.013700001 0.95900005 8.8558153e-39
-0.055539049 0.013657142 0.95600003 9.0402066e-39
-0.053718098 0.013657142 0.95600003 9.0394975e-39
-0.051788572 0.013628571 0.95400006 9.2238888e-39
-0.049971428 0.013628571 0.95400006 9.2238888e-39
-0.048154291 0.013628571 0.95400006 9.3160844e-39
-0.046337146 0.013628571 0.95400006 9.4082801e-39
-0.044520002 0.013628571 0.95400006 9.5926713e-39
-0.042702857 0.013628571 0.95400006 9.5926741e-39
-0.040885717 0.013628571 0.95400006 9.7770654e-39
-0.039068572 0.013628571 0.95400006 9.6855858e-39
-0.037251431 0.013628571 0.95400006 9.8699771e-39
-0.035322856 0.013585715 0.95100003 1.0238034e-38
-0.03351143 0.013585715 0.95100003 1.0238034e-38
-0.0317 0.013585715 0.95100003 1.0054366e-38
-0.029888572 0.013585715 0.95100003 1.0054366e-38
-0.028077144 0.013585715 0.95100003 1.0145838e-38
-0.026265714 0.013585715 0.95100003 1.0053642e-38
-0.024582857 0.013657142 0.95600003 9.7770654e-39
-0.022761906 0.013657142 0.95600003 9.6848697e-39
-0.020940954 0.013657142 0.95600003 9.5015575e-39
-0.019180002 0.013700001 0.95900005 9.4093619e-39
-0.017353334 0.013700001 0.95900005 9.5930244e-39
-0.015526668 0.013700001 0.95900005 9.4086332e-39
-0.013700001 0.013700001 0.95900005 9.3164376e-39
-0.011910477 0.013742859 0.96200007 9.1320463e-39
-0.010078096 0.013742859 0.96200007 9.3149956e-39
-0.0082628578 0.01377143 0.96400005 9.1306044e-39
-0.006446667 0.013814286 0.96700007 9.0387619e-39
-0.0046047624 0.013814286 0.96700007 8.6699793e-39
-0.0027714286 0.013857143 0.97000003 8.3015471e-39
-0.00092380954 0.013857143 0.97000003 8.3015471e-39
0.00092380954 0.013857143 0.97000003 9.0362535e-39
-0.073357143 0.015785715 0.97500002 1.0417387e-38
-0.071500003 0.015785715 0.97500002 8.2046922e-39
-0.069500007 0.015753334 0.97300005 7.6554589e-39
-0.067438096 0.015704762 0.97000003 8.2086326e-39
-0.065387622 0.015656192 0.96700007 8.3004779e-39
-0.063348576 0.01560762 0.96400005 8.3926736e-39
-0.061512385 0.01560762 0.96400005 8.5774278e-39
-0.059552386 0.015575239 0.96200007 9.0384059e-39
-0.057720002 0.015575239 0.96200007 8.8558153e-39
-0.055539049 0.015478096 0.95600003 9.1324022e-39
-0.053718098 0.015478096 0.95600003 9.1320463e-39
-0.051897142 0.015478096 0.95600003 9.2242419e-39
-0.05007619 0.015478096 0.95600003 9.2242419e-39
-0.048255239 0.015478096 0.95600003 9.5008288e-39
-0.046337146 0.015445715 0.95400006 9.5004757e-39
-0.044520002 0.015445715 0.95400006 9.5926713e-39
-0.042702857 0.015445715 0.95400006 9.5926713e-39
-0.040885717 0.015445715 0.95400006 9.7770626e-39
-0.039068572 0.015445715 0.95400006 9.6855858e-39
-0.037251431 0.015445715 0.95400006 9.8699771e-39
-0.035434287 0.015445715 0.95400006 9.9618098e-39
-0.033617143 0.015445715 0.95400006 1.0238397e-38
-0.031800002 0.015445715 0.95400006 1.0054005e-38
-0.029982859 0.015445715 0.95400006 1.0054005e-38
-0.028165715 0.015445715 0.95400006 1.0053652e-38
-0.026348574 0.015445715 0.95400006 1.0053652e-38
-0.024582857 0.015478096 0.95600003 9.7770654e-39
-0.022761906 0.015478096 0.95600003 9.7770654e-39
-0.021006668 0.015526668 0.95900005 9.5019134e-39
-0.019180002 0.015526668 0.95900005 9.5019134e-39
-0.017353334 0.015526668 0.95900005 9.5008288e-39
-0.015526668 0.015526668 0.95900005 9.3164376e-39
-0.013742859 0.015575239 0.96200007 9.2242419e-39
-0.011935239 0.01560762 0.96400005 9.0398507e-39
-0.010099048 0.01560762 0.96400005 9.2228028e-39
-0.0082885725 0.015656192 0.96700007 9.0384115e-39
-0.006446667 0.015656192 0.96700007 9.038043e-39
-0.004619048 0.015704762 0.97000003 8.7614561e-39
-0.0027714286 0.015704762 0.97000003 8.4852223e-39
-0.00092380954 0.015704762 0.97000003 8.4852223e-39
0.00092380954 0.015704762 0.97000003 9.8656386e-39
-0.071719997 0.017697142 0.97800004 8.3897869e-39
-0.069642857 0.017642858 0.97500002 7.6554617e-39
-0.067646675 0.017606668 0.97300005 7.9320486e-39
-0.065590478 0.017552381 0.97000003 8.0235379e-39
-0.063545719 0.017498096 0.96700007 8.3001248e-39
-0.061512385 0.01744381 0.96400005 8.5774278e-39
-0.059676193 0.01744381 0.96400005 8.761819e-39
-0.057720002 0.01740762 0.96200007 9.0384087e-39
-0.055713337 0.017353334 0.95900005 9.3149956e-39
-0.053886667 0.017353334 0.95900005 9.0398507e-39
-0.051897142 0.017299049 0.95600003 9.1320463e-39
-0.05007619 0.017299049 0.95600003 9.131696e-39
-0.048255239 0.017299049 0.95600003 9.3160872e-39
-0.046434287 0.017299049 0.95600003 9.4082801e-39
-0.044613335 0.017299049 0.95600003 9.5926713e-39
-0.042792384 0.017299049 0.95600003 9.5019134e-39
-0.040885717 0.017262857 0.95400006 9.594109e-39
-0.039068572 0.017262857 0.95400006 9.7770654e-39
-0.037251431 0.017262857 0.95400006 9.7770654e-39
-0.035434287 0.017262857 0.95400006 9.869261e-39
-0.033617143 0.017262857 0.95400006 9.9614566e-39
-0.031800002 0.017262857 0.95400006 9.9618098e-39
-0.029982859 0.017262857 0.95400006 9.8696141e-39
-0.028165715 0.017262857 0.95400006 9.869261e-39
-0.026348574 0.017262857 0.95400006 9.869261e-39
-0.024660001 0.017353334 0.95900005 9.8696141e-39
-0.022833334 0.017353334 0.95900005 9.7774185e-39
-0.021006668 0.017353334 0.95900005 9.594109e-39
-0.019240001 0.01740762 0.96200007 9.4097178e-39
-0.01740762 0.01740762 0.96200007 9.5008288e-39
-0.015575239 0.01740762 0.96200007 9.3164376e-39
-0.01377143 0.01744381 0.96400005 9.2242419e-39
-0.011972382 0.017498096 0.96700007 9.0398507e-39
-0.010130477 0.017498096 0.96700007 9.1306072e-39
-0.0082885725 0.017498096 0.96700007 8.9462159e-39
-0.0064666667 0.017552381 0.97000003 8.761819e-39
-0.004619048 0.017552381 0.97000003 8.5774278e-39
-0.0027714286 0.017552381 0.97000003 8.4848692e-39
-0.00092380954 0.017552381 0.97000003 8.8536517e-39
0.00092380954 0.017552381 0.97000003 9.8652855e-39
-0.071719997 0.01956 0.97800004 8.4823483e-39
-0.06985715 0.01956 0.97800004 8.1139189e-39
-0.067785718 0.0195 0.97500002 8.4827014e-39
-0.065793335 0.01946 0.97300005 8.3008311e-39
-0.063545719 0.019340001 0.96700007 8.3930267e-39
-0.061703809 0.019340001 0.96700007 8.5777837e-39
-0.059676193 0.019280002 0.96400005 8.762175e-39
-0.057840001 0.019280002 0.96400005 8.9462131e-39
-0.055887621 0.019240001 0.96200007 9.3149956e-39
-0.053886667 0.019180002 0.95900005 8.8565384e-39
-0.052060001 0.019180002 0.95900005 9.0409297e-39
-0.05007619 0.01912 0.95600003 9.2242419e-39
-0.048255239 0.01912 0.95600003 9.4086332e-39
-0.046434287 0.01912 0.95600003 9.3175166e-39
-0.044613335 0.01912 0.95600003 9.5019078e-39
-0.042792384 0.01912 0.95600003 9.5019134e-39
-0.040971428 0.01912 0.95600003 9.5019134e-39
-0.039150476 0.01912 0.95600003 9.6855858e-39
-0.037251431 0.01908 0.95400006 9.7777814e-39
-0.035434287 0.01908 0.95400006 9.7777786e-39
-0.033617143 0.01908 0.95400006 9.8699743e-39
-0.031800002 0.01908 0.95400006 9.8699799e-39
-0.029982859 0.01908 0.95400006 9.8699799e-39
-0.028165715 0.01908 0.95400006 9.7777842e-39
-0.026403811 0.01912 0.95600003 9.7777842e-39
-0.024660001 0.019180002 0.95900005 9.6855858e-39
-0.022833334 0.019180002 0.95900005 9.6855858e-39
-0.021072382 0.019240001 0.96200007 9.5019134e-39
-0.019240001 0.019240001 0.96200007 9.5019134e-39
-0.01740762 0.019240001 0.96200007 9.3175222e-39
-0.01560762 0.019280002 0.96400005 9.0409353e-39
-0.01377143 0.019280002 0.96400005 9.1320463e-39
-0.011972382 0.019340001 0.96700007 8.947655e-39
-0.010130477 0.019340001 0.96700007 9.1306044e-39
-0.0083142864 0.019400001 0.97000003 8.8540175e-39
-0.0064666667 0.019400001 0.97000003 8.9458474e-39
-0.004619048 0.019400001 0.97000003 8.3926736e-39
-0.0027714286 0.019400001 0.97000003 8.574897e-39
-0.00092666672 0.01946 0.97300005 1.0050027e-38
0.00092666672 0.01946 0.97300005 1.0143652e-38
-0.071719997 0.021422857 0.97800004 9.5883301e-39
-0.06985715 0.021422857 0.97800004 7.8391467e-39
-0.067785718 0.021357143 0.97500002 7.9313423e-39
-0.065793335 0.021313334 0.97300005 8.1160867e-39
-0.063742854 0.02124762 0.97000003 8.4848692e-39
-0.061703809 0.021181906 0.96700007 8.5770648e-39
-0.059861906 0.021181906 0.96700007 8.7614561e-39
-0.058020003 0.021181906 0.96700007 8.7618246e-39
-0.056003813 0.021116192 0.96400005 9.0384115e-39
-0.054167621 0.021116192 0.96400005 8.8554594e-39
-0.052222859 0.021072382 0.96200007 9.2242419e-39
-0.050390478 0.021072382 0.96200007 9.2242419e-39
-0.048406668 0.021006668 0.95900005 9.2242419e-39
-0.046580002 0.021006668 0.95900005 9.3164376e-39
-0.044753335 0.021006668 0.95900005 9.6852201e-39
-0.042926669 0.021006668 0.95900005 9.5930244e-39
-0.040971428 0.020940954 0.95600003 9.5930244e-39
-0.039150476 0.020940954 0.95600003 9.6859389e-39
-0.037329525 0.020940954 0.95600003 9.6859389e-39
-0.035508573 0.020940954 0.95600003 9.6855858e-39
-0.033687621 0.020940954 0.95600003 9.7777814e-39
-0.03186667 0.020940954 0.95600003 9.8696267e-39
-0.030045714 0.020940954 0.95600003 1.0054018e-38
-0.028224763 0.020940954 0.95600003 9.6855886e-39
-0.026403811 0.020940954 0.95600003 9.6855886e-39
-0.024660001 0.021006668 0.95900005 9.6855858e-39
-0.022904763 0.021072382 0.96200007 9.5933902e-39
-0.021072382 0.021072382 0.96200007 9.4097178e-39
-0.019280002 0.021116192 0.96400005 9.3175222e-39
-0.01744381 0.021116192 0.96400005 9.4086332e-39
-0.015656192 0.021181906 0.96700007 9.2242419e-39
-0.013814286 0.021181906 0.96700007 9.1320463e-39
-0.012009524 0.02124762 0.97000003 8.947655e-39
-0.010161905 0.02124762 0.97000003 9.1306016e-39
-0.0083142864 0.02124762 0.97000003 8.8540147e-39
-0.0064666667 0.02124762 0.97000003 8.5774306e-39
-0.0046333335 0.021313334 0.97300005 8.1164524e-39
-0.0027800002 0.021313334 0.97300005 8.3915848e-39
-0.00092666672 0.021313334 0.97300005 1.0327693e-38
0.00092666672 0.021313334 0.97300005 1.0880128e-38
-0.06985715 0.023285715 0.97800004 8.577418e-39
-0.067785718 0.023214286 0.97500002 7.6554617e-39
-0.065928571 0.023214286 0.97500002 7.9324143e-39
-0.063940004 0.023166668 0.97300005 8.3011968e-39
-0.061895244 0.023095237 0.97000003 8.3933924e-39
-0.059861906 0.02302381 0.96700007 8.6699793e-39
-0.058020003 0.02302381 0.96700007 8.8540175e-39
-0.056178097 0.02302381 0.96700007 9.0384087e-39
-0.054167621 0.022952382 0.96400005 8.8558153e-39
-0.052331429 0.022952382 0.96400005 9.2245979e-39
-0.050390478 0.022904763 0.96200007 9.2242419e-39
-0.048558097 0.022904763 0.96200007 9.3164376e-39
-0.046725716 0.022904763 0.96200007 9.4089891e-39
-0.044893336 0.022904763 0.96200007 9.685576e-39
-0.043060955 0.022904763 0.96200007 9.5933804e-39
-0.041100003 0.022833334 0.95900005 9.685576e-39
-0.039273337 0.022833334 0.95900005 9.5941034e-39
-0.037446667 0.022833334 0.95900005 9.5941034e-39
-0.035508573 0.022761906 0.95600003 9.6855858e-39
-0.033687621 0.022761906 0.95600003 9.7777814e-39
-0.03186667 0.022761906 0.95600003 9.5026365e-39
-0.030045714 0.022761906 0.95600003 9.5948321e-39
-0.028224763 0.022761906 0.95600003 9.4104381e-39
-0.026486667 0.022833334 0.95900005 9.4104381e-39
-0.024737146 0.022904763 0.96200007 9.3182424e-39
-0.022904763 0.022904763 0.96200007 9.3182424e-39
-0.021072382 0.022904763 0.96200007 9.4097178e-39
-0.019280002 0.022952382 0.96400005 9.3175222e-39
-0.01744381 0.022952382 0.96400005 9.2253209e-39
-0.015656192 0.02302381 0.96700007 9.1331253e-39
-0.013814286 0.02302381 0.96700007 9.0398507e-39
-0.012009524 0.023095237 0.97000003 8.8554594e-39
-0.010193334 0.023166668 0.97300005 8.7636197e-39
-0.0083400002 0.023166668 0.97300005 8.5792284e-39
-0.0064866669 0.023166668 0.97300005 8.5777837e-39
-0.0046333335 0.023166668 0.97300005 7.9324143e-39
-0.0027800002 0.023166668 0.97300005 8.1150007e-39
-0.00092666672 0.023166668 0.97300005 1.0604283e-38
0.00092666672 0.023166668 0.97300005 1.0972334e-38
-0.06985715 0.025148572 0.97800004 9.6826739e-39
-0.067785718 0.025071429 0.97500002 7.7465657e-39
-0.065928571 0.025071429 0.97500002 7.6554771e-39
-0.063940004 0.025020001 0.97300005 8.3008465e-39
-0.061895244 0.024942858 0.97000003 8.3926764e-39
-0.059861906 0.024865715 0.96700007 8.6692633e-39
-0.058020003 0.024865715 0.96700007 8.6696262e-39
-0.056178097 0.024865715 0.96700007 8.8540175e-39
-0.054167621 0.024788573 0.96400005 8.5785194e-39
-0.052331429 0.024788573 0.96400005 9.0394975e-39
-0.050495241 0.024788573 0.96400005 9.2245979e-39
-0.048659049 0.024788573 0.96400005 9.2245979e-39
-0.046822857 0.024788573 0.96400005 9.2242419e-39
-0.044986669 0.024788573 0.96400005 9.5008288e-39
-0.043150477 0.024788573 0.96400005 9.5008288e-39
-0.041228574 0.024737146 0.96200007 9.5930244e-39
-0.039396197 0.024737146 0.96200007 9.4097178e-39
-0.037446667 0.024660001 0.95900005 9.5019134e-39
-0.03562 0.024660001 0.95900005 9.6859389e-39
-0.033793334 0.024660001 0.95900005 9.7781346e-39
-0.031966668 0.024660001 0.95900005 9.6855858e-39
-0.030140001 0.024660001 0.95900005 9.6855858e-39
-0.028313335 0.024660001 0.95900005 9.3182424e-39
-0.026486667 0.024660001 0.95900005 9.3182424e-39
-0.024737146 0.024737146 0.96200007 9.5019134e-39
-0.022952382 0.024788573 0.96400005 9.4097178e-39
-0.021116192 0.024788573 0.96400005 9.4097178e-39
-0.019280002 0.024788573 0.96400005 9.3175222e-39
-0.01744381 0.024788573 0.96400005 9.3175166e-39
-0.015656192 0.024865715 0.96700007 9.0409297e-39
-0.013857143 0.024942858 0.97000003 8.947655e-39
-0.012009524 0.024942858 0.97000003 8.8554594e-39
-0.010193334 0.025020001 0.97300005 8.7636197e-39
-0.0083400002 0.025020001 0.97300005 8.5792284e-39
-0.0064866669 0.025020001 0.97300005 8.5777837e-39
-0.0046333335 0.025020001 0.97300005 8.1168056e-39
-0.0027800002 0.025020001 0.97300005 8.6681745e-39
-0.00092666672 0.025020001 0.97300005 1.0788674e-38
0.00092666672 0.025020001 0.97300005 1.0971983e-38
-0.070071429 0.027094286 0.98100007 1.0234421e-38
-0.067994289 0.02701143 0.97800004 8.2061173e-39
-0.066131428 0.02701143 0.97800004 7.8394998e-39
-0.064071432 0.026928572 0.97500002 8.2082823e-39
-0.062086668 0.026873333 0.97300005 8.4848692e-39
-0.060047623 0.026790477 0.97000003 8.7614561e-39
-0.058020003 0.026707619 0.96700007 8.8536517e-39
-0.056178097 0.026707619 0.96700007 9.1302386e-39
-0.054336194 0.026707619 0.96700007 8.7636197e-39
-0.052331429 0.026624763 0.96400005 9.0402066e-39
-0.050495241 0.026624763 0.96400005 9.1324022e-39
-0.048659049 0.026624763 0.96400005 9.3167935e-39
-0.046822857 0.026624763 0.96400005 9.3164376e-39
-0.044986669 0.026624763 0.96400005 9.4086332e-39
-0.043150477 0.026624763 0.96400005 9.5008288e-39
-0.041314285 0.026624763 0.96400005 9.5930244e-39
-0.039396197 0.026569527 0.96200007 9.5930244e-39
-0.037563812 0.026569527 0.96200007 9.6852201e-39
-0.035731431 0.026569527 0.96200007 9.6855858e-39
-0.03389905 0.026569527 0.96200007 9.6855858e-39
-0.032066669 0.026569527 0.96200007 9.4104381e-39
-0.030234287 0.026569527 0.96200007 9.4104381e-39
-0.028401908 0.026569527 0.96200007 9.3182424e-39
-0.026569527 0.026569527 0.96200007 9.3182424e-39
-0.024788573 0.026624763 0.96400005 9.2260468e-39
-0.022952382 0.026624763 0.96400005 9.1338512e-39
-0.021116192 0.026624763 0.96400005 9.2253265e-39
-0.019280002 0.026624763 0.96400005 9.2253265e-39
-0.017498096 0.026707619 0.96700007 9.2253209e-39
-0.015704762 0.026790477 0.97000003 9.1331253e-39
-0.013857143 0.026790477 0.97000003 8.8565384e-39
-0.012046667 0.026873333 0.97300005 8.7643428e-39
-0.010193334 0.026873333 0.97300005 8.7636197e-39
-0.008357143 0.026928572 0.97500002 8.4870328e-39
-0.0065000001 0.026928572 0.97500002 8.6699737e-39
-0.0046333335 0.026873333 0.97300005 8.3933868e-39
-0.0027800002 0.026873333 0.97300005 8.9447614e-39
-0.00092666672 0.026873333 0.97300005 1.0788674e-38
-0.070285715 0.029051431 0.98400003 1.0880138e-38
-0.068411432 0.029051431 0.98400003 8.2064648e-39
-0.066334285 0.028962858 0.98100007 7.6554589e-39
-0.064268574 0.028874286 0.97800004 8.0242414e-39
-0.062214289 0.028785715 0.97500002 8.1157336e-39
-0.060233336 0.028726669 0.97300005 8.6689073e-39
-0.058020003 0.028549524 0.96700007 8.7614561e-39
-0.056178097 0.028549524 0.96700007 8.9458474e-39
-0.054336194 0.028549524 0.96700007 8.6710681e-39
-0.052494287 0.028549524 0.96700007 8.947655e-39
-0.050495241 0.028460953 0.96400005 9.3167879e-39
-0.048659049 0.028460953 0.96400005 9.3167879e-39
-0.046822857 0.028460953 0.96400005 9.1331253e-39
-0.044986669 0.028460953 0.96400005 9.1331253e-39
-0.043150477 0.028460953 0.96400005 9.5008288e-39
-0.041314285 0.028460953 0.96400005 9.5930244e-39
-0.039478097 0.028460953 0.96400005 9.5926713e-39
-0.037641905 0.028460953 0.96400005 9.6848669e-39
-0.035805713 0.028460953 0.96400005 9.594109e-39
-0.03389905 0.028401908 0.96200007 9.594109e-39
-0.032066669 0.028401908 0.96200007 9.6855858e-39
-0.030234287 0.028401908 0.96200007 9.5933902e-39
-0.028401908 0.028401908 0.96200007 9.5019134e-39
-0.026569527 0.028401908 0.96200007 9.5019134e-39
-0.024788573 0.028460953 0.96400005 9.4097122e-39
-0.022952382 0.028460953 0.96400005 9.3175166e-39
-0.021116192 0.028460953 0.96400005 9.5004757e-39
-0.019280002 0.028460953 0.96400005 9.4082801e-39
-0.017498096 0.028549524 0.96700007 9.3164376e-39
-0.015704762 0.028638097 0.97000003 9.2242419e-39
-0.013857143 0.028638097 0.97000003 9.3149984e-39
-0.012046667 0.028726669 0.97300005 9.2228028e-39
-0.010214286 0.028785715 0.97500002 9.0387619e-39
-0.008357143 0.028785715 0.97500002 8.8543706e-39
-0.0065000001 0.028785715 0.97500002 8.8540049e-39
-0.0046333335 0.028726669 0.97300005 8.7618092e-39
-0.0027400001 0.028313335 0.95900005 9.3131907e-39
-0.00091333338 0.028313335 0.95900005 1.0788321e-38
-0.070500001 0.031020002 0.98700005 1.097163e-38
-0.068411432 0.030925713 0.98400003 8.5745439e-39
-0.066537142 0.030925713 0.98400003 8.2983101e-39
-0.064268574 0.030737145 0.97800004 8.4827014e-39
-0.062214289 0.030642856 0.97500002 8.3930267e-39
-0.060357142 0.030642856 0.97500002 8.6696136e-39
-0.058200002 0.030485716 0.97000003 8.6699793e-39
-0.056352381 0.030485716 0.97000003 8.9465662e-39
-0.054336194 0.03039143 0.96700007 8.7636197e-39
-0.052494287 0.03039143 0.96700007 8.948011e-39
-0.050495241 0.030297145 0.96400005 9.1320463e-39
-0.048659049 0.030297145 0.96400005 9.3164376e-39
-0.046822857 0.030297145 0.96400005 9.1331253e-39
-0.044986669 0.030297145 0.96400005 9.3175166e-39
-0.043150477 0.030297145 0.96400005 9.3175166e-39
-0.041314285 0.030297145 0.96400005 9.4097122e-39
-0.039478097 0.030297145 0.96400005 9.4097178e-39
-0.037641905 0.030297145 0.96400005 9.594109e-39
-0.035805713 0.030297145 0.96400005 9.6855858e-39
-0.033969525 0.030297145 0.96400005 9.6855858e-39
-0.032133333 0.030297145 0.96400005 9.594109e-39
-0.030234287 0.030234287 0.96200007 9.5019134e-39
-0.028401908 0.030234287 0.96200007 9.2260468e-39
-0.026569527 0.030234287 0.96200007 9.2260468e-39
-0.024788573 0.030297145 0.96400005 9.5008288e-39
-0.022952382 0.030297145 0.96400005 9.5930244e-39
-0.021116192 0.030297145 0.96400005 9.5004757e-39
-0.019280002 0.030297145 0.96400005 9.3160844e-39
-0.017498096 0.03039143 0.96700007 9.3164376e-39
-0.015704762 0.030485716 0.97000003 9.2242419e-39
-0.013900001 0.030580001 0.97300005 9.3149984e-39
-0.012071429 0.030642856 0.97500002 9.1306072e-39
-0.010245714 0.030737145 0.97800004 9.497582e-39
-0.0083828568 0.030737145 0.97800004 8.9444082e-39
-0.0065200003 0.030737145 0.97800004 9.035878e-39
-0.0046333335 0.030580001 0.97300005 9.4046605e-39
-0.0027400001 0.030140001 0.95900005 9.4057395e-39
-0.00091333338 0.030140001 0.95900005 1.088087e-38
-0.068759046 0.03296667 0.98900002 9.7730871e-39
-0.066740006 0.032900002 0.98700005 8.0235379e-39
-0.064465716 0.032700002 0.98100007 8.1157336e-39
-0.062405713 0.032600004 0.97800004 8.3004779e-39
-0.060357142 0.032499999 0.97500002 8.5770648e-39
-0.058380004 0.032433335 0.97300005 8.5777837e-39
-0.056526672 0.032433335 0.97300005 8.9465662e-39
-0.054504763 0.032333333 0.97000003 8.9462131e-39
-0.052494287 0.032233335 0.96700007 9.1306044e-39
-0.050652385 0.032233335 0.96700007 8.947655e-39
-0.048810478 0.032233335 0.96700007 9.1320463e-39
-0.046822857 0.032133333 0.96400005 9.2242419e-39
-0.044986669 0.032133333 0.96400005 9.4086332e-39
-0.043284763 0.032233335 0.96700007 9.1331253e-39
-0.04144286 0.032233335 0.96700007 9.4097122e-39
-0.039478097 0.032133333 0.96400005 9.4097178e-39
-0.037641905 0.032133333 0.96400005 9.4097178e-39
-0.035805713 0.032133333 0.96400005 9.4097178e-39
-0.033969525 0.032133333 0.96400005 9.4097178e-39
-0.032133333 0.032133333 0.96400005 9.594109e-39
-0.030297145 0.032133333 0.96400005 9.5019134e-39
-0.028460953 0.032133333 0.96400005 9.4097178e-39
-0.026624763 0.032133333 0.96400005 9.4097178e-39
-0.024865715 0.032233335 0.96700007 9.3175222e-39
-0.02302381 0.032233335 0.96700007 9.3175222e-39
-0.021181906 0.032233335 0.96700007 9.5011847e-39
-0.019340001 0.032233335 0.96700007 9.3167935e-39
-0.017498096 0.032233335 0.96700007 9.1334812e-39
-0.015753334 0.032433335 0.97300005 8.94909e-39
-0.013928572 0.032499999 0.97500002 9.3149984e-39
-0.012071429 0.032499999 0.97500002 9.1306072e-39
-0.010245714 0.032600004 0.97800004 9.1302386e-39
-0.0083828568 0.032600004 0.97800004 8.7614561e-39
-0.0065200003 0.032600004 0.97800004 8.4848692e-39
-0.0046333335 0.032433335 0.97300005 9.1302386e-39
-0.0027400001 0.031966668 0.95900005 9.4990211e-39
-0.00091333338 0.031966668 0.95900005 1.078976e-38
-0.064662859 0.034674287 0.98400003 8.1150007e-39
-0.062597148 0.034568571 0.98100007 7.8398655e-39
-0.060542859 0.034462858 0.97800004 8.3008437e-39
-0.058500003 0.034357142 0.97500002 8.5777837e-39
-0.056526672 0.03428667 0.97300005 8.8543706e-39
-0.054673333 0.03428667 0.97300005 8.5792284e-39
-0.052657142 0.03418095 0.97000003 8.8558153e-39
-0.050809525 0.03418095 0.97000003 9.0402066e-39
