# .PCD v0.7 - Point Cloud Data file format
VERSION 0.7
FIELDS x y z rgb
SIZE 4 4 4 4
TYPE F F F F
COUNT 1 1 1 1
WIDTH 971
HEIGHT 1
VIEWPOINT 0 0 0 1 0 0 0
POINTS 971
DATA ascii
-0.043004762 0.080536194 0.82100004 1.0146927e-38
-0.041541904 0.080732383 0.82300001 9.9625356e-39
-0.039974283 0.080732383 0.82300001 9.9625356e-39
-0.038500004 0.080928579 0.82500005 9.7781444e-39
-0.036928572 0.080928579 0.82500005 9.5948321e-39
-0.035528574 0.081320956 0.82900006 9.4104409e-39
-0.034031428 0.081517145 0.83100003 9.2260496e-39
-0.032448575 0.081517145 0.83100003 8.9494627e-39
-0.030940004 0.081713334 0.83300006 9.0394975e-39
-0.029494286 0.082105711 0.83700001 8.670715e-39
-0.027966669 0.082301915 0.83900005 8.5774306e-39
-0.026431428 0.082498096 0.84100002 1.0329148e-38
-0.024829524 0.082498096 0.84100002 1.1065261e-38
-0.023227619 0.082498096 0.84100002 1.1341848e-38
-0.13344096 0.083899997 0.83900005 1.1065261e-38
-0.13184287 0.083899997 0.83900005 1.1157456e-38
-0.13055524 0.084100001 0.84100002 1.1157822e-38
-0.12895334 0.084100001 0.84100002 1.078904e-38
-0.12765428 0.084300004 0.84300005 1.0328782e-38
-0.12604858 0.084300004 0.84300005 1.0420977e-38
-0.12444286 0.084300004 0.84300005 9.7777716e-39
-0.12283715 0.084300004 0.84300005 9.7777716e-39
-0.12151904 0.084500007 0.84500003 9.5019078e-39
-0.11990952 0.084500007 0.84500003 8.948734e-39
-0.11830001 0.084500007 0.84500003 8.8554594e-39
-0.11641429 0.084300004 0.84300005 8.8554594e-39
-0.11480858 0.084300004 0.84300005 9.956412e-39
-0.11320286 0.084300004 0.84300005 1.2353498e-38
-0.11239143 0.084900007 0.84900004 1.2725521e-38
-0.11077429 0.084900007 0.84900004 1.3463086e-38
-0.10735714 0.083500005 0.83500004 1.4752395e-38
-0.10576668 0.083500005 0.83500004 1.0787983e-38
-0.10392667 0.083300002 0.83300006 9.7734402e-39
-0.10234001 0.083300002 0.83300006 8.7592883e-39
-0.10051143 0.083100006 0.83100003 8.3933924e-39
-0.09869048 0.082900003 0.82900006 8.762175e-39
-0.097111441 0.082900003 0.82900006 8.8543706e-39
-0.095301904 0.082699999 0.82700002 9.0387619e-39
-0.093500003 0.082500003 0.82500005 9.0384115e-39
-0.091928579 0.082500003 0.82500005 9.5915853e-39
-0.0901381 0.0823 0.82300001 9.3164376e-39
-0.088355243 0.082100004 0.82100004 9.5008288e-39
-0.086791433 0.082100004 0.82100004 9.5019078e-39
-0.085020006 0.081900008 0.81900007 9.5941034e-39
-0.083460003 0.081900008 0.81900007 9.7777786e-39
-0.081700005 0.081700005 0.81700003 9.8699743e-39
-0.080143809 0.081700005 0.81700003 9.9621699e-39
-0.078587621 0.081700005 0.81700003 1.0054366e-38
-0.077031434 0.081700005 0.81700003 1.0146564e-38
-0.075475238 0.081700005 0.81700003 1.023876e-38
-0.073738098 0.081500001 0.81500006 9.9625356e-39
-0.072185718 0.081500001 0.81500006 1.0054731e-38
-0.070633344 0.081500001 0.81500006 1.0790854e-38
-0.069080956 0.081500001 0.81500006 7.9327898e-39
-0.067528576 0.081500001 0.81500006 6.0892276e-39
-0.065976188 0.081500001 0.81500006 5.2594669e-39
-0.064581908 0.081700005 0.81700003 6.5505182e-39
-0.063025713 0.081700005 0.81700003 9.6851696e-39
-0.061469521 0.081700005 0.81700003 1.1525886e-38
-0.059913337 0.081700005 0.81700003 1.1249299e-38
-0.058357142 0.081700005 0.81700003 1.0239851e-38
-0.056800954 0.081700005 0.81700003 1.0332047e-38
-0.055244766 0.081700005 0.81700003 1.0424242e-38
-0.053820003 0.081900008 0.81900007 1.0332047e-38
-0.052260004 0.081900008 0.81900007 1.0147656e-38
-0.050700005 0.081900008 0.81900007 1.0147656e-38
-0.049140003 0.081900008 0.81900007 9.9632643e-39
-0.047696192 0.082100004 0.82100004 9.9632643e-39
-0.046132382 0.082100004 0.82100004 9.7799521e-39
-0.044568572 0.082100004 0.82100004 9.6877564e-39
-0.043109521 0.0823 0.82300001 9.8710659e-39
-0.041541904 0.0823 0.82300001 9.8710659e-39
-0.040071428 0.082500003 0.82500005 9.5951979e-39
-0.038500004 0.082500003 0.82500005 9.5030022e-39
-0.037018094 0.082699999 0.82700002 9.410801e-39
-0.035614286 0.083100006 0.83100003 9.3186054e-39
-0.034031428 0.083100006 0.83100003 9.2260496e-39
-0.032526668 0.083300002 0.83300006 8.9494627e-39
-0.031014288 0.083500005 0.83500004 9.1316932e-39
-0.029494286 0.083700001 0.83700001 8.3941281e-39
-0.027966669 0.083899997 0.83900005 8.668557e-39
-0.026431428 0.084100001 0.84100002 1.0604665e-38
-0.024888573 0.084300004 0.84300005 1.1432964e-38
-0.023282859 0.084300004 0.84300005 1.152516e-38
-0.13215715 0.085701905 0.84100002 1.1248217e-38
-0.13055524 0.085701905 0.84100002 1.1157103e-38
-0.12895334 0.085701905 0.84100002 1.0972712e-38
-0.12765428 0.085905716 0.84300005 1.0788318e-38
-0.12604858 0.085905716 0.84300005 1.0696122e-38
-0.12444286 0.085905716 0.84300005 1.0328782e-38
-0.12312857 0.086109526 0.84500003 1.0144391e-38
-0.12151904 0.086109526 0.84500003 9.7777716e-39
-0.11990952 0.086109526 0.84500003 9.8699673e-39
-0.11830001 0.086109526 0.84500003 9.685576e-39
-0.11669048 0.086109526 0.84500003 9.3167935e-39
-0.11508096 0.086109526 0.84500003 9.4054186e-39
-0.11347143 0.086109526 0.84500003 9.2210273e-39
-0.11212667 0.086313337 0.84700006 8.670715e-39
-0.11051334 0.086313337 0.84700006 9.8692582e-39
-0.10915715 0.086517148 0.84900004 1.0329176e-38
-0.10602 0.085294284 0.83700001 9.6838062e-39
-0.10417619 0.085090473 0.83500004 8.9458474e-39
-0.10234001 0.08488667 0.83300006 8.3004779e-39
-0.10075334 0.08488667 0.83300006 8.3930393e-39
-0.098928571 0.084682859 0.83100003 8.5774306e-39
-0.097111441 0.084479049 0.82900006 8.669629e-39
-0.095301904 0.084275246 0.82700002 9.0384115e-39
-0.093726665 0.084275246 0.82700002 9.0384115e-39
-0.091928579 0.084071428 0.82500005 9.2228028e-39
-0.090357147 0.084071428 0.82500005 9.2242419e-39
-0.088355243 0.083663814 0.82100004 9.4086332e-39
-0.086791433 0.083663814 0.82100004 9.5004757e-39
-0.085020006 0.083460003 0.81900007 9.6848669e-39
-0.083460003 0.083460003 0.81900007 9.6855858e-39
-0.081900008 0.083460003 0.81900007 9.8699771e-39
-0.080340005 0.083460003 0.81900007 9.8699743e-39
-0.078587621 0.083256193 0.81700003 1.0054366e-38
-0.077031434 0.083256193 0.81700003 1.0146564e-38
-0.075475238 0.083256193 0.81700003 1.0146564e-38
-0.07391905 0.083256193 0.81700003 1.0146927e-38
-0.072362863 0.083256193 0.81700003 1.0423514e-38
-0.070806667 0.083256193 0.81700003 1.0515356e-38
-0.069250479 0.083256193 0.81700003 7.104118e-39
-0.067694284 0.083256193 0.81700003 4.4343978e-39
-0.066138096 0.083256193 0.81700003 1.0231595e-39
-0.064581908 0.083256193 0.81700003 4.7108782e-39
-0.063025713 0.083256193 0.81700003 5.5406388e-39
-0.061469521 0.083256193 0.81700003 7.4736096e-39
-0.059913337 0.083256193 0.81700003 1.0516065e-38
-0.058357142 0.083256193 0.81700003 1.0424242e-38
-0.056800954 0.083256193 0.81700003 1.0147656e-38
-0.055380005 0.083460003 0.81900007 1.0238772e-38
-0.053820003 0.083460003 0.81900007 1.0146577e-38
-0.052260004 0.083460003 0.81900007 9.6870376e-39
-0.050700005 0.083460003 0.81900007 9.6870376e-39
-0.049140003 0.083460003 0.81900007 9.6870376e-39
-0.047696192 0.083663814 0.82100004 9.6870376e-39
-0.046132382 0.083663814 0.82100004 9.8707128e-39
-0.044677142 0.083867624 0.82300001 9.8707128e-39
-0.043109521 0.083867624 0.82300001 9.9621853e-39
-0.04164286 0.084071428 0.82500005 9.9621853e-39
-0.040071428 0.084071428 0.82500005 9.5951979e-39
-0.038593337 0.084275246 0.82700002 9.5030022e-39
-0.037018094 0.084275246 0.82700002 9.5026365e-39
-0.035614286 0.084682859 0.83100003 9.3182452e-39
-0.034113336 0.08488667 0.83300006 9.2246175e-39
-0.032526668 0.08488667 0.83300006 9.1324218e-39
-0.031014288 0.085090473 0.83500004 9.1316932e-39
-0.029564762 0.085498095 0.83900005 8.4863238e-39
-0.027966669 0.085498095 0.83900005 8.8529609e-39
-0.026494287 0.085905716 0.84300005 1.0696873e-38
-0.024888573 0.085905716 0.84300005 1.1433315e-38
-0.023282859 0.085905716 0.84300005 1.1617706e-38
-0.12795715 0.087719053 0.84500003 1.0880516e-38
-0.12604858 0.087511435 0.84300005 1.0696125e-38
-0.12444286 0.087511435 0.84300005 1.0696125e-38
-0.12312857 0.087719053 0.84500003 1.060393e-38
-0.12151904 0.087719053 0.84500003 9.7777716e-39
-0.12019334 0.087926671 0.84700006 9.7777716e-39
-0.11858001 0.087926671 0.84700006 9.8706805e-39
-0.11696667 0.087926671 0.84700006 9.501898e-39
-0.11535334 0.087926671 0.84700006 9.0409353e-39
-0.11374 0.087926671 0.84700006 8.3955659e-39
-0.11212667 0.087926671 0.84700006 7.9356611e-39
-0.11051334 0.087926671 0.84700006 8.3044436e-39
-0.10915715 0.088134289 0.84900004 8.4874252e-39
-0.10652667 0.08730381 0.84100002 8.4874252e-39
-0.10442571 0.086888574 0.83700001 8.1182727e-39
-0.10258572 0.086680956 0.83500004 8.0260771e-39
-0.10099524 0.086680956 0.83500004 8.5774334e-39
-0.099166676 0.086473338 0.83300006 8.5774334e-39
-0.097345717 0.086265713 0.83100003 8.5774278e-39
-0.095532387 0.086058103 0.82900006 9.0384059e-39
-0.093726665 0.085850477 0.82700002 9.1306072e-39
-0.092151433 0.085850477 0.82700002 9.2228028e-39
-0.090357147 0.085642859 0.82500005 9.407194e-39
-0.088570476 0.085435241 0.82300001 9.6837809e-39
-0.087002859 0.085435241 0.82300001 9.5008288e-39
-0.085227624 0.085227624 0.82100004 9.7774157e-39
-0.083663814 0.085227624 0.82100004 9.7774157e-39
-0.081900008 0.085020006 0.81900007 9.961807e-39
-0.080340005 0.085020006 0.81900007 9.8703302e-39
-0.07878001 0.085020006 0.81900007 9.9625258e-39
-0.077220008 0.085020006 0.81900007 9.8699869e-39
-0.075660005 0.085020006 0.81900007 1.0054378e-38
-0.07391905 0.08481238 0.81700003 9.6873935e-39
-0.072362863 0.08481238 0.81700003 1.0240567e-38
-0.070806667 0.08481238 0.81700003 1.0791946e-38
-0.069250479 0.08481238 0.81700003 7.1963164e-39
-0.067694284 0.08481238 0.81700003 5.3530919e-39
-0.066138096 0.08481238 0.81700003 5.9984613e-39
-0.064581908 0.08481238 0.81700003 6.4580101e-39
-0.063025713 0.08481238 0.81700003 5.4438582e-39
-0.061469521 0.08481238 0.81700003 5.3574135e-39
-0.059913337 0.08481238 0.81700003 9.8749993e-39
-0.058357142 0.08481238 0.81700003 1.0883426e-38
-0.056940004 0.085020006 0.81900007 1.0422447e-38
-0.055380005 0.085020006 0.81900007 1.0238772e-38
-0.053820003 0.085020006 0.81900007 1.0146577e-38
-0.052260004 0.085020006 0.81900007 9.7792332e-39
-0.050823811 0.085227624 0.82100004 9.7792332e-39
-0.049260002 0.085227624 0.82100004 9.6870376e-39
-0.04781238 0.085435241 0.82300001 9.6870376e-39
-0.046244759 0.085435241 0.82300001 9.9621881e-39
-0.044785716 0.085642859 0.82500005 1.0054384e-38
-0.043214288 0.085642859 0.82500005 1.0054378e-38
-0.04164286 0.085642859 0.82500005 9.9621825e-39
-0.040071428 0.085642859 0.82500005 9.5951979e-39
-0.038593337 0.085850477 0.82700002 9.5030022e-39
-0.037018094 0.085850477 0.82700002 9.4100877e-39
-0.035614286 0.086265713 0.83100003 9.3178921e-39
-0.034113336 0.086473338 0.83300006 9.041308e-39
-0.032526668 0.086473338 0.83300006 8.7647211e-39
-0.031014288 0.086680956 0.83500004 8.9473019e-39
-0.029564762 0.087096192 0.83900005 8.4863238e-39
-0.028033335 0.08730381 0.84100002 8.8533112e-39
-0.026494287 0.087511435 0.84300005 1.0973811e-38
-0.024888573 0.087511435 0.84300005 1.1433687e-38
-0.12604858 0.089117147 0.84300005 1.1063829e-38
-0.12444286 0.089117147 0.84300005 1.0696125e-38
-0.12312857 0.08932858 0.84500003 1.0696125e-38
-0.12151904 0.08932858 0.84500003 1.0328782e-38
-0.12019334 0.089540005 0.84700006 1.0144391e-38
-0.11858001 0.089540005 0.84700006 1.0052908e-38
-0.11696667 0.089540005 0.84700006 1.0237299e-38
-0.11535334 0.089540005 0.84700006 1.0054359e-38
-0.11374 0.089540005 0.84700006 1.0146554e-38
-0.11239143 0.08975143 0.84900004 9.5948293e-39
-0.11077429 0.08975143 0.84900004 9.5948293e-39
-0.10915715 0.08975143 0.84900004 9.5944818e-39
-0.10728668 0.089540005 0.84700006 9.6866774e-39
-0.10467524 0.088694289 0.83900005 9.0406018e-39
-0.10283143 0.088482857 0.83700001 7.9342542e-39
-0.10099524 0.088271432 0.83500004 8.1175412e-39
-0.099166676 0.088060006 0.83300006 8.3019325e-39
-0.097580008 0.088060006 0.83300006 8.5774334e-39
-0.095762856 0.087848574 0.83100003 8.8540203e-39
-0.093953341 0.087637149 0.82900006 8.8540203e-39
-0.092151433 0.087425716 0.82700002 9.1306072e-39
-0.090576194 0.087425716 0.82700002 9.4071884e-39
-0.088785723 0.087214291 0.82500005 9.5915797e-39
-0.087214291 0.087214291 0.82500005 9.5008288e-39
-0.085435241 0.087002859 0.82300001 9.5930244e-39
-0.083867624 0.087002859 0.82300001 9.7774157e-39
-0.082100004 0.086791433 0.82100004 9.961807e-39
-0.080536194 0.086791433 0.82100004 9.961807e-39
-0.07878001 0.086580001 0.81900007 1.0054003e-38
-0.077220008 0.086580001 0.81900007 9.9621755e-39
-0.075660005 0.086580001 0.81900007 1.0054371e-38
-0.07410001 0.086580001 0.81900007 1.0054378e-38
-0.072540008 0.086580001 0.81900007 1.0238769e-38
-0.070806667 0.086368576 0.81700003 1.0424605e-38
-0.069250479 0.086368576 0.81700003 8.8572797e-39
-0.067694284 0.086368576 0.81700003 6.5534525e-39
-0.066138096 0.086368576 0.81700003 8.0285826e-39
-0.064581908 0.086368576 0.81700003 8.9458628e-39
-0.063180007 0.086580001 0.81900007 6.5487764e-39
-0.061620004 0.086580001 0.81900007 6.0921367e-39
-0.060060002 0.086580001 0.81900007 1.0333136e-38
-0.058500003 0.086580001 0.81900007 1.0883428e-38
-0.056940004 0.086580001 0.81900007 1.0330255e-38
-0.055380005 0.086580001 0.81900007 1.0238772e-38
-0.053820003 0.086580001 0.81900007 1.0146577e-38
-0.052387621 0.086791433 0.82100004 9.8707128e-39
-0.050823811 0.086791433 0.82100004 9.8707128e-39
-0.049260002 0.086791433 0.82100004 9.9621853e-39
-0.04781238 0.087002859 0.82300001 9.9621853e-39
-0.046357144 0.087214291 0.82500005 9.5948419e-39
-0.044785716 0.087214291 0.82500005 9.6870376e-39
-0.043214288 0.087214291 0.82500005 9.6873935e-39
-0.041743811 0.087425716 0.82700002 9.6873935e-39
-0.040168572 0.087425716 0.82700002 9.3182578e-39
-0.038593337 0.087425716 0.82700002 9.3182578e-39
-0.03710762 0.087637149 0.82900006 9.4104409e-39
-0.035614286 0.087848574 0.83100003 9.133854e-39
-0.034195241 0.088271432 0.83500004 9.040229e-39
-0.032604761 0.088271432 0.83500004 8.9480334e-39
-0.031088572 0.088482857 0.83700001 8.8561881e-39
-0.029635238 0.088905722 0.84100002 8.4874056e-39
-0.028100001 0.089117147 0.84300005 9.2228028e-39
-0.026494287 0.089117147 0.84300005 1.1251107e-38
-0.12604858 0.090722859 0.84300005 1.1156024e-38
-0.12444286 0.090722859 0.84300005 1.106311e-38
-0.12312857 0.090938091 0.84500003 1.106311e-38
-0.12151904 0.090938091 0.84500003 1.0696125e-38
-0.12019334 0.091153339 0.84700006 1.060393e-38
-0.11858001 0.091153339 0.84700006 1.0144744e-38
-0.11696667 0.091153339 0.84700006 1.0329135e-38
-0.11562572 0.091368571 0.84900004 9.9621629e-39
-0.11400858 0.091368571 0.84900004 9.9621629e-39
-0.11239143 0.091368571 0.84900004 1.0054366e-38
-0.11077429 0.091368571 0.84900004 1.0054366e-38
-0.10915715 0.091368571 0.84900004 9.5948293e-39
-0.10754 0.091368571 0.84900004 9.7792206e-39
-0.10467524 0.090292387 0.83900005 9.8703652e-39
-0.10283143 0.090077139 0.83700001 8.9484089e-39
-0.10099524 0.089861907 0.83500004 7.8423921e-39
-0.099166676 0.089646667 0.83300006 8.0267833e-39
-0.097580008 0.089646667 0.83300006 8.3948372e-39
-0.09599334 0.089646667 0.83300006 8.5792284e-39
-0.094179995 0.089431427 0.83100003 8.9462131e-39
-0.092374288 0.089216195 0.82900006 9.2228e-39
-0.090576194 0.089000955 0.82700002 9.0402066e-39
-0.088785723 0.088785723 0.82500005 9.2245979e-39
-0.087214291 0.088785723 0.82500005 9.3164376e-39
-0.085642859 0.088785723 0.82500005 9.5930244e-39
-0.083867624 0.088570476 0.82300001 9.5019078e-39
-0.0823 0.088570476 0.82300001 9.6862991e-39
-0.080536194 0.088355243 0.82100004 9.8699743e-39
-0.078972384 0.088355243 0.82100004 9.8699743e-39
-0.077408575 0.088355243 0.82100004 9.9621755e-39
-0.075844765 0.088355243 0.82100004 1.0054371e-38
-0.07410001 0.088140003 0.81900007 9.9621825e-39
-0.072540008 0.088140003 0.81900007 1.0054378e-38
-0.070980005 0.088140003 0.81900007 1.005582e-38
-0.069420002 0.088140003 0.81900007 9.4104507e-39
-0.067860007 0.088140003 0.81900007 6.8286199e-39
-0.066300005 0.088140003 0.81900007 7.5661849e-39
-0.064740002 0.088140003 0.81900007 8.8536671e-39
-0.063180007 0.088140003 0.81900007 6.640972e-39
-0.061620004 0.088140003 0.81900007 6.4591045e-39
-0.060060002 0.088140003 0.81900007 1.0515712e-38
-0.058500003 0.088140003 0.81900007 1.0699034e-38
-0.056940004 0.088140003 0.81900007 1.0238056e-38
-0.055380005 0.088140003 0.81900007 9.9632643e-39
-0.053820003 0.088140003 0.81900007 9.9632643e-39
-0.052387621 0.088355243 0.82100004 9.6877564e-39
-0.050823811 0.088355243 0.82100004 9.6877564e-39
-0.049379997 0.088570476 0.82300001 9.6870376e-39
-0.047928575 0.088785723 0.82500005 9.6870376e-39
-0.046357144 0.088785723 0.82500005 9.5948419e-39
-0.044785716 0.088785723 0.82500005 9.5948419e-39
-0.043214288 0.088785723 0.82500005 9.5951979e-39
-0.041743811 0.089000955 0.82700002 9.5951979e-39
-0.040168572 0.089000955 0.82700002 9.5022834e-39
-0.038686667 0.089216195 0.82900006 9.3178921e-39
-0.037197147 0.089431427 0.83100003 9.3182452e-39
-0.035700005 0.089646667 0.83300006 9.3182452e-39
-0.034195241 0.089861907 0.83500004 8.9494627e-39
-0.032682858 0.090077139 0.83700001 8.5806802e-39
-0.031162858 0.090292387 0.83900005 8.8554594e-39
-0.029635238 0.090507619 0.84100002 8.6710681e-39
-0.028100001 0.090722859 0.84300005 9.4068409e-39
-0.026557142 0.090938091 0.84500003 1.1158558e-38
-0.1247381 0.092547618 0.84500003 1.1063829e-38
-0.12312857 0.092547618 0.84500003 1.0971633e-38
-0.12151904 0.092547618 0.84500003 1.097163e-38
-0.11990952 0.092547618 0.84500003 1.097163e-38
-0.11858001 0.092766672 0.84700006 1.0696122e-38
-0.11724286 0.092985712 0.84900004 1.0603927e-38
-0.11562572 0.092985712 0.84900004 1.0145109e-38
-0.11400858 0.092985712 0.84900004 1.0145109e-38
-0.11239143 0.092985712 0.84900004 1.0054003e-38
-0.11077429 0.092985712 0.84900004 1.0883763e-38
-0.10915715 0.092985712 0.84900004 1.0791918e-38
-0.10754 0.092985712 0.84900004 1.11607e-38
-0.10567334 0.092766672 0.84700006 1.1344404e-38
-0.10307714 0.091890484 0.83900005 1.0053665e-38
-0.10099524 0.091452383 0.83500004 8.7636197e-39
-0.099166676 0.091233335 0.83300006 8.1182503e-39
-0.097580008 0.091233335 0.83300006 8.5774306e-39
-0.09599334 0.091233335 0.83300006 8.7618218e-39
-0.094179995 0.091014288 0.83100003 8.7618246e-39
-0.092374288 0.090795241 0.82900006 9.2228028e-39
-0.090795241 0.090795241 0.82900006 8.948011e-39
-0.089000955 0.090576194 0.82700002 9.0402066e-39
-0.087214291 0.090357147 0.82500005 9.3167935e-39
-0.085642859 0.090357147 0.82500005 9.5011847e-39
-0.084071428 0.090357147 0.82500005 9.4100681e-39
-0.0823 0.0901381 0.82300001 9.5944594e-39
-0.080732383 0.0901381 0.82300001 9.7777786e-39
-0.078972384 0.089919046 0.82100004 9.8699743e-39
-0.077408575 0.089919046 0.82100004 9.8699799e-39
-0.075844765 0.089919046 0.82100004 9.9621755e-39
-0.074280955 0.089919046 0.82100004 9.9625356e-39
-0.072717145 0.089919046 0.82100004 9.9625356e-39
-0.071153335 0.089919046 0.82100004 9.9639678e-39
-0.069589525 0.089919046 0.82100004 1.0148359e-38
-0.068025716 0.089919046 0.82100004 8.0268422e-39
-0.066461906 0.089919046 0.82100004 6.090734e-39
-0.064898096 0.089919046 0.82100004 5.4485525e-39
-0.063334286 0.089919046 0.82100004 4.4344006e-39
-0.061620004 0.089700006 0.81900007 5.724073e-39
-0.060060002 0.089700006 0.81900007 9.8728764e-39
-0.058642861 0.089919046 0.82100004 1.0699034e-38
-0.057079051 0.089919046 0.82100004 1.0238056e-38
-0.055515241 0.089919046 0.82100004 9.9632615e-39
-0.053951431 0.089919046 0.82100004 9.9632615e-39
-0.052387621 0.089919046 0.82100004 1.0054378e-38
-0.050947621 0.0901381 0.82300001 9.9621825e-39
-0.049500003 0.090357147 0.82500005 9.6873935e-39
-0.047928575 0.090357147 0.82500005 9.6873935e-39
-0.046357144 0.090357147 0.82500005 9.6866746e-39
-0.044894286 0.090576194 0.82700002 9.6866746e-39
-0.043319046 0.090576194 0.82700002 9.8699869e-39
-0.041743811 0.090576194 0.82700002 9.7777912e-39
-0.040265717 0.090795241 0.82900006 9.5022834e-39
-0.03878 0.091014288 0.83100003 9.3178921e-39
-0.037286669 0.091233335 0.83300006 9.2260496e-39
-0.035785716 0.091452383 0.83500004 9.2260496e-39
-0.034277145 0.09167143 0.83700001 9.1331309e-39
-0.032760955 0.091890484 0.83900005 8.856544e-39
-0.031162858 0.091890484 0.83900005 8.6714241e-39
-0.029705716 0.092328578 0.84300005 8.7636197e-39
-0.028100001 0.092328578 0.84300005 9.5908763e-39
-0.026557142 0.092547618 0.84500003 1.1158202e-38
-0.12151904 0.094157144 0.84500003 1.1155661e-38
-0.11990952 0.094157144 0.84500003 1.1247857e-38
-0.11858001 0.094380006 0.84700006 1.1063829e-38
-0.11724286 0.094602861 0.84900004 1.0787242e-38
-0.11562572 0.094602861 0.84900004 1.0419538e-38
-0.11400858 0.094602861 0.84900004 1.060393e-38
-0.11239143 0.094602861 0.84900004 1.0144756e-38
-0.11077429 0.094602861 0.84900004 1.069793e-38
-0.10915715 0.094602861 0.84900004 1.0791918e-38
-0.10754 0.094602861 0.84900004 1.11607e-38
-0.10592286 0.094602861 0.84900004 1.1437315e-38
-0.10381429 0.094157144 0.84500003 1.0238772e-38
-0.10147905 0.093488574 0.83900005 9.2253265e-39
-0.099404767 0.093042865 0.83500004 7.9345877e-39
-0.097814284 0.093042865 0.83500004 8.3926736e-39
-0.096223809 0.093042865 0.83500004 8.6692605e-39
-0.094406672 0.092820004 0.83300006 8.8540175e-39
-0.092820004 0.092820004 0.83300006 9.1306044e-39
-0.091014288 0.092597149 0.83100003 8.8558153e-39
-0.089216195 0.092374288 0.82900006 9.0402066e-39
-0.087425716 0.092151433 0.82700002 9.1334812e-39
-0.085850477 0.092151433 0.82700002 9.4100681e-39
-0.084071428 0.091928579 0.82500005 9.4100681e-39
-0.082500003 0.091928579 0.82500005 9.5944594e-39
-0.080928579 0.091928579 0.82500005 9.6855858e-39
-0.079357147 0.091928579 0.82500005 9.8699771e-39
-0.077597149 0.091705717 0.82300001 9.8699799e-39
-0.076029524 0.091705717 0.82300001 9.9621755e-39
-0.0744619 0.091705717 0.82300001 9.87034e-39
-0.072717145 0.091482863 0.82100004 1.0054731e-38
-0.071153335 0.091482863 0.82100004 1.0054731e-38
-0.069589525 0.091482863 0.82100004 1.0331318e-38
-0.068025716 0.091482863 0.82100004 9.6877662e-39
-0.066461906 0.091482863 0.82100004 6.7375061e-39
-0.064898096 0.091482863 0.82100004 5.2638109e-39
-0.063334286 0.091482863 0.82100004 6.001376e-39
-0.061770476 0.091482863 0.82100004 8.4863238e-39
-0.06020667 0.091482863 0.82100004 1.0606823e-38
-0.058785714 0.091705717 0.82300001 1.0239851e-38
-0.057218097 0.091705717 0.82300001 9.9632643e-39
-0.055650476 0.091705717 0.82300001 9.9632643e-39
-0.054082859 0.091705717 0.82300001 9.9632643e-39
-0.052515239 0.091705717 0.82300001 9.8710659e-39
-0.051071431 0.091928579 0.82500005 9.7788702e-39
-0.049500003 0.091928579 0.82500005 9.8699869e-39
-0.047928575 0.091928579 0.82500005 9.8699869e-39
-0.046357144 0.091928579 0.82500005 9.594479e-39
-0.044894286 0.092151433 0.82700002 9.594479e-39
-0.043319046 0.092151433 0.82700002 9.6866746e-39
-0.041844767 0.092374288 0.82900006 9.6866746e-39
-0.040362857 0.092597149 0.83100003 9.5022834e-39
-0.03878 0.092597149 0.83100003 9.4100877e-39
-0.037286669 0.092820004 0.83300006 9.2256965e-39
-0.035785716 0.093042865 0.83500004 9.1335008e-39
-0.034277145 0.093265712 0.83700001 9.1331309e-39
-0.032760955 0.093488574 0.83900005 8.7643484e-39
-0.031237142 0.093711428 0.84100002 8.8558153e-39
-0.029705716 0.09393429 0.84300005 8.948011e-39
-0.028166667 0.094157144 0.84500003 9.8674533e-39
-0.026745714 0.094825715 0.85100001 1.1342583e-38
-0.12019334 0.09599334 0.84700006 1.1063466e-38
-0.11858001 0.09599334 0.84700006 1.0971633e-38
-0.11696667 0.09599334 0.84700006 1.0787242e-38
-0.11562572 0.096220002 0.84900004 1.0695046e-38
-0.11400858 0.096220002 0.84900004 1.0787242e-38
-0.11239143 0.096220002 0.84900004 1.0144391e-38
-0.11077429 0.096220002 0.84900004 1.0052195e-38
-0.10915715 0.096220002 0.84900004 1.0421693e-38
-0.10754 0.096220002 0.84900004 1.0790476e-38
-0.10592286 0.096220002 0.84900004 1.0515331e-38
-0.10406001 0.09599334 0.84700006 1.0607527e-38
-0.10147905 0.095086671 0.83900005 9.8696113e-39
-0.099642858 0.094860002 0.83700001 8.0256987e-39
-0.098048575 0.094860002 0.83700001 8.2086354e-39
-0.096223809 0.094633341 0.83500004 8.6696136e-39
-0.094633341 0.094633341 0.83500004 8.6696262e-39
-0.092820004 0.094406672 0.83300006 8.9462131e-39
-0.091014288 0.094179995 0.83100003 8.670715e-39
-0.089216195 0.093953341 0.82900006 8.9473019e-39
-0.087637149 0.093953341 0.82900006 9.1324022e-39
-0.085850477 0.093726665 0.82700002 9.5011847e-39
-0.084275246 0.093726665 0.82700002 9.4100681e-39
-0.082699999 0.093726665 0.82700002 9.4100681e-39
-0.08112476 0.093726665 0.82700002 9.6848669e-39
-0.079357147 0.093500003 0.82500005 9.8692582e-39
-0.077785715 0.093500003 0.82500005 9.7777842e-39
-0.076214284 0.093500003 0.82500005 9.8699799e-39
-0.074642867 0.093500003 0.82500005 1.0054366e-38
-0.072894283 0.093273334 0.82300001 1.0054366e-38
-0.071326666 0.093273334 0.82300001 9.8699869e-39
-0.069759049 0.093273334 0.82300001 9.9621825e-39
-0.068191424 0.093273334 0.82300001 9.8717791e-39
-0.066623807 0.093273334 0.82300001 1.0148366e-38
-0.06505619 0.093273334 0.82300001 1.0147656e-38
-0.063488573 0.093273334 0.82300001 1.0332047e-38
-0.061920948 0.093273334 0.82300001 1.0607192e-38
-0.060353335 0.093273334 0.82300001 1.0422801e-38
-0.058785714 0.093273334 0.82300001 9.9632643e-39
-0.057218097 0.093273334 0.82300001 9.9632643e-39
-0.055650476 0.093273334 0.82300001 9.9632643e-39
-0.054082859 0.093273334 0.82300001 9.8710687e-39
-0.05264286 0.093500003 0.82500005 9.6873935e-39
-0.051071431 0.093500003 0.82500005 9.6873935e-39
-0.049500003 0.093500003 0.82500005 9.6866774e-39
-0.047928575 0.093500003 0.82500005 9.5944818e-39
-0.046357144 0.093500003 0.82500005 9.5944818e-39
-0.044894286 0.093726665 0.82700002 9.5022862e-39
-0.043423809 0.093953341 0.82900006 9.5022834e-39
-0.041844767 0.093953341 0.82900006 9.5022834e-39
-0.040362857 0.094179995 0.83100003 9.4104409e-39
-0.038873333 0.094406672 0.83300006 9.3182452e-39
-0.037286669 0.094406672 0.83300006 9.041308e-39
-0.035785716 0.094633341 0.83500004 8.9491124e-39
-0.034277145 0.094860002 0.83700001 8.8561881e-39
-0.032760955 0.095086671 0.83900005 8.6717968e-39
-0.031237142 0.095313333 0.84100002 8.8551063e-39
-0.029705716 0.095540009 0.84300005 9.7770626e-39
-0.028166667 0.095766664 0.84500003 1.0144759e-38
-0.026745714 0.096446671 0.85100001 1.1251107e-38
-0.11858001 0.097606674 0.84700006 1.0879437e-38
-0.11696667 0.097606674 0.84700006 1.0879437e-38
-0.11562572 0.097837143 0.84900004 1.0879072e-38
-0.11400858 0.097837143 0.84900004 1.0971267e-38
-0.11212667 0.097606674 0.84700006 1.0695399e-38
-0.11051334 0.097606674 0.84700006 1.0418812e-38
-0.10915715 0.097837143 0.84900004 9.3146299e-39
-0.10779333 0.098067619 0.85100001 9.9599993e-39
-0.10592286 0.097837143 0.84900004 9.9621573e-39
-0.10406001 0.097606674 0.84700006 9.9621573e-39
-0.10172095 0.096915238 0.84100002 9.8696113e-39
-0.099880956 0.096684769 0.83900005 8.21009e-39
-0.098048575 0.096454285 0.83700001 8.3008311e-39
-0.096454285 0.096454285 0.83700001 8.4852223e-39
-0.094633341 0.096223809 0.83500004 8.6696234e-39
-0.092820004 0.09599334 0.83300006 8.9462103e-39
-0.091233335 0.09599334 0.83300006 8.7636197e-39
-0.089646667 0.09599334 0.83300006 9.1324022e-39
-0.087637149 0.095532387 0.82900006 8.94909e-39
-0.086058103 0.095532387 0.82900006 9.3178725e-39
-0.084275246 0.095301904 0.82700002 9.3178725e-39
-0.082699999 0.095301904 0.82700002 9.4100681e-39
-0.08112476 0.095301904 0.82700002 9.7774157e-39
-0.079357147 0.095071435 0.82500005 9.961807e-39
-0.077785715 0.095071435 0.82500005 9.7777786e-39
-0.076214284 0.095071435 0.82500005 9.7777786e-39
-0.074642867 0.095071435 0.82500005 9.6870249e-39
-0.073071435 0.095071435 0.82500005 9.8714162e-39
-0.071326666 0.094840951 0.82300001 9.9628888e-39
-0.069759049 0.094840951 0.82300001 1.0055084e-38
-0.068191424 0.094840951 0.82300001 1.0239478e-38
-0.066623807 0.094840951 0.82300001 1.0516065e-38
-0.065214291 0.095071435 0.82500005 1.0607192e-38
-0.063642859 0.095071435 0.82500005 1.0607192e-38
-0.062071431 0.095071435 0.82500005 1.0423163e-38
-0.060500003 0.095071435 0.82500005 1.0238772e-38
-0.058928575 0.095071435 0.82500005 9.9632643e-39
-0.057357144 0.095071435 0.82500005 9.9632643e-39
-0.055785719 0.095071435 0.82500005 9.9632643e-39
-0.054214288 0.095071435 0.82500005 9.8710687e-39
-0.05264286 0.095071435 0.82500005 9.6873935e-39
-0.051071431 0.095071435 0.82500005 9.6873935e-39
-0.049620003 0.095301904 0.82700002 9.5951979e-39
-0.048044764 0.095301904 0.82700002 9.5951979e-39
-0.046469525 0.095301904 0.82700002 9.594479e-39
-0.045002859 0.095532387 0.82900006 9.594479e-39
-0.043423809 0.095532387 0.82900006 9.5022834e-39
-0.041945718 0.095762856 0.83100003 9.4100877e-39
-0.040362857 0.095762856 0.83100003 9.3178921e-39
-0.038873333 0.09599334 0.83300006 9.2256965e-39
-0.037376191 0.096223809 0.83500004 9.3171662e-39
-0.035785716 0.096223809 0.83500004 9.132775e-39
-0.034277145 0.096454285 0.83700001 8.9487396e-39
-0.032839045 0.096915238 0.84100002 8.3033702e-39
-0.03131143 0.097145721 0.84300005 8.5788725e-39
-0.029776191 0.09737619 0.84500003 9.961807e-39
-0.028233334 0.097606674 0.84700006 1.0421696e-38
-0.026745714 0.098067619 0.85100001 1.1067066e-38
-0.02533143 0.098874293 0.85800004 1.1342213e-38
-0.11724286 0.099454284 0.84900004 1.0971267e-38
-0.11562572 0.099454284 0.84900004 1.0879778e-38
-0.11400858 0.099454284 0.84900004 1.0879778e-38
-0.11212667 0.099220008 0.84700006 1.0695397e-38
-0.11051334 0.099220008 0.84700006 1.0695397e-38
-0.10915715 0.099454284 0.84900004 9.958207e-39
-0.10779333 0.099688575 0.85100001 9.958207e-39
-0.10617238 0.099688575 0.85100001 9.5915825e-39
-0.10430571 0.099454284 0.84900004 9.1306044e-39
-0.10220476 0.098985717 0.84500003 9.3153431e-39
-0.10011905 0.098517142 0.84100002 8.4855825e-39
-0.098282859 0.098282859 0.83900005 8.3008311e-39
-0.096454285 0.098048575 0.83700001 8.4852223e-39
-0.094633341 0.097814284 0.83500004 8.4852377e-39
-0.092820004 0.097580008 0.83300006 8.7618246e-39
-0.091233335 0.097580008 0.83300006 9.0387619e-39
-0.089646667 0.097580008 0.83300006 9.2231531e-39
-0.087848574 0.097345717 0.83100003 9.0402066e-39
-0.086058103 0.097111441 0.82900006 9.1324022e-39
-0.084275246 0.096877143 0.82700002 9.0409353e-39
-0.082699999 0.096877143 0.82700002 9.4097178e-39
-0.08112476 0.096877143 0.82700002 9.7774157e-39
-0.079549521 0.096877143 0.82700002 9.8696113e-39
-0.077785715 0.096642859 0.82500005 9.6855858e-39
-0.076214284 0.096642859 0.82500005 9.6855858e-39
-0.074642867 0.096642859 0.82500005 9.5948293e-39
-0.073071435 0.096642859 0.82500005 9.8714162e-39
-0.071500003 0.096642859 0.82500005 9.9628888e-39
-0.069928572 0.096642859 0.82500005 9.9628888e-39
-0.068357147 0.096642859 0.82500005 9.9621825e-39
-0.066785723 0.096642859 0.82500005 1.0054378e-38
-0.065214291 0.096642859 0.82500005 1.0054381e-38
-0.063642859 0.096642859 0.82500005 1.0146577e-38
-0.062071431 0.096642859 0.82500005 1.0146577e-38
-0.060500003 0.096642859 0.82500005 1.0146577e-38
-0.058928575 0.096642859 0.82500005 1.0146579e-38
-0.057357144 0.096642859 0.82500005 1.0146579e-38
-0.055785719 0.096642859 0.82500005 9.7792332e-39
-0.054214288 0.096642859 0.82500005 9.6870376e-39
-0.052770477 0.096877143 0.82700002 9.9625356e-39
-0.051195238 0.096877143 0.82700002 9.87034e-39
-0.049620003 0.096877143 0.82700002 9.6866746e-39
-0.048044764 0.096877143 0.82700002 9.594479e-39
-0.046581909 0.097111441 0.82900006 9.594479e-39
-0.045111429 0.097345717 0.83100003 9.5022834e-39
-0.043528572 0.097345717 0.83100003 9.3178949e-39
-0.04204667 0.097580008 0.83300006 9.3178949e-39
-0.040460002 0.097580008 0.83300006 9.5015575e-39
-0.038966667 0.097814284 0.83500004 9.4093619e-39
-0.037376191 0.097814284 0.83500004 9.3171662e-39
-0.035871428 0.098048575 0.83700001 9.132775e-39
-0.034359049 0.098282859 0.83900005 8.9487396e-39
-0.032839045 0.098517142 0.84100002 8.3033702e-39
-0.03131143 0.098751433 0.84300005 8.4866769e-39
-0.029846668 0.099220008 0.84700006 1.0330589e-38
-0.028300002 0.099454284 0.84900004 1.115852e-38
-0.026682859 0.099454284 0.84900004 1.1342911e-38
-0.02533143 0.10050857 0.85800004 1.1341504e-38
-0.11212667 0.10083334 0.84700006 1.0694678e-38
-0.11051334 0.10083334 0.84700006 1.0786873e-38
-0.10915715 0.10107143 0.84900004 1.0511008e-38
-0.10779333 0.10130952 0.85100001 1.0234421e-38
-0.10617238 0.10130952 0.85100001 1.0142226e-38
-0.10430571 0.10107143 0.84900004 9.8656386e-39
-0.10268857 0.10107143 0.84900004 9.2209951e-39
-0.10059524 0.10059524 0.84500003 8.8522126e-39
-0.098517142 0.10011905 0.84100002 8.6681745e-39
-0.096684769 0.099880956 0.83900005 8.6681745e-39
-0.094860002 0.099642858 0.83700001 8.5777837e-39
-0.093042865 0.099404767 0.83500004 8.762175e-39
-0.091452383 0.099404767 0.83500004 9.0384087e-39
-0.089646667 0.099166676 0.83300006 9.2228e-39
-0.088060006 0.099166676 0.83300006 9.0402066e-39
-0.086473338 0.099166676 0.83300006 9.2245979e-39
-0.084479049 0.09869048 0.82900006 9.1320463e-39
-0.082900003 0.09869048 0.82900006 9.5930244e-39
-0.081320956 0.09869048 0.82900006 9.4097122e-39
-0.079549521 0.098452382 0.82700002 9.5941034e-39
-0.077974282 0.098452382 0.82700002 9.6855858e-39
-0.076399051 0.098452382 0.82700002 9.7777814e-39
-0.074823812 0.098452382 0.82700002 9.5948293e-39
-0.073248573 0.098452382 0.82700002 9.7792206e-39
-0.071673334 0.098452382 0.82700002 9.6873879e-39
-0.069928572 0.098214291 0.82500005 9.6873879e-39
-0.068357147 0.098214291 0.82500005 1.0054731e-38
-0.066785723 0.098214291 0.82500005 1.0054731e-38
-0.065214291 0.098214291 0.82500005 1.0238409e-38
-0.063642859 0.098214291 0.82500005 1.0238409e-38
-0.062071431 0.098214291 0.82500005 1.0054378e-38
-0.060500003 0.098214291 0.82500005 1.0054378e-38
-0.058928575 0.098214291 0.82500005 1.0054381e-38
-0.057357144 0.098214291 0.82500005 1.0146577e-38
-0.055785719 0.098214291 0.82500005 9.6873935e-39
-0.054214288 0.098214291 0.82500005 9.6873935e-39
-0.052770477 0.098452382 0.82700002 9.6873935e-39
-0.051195238 0.098452382 0.82700002 9.6873935e-39
-0.049620003 0.098452382 0.82700002 9.5951979e-39
-0.048044764 0.098452382 0.82700002 9.5951979e-39
-0.046581909 0.09869048 0.82900006 9.5030022e-39
-0.045111429 0.098928571 0.83100003 9.4108066e-39
-0.043633334 0.099166676 0.83300006 9.4100877e-39
-0.04204667 0.099166676 0.83300006 9.3178921e-39
-0.040557146 0.099404767 0.83500004 9.4090087e-39
-0.038966667 0.099404767 0.83500004 9.3168131e-39
-0.037465714 0.099642858 0.83700001 9.132775e-39
-0.035957143 0.099880956 0.83900005 8.9483837e-39
-0.034440953 0.10011905 0.84100002 8.9473019e-39
-0.032917146 0.10035715 0.84300005 8.5785194e-39
-0.03131143 0.10035715 0.84300005 8.7614715e-39
-0.029846668 0.10083334 0.84700006 1.0881971e-38
-0.028300002 0.10107143 0.84900004 1.1342208e-38
-0.026682859 0.10107143 0.84900004 1.1342208e-38
-0.10617238 0.10293048 0.85100001 1.0326617e-38
-0.10455143 0.10293048 0.85100001 1.0326617e-38
-0.10293048 0.10293048 0.85100001 9.9578315e-39
-0.10083334 0.10244668 0.84700006 9.589049e-39
-0.098751433 0.10196286 0.84300005 8.7614561e-39
-0.096684769 0.10147905 0.83900005 8.5770648e-39
-0.094860002 0.10123715 0.83700001 8.5777837e-39
-0.093042865 0.10099524 0.83500004 8.762175e-39
-0.091452383 0.10099524 0.83500004 8.7618218e-39
-0.089861907 0.10099524 0.83500004 9.0384087e-39
-0.088271432 0.10099524 0.83500004 8.8554594e-39
-0.086473338 0.10075334 0.83300006 9.1320463e-39
-0.08488667 0.10075334 0.83300006 9.1320463e-39
-0.083100006 0.10051143 0.83100003 9.3164376e-39
-0.081320956 0.10026953 0.82900006 9.5008288e-39
-0.07974191 0.10026953 0.82900006 9.5930244e-39
-0.077974282 0.10002762 0.82700002 9.5019134e-39
-0.076399051 0.10002762 0.82700002 9.594109e-39
-0.074823812 0.10002762 0.82700002 9.5026337e-39
-0.073248573 0.10002762 0.82700002 9.5948293e-39
-0.071673334 0.10002762 0.82700002 9.9628888e-39
-0.070098102 0.10002762 0.82700002 9.9628888e-39
-0.068522863 0.10002762 0.82700002 9.6873935e-39
-0.066947617 0.10002762 0.82700002 9.7795891e-39
-0.065372378 0.10002762 0.82700002 1.0054381e-38
-0.063642859 0.099785723 0.82500005 1.0146577e-38
-0.062071431 0.099785723 0.82500005 1.0146574e-38
-0.060500003 0.099785723 0.82500005 1.0054378e-38
-0.058928575 0.099785723 0.82500005 9.9632643e-39
-0.057357144 0.099785723 0.82500005 9.9632643e-39
-0.055920955 0.10002762 0.82700002 9.871419e-39
-0.054345712 0.10002762 0.82700002 9.6870277e-39
-0.052770477 0.10002762 0.82700002 9.594479e-39
-0.051195238 0.10002762 0.82700002 9.594479e-39
-0.049620003 0.10002762 0.82700002 9.5948321e-39
-0.048160955 0.10026953 0.82900006 9.5948321e-39
-0.04669429 0.10051143 0.83100003 9.5022834e-39
-0.045220003 0.10075334 0.83300006 9.4100877e-39
-0.043738097 0.10099524 0.83500004 9.3178921e-39
-0.042147618 0.10099524 0.83500004 9.2256965e-39
-0.040557146 0.10099524 0.83500004 9.4090087e-39
-0.03906 0.10123715 0.83700001 9.1324218e-39
-0.03755524 0.10147905 0.83900005 9.132775e-39
-0.036042858 0.10172095 0.84100002 8.9483837e-39
-0.034522858 0.10196286 0.84300005 8.6721527e-39
-0.032917146 0.10196286 0.84300005 8.3955659e-39
-0.031385716 0.10220476 0.84500003 9.1298981e-39
-0.029917145 0.10268857 0.84900004 1.1066006e-38
-0.028300002 0.10268857 0.84900004 1.1250012e-38
-0.10083334 0.10406001 0.84700006 9.9578315e-39
-0.098751433 0.10356858 0.84300005 9.0366039e-39
-0.096915238 0.10332286 0.84100002 8.8522126e-39
-0.094860002 0.10283143 0.83700001 8.577418e-39
-0.093265712 0.10283143 0.83700001 8.7618092e-39
-0.09167143 0.10283143 0.83700001 8.762175e-39
-0.089861907 0.10258572 0.83500004 9.0387619e-39
-0.088271432 0.10258572 0.83500004 8.948011e-39
-0.086680956 0.10258572 0.83500004 9.3167935e-39
-0.08488667 0.10234001 0.83300006 9.1334812e-39
-0.083300002 0.10234001 0.83300006 9.2256769e-39
-0.081517145 0.10209429 0.83100003 9.3175166e-39
-0.079934284 0.10209429 0.83100003 9.4097122e-39
-0.078162864 0.10184858 0.82900006 9.5019134e-39
-0.07658381 0.10184858 0.82900006 9.594109e-39
-0.075004764 0.10184858 0.82900006 9.5948293e-39
-0.073248573 0.10160286 0.82700002 9.6870249e-39
-0.071673334 0.10160286 0.82700002 9.5955482e-39
-0.070098102 0.10160286 0.82700002 9.6877438e-39
-0.068522863 0.10160286 0.82700002 9.9625356e-39
-0.066947617 0.10160286 0.82700002 1.0054731e-38
-0.065372378 0.10160286 0.82700002 9.8710659e-39
-0.063797139 0.10160286 0.82700002 9.8710659e-39
-0.062221903 0.10160286 0.82700002 9.9632615e-39
-0.060646668 0.10160286 0.82700002 9.9632615e-39
-0.059071429 0.10160286 0.82700002 9.9632615e-39
-0.057496194 0.10160286 0.82700002 9.9632615e-39
-0.055920955 0.10160286 0.82700002 9.595558e-39
-0.054345712 0.10160286 0.82700002 9.5033624e-39
-0.052770477 0.10160286 0.82700002 9.5030022e-39
-0.051319048 0.10184858 0.82900006 9.5951979e-39
-0.049740005 0.10184858 0.82900006 9.594479e-39
-0.048277143 0.10209429 0.83100003 9.594479e-39
-0.046806671 0.10234001 0.83300006 9.5022862e-39
-0.045328572 0.10258572 0.83500004 9.4100905e-39
-0.043738097 0.10258572 0.83500004 9.3178921e-39
-0.042147618 0.10258572 0.83500004 9.3178921e-39
-0.040654287 0.10283143 0.83700001 9.133854e-39
-0.03906 0.10283143 0.83700001 9.133854e-39
-0.03755524 0.10307714 0.83900005 8.9494627e-39
-0.036128573 0.10356858 0.84300005 8.4884846e-39
-0.034522858 0.10356858 0.84300005 8.8551063e-39
-0.032995239 0.10381429 0.84500003 8.5785194e-39
-0.031460002 0.10406001 0.84700006 8.8547588e-39
-0.029917145 0.10430571 0.84900004 1.0883063e-38
-0.028366666 0.10455143 0.85100001 1.1342211e-38
-0.10083334 0.10567334 0.84700006 1.0326614e-38
-0.099220008 0.10567334 0.84700006 9.6823264e-39
-0.09737619 0.10542382 0.84500003 8.7603701e-39
-0.095313333 0.10492477 0.84100002 8.3008283e-39
-0.093265712 0.10442571 0.83700001 8.4852195e-39
-0.09167143 0.10442571 0.83700001 8.5774278e-39
-0.090077139 0.10442571 0.83700001 9.0384059e-39
-0.088271432 0.10417619 0.83500004 8.9480054e-39
-0.086680956 0.10417619 0.83500004 9.2245922e-39
-0.085090473 0.10417619 0.83500004 9.3167879e-39
-0.083300002 0.10392667 0.83300006 9.3167879e-39
-0.081517145 0.10367715 0.83100003 9.3164376e-39
-0.079934284 0.10367715 0.83100003 9.5008288e-39
-0.078162864 0.10342763 0.82900006 9.4097178e-39
-0.07658381 0.10342763 0.82900006 9.594109e-39
-0.075004764 0.10342763 0.82900006 9.7777786e-39
-0.073425718 0.10342763 0.82900006 9.8699743e-39
-0.071846671 0.10342763 0.82900006 9.6873809e-39
-0.070267625 0.10342763 0.82900006 9.7795765e-39
-0.068688571 0.10342763 0.82900006 9.6873935e-39
-0.067109525 0.10342763 0.82900006 9.7795891e-39
-0.065530479 0.10342763 0.82900006 1.0054378e-38
-0.063797139 0.1031781 0.82700002 1.0054378e-38
-0.062221903 0.1031781 0.82700002 1.0054378e-38
-0.060646668 0.1031781 0.82700002 1.0146574e-38
-0.059071429 0.1031781 0.82700002 1.0054378e-38
-0.057496194 0.1031781 0.82700002 1.0054378e-38
-0.056056194 0.10342763 0.82900006 9.6873935e-39
-0.054477148 0.10342763 0.82900006 9.5951979e-39
-0.052898098 0.10342763 0.82900006 9.5944818e-39
-0.051442858 0.10367715 0.83100003 9.6866774e-39
-0.049860001 0.10367715 0.83100003 9.594479e-39
-0.048393335 0.10392667 0.83300006 9.594479e-39
-0.046919052 0.10417619 0.83500004 9.5944818e-39
-0.045328572 0.10417619 0.83500004 9.4100905e-39
-0.043738097 0.10417619 0.83500004 9.3178921e-39
-0.042248569 0.10442571 0.83700001 9.3178921e-39
-0.040751431 0.10467524 0.83900005 9.2260496e-39
-0.039153337 0.10467524 0.83900005 9.0416583e-39
-0.037644763 0.10492477 0.84100002 9.0405793e-39
-0.036128573 0.10517429 0.84300005 8.8561881e-39
-0.034604765 0.10542382 0.84500003 8.6721527e-39
-0.033073336 0.10567334 0.84700006 8.6721527e-39
-0.031534284 0.10592286 0.84900004 9.1313456e-39
-0.029917145 0.10592286 0.84900004 1.0790867e-38
-0.028366666 0.10617238 0.85100001 1.1157469e-38
-0.099220008 0.10728668 0.84700006 9.6837655e-39
-0.097606674 0.10728668 0.84700006 8.9462005e-39
-0.095540009 0.10678001 0.84300005 8.2082823e-39
-0.093711428 0.10652667 0.84100002 8.3004779e-39
-0.092109524 0.10652667 0.84100002 8.8540049e-39
-0.090292387 0.10627334 0.83900005 9.1305917e-39
-0.088482857 0.10602 0.83700001 8.8558097e-39
-0.086680956 0.10576668 0.83500004 9.040201e-39
-0.085090473 0.10576668 0.83500004 9.2245979e-39
-0.083300002 0.10551334 0.83300006 9.3167935e-39
-0.081713334 0.10551334 0.83300006 9.3175166e-39
-0.080126666 0.10551334 0.83300006 9.4097122e-39
-0.078351431 0.10526 0.83100003 9.5019078e-39
-0.07676857 0.10526 0.83100003 9.5941034e-39
-0.075185716 0.10526 0.83100003 9.7777786e-39
-0.073602863 0.10526 0.83100003 9.8699743e-39
-0.072020002 0.10526 0.83100003 9.6870277e-39
-0.070437141 0.10526 0.83100003 9.7792234e-39
-0.068688571 0.10500667 0.82900006 9.9625356e-39
-0.067109525 0.10500667 0.82900006 9.9625356e-39
-0.065530479 0.10500667 0.82900006 1.0054378e-38
-0.063951433 0.10500667 0.82900006 1.0054378e-38
-0.062372386 0.10500667 0.82900006 1.0054378e-38
-0.060793336 0.10500667 0.82900006 1.0238769e-38
-0.059214287 0.10500667 0.82900006 1.0054378e-38
-0.057635244 0.10500667 0.82900006 1.0054378e-38
-0.056056194 0.10500667 0.82900006 9.9621825e-39
-0.054608572 0.10526 0.83100003 9.8699869e-39
-0.053025715 0.10526 0.83100003 9.594479e-39
-0.051566672 0.10551334 0.83300006 9.594479e-39
-0.049980003 0.10551334 0.83300006 9.5948321e-39
-0.048393335 0.10551334 0.83300006 9.5948321e-39
-0.046919052 0.10576668 0.83500004 9.5022834e-39
-0.045437142 0.10602 0.83700001 9.4100877e-39
-0.043842856 0.10602 0.83700001 9.3178921e-39
-0.042349525 0.10627334 0.83900005 9.3178921e-39
-0.040848572 0.10652667 0.84100002 9.1335008e-39
-0.039246667 0.10652667 0.84100002 9.0413052e-39
-0.037734289 0.10678001 0.84300005 9.1331309e-39
-0.036214288 0.10703333 0.84500003 8.6721527e-39
-0.034686666 0.10728668 0.84700006 8.7629106e-39
-0.033073336 0.10728668 0.84700006 8.8551063e-39
-0.031534284 0.10754 0.84900004 9.4990366e-39
-0.029917145 0.10754 0.84900004 1.1066362e-38
-0.028366666 0.10779333 0.85100001 1.0973804e-38
-0.09599334 0.10890001 0.84700006 8.392689e-39
-0.094157144 0.10864286 0.84500003 8.2082977e-39
-0.092328578 0.10838572 0.84300005 8.5774278e-39
-0.090507619 0.10812858 0.84100002 8.9462103e-39
-0.088694289 0.10787144 0.83900005 8.7636141e-39
-0.086888574 0.10761429 0.83700001 8.8558097e-39
-0.085294284 0.10761429 0.83700001 9.0398507e-39
-0.083500005 0.10735714 0.83500004 9.3164376e-39
-0.081713334 0.10710001 0.83300006 9.5011847e-39
-0.080126666 0.10710001 0.83300006 9.5933804e-39
-0.078540005 0.10710001 0.83300006 9.5019134e-39
-0.076953337 0.10710001 0.83300006 9.594109e-39
-0.075366676 0.10710001 0.83300006 9.6855886e-39
-0.073780008 0.10710001 0.83300006 9.7777842e-39
-0.072020002 0.10684286 0.83100003 9.5948321e-39
-0.070437141 0.10684286 0.83100003 9.6870277e-39
-0.068854287 0.10684286 0.83100003 9.5951923e-39
-0.067271426 0.10684286 0.83100003 9.6873879e-39
-0.065688573 0.10684286 0.83100003 9.9621825e-39
-0.064105719 0.10684286 0.83100003 9.9621825e-39
-0.062522858 0.10684286 0.83100003 1.0054378e-38
-0.060940001 0.10684286 0.83100003 1.0054378e-38
-0.059357144 0.10684286 0.83100003 1.0054378e-38
-0.057774287 0.10684286 0.83100003 9.9621825e-39
-0.056191429 0.10684286 0.83100003 1.0054378e-38
-0.054740004 0.10710001 0.83300006 9.8699869e-39
-0.053153336 0.10710001 0.83300006 9.594479e-39
-0.051566672 0.10710001 0.83300006 9.6866746e-39
-0.049980003 0.10710001 0.83300006 9.5948293e-39
-0.048509523 0.10735714 0.83500004 9.5026337e-39
-0.046919052 0.10735714 0.83500004 9.410794e-39
-0.045437142 0.10761429 0.83700001 9.3185984e-39
-0.043947622 0.10787144 0.83900005 9.3178921e-39
-0.042450476 0.10812858 0.84100002 9.2256965e-39
-0.040945716 0.10838572 0.84300005 9.0409521e-39
-0.039340001 0.10838572 0.84300005 8.9487565e-39
-0.037734289 0.10838572 0.84300005 9.1331253e-39
-0.036214288 0.10864286 0.84500003 8.6721471e-39
-0.034686666 0.10890001 0.84700006 8.7629134e-39
-0.033151429 0.10915715 0.84900004 9.131696e-39
-0.03160857 0.10941429 0.85100001 9.5908763e-39
-0.029987618 0.10941429 0.85100001 1.1158202e-38
-0.096220002 0.11077429 0.84900004 8.7618218e-39
-0.094380006 0.11051334 0.84700006 8.2086481e-39
-0.092547618 0.11025239 0.84500003 8.3933924e-39
-0.090722859 0.10999143 0.84300005 8.762175e-39
-0.088905722 0.10973047 0.84100002 8.7636141e-39
-0.087096192 0.10946953 0.83900005 8.8558097e-39
-0.085498095 0.10946953 0.83900005 9.0402066e-39
-0.083700001 0.10920857 0.83700001 9.3167935e-39
-0.08190953 0.10894762 0.83500004 9.3175166e-39
-0.080319054 0.10894762 0.83500004 9.3175166e-39
-0.078728572 0.10894762 0.83500004 9.4097178e-39
-0.076953337 0.10868668 0.83300006 9.594109e-39
-0.075366676 0.10868668 0.83300006 9.4104409e-39
-0.073780008 0.10868668 0.83300006 9.5026365e-39
-0.072193339 0.10868668 0.83300006 9.5026365e-39
-0.070437141 0.10842572 0.83100003 9.5948321e-39
-0.068854287 0.10842572 0.83100003 9.5951923e-39
-0.067271426 0.10842572 0.83100003 9.6873879e-39
-0.065688573 0.10842572 0.83100003 9.6873879e-39
-0.064105719 0.10842572 0.83100003 9.7795835e-39
-0.062522858 0.10842572 0.83100003 9.8710659e-39
-0.060940001 0.10842572 0.83100003 9.8710659e-39
-0.059357144 0.10842572 0.83100003 9.9621825e-39
-0.057774287 0.10842572 0.83100003 9.9621825e-39
-0.056191429 0.10842572 0.83100003 9.9621825e-39
-0.054740004 0.10868668 0.83300006 9.8699869e-39
-0.053153336 0.10868668 0.83300006 9.6866746e-39
-0.051690478 0.10894762 0.83500004 9.6866746e-39
-0.050100002 0.10894762 0.83500004 9.5029966e-39
-0.048509523 0.10894762 0.83500004 9.5029966e-39
-0.047031429 0.10920857 0.83700001 9.3189613e-39
-0.045545716 0.10946953 0.83900005 9.3189613e-39
-0.044052381 0.10973047 0.84100002 9.2264153e-39
-0.042450476 0.10973047 0.84100002 9.2264153e-39
-0.040945716 0.10999143 0.84300005 8.9501886e-39
-0.039340001 0.10999143 0.84300005 8.6736017e-39
-0.037823807 0.11025239 0.84500003 9.2242419e-39
-0.036214288 0.11025239 0.84500003 8.5788725e-39
-0.034686666 0.11051334 0.84700006 8.6689101e-39
-0.033151429 0.11077429 0.84900004 9.8674533e-39
-0.03160857 0.11103524 0.85100001 1.0328797e-38
-0.029987618 0.11103524 0.85100001 1.1158558e-38
-0.096220002 0.11239143 0.84900004 9.6837627e-39
-0.094602861 0.11239143 0.84900004 8.3930239e-39
-0.092547618 0.11186191 0.84500003 8.3930365e-39
-0.090938091 0.11186191 0.84500003 8.6696234e-39
-0.089117147 0.11159715 0.84300005 8.761819e-39
