# .PCD v0.7 - Point Cloud Data file format
VERSION 0.7
FIELDS x y z rgb
SIZE 4 4 4 4
TYPE F F F F
COUNT 1 1 1 1
WIDTH 985
HEIGHT 1
VIEWPOINT 0 0 0 1 0 0 0
POINTS 985
DATA ascii
-0.096211433 0.076840006 0.67800003 9.8674631e-39
-0.18928857 0.078707621 0.68300003 1.244641e-38
-0.18385907 0.076979049 0.66800004 9.3117586e-39
-0.18231335 0.076863818 0.66700006 8.1196544e-39
-0.18104286 0.076863818 0.66700006 1.2360653e-38
-0.18004191 0.076979049 0.66800004 1.3003238e-38
-0.17876953 0.076979049 0.66800004 6.5495443e-39
-0.17749715 0.076979049 0.66800004 4.7974448e-39
-0.17622477 0.076979049 0.66800004 6.3647705e-39
-0.18490477 0.081358097 0.70600003 7.3753001e-39
-0.18356 0.081358097 0.70600003 7.5596913e-39
-0.18221524 0.081358097 0.70600003 7.5600445e-39
-0.18112667 0.081473336 0.70700002 7.7444357e-39
-0.17977999 0.081473336 0.70700002 7.7444357e-39
-0.17868571 0.081588566 0.708 7.7444357e-39
-0.17808858 0.081934288 0.71100003 7.8362782e-39
-0.17748001 0.082280003 0.71400005 7.8362782e-39
-0.17661333 0.082510479 0.71600002 7.9284738e-39
-0.17549428 0.082625717 0.71700001 8.0206695e-39
-0.17412858 0.082625717 0.71700001 8.1128651e-39
-0.17324477 0.082856201 0.71900004 8.2050607e-39
-0.17211428 0.082971431 0.72000003 8.2050607e-39
-0.17121716 0.083201908 0.72200006 8.2972564e-39
-0.17007715 0.083317153 0.72300005 8.2972564e-39
-0.16916667 0.083547622 0.72500002 8.389452e-39
-0.16778572 0.083547622 0.72500002 8.2061425e-39
-0.16686383 0.083778106 0.72700006 8.2983382e-39
-0.16570666 0.083893336 0.72800004 8.2983382e-39
-0.16432001 0.083893336 0.72800004 8.2983382e-39
-0.16338095 0.084123813 0.73000002 8.2983382e-39
-0.16221237 0.084239051 0.73100001 8.2061425e-39
-0.16126001 0.084469534 0.73300004 8.3905338e-39
-0.15986381 0.084469534 0.73300004 8.2983382e-39
-0.15846762 0.084469534 0.73300004 8.3905338e-39
-0.15707143 0.084469534 0.73300004 8.3905338e-39
-0.15567525 0.084469534 0.73300004 8.4827294e-39
-0.15448953 0.084584765 0.73400003 8.4827294e-39
-0.15309143 0.084584765 0.73400003 8.5749251e-39
-0.15210667 0.084815241 0.73600006 8.5749251e-39
-0.15070479 0.084815241 0.73600006 8.5749251e-39
-0.14970857 0.085045718 0.73800004 8.5749251e-39
-0.14830285 0.085045718 0.73800004 8.5749251e-39
-0.14689715 0.085045718 0.73800004 8.4827294e-39
-0.14549144 0.085045718 0.73800004 8.4820204e-39
-0.14408572 0.085045718 0.73800004 8.4820204e-39
-0.14268 0.085045718 0.73800004 8.4820204e-39
-0.1412743 0.085045718 0.73800004 8.4820204e-39
-0.13948955 0.084815241 0.73600006 8.4820204e-39
-0.13808762 0.084815241 0.73600006 8.4820204e-39
-0.13668573 0.084815241 0.73600006 8.4827294e-39
-0.13528381 0.084815241 0.73600006 8.4827294e-39
-0.1335181 0.084584765 0.73400003 8.3898247e-39
-0.13212 0.084584765 0.73400003 8.3898247e-39
-0.13072191 0.084584765 0.73400003 8.2983382e-39
-0.12932381 0.084584765 0.73400003 8.2061425e-39
-0.12792572 0.084584765 0.73400003 8.2054335e-39
-0.12652762 0.084584765 0.73400003 8.1132378e-39
-0.12495904 0.084469534 0.73300004 8.296197e-39
-0.12356286 0.084469534 0.73300004 8.2040014e-39
-0.12216667 0.084469534 0.73300004 8.1128651e-39
-0.12044095 0.084239051 0.73100001 8.1128651e-39
-0.11888572 0.084123813 0.73000002 7.5611235e-39
-0.11701239 0.083778106 0.72700006 7.4689278e-39
-0.11530953 0.083547622 0.72500002 8.0210422e-39
-0.10497144 0.076979049 0.66800004 9.311781e-39
-0.10369906 0.076979049 0.66800004 1.1154952e-38
-0.10242667 0.076979049 0.66800004 1.1984713e-38
-0.10160857 0.077324763 0.671 1.115857e-38
-0.10077905 0.077670477 0.67400002 1.0605397e-38
-0.09949524 0.077670477 0.67400002 1.0054366e-38
-0.098357141 0.077785715 0.67500001 9.685583e-39
-0.097071432 0.077785715 0.67500001 1.0051854e-38
-0.095785715 0.077785715 0.67500001 9.7752675e-39
-0.18624002 0.078720003 0.67200005 1.2538606e-38
-0.18385907 0.078251429 0.66800004 9.219563e-39
-0.18231335 0.078134291 0.66700006 8.3018975e-39
-0.18104286 0.078134291 0.66700006 1.2081918e-38
-0.17977239 0.078134291 0.66700006 1.3369478e-38
-0.17850192 0.078134291 0.66700006 1.0603609e-38
-0.17723145 0.078134291 0.66700006 6.3644496e-39
-0.17596097 0.078134291 0.66700006 4.6127326e-39
-0.18438096 0.082468584 0.70400006 5.4424386e-39
-0.18304001 0.082468584 0.70400006 6.5487862e-39
-0.18221524 0.08270286 0.70600003 7.4667768e-39
-0.18112667 0.082819998 0.70700002 7.5589725e-39
-0.18003428 0.082937144 0.708 7.5596913e-39
-0.17868571 0.082937144 0.708 7.651887e-39
-0.17808858 0.083288573 0.71100003 7.7440826e-39
-0.17748001 0.083640002 0.71400005 7.7440826e-39
-0.17661333 0.083874285 0.71600002 7.7437267e-39
-0.17549428 0.083991431 0.71700001 7.9281179e-39
-0.17412858 0.083991431 0.71700001 7.9281179e-39
-0.17324477 0.084225714 0.71900004 8.0203135e-39
-0.17211428 0.08434286 0.72000003 8.0203135e-39
-0.1714543 0.084694296 0.72300005 8.1125092e-39
-0.17007715 0.084694296 0.72300005 8.2050607e-39
-0.16916667 0.084928572 0.72500002 8.2050607e-39
-0.16824858 0.085162863 0.72700006 8.0217513e-39
-0.16709335 0.085280009 0.72800004 8.0217513e-39
-0.16570666 0.085280009 0.72800004 8.0217513e-39
-0.16432001 0.085280009 0.72800004 8.0217513e-39
-0.16338095 0.085514285 0.73000002 8.0217513e-39
-0.16221237 0.08563143 0.73100001 8.2061425e-39
-0.16126001 0.085865714 0.73300004 8.2054335e-39
-0.15986381 0.085865714 0.73300004 8.2054335e-39
-0.15846762 0.085865714 0.73300004 8.2983382e-39
-0.15707143 0.085865714 0.73300004 8.2983382e-39
-0.15567525 0.085865714 0.73300004 8.3905338e-39
-0.15448953 0.085982859 0.73400003 8.3905338e-39
-0.15350859 0.08621715 0.73600006 8.3905338e-39
-0.15252002 0.086451426 0.73800004 8.3905338e-39
-0.1511143 0.086451426 0.73800004 8.3905338e-39
-0.14970857 0.086451426 0.73800004 8.3905338e-39
-0.14830285 0.086451426 0.73800004 8.3905338e-39
-0.14689715 0.086451426 0.73800004 8.3905338e-39
-0.14568858 0.086568572 0.73900002 8.3905338e-39
-0.14408572 0.086451426 0.73800004 8.3905338e-39
-0.14268 0.086451426 0.73800004 8.3905338e-39
-0.1412743 0.086451426 0.73800004 8.3905338e-39
-0.13986857 0.086451426 0.73800004 8.3898247e-39
-0.13846286 0.086451426 0.73800004 8.3898247e-39
-0.13668573 0.08621715 0.73600006 8.3905338e-39
-0.13528381 0.08621715 0.73600006 8.2983382e-39
-0.1335181 0.085982859 0.73400003 8.2983382e-39
-0.13212 0.085982859 0.73400003 8.2983382e-39
-0.13054383 0.085865714 0.73300004 8.2983382e-39
-0.12914763 0.085865714 0.73300004 8.2061425e-39
-0.12775144 0.085865714 0.73300004 7.9288466e-39
-0.12635525 0.085865714 0.73300004 7.836651e-39
-0.12495904 0.085865714 0.73300004 7.8366566e-39
-0.12356286 0.085865714 0.73300004 7.467874e-39
-0.12183333 0.08563143 0.73100001 7.1919878e-39
-0.12044095 0.08563143 0.73100001 8.0217485e-39
-0.11888572 0.085514285 0.73000002 8.8529132e-39
-0.11749524 0.085514285 0.73000002 1.0512435e-38
-0.10592572 0.078017138 0.66600001 1.1802838e-38
-0.10465714 0.078017138 0.66600001 1.1802838e-38
-0.10354382 0.078134291 0.66700006 1.134223e-38
-0.10242667 0.078251429 0.66800004 1.1065643e-38
-0.10145715 0.07848572 0.67000002 1.0606463e-38
-0.10048001 0.078720003 0.67200005 1.0422072e-38
-0.09949524 0.078954287 0.67400002 1.0146561e-38
-0.098357141 0.079071432 0.67500001 9.8699743e-39
-0.097071432 0.079071432 0.67500001 9.6848669e-39
-0.095785715 0.079071432 0.67500001 9.5004757e-39
-0.18752001 0.080000006 0.67200005 1.235494e-38
-0.18624002 0.080000006 0.67200005 1.2815195e-38
-0.18385907 0.079523817 0.66800004 9.6805439e-39
-0.18231335 0.079404771 0.66700006 8.2965151e-39
-0.18104286 0.079404771 0.66700006 1.1062384e-38
-0.17977239 0.079404771 0.66700006 1.3368344e-38
-0.17850192 0.079404771 0.66700006 1.2630779e-38
-0.17696571 0.079285711 0.66600001 9.3139909e-39
-0.17569715 0.079285711 0.66600001 5.9949482e-39
-0.18438096 0.083809532 0.70400006 4.6130591e-39
-0.18304001 0.083809532 0.70400006 5.7194067e-39
-0.18221524 0.084047616 0.70600003 7.1905431e-39
-0.18112667 0.084166668 0.70700002 7.3749343e-39
-0.18003428 0.084285714 0.708 7.4667768e-39
-0.17919049 0.084523819 0.71000004 7.5589725e-39
-0.17858954 0.084880956 0.71300006 7.5596913e-39
-0.17748001 0.085000008 0.71400005 7.651887e-39
-0.17661333 0.085238092 0.71600002 7.651531e-39
-0.17549428 0.085357144 0.71700001 7.8359223e-39
-0.17412858 0.085357144 0.71700001 7.8362782e-39
-0.17324477 0.085595243 0.71900004 7.8362782e-39
-0.17259239 0.085952386 0.72200006 7.9284738e-39
-0.1714543 0.086071432 0.72300005 8.0206695e-39
-0.17007715 0.086071432 0.72300005 8.1128651e-39
-0.16916667 0.086309522 0.72500002 8.1128651e-39
-0.16778572 0.086309522 0.72500002 7.9295528e-39
-0.16709335 0.086666673 0.72800004 7.9295528e-39
-0.16570666 0.086666673 0.72800004 7.9295556e-39
-0.16432001 0.086666673 0.72800004 8.0217513e-39
-0.16360477 0.08702381 0.73100001 8.0217513e-39
-0.16221237 0.08702381 0.73100001 8.0217513e-39
-0.16126001 0.087261908 0.73300004 8.1139469e-39
-0.15986381 0.087261908 0.73300004 8.2061425e-39
-0.15846762 0.087261908 0.73300004 8.2061425e-39
-0.15728572 0.087380953 0.73400003 8.2061425e-39
-0.15588762 0.087380953 0.73400003 8.1139469e-39
-0.15491048 0.087619051 0.73600006 8.2061425e-39
-0.15350859 0.087619051 0.73600006 8.2983382e-39
-0.15252002 0.08785715 0.73800004 8.2983382e-39
-0.1511143 0.08785715 0.73800004 8.2983382e-39
-0.14991142 0.087976187 0.73900002 8.2983382e-39
-0.14850381 0.087976187 0.73900002 8.2976291e-39
-0.14709619 0.087976187 0.73900002 8.2054335e-39
-0.14568858 0.087976187 0.73900002 8.2061425e-39
-0.14428096 0.087976187 0.73900002 8.2061425e-39
-0.14287333 0.087976187 0.73900002 8.2054335e-39
-0.14146571 0.087976187 0.73900002 8.2054335e-39
-0.13986857 0.08785715 0.73800004 8.2054335e-39
-0.13846286 0.08785715 0.73800004 8.2054335e-39
-0.13668573 0.087619051 0.73600006 8.2061425e-39
-0.13528381 0.087619051 0.73600006 8.2061425e-39
-0.1335181 0.087380953 0.73400003 8.2054391e-39
-0.13212 0.087380953 0.73400003 8.2054391e-39
-0.13054383 0.087261908 0.73300004 8.1132378e-39
-0.12914763 0.087261908 0.73300004 8.0210422e-39
-0.12775144 0.087261908 0.73300004 7.7444553e-39
-0.11342667 0.078333341 0.65800005 7.5600641e-39
-0.11217334 0.078333341 0.65800005 7.4689278e-39
-0.12356286 0.087261908 0.73300004 7.5611235e-39
-0.12183333 0.08702381 0.73100001 7.7451644e-39
-0.12044095 0.08702381 0.73100001 8.4827294e-39
-0.10797429 0.078928575 0.66300005 1.0233715e-38
-0.10671143 0.078928575 0.66300005 1.1616649e-38
-0.10544858 0.078928575 0.66300005 1.1435518e-38
-0.10434286 0.079047628 0.66400003 1.1066735e-38
-0.10354382 0.079404771 0.66700006 1.0699387e-38
-0.10227334 0.079404771 0.66700006 1.0514996e-38
-0.10145715 0.079761907 0.67000002 1.0422082e-38
-0.10048001 0.080000006 0.67200005 1.0329886e-38
-0.09920001 0.080000006 0.67200005 1.0146564e-38
-0.09821143 0.080238096 0.67400002 9.9621727e-39
-0.097071432 0.080357142 0.67500001 9.7770654e-39
-0.095785715 0.080357142 0.67500001 9.4082829e-39
-0.18752001 0.081280008 0.67200005 1.2263101e-38
-0.18596286 0.081159048 0.671 1.2539687e-38
-0.18385907 0.080796197 0.66800004 1.0603579e-38
-0.18231335 0.080675244 0.66700006 7.9306445e-39
-0.18104286 0.080675244 0.66700006 5.6257537e-39
-0.17977239 0.080675244 0.66700006 9.6826095e-39
-0.17850192 0.080675244 0.66700006 1.4015804e-38
-0.17696571 0.080554284 0.66600001 1.3918715e-38
-0.17569715 0.080554284 0.66600001 1.1613824e-38
-0.17442858 0.080554284 0.66600001 8.2990865e-39
-0.18356 0.085392386 0.70600003 4.7034569e-39
-0.18221524 0.085392386 0.70600003 4.7066589e-39
-0.18112667 0.085513331 0.70700002 5.9973977e-39
-0.18054286 0.085876197 0.71000004 7.1905529e-39
-0.17944287 0.085997149 0.71100003 7.3749441e-39
-0.17858954 0.086239055 0.71300006 7.4667768e-39
-0.17748001 0.086360008 0.71400005 7.5589725e-39
-0.17661333 0.086601906 0.71600002 7.4674957e-39
-0.17549428 0.086722851 0.71700001 7.651887e-39
-0.17412858 0.086722851 0.71700001 7.651531e-39
-0.17324477 0.086964764 0.71900004 7.7437267e-39
-0.17259239 0.087327629 0.72200006 7.8362782e-39
-0.1714543 0.087448575 0.72300005 7.8362782e-39
-0.17007715 0.087448575 0.72300005 7.9284738e-39
-0.16916667 0.08769048 0.72500002 7.9284738e-39
-0.16778572 0.08769048 0.72500002 7.7451616e-39
-0.16709335 0.088053338 0.72800004 7.7451616e-39
-0.16616191 0.088295236 0.73000002 7.83736e-39
-0.16477144 0.088295236 0.73000002 7.9295556e-39
-0.16360477 0.088416189 0.73100001 7.9295556e-39
-0.16221237 0.088416189 0.73100001 7.9295556e-39
-0.16126001 0.088658094 0.73300004 8.0210422e-39
-0.15986381 0.088658094 0.73300004 8.0210422e-39
-0.15868382 0.088779047 0.73400003 8.0217513e-39
-0.15728572 0.088779047 0.73400003 8.0217513e-39
-0.15631241 0.08902096 0.73600006 8.1139469e-39
-0.15491048 0.08902096 0.73600006 8.1139469e-39
-0.15392572 0.089262858 0.73800004 8.1139469e-39
-0.15252002 0.089262858 0.73800004 8.1139469e-39
-0.15131906 0.089383811 0.73900002 8.1132378e-39
-0.14991142 0.089383811 0.73900002 8.2054335e-39
-0.14850381 0.089383811 0.73900002 8.2061425e-39
-0.14709619 0.089383811 0.73900002 8.1139469e-39
-0.14568858 0.089383811 0.73900002 8.1139469e-39
-0.14428096 0.089383811 0.73900002 8.1139469e-39
-0.14287333 0.089383811 0.73900002 8.1139469e-39
-0.14146571 0.089383811 0.73900002 8.1139469e-39
-0.13986857 0.089262858 0.73800004 8.0210422e-39
-0.13846286 0.089262858 0.73800004 7.9288466e-39
-0.13705714 0.089262858 0.73800004 7.83736e-39
-0.13565144 0.089262858 0.73800004 7.7451644e-39
-0.13388193 0.08902096 0.73600006 7.744105e-39
-0.13212 0.088779047 0.73400003 7.5597137e-39
-0.13054383 0.088658094 0.73300004 7.3756728e-39
-0.12914763 0.088658094 0.73300004 7.2834772e-39
-0.11468001 0.079586677 0.65800005 7.4675181e-39
-0.11342667 0.079586677 0.65800005 8.48167e-39
-0.11217334 0.079586677 0.65800005 9.8666896e-39
-0.11092001 0.079586677 0.65800005 1.1065233e-38
-0.10983334 0.079707623 0.65900004 1.1526274e-38
-0.1085781 0.079707623 0.65900004 1.1987252e-38
-0.10764857 0.079949521 0.66100001 1.1527701e-38
-0.10638952 0.079949521 0.66100001 1.1343309e-38
-0.10544858 0.080191433 0.66300005 1.0790867e-38
-0.10434286 0.080312386 0.66400003 1.0606476e-38
-0.10354382 0.080675244 0.66700006 1.0515356e-38
-0.10227334 0.080675244 0.66700006 1.0330965e-38
-0.10145715 0.081038095 0.67000002 1.0422082e-38
-0.10048001 0.081280008 0.67200005 1.0329886e-38
-0.09920001 0.081280008 0.67200005 1.0146214e-38
-0.09821143 0.081521906 0.67400002 9.9618224e-39
-0.09692762 0.081521906 0.67400002 9.9614566e-39
-0.095927626 0.081763811 0.67600006 9.5926741e-39
-0.18596286 0.082437143 0.671 1.2355659e-38
-0.18385907 0.082068577 0.66800004 1.1341507e-38
-0.18231335 0.081945717 0.66700006 8.3941309e-39
-0.18104286 0.081945717 0.66700006 5.4438708e-39
-0.17977239 0.081945717 0.66700006 7.2840867e-39
-0.17850192 0.081945717 0.66700006 1.2447042e-38
-0.17723145 0.081945717 0.66700006 1.456189e-38
-0.17385049 0.080962859 0.65900004 1.2994564e-38
-0.18490477 0.086737148 0.70600003 1.1247892e-38
-0.18356 0.086737148 0.70600003 8.021045e-39
-0.18221524 0.086737148 0.70600003 4.0660006e-39
-0.18138285 0.086982854 0.708 4.6191744e-39
-0.18054286 0.087228574 0.71000004 6.7295775e-39
-0.17944287 0.087351426 0.71100003 7.09836e-39
-0.17858954 0.087597147 0.71300006 7.3745812e-39
-0.17748001 0.087719999 0.71400005 7.3745812e-39
-0.17661333 0.087965719 0.71600002 7.4667796e-39
-0.17549428 0.088088572 0.71700001 7.4667796e-39
-0.17412858 0.088088572 0.71700001 7.5593354e-39
-0.17324477 0.088334292 0.71900004 7.5593354e-39
-0.17259239 0.088702865 0.72200006 7.651887e-39
-0.17121716 0.088702865 0.72200006 7.651887e-39
-0.17007715 0.088825718 0.72300005 7.7437267e-39
-0.16916667 0.08907143 0.72500002 7.7437267e-39
-0.16778572 0.08907143 0.72500002 7.7440826e-39
-0.16709335 0.089440003 0.72800004 7.8362782e-39
-0.16616191 0.089685716 0.73000002 7.7451644e-39
-0.16477144 0.089685716 0.73000002 7.7451644e-39
-0.16360477 0.089808576 0.73100001 7.83736e-39
-0.16221237 0.089808576 0.73100001 7.7451644e-39
-0.16126001 0.090054289 0.73300004 7.836651e-39
-0.15986381 0.090054289 0.73300004 7.9288466e-39
-0.15868382 0.090177149 0.73400003 7.9295556e-39
-0.15728572 0.090177149 0.73400003 8.0217513e-39
-0.15631241 0.090422861 0.73600006 8.0210422e-39
-0.15533143 0.090668574 0.73800004 7.9288466e-39
-0.15392572 0.090668574 0.73800004 7.9295556e-39
-0.15252002 0.090668574 0.73800004 7.9295556e-39
-0.15131906 0.090791427 0.73900002 8.0210422e-39
-0.14991142 0.090791427 0.73900002 8.0210422e-39
-0.14850381 0.090791427 0.73900002 8.0210478e-39
-0.14709619 0.090791427 0.73900002 7.9288522e-39
-0.14568858 0.090791427 0.73900002 7.9295556e-39
-0.14428096 0.090791427 0.73900002 7.9295556e-39
-0.14287333 0.090791427 0.73900002 7.9295556e-39
-0.14146571 0.090791427 0.73900002 7.9295556e-39
-0.13986857 0.090668574 0.73800004 7.9288466e-39
-0.13846286 0.090668574 0.73800004 7.7444553e-39
-0.13705714 0.090668574 0.73800004 7.652966e-39
-0.13565144 0.090668574 0.73800004 7.5607703e-39
-0.13388193 0.090422861 0.73600006 7.1919906e-39
-0.13248 0.090422861 0.73600006 7.2841862e-39
-0.13072191 0.090177149 0.73400003 7.1919906e-39
-0.11575714 0.080717139 0.65700001 7.7451644e-39
-0.11450572 0.080717139 0.65700001 8.2983382e-39
-0.11325429 0.080717139 0.65700001 9.1280988e-39
-0.11217334 0.080839999 0.65800005 1.0787595e-38
-0.11092001 0.080839999 0.65800005 1.1893943e-38
-0.10983334 0.080962859 0.65900004 1.1712104e-38
-0.1085781 0.080962859 0.65900004 1.1527713e-38
-0.10764857 0.081208572 0.66100001 1.1068167e-38
-0.10638952 0.081208572 0.66100001 1.0883776e-38
-0.10544858 0.081454292 0.66300005 1.0699031e-38
-0.10434286 0.081577145 0.66400003 1.0606836e-38
-0.10338857 0.081822857 0.66600001 1.0515359e-38
-0.10227334 0.081945717 0.66700006 1.0423163e-38
-0.10145715 0.082314283 0.67000002 1.0330249e-38
-0.10048001 0.082560003 0.67200005 1.0238053e-38
-0.09920001 0.082560003 0.67200005 1.023733e-38
-0.097920008 0.082560003 0.67200005 1.0145135e-38
-0.09692762 0.082805723 0.67400002 9.8699799e-39
-0.095927626 0.083051436 0.67600006 9.1324148e-39
-0.095060006 0.083420001 0.67900002 9.2228e-39
-0.18596286 0.083715238 0.671 1.2355659e-38
-0.18440953 0.083590478 0.67000002 1.1802485e-38
-0.18231335 0.083216198 0.66700006 1.0144393e-38
-0.18104286 0.083216198 0.66700006 5.6268075e-39
-0.17977239 0.083216198 0.66700006 6.2693309e-39
-0.17850192 0.083216198 0.66700006 8.0210478e-39
-0.17723145 0.083216198 0.66700006 9.4950358e-39
-0.17385049 0.082218096 0.65900004 1.1707731e-38
-0.17259525 0.082218096 0.65900004 1.1340438e-38
-0.17134 0.082218096 0.65900004 1.1248242e-38
-0.18350571 0.088705719 0.71100003 1.0235895e-38
-0.18215142 0.088705719 0.71100003 8.2075915e-39
-0.18079714 0.088705719 0.71100003 6.8242969e-39
-0.17944287 0.088705719 0.71100003 5.9023406e-39
-0.17884001 0.089080006 0.71400005 6.0860032e-39
-0.17797714 0.089329526 0.71600002 6.3625901e-39
-0.17661333 0.089329526 0.71600002 6.7295775e-39
-0.17549428 0.089454286 0.71700001 7.09836e-39
-0.1746143 0.089703813 0.71900004 7.3745938e-39
-0.17348571 0.089828581 0.72000003 7.3745938e-39
-0.17259239 0.090078101 0.72200006 7.1909088e-39
-0.17121716 0.090078101 0.72200006 7.3753001e-39
-0.17007715 0.090202861 0.72300005 7.4667894e-39
-0.16916667 0.090452388 0.72500002 7.6511807e-39
-0.16778572 0.090452388 0.72500002 7.3763819e-39
-0.16709335 0.090826668 0.72800004 7.5607731e-39
-0.16616191 0.091076195 0.73000002 7.7451616e-39
-0.16477144 0.091076195 0.73000002 7.652966e-39
-0.16360477 0.091200955 0.73100001 7.6522597e-39
-0.16221237 0.091200955 0.73100001 7.7444553e-39
-0.16126001 0.091450475 0.73300004 7.83736e-39
-0.15986381 0.091450475 0.73300004 7.83736e-39
-0.15868382 0.091575243 0.73400003 7.7444553e-39
-0.15771429 0.09182477 0.73600006 7.836651e-39
-0.15631241 0.09182477 0.73600006 7.836651e-39
-0.15533143 0.092074282 0.73800004 7.7444553e-39
-0.15392572 0.092074282 0.73800004 7.6529688e-39
-0.15252002 0.092074282 0.73800004 7.6529688e-39
-0.15131906 0.09219905 0.73900002 7.6519094e-39
-0.14991142 0.09219905 0.73900002 7.744105e-39
-0.14850381 0.09219905 0.73900002 7.6519094e-39
-0.14709619 0.09219905 0.73900002 7.4675181e-39
-0.14568858 0.09219905 0.73900002 7.3763819e-39
-0.14428096 0.09219905 0.73900002 7.3763819e-39
-0.14287333 0.09219905 0.73900002 7.2841862e-39
-0.14146571 0.09219905 0.73900002 7.2841862e-39
-0.13986857 0.092074282 0.73800004 7.1912816e-39
-0.13846286 0.092074282 0.73800004 7.1912816e-39
-0.13705714 0.092074282 0.73800004 7.1927263e-39
-0.13565144 0.092074282 0.73800004 8.4834651e-39
-0.11896572 0.081594288 0.65400004 9.3121117e-39
-0.11772001 0.081594288 0.65400004 9.8652855e-39
-0.11647429 0.081594288 0.65400004 1.1340769e-38
-0.11540476 0.081719048 0.65500003 1.1432964e-38
-0.11450572 0.081968568 0.65700001 1.1618094e-38
-0.11325429 0.081968568 0.65700001 1.2263464e-38
-0.11217334 0.082093336 0.65800005 1.189576e-38
-0.11092001 0.082093336 0.65800005 1.1711369e-38
-0.10983334 0.082218096 0.65900004 1.1160716e-38
-0.1085781 0.082218096 0.65900004 1.0976325e-38
-0.10764857 0.082467623 0.66100001 1.0883776e-38
-0.10655048 0.08259239 0.66200006 1.079158e-38
-0.10544858 0.082717143 0.66300005 1.0699034e-38
-0.10434286 0.082841903 0.66400003 1.0699034e-38
-0.1030781 0.082841903 0.66400003 1.079122e-38
-0.10227334 0.083216198 0.66700006 1.0606829e-38
-0.10145715 0.083590478 0.67000002 1.0514277e-38
-0.10048001 0.083840005 0.67200005 1.0329886e-38
-0.09920001 0.083840005 0.67200005 1.023876e-38
-0.097920008 0.083840005 0.67200005 9.9621727e-39
-0.09692762 0.084089532 0.67400002 9.9614566e-39
-0.095927626 0.084339052 0.67600006 9.2238916e-39
-0.095060006 0.08471334 0.67900002 9.1306072e-39
-0.18596286 0.084993333 0.671 1.2263461e-38
-0.18385907 0.084613338 0.66800004 1.2079069e-38
-0.18203999 0.084360003 0.66600001 1.0420643e-38
-0.18077143 0.084360003 0.66600001 6.2718392e-39
-0.17950284 0.084360003 0.66600001 6.088852e-39
-0.17743143 0.083980009 0.66300005 7.3795908e-39
-0.17590287 0.083853334 0.66200006 7.931666e-39
-0.17385049 0.083473332 0.65900004 8.7614267e-39
-0.17259525 0.083473332 0.65900004 1.0418109e-38
-0.17134 0.083473332 0.65900004 1.1155674e-38
-0.16905238 0.08296667 0.65500003 1.1525548e-38
-0.18215142 0.090060003 0.71100003 1.0050418e-38
-0.18079714 0.090060003 0.71100003 8.6692759e-39
-0.17944287 0.090060003 0.71100003 7.0097545e-39
-0.17884001 0.090440005 0.71400005 7.2831044e-39
-0.17797714 0.09069334 0.71600002 6.8221263e-39
-0.17686 0.09082 0.71700001 6.1771352e-39
-0.17549428 0.09082 0.71700001 6.5459177e-39
-0.1746143 0.091073342 0.71900004 7.1901927e-39
-0.17348571 0.091200002 0.72000003 7.4667796e-39
-0.17259239 0.091453344 0.72200006 7.2823856e-39
-0.1714543 0.091580003 0.72300005 7.2823856e-39
-0.17007715 0.091580003 0.72300005 7.3745938e-39
-0.16916667 0.091833338 0.72500002 7.4667894e-39
-0.16778572 0.091833338 0.72500002 7.3749441e-39
-0.16755238 0.092466667 0.73000002 7.3749441e-39
-0.16616191 0.092466667 0.73000002 7.4685775e-39
-0.16477144 0.092466667 0.73000002 7.4685775e-39
-0.16360477 0.092593335 0.73100001 7.3756728e-39
-0.1626562 0.092846669 0.73300004 7.3756728e-39
-0.16126001 0.092846669 0.73300004 7.5600641e-39
-0.15986381 0.092846669 0.73300004 7.6522597e-39
-0.15868382 0.092973337 0.73400003 7.5607731e-39
-0.15771429 0.093226671 0.73600006 7.6529688e-39
-0.15631241 0.093226671 0.73600006 7.7444553e-39
-0.15533143 0.093480006 0.73800004 7.6522597e-39
-0.15392572 0.093480006 0.73800004 7.5607731e-39
-0.15252002 0.093480006 0.73800004 7.4685775e-39
-0.15131906 0.093606666 0.73900002 7.4678684e-39
-0.14991142 0.093606666 0.73900002 7.4678684e-39
-0.14850381 0.093606666 0.73900002 7.2834772e-39
-0.14709619 0.093606666 0.73900002 7.1912816e-39
-0.14568858 0.093606666 0.73900002 7.1912816e-39
-0.14428096 0.093606666 0.73900002 7.1912816e-39
-0.14287333 0.093606666 0.73900002 7.2841834e-39
-0.14146571 0.093606666 0.73900002 7.4685747e-39
-0.13986857 0.093480006 0.73800004 7.5607703e-39
-0.13846286 0.093480006 0.73800004 8.2061397e-39
-0.13705714 0.093480006 0.73800004 9.128096e-39
-0.12002763 0.082713336 0.65300006 9.8656611e-39
-0.11878382 0.082713336 0.65300006 1.0418832e-38
-0.11772001 0.082840003 0.65400004 1.1432984e-38
-0.11647429 0.082840003 0.65400004 1.1803208e-38
-0.11540476 0.08296667 0.65500003 1.1895404e-38
-0.11450572 0.083220005 0.65700001 1.1620615e-38
-0.11325429 0.083220005 0.65700001 1.1805006e-38
-0.11217334 0.083346672 0.65800005 1.1437303e-38
-0.11092001 0.083346672 0.65800005 1.1160716e-38
-0.10983334 0.083473332 0.65900004 1.097669e-38
-0.1085781 0.083473332 0.65900004 1.097669e-38
-0.10764857 0.083726667 0.66100001 1.0884142e-38
-0.10655048 0.083853334 0.66200006 1.0791946e-38
-0.10544858 0.083980009 0.66300005 1.0699753e-38
-0.10434286 0.084106669 0.66400003 1.0699753e-38
-0.1030781 0.084106669 0.66400003 1.0606836e-38
-0.10227334 0.084486671 0.66700006 1.0606836e-38
-0.10145715 0.084866665 0.67000002 1.0238769e-38
-0.10048001 0.085120007 0.67200005 1.0146574e-38
-0.09920001 0.085120007 0.67200005 1.0146214e-38
-0.09821143 0.085373335 0.67400002 9.9618224e-39
-0.09692762 0.085373335 0.67400002 9.6845166e-39
-0.095785715 0.085500002 0.67500001 9.3157341e-39
-0.18385907 0.085885718 0.66800004 1.198758e-38
-0.18203999 0.085628577 0.66600001 1.1156766e-38
-0.18077143 0.085628577 0.66600001 6.823571e-39
-0.17950284 0.085628577 0.66600001 6.2718013e-39
-0.17743143 0.08524286 0.66300005 7.6547358e-39
-0.17590287 0.085114293 0.66200006 8.2064901e-39
-0.17385049 0.084728576 0.65900004 8.5752726e-39
-0.17233334 0.084600009 0.65800005 8.7614561e-39
-0.17030001 0.084214285 0.65500003 9.5912168e-39
-0.16905238 0.084214285 0.65500003 9.7756234e-39
-0.16780476 0.084214285 0.65500003 1.0144406e-38
-0.16655715 0.084214285 0.65500003 1.0696138e-38
-0.18070477 0.092057146 0.71600002 1.1157116e-38
-0.17934094 0.092057146 0.71600002 1.0328447e-38
-0.17797714 0.092057146 0.71600002 9.5908819e-39
-0.17686 0.092185713 0.71700001 9.129538e-39
-0.17598382 0.092442855 0.71900004 7.9309948e-39
-0.1746143 0.092442855 0.71900004 8.2061397e-39
-0.17348571 0.09257143 0.72000003 8.1139441e-39
-0.17259239 0.092828579 0.72200006 7.5607731e-39
-0.1714543 0.092957146 0.72300005 7.4685775e-39
-0.17007715 0.092957146 0.72300005 6.8221515e-39
-0.16916667 0.093214288 0.72500002 6.6377602e-39
-0.16824858 0.09347143 0.72700006 6.1789373e-39
-0.16755238 0.093857147 0.73000002 6.0867417e-39
-0.16638952 0.093985714 0.73100001 6.2714861e-39
-0.16499713 0.093985714 0.73100001 6.2714861e-39
-0.16405238 0.094242856 0.73300004 6.0885241e-39
-0.1626562 0.094242856 0.73300004 6.1807197e-39
-0.16126001 0.094242856 0.73300004 6.2725651e-39
-0.16008192 0.094371431 0.73400003 6.2725651e-39
-0.15911621 0.09462858 0.73600006 6.7321013e-39
-0.15771429 0.09462858 0.73600006 7.0086882e-39
-0.15673715 0.094885714 0.73800004 7.0086952e-39
-0.15533143 0.094885714 0.73800004 7.1008908e-39
-0.15392572 0.094885714 0.73800004 7.1923704e-39
-0.15252002 0.094885714 0.73800004 7.7455441e-39
-0.15131906 0.095014282 0.73900002 7.7459001e-39
-0.14991142 0.095014282 0.73900002 8.4834651e-39
-0.14850381 0.095014282 0.73900002 8.668557e-39
-0.14709619 0.095014282 0.73900002 9.3139264e-39
-0.14568858 0.095014282 0.73900002 1.1247867e-38
-0.14428096 0.095014282 0.73900002 1.1432258e-38
-0.14287333 0.095014282 0.73900002 1.1801041e-38
-0.12423715 0.083442859 0.64900005 1.2354214e-38
-0.12300096 0.083442859 0.64900005 1.2447842e-38
-0.12176477 0.083442859 0.64900005 1.2724429e-38
-0.12052858 0.083442859 0.64900005 1.2724444e-38
-0.1198438 0.083828576 0.65200001 1.2632249e-38
-0.11878382 0.083957151 0.65300006 1.2356029e-38
-0.11754001 0.083957151 0.65300006 1.2448225e-38
-0.11647429 0.084085725 0.65400004 1.1712458e-38
-0.11540476 0.084214285 0.65500003 1.1528066e-38
-0.11450572 0.084471427 0.65700001 1.1344028e-38
-0.11325429 0.084471427 0.65700001 1.1436224e-38
-0.11217334 0.084600009 0.65800005 1.1160363e-38
-0.11092001 0.084600009 0.65800005 1.1160363e-38
-0.10983334 0.084728576 0.65900004 1.1160363e-38
-0.1085781 0.084728576 0.65900004 1.1068167e-38
-0.10764857 0.084985711 0.66100001 1.0884142e-38
-0.10655048 0.085114293 0.66200006 1.0791946e-38
-0.10544858 0.08524286 0.66300005 1.0883423e-38
-0.10434286 0.085371435 0.66400003 1.0791227e-38
-0.1030781 0.085371435 0.66400003 1.0699031e-38
-0.10227334 0.085757144 0.66700006 1.051464e-38
-0.10145715 0.08614286 0.67000002 1.0606823e-38
-0.10048001 0.08640001 0.67200005 1.0330236e-38
-0.09920001 0.08640001 0.67200005 1.0146214e-38
-0.09821143 0.086657144 0.67400002 9.8696267e-39
-0.09692762 0.086657144 0.67400002 9.7767122e-39
-0.095785715 0.086785711 0.67500001 9.5001254e-39
-0.18385907 0.087158099 0.66800004 1.2263817e-38
-0.18231335 0.087027624 0.66700006 1.1525901e-38
-0.18077143 0.08689715 0.66600001 7.100511e-39
-0.17950284 0.08689715 0.66600001 6.4561926e-39
-0.17743143 0.086505719 0.66300005 7.6547358e-39
-0.17590287 0.086375244 0.66200006 8.2976067e-39
-0.17385049 0.085983813 0.65900004 8.9429761e-39
-0.17233334 0.085853338 0.65800005 8.6692605e-39
-0.17030001 0.085461907 0.65500003 9.3146299e-39
-0.16905238 0.085461907 0.65500003 9.4993897e-39
-0.16780476 0.085461907 0.65500003 9.7759766e-39
-0.16655715 0.085461907 0.65500003 9.8696141e-39
-0.16530953 0.085461907 0.65500003 1.0238397e-38
-0.17934094 0.093420953 0.71600002 1.0514267e-38
-0.17797714 0.093420953 0.71600002 1.0514267e-38
-0.17686 0.093551435 0.71700001 1.0606113e-38
-0.17598382 0.093812384 0.71900004 1.0145135e-38
-0.1746143 0.093812384 0.71900004 8.8551063e-39
-0.17348571 0.093942866 0.72000003 7.7487587e-39
-0.17259239 0.094203815 0.72200006 8.2983354e-39
-0.1714543 0.094334297 0.72300005 8.390531e-39
-0.17007715 0.094334297 0.72300005 8.0228401e-39
-0.16916667 0.094595239 0.72500002 7.9306445e-39
-0.16824858 0.094856195 0.72700006 8.022487e-39
-0.16755238 0.095247619 0.73000002 7.9302913e-39
-0.16638952 0.095378101 0.73100001 7.838809e-39
-0.16499713 0.095378101 0.73100001 7.7466133e-39
-0.16405238 0.09563905 0.73300004 7.7466133e-39
-0.1626562 0.09563905 0.73300004 7.838809e-39
-0.16126001 0.09563905 0.73300004 7.9310046e-39
-0.16008192 0.095769532 0.73400003 8.0232002e-39
-0.15868382 0.095769532 0.73400003 8.3909192e-39
-0.15771429 0.096030481 0.73600006 8.667506e-39
-0.15673715 0.09629143 0.73800004 8.5760237e-39
-0.15533143 0.09629143 0.73800004 8.3916324e-39
-0.15392572 0.09629143 0.73800004 8.8526134e-39
-0.15272667 0.096421905 0.73900002 9.3135915e-39
-0.15131906 0.096421905 0.73900002 9.8653234e-39
-0.13145143 0.08454857 0.648 1.0418497e-38
-0.13001619 0.084418096 0.64700001 1.0603965e-38
-0.12878382 0.084418096 0.64700001 1.1433725e-38
-0.12774858 0.08454857 0.648 1.1802861e-38
-0.12651429 0.08454857 0.648 1.1895057e-38
-0.12528001 0.08454857 0.648 1.254005e-38
-0.12423715 0.084679052 0.64900005 1.2632246e-38
-0.12300096 0.084679052 0.64900005 1.2634404e-38
-0.12176477 0.084679052 0.64900005 1.2450013e-38
-0.12052858 0.084679052 0.64900005 1.235818e-38
-0.1198438 0.085070483 0.65200001 1.2173789e-38
-0.11878382 0.085200958 0.65300006 1.1622413e-38
-0.11754001 0.085200958 0.65300006 1.1345826e-38
-0.11647429 0.085331433 0.65400004 1.1161082e-38
-0.11540476 0.085461907 0.65500003 1.1161082e-38
-0.11450572 0.085722856 0.65700001 1.1160713e-38
-0.11325429 0.085722856 0.65700001 1.1160713e-38
-0.11217334 0.085853338 0.65800005 1.1252558e-38
-0.11092001 0.085853338 0.65800005 1.1252558e-38
-0.10983334 0.085983813 0.65900004 1.116001e-38
-0.1085781 0.085983813 0.65900004 1.1067814e-38
-0.10764857 0.086244762 0.66100001 1.1067814e-38
-0.10655048 0.086375244 0.66200006 1.0975618e-38
-0.10544858 0.086505719 0.66300005 1.0791949e-38
-0.10434286 0.086636193 0.66400003 1.0791949e-38
-0.10338857 0.08689715 0.66600001 1.0699031e-38
-0.10227334 0.087027624 0.66700006 1.0606836e-38
-0.10145715 0.087419048 0.67000002 1.0330965e-38
-0.10048001 0.087680012 0.67200005 1.0146574e-38
-0.09920001 0.087680012 0.67200005 1.0054018e-38
-0.09821143 0.087940954 0.67400002 9.8696267e-39
-0.097071432 0.088071428 0.67500001 9.6852355e-39
-0.096211433 0.088462859 0.67800003 9.4086486e-39
-0.18440953 0.088695243 0.67000002 1.2447489e-38
-0.18231335 0.088298097 0.66700006 1.1894681e-38
-0.18104286 0.088298097 0.66700006 7.5614864e-39
-0.17977239 0.088298097 0.66700006 6.9157512e-39
-0.17769906 0.087900959 0.66400003 7.7455119e-39
-0.17590287 0.087636195 0.66200006 8.0221016e-39
-0.17385049 0.087239049 0.65900004 8.8518623e-39
-0.17233334 0.087106667 0.65800005 8.6689101e-39
-0.17082001 0.086974286 0.65700001 9.0376927e-39
-0.16956857 0.086974286 0.65700001 9.4993841e-39
-0.16780476 0.086709529 0.65500003 9.6837753e-39
-0.16655715 0.086709529 0.65500003 9.8678191e-39
-0.16505715 0.086577147 0.65400004 1.005221e-38
-0.16381145 0.086577147 0.65400004 1.0145838e-38
-0.16256572 0.086577147 0.65400004 1.0330229e-38
-0.17686 0.094917141 0.71700001 1.060646e-38
-0.17598382 0.095181912 0.71900004 1.0883047e-38
-0.1746143 0.095181912 0.71900004 1.1158195e-38
-0.17396763 0.095579058 0.72200006 1.1158195e-38
-0.17259239 0.095579058 0.72200006 1.1341877e-38
-0.1714543 0.09571144 0.72300005 1.1526268e-38
-0.17054763 0.095976189 0.72500002 1.1617391e-38
-0.16963336 0.09624096 0.72700006 1.1525195e-38
-0.16848001 0.096373342 0.72800004 1.1434078e-38
-0.1677819 0.096770473 0.73100001 1.1526274e-38
-0.16684477 0.097035244 0.73300004 1.1527353e-38
-0.16544858 0.097035244 0.73300004 1.1711744e-38
-0.16405238 0.097035244 0.73300004 1.1895057e-38
-0.1626562 0.097035244 0.73300004 1.1895057e-38
-0.16126001 0.097035244 0.73300004 1.1987247e-38
-0.15986381 0.097035244 0.73300004 1.2448225e-38
-0.15846762 0.097035244 0.73300004 1.3000322e-38
-0.15771429 0.09743239 0.73600006 1.1801779e-38
-0.15673715 0.097697146 0.73800004 9.499775e-39
-0.15533143 0.097697146 0.73800004 9.3153838e-39
-0.15392572 0.097697146 0.73800004 9.8667863e-39
-0.13392 0.085782856 0.648 1.2909242e-38
-0.13268572 0.085782856 0.648 1.3092168e-38
-0.13145143 0.085782856 0.648 1.3276559e-38
-0.13001619 0.085650474 0.64700001 1.1619558e-38
-0.12878382 0.085650474 0.64700001 1.1066385e-38
-0.12774858 0.085782856 0.648 1.0421366e-38
-0.12651429 0.085782856 0.648 1.0144779e-38
-0.12528001 0.085782856 0.648 1.0236602e-38
-0.12423715 0.085915245 0.64900005 1.0236602e-38
-0.12300096 0.085915245 0.64900005 9.9614566e-39
-0.12176477 0.085915245 0.64900005 1.0053652e-38
-0.12071429 0.086047627 0.65000004 1.1342934e-38
-0.1198438 0.086312376 0.65200001 1.1527325e-38
-0.11878382 0.086444765 0.65300006 1.1619173e-38
-0.11754001 0.086444765 0.65300006 1.1803564e-38
-0.11647429 0.086577147 0.65400004 1.1896483e-38
-0.11540476 0.086709529 0.65500003 1.1896483e-38
-0.11450572 0.086974286 0.65700001 1.1620612e-38
-0.11325429 0.086974286 0.65700001 1.1436221e-38
-0.11217334 0.087106667 0.65800005 1.1252205e-38
-0.11092001 0.087106667 0.65800005 1.1252205e-38
-0.10983334 0.087239049 0.65900004 1.1252205e-38
-0.1085781 0.087239049 0.65900004 1.116001e-38
-0.10764857 0.087503813 0.66100001 1.116001e-38
-0.10655048 0.087636195 0.66200006 1.1067814e-38
-0.10544858 0.087768577 0.66300005 1.1068167e-38
-0.10434286 0.087900959 0.66400003 1.079158e-38
-0.10338857 0.088165708 0.66600001 1.0699387e-38
-0.10227334 0.088298097 0.66700006 1.0607192e-38
-0.10145715 0.088695243 0.67000002 1.042387e-38
-0.10048001 0.088960007 0.67200005 1.0147283e-38
-0.09920001 0.088960007 0.67200005 1.023876e-38
-0.09821143 0.089224763 0.67400002 9.9621727e-39
-0.097071432 0.089357145 0.67500001 9.9618098e-39
-0.096353337 0.089886673 0.67900002 9.5008316e-39
-0.18131429 0.08970286 0.66800004 7.7458776e-39
-0.18004191 0.08970286 0.66800004 7.0990635e-39
-0.17823428 0.089434281 0.66600001 7.7444329e-39
-0.17616859 0.089031436 0.66300005 7.9299032e-39
-0.17385049 0.088494293 0.65900004 8.7596638e-39
-0.17233334 0.088360004 0.65800005 8.7611058e-39
-0.17030001 0.087957144 0.65500003 9.0376927e-39
-0.16905238 0.087957144 0.65500003 9.4064752e-39
-0.16780476 0.087957144 0.65500003 9.7752577e-39
-0.16655715 0.087957144 0.65500003 9.7756234e-39
-0.16505715 0.087822862 0.65400004 1.005221e-38
-0.16381145 0.087822862 0.65400004 9.9618098e-39
-0.16256572 0.087822862 0.65400004 1.0146201e-38
-0.16107334 0.087688573 0.65300006 1.0146564e-38
-0.15958476 0.087554283 0.65200001 1.0330955e-38
-0.15834287 0.087554283 0.65200001 1.0606823e-38
-0.15661906 0.087285712 0.65000004 1.0975606e-38
-0.15490285 0.087017149 0.648 1.1067441e-38
-0.15366857 0.087017149 0.648 1.1344028e-38
-0.17101811 0.097625725 0.72700006 1.1435518e-38
-0.16986668 0.097759999 0.72800004 1.1619909e-38
-0.16848001 0.097759999 0.72800004 1.143695e-38
-0.1677819 0.098162852 0.73100001 1.143695e-38
-0.16684477 0.098431431 0.73300004 1.1528792e-38
-0.16544858 0.098431431 0.73300004 1.1805379e-38
-0.16405238 0.098431431 0.73300004 1.2357474e-38
-0.16221237 0.098162852 0.73100001 1.2449669e-38
-0.16082001 0.098162852 0.73100001 1.2541505e-38
-0.14132571 0.087017149 0.648 1.2633701e-38
-0.14009142 0.087017149 0.648 1.3461306e-38
-0.13885714 0.087017149 0.648 1.0234459e-38
-0.13762285 0.087017149 0.648 6.3690921e-39
-0.13638857 0.087017149 0.648 6.4612877e-39
-0.13515429 0.087017149 0.648 8.9458628e-39
-0.13392 0.087017149 0.648 1.1435145e-38
-0.13268572 0.087017149 0.648 1.1436574e-38
-0.13145143 0.087017149 0.648 1.0606813e-38
-0.13021713 0.087017149 0.648 8.124381e-39
-0.12898286 0.087017149 0.648 8.124381e-39
-0.12794574 0.087151438 0.64900005 8.4877615e-39
-0.12670954 0.087151438 0.64900005 8.6721527e-39
-0.12547334 0.087151438 0.64900005 8.4845287e-39
-0.12423715 0.087151438 0.64900005 8.3001374e-39
-0.12300096 0.087151438 0.64900005 7.8402565e-39
-0.12195238 0.087285712 0.65000004 7.8402565e-39
-0.12071429 0.087285712 0.65000004 8.5759788e-39
-0.1198438 0.087554283 0.65200001 9.3135439e-39
-0.11878382 0.087688573 0.65300006 9.3131907e-39
-0.11772001 0.087822862 0.65400004 1.0050756e-38
-0.11647429 0.087822862 0.65400004 1.1709889e-38
-0.11540476 0.087957144 0.65500003 1.2631845e-38
-0.11450572 0.088225715 0.65700001 1.1990123e-38
-0.11342667 0.088360004 0.65800005 1.1621341e-38
-0.11217334 0.088360004 0.65800005 1.1252924e-38
-0.11092001 0.088360004 0.65800005 1.1252924e-38
-0.10983334 0.088494293 0.65900004 1.1252205e-38
-0.1085781 0.088494293 0.65900004 1.116001e-38
-0.10764857 0.088762857 0.66100001 1.1067814e-38
-0.10655048 0.088897154 0.66200006 1.0975618e-38
-0.10544858 0.089031436 0.66300005 1.0883423e-38
-0.10434286 0.089165725 0.66400003 1.0791227e-38
-0.10338857 0.089434281 0.66600001 1.0699031e-38
-0.10242667 0.08970286 0.66800004 1.0606836e-38
-0.10145715 0.089971431 0.67000002 1.0330965e-38
-0.10048001 0.090240002 0.67200005 1.0238769e-38
-0.09920001 0.090240002 0.67200005 1.0146214e-38
-0.09821143 0.090508573 0.67400002 9.8696267e-39
-0.097071432 0.090642862 0.67500001 9.9614566e-39
-0.096353337 0.091180004 0.67900002 9.5004785e-39
-0.18231335 0.090839051 0.66700006 1.2171268e-38
-0.18104286 0.090839051 0.66700006 9.0366165e-39
-0.17977239 0.090839051 0.66700006 6.7328271e-39
-0.17823428 0.090702854 0.66600001 7.1016097e-39
-0.17696571 0.090702854 0.66600001 7.5622123e-39
-0.17385049 0.08974953 0.65900004 8.5763642e-39
-0.17233334 0.089613341 0.65800005 8.6689101e-39
-0.17030001 0.089204758 0.65500003 9.1298883e-39
-0.16905238 0.089204758 0.65500003 9.4064752e-39
-0.16754858 0.089068577 0.65400004 9.5908664e-39
-0.16630286 0.089068577 0.65400004 9.7756234e-39
-0.16505715 0.089068577 0.65400004 9.9600147e-39
-0.16356096 0.088932388 0.65300006 9.961807e-39
-0.16231716 0.088932388 0.65300006 9.961807e-39
-0.16107334 0.088932388 0.65300006 1.0053652e-38
-0.15958476 0.088796191 0.65200001 1.0145848e-38
-0.15834287 0.088796191 0.65200001 1.0330955e-38
-0.15661906 0.088523813 0.65000004 1.0515346e-38
-0.15490285 0.088251427 0.648 1.1067076e-38
-0.15366857 0.088251427 0.648 1.1251467e-38
-0.15243429 0.088251427 0.648 1.1620615e-38
-0.15143333 0.088387623 0.64900005 1.1620615e-38
-0.15019716 0.088387623 0.64900005 1.1529145e-38
-0.14896096 0.088387623 0.64900005 1.1621341e-38
-0.14772476 0.088387623 0.64900005 1.1713183e-38
-0.14648859 0.088387623 0.64900005 1.1897575e-38
-0.14525239 0.088387623 0.64900005 1.1988694e-38
-0.1442381 0.088523813 0.65000004 1.1527716e-38
-0.14278001 0.088387623 0.64900005 9.6852719e-39
-0.14132571 0.088251427 0.648 9.0399025e-39
-0.14009142 0.088251427 0.648 7.198864e-39
-0.13885714 0.088251427 0.648 1.9437131e-39
-0.13762285 0.088251427 0.648 9.396575e-40
-0.13638857 0.088251427 0.648 1.4006357e-39
-0.13515429 0.088251427 0.648 7.1062017e-39
-0.13392 0.088251427 0.648 7.9359624e-39
-0.13268572 0.088251427 0.648 7.565424e-39
-0.13165429 0.088387623 0.64900005 6.7356634e-39
-0.13041811 0.088387623 0.64900005 8.1232543e-39
-0.12918191 0.088387623 0.64900005 9.69058e-39
-0.12794574 0.088387623 0.64900005 1.0056524e-38
-0.12670954 0.088387623 0.64900005 1.0056524e-38
-0.12566668 0.088523813 0.65000004 8.1211692e-39
-0.12442858 0.088523813 0.65000004 7.7523867e-39
-0.12319048 0.088523813 0.65000004 7.8431502e-39
-0.12195238 0.088523813 0.65000004 5.9992376e-39
-0.12108571 0.088796191 0.65200001 7.1058528e-39
-0.12002763 0.088932388 0.65300006 8.1200047e-39
-0.11878382 0.088932388 0.65300006 7.3831908e-39
-0.11772001 0.089068577 0.65400004 3.2343874e-39
-0.11647429 0.089068577 0.65400004 6.5583781e-39
-0.11540476 0.089204758 0.65500003 8.9554645e-39
-0.11450572 0.089477144 0.65700001 1.1343315e-38
-0.11342667 0.089613341 0.65800005 1.2449662e-38
-0.11217334 0.089613341 0.65800005 1.1988691e-38
-0.11108857 0.08974953 0.65900004 1.1619909e-38
-0.10983334 0.08974953 0.65900004 1.1344401e-38
-0.10890763 0.090021908 0.66100001 1.116001e-38
-0.10781144 0.090158105 0.66200006 1.1160363e-38
-0.10671143 0.090294287 0.66300005 1.0975972e-38
-0.10544858 0.090294287 0.66300005 1.0883423e-38
-0.10434286 0.090430476 0.66400003 1.0791227e-38
-0.10338857 0.090702854 0.66600001 1.0606836e-38
-0.10242667 0.090975247 0.66800004 1.0422445e-38
-0.10145715 0.091247626 0.67000002 1.0330965e-38
-0.10048001 0.091520004 0.67200005 1.0146574e-38
-0.09920001 0.091520004 0.67200005 1.0146214e-38
-0.09821143 0.091792382 0.67400002 9.9618224e-39
-0.097071432 0.091928571 0.67500001 9.869261e-39
-0.096495233 0.092609517 0.68000001 9.5004785e-39
-0.095199995 0.092609517 0.68000001 9.2238916e-39
-0.06925714 0.098057151 0.72000003 1.0052551e-38
-0.067885719 0.098057151 0.72000003 9.4104507e-39
-0.066514291 0.098057151 0.72000003 1.1254363e-38
-0.065323815 0.098329529 0.72200006 1.1713902e-38
-0.063948572 0.098329529 0.72200006 1.134512e-38
-0.062573336 0.098329529 0.72200006 1.1711388e-38
-0.18231335 0.092109531 0.66700006 1.2079072e-38
-0.18104286 0.092109531 0.66700006 9.3132034e-39
-0.17977239 0.092109531 0.66700006 8.2064929e-39
-0.17823428 0.091971427 0.66600001 7.4689278e-39
-0.17696571 0.091971427 0.66600001 7.3778182e-39
-0.17385049 0.091004767 0.65900004 8.4841658e-39
-0.17233334 0.090866677 0.65800005 8.5767145e-39
-0.17030001 0.090452388 0.65500003 9.1298883e-39
-0.16905238 0.090452388 0.65500003 9.2224497e-39
-0.16754858 0.090314291 0.65400004 9.4068409e-39
-0.16630286 0.090314291 0.65400004 9.5912322e-39
-0.16505715 0.090314291 0.65400004 9.9600147e-39
-0.16356096 0.090176195 0.65300006 9.8696141e-39
-0.16231716 0.090176195 0.65300006 1.0054005e-38
-0.16107334 0.090176195 0.65300006 1.0145135e-38
-0.15958476 0.090038098 0.65200001 1.0513917e-38
-0.15834287 0.090038098 0.65200001 1.0606476e-38
-0.15661906 0.089761913 0.65000004 1.0975258e-38
-0.15490285 0.089485712 0.648 1.1251129e-38
-0.15366857 0.089485712 0.648 1.1251129e-38
-0.15243429 0.089485712 0.648 1.1620615e-38
-0.15143333 0.089623809 0.64900005 1.1712811e-38
-0.15019716 0.089623809 0.64900005 1.1713189e-38
-0.14896096 0.089623809 0.64900005 1.1344406e-38
-0.14772476 0.089623809 0.64900005 1.1069221e-38
-0.14648859 0.089623809 0.64900005 1.0608243e-38
-0.14525239 0.089623809 0.64900005 1.0055785e-38
-0.1442381 0.089761913 0.65000004 9.9635894e-39
-0.14278001 0.089623809 0.64900005 8.8569266e-39
-0.14154382 0.089623809 0.64900005 8.7647309e-39
-0.14030764 0.089623809 0.64900005 5.2699416e-39
-0.13907143 0.089623809 0.64900005 3.1494421e-39
-0.13762285 0.089485712 0.648 2.9725744e-39
-0.13638857 0.089485712 0.648 4.4477045e-39
-0.13536286 0.089623809 0.64900005 8.3933924e-39
-0.13412668 0.089623809 0.64900005 1.0052914e-38
-0.13289048 0.089623809 0.64900005 1.069792e-38
-0.13165429 0.089623809 0.64900005 1.0790116e-38
-0.13041811 0.089623809 0.64900005 1.0977744e-38
-0.12918191 0.089623809 0.64900005 1.18997e-38
-0.12814286 0.089761913 0.65000004 1.1257596e-38
-0.12690476 0.089761913 0.65000004 1.0981009e-38
-0.12566668 0.089761913 0.65000004 1.0151972e-38
-0.12442858 0.089761913 0.65000004 1.0151972e-38
-0.12356953 0.090038098 0.65200001 1.0517527e-38
-0.12232762 0.090038098 0.65200001 9.5955706e-39
-0.12108571 0.090038098 0.65200001 9.2274691e-39
-0.12002763 0.090176195 0.65300006 9.7806429e-39
-0.11878382 0.090176195 0.65300006 8.677189e-39
-0.11772001 0.090314291 0.65400004 6.7410808e-39
-0.11665238 0.090452388 0.65500003 5.3649482e-39
-0.11540476 0.090452388 0.65500003 6.1947089e-39
-0.11450572 0.090728574 0.65700001 8.7636141e-39
-0.11342667 0.090866677 0.65800005 1.0699722e-38
-0.11217334 0.090866677 0.65800005 1.2448558e-38
-0.11108857 0.091004767 0.65900004 1.2171971e-38
-0.11016667 0.091280952 0.66100001 1.134512e-38
-0.10907239 0.091419049 0.66200006 1.1252924e-38
-0.10797429 0.091557153 0.66300005 1.1068533e-38
-0.10671143 0.091557153 0.66300005 1.0884142e-38
-0.10560763 0.091695242 0.66400003 1.0883423e-38
-0.10465714 0.091971427 0.66600001 1.0791227e-38
-0.10338857 0.091971427 0.66600001 1.0699031e-38
-0.10242667 0.092247628 0.66800004 1.0606836e-38
-0.10145715 0.092523813 0.67000002 1.0330965e-38
-0.10048001 0.092800006 0.67200005 1.0238769e-38
-0.09949524 0.093076192 0.67400002 1.0146214e-38
-0.098357141 0.093214288 0.67500001 9.8696267e-39
-0.097502865 0.093628578 0.67800003 9.7767122e-39
-0.096495233 0.093904756 0.68000001 9.5001254e-39
-0.095199995 0.093904756 0.68000001 9.5915853e-39
-0.093904756 0.093904756 0.68000001 9.2228028e-39
-0.072800003 0.10053334 0.72800004 1.1341507e-38
-0.071315244 0.10039525 0.72700006 1.0880514e-38
-0.06925714 0.099428572 0.72000003 1.0788318e-38
-0.067885719 0.099428572 0.72000003 9.7785171e-39
-0.066514291 0.099428572 0.72000003 1.1345843e-38
-0.065323815 0.099704772 0.72200006 1.1805379e-38
-0.063948572 0.099704772 0.72200006 1.1528792e-38
-0.062573336 0.099704772 0.72200006 1.180394e-38
-0.18231335 0.093380012 0.66700006 1.2079072e-38
-0.18104286 0.093380012 0.66700006 1.0327355e-38
-0.17977239 0.093380012 0.66700006 7.7484112e-39
-0.17850192 0.093380012 0.66700006 6.4576724e-39
-0.17696571 0.09324 0.66600001 7.3774777e-39
-0.17464192 0.092680007 0.66200006 8.3916296e-39
-0.17259525 0.092260011 0.65900004 8.3008465e-39
-0.17082001 0.091980003 0.65700001 8.7618246e-39
-0.16905238 0.091700003 0.65500003 9.0380584e-39
-0.16780476 0.091700003 0.65500003 9.4068409e-39
-0.16655715 0.091700003 0.65500003 9.775971e-39
-0.16505715 0.091560006 0.65400004 9.9603622e-39
-0.16356096 0.091420002 0.65300006 1.0236955e-38
-0.16231716 0.091420002 0.65300006 1.0513542e-38
-0.16107334 0.091420002 0.65300006 1.0882687e-38
-0.15958476 0.091279998 0.65200001 1.1435861e-38
-0.15834287 0.091279998 0.65200001 1.1342606e-38
-0.15661906 0.091000006 0.65000004 1.1434801e-38
-0.15514192 0.090860009 0.64900005 9.9611287e-39
-0.15390572 0.090860009 0.64900005 8.393803e-39
-0.15266953 0.090860009 0.64900005 7.5676045e-39
-0.15143333 0.090860009 0.64900005 7.936387e-39
-0.15019716 0.090860009 0.64900005 7.6608973e-39
-0.14896096 0.090860009 0.64900005 4.7106371e-39
-0.14772476 0.090860009 0.64900005 2.5083285e-39
-0.14648859 0.090860009 0.64900005 1.3097853e-39
-0.14525239 0.090860009 0.64900005 7.7558549e-39
-0.1442381 0.091000006 0.65000004 9.1387893e-39
-0.14278001 0.090860009 0.64900005 1.0146927e-38
-0.14154382 0.090860009 0.64900005 1.0423514e-38
-0.14030764 0.090860009 0.64900005 9.2282076e-39
-0.13907143 0.090860009 0.64900005 6.5545343e-39
-0.13783523 0.090860009 0.64900005 6.3730017e-39
-0.13659906 0.090860009 0.64900005 8.1247187e-39
-0.13536286 0.090860009 0.64900005 9.9614692e-39
-0.13412668 0.090860009 0.64900005 1.2358556e-38
-0.13289048 0.090860009 0.64900005 1.2358909e-38
