# .PCD v0.7 - Point Cloud Data file format
VERSION 0.7
FIELDS x y z rgb
SIZE 4 4 4 4
TYPE F F F F
COUNT 1 1 1 1
WIDTH 975
HEIGHT 1
VIEWPOINT 0 0 0 1 0 0 0
POINTS 975
DATA ascii
-0.13428096 0.025614288 0.81500006 1.1619173e-38
-0.13272858 0.025614288 0.81500006 1.1526972e-38
-0.1311762 0.025614288 0.81500006 1.1803559e-38
-0.12962382 0.025614288 0.81500006 1.2173436e-38
-0.12807143 0.025614288 0.81500006 1.208124e-38
-0.12651907 0.025614288 0.81500006 1.2266322e-38
-0.13631335 0.027940001 0.88900006 1.27273e-38
-0.13462001 0.027940001 0.88900006 1.2542922e-38
-0.13292667 0.027940001 0.88900006 1.2450726e-38
-0.11912858 0.025362857 0.80700004 1.0609369e-38
-0.11759143 0.025362857 0.80700004 3.5103059e-39
-0.1160543 0.025362857 0.80700004 6.597089e-40
-0.11451714 0.025362857 0.80700004 8.7729159e-39
-0.11298 0.025362857 0.80700004 9.9632643e-39
-0.11171905 0.025425715 0.80900002 9.9632643e-39
-0.1101781 0.025425715 0.80900002 9.0434562e-39
-0.10863714 0.025425715 0.80900002 9.6888256e-39
-0.1070962 0.025425715 0.80900002 1.0514984e-38
-0.1058162 0.025488574 0.81100005 1.0422788e-38
-0.10427143 0.025488574 0.81100005 9.4997344e-39
-0.10272667 0.025488574 0.81100005 9.59193e-39
-0.10118191 0.025488574 0.81100005 9.8688728e-39
-0.099637143 0.025488574 0.81100005 1.1344003e-38
-0.098092392 0.025488574 0.81100005 1.2357442e-38
-0.096547626 0.025488574 0.81100005 1.2449637e-38
-0.09500286 0.025488574 0.81100005 1.2452136e-38
-0.093458101 0.025488574 0.81100005 1.2452136e-38
-0.092140004 0.025551429 0.81300002 1.1991195e-38
-0.091037147 0.025677143 0.81700003 1.1899e-38
-0.089480951 0.025677143 0.81700003 1.1990126e-38
-0.088140003 0.025740001 0.81900007 1.1897931e-38
-0.086580001 0.025740001 0.81900007 1.1899e-38
-0.085020006 0.025740001 0.81900007 1.1899e-38
-0.083663814 0.025802858 0.82100004 1.1806804e-38
-0.0823 0.025865715 0.82300001 1.1714609e-38
-0.080732383 0.025865715 0.82300001 1.1713887e-38
-0.079357147 0.025928574 0.82500005 1.1621691e-38
-0.077785715 0.025928574 0.82500005 1.1529498e-38
-0.076214284 0.025928574 0.82500005 1.1529498e-38
-0.074823812 0.025991429 0.82700002 1.1252912e-38
-0.073425718 0.026054287 0.82900006 1.106852e-38
-0.071846671 0.026054287 0.82900006 1.1343662e-38
-0.070776194 0.026242858 0.83500004 1.0513902e-38
-0.069351427 0.026305715 0.83700001 1.0513186e-38
-0.067919046 0.026368573 0.83900005 1.0328794e-38
-0.066637143 0.026494287 0.84300005 9.4097122e-39
-0.066034287 0.02690286 0.85600007 1.1069234e-38
-0.064403817 0.02690286 0.85600007 1.1992281e-38
-0.062920004 0.026965715 0.85800004 1.3467412e-38
-0.061285719 0.026965715 0.85800004 1.3466698e-38
-0.059651431 0.026965715 0.85800004 1.3190111e-38
-0.058017146 0.026965715 0.85800004 1.3282304e-38
-0.056514286 0.027028572 0.86000001 1.2913522e-38
-0.054876193 0.027028572 0.86000001 1.2635843e-38
-0.053238098 0.027028572 0.86000001 1.3004626e-38
-0.051599998 0.027028572 0.86000001 1.3830423e-38
-0.049961902 0.027028572 0.86000001 1.4291402e-38
-0.04832381 0.027028572 0.86000001 1.5119004e-38
-0.046577144 0.026965715 0.85800004 1.4842417e-38
-0.04494286 0.026965715 0.85800004 1.3647474e-38
-0.043409526 0.027028572 0.86000001 1.3002105e-38
-0.041771431 0.027028572 0.86000001 1.1898294e-38
-0.040133331 0.027028572 0.86000001 1.1898294e-38
-0.038495239 0.027028572 0.86000001 1.1990474e-38
-0.036857143 0.027028572 0.86000001 1.0146561e-38
-0.035300955 0.027091429 0.86200005 1.0603551e-38
-0.033659048 0.027091429 0.86200005 1.4567963e-38
-0.15825239 0.027833335 0.83500004 1.5119718e-38
-0.15628667 0.027766669 0.83300006 1.2630436e-38
-0.15470001 0.027766669 0.83300006 9.49798e-39
-0.15274572 0.027700001 0.83100003 7.5618717e-39
-0.15079905 0.027633334 0.82900006 8.0235407e-39
-0.1485 0.027500002 0.82500005 9.4064752e-39
-0.14657238 0.027433334 0.82300001 9.498668e-39
-0.14500476 0.027433334 0.82300001 1.0328429e-38
-0.14308858 0.027366666 0.82100004 1.051282e-38
-0.14118001 0.027300002 0.81900007 1.1158189e-38
-0.13927905 0.027233334 0.81700003 1.1251817e-38
-0.13772286 0.027233334 0.81700003 1.1528404e-38
-0.13616668 0.027233334 0.81700003 1.1250391e-38
-0.13461047 0.027233334 0.81700003 1.0605021e-38
-0.13272858 0.027166668 0.81500006 1.014405e-38
-0.1311762 0.027166668 0.81500006 1.0051854e-38
-0.12962382 0.027166668 0.81500006 8.8590649e-39
-0.12807143 0.027166668 0.81500006 6.6463698e-39
-0.12651907 0.027166668 0.81500006 8.1232543e-39
-0.12496667 0.027166668 0.81500006 9.3217975e-39
-0.12311143 0.027100001 0.81300002 9.1338343e-39
-0.12156286 0.027100001 0.81300002 8.0274868e-39
-0.11942381 0.026966667 0.80900002 8.0278848e-39
-0.11788286 0.026966667 0.80900002 3.233712e-39
-0.1163419 0.026966667 0.80900002 1.215419e-39
-0.11480095 0.026966667 0.80900002 9.3286345e-39
-0.11326 0.026966667 0.80900002 1.1991533e-38
-0.11171905 0.026966667 0.80900002 1.1253968e-38
-0.1101781 0.026966667 0.80900002 1.1992234e-38
-0.10863714 0.026966667 0.80900002 1.2453212e-38
-0.1070962 0.026966667 0.80900002 1.2452136e-38
-0.1058162 0.027033335 0.81100005 1.1069201e-38
-0.10427143 0.027033335 0.81100005 8.8583433e-39
-0.10272667 0.027033335 0.81100005 7.5676045e-39
-0.10118191 0.027033335 0.81100005 7.6587043e-39
-0.099637143 0.027033335 0.81100005 7.0133349e-39
-0.098092392 0.027033335 0.81100005 6.5538085e-39
-0.096547626 0.027033335 0.81100005 5.6318522e-39
-0.095237143 0.027100001 0.81300002 7.3839601e-39
-0.09368857 0.027100001 0.81300002 1.1901546e-38
-0.092366673 0.027166668 0.81500006 1.2911707e-38
-0.091037147 0.027233334 0.81700003 1.2727316e-38
-0.089480951 0.027233334 0.81700003 1.2266713e-38
-0.088140003 0.027300002 0.81900007 1.1990126e-38
-0.086580001 0.027300002 0.81900007 1.1990477e-38
-0.085020006 0.027300002 0.81900007 1.1990477e-38
-0.083663814 0.027366666 0.82100004 1.1714609e-38
-0.0823 0.027433334 0.82300001 1.1714609e-38
-0.080732383 0.027433334 0.82300001 1.1806438e-38
-0.079357147 0.027500002 0.82500005 1.1622047e-38
-0.077785715 0.027500002 0.82500005 1.1437303e-38
-0.076214284 0.027500002 0.82500005 1.1345107e-38
-0.074823812 0.027566668 0.82700002 1.1160716e-38
-0.073425718 0.027633334 0.82900006 1.106852e-38
-0.071846671 0.027633334 0.82900006 1.1159271e-38
-0.070776194 0.027833335 0.83500004 1.0421706e-38
-0.069351427 0.027899999 0.83700001 1.0237325e-38
-0.067919046 0.027966669 0.83900005 1.0052933e-38
-0.066637143 0.028100001 0.84300005 9.2263971e-39
-0.066034287 0.028533336 0.85600007 1.0978114e-38
-0.064554289 0.0286 0.85800004 1.2267782e-38
-0.062920004 0.0286 0.85800004 1.3927304e-38
-0.061285719 0.0286 0.85800004 1.3833307e-38
-0.059651431 0.0286 0.85800004 1.2542569e-38
-0.058017146 0.0286 0.85800004 1.2635496e-38
-0.056514286 0.028666668 0.86000001 1.3649648e-38
-0.054876193 0.028666668 0.86000001 1.4383948e-38
-0.053238098 0.028666668 0.86000001 1.4844926e-38
-0.051599998 0.028666668 0.86000001 1.512008e-38
-0.049961902 0.028666668 0.86000001 1.512008e-38
-0.04832381 0.028666668 0.86000001 1.5119718e-38
-0.046577144 0.0286 0.85800004 1.5119718e-38
-0.04494286 0.0286 0.85800004 1.5028607e-38
-0.043308575 0.0286 0.85800004 1.5212998e-38
-0.041771431 0.028666668 0.86000001 1.3924777e-38
-0.040133331 0.028666668 0.86000001 1.1619886e-38
-0.038495239 0.028666668 0.86000001 1.1529852e-38
-0.036857143 0.028666668 0.86000001 1.1714243e-38
-0.035300955 0.028733335 0.86200005 1.1525898e-38
-0.033659048 0.028733335 0.86200005 1.2632246e-38
-0.032017142 0.028733335 0.86200005 1.4382859e-38
-0.15825239 0.029423811 0.83500004 1.4935326e-38
-0.15628667 0.029353335 0.83300006 1.3460196e-38
-0.15470001 0.029353335 0.83300006 1.0881608e-38
-0.15274572 0.029282859 0.83100003 7.5625654e-39
-0.15079905 0.029212384 0.82900006 8.1150007e-39
-0.1485 0.02907143 0.82500005 9.4979351e-39
-0.14692858 0.02907143 0.82500005 9.2228028e-39
-0.14500476 0.029000953 0.82300001 1.032915e-38
-0.14308858 0.028930476 0.82100004 1.0605018e-38
-0.14118001 0.028860003 0.81900007 1.0881605e-38
-0.13927905 0.028789526 0.81700003 1.1342581e-38
-0.13772286 0.028789526 0.81700003 1.0697211e-38
-0.13616668 0.028789526 0.81700003 1.0053264e-38
-0.13461047 0.028789526 0.81700003 9.3156991e-39
-0.13272858 0.028719049 0.81500006 8.7614561e-39
-0.1311762 0.028719049 0.81500006 1.0420977e-38
-0.12962382 0.028719049 0.81500006 8.9519766e-39
-0.12775715 0.028648572 0.81300002 7.2924553e-39
-0.12620857 0.028648572 0.81300002 7.8484849e-39
-0.12466 0.028648572 0.81300002 8.7704412e-39
-0.12311143 0.028648572 0.81300002 9.6852201e-39
-0.12126382 0.028578097 0.81100005 9.8696113e-39
-0.11971906 0.028578097 0.81100005 1.0328794e-38
-0.11788286 0.02850762 0.80900002 6.1799911e-39
-0.1163419 0.02850762 0.80900002 4.6187638e-39
-0.11480095 0.02850762 0.80900002 1.1072458e-38
-0.11326 0.02850762 0.80900002 1.2728395e-38
-0.11171905 0.02850762 0.80900002 1.2451808e-38
-0.1101781 0.02850762 0.80900002 1.2913134e-38
-0.10863714 0.02850762 0.80900002 1.3097525e-38
-0.1070962 0.02850762 0.80900002 1.2912783e-38
-0.1058162 0.028578097 0.81100005 1.1990827e-38
-0.10427143 0.028578097 0.81100005 1.1624202e-38
-0.10272667 0.028578097 0.81100005 1.0149072e-38
-0.10118191 0.028578097 0.81100005 1.0054709e-38
-0.099637143 0.028578097 0.81100005 1.02391e-38
-0.098092392 0.028578097 0.81100005 9.5036931e-39
-0.096785717 0.028648572 0.81300002 6.5534329e-39
-0.095237143 0.028648572 0.81300002 7.5625276e-39
-0.09368857 0.028648572 0.81300002 1.0512788e-38
-0.092366673 0.028719049 0.81500006 1.3643473e-38
-0.091037147 0.028789526 0.81700003 1.3735669e-38
-0.089480951 0.028789526 0.81700003 1.2542221e-38
-0.088140003 0.028860003 0.81900007 1.2265634e-38
-0.086580001 0.028860003 0.81900007 1.2174868e-38
-0.085020006 0.028860003 0.81900007 1.2174868e-38
-0.083663814 0.028930476 0.82100004 1.1898281e-38
-0.0823 0.029000953 0.82300001 1.1806085e-38
-0.080732383 0.029000953 0.82300001 1.1622413e-38
-0.079357147 0.02907143 0.82500005 1.1622413e-38
-0.077785715 0.02907143 0.82500005 1.1345826e-38
-0.076399051 0.029141905 0.82700002 1.1345826e-38
-0.074823812 0.029141905 0.82700002 1.1160716e-38
-0.073602863 0.029282859 0.83100003 1.106852e-38
-0.072020002 0.029282859 0.83100003 1.1159634e-38
-0.070776194 0.029423811 0.83500004 1.0514265e-38
-0.069351427 0.029494286 0.83700001 1.0329876e-38
-0.067919046 0.029564762 0.83900005 9.8688981e-39
-0.066795237 0.029776191 0.84500003 9.0420059e-39
-0.066188574 0.030234287 0.85800004 1.0885918e-38
-0.064554289 0.030234287 0.85800004 1.1991195e-38
-0.062920004 0.030234287 0.85800004 1.2452174e-38
-0.061285719 0.030234287 0.85800004 1.3095379e-38
-0.059790477 0.030304762 0.86000001 1.2634401e-38
-0.058152381 0.030304762 0.86000001 1.3370517e-38
-0.056514286 0.030304762 0.86000001 1.4661256e-38
-0.054876193 0.030304762 0.86000001 1.521155e-38
-0.053238098 0.030304762 0.86000001 1.5303746e-38
-0.051599998 0.030304762 0.86000001 1.512008e-38
-0.049961902 0.030304762 0.86000001 1.4935689e-38
-0.04832381 0.030304762 0.86000001 1.4936045e-38
-0.046577144 0.030234287 0.85800004 1.4936045e-38
-0.04494286 0.030234287 0.85800004 1.5211913e-38
-0.043308575 0.030234287 0.85800004 1.5580696e-38
-0.041771431 0.030304762 0.86000001 1.4752743e-38
-0.040133331 0.030304762 0.86000001 1.2724439e-38
-0.038495239 0.030304762 0.86000001 1.1067438e-38
-0.036857143 0.030304762 0.86000001 1.1344025e-38
-0.035300955 0.030375239 0.86200005 1.1526972e-38
-0.033659048 0.030375239 0.86200005 1.1619167e-38
-0.032017142 0.030375239 0.86200005 1.3461268e-38
-0.030445714 0.030445714 0.86400002 1.5305181e-38
-0.15825239 0.031014288 0.83500004 1.4751654e-38
-0.15628667 0.030940004 0.83300006 1.3737502e-38
-0.15470001 0.030940004 0.83300006 1.180247e-38
-0.15274572 0.030865714 0.83100003 7.7458622e-39
-0.15079905 0.03079143 0.82900006 8.0224519e-39
-0.14886001 0.030717144 0.82700002 9.5897776e-39
-0.14692858 0.03064286 0.82500005 9.5908664e-39
-0.14500476 0.030568572 0.82300001 1.078941e-38
-0.14343715 0.030568572 0.82300001 9.1324246e-39
-0.14152478 0.030494286 0.82100004 7.6572946e-39
-0.13927905 0.030345716 0.81700003 5.1720119e-39
-0.13772286 0.030345716 0.81700003 4.3422512e-39
-0.13616668 0.030345716 0.81700003 8.301861e-39
-0.13461047 0.030345716 0.81700003 8.8550348e-39
-0.13272858 0.03027143 0.81500006 9.2231475e-39
-0.1311762 0.03027143 0.81500006 1.171243e-38
-0.12962382 0.03027143 0.81500006 1.0794076e-38
-0.12775715 0.030197144 0.81300002 1.0517489e-38
-0.12620857 0.030197144 0.81300002 1.0701527e-38
-0.12466 0.030197144 0.81300002 1.0978114e-38
-0.12311143 0.030197144 0.81300002 1.1066735e-38
-0.12126382 0.030122858 0.81100005 1.1066735e-38
-0.11971906 0.030122858 0.81100005 1.0146201e-38
-0.11817429 0.030122858 0.81100005 8.8554622e-39
-0.1163419 0.030048572 0.80900002 8.7643484e-39
-0.11480095 0.030048572 0.80900002 1.2083391e-38
-0.11326 0.030048572 0.80900002 1.2636547e-38
-0.11171905 0.030048572 0.80900002 1.2175568e-38
-0.1101781 0.030048572 0.80900002 1.1714959e-38
-0.10863714 0.030048572 0.80900002 1.1714959e-38
-0.1070962 0.030048572 0.80900002 1.1807505e-38
-0.1058162 0.030122858 0.81100005 1.1162135e-38
-0.10427143 0.030122858 0.81100005 1.1715685e-38
-0.10272667 0.030122858 0.81100005 1.245325e-38
-0.10118191 0.030122858 0.81100005 1.3004979e-38
-0.099637143 0.030122858 0.81100005 1.3650348e-38
-0.098092392 0.030122858 0.81100005 1.3557777e-38
-0.096785717 0.030197144 0.81300002 1.1898256e-38
-0.095237143 0.030197144 0.81300002 8.5821095e-39
-0.09368857 0.030197144 0.81300002 6.1850231e-39
-0.092366673 0.03027143 0.81500006 8.8572222e-39
-0.091037147 0.030345716 0.81700003 1.2084069e-38
-0.089700006 0.030420002 0.81900007 1.2358909e-38
-0.088140003 0.030420002 0.81900007 1.2174517e-38
-0.086580001 0.030420002 0.81900007 1.2174865e-38
-0.085020006 0.030420002 0.81900007 1.1898278e-38
-0.083663814 0.030494286 0.82100004 1.1805732e-38
-0.0823 0.030568572 0.82300001 1.1805732e-38
-0.080732383 0.030568572 0.82300001 1.171389e-38
-0.079357147 0.03064286 0.82500005 1.1621694e-38
-0.077785715 0.03064286 0.82500005 1.1529496e-38
-0.076399051 0.030717144 0.82700002 1.1345104e-38
-0.075004764 0.03079143 0.82900006 1.1252909e-38
-0.073602863 0.030865714 0.83100003 1.0884126e-38
-0.072193339 0.030940004 0.83300006 1.1067794e-38
-0.070776194 0.031014288 0.83500004 1.0514621e-38
-0.069351427 0.031088572 0.83700001 1.0237325e-38
-0.067919046 0.031162858 0.83900005 9.9607378e-39
-0.066795237 0.031385716 0.84500003 9.5933748e-39
-0.066188574 0.031868573 0.85800004 1.0791918e-38
-0.064554289 0.031868573 0.85800004 1.1160012e-38
-0.062920004 0.031868573 0.85800004 1.1344404e-38
-0.061285719 0.031868573 0.85800004 1.2173773e-38
-0.059790477 0.031942859 0.86000001 1.4109882e-38
-0.058152381 0.031942859 0.86000001 1.484385e-38
-0.056514286 0.031942859 0.86000001 1.5028241e-38
-0.054876193 0.031942859 0.86000001 1.4935682e-38
-0.053238098 0.031942859 0.86000001 1.4843487e-38
-0.051599998 0.031942859 0.86000001 1.4935326e-38
-0.050078098 0.032017142 0.86200005 1.4935326e-38
-0.04832381 0.031942859 0.86000001 1.4936042e-38
-0.046577144 0.031868573 0.85800004 1.5028238e-38
-0.04494286 0.031868573 0.85800004 1.4935682e-38
-0.043308575 0.031868573 0.85800004 1.5120073e-38
-0.041771431 0.031942859 0.86000001 1.4936405e-38
-0.040226668 0.032017142 0.86200005 1.4106645e-38
-0.038584765 0.032017142 0.86200005 1.1251129e-38
-0.036942858 0.032017142 0.86200005 1.0790151e-38
-0.035300955 0.032017142 0.86200005 1.1343675e-38
-0.033659048 0.032017142 0.86200005 1.1435871e-38
-0.032091428 0.032091428 0.86400002 1.2817341e-38
-0.030445714 0.032091428 0.86400002 1.5306623e-38
-0.028800001 0.032091428 0.86400002 1.5489206e-38
-0.15825239 0.032604761 0.83500004 1.4659105e-38
-0.15628667 0.032526668 0.83300006 1.4474714e-38
-0.15470001 0.032526668 0.83300006 1.1528056e-38
-0.15274572 0.032448575 0.83100003 7.4714488e-39
-0.15079905 0.032370478 0.82900006 8.0224519e-39
-0.14886001 0.032292381 0.82700002 9.5897776e-39
-0.14692858 0.032214288 0.82500005 9.958207e-39
-0.14535716 0.032214288 0.82500005 9.8660114e-39
-0.14343715 0.032136191 0.82300001 7.9370652e-39
-0.14152478 0.032058097 0.82100004 6.3697395e-39
-0.13996094 0.032058097 0.82100004 1.4920816e-39
-0.13772286 0.031901907 0.81700003 3.7969723e-39
-0.13616668 0.031901907 0.81700003 9.4975442e-39
-0.13461047 0.031901907 0.81700003 1.0142914e-38
-0.13272858 0.03182381 0.81500006 1.1157807e-38
-0.1311762 0.03182381 0.81500006 1.1803176e-38
-0.12962382 0.03182381 0.81500006 1.0333461e-38
-0.12775715 0.031745713 0.81300002 1.0517852e-38
-0.12620857 0.031745713 0.81300002 1.0884479e-38
-0.12466 0.031745713 0.81300002 1.0792284e-38
-0.12311143 0.031745713 0.81300002 1.0424242e-38
-0.12126382 0.031667624 0.81100005 9.5944818e-39
-0.11971906 0.031667624 0.81100005 8.3054778e-39
-0.11817429 0.031667624 0.81100005 8.5820647e-39
-0.1163419 0.031589523 0.80900002 8.7661504e-39
-0.11480095 0.031589523 0.80900002 1.1716411e-38
-0.11326 0.031589523 0.80900002 1.2360351e-38
-0.11171905 0.031589523 0.80900002 1.1346199e-38
-0.1101781 0.031589523 0.80900002 1.0702937e-38
-0.10863714 0.031589523 0.80900002 1.1163915e-38
-0.1070962 0.031589523 0.80900002 1.1990474e-38
-0.1058162 0.031667624 0.81100005 1.1806082e-38
-0.10427143 0.031667624 0.81100005 1.1439445e-38
-0.10272667 0.031667624 0.81100005 1.2269206e-38
-0.10118191 0.031667624 0.81100005 1.254544e-38
-0.099637143 0.031667624 0.81100005 1.2729831e-38
-0.098092392 0.031667624 0.81100005 1.3097893e-38
-0.096785717 0.031745713 0.81300002 1.3005698e-38
-0.095237143 0.031745713 0.81300002 9.6917165e-39
-0.093919054 0.03182381 0.81500006 7.1102389e-39
-0.092366673 0.03182381 0.81500006 7.4746633e-39
-0.091037147 0.031901907 0.81700003 1.0056141e-38
-0.089700006 0.03198 0.81900007 1.2724051e-38
-0.088140003 0.03198 0.81900007 1.3000638e-38
-0.086580001 0.03198 0.81900007 1.2083038e-38
-0.085020006 0.03198 0.81900007 1.1990842e-38
-0.083663814 0.032058097 0.82100004 1.1714255e-38
-0.0823 0.032136191 0.82300001 1.1714255e-38
-0.080928579 0.032214288 0.82500005 1.1529864e-38
-0.079357147 0.032214288 0.82500005 1.1529864e-38
-0.077974282 0.032292381 0.82700002 1.143695e-38
-0.076399051 0.032292381 0.82700002 1.1344754e-38
-0.075004764 0.032370478 0.82900006 1.1160716e-38
-0.073780008 0.032526668 0.83300006 1.0976325e-38
-0.072193339 0.032526668 0.83300006 1.0331674e-38
-0.070776194 0.032604761 0.83500004 1.0147283e-38
-0.069351427 0.032682858 0.83700001 1.078941e-38
-0.067919046 0.032760955 0.83900005 1.0236236e-38
-0.066795237 0.032995239 0.84500003 9.9603524e-39
-0.066034287 0.033424765 0.85600007 1.0697917e-38
-0.064554289 0.033502858 0.85800004 1.0974527e-38
-0.062920004 0.033502858 0.85800004 1.1712092e-38
-0.061285719 0.033502858 0.85800004 1.2449634e-38
-0.059790477 0.033580955 0.86000001 1.466233e-38
-0.058152381 0.033580955 0.86000001 1.5120068e-38
-0.056514286 0.033580955 0.86000001 1.4843481e-38
-0.055131428 0.033737142 0.86400002 1.4843487e-38
-0.053485714 0.033737142 0.86400002 1.4843487e-38
-0.041868571 0.033659048 0.86200005 1.5120434e-38
-0.040226668 0.033659048 0.86200005 1.5304825e-38
-0.038584765 0.033659048 0.86200005 1.1806085e-38
-0.036942858 0.033659048 0.86200005 1.0330955e-38
-0.035300955 0.033659048 0.86200005 1.1068871e-38
-0.033659048 0.033659048 0.86200005 1.0976675e-38
-0.032091428 0.033737142 0.86400002 1.2265246e-38
-0.030375239 0.033659048 0.86200005 1.4938919e-38
-0.028733335 0.033659048 0.86200005 1.539666e-38
-0.027091429 0.033659048 0.86200005 1.5120073e-38
-0.15863143 0.034277145 0.83700001 1.4659105e-38
-0.15666191 0.034195241 0.83500004 1.4751301e-38
-0.15470001 0.034113336 0.83300006 1.2816625e-38
-0.15274572 0.034031428 0.83100003 8.0224519e-39
-0.15079905 0.033949528 0.82900006 8.0221016e-39
-0.14886001 0.03386762 0.82700002 9.3128404e-39
-0.14692858 0.033785716 0.82500005 8.8536545e-39
-0.14535716 0.033785716 0.82500005 6.5487638e-39
-0.14343715 0.033703808 0.82300001 5.1729914e-39
-0.14186952 0.033703808 0.82300001 7.4778821e-39
-0.13996094 0.033621907 0.82100004 9.871021e-39
-0.13772286 0.033458095 0.81700003 1.0977369e-38
-0.13616668 0.033458095 0.81700003 1.1619501e-38
-0.13461047 0.033458095 0.81700003 1.226487e-38
-0.13272858 0.033376191 0.81500006 1.1713511e-38
-0.1311762 0.033376191 0.81500006 1.1344729e-38
-0.12962382 0.033376191 0.81500006 1.0977729e-38
-0.12775715 0.033294287 0.81300002 1.0516751e-38
-0.12620857 0.033294287 0.81300002 1.0699722e-38
-0.12466 0.033294287 0.81300002 9.9621573e-39
-0.12311143 0.033294287 0.81300002 8.6736143e-39
-0.12126382 0.033212382 0.81100005 4.8935935e-39
-0.11971906 0.033212382 0.81100005 4.0702031e-39
-0.11817429 0.033212382 0.81100005 7.573637e-39
-0.11662953 0.033212382 0.81100005 8.6728758e-39
-0.11480095 0.033130478 0.80900002 1.1899723e-38
-0.11326 0.033130478 0.80900002 1.254366e-38
-0.11171905 0.033130478 0.80900002 9.9621825e-39
-0.1101781 0.033130478 0.80900002 9.1349105e-39
-0.10863714 0.033130478 0.80900002 1.1071019e-38
-0.1070962 0.033130478 0.80900002 1.2174515e-38
-0.1058162 0.033212382 0.81100005 1.291208e-38
-0.10427143 0.033212382 0.81100005 1.2637256e-38
-0.10272667 0.033212382 0.81100005 1.254506e-38
-0.10118191 0.033212382 0.81100005 1.2269572e-38
-0.099637143 0.033212382 0.81100005 1.2269572e-38
-0.098092392 0.033212382 0.81100005 1.2729461e-38
-0.096785717 0.033294287 0.81300002 1.3282635e-38
-0.095471434 0.033376191 0.81500006 1.2729481e-38
-0.093919054 0.033376191 0.81500006 1.1530938e-38
-0.092593342 0.033458095 0.81700003 1.0792284e-38
-0.091260001 0.033540003 0.81900007 8.3951973e-39
-0.089700006 0.033540003 0.81900007 8.9494627e-39
-0.088140003 0.033540003 0.81900007 1.1807527e-38
-0.086580001 0.033540003 0.81900007 1.2451102e-38
-0.085020006 0.033540003 0.81900007 1.1990123e-38
-0.083663814 0.033621907 0.82100004 1.1805732e-38
-0.0823 0.033703808 0.82300001 1.1713537e-38
-0.080928579 0.033785716 0.82500005 1.1621341e-38
-0.079357147 0.033785716 0.82500005 1.1529145e-38
-0.077974282 0.03386762 0.82700002 1.143695e-38
-0.07658381 0.033949528 0.82900006 1.1252558e-38
-0.075004764 0.033949528 0.82900006 1.1252909e-38
-0.073780008 0.034113336 0.83300006 1.0976322e-38
-0.072193339 0.034113336 0.83300006 1.0699019e-38
-0.070776194 0.034195241 0.83500004 1.0422432e-38
-0.069351427 0.034277145 0.83700001 1.0513186e-38
-0.068080954 0.034440953 0.84100002 1.0236599e-38
-0.066637143 0.034522858 0.84300005 9.9603496e-39
-0.066034287 0.035055239 0.85600007 9.9603496e-39
-0.064554289 0.035137143 0.85800004 1.1065999e-38
-0.062920004 0.035137143 0.85800004 1.3463086e-38
-0.061285719 0.035137143 0.85800004 1.4475064e-38
-0.059790477 0.035219047 0.86000001 1.5120434e-38
-0.058152381 0.035219047 0.86000001 1.4751285e-38
-0.056974288 0.035505716 0.86700004 1.465909e-38
-0.055322859 0.035505716 0.86700004 1.4842768e-38
-0.053671431 0.035505716 0.86700004 1.4842768e-38
-0.041965716 0.035382856 0.86400002 1.5395942e-38
-0.040226668 0.035300955 0.86200005 1.5672528e-38
-0.038584765 0.035300955 0.86200005 1.2725518e-38
-0.036942858 0.035300955 0.86200005 9.4986708e-39
-0.035300955 0.035300955 0.86200005 9.871419e-39
-0.033659048 0.035300955 0.86200005 1.0793375e-38
-0.032091428 0.035382856 0.86400002 1.1897187e-38
-0.030375239 0.035300955 0.86200005 1.4663055e-38
-0.028733335 0.035300955 0.86200005 1.5211913e-38
-0.027091429 0.035300955 0.86200005 1.4935326e-38
-0.15901048 0.035957143 0.83900005 1.4474348e-38
-0.15666191 0.035785716 0.83500004 1.4750935e-38
-0.15470001 0.035700005 0.83300006 1.3000312e-38
-0.1523781 0.035528574 0.82900006 8.390531e-39
-0.15043524 0.035442855 0.82700002 8.1146476e-39
-0.14886001 0.035442855 0.82700002 9.2209951e-39
-0.14692858 0.035357147 0.82500005 9.0366039e-39
-0.14535716 0.035357147 0.82500005 6.7317131e-39
-0.14343715 0.035271429 0.82300001 6.0902589e-39
-0.14186952 0.035271429 0.82300001 1.0515649e-38
-0.13996094 0.035185717 0.82100004 1.0607532e-38
-0.13806 0.035100002 0.81900007 1.0976315e-38
-0.13616668 0.035014287 0.81700003 1.1252523e-38
-0.13461047 0.035014287 0.81700003 1.1713502e-38
-0.13305429 0.035014287 0.81700003 1.1346529e-38
-0.1311762 0.034928575 0.81500006 1.0977747e-38
-0.12962382 0.034928575 0.81500006 1.0886272e-38
-0.12807143 0.034928575 0.81500006 1.0978467e-38
-0.12620857 0.03484286 0.81300002 1.0884129e-38
-0.12466 0.03484286 0.81300002 1.0330955e-38
-0.12311143 0.03484286 0.81300002 8.9494599e-39
-0.12156286 0.03484286 0.81300002 4.6162653e-39
-0.12001429 0.03484286 0.81300002 3.852786e-40
-0.11817429 0.034757145 0.81100005 7.299941e-39
-0.11662953 0.034757145 0.81100005 8.856544e-39
-0.11508477 0.034757145 0.81100005 1.1161435e-38
-0.11354001 0.034757145 0.81100005 1.2635493e-38
-0.11171905 0.034671426 0.80900002 1.0146211e-38
-0.1101781 0.034671426 0.80900002 8.8568691e-39
-0.10863714 0.034671426 0.80900002 1.116176e-38
-0.1070962 0.034671426 0.80900002 1.1805003e-38
-0.1058162 0.034757145 0.81100005 1.2911351e-38
-0.10427143 0.034757145 0.81100005 1.2361767e-38
-0.10272667 0.034757145 0.81100005 1.2085181e-38
-0.10118191 0.034757145 0.81100005 1.1992988e-38
-0.099637143 0.034757145 0.81100005 1.1808596e-38
-0.098334283 0.03484286 0.81300002 1.1440161e-38
-0.096785717 0.03484286 0.81300002 1.2269922e-38
-0.095705718 0.035014287 0.81700003 1.2453985e-38
-0.094149522 0.035014287 0.81700003 1.171642e-38
-0.092593342 0.035014287 0.81700003 1.1990486e-38
-0.091260001 0.035100002 0.81900007 8.5792481e-39
-0.089700006 0.035100002 0.81900007 7.8441661e-39
-0.088140003 0.035100002 0.81900007 1.1716383e-38
-0.086580001 0.035100002 0.81900007 1.2358553e-38
-0.085020006 0.035100002 0.81900007 1.198977e-38
-0.083663814 0.035185717 0.82100004 1.1805732e-38
-0.0823 0.035271429 0.82300001 1.1713537e-38
-0.080928579 0.035357147 0.82500005 1.1621341e-38
-0.079357147 0.035357147 0.82500005 1.1621341e-38
-0.077974282 0.035442855 0.82700002 1.143695e-38
-0.07658381 0.035528574 0.82900006 1.143695e-38
-0.075185716 0.035614286 0.83100003 1.1252912e-38
-0.073780008 0.035700005 0.83300006 1.106852e-38
-0.07236667 0.035785716 0.83500004 1.0699019e-38
-0.070945717 0.035871428 0.83700001 1.0422432e-38
-0.069517143 0.035957143 0.83900005 1.0972722e-38
-0.068080954 0.036042858 0.84100002 1.0603939e-38
-0.066637143 0.036128573 0.84300005 9.9599993e-39
-0.065340005 0.0363 0.84700006 1.0420977e-38
-0.064403817 0.036685716 0.85600007 1.1892883e-38
-0.062920004 0.036771428 0.85800004 1.4658752e-38
-0.061428569 0.036857143 0.86000001 1.4935677e-38
-0.059790477 0.036857143 0.86000001 1.4935677e-38
-0.058625717 0.037157144 0.86700004 1.4659095e-38
-0.056974288 0.037157144 0.86700004 1.4659095e-38
-0.040320002 0.037028573 0.86400002 1.5395944e-38
-0.038674287 0.037028573 0.86400002 1.3278319e-38
-0.036942858 0.036942858 0.86200005 1.0420254e-38
-0.035300955 0.036942858 0.86200005 1.0146564e-38
-0.033659048 0.036942858 0.86200005 1.0607542e-38
-0.032017142 0.036942858 0.86200005 1.2079776e-38
-0.030375239 0.036942858 0.86200005 1.493784e-38
-0.028733335 0.036942858 0.86200005 1.5303749e-38
-0.027091429 0.036942858 0.86200005 1.5119357e-38
-0.15901048 0.03755524 0.83900005 1.438179e-38
-0.15741238 0.03755524 0.83900005 1.4842768e-38
-0.15544285 0.037465714 0.83700001 1.3553486e-38
-0.1523781 0.03710762 0.82900006 8.6671179e-39
-0.15043524 0.037018094 0.82700002 7.8402187e-39
-0.14886001 0.037018094 0.82700002 8.6699793e-39
-0.14692858 0.036928572 0.82500005 7.9313451e-39
-0.14535716 0.036928572 0.82500005 7.1015844e-39
-0.14378572 0.036928572 0.82500005 8.2079418e-39
-0.14186952 0.036839046 0.82300001 1.1066006e-38
-0.1403019 0.036839046 0.82300001 1.0974855e-38
-0.13806 0.036660004 0.81900007 1.0974855e-38
-0.13650002 0.036660004 0.81900007 1.0884094e-38
-0.13494001 0.036660004 0.81900007 1.0884094e-38
-0.13305429 0.036570478 0.81700003 1.0332024e-38
-0.1311762 0.036480956 0.81500006 9.686655e-39
-0.12962382 0.036480956 0.81500006 1.0423864e-38
-0.12807143 0.036480956 0.81500006 1.1806799e-38
-0.12651907 0.036480956 0.81500006 1.1803564e-38
-0.12466 0.03639143 0.81300002 1.0973804e-38
-0.12311143 0.03639143 0.81300002 8.7665008e-39
-0.12156286 0.03639143 0.81300002 4.7098931e-39
-0.12001429 0.03639143 0.81300002 3.5170602e-39
-0.11817429 0.036301903 0.81100005 1.0523928e-38
-0.11662953 0.036301903 0.81100005 1.1804968e-38
-0.11508477 0.036301903 0.81100005 9.3156865e-39
-0.11354001 0.036301903 0.81100005 1.0239478e-38
-0.11199524 0.036301903 0.81100005 1.0055087e-38
-0.1101781 0.036212385 0.80900002 9.6852355e-39
-0.10863714 0.036212385 0.80900002 1.0514996e-38
-0.1070962 0.036212385 0.80900002 1.1252889e-38
-0.1058162 0.036301903 0.81100005 1.1252889e-38
-0.10452858 0.03639143 0.81300002 1.0148016e-38
-0.10298 0.03639143 0.81300002 9.9636244e-39
-0.10143144 0.03639143 0.81300002 1.0056879e-38
-0.099882863 0.03639143 0.81300002 9.2271188e-39
-0.098576196 0.036480956 0.81500006 1.0241621e-38
-0.097023815 0.036480956 0.81500006 1.0610404e-38
-0.095705718 0.036570478 0.81700003 1.0610073e-38
-0.094149522 0.036570478 0.81700003 9.8725078e-39
-0.092593342 0.036570478 0.81700003 1.0331691e-38
-0.091260001 0.036660004 0.81900007 8.6721696e-39
-0.089700006 0.036660004 0.81900007 8.212248e-39
-0.088140003 0.036660004 0.81900007 1.1715682e-38
-0.086580001 0.036660004 0.81900007 1.2358553e-38
-0.085020006 0.036660004 0.81900007 1.1897575e-38
-0.083663814 0.036749527 0.82100004 1.1989044e-38
-0.0823 0.036839046 0.82300001 1.1804653e-38
-0.080928579 0.036928572 0.82500005 1.1804653e-38
-0.079549521 0.037018094 0.82700002 1.1712458e-38
-0.078162864 0.03710762 0.82900006 1.1620615e-38
-0.07658381 0.03710762 0.82900006 1.1528419e-38
-0.075185716 0.037197147 0.83100003 1.1344025e-38
-0.073780008 0.037286669 0.83300006 1.1159634e-38
-0.07236667 0.037376191 0.83500004 1.0699024e-38
-0.070945717 0.037465714 0.83700001 1.0422438e-38
-0.069517143 0.03755524 0.83900005 1.0513542e-38
-0.068080954 0.037644763 0.84100002 1.0144759e-38
-0.066637143 0.037734289 0.84300005 1.0051842e-38
-0.065340005 0.037913334 0.84700006 1.2725515e-38
-0.064027622 0.038092382 0.85100001 1.4566184e-38
-0.062920004 0.038405713 0.85800004 1.5211553e-38
-0.038808573 0.038808573 0.86700004 1.3002426e-38
-0.037028573 0.038674287 0.86400002 1.0236557e-38
-0.035382856 0.038674287 0.86400002 1.0147312e-38
-0.033737142 0.038674287 0.86400002 1.0331704e-38
-0.032017142 0.038584765 0.86200005 1.1988659e-38
-0.030304762 0.038495239 0.86000001 1.4662332e-38
-0.028666668 0.038495239 0.86000001 1.5304112e-38
-0.027028572 0.038495239 0.86000001 1.5027525e-38
-0.15741238 0.039153337 0.83900005 1.4842765e-38
-0.15581429 0.039153337 0.83900005 1.4014099e-38
-0.15311335 0.038873333 0.83300006 9.0355347e-39
-0.15116286 0.03878 0.83100003 8.5745467e-39
-0.14922002 0.038686667 0.82900006 8.1135686e-39
-0.14728476 0.038593337 0.82700002 7.1001201e-39
-0.14535716 0.038500004 0.82500005 8.114272e-39
-0.14378572 0.038500004 0.82500005 1.0143305e-38
-0.14186952 0.038406666 0.82300001 1.1065261e-38
-0.1403019 0.038406666 0.82300001 1.0331656e-38
-0.13839714 0.038313333 0.82100004 1.0516047e-38
-0.13650002 0.038220003 0.81900007 1.0424568e-38
-0.13494001 0.038220003 0.81900007 1.0332372e-38
-0.13305429 0.038126666 0.81700003 9.9639622e-39
-0.1311762 0.038033333 0.81500006 9.502984e-39
-0.12962382 0.038033333 0.81500006 1.0055438e-38
-0.12807143 0.038033333 0.81500006 1.1714959e-38
-0.12651907 0.038033333 0.81500006 1.1528054e-38
-0.12466 0.037940003 0.81300002 1.0237315e-38
-0.12311143 0.037940003 0.81300002 8.8572643e-39
-0.12156286 0.037940003 0.81300002 4.8928522e-39
-0.12001429 0.037940003 0.81300002 1.4026479e-39
-0.11846571 0.037940003 0.81300002 1.0161233e-38
-0.11691714 0.037940003 0.81300002 1.2633347e-38
-0.11536857 0.037940003 0.81300002 9.7752829e-39
-0.11382 0.037940003 0.81300002 9.7798946e-39
-0.11199524 0.03784667 0.81100005 1.0056481e-38
-0.11045048 0.03784667 0.81100005 9.962886e-39
-0.10890572 0.03784667 0.81100005 1.0608255e-38
-0.10736095 0.03784667 0.81100005 1.1067814e-38
-0.10607715 0.037940003 0.81300002 9.4082927e-39
-0.10452858 0.037940003 0.81300002 9.0412604e-39
-0.10298 0.037940003 0.81300002 1.0792977e-38
-0.10143144 0.037940003 0.81300002 1.1160713e-38
-0.099882863 0.037940003 0.81300002 1.1345104e-38
-0.098576196 0.038033333 0.81500006 1.1530921e-38
-0.097261913 0.038126666 0.81700003 1.1346529e-38
-0.095705718 0.038126666 0.81700003 1.1161082e-38
-0.094149522 0.038126666 0.81700003 9.9625384e-39
-0.092820004 0.038220003 0.81900007 1.060646e-38
-0.091260001 0.038220003 0.81900007 9.8688953e-39
-0.089700006 0.038220003 0.81900007 9.3124901e-39
-0.088140003 0.038220003 0.81900007 1.1064207e-38
-0.086580001 0.038220003 0.81900007 1.2632587e-38
-0.085227624 0.038313333 0.82100004 1.2632587e-38
-0.083663814 0.038313333 0.82100004 1.1989044e-38
-0.0823 0.038406666 0.82300001 1.1804653e-38
-0.080928579 0.038500004 0.82500005 1.1621341e-38
-0.079549521 0.038593337 0.82700002 1.1529145e-38
-0.078162864 0.038686667 0.82900006 1.1437303e-38
-0.07676857 0.03878 0.83100003 1.1252912e-38
-0.075366676 0.038873333 0.83300006 1.1160713e-38
-0.073780008 0.038873333 0.83300006 1.0976322e-38
-0.07236667 0.038966667 0.83500004 1.079157e-38
-0.070945717 0.03906 0.83700001 1.0422788e-38
-0.069517143 0.039153337 0.83900005 1.0697214e-38
-0.068080954 0.039246667 0.84100002 9.959649e-39
-0.066637143 0.039340001 0.84300005 9.958207e-39
-0.065494291 0.039620001 0.84900004 1.327725e-38
-0.064027622 0.039713334 0.85100001 1.502609e-38
-0.040460002 0.040460002 0.86700004 1.4472916e-38
-0.038808573 0.040460002 0.86700004 1.2724051e-38
-0.037028573 0.040320002 0.86400002 1.0787942e-38
-0.035382856 0.040320002 0.86400002 1.0331338e-38
-0.033737142 0.040320002 0.86400002 1.0607925e-38
-0.032017142 0.040226668 0.86200005 1.2540754e-38
-0.030304762 0.040133331 0.86000001 1.4753449e-38
-0.028666668 0.040133331 0.86000001 1.5028241e-38
-0.027028572 0.040133331 0.86000001 1.484385e-38
-0.15901048 0.040751431 0.83900005 1.4197396e-38
-0.15741238 0.040751431 0.83900005 1.4658374e-38
-0.15581429 0.040751431 0.83900005 1.410701e-38
-0.15384857 0.040654287 0.83700001 1.0603576e-38
-0.15116286 0.040362857 0.83100003 7.381058e-39
-0.14922002 0.040265717 0.82900006 6.2747104e-39
-0.14728476 0.040168572 0.82700002 6.1843071e-39
-0.14570953 0.040168572 0.82700002 8.3970022e-39
-0.14378572 0.040071428 0.82500005 9.408245e-39
-0.1422143 0.040071428 0.82500005 9.5004407e-39
-0.1403019 0.039974283 0.82300001 9.4089891e-39
-0.13839714 0.039877143 0.82100004 9.9621629e-39
-0.13650002 0.039780006 0.81900007 9.5955356e-39
-0.13494001 0.039780006 0.81900007 1.0056514e-38
-0.13305429 0.039682858 0.81700003 1.014763e-38
-0.1314981 0.039682858 0.81700003 9.9632391e-39
-0.12962382 0.039585717 0.81500006 1.0331671e-38
-0.12807143 0.039585717 0.81500006 1.1714606e-38
-0.12651907 0.039585717 0.81500006 1.060752e-38
-0.12466 0.039488573 0.81300002 8.9479984e-39
-0.12311143 0.039488573 0.81300002 8.7650714e-39
-0.12156286 0.039488573 0.81300002 5.8148113e-39
-0.12001429 0.039488573 0.81300002 5.0808266e-39
-0.11846571 0.039488573 0.81300002 1.1350129e-38
-0.11691714 0.039488573 0.81300002 1.3001048e-38
-0.11536857 0.039488573 0.81300002 9.4054186e-39
-0.11382 0.039488573 0.81300002 7.9359652e-39
-0.11227143 0.039488573 0.81300002 1.0056465e-38
-0.11045048 0.039391432 0.81100005 1.014763e-38
-0.10890572 0.039391432 0.81100005 1.0516413e-38
-0.10736095 0.039391432 0.81100005 1.1619914e-38
-0.10607715 0.039488573 0.81300002 9.4072193e-39
-0.10478573 0.039585717 0.81500006 8.1218348e-39
-0.10298 0.039488573 0.81300002 1.0703312e-38
-0.10143144 0.039488573 0.81300002 1.1346546e-38
-0.10012858 0.039585717 0.81500006 1.2452894e-38
-0.098576196 0.039585717 0.81500006 1.2912423e-38
-0.097261913 0.039682858 0.81700003 1.3096814e-38
-0.095705718 0.039682858 0.81700003 1.2452864e-38
-0.094149522 0.039682858 0.81700003 9.9635824e-39
-0.092820004 0.039780006 0.81900007 1.0239476e-38
-0.091260001 0.039780006 0.81900007 1.2175584e-38
-0.089700006 0.039780006 0.81900007 1.0699722e-38
-0.088140003 0.039780006 0.81900007 7.8416578e-39
-0.086580001 0.039780006 0.81900007 9.5926741e-39
-0.085227624 0.039877143 0.82100004 1.2450739e-38
-0.083867624 0.039974283 0.82300001 1.2542208e-38
-0.082500003 0.040071428 0.82500005 1.1896839e-38
-0.08112476 0.040168572 0.82700002 1.1621694e-38
-0.07974191 0.040265717 0.82900006 1.1437303e-38
-0.078351431 0.040362857 0.83100003 1.1345107e-38
-0.07676857 0.040362857 0.83100003 1.1252912e-38
-0.075366676 0.040460002 0.83300006 1.1344025e-38
-0.073780008 0.040460002 0.83300006 1.1159634e-38
-0.07236667 0.040557146 0.83500004 1.097488e-38
-0.07111524 0.040751431 0.83900005 1.0698293e-38
-0.069682859 0.040848572 0.84100002 1.0329873e-38
-0.068242863 0.040945716 0.84300005 9.5923084e-39
-0.066795237 0.041042857 0.84500003 1.0142951e-38
-0.065648571 0.041334286 0.85100001 1.3277603e-38
-0.040460002 0.04211143 0.86700004 1.3459127e-38
-0.038808573 0.04211143 0.86700004 1.143369e-38
-0.037028573 0.041965716 0.86400002 1.0788321e-38
-0.035382856 0.041965716 0.86400002 1.0883072e-38
-0.033737142 0.041965716 0.86400002 1.1712833e-38
-0.032017142 0.041868571 0.86200005 1.2449281e-38
-0.030375239 0.041868571 0.86200005 1.438539e-38
-0.028733335 0.041868571 0.86200005 1.4936045e-38
-0.027091429 0.041868571 0.86200005 1.4751654e-38
-0.15703715 0.042248569 0.83700001 1.4566181e-38
-0.15384857 0.042248569 0.83700001 1.1063476e-38
-0.15116286 0.041945718 0.83100003 8.21009e-39
-0.14922002 0.041844767 0.82900006 7.2881337e-39
-0.14728476 0.041743811 0.82700002 7.3832034e-39
-0.14570953 0.041743811 0.82700002 8.5817466e-39
-0.14378572 0.04164286 0.82500005 9.2256516e-39
-0.1422143 0.04164286 0.82500005 9.133456e-39
-0.14064285 0.04164286 0.82500005 9.3153487e-39
-0.13839714 0.041440953 0.82100004 1.0052914e-38
-0.13683334 0.041440953 0.82100004 9.6866396e-39
-0.13494001 0.041340005 0.81900007 1.0239813e-38
-0.13305429 0.041239049 0.81700003 1.0147986e-38
-0.1314981 0.041239049 0.81700003 1.0424573e-38
-0.12994191 0.041239049 0.81700003 1.1161066e-38
-0.12807143 0.041138098 0.81500006 1.1345457e-38
-0.12651907 0.041138098 0.81500006 9.5033526e-39
-0.12496667 0.041138098 0.81500006 8.0282225e-39
-0.12311143 0.041037142 0.81300002 9.0409353e-39
-0.12156286 0.041037142 0.81300002 7.2892183e-39
-0.12001429 0.041037142 0.81300002 6.3661522e-39
-0.11846571 0.041037142 0.81300002 1.1713499e-38
-0.11691714 0.041037142 0.81300002 1.2728054e-38
-0.11536857 0.041037142 0.81300002 1.0515359e-38
-0.11382 0.041037142 0.81300002 7.0137146e-39
-0.11227143 0.041037142 0.81300002 8.3966491e-39
-0.11072286 0.041037142 0.81300002 1.1065596e-38
-0.10917429 0.041037142 0.81300002 1.1526574e-38
-0.10762572 0.041037142 0.81300002 1.2359272e-38
-0.1063381 0.041138098 0.81500006 1.0791946e-38
-0.10478573 0.041138098 0.81500006 6.8332918e-39
-0.10323334 0.041138098 0.81500006 8.9537913e-39
-0.10168096 0.041138098 0.81500006 1.1437653e-38
-0.10012858 0.041138098 0.81500006 1.1990827e-38
-0.098576196 0.041138098 0.81500006 1.1715329e-38
-0.097261913 0.041239049 0.81700003 1.2360698e-38
-0.095705718 0.041239049 0.81700003 1.2728395e-38
-0.094380006 0.041340005 0.81900007 1.0607895e-38
-0.092820004 0.041340005 0.81900007 1.0146574e-38
-0.091260001 0.041340005 0.81900007 1.1529508e-38
-0.089700006 0.041340005 0.81900007 1.116359e-38
-0.088355243 0.041440953 0.82100004 8.2133298e-39
-0.086791433 0.041440953 0.82100004 8.0271337e-39
-0.085435241 0.041541904 0.82300001 1.1253981e-38
-0.083867624 0.041541904 0.82300001 1.2633319e-38
-0.082500003 0.04164286 0.82500005 1.2356733e-38
-0.08112476 0.041743811 0.82700002 1.1621694e-38
-0.07974191 0.041844767 0.82900006 1.1621694e-38
-0.078351431 0.041945718 0.83100003 1.1345826e-38
-0.07676857 0.041945718 0.83100003 1.125363e-38
-0.075366676 0.04204667 0.83300006 1.1252912e-38
-0.073780008 0.04204667 0.83300006 1.0884129e-38
-0.07236667 0.042147618 0.83500004 1.097488e-38
-0.07111524 0.042349525 0.83900005 1.0606097e-38
-0.069682859 0.042450476 0.84100002 1.0146561e-38
-0.068242863 0.042551432 0.84300005 9.4089961e-39
-0.066795237 0.04265238 0.84500003 1.0235147e-38
-0.065648571 0.042955238 0.85100001 1.3369798e-38
-0.040460002 0.043762859 0.86700004 1.1799962e-38
-0.038808573 0.043762859 0.86700004 1.0787577e-38
-0.037157144 0.043762859 0.86700004 1.1156359e-38
-0.035505716 0.043762859 0.86700004 1.1619193e-38
-0.033854287 0.043762859 0.86700004 1.2264562e-38
-0.032017142 0.043510478 0.86200005 1.3001382e-38
-0.030375239 0.043510478 0.86200005 1.4660903e-38
-0.028733335 0.043510478 0.86200005 1.5027878e-38
-0.15421619 0.043947622 0.83900005 1.1893233e-38
-0.1526181 0.043947622 0.83900005 8.1186427e-39
-0.1503 0.043738097 0.83500004 7.7498601e-39
-0.14799714 0.043528572 0.83100003 8.5788725e-39
-0.14606191 0.043423809 0.82900006 9.1320463e-39
-0.14413428 0.043319046 0.82700002 9.5004407e-39
-0.14255904 0.043319046 0.82700002 9.8692232e-39
-0.14064285 0.043214288 0.82500005 1.0053264e-38
-0.1387343 0.043109521 0.82300001 1.0606438e-38
-0.13716668 0.043109521 0.82300001 1.0515674e-38
-0.13526952 0.043004762 0.82100004 1.060787e-38
-0.13338001 0.0429 0.81900007 1.0700066e-38
-0.1314981 0.042795237 0.81700003 1.1253239e-38
-0.12994191 0.042795237 0.81700003 1.1804638e-38
-0.12838572 0.042795237 0.81700003 1.1896833e-38
-0.12682953 0.042795237 0.81700003 9.6855858e-39
-0.12496667 0.042690478 0.81500006 6.9197169e-39
-0.12341429 0.042690478 0.81500006 9.0384115e-39
-0.12186191 0.042690478 0.81500006 9.7759766e-39
-0.12030953 0.042690478 0.81500006 6.644216e-39
-0.11875715 0.042690478 0.81500006 8.8569111e-39
-0.11691714 0.042585716 0.81300002 1.2359609e-38
-0.11536857 0.042585716 0.81300002 1.3004979e-38
-0.11382 0.042585716 0.81300002 1.0698348e-38
-0.11254763 0.042690478 0.81500006 7.379305e-39
-0.11072286 0.042585716 0.81300002 7.9370484e-39
-0.10917429 0.042585716 0.81300002 1.0149744e-38
-0.10762572 0.042585716 0.81300002 1.2451064e-38
-0.1063381 0.042690478 0.81500006 1.2912042e-38
-0.10478573 0.042690478 0.81500006 1.1067814e-38
-0.10348667 0.042795237 0.81700003 9.2239014e-39
-0.10193048 0.042795237 0.81700003 1.0701527e-38
-0.10037429 0.042795237 0.81700003 1.1162505e-38
-0.098818094 0.042795237 0.81700003 1.0978833e-38
-0.097261913 0.042795237 0.81700003 1.0333464e-38
-0.095940009 0.0429 0.81900007 1.0518221e-38
-0.094380006 0.0429 0.81900007 1.0979199e-38
-0.092820004 0.0429 0.81900007 9.8721477e-39
-0.091260001 0.0429 0.81900007 9.7799521e-39
-0.089919046 0.043004762 0.82100004 1.0884479e-38
-0.088355243 0.043004762 0.82100004 1.1068871e-38
-0.087002859 0.043109521 0.82300001 1.0331306e-38
-0.085642859 0.043214288 0.82500005 9.6859361e-39
-0.084071428 0.043214288 0.82500005 1.134364e-38
-0.082699999 0.043319046 0.82700002 1.2542183e-38
-0.081320956 0.043423809 0.82900006 1.2174142e-38
-0.079934284 0.043528572 0.83100003 1.1805359e-38
-0.078540005 0.043633334 0.83300006 1.1621691e-38
-0.076953337 0.043633334 0.83300006 1.14373e-38
-0.075547621 0.043738097 0.83500004 1.1436221e-38
-0.073957145 0.043738097 0.83500004 1.0975243e-38
-0.07254 0.043842856 0.83700001 1.097488e-38
-0.071284764 0.044052381 0.84100002 1.0513902e-38
-0.069848575 0.044157144 0.84300005 1.0145129e-38
-0.068404764 0.044261906 0.84500003 9.5919553e-39
-0.067111433 0.044471432 0.84900004 1.0142951e-38
-0.065648571 0.04457619 0.85100001 1.3277603e-38
-0.04240286 0.045728575 0.87300003 1.4659458e-38
-0.040553335 0.04551905 0.86900002 1.1063829e-38
-0.038898095 0.04551905 0.86900002 9.594444e-39
-0.037157144 0.045414288 0.86700004 1.0885183e-38
-0.035505716 0.045414288 0.86700004 1.1528798e-38
-0.033854287 0.045414288 0.86700004 1.2358558e-38
-0.032091428 0.045257144 0.86400002 1.3092874e-38
-0.030445714 0.045257144 0.86400002 1.4844591e-38
-0.028800001 0.045257144 0.86400002 1.4843837e-38
-0.15458381 0.045654286 0.84100002 1.2261656e-38
-0.1526181 0.045545716 0.83900005 1.0236955e-38
-0.1503 0.045328572 0.83500004 8.5774334e-39
-0.14835334 0.045220003 0.83300006 8.761819e-39
-0.14641428 0.045111429 0.83100003 8.9462103e-39
-0.14483142 0.045111429 0.83100003 8.9462005e-39
-0.14290382 0.045002859 0.82900006 9.4993743e-39
-0.14098382 0.044894286 0.82700002 1.0145109e-38
-0.13907143 0.044785716 0.82500005 1.0790479e-38
-0.13716668 0.044677142 0.82300001 1.0700066e-38
-0.13559905 0.044677142 0.82300001 1.0792261e-38
-0.13370572 0.044568572 0.82100004 1.1343287e-38
-0.13182001 0.044460002 0.81900007 1.1619874e-38
-0.13026001 0.044460002 0.81900007 1.1803564e-38
-0.12838572 0.044351429 0.81700003 1.1158195e-38
-0.12682953 0.044351429 0.81700003 7.7523488e-39
-0.12527333 0.044351429 0.81700003 6.3694144e-39
-0.12341429 0.044242859 0.81500006 8.1164524e-39
-0.12186191 0.044242859 0.81500006 9.8681694e-39
-0.12030953 0.044242859 0.81500006 7.6554715e-39
-0.11875715 0.044242859 0.81500006 7.3788846e-39
-0.11720477 0.044242859 0.81500006 1.2170164e-38
-0.11565238 0.044242859 0.81500006 1.3921881e-38
-0.11410001 0.044242859 0.81500006 1.2543666e-38
-0.11254763 0.044242859 0.81500006 9.50121e-39
-0.11099524 0.044242859 0.81500006 5.266692e-39
-0.10944287 0.044242859 0.81500006 7.1106046e-39
-0.10789049 0.044242859 0.81500006 1.0052908e-38
-0.10659905 0.044351429 0.81700003 1.1804625e-38
-0.10504286 0.044351429 0.81700003 1.2726569e-38
-0.10348667 0.044351429 0.81700003 1.1712417e-38
-0.10193048 0.044351429 0.81700003 1.0057968e-38
-0.10037429 0.044351429 0.81700003 1.0795533e-38
-0.098818094 0.044351429 0.81700003 1.0795884e-38
-0.097500004 0.044460002 0.81900007 9.8739273e-39
-0.095940009 0.044460002 0.81900007 8.1247341e-39
-0.094380006 0.044460002 0.81900007 9.5076685e-39
-0.093046673 0.044568572 0.82100004 1.0055823e-38
-0.091482863 0.044568572 0.82100004 9.779236e-39
-0.089919046 0.044568572 0.82100004 1.0791207e-38
-0.088570476 0.044677142 0.82300001 1.1436577e-38
-0.087002859 0.044677142 0.82300001 1.0792286e-38
-0.085642859 0.044785716 0.82500005 9.6859389e-39
-0.084275246 0.044894286 0.82700002 8.7661476e-39
-0.082699999 0.044894286 0.82700002 1.061006e-38
-0.081320956 0.045002859 0.82900006 1.2082284e-38
-0.080126666 0.045220003 0.83300006 1.1805697e-38
-0.078540005 0.045220003 0.83300006 1.1529864e-38
-0.077138096 0.045328572 0.83500004 1.1345473e-38
-0.075728573 0.045437142 0.83700001 1.0883776e-38
-0.07413429 0.045437142 0.83700001 1.0699385e-38
-0.072713338 0.045545716 0.83900005 1.0698656e-38
-0.071454294 0.045762859 0.84300005 1.0514265e-38
-0.070014283 0.045871429 0.84500003 1.0697214e-38
-0.068566665 0.045980003 0.84700006 9.8674533e-39
-0.067269526 0.046197142 0.85100001 1.0142598e-38
-0.065648571 0.046197142 0.85100001 1.3369445e-38
-0.064253338 0.046360001 0.85400003 1.4658376e-38
-0.04240286 0.04739143 0.87300003 1.392296e-38
-0.040553335 0.047174286 0.86900002 1.0419526e-38
-0.038898095 0.047174286 0.86900002 8.5806774e-39
-0.037242856 0.047174286 0.86900002 1.0977764e-38
-0.03558762 0.047174286 0.86900002 1.1896849e-38
-0.033854287 0.047065716 0.86700004 1.3095392e-38
-0.032091428 0.046902858 0.86400002 1.3463083e-38
-0.030445714 0.046902858 0.86400002 1.4477235e-38
-0.028800001 0.046902858 0.86400002 1.4843487e-38
-0.15421619 0.047143813 0.83900005 1.2722631e-38
-0.1526181 0.047143813 0.83900005 1.0512835e-38
-0.15066001 0.047031429 0.83700001 8.6689228e-39
-0.14870952 0.046919052 0.83500004 8.5774278e-39
-0.14676668 0.046806671 0.83300006 8.4852321e-39
-0.14518 0.046806671 0.83300006 8.0246099e-39
-0.14290382 0.046581909 0.82900006 8.0246099e-39
-0.14132477 0.046581909 0.82900006 9.0384059e-39
-0.13907143 0.046357144 0.82500005 1.0144753e-38
-0.13750002 0.046357144 0.82500005 9.6848319e-39
-0.13559905 0.046244759 0.82300001 9.408245e-39
-0.13403143 0.046244759 0.82300001 9.1334812e-39
-0.13182001 0.046020001 0.81900007 9.5022637e-39
-0.13026001 0.046020001 0.81900007 8.3012346e-39
-0.12838572 0.04590762 0.81700003 6.3651264e-39
-0.12682953 0.04590762 0.81700003 5.9059055e-39
-0.12527333 0.04590762 0.81700003 5.6293186e-39
-0.12371714 0.04590762 0.81700003 8.0235505e-39
-0.12216096 0.04590762 0.81700003 1.1987963e-38
-0.12030953 0.04579524 0.81500006 7.9324521e-39
-0.11875715 0.04579524 0.81500006 5.0743876e-39
-0.11720477 0.04579524 0.81500006 7.7509167e-39
-0.11565238 0.04579524 0.81500006 1.2084111e-38
-0.11410001 0.04579524 0.81500006 1.2636199e-38
