# .PCD v0.7 - Point Cloud Data file format
VERSION 0.7
FIELDS x y z rgb
SIZE 4 4 4 4
TYPE F F F F
COUNT 1 1 1 1
WIDTH 969
HEIGHT 1
VIEWPOINT 0 0 0 1 0 0 0
POINTS 969
DATA ascii
-0.060113337 0.039793335 0.88900006 8.1132154e-39
-0.058288574 0.039703812 0.88700002 1.0879084e-38
-0.056599047 0.039703812 0.88700002 1.1431532e-38
-0.054909527 0.039703812 0.88700002 1.1247141e-38
-0.05322 0.039703812 0.88700002 9.6805257e-39
-0.051530477 0.039703812 0.88700002 8.7585694e-39
-0.049953338 0.039793335 0.88900006 6.7343181e-39
-0.048260003 0.039793335 0.88900006 2.8621017e-39
-0.046566669 0.039793335 0.88900006 6.5935016e-40
-0.044873338 0.039793335 0.88900006 4.9925392e-39
-0.043277144 0.039882861 0.89100003 9.3142445e-39
-0.041579999 0.039882861 0.89100003 9.4064401e-39
-0.040017143 0.040017143 0.89400005 7.1970227e-39
-0.03831429 0.040017143 0.89400005 6.8282402e-39
-0.03661143 0.040017143 0.89400005 9.8699617e-39
-0.034986667 0.040106665 0.89600003 1.0515331e-38
-0.03328 0.040106665 0.89600003 1.0329873e-38
-0.031573333 0.040106665 0.89600003 1.0237678e-38
-0.029933335 0.040196192 0.89800006 1.0145858e-38
-0.028317144 0.040330477 0.90100002 9.8692708e-39
-0.026660001 0.04042 0.90300006 9.9614566e-39
-0.025022857 0.040554285 0.90600002 9.5926741e-39
-0.023348572 0.040643811 0.90800005 9.3160872e-39
-0.021666666 0.040733334 0.91000003 9.0395003e-39
-0.019933334 0.040733334 0.91000003 8.7621694e-39
-0.018200001 0.040733334 0.91000003 9.4075388e-39
-0.016520953 0.040867623 0.91300005 1.0879437e-38
-0.014814286 0.040957142 0.91500002 1.2538959e-38
-0.013071429 0.040957142 0.91500002 1.2538578e-38
-0.13158572 0.042700004 0.91500002 1.2355296e-38
-0.12984286 0.042700004 0.91500002 1.1064557e-38
-0.12810001 0.042700004 0.91500002 8.7665008e-39
-0.12608096 0.04260667 0.91300005 8.3977183e-39
-0.12434191 0.04260667 0.91300005 9.0377025e-39
-0.12287143 0.042700004 0.91500002 9.0377025e-39
-0.12112857 0.042700004 0.91500002 1.0232971e-38
-0.10347334 0.04260667 0.91300005 1.2261275e-38
-0.1014 0.042466667 0.91000003 1.2630057e-38
-0.09966667 0.042466667 0.91000003 1.1708835e-38
-0.097933337 0.042466667 0.91000003 8.758575e-39
-0.095988572 0.042373337 0.90800005 8.0228051e-39
-0.094051436 0.04228 0.90600002 8.7603701e-39
-0.092325717 0.04228 0.90600002 8.9462005e-39
-0.090300001 0.04214 0.90300006 9.0383961e-39
-0.088383809 0.04204667 0.90100002 9.0387619e-39
-0.086379051 0.04190667 0.89800006 9.5919356e-39
-0.084668577 0.04190667 0.89800006 9.3167879e-39
-0.082773335 0.041813336 0.89600003 9.5933748e-39
-0.080885723 0.041720003 0.89400005 9.6855704e-39
-0.079182863 0.041720003 0.89400005 9.9621573e-39
-0.077480003 0.041720003 0.89400005 9.9621629e-39
-0.075777143 0.041720003 0.89400005 1.0146554e-38
-0.073825717 0.041579999 0.89100003 1.0146914e-38
-0.072128572 0.041579999 0.89100003 9.3171536e-39
-0.070431434 0.041579999 0.89100003 8.7629106e-39
-0.068734288 0.041579999 0.89100003 8.0253456e-39
-0.067037143 0.041579999 0.89100003 7.5643675e-39
-0.065340005 0.041579999 0.89100003 7.7487587e-39
-0.063642859 0.041579999 0.89100003 7.2867296e-39
-0.061806668 0.041486669 0.88900006 6.9179471e-39
-0.060113337 0.041486669 0.88900006 7.8359097e-39
-0.058420002 0.041486669 0.88900006 1.0970561e-38
-0.056726668 0.041486669 0.88900006 1.0880882e-38
-0.055033337 0.041486669 0.88900006 1.05121e-38
-0.053340003 0.041486669 0.88900006 8.6721471e-39
-0.051646668 0.041486669 0.88900006 5.9984739e-39
-0.049953338 0.041486669 0.88900006 4.710647e-39
-0.048368573 0.041579999 0.89100003 1.0228218e-39
-0.046671428 0.041579999 0.89100003 4.3047889e-42
-0.04497429 0.041579999 0.89100003 6.9189728e-39
-0.043277144 0.041579999 0.89100003 1.0325898e-38
-0.041720003 0.041720003 0.89400005 9.4961373e-39
-0.040017143 0.041720003 0.89400005 7.2899161e-39
-0.03831429 0.041720003 0.89400005 7.6586987e-39
-0.036693335 0.041813336 0.89600003 9.7770626e-39
-0.034986667 0.041813336 0.89600003 1.0606823e-38
-0.03335429 0.04190667 0.89800006 1.0329876e-38
-0.031643812 0.04190667 0.89800006 1.0237681e-38
-0.030033333 0.04204667 0.90100002 9.9614664e-39
-0.028380001 0.04214 0.90300006 9.8692708e-39
-0.026660001 0.04214 0.90300006 9.6855886e-39
-0.025022857 0.04228 0.90600002 9.593393e-39
-0.023348572 0.042373337 0.90800005 9.5008288e-39
-0.021666666 0.042466667 0.91000003 8.6710681e-39
-0.019933334 0.042466667 0.91000003 8.5777781e-39
-0.018200001 0.042466667 0.91000003 9.6841257e-39
-0.016557142 0.042700004 0.91500002 1.1063476e-38
-0.13158572 0.044442859 0.91500002 1.2630791e-38
-0.12984286 0.044442859 0.91500002 1.24464e-38
-0.12810001 0.044442859 0.91500002 1.0422069e-38
-0.12677144 0.044588573 0.91800004 9.3157215e-39
-0.12461428 0.044442859 0.91500002 9.2231853e-39
-0.12287143 0.044442859 0.91500002 9.0387941e-39
-0.12086381 0.044345718 0.91300005 9.5890588e-39
-0.11912477 0.044345718 0.91300005 9.77345e-39
-0.10347334 0.044345718 0.91300005 1.2076883e-38
-0.10173429 0.044345718 0.91300005 1.2445666e-38
-0.099995241 0.044345718 0.91300005 1.1893224e-38
-0.097933337 0.044199999 0.91000003 9.0351591e-39
-0.096200004 0.044199999 0.91000003 8.2993919e-39
-0.094259053 0.044102859 0.90800005 8.7603701e-39
-0.092325717 0.044005714 0.90600002 9.036957e-39
-0.090300001 0.04386 0.90300006 9.2213482e-39
-0.088580005 0.04386 0.90300006 9.0383961e-39
-0.08666762 0.043762855 0.90100002 9.4071786e-39
-0.084951431 0.043762855 0.90100002 9.4075444e-39
-0.082958095 0.043617148 0.89800006 9.6841313e-39
-0.081066668 0.043520004 0.89600003 9.6837753e-39
-0.079182863 0.043422859 0.89400005 1.0236949e-38
-0.077480003 0.043422859 0.89400005 1.0144759e-38
-0.075777143 0.043422859 0.89400005 1.0236955e-38
-0.074074291 0.043422859 0.89400005 1.023911e-38
-0.072371431 0.043422859 0.89400005 1.0146914e-38
-0.070668571 0.043422859 0.89400005 9.8703274e-39
-0.068965718 0.043422859 0.89400005 9.8703274e-39
-0.067037143 0.043277144 0.89100003 9.960365e-39
-0.065340005 0.043277144 0.89100003 1.0052561e-38
-0.063642859 0.043277144 0.89100003 9.0388123e-39
-0.061945714 0.043277144 0.89100003 6.6417259e-39
-0.060248572 0.043277144 0.89100003 6.3654641e-39
-0.058551431 0.043277144 0.89100003 7.4718117e-39
-0.056726668 0.043180004 0.88900006 8.3908813e-39
-0.055033337 0.043180004 0.88900006 8.2064901e-39
-0.053340003 0.043180004 0.88900006 7.9320612e-39
-0.051646668 0.043180004 0.88900006 5.6271704e-39
-0.050065715 0.043277144 0.89100003 3.4263373e-39
-0.048368573 0.043277144 0.89100003 1.3980334e-39
-0.046671428 0.043277144 0.89100003 9.7943756e-41
-0.04497429 0.043277144 0.89100003 7.012616e-39
-0.043277144 0.043277144 0.89100003 9.773443e-39
-0.041720003 0.043422859 0.89400005 8.9436824e-39
-0.040017143 0.043422859 0.89400005 7.1976981e-39
-0.038399998 0.043520004 0.89600003 9.5025888e-39
-0.036693335 0.043520004 0.89600003 1.0331668e-38
-0.035064761 0.043617148 0.89800006 1.0239473e-38
-0.03335429 0.043617148 0.89800006 1.0054371e-38
-0.031643812 0.043617148 0.89800006 9.9621755e-39
-0.030033333 0.043762855 0.90100002 9.9621755e-39
-0.028380001 0.04386 0.90300006 9.8699799e-39
-0.026660001 0.04386 0.90300006 9.6855886e-39
-0.025022857 0.044005714 0.90600002 9.5011974e-39
-0.023348572 0.044102859 0.90800005 9.775971e-39
-0.021666666 0.044199999 0.91000003 9.0384059e-39
-0.019999048 0.044345718 0.91300005 8.7618218e-39
-0.01826 0.044345718 0.91300005 1.0329148e-38
-0.016611429 0.044588573 0.91800004 1.1064204e-38
-0.12984286 0.046185717 0.91500002 1.2998136e-38
-0.12810001 0.046185717 0.91500002 1.1710996e-38
-0.12677144 0.046337146 0.91800004 1.0328062e-38
-0.12461428 0.046185717 0.91500002 9.5004757e-39
-0.12287143 0.046185717 0.91500002 9.5004757e-39
-0.12086381 0.046084765 0.91300005 9.4064724e-39
-0.11912477 0.046084765 0.91300005 9.1298855e-39
-0.11867143 0.046589527 0.92300004 1.023227e-38
-0.11691333 0.046589527 0.92300004 1.17074e-38
-0.10347334 0.046084765 0.91300005 1.2076883e-38
-0.10173429 0.046084765 0.91300005 1.2445666e-38
-0.099995241 0.046084765 0.91300005 1.2169813e-38
-0.098256193 0.046084765 0.91300005 9.4039444e-39
-0.096200004 0.045933332 0.91000003 8.6670955e-39
-0.094259053 0.045832384 0.90800005 8.9436824e-39
-0.092325717 0.045731429 0.90600002 9.1291526e-39
-0.090600006 0.045731429 0.90600002 9.2213482e-39
-0.088580005 0.04558 0.90300006 9.2224342e-39
-0.086860001 0.04558 0.90300006 9.4990211e-39
-0.085140005 0.04558 0.90300006 9.49974e-39
-0.083235241 0.045479048 0.90100002 9.7763269e-39
-0.081066668 0.045226667 0.89600003 9.7759738e-39
-0.079360001 0.045226667 0.89600003 1.0144756e-38
-0.077480003 0.045125719 0.89400005 9.8696113e-39
-0.075777143 0.045125719 0.89400005 1.0054003e-38
-0.074074291 0.045125719 0.89400005 1.0146917e-38
-0.072371431 0.045125719 0.89400005 1.0054721e-38
-0.070668571 0.045125719 0.89400005 1.0422422e-38
-0.068965718 0.045125719 0.89400005 1.0422422e-38
-0.067262866 0.045125719 0.89400005 9.961807e-39
-0.065560006 0.045125719 0.89400005 1.0607176e-38
-0.063857146 0.045125719 0.89400005 1.0697958e-38
-0.062154286 0.045125719 0.89400005 7.0101329e-39
-0.060451429 0.045125719 0.89400005 6.0909876e-39
-0.058748577 0.045125719 0.89400005 7.8427046e-39
-0.057045717 0.045125719 0.89400005 8.667471e-39
-0.055342861 0.045125719 0.89400005 8.4830797e-39
-0.053640001 0.045125719 0.89400005 8.3926764e-39
-0.051937148 0.045125719 0.89400005 7.4707201e-39
-0.050234288 0.045125719 0.89400005 5.9080985e-39
-0.048531432 0.045125719 0.89400005 2.2202733e-39
-0.046828572 0.045125719 0.89400005 1.9156311e-40
-0.045125719 0.045125719 0.89400005 7.1984268e-39
-0.043422859 0.045125719 0.89400005 9.1287995e-39
-0.041813336 0.045226667 0.89600003 8.2068432e-39
-0.040106665 0.045226667 0.89600003 5.2637605e-39
-0.038399998 0.045226667 0.89600003 9.3203682e-39
-0.036775239 0.045327619 0.89800006 1.0239848e-38
-0.035181906 0.045479048 0.90100002 9.8710659e-39
-0.033465713 0.045479048 0.90100002 1.0054368e-38
-0.031749524 0.045479048 0.90100002 1.0054368e-38
-0.030100001 0.04558 0.90300006 1.0054018e-38
-0.028380001 0.04558 0.90300006 9.9618224e-39
-0.026660001 0.04558 0.90300006 9.6855886e-39
-0.025078095 0.045832384 0.90800005 9.4090017e-39
-0.023400001 0.045933332 0.91000003 9.7756108e-39
-0.021666666 0.045933332 0.91000003 8.8536545e-39
-0.019999048 0.046084765 0.91300005 8.760017e-39
-0.018300001 0.046185717 0.91500002 1.060393e-38
-0.12704763 0.048190478 0.92000002 1.2170164e-38
-0.12529524 0.048190478 0.92000002 1.1158896e-38
-0.12354286 0.048190478 0.92000002 1.0144744e-38
-0.12179048 0.048190478 0.92000002 9.9600147e-39
-0.12042952 0.048347622 0.92300004 9.5912322e-39
-0.11867143 0.048347622 0.92300004 1.0049326e-38
-0.11691333 0.048347622 0.92300004 9.8649352e-39
-0.11515524 0.048347622 0.92300004 1.0324844e-38
-0.10173429 0.047823813 0.91300005 1.2076883e-38
-0.099995241 0.047823813 0.91300005 1.2077615e-38
-0.098256193 0.047823813 0.91300005 1.0786876e-38
-0.096517146 0.047823813 0.91300005 8.6671179e-39
-0.094466671 0.047666669 0.91000003 8.4827266e-39
-0.092529528 0.047561906 0.90800005 8.5767145e-39
-0.090600006 0.047457144 0.90600002 9.0376927e-39
-0.088874288 0.047457144 0.90600002 9.2224342e-39
-0.087148577 0.047457144 0.90600002 9.2224342e-39
-0.085140005 0.047300003 0.90300006 9.2224497e-39
-0.083420001 0.047300003 0.90300006 9.7756234e-39
-0.08124762 0.047038097 0.89800006 9.7759766e-39
-0.079360001 0.046933334 0.89600003 9.9603678e-39
-0.077653334 0.046933334 0.89600003 9.7770626e-39
-0.075946666 0.046933334 0.89600003 9.9614538e-39
-0.074074291 0.046828572 0.89400005 9.9621699e-39
-0.072371431 0.046828572 0.89400005 9.9621699e-39
-0.070668571 0.046828572 0.89400005 9.9621755e-39
-0.068965718 0.046828572 0.89400005 1.0238762e-38
-0.067262866 0.046828572 0.89400005 1.0239113e-38
-0.065560006 0.046828572 0.89400005 1.0700091e-38
-0.063857146 0.046828572 0.89400005 1.0698659e-38
-0.062154286 0.046828572 0.89400005 7.8405942e-39
-0.060451429 0.046828572 0.89400005 7.196294e-39
-0.058748577 0.046828572 0.89400005 1.0423141e-38
-0.057045717 0.046828572 0.89400005 1.134223e-38
-0.055342861 0.046828572 0.89400005 1.1434426e-38
-0.053640001 0.046828572 0.89400005 1.1158542e-38
-0.051937148 0.046828572 0.89400005 1.1527325e-38
-0.050234288 0.046828572 0.89400005 8.7658127e-39
-0.048531432 0.046828572 0.89400005 5.7233569e-39
-0.046828572 0.046828572 0.89400005 5.9102369e-39
-0.045125719 0.046828572 0.89400005 6.8321932e-39
-0.043520004 0.046933334 0.89600003 7.6554771e-39
-0.041813336 0.046933334 0.89600003 7.2866946e-39
-0.040106665 0.046933334 0.89600003 6.7367676e-39
-0.038485717 0.047038097 0.89800006 9.9636146e-39
-0.036775239 0.047038097 0.89800006 1.0331674e-38
-0.035181906 0.047195237 0.90100002 1.0055087e-38
-0.033465713 0.047195237 0.90100002 1.0146564e-38
-0.031749524 0.047195237 0.90100002 1.0146564e-38
-0.030100001 0.047300003 0.90300006 9.9618224e-39
-0.028380001 0.047300003 0.90300006 9.8696267e-39
-0.026660001 0.047300003 0.90300006 9.5012044e-39
-0.025078095 0.047561906 0.90800005 9.3168131e-39
-0.023400001 0.047666669 0.91000003 9.5915797e-39
-0.021738095 0.047823813 0.91300005 8.4852321e-39
-0.020042857 0.047928572 0.91500002 8.3923205e-39
-0.018300001 0.047928572 0.91500002 1.0697211e-38
-0.12746191 0.050105717 0.92300004 1.2722619e-38
-0.12529524 0.049942859 0.92000002 1.1987217e-38
-0.12354286 0.049942859 0.92000002 1.0973065e-38
-0.12179048 0.049942859 0.92000002 9.5930244e-39
-0.12042952 0.050105717 0.92300004 9.5008288e-39
-0.11867143 0.050105717 0.92300004 9.8660142e-39
-0.11691333 0.050105717 0.92300004 9.5894273e-39
-0.11540477 0.050214287 0.92500007 9.6816201e-39
-0.11364286 0.050214287 0.92500007 9.8660114e-39
-0.10195714 0.04967143 0.91500002 1.2076549e-38
-0.10021429 0.04967143 0.91500002 1.2169097e-38
-0.098256193 0.04956286 0.91300005 1.1247141e-38
-0.096517146 0.04956286 0.91300005 9.773443e-39
-0.094466671 0.049400002 0.91000003 8.7592911e-39
-0.092529528 0.049291432 0.90800005 8.7614589e-39
-0.090600006 0.049182858 0.90600002 9.0380458e-39
-0.088874288 0.049182858 0.90600002 9.1298855e-39
-0.087148577 0.049182858 0.90600002 9.2220811e-39
-0.085422859 0.049182858 0.90600002 9.1298883e-39
-0.083420001 0.049020004 0.90300006 9.8674533e-39
-0.081519045 0.04891143 0.90100002 9.8681694e-39
-0.079537146 0.048748575 0.89800006 1.0052561e-38
-0.077653334 0.048640002 0.89600003 9.7774157e-39
-0.075946666 0.048640002 0.89600003 1.0054003e-38
-0.074239999 0.048640002 0.89600003 9.9625258e-39
-0.072371431 0.048531432 0.89400005 1.0054721e-38
-0.070668571 0.048531432 0.89400005 1.0054366e-38
-0.068965718 0.048531432 0.89400005 1.0238757e-38
-0.067262866 0.048531432 0.89400005 1.0146927e-38
-0.065560006 0.048531432 0.89400005 1.0239123e-38
-0.063857146 0.048531432 0.89400005 1.0699019e-38
-0.062154286 0.048531432 0.89400005 8.9473019e-39
-0.060451429 0.048531432 0.89400005 7.1944989e-39
-0.058748577 0.048531432 0.89400005 9.5915853e-39
-0.057045717 0.048531432 0.89400005 1.0791898e-38
-0.055342861 0.048531432 0.89400005 1.1345072e-38
-0.053640001 0.048531432 0.89400005 1.1159637e-38
-0.051937148 0.048531432 0.89400005 1.1067441e-38
-0.050234288 0.048531432 0.89400005 9.6870502e-39
-0.048531432 0.048531432 0.89400005 8.3041157e-39
-0.046828572 0.048531432 0.89400005 8.3040933e-39
-0.045226667 0.048640002 0.89600003 7.4743326e-39
-0.043520004 0.048640002 0.89600003 4.9882876e-39
-0.041813336 0.048640002 0.89600003 6.1868308e-39
-0.040106665 0.048640002 0.89600003 8.8540203e-39
-0.038485717 0.048748575 0.89800006 1.0697933e-38
-0.036775239 0.048748575 0.89800006 1.0514628e-38
-0.035181906 0.04891143 0.90100002 1.0330236e-38
-0.033465713 0.04891143 0.90100002 1.0146564e-38
-0.031749524 0.04891143 0.90100002 1.0054368e-38
-0.030100001 0.049020004 0.90300006 9.9618224e-39
-0.028380001 0.049020004 0.90300006 9.8696267e-39
-0.026748572 0.049182858 0.90600002 9.5015575e-39
-0.025133334 0.049400002 0.91000003 9.3171662e-39
-0.023477143 0.04956286 0.91300005 9.6837809e-39
-0.021785714 0.04967143 0.91500002 8.4852377e-39
-0.020108571 0.049834289 0.91800004 8.7596666e-39
-0.018360002 0.049834289 0.91800004 1.143334e-38
-0.016611429 0.049834289 0.91800004 1.2170176e-38
-0.12746191 0.051863808 0.92300004 1.226128e-38
-0.12570381 0.051863808 0.92300004 1.2078321e-38
-0.12394572 0.051863808 0.92300004 1.2078321e-38
-0.12218763 0.051863808 0.92300004 1.1064555e-38
-0.12042952 0.051863808 0.92300004 1.0511381e-38
-0.11867143 0.051863808 0.92300004 1.0511384e-38
-0.11691333 0.051863808 0.92300004 1.0603579e-38
-0.11540477 0.051976193 0.92500007 9.8674533e-39
-0.11364286 0.051976193 0.92500007 9.4064752e-39
-0.11284857 0.052425716 0.93300003 9.5901308e-39
-0.11107143 0.052425716 0.93300003 9.8667176e-39
-0.098256193 0.051301908 0.91300005 1.1431527e-38
-0.096517146 0.051301908 0.91300005 9.6812474e-39
-0.094466671 0.051133335 0.91000003 8.7592911e-39
-0.092529528 0.051020954 0.90800005 8.5767145e-39
-0.090600006 0.050908573 0.90600002 8.945497e-39
-0.088874288 0.050908573 0.90600002 9.0376899e-39
-0.087148577 0.050908573 0.90600002 9.1298855e-39
-0.085422859 0.050908573 0.90600002 9.2224497e-39
-0.083420001 0.050740004 0.90300006 9.7756234e-39
-0.081519045 0.050627619 0.90100002 9.8685225e-39
-0.079802856 0.050627619 0.90100002 1.0052914e-38
-0.077826671 0.05045905 0.89800006 9.7770626e-39
-0.076116197 0.05045905 0.89800006 1.0053649e-38
-0.074239999 0.050346669 0.89600003 1.0054719e-38
-0.072533339 0.050346669 0.89600003 1.0054719e-38
-0.070826672 0.050346669 0.89600003 1.0237681e-38
-0.069120005 0.050346669 0.89600003 1.0329876e-38
-0.067262866 0.050234288 0.89400005 1.0330605e-38
-0.065560006 0.050234288 0.89400005 1.0330605e-38
-0.063857146 0.050234288 0.89400005 1.0606823e-38
-0.062154286 0.050234288 0.89400005 9.0394975e-39
-0.060451429 0.050234288 0.89400005 6.1792904e-39
-0.058748577 0.050234288 0.89400005 2.7680521e-39
-0.057045717 0.050234288 0.89400005 5.6260816e-39
-0.055342861 0.050234288 0.89400005 1.0881233e-38
-0.053640001 0.050234288 0.89400005 1.0606123e-38
-0.052053336 0.050346669 0.89600003 1.0790514e-38
-0.050346669 0.050346669 0.89600003 1.0424242e-38
-0.048640002 0.050346669 0.89600003 1.0332047e-38
-0.046933334 0.050346669 0.89600003 1.0330965e-38
-0.045226667 0.050346669 0.89600003 1.0330965e-38
-0.043520004 0.050346669 0.89600003 1.0330952e-38
-0.041813336 0.050346669 0.89600003 1.0330952e-38
-0.040196192 0.05045905 0.89800006 1.0422432e-38
-0.038614288 0.050627619 0.90100002 1.0422432e-38
-0.036898095 0.050627619 0.90100002 1.0330952e-38
-0.035260003 0.050740004 0.90300006 1.0238757e-38
-0.033540003 0.050740004 0.90300006 1.0054018e-38
-0.031820003 0.050740004 0.90300006 9.9618224e-39
-0.030100001 0.050740004 0.90300006 9.9621755e-39
-0.028474286 0.050908573 0.90600002 9.7777842e-39
-0.026748572 0.050908573 0.90600002 9.7770654e-39
-0.025133334 0.051133335 0.91000003 9.4082829e-39
-0.02352857 0.051414285 0.91500002 9.4993897e-39
-0.021785714 0.051414285 0.91500002 8.5774334e-39
-0.020108571 0.051582858 0.91800004 8.9437048e-39
-0.018360002 0.051582858 0.91800004 1.1801769e-38
-0.016611429 0.051582858 0.91800004 1.2262369e-38
-0.014862858 0.051582858 0.91800004 1.1985782e-38
-0.12421428 0.053738099 0.92500007 1.2354189e-38
-0.12245239 0.053738099 0.92500007 1.2078334e-38
-0.12069048 0.053738099 0.92500007 1.1432964e-38
-0.11892857 0.053738099 0.92500007 1.0328782e-38
-0.11716668 0.053738099 0.92500007 1.0328782e-38
-0.11540477 0.053738099 0.92500007 9.5008288e-39
-0.11401143 0.053912383 0.92800003 9.0398507e-39
-0.11248572 0.054028574 0.93000007 8.9483585e-39
-0.11107143 0.054202858 0.93300003 8.8561629e-39
-0.10929429 0.054202858 0.93300003 9.8656358e-39
-0.10751715 0.054202858 0.93300003 1.2078331e-38
-0.10574 0.054202858 0.93300003 1.2907388e-38
-0.10396286 0.054202858 0.93300003 1.2999584e-38
-0.10218572 0.054202858 0.93300003 1.3274748e-38
-0.098256193 0.053040955 0.91300005 1.1430836e-38
-0.096517146 0.053040955 0.91300005 1.0142223e-38
-0.094466671 0.052866668 0.91000003 8.7592883e-39
-0.092529528 0.052750479 0.90800005 8.4848692e-39
-0.090600006 0.052634288 0.90600002 8.9458474e-39
-0.088874288 0.052634288 0.90600002 9.0376899e-39
-0.087148577 0.052634288 0.90600002 9.2220811e-39
-0.085422859 0.052634288 0.90600002 9.2228028e-39
-0.083697148 0.052634288 0.90600002 9.6837809e-39
-0.081700005 0.052460004 0.90300006 9.4089891e-39
-0.079802856 0.052343812 0.90100002 9.7777716e-39
-0.078086674 0.052343812 0.90100002 9.6859389e-39
-0.076370478 0.052343812 0.90100002 9.9625258e-39
-0.074405722 0.052169528 0.89800006 1.0054721e-38
-0.072533339 0.052053336 0.89600003 1.0054721e-38
-0.070826672 0.052053336 0.89600003 1.0329873e-38
-0.069120005 0.052053336 0.89600003 1.0514265e-38
-0.067413338 0.052053336 0.89600003 1.0422072e-38
-0.06570667 0.052053336 0.89600003 1.0606463e-38
-0.064000003 0.052053336 0.89600003 1.0514628e-38
-0.062293336 0.052053336 0.89600003 8.5785194e-39
-0.060586669 0.052053336 0.89600003 7.0072182e-39
-0.058880001 0.052053336 0.89600003 4.056958e-39
-0.057173334 0.052053336 0.89600003 4.2341186e-39
-0.055466667 0.052053336 0.89600003 1.0964391e-38
-0.05376 0.052053336 0.89600003 1.0054353e-38
-0.052053336 0.052053336 0.89600003 1.0515331e-38
-0.050346669 0.052053336 0.89600003 1.0424242e-38
-0.048640002 0.052053336 0.89600003 1.0332047e-38
-0.046933334 0.052053336 0.89600003 1.0331674e-38
-0.045226667 0.052053336 0.89600003 1.0516065e-38
-0.043520004 0.052053336 0.89600003 1.0606823e-38
-0.04190667 0.052169528 0.89800006 1.0606823e-38
-0.040196192 0.052169528 0.89800006 1.0239478e-38
-0.038614288 0.052343812 0.90100002 1.0055087e-38
-0.036898095 0.052343812 0.90100002 1.0054731e-38
-0.035260003 0.052460004 0.90300006 1.0146927e-38
-0.033540003 0.052460004 0.90300006 1.0054018e-38
-0.031820003 0.052460004 0.90300006 1.0054018e-38
-0.030100001 0.052460004 0.90300006 9.8696267e-39
-0.028474286 0.052634288 0.90600002 9.7774311e-39
-0.026748572 0.052634288 0.90600002 9.594109e-39
-0.025216192 0.053040955 0.91300005 9.0409353e-39
-0.02352857 0.053157143 0.91500002 9.3153487e-39
-0.021785714 0.053157143 0.91500002 8.3933924e-39
-0.020108571 0.053331427 0.91800004 8.7607526e-39
-0.018360002 0.053331427 0.91800004 1.1618817e-38
-0.016611429 0.053331427 0.91800004 1.2170176e-38
-0.014862858 0.053331427 0.91800004 1.2077981e-38
-0.12245239 0.055500004 0.92500007 1.226271e-38
-0.12069048 0.055500004 0.92500007 1.1986123e-38
-0.11892857 0.055500004 0.92500007 1.1249296e-38
-0.11716668 0.055500004 0.92500007 1.0972709e-38
-0.11540477 0.055500004 0.92500007 1.0236599e-38
-0.11401143 0.055679999 0.92800003 9.8678163e-39
-0.11248572 0.055800002 0.93000007 9.5008288e-39
-0.11071429 0.055800002 0.93000007 9.5008288e-39
-0.10929429 0.055980001 0.93300003 9.5905133e-39
-0.10751715 0.055980001 0.93300003 9.0373395e-39
-0.10574 0.055980001 0.93300003 9.2220811e-39
-0.10396286 0.055980001 0.93300003 1.0789407e-38
-0.10218572 0.055980001 0.93300003 1.1249331e-38
-0.098471433 0.054899998 0.91500002 1.0327375e-38
-0.096728571 0.054899998 0.91500002 9.038043e-39
-0.094778098 0.054780003 0.91300005 8.3926736e-39
-0.092733338 0.0546 0.91000003 8.3930267e-39
-0.090800002 0.054480001 0.90800005 8.7618092e-39
-0.089070477 0.054480001 0.90800005 8.8536545e-39
-0.087340958 0.054480001 0.90800005 9.1302414e-39
-0.085422859 0.054360002 0.90600002 9.3142767e-39
-0.083697148 0.054360002 0.90600002 9.5908636e-39
-0.081700005 0.054180004 0.90300006 9.6841313e-39
-0.079980001 0.054180004 0.90300006 9.8685225e-39
-0.078260005 0.054180004 0.90300006 9.5930244e-39
-0.076370478 0.054060001 0.90100002 9.8696113e-39
-0.074405722 0.053880006 0.89800006 9.962523e-39
-0.07269524 0.053880006 0.89800006 9.962523e-39
-0.070984766 0.053880006 0.89800006 1.0054366e-38
-0.069120005 0.05376 0.89600003 1.0146561e-38
-0.067413338 0.05376 0.89600003 1.0146561e-38
-0.06570667 0.05376 0.89600003 1.0330952e-38
-0.064000003 0.05376 0.89600003 1.0331674e-38
-0.062293336 0.05376 0.89600003 8.3955659e-39
-0.060586669 0.05376 0.89600003 7.1934297e-39
-0.058880001 0.05376 0.89600003 7.7466035e-39
-0.057173334 0.05376 0.89600003 8.3890835e-39
-0.055466667 0.05376 0.89600003 8.2046922e-39
-0.05376 0.05376 0.89600003 8.7632259e-39
-0.052053336 0.05376 0.89600003 1.1068117e-38
-0.050346669 0.05376 0.89600003 1.0699387e-38
-0.048640002 0.05376 0.89600003 1.0238409e-38
-0.046933334 0.05376 0.89600003 1.0054731e-38
-0.045226667 0.05376 0.89600003 1.0054731e-38
-0.043520004 0.05376 0.89600003 1.0054731e-38
-0.04190667 0.053880006 0.89800006 1.0054731e-38
-0.040196192 0.053880006 0.89800006 1.0054731e-38
-0.038614288 0.054060001 0.90100002 9.9625356e-39
-0.036898095 0.054060001 0.90100002 1.0146564e-38
-0.035260003 0.054180004 0.90300006 1.0146564e-38
-0.033540003 0.054180004 0.90300006 1.0054018e-38
-0.031820003 0.054180004 0.90300006 9.9618224e-39
-0.030200001 0.054360002 0.90600002 9.7774311e-39
-0.028474286 0.054360002 0.90600002 9.6852355e-39
-0.026866667 0.0546 0.91000003 9.5944594e-39
-0.025271429 0.054899998 0.91500002 9.1334812e-39
-0.023605715 0.055080004 0.91800004 8.5788725e-39
-0.021857142 0.055080004 0.91800004 8.21009e-39
-0.020152381 0.055200003 0.92000002 9.0376927e-39
-0.018360002 0.055080004 0.91800004 1.1711366e-38
-0.016611429 0.055080004 0.91800004 1.2261653e-38
-0.11892857 0.057261907 0.92500007 1.1801747e-38
-0.11716668 0.057261907 0.92500007 1.1432964e-38
-0.11540477 0.057261907 0.92500007 1.1063826e-38
-0.11401143 0.057447623 0.92800003 1.0879435e-38
-0.11248572 0.057571433 0.93000007 1.0052561e-38
-0.11071429 0.057571433 0.93000007 1.0052561e-38
-0.10929429 0.057757143 0.93300003 9.9603678e-39
-0.10751715 0.057757143 0.93300003 9.0384115e-39
-0.10574 0.057757143 0.93300003 8.4873803e-39
-0.10396286 0.057757143 0.93300003 9.1327497e-39
-0.10218572 0.057757143 0.93300003 9.3164628e-39
-0.10008572 0.057571433 0.93000007 9.2242671e-39
-0.096728571 0.05664286 0.91500002 8.1182447e-39
-0.094985716 0.05664286 0.91500002 8.1182447e-39
-0.093039051 0.056519046 0.91300005 8.4845161e-39
-0.091000006 0.056333333 0.91000003 8.761103e-39
-0.089070477 0.056209527 0.90800005 9.038043e-39
-0.087340958 0.056209527 0.90800005 9.2224342e-39
-0.085422859 0.056085713 0.90600002 9.4064724e-39
-0.083697148 0.056085713 0.90600002 9.5908636e-39
-0.081700005 0.055900004 0.90300006 9.5919356e-39
-0.079980001 0.055900004 0.90300006 9.7763269e-39
-0.078260005 0.055900004 0.90300006 9.685576e-39
-0.076540001 0.055900004 0.90300006 9.9621629e-39
-0.074654289 0.055776194 0.90100002 9.8703302e-39
-0.07269524 0.055590477 0.89800006 1.0054721e-38
-0.070984766 0.055590477 0.89800006 1.0054018e-38
-0.069274291 0.055590477 0.89800006 1.0238409e-38
-0.067563809 0.055590477 0.89800006 1.0054731e-38
-0.065853335 0.055590477 0.89800006 1.0146927e-38
-0.06414286 0.055590477 0.89800006 1.0607192e-38
-0.062432382 0.055590477 0.89800006 9.5008442e-39
-0.060721908 0.055590477 0.89800006 6.367262e-39
-0.059011433 0.055590477 0.89800006 7.104827e-39
-0.057300955 0.055590477 0.89800006 9.4972317e-39
-0.055466667 0.055466667 0.89600003 8.0221016e-39
-0.05376 0.055466667 0.89600003 7.9334681e-39
-0.052053336 0.055466667 0.89600003 1.1160315e-38
-0.050346669 0.055466667 0.89600003 1.0975611e-38
-0.048640002 0.055466667 0.89600003 1.0422438e-38
-0.046933334 0.055466667 0.89600003 1.0146927e-38
-0.045327619 0.055590477 0.89800006 1.0146927e-38
-0.043617148 0.055590477 0.89800006 1.0146927e-38
-0.04190667 0.055590477 0.89800006 1.0054731e-38
-0.040196192 0.055590477 0.89800006 9.9621825e-39
-0.038614288 0.055776194 0.90100002 9.9621825e-39
-0.036898095 0.055776194 0.90100002 1.0146564e-38
-0.035260003 0.055900004 0.90300006 1.023876e-38
-0.033540003 0.055900004 0.90300006 1.0054368e-38
-0.031820003 0.055900004 0.90300006 9.8699771e-39
-0.030200001 0.056085713 0.90600002 9.6855886e-39
-0.028537145 0.056209527 0.90800005 9.5011974e-39
-0.026866667 0.056333333 0.91000003 9.5008288e-39
-0.025271429 0.05664286 0.91500002 9.1320463e-39
-0.023605715 0.056828573 0.91800004 8.5792284e-39
-0.021857142 0.056828573 0.91800004 8.3026416e-39
-0.020152381 0.05695238 0.92000002 9.7734654e-39
-0.0184 0.05695238 0.92000002 1.2078356e-38
-0.11754667 0.05921524 0.92800003 1.1985419e-38
-0.11577905 0.05921524 0.92800003 1.1709539e-38
-0.11425715 0.059342861 0.93000007 1.1801734e-38
-0.11248572 0.059342861 0.93000007 1.1157456e-38
-0.11107143 0.059534285 0.93300003 1.0512087e-38
-0.10929429 0.059534285 0.93300003 1.0236955e-38
-0.10751715 0.059534285 0.93300003 1.0513542e-38
-0.10574 0.059534285 0.93300003 9.9628733e-39
-0.10396286 0.059534285 0.93300003 9.9628733e-39
-0.10218572 0.059534285 0.93300003 1.0054368e-38
-0.10040857 0.059534285 0.93300003 1.0054368e-38
-0.097785726 0.059023816 0.92500007 9.5011791e-39
-0.095297143 0.058577146 0.91800004 8.5792228e-39
-0.093242854 0.058385715 0.91500002 8.5767243e-39
-0.091300003 0.058258098 0.91300005 8.5767243e-39
-0.089266665 0.058066666 0.91000003 8.7614589e-39
-0.087533332 0.058066666 0.91000003 9.1302414e-39
-0.085611433 0.057939049 0.90800005 9.2220811e-39
-0.083697148 0.057811428 0.90600002 9.498668e-39
-0.081700005 0.057620004 0.90300006 9.5919356e-39
-0.079980001 0.057620004 0.90300006 9.7763269e-39
-0.078260005 0.057620004 0.90300006 9.5930244e-39
-0.076540001 0.057620004 0.90300006 9.961807e-39
-0.074654289 0.057492379 0.90100002 9.961807e-39
-0.072938092 0.057492379 0.90100002 1.0054003e-38
-0.07122191 0.057492379 0.90100002 1.0238053e-38
-0.069505714 0.057492379 0.90100002 1.0238053e-38
-0.067563809 0.057300955 0.89800006 1.0238757e-38
-0.065853335 0.057300955 0.89800006 1.0238757e-38
-0.06414286 0.057300955 0.89800006 1.0607192e-38
-0.062432382 0.057300955 0.89800006 1.0238409e-38
-0.060924761 0.057492379 0.90100002 6.0917891e-39
-0.059011433 0.057300955 0.89800006 5.9073979e-39
-0.057300955 0.057300955 0.89800006 6.4583982e-39
-0.055590477 0.057300955 0.89800006 5.1676594e-39
-0.053880006 0.057300955 0.89800006 7.1044459e-39
-0.052169528 0.057300955 0.89800006 1.0792271e-38
-0.050346669 0.057173334 0.89600003 1.079158e-38
-0.048640002 0.057173334 0.89600003 1.0238406e-38
-0.047038097 0.057300955 0.89800006 1.0054378e-38
-0.045327619 0.057300955 0.89800006 1.0054378e-38
-0.043617148 0.057300955 0.89800006 1.0054731e-38
-0.04190667 0.057300955 0.89800006 1.0054731e-38
-0.040330477 0.057492379 0.90100002 9.9621853e-39
-0.038614288 0.057492379 0.90100002 9.9621853e-39
-0.036980003 0.057620004 0.90300006 1.0146564e-38
-0.035377141 0.057811428 0.90600002 1.0054368e-38
-0.033651426 0.057811428 0.90600002 1.0054366e-38
-0.031925712 0.057811428 0.90600002 9.8699743e-39
-0.030266669 0.057939049 0.90800005 9.7777786e-39
-0.0286 0.058066666 0.91000003 9.5011917e-39
-0.026955239 0.058258098 0.91300005 9.4086332e-39
-0.025354287 0.058577146 0.91800004 9.1320463e-39
-0.023605715 0.058577146 0.91800004 8.7629106e-39
-0.021904761 0.05870476 0.92000002 8.8551063e-39
-0.020152381 0.05870476 0.92000002 9.9592958e-39
-0.0184 0.05870476 0.92000002 1.1895404e-38
-0.11602858 0.061114289 0.93000007 1.2077968e-38
-0.11425715 0.061114289 0.93000007 1.1985772e-38
-0.11284857 0.061311428 0.93300003 1.1341492e-38
-0.11107143 0.061311428 0.93300003 1.0880514e-38
-0.10929429 0.061311428 0.93300003 1.0236233e-38
-0.10751715 0.061311428 0.93300003 1.051282e-38
-0.10574 0.061311428 0.93300003 1.0330224e-38
-0.10396286 0.061311428 0.93300003 1.0330224e-38
-0.10218572 0.061311428 0.93300003 1.0055082e-38
-0.10040857 0.061311428 0.93300003 1.0239473e-38
-0.098314293 0.061114289 0.93000007 1.0606473e-38
-0.095504761 0.06045714 0.92000002 9.4079297e-39
-0.093548574 0.060325716 0.91800004 8.2097369e-39
-0.091500007 0.060128573 0.91500002 8.3019325e-39
-0.089757144 0.060128573 0.91500002 8.8536517e-39
-0.087821908 0.059997145 0.91300005 9.1302386e-39
-0.085611433 0.059668574 0.90800005 9.1309575e-39
-0.083881907 0.059668574 0.90800005 9.4075444e-39
-0.081971429 0.059537143 0.90600002 9.49974e-39
-0.079980001 0.059340004 0.90300006 9.6841313e-39
-0.078260005 0.059340004 0.90300006 9.5933804e-39
-0.076540001 0.059340004 0.90300006 9.9621629e-39
-0.074820004 0.059340004 0.90300006 9.8696113e-39
-0.072938092 0.059208572 0.90100002 1.0146198e-38
-0.07122191 0.059208572 0.90100002 1.0054368e-38
-0.069505714 0.059208572 0.90100002 1.0146564e-38
-0.067789525 0.059208572 0.90100002 1.0146561e-38
-0.066073328 0.059208572 0.90100002 1.0146561e-38
-0.064357147 0.059208572 0.90100002 1.0239478e-38
-0.062640958 0.059208572 0.90100002 1.0331674e-38
-0.060924761 0.059208572 0.90100002 8.3051723e-39
-0.059208572 0.059208572 0.90100002 5.9080859e-39
-0.057492379 0.059208572 0.90100002 6.2725651e-39
-0.055776194 0.059208572 0.90100002 6.7335432e-39
-0.054060001 0.059208572 0.90100002 7.2884896e-39
-0.052169528 0.059011433 0.89800006 1.0699728e-38
-0.05045905 0.059011433 0.89800006 1.0516438e-38
-0.048748575 0.059011433 0.89800006 1.005546e-38
-0.047038097 0.059011433 0.89800006 9.9632615e-39
-0.045479048 0.059208572 0.90100002 9.9632615e-39
-0.043762855 0.059208572 0.90100002 1.0054378e-38
-0.04204667 0.059208572 0.90100002 9.9621825e-39
-0.040330477 0.059208572 0.90100002 9.9621825e-39
-0.038700003 0.059340004 0.90300006 9.9621825e-39
-0.036980003 0.059340004 0.90300006 1.0054368e-38
-0.035377141 0.059537143 0.90600002 1.0054368e-38
-0.033725716 0.059668574 0.90800005 9.9621755e-39
-0.031996191 0.059668574 0.90800005 9.8699799e-39
-0.030333333 0.059799999 0.91000003 9.6855886e-39
-0.028694287 0.059997145 0.91300005 9.593393e-39
-0.027014285 0.060128573 0.91500002 9.5008288e-39
-0.025354287 0.060325716 0.91800004 8.947655e-39
-0.023657143 0.06045714 0.92000002 9.1306072e-39
-0.021904761 0.06045714 0.92000002 9.2228028e-39
-0.020152381 0.06045714 0.92000002 1.0419188e-38
-0.0184 0.06045714 0.92000002 1.2078709e-38
-0.11462571 0.063088574 0.93300003 1.1985054e-38
-0.11284857 0.063088574 0.93300003 1.1524804e-38
-0.11107143 0.063088574 0.93300003 1.1432608e-38
-0.10929429 0.063088574 0.93300003 1.0880163e-38
-0.10751715 0.063088574 0.93300003 1.0603576e-38
-0.10574 0.063088574 0.93300003 1.0513892e-38
-0.10396286 0.063088574 0.93300003 1.0698283e-38
-0.10218572 0.063088574 0.93300003 1.0423138e-38
-0.10040857 0.063088574 0.93300003 1.1068508e-38
-0.098314293 0.062885717 0.93000007 1.1619909e-38
-0.095816195 0.062412385 0.92300004 1.0052583e-38
-0.093752384 0.062209524 0.92000002 8.8540203e-39
-0.091800004 0.062074285 0.91800004 8.5774334e-39
-0.089757144 0.061871432 0.91500002 8.7614589e-39
-0.087821908 0.061736196 0.91300005 9.1302414e-39
-0.0858 0.061533332 0.91000003 9.0384087e-39
-0.083881907 0.061398096 0.90800005 9.3149956e-39
-0.081971429 0.061262861 0.90600002 9.3149984e-39
-0.080245718 0.061262861 0.90600002 9.4993897e-39
-0.078260005 0.061060004 0.90300006 9.6837809e-39
-0.076540001 0.061060004 0.90300006 1.0052563e-38
-0.074820004 0.061060004 0.90300006 9.6852201e-39
-0.072938092 0.060924761 0.90100002 9.961807e-39
-0.07122191 0.060924761 0.90100002 9.8699799e-39
-0.069505714 0.060924761 0.90100002 1.0054371e-38
-0.067789525 0.060924761 0.90100002 1.0146917e-38
-0.066073328 0.060924761 0.90100002 1.0146917e-38
-0.064357147 0.060924761 0.90100002 1.0239476e-38
-0.062640958 0.060924761 0.90100002 1.0331671e-38
-0.060924761 0.060924761 0.90100002 1.0054381e-38
-0.059208572 0.060924761 0.90100002 9.7777941e-39
-0.057492379 0.060924761 0.90100002 1.0146201e-38
-0.055776194 0.060924761 0.90100002 1.0422788e-38
-0.054060001 0.060924761 0.90100002 1.0514265e-38
-0.052343812 0.060924761 0.90100002 1.0883047e-38
-0.05045905 0.060721908 0.89800006 1.0606836e-38
-0.048748575 0.060721908 0.89800006 1.0238053e-38
-0.047195237 0.060924761 0.90100002 1.0054381e-38
-0.045479048 0.060924761 0.90100002 1.0054381e-38
-0.043762855 0.060924761 0.90100002 9.9621853e-39
-0.04204667 0.060924761 0.90100002 9.9621853e-39
-0.04042 0.061060004 0.90300006 9.9621825e-39
-0.038700003 0.061060004 0.90300006 9.9621825e-39
-0.037102856 0.061262861 0.90600002 1.0054368e-38
-0.035455238 0.061398096 0.90800005 9.9621727e-39
-0.033800002 0.061533332 0.91000003 9.9621699e-39
-0.032066669 0.061533332 0.91000003 9.7777786e-39
-0.030433334 0.061736196 0.91300005 9.6855886e-39
-0.028694287 0.061736196 0.91300005 9.5011974e-39
-0.027014285 0.061871432 0.91500002 9.5008288e-39
-0.025354287 0.062074285 0.91800004 8.7632638e-39
-0.023657143 0.062209524 0.92000002 8.7629134e-39
-0.021904761 0.062209524 0.92000002 9.6848697e-39
-0.020218095 0.062412385 0.92300004 1.042063e-38
-0.018460002 0.062412385 0.92300004 1.189576e-38
-0.11487143 0.065004766 0.93500006 1.2076886e-38
-0.11284857 0.064865716 0.93300003 1.1708832e-38
-0.11107143 0.064865716 0.93300003 1.1616637e-38
-0.10929429 0.064865716 0.93300003 1.1616637e-38
-0.10751715 0.064865716 0.93300003 1.1432245e-38
-0.10574 0.064865716 0.93300003 1.0696125e-38
-0.10396286 0.064865716 0.93300003 1.1064908e-38
-0.10218572 0.064865716 0.93300003 1.0515337e-38
-0.10040857 0.064865716 0.93300003 1.0699728e-38
-0.098314293 0.064657152 0.93000007 1.1252205e-38
-0.096023813 0.064309523 0.92500007 1.0145858e-38
-0.094058096 0.06417048 0.92300004 9.1324022e-39
-0.091800004 0.063822858 0.91800004 8.2104459e-39
-0.089757144 0.063614286 0.91500002 8.8518595e-39
-0.088014282 0.063614286 0.91500002 9.1284464e-39
-0.086082861 0.063475236 0.91300005 9.1302386e-39
-0.084066667 0.063266665 0.91000003 9.4068255e-39
-0.082152382 0.063127622 0.90800005 9.4071912e-39
-0.080245718 0.062988572 0.90600002 9.5915825e-39
-0.07852 0.062988572 0.90600002 9.4089891e-39
-0.076540001 0.062780008 0.90300006 9.685576e-39
-0.074820004 0.062780008 0.90300006 9.7777716e-39
-0.073100001 0.062780008 0.90300006 1.0054359e-38
-0.07122191 0.062640958 0.90100002 9.962523e-39
-0.069505714 0.062640958 0.90100002 1.0146914e-38
-0.067789525 0.062640958 0.90100002 9.9632419e-39
-0.066073328 0.062640958 0.90100002 1.0147633e-38
-0.064357147 0.062640958 0.90100002 1.014728e-38
-0.062640958 0.062640958 0.90100002 1.0239476e-38
-0.060924761 0.062640958 0.90100002 1.042387e-38
-0.059340004 0.062780008 0.90300006 1.0516065e-38
-0.057620004 0.062780008 0.90300006 1.0331671e-38
-0.055900004 0.062780008 0.90300006 1.0516063e-38
-0.054060001 0.062640958 0.90100002 1.042387e-38
-0.052343812 0.062640958 0.90100002 1.0331674e-38
-0.050627619 0.062640958 0.90100002 1.0238772e-38
-0.04891143 0.062640958 0.90100002 1.0146577e-38
-0.047195237 0.062640958 0.90100002 9.8710659e-39
-0.045479048 0.062640958 0.90100002 9.8710659e-39
-0.043762855 0.062640958 0.90100002 9.6873935e-39
-0.04214 0.062780008 0.90300006 9.6873935e-39
-0.04042 0.062780008 0.90300006 9.8699869e-39
-0.03882857 0.062988572 0.90600002 9.8699869e-39
-0.037102856 0.062988572 0.90600002 9.8696267e-39
-0.035455238 0.063127622 0.90800005 9.8696267e-39
-0.033800002 0.063266665 0.91000003 9.7777842e-39
-0.032066669 0.063266665 0.91000003 9.7777842e-39
-0.030433334 0.063475236 0.91300005 9.5015575e-39
-0.028757144 0.063614286 0.91500002 9.4093619e-39
-0.027014285 0.063614286 0.91500002 9.4082801e-39
-0.025354287 0.063822858 0.91800004 8.5785194e-39
-0.023657143 0.063961908 0.92000002 8.3019325e-39
-0.021976192 0.06417048 0.92300004 9.8692582e-39
-0.020218095 0.06417048 0.92300004 1.115675e-38
-0.018460002 0.06417048 0.92300004 1.2170902e-38
-0.11107143 0.066642858 0.93300003 1.1708114e-38
-0.10929429 0.066642858 0.93300003 1.1616987e-38
-0.10751715 0.066642858 0.93300003 1.1709183e-38
-0.10574 0.066642858 0.93300003 1.1341119e-38
-0.10396286 0.066642858 0.93300003 1.069575e-38
-0.10218572 0.066642858 0.93300003 1.0236589e-38
-0.10040857 0.066642858 0.93300003 1.0236589e-38
-0.098314293 0.066428579 0.93000007 1.0054003e-38
-0.09633524 0.066285722 0.92800003 1.0238394e-38
-0.094261907 0.066071436 0.92500007 9.59193e-39
-0.092 0.065714285 0.92000002 8.2089956e-39
-0.090051427 0.065571435 0.91800004 8.3919701e-39
-0.088014282 0.065357141 0.91500002 8.8529483e-39
-0.086082861 0.065214291 0.91300005 8.8532986e-39
-0.084066667 0.064999998 0.91000003 9.3142767e-39
-0.082333334 0.064999998 0.91000003 9.4064724e-39
-0.080422863 0.064857148 0.90800005 9.5908636e-39
-0.078693338 0.064857148 0.90800005 9.775608e-39
-0.076794289 0.06471429 0.90600002 9.775608e-39
-0.074820004 0.064500004 0.90300006 9.5008288e-39
-0.073100001 0.064500004 0.90300006 9.961807e-39
-0.071380004 0.064500004 0.90300006 9.9628762e-39
-0.069660008 0.064500004 0.90300006 9.9628762e-39
-0.067940004 0.064500004 0.90300006 1.0054721e-38
-0.066220008 0.064500004 0.90300006 1.0146917e-38
-0.064500004 0.064500004 0.90300006 1.0146561e-38
-0.062780008 0.064500004 0.90300006 1.0238757e-38
-0.061060004 0.064500004 0.90300006 1.0238757e-38
-0.059340004 0.064500004 0.90300006 1.0238757e-38
-0.057620004 0.064500004 0.90300006 1.0238757e-38
-0.055900004 0.064500004 0.90300006 1.0238757e-38
-0.054180004 0.064500004 0.90300006 1.023876e-38
-0.052460004 0.064500004 0.90300006 1.023876e-38
-0.050740004 0.064500004 0.90300006 1.0238769e-38
-0.049020004 0.064500004 0.90300006 1.0146574e-38
-0.047300003 0.064500004 0.90300006 1.0054381e-38
-0.04558 0.064500004 0.90300006 1.0054381e-38
-0.04386 0.064500004 0.90300006 9.9621825e-39
-0.04214 0.064500004 0.90300006 9.9621825e-39
-0.040554285 0.06471429 0.90600002 1.0054371e-38
-0.03882857 0.06471429 0.90600002 9.8699799e-39
-0.037184764 0.064857148 0.90800005 9.8699799e-39
-0.035533335 0.064999998 0.91000003 9.8699799e-39
-0.033800002 0.064999998 0.91000003 9.7777786e-39
-0.032172382 0.065214291 0.91300005 9.685583e-39
-0.030433334 0.065214291 0.91300005 9.6848669e-39
-0.028757144 0.065357141 0.91500002 9.5926713e-39
-0.027014285 0.065357141 0.91500002 9.5915853e-39
-0.025409523 0.065714285 0.92000002 8.8540203e-39
-0.023657143 0.065714285 0.92000002 8.669629e-39
-0.021976192 0.065928578 0.92300004 1.0513542e-38
-0.020261906 0.066071436 0.92500007 1.1525533e-38
-0.10396286 0.06842 0.93300003 1.1155661e-38
-0.10218572 0.06842 0.93300003 1.0971267e-38
-0.10040857 0.06842 0.93300003 1.0971267e-38
-0.098314293 0.068200007 0.93000007 1.0236939e-38
-0.096542865 0.068200007 0.93000007 1.0144744e-38
-0.094567627 0.068053335 0.92800003 9.3153487e-39
-0.092299998 0.067686662 0.92300004 8.1168056e-39
-0.090247624 0.067466669 0.92000002 8.3011968e-39
-0.088302858 0.067320004 0.91800004 8.5777837e-39
-0.086271428 0.067100003 0.91500002 8.6692605e-39
-0.084343813 0.066953339 0.91300005 9.3146299e-39
-0.082604766 0.066953339 0.91300005 9.4068255e-39
-0.080600001 0.06673333 0.91000003 9.6834124e-39
-0.078693338 0.066586666 0.90800005 9.775608e-39
-0.076963812 0.066586666 0.90800005 9.8678037e-39
-0.075068571 0.066440001 0.90600002 9.3167935e-39
-0.073100001 0.066220008 0.90300006 9.9621629e-39
-0.071380004 0.066220008 0.90300006 9.8703274e-39
-0.069660008 0.066220008 0.90300006 9.962523e-39
-0.067940004 0.066220008 0.90300006 1.0054719e-38
-0.066220008 0.066220008 0.90300006 1.0146914e-38
-0.064500004 0.066220008 0.90300006 1.0238757e-38
-0.062780008 0.066220008 0.90300006 1.0238757e-38
-0.061060004 0.066220008 0.90300006 1.023876e-38
-0.059340004 0.066220008 0.90300006 1.023876e-38
-0.057620004 0.066220008 0.90300006 1.0422072e-38
-0.055900004 0.066220008 0.90300006 1.0422072e-38
-0.054180004 0.066220008 0.90300006 1.0238409e-38
-0.052460004 0.066220008 0.90300006 1.0238409e-38
-0.050740004 0.066220008 0.90300006 1.0238053e-38
-0.049020004 0.066220008 0.90300006 1.0238053e-38
-0.047300003 0.066220008 0.90300006 1.0054378e-38
-0.04558 0.066220008 0.90300006 9.9621825e-39
-0.04386 0.066220008 0.90300006 9.9621825e-39
-0.04228 0.066440001 0.90600002 9.9621825e-39
-0.040554285 0.066440001 0.90600002 9.9621755e-39
-0.038914286 0.066586666 0.90800005 9.9621755e-39
-0.037266668 0.06673333 0.91000003 9.9614566e-39
-0.035533335 0.06673333 0.91000003 9.869261e-39
-0.033911429 0.066953339 0.91300005 9.7770654e-39
-0.032172382 0.066953339 0.91300005 9.5926741e-39
-0.0305 0.067100003 0.91500002 9.5926713e-39
-0.028757144 0.067100003 0.91500002 9.3160844e-39
-0.027014285 0.067100003 0.91500002 9.3146453e-39
-0.025409523 0.067466669 0.92000002 8.8536671e-39
-0.023734286 0.067686662 0.92300004 9.0362535e-39
-0.021976192 0.067686662 0.92300004 1.1617731e-38
-0.020261906 0.067833342 0.92500007 1.180212e-38
-0.10218572 0.070197143 0.93300003 1.1155661e-38
-0.10040857 0.070197143 0.93300003 1.1063466e-38
-0.098314293 0.069971435 0.93000007 1.0787942e-38
-0.096542865 0.069971435 0.93000007 1.0050377e-38
-0.094567627 0.069820955 0.92800003 9.4993743e-39
-0.092500009 0.06959524 0.92500007 8.2086354e-39
-0.090541907 0.069444761 0.92300004 8.2086354e-39
-0.088495232 0.069219045 0.92000002 8.577418e-39
-0.086271428 0.068842858 0.91500002 8.6692605e-39
-0.084528573 0.068842858 0.91500002 9.3146299e-39
-0.082604766 0.068692386 0.91300005 9.4071786e-39
-0.080865718 0.068692386 0.91300005 9.4993743e-39
-0.078866668 0.068466663 0.91000003 9.4986708e-39
-0.076963812 0.068316191 0.90800005 9.8674533e-39
-0.075234286 0.068316191 0.90800005 9.5008288e-39
-0.07334286 0.06816572 0.90600002 9.8696113e-39
-0.071617141 0.06816572 0.90600002 9.9621573e-39
-0.069660008 0.067940004 0.90300006 9.9621573e-39
-0.067940004 0.067940004 0.90300006 9.8699743e-39
-0.066220008 0.067940004 0.90300006 1.0146561e-38
-0.064500004 0.067940004 0.90300006 1.0146561e-38
-0.062780008 0.067940004 0.90300006 1.0146561e-38
-0.061060004 0.067940004 0.90300006 1.023876e-38
-0.059340004 0.067940004 0.90300006 1.023876e-38
-0.057620004 0.067940004 0.90300006 1.0238409e-38
-0.055900004 0.067940004 0.90300006 1.0238409e-38
-0.054180004 0.067940004 0.90300006 1.0238409e-38
-0.052460004 0.067940004 0.90300006 1.0238409e-38
-0.050740004 0.067940004 0.90300006 1.0146577e-38
-0.049020004 0.067940004 0.90300006 1.0146577e-38
-0.047300003 0.067940004 0.90300006 1.023876e-38
-0.04558 0.067940004 0.90300006 1.0054368e-38
-0.044005714 0.06816572 0.90600002 1.0054018e-38
-0.04228 0.06816572 0.90600002 1.0054018e-38
-0.040643811 0.068316191 0.90800005 9.9621755e-39
-0.038914286 0.068316191 0.90800005 9.8699799e-39
-0.037266668 0.068466663 0.91000003 9.6852355e-39
-0.035650477 0.068692386 0.91300005 9.6852355e-39
-0.033911429 0.068692386 0.91300005 9.4090087e-39
-0.032172382 0.068692386 0.91300005 9.3168131e-39
-0.0305 0.068842858 0.91500002 9.4082829e-39
-0.028757144 0.068842858 0.91500002 9.131696e-39
-0.02710286 0.069068573 0.91800004 9.1295478e-39
-0.025492381 0.069444761 0.92300004 8.7607653e-39
-0.023785716 0.06959524 0.92500007 9.128096e-39
-0.022023812 0.06959524 0.92500007 1.1709574e-38
-0.096542865 0.071742855 0.93000007 1.1432233e-38
-0.094567627 0.071588568 0.92800003 1.060428e-38
-0.092500009 0.071357146 0.92500007 9.0369542e-39
-0.090541907 0.071202859 0.92300004 8.3912344e-39
-0.088495232 0.070971429 0.92000002 8.6678213e-39
-0.086554289 0.070817143 0.91800004 8.8540049e-39
-0.084528573 0.07058572 0.91500002 9.2227874e-39
-0.082785718 0.07058572 0.91500002 9.1309519e-39
-0.080865718 0.070431434 0.91300005 9.3153431e-39
-0.079126671 0.070431434 0.91300005 9.1306016e-39
-0.077133335 0.070199996 0.91000003 9.775971e-39
-0.075234286 0.070045717 0.90800005 9.5930244e-39
-0.07334286 0.06989143 0.90600002 9.8696113e-39
-0.071617141 0.06989143 0.90600002 9.8699673e-39
-0.06989143 0.06989143 0.90600002 9.9621629e-39
-0.06816572 0.06989143 0.90600002 9.8703302e-39
-0.066220008 0.069660008 0.90300006 1.0146917e-38
-0.064500004 0.069660008 0.90300006 1.0146561e-38
-0.062780008 0.069660008 0.90300006 1.0238757e-38
-0.061060004 0.069660008 0.90300006 1.0146927e-38
-0.059340004 0.069660008 0.90300006 1.0146927e-38
-0.057620004 0.069660008 0.90300006 1.023876e-38
-0.055900004 0.069660008 0.90300006 1.023876e-38
-0.054180004 0.069660008 0.90300006 1.0330605e-38
-0.052460004 0.069660008 0.90300006 1.0238409e-38
-0.050740004 0.069660008 0.90300006 1.0330249e-38
-0.049020004 0.069660008 0.90300006 1.0238053e-38
-0.047457144 0.06989143 0.90600002 1.0146214e-38
-0.045731429 0.06989143 0.90600002 1.0054018e-38
-0.044005714 0.06989143 0.90600002 1.0054018e-38
-0.042373337 0.070045717 0.90800005 9.9618224e-39
-0.040643811 0.070045717 0.90800005 9.9618224e-39
-0.039000001 0.070199996 0.91000003 9.9618224e-39
-0.037389524 0.070431434 0.91300005 9.8699799e-39
-0.035650477 0.070431434 0.91300005 9.8699799e-39
-0.033911429 0.070431434 0.91300005 9.6855886e-39
-0.032242857 0.07058572 0.91500002 9.6855886e-39
