# .PCD v0.7 - Point Cloud Data file format
VERSION 0.7
FIELDS x y z rgb
SIZE 4 4 4 4
TYPE F F F F
COUNT 1 1 1 1
WIDTH 996
HEIGHT 1
VIEWPOINT 0 0 0 1 0 0 0
POINTS 996
DATA ascii
-0.058494285 -0.064442858 1.041 8.0238224e-39
-0.056348577 -0.064257152 1.0380001 1.4477516e-38
-0.054371431 -0.064257152 1.0380001 1.8069599e-38
-0.052394293 -0.064257152 1.0380001 2.0651077e-38
-0.14574 -0.062459998 1.041 1.2261996e-38
-0.14375715 -0.062459998 1.041 7.375628e-39
-0.1417743 -0.062459998 1.041 8.4798273e-39
-0.13979143 -0.062459998 1.041 9.9549574e-39
-0.13820571 -0.062640004 1.044 1.0508131e-38
-0.13660859 -0.062820002 1.0470001 1.0600327e-38
-0.13551429 -0.063239999 1.054 1.0233349e-38
-0.13350667 -0.063239999 1.054 1.041774e-38
-0.13224761 -0.063600004 1.0600001 1.0601779e-38
-0.13022858 -0.063600004 1.0600001 1.0601779e-38
-0.12820953 -0.063600004 1.0600001 1.0602497e-38
-0.12654763 -0.063780002 1.0630001 1.0602497e-38
-0.12452286 -0.063780002 1.0630001 1.0602497e-38
-0.12249811 -0.063780002 1.0630001 1.0694693e-38
-0.12047334 -0.063780002 1.0630001 1.0786889e-38
-0.11844858 -0.063780002 1.0630001 1.0786889e-38
-0.1168619 -0.06402 1.067 1.0879084e-38
-0.11482953 -0.06402 1.067 1.0879084e-38
-0.11279715 -0.06402 1.067 1.097128e-38
-0.11076476 -0.06402 1.067 1.097128e-38
-0.1090381 -0.064200006 1.0700001 1.0971283e-38
-0.10700001 -0.064200006 1.0700001 1.1063478e-38
-0.10496191 -0.064200006 1.0700001 1.1063478e-38
-0.10292382 -0.064200006 1.0700001 1.0971283e-38
-0.10088572 -0.064200006 1.0700001 1.0970564e-38
-0.098570473 -0.06402 1.067 1.0970564e-38
-0.096538097 -0.06402 1.067 1.0970561e-38
-0.09477143 -0.064200006 1.0700001 1.0878365e-38
-0.092733338 -0.064200006 1.0700001 1.0878368e-38
-0.090440959 -0.06402 1.067 1.0878368e-38
-0.088408574 -0.06402 1.067 1.0694693e-38
-0.086052381 -0.063780002 1.0630001 1.0602497e-38
-0.084027618 -0.063780002 1.0630001 1.0418106e-38
-0.082002863 -0.063780002 1.0630001 1.0418106e-38
-0.079978101 -0.063780002 1.0630001 1.0325911e-38
-0.077733338 -0.063600004 1.0600001 1.0325911e-38
-0.075500004 -0.063420005 1.057 1.0233715e-38
-0.073486671 -0.063420005 1.057 1.0141519e-38
-0.071270473 -0.063239999 1.054 9.6812698e-39
-0.069000006 -0.063000001 1.0500001 9.4968786e-39
-0.067000002 -0.063000001 1.0500001 9.1284492e-39
-0.064814284 -0.062820002 1.0470001 8.4830797e-39
-0.062820002 -0.062820002 1.0470001 7.3788748e-39
-0.060651429 -0.062640004 1.044 7.563266e-39
-0.058662858 -0.062640004 1.044 1.1149908e-38
-0.056348577 -0.062280003 1.0380001 1.3823581e-38
-0.054371431 -0.062280003 1.0380001 1.6132758e-38
-0.052394293 -0.062280003 1.0380001 2.0373757e-38
-0.14672953 -0.060070477 1.034 1.4012301e-38
-0.14574 -0.060477141 1.041 1.1895347e-38
-0.14375715 -0.060477141 1.041 7.2855651e-39
-0.1417743 -0.060477141 1.041 8.3898051e-39
-0.1401943 -0.060651429 1.044 9.5883483e-39
-0.13820571 -0.060651429 1.044 9.9556833e-39
-0.13660859 -0.060825717 1.0470001 1.023227e-38
-0.13551429 -0.061232381 1.054 1.01408e-38
-0.13350667 -0.061232381 1.054 1.0232996e-38
-0.13224761 -0.061580956 1.0600001 1.0141522e-38
-0.13022858 -0.061580956 1.0600001 1.0141522e-38
-0.12820953 -0.061580956 1.0600001 1.0233365e-38
-0.12654763 -0.06175524 1.0630001 1.0417756e-38
-0.12452286 -0.06175524 1.0630001 1.0418109e-38
-0.12249811 -0.06175524 1.0630001 1.0510305e-38
-0.12047334 -0.06175524 1.0630001 1.06025e-38
-0.11844858 -0.06175524 1.0630001 1.06025e-38
-0.1168619 -0.061987624 1.067 1.0694696e-38
-0.11482953 -0.061987624 1.067 1.0694696e-38
-0.11279715 -0.061987624 1.067 1.0786891e-38
-0.11076476 -0.061987624 1.067 1.0786891e-38
-0.1090381 -0.062161908 1.0700001 1.0786891e-38
-0.10700001 -0.062161908 1.0700001 1.0786891e-38
-0.10496191 -0.062161908 1.0700001 1.069434e-38
-0.10292382 -0.062161908 1.0700001 1.069434e-38
-0.10088572 -0.062161908 1.0700001 1.0786173e-38
-0.098570473 -0.061987624 1.067 1.0786173e-38
-0.096538097 -0.061987624 1.067 1.0786173e-38
-0.09477143 -0.062161908 1.0700001 1.0693977e-38
-0.092733338 -0.062161908 1.0700001 1.0693977e-38
-0.09069524 -0.062161908 1.0700001 1.0693977e-38
-0.088408574 -0.061987624 1.067 1.0694327e-38
-0.086052381 -0.06175524 1.0630001 1.0509936e-38
-0.084027618 -0.06175524 1.0630001 1.041774e-38
-0.082002863 -0.06175524 1.0630001 1.0141154e-38
-0.079978101 -0.06175524 1.0630001 1.0048605e-38
-0.077733338 -0.061580956 1.0600001 9.9564092e-39
-0.075500004 -0.061406672 1.057 9.8642135e-39
-0.073486671 -0.061406672 1.057 9.7720179e-39
-0.071270473 -0.061232381 1.054 9.1263108e-39
-0.069000006 -0.061000001 1.0500001 8.7575283e-39
-0.067000002 -0.061000001 1.0500001 8.941181e-39
-0.064814284 -0.060825717 1.0470001 8.5723985e-39
-0.062640004 -0.060651429 1.044 1.0601383e-38
-0.060651429 -0.060651429 1.044 1.5856534e-38
-0.058662858 -0.060651429 1.044 1.5118298e-38
-0.056674287 -0.060651429 1.044 1.1153886e-38
-0.054685716 -0.060651429 1.044 1.1526647e-38
-0.050678097 -0.058327623 1.0040001 1.8994493e-38
-0.14869905 -0.058100954 1.034 1.6503368e-38
-0.14672953 -0.058100954 1.034 1.4843847e-38
-0.14476 -0.058100954 1.034 1.336626e-38
-0.14279048 -0.058100954 1.034 8.3876962e-39
-0.14136574 -0.058325719 1.0380001 7.6525904e-39
-0.1401943 -0.058662858 1.044 9.0355249e-39
-0.13860285 -0.058831431 1.0470001 9.6790964e-39
-0.13660859 -0.058831431 1.0470001 9.8634877e-39
-0.13551429 -0.059224762 1.054 9.7720179e-39
-0.13350667 -0.059224762 1.054 1.0048605e-38
-0.13224761 -0.059561908 1.0600001 9.9571308e-39
-0.13022858 -0.059561908 1.0600001 1.0049326e-38
-0.12820953 -0.059561908 1.0600001 1.0141522e-38
-0.12619048 -0.059561908 1.0600001 1.0233718e-38
-0.12452286 -0.059730481 1.0630001 1.0233718e-38
-0.12249811 -0.059730481 1.0630001 1.0418109e-38
-0.12047334 -0.059730481 1.0630001 1.0418106e-38
-0.11844858 -0.059730481 1.0630001 1.0418106e-38
-0.1168619 -0.059955239 1.067 1.0510302e-38
-0.11482953 -0.059955239 1.067 1.0510302e-38
-0.11279715 -0.059955239 1.067 1.0602497e-38
-0.11076476 -0.059955239 1.067 1.0602497e-38
-0.1090381 -0.060123812 1.0700001 1.0601781e-38
-0.10700001 -0.060123812 1.0700001 1.0601781e-38
-0.10496191 -0.060123812 1.0700001 1.0601781e-38
-0.10292382 -0.060123812 1.0700001 1.0601781e-38
-0.10088572 -0.060123812 1.0700001 1.0601781e-38
-0.098847628 -0.060123812 1.0700001 1.0509586e-38
-0.096809521 -0.060123812 1.0700001 1.0509586e-38
-0.09477143 -0.060123812 1.0700001 1.041739e-38
-0.092733338 -0.060123812 1.0700001 1.041739e-38
-0.09069524 -0.060123812 1.0700001 1.0325194e-38
-0.088408574 -0.059955239 1.067 1.0324841e-38
-0.086052381 -0.059730481 1.0630001 1.0048254e-38
-0.084027618 -0.059730481 1.0630001 9.9560588e-39
-0.082002863 -0.059730481 1.0630001 9.9560588e-39
-0.079978101 -0.059730481 1.0630001 9.9564092e-39
-0.077733338 -0.059561908 1.0600001 9.6798223e-39
-0.07571429 -0.059561908 1.0600001 9.4961373e-39
-0.073486671 -0.059393335 1.057 9.4039416e-39
-0.071270473 -0.059224762 1.054 8.7582191e-39
-0.069000006 -0.059000004 1.0500001 8.5738278e-39
-0.067000002 -0.059000004 1.0500001 9.5829631e-39
-0.064814284 -0.058831431 1.0470001 1.0412724e-38
-0.062640004 -0.058662858 1.044 1.3635605e-38
-0.060651429 -0.058662858 1.044 1.6770257e-38
-0.058662858 -0.058662858 1.044 1.4017348e-38
-0.05450286 -0.056415241 1.0040001 9.4997624e-39
-0.15023142 -0.055968571 1.031 1.5764371e-38
-0.14672953 -0.05613143 1.034 1.6411135e-38
-0.14476 -0.05613143 1.034 1.6128584e-38
-0.14279048 -0.05613143 1.034 1.0596846e-38
-0.14082095 -0.05613143 1.034 7.5596913e-39
-0.1401943 -0.056674287 1.044 8.389452e-39
-0.13860285 -0.056837145 1.0470001 8.5741936e-39
-0.13660859 -0.056837145 1.0470001 8.9429761e-39
-0.13551429 -0.057217143 1.054 9.3110426e-39
-0.13350667 -0.057217143 1.054 9.6798251e-39
-0.13224761 -0.057542857 1.0600001 9.7716676e-39
-0.13022858 -0.057542857 1.0600001 9.9560588e-39
-0.12820953 -0.057542857 1.0600001 9.8645821e-39
-0.12619048 -0.057542857 1.0600001 9.9567777e-39
-0.12452286 -0.057705715 1.0630001 1.0049326e-38
-0.12249811 -0.057705715 1.0630001 1.0141522e-38
-0.12047334 -0.057705715 1.0630001 1.0325192e-38
-0.11844858 -0.057705715 1.0630001 1.0232996e-38
-0.1168619 -0.057922855 1.067 1.0509936e-38
-0.11482953 -0.057922855 1.067 1.0602132e-38
-0.11279715 -0.057922855 1.067 1.0509936e-38
-0.11076476 -0.057922855 1.067 1.041774e-38
-0.1090381 -0.058085714 1.0700001 1.0417387e-38
-0.10700001 -0.058085714 1.0700001 1.0417387e-38
-0.10496191 -0.058085714 1.0700001 1.041739e-38
-0.10292382 -0.058085714 1.0700001 1.041739e-38
-0.10088572 -0.058085714 1.0700001 1.0325194e-38
-0.098847628 -0.058085714 1.0700001 1.0325194e-38
-0.096809521 -0.058085714 1.0700001 1.014045e-38
-0.09477143 -0.058085714 1.0700001 1.014045e-38
-0.092733338 -0.058085714 1.0700001 1.0048254e-38
-0.09069524 -0.058085714 1.0700001 1.0048254e-38
-0.088408574 -0.057922855 1.067 9.6791244e-39
-0.08637619 -0.057922855 1.067 9.6791244e-39
-0.084343813 -0.057922855 1.067 9.4025445e-39
-0.082311429 -0.057922855 1.067 9.2181533e-39
-0.079978101 -0.057705715 1.0630001 9.0344557e-39
-0.077953339 -0.057705715 1.0630001 8.8500644e-39
-0.07571429 -0.057542857 1.0600001 9.1259226e-39
-0.073695242 -0.057542857 1.0600001 9.9556833e-39
-0.071473338 -0.057379998 1.057 1.0877973e-38
-0.069262855 -0.057217143 1.054 1.2260908e-38
-0.067000002 -0.057 1.0500001 1.4380678e-38
-0.062152382 -0.05450286 1.0040001 1.5210439e-38
-0.06024 -0.05450286 1.0040001 1.2627972e-38
-0.058327623 -0.05450286 1.0040001 1.1706016e-38
-0.056415241 -0.05450286 1.0040001 1.0236939e-38
-0.05450286 -0.05450286 1.0040001 8.1164398e-39
-0.052590482 -0.05450286 1.0040001 1.0884114e-38
-0.050678097 -0.05450286 1.0040001 1.8628546e-38
-0.048765715 -0.05450286 1.0040001 1.9729512e-38
-0.15023142 -0.054004762 1.031 1.6870356e-38
-0.14826761 -0.054004762 1.031 1.3737136e-38
-0.14630382 -0.054004762 1.031 1.4566897e-38
-0.14434001 -0.054004762 1.031 1.5485667e-38
-0.14237618 -0.054004762 1.031 1.1890037e-38
-0.14041238 -0.054004762 1.031 1.115282e-38
-0.13979143 -0.054528572 1.041 9.4011026e-39
-0.13860285 -0.05484286 1.0470001 8.3908813e-39
-0.13660859 -0.05484286 1.0470001 8.8518595e-39
-0.13500002 -0.055000003 1.0500001 9.2184938e-39
-0.13350667 -0.055209525 1.054 9.5872763e-39
-0.13224761 -0.055523813 1.0600001 9.7705886e-39
-0.13022858 -0.055523813 1.0600001 9.6783929e-39
-0.12820953 -0.055523813 1.0600001 9.6798223e-39
-0.12619048 -0.055523813 1.0600001 9.8642135e-39
-0.12452286 -0.055680957 1.0630001 9.9564092e-39
-0.12249811 -0.055680957 1.0630001 1.0048605e-38
-0.12047334 -0.055680957 1.0630001 1.0048608e-38
-0.11844858 -0.055680957 1.0630001 1.0140803e-38
-0.1168619 -0.055890478 1.067 1.01408e-38
-0.11482953 -0.055890478 1.067 1.0232996e-38
-0.11279715 -0.055890478 1.067 1.0232996e-38
-0.11076476 -0.055890478 1.067 1.0232996e-38
-0.1090381 -0.056047622 1.0700001 1.01408e-38
-0.10700001 -0.056047622 1.0700001 1.0048605e-38
-0.10496191 -0.056047622 1.0700001 1.0140803e-38
-0.10292382 -0.056047622 1.0700001 1.0140803e-38
-0.10088572 -0.056047622 1.0700001 1.0231917e-38
-0.098847628 -0.056047622 1.0700001 1.0047526e-38
-0.096809521 -0.056047622 1.0700001 9.955333e-39
-0.09477143 -0.056047622 1.0700001 9.955333e-39
-0.092993334 -0.056204766 1.0730001 9.9553302e-39
-0.09069524 -0.056047622 1.0700001 9.9553302e-39
-0.088657148 -0.056047622 1.0700001 9.5876294e-39
-0.086619049 -0.056047622 1.0700001 9.4954338e-39
-0.084580958 -0.056047622 1.0700001 8.9429789e-39
-0.082311429 -0.055890478 1.067 8.8507833e-39
-0.080279045 -0.055890478 1.067 8.6656731e-39
-0.077953339 -0.055680957 1.0630001 9.4954338e-39
-0.07571429 -0.055523813 1.0600001 1.0415582e-38
-0.073695242 -0.055523813 1.0600001 1.0968756e-38
-0.071473338 -0.055366669 1.057 1.1797075e-38
-0.069460005 -0.055366669 1.057 1.3640988e-38
-0.063873336 -0.052433338 1.001 1.4289604e-38
-0.061966669 -0.052433338 1.001 1.3552039e-38
-0.06024 -0.052590482 1.0040001 1.079124e-38
-0.058327623 -0.052590482 1.0040001 9.8692834e-39
-0.056415241 -0.052590482 1.0040001 1.0234421e-38
-0.05450286 -0.052590482 1.0040001 9.035878e-39
-0.052590482 -0.052590482 1.0040001 1.1341504e-38
-0.050678097 -0.052590482 1.0040001 1.9270329e-38
-0.14979428 -0.051889524 1.028 1.7332053e-38
-0.14783618 -0.051889524 1.028 1.4381452e-38
-0.14587809 -0.051889524 1.028 6.8214102e-39
-0.14434001 -0.052040953 1.031 7.6522401e-39
-0.14237618 -0.052040953 1.031 1.2815195e-38
-0.14041238 -0.052040953 1.031 1.2996392e-38
-0.13979143 -0.052545715 1.041 1.2535414e-38
-0.13860285 -0.052848574 1.0470001 1.2076896e-38
-0.13700001 -0.053000003 1.0500001 1.19847e-38
-0.13500002 -0.053000003 1.0500001 9.7717054e-39
-0.13350667 -0.053201903 1.054 9.4951185e-39
-0.13224761 -0.053504765 1.0600001 9.403248e-39
-0.13022858 -0.053504765 1.0600001 8.9422698e-39
-0.12820953 -0.053504765 1.0600001 9.0351717e-39
-0.12654763 -0.053656194 1.0630001 9.0351717e-39
-0.12452286 -0.053656194 1.0630001 8.9422572e-39
-0.12249811 -0.053656194 1.0630001 9.0344529e-39
-0.12047334 -0.053656194 1.0630001 9.4021592e-39
-0.11844858 -0.053656194 1.0630001 9.4021592e-39
-0.1168619 -0.053858098 1.067 9.2188469e-39
-0.11482953 -0.053858098 1.067 9.3110426e-39
-0.11279715 -0.053858098 1.067 9.3110398e-39
-0.11107619 -0.054009527 1.0700001 9.3110398e-39
-0.1090381 -0.054009527 1.0700001 9.2188441e-39
-0.10700001 -0.054009527 1.0700001 9.3110398e-39
-0.10496191 -0.054009527 1.0700001 9.2188469e-39
-0.10292382 -0.054009527 1.0700001 9.1266513e-39
-0.10088572 -0.054009527 1.0700001 9.3099608e-39
-0.098847628 -0.054009527 1.0700001 9.3099608e-39
-0.096809521 -0.054009527 1.0700001 9.4021592e-39
-0.095037147 -0.054160956 1.0730001 9.3099636e-39
-0.092993334 -0.054160956 1.0730001 9.5862001e-39
-0.09069524 -0.054009527 1.0700001 1.0692548e-38
-0.088657148 -0.054009527 1.0700001 1.087764e-38
-0.086619049 -0.054009527 1.0700001 1.1338618e-38
-0.084580958 -0.054009527 1.0700001 1.1339334e-38
-0.082542859 -0.054009527 1.0700001 1.1615921e-38
-0.080279045 -0.053858098 1.067 1.3091751e-38
-0.077953339 -0.053656194 1.0630001 1.3644925e-38
-0.07571429 -0.053504765 1.0600001 1.3183622e-38
-0.073695242 -0.053504765 1.0600001 1.2999231e-38
-0.071676195 -0.053504765 1.0600001 1.2722281e-38
-0.065582857 -0.050375238 0.99800003 1.2722281e-38
-0.063681908 -0.050375238 0.99800003 1.1802488e-38
-0.061966669 -0.050526667 1.001 1.134151e-38
-0.06024 -0.050678097 1.0040001 1.1158195e-38
-0.058327623 -0.050678097 1.0040001 1.0881608e-38
-0.056415241 -0.050678097 1.0040001 1.0236586e-38
-0.05450286 -0.050678097 1.0040001 8.9458474e-39
-0.052590482 -0.050678097 1.0040001 1.134223e-38
-0.050678097 -0.050678097 1.0040001 1.9086663e-38
-0.04713333 -0.050980952 1.01 1.8530981e-38
-0.14979428 -0.049931429 1.028 1.7701195e-38
-0.14740478 -0.049785718 1.0250001 1.4842783e-38
-0.1454524 -0.049785718 1.0250001 6.6373721e-39
-0.14308001 -0.049640004 1.0220001 6.2728159e-39
-0.14113335 -0.049640004 1.0220001 9.4996629e-39
-0.14041238 -0.050077144 1.031 1.2348476e-38
-0.1401943 -0.050708573 1.044 1.3362628e-38
-0.13860285 -0.050854288 1.0470001 1.45633e-38
-0.13700001 -0.051000003 1.0500001 1.2166213e-38
-0.13551429 -0.051194288 1.054 9.6827244e-39
-0.13388668 -0.051340003 1.057 1.0696876e-38
-0.13224761 -0.051485714 1.0600001 1.1248949e-38
-0.13022858 -0.051485714 1.0600001 1.0695775e-38
-0.12820953 -0.051485714 1.0600001 1.078617e-38
-0.12654763 -0.051631432 1.0630001 1.0048605e-38
-0.12452286 -0.051631432 1.0630001 9.034806e-39
-0.12249811 -0.051631432 1.0630001 9.2191972e-39
-0.12047334 -0.051631432 1.0630001 9.5851183e-39
-0.11844858 -0.051631432 1.0630001 9.7695096e-39
-0.1168619 -0.051825713 1.067 9.1266513e-39
-0.11482953 -0.051825713 1.067 9.4032382e-39
-0.11311429 -0.051971432 1.0700001 9.3114083e-39
-0.11107619 -0.051971432 1.0700001 9.3114083e-39
-0.10934381 -0.052117147 1.0730001 9.3113929e-39
-0.10730001 -0.052117147 1.0730001 9.3113929e-39
-0.10496191 -0.051971432 1.0700001 9.4032354e-39
-0.10292382 -0.051971432 1.0700001 9.4032354e-39
-0.10088572 -0.051971432 1.0700001 9.5869008e-39
-0.098847628 -0.051971432 1.0700001 1.0140075e-38
-0.096809521 -0.051971432 1.0700001 1.087621e-38
-0.095037147 -0.052117147 1.0730001 1.1060602e-38
-0.092993334 -0.052117147 1.0730001 1.1245343e-38
-0.09069524 -0.051971432 1.0700001 1.1337539e-38
-0.088657148 -0.051971432 1.0700001 1.1062747e-38
-0.086619049 -0.051971432 1.0700001 1.1615921e-38
-0.084580958 -0.051971432 1.0700001 1.2627915e-38
-0.082542859 -0.051971432 1.0700001 1.3549871e-38
-0.080279045 -0.051825713 1.067 1.3092858e-38
-0.077953339 -0.051631432 1.0630001 1.3000663e-38
-0.075928576 -0.051631432 1.0630001 1.2265982e-38
-0.06917619 -0.048328575 0.99500006 1.1989395e-38
-0.067280956 -0.048328575 0.99500006 1.1805359e-38
-0.065582857 -0.048474289 0.99800003 1.1620968e-38
-0.063681908 -0.048474289 0.99800003 1.0974883e-38
-0.061966669 -0.04862 1.001 1.1159274e-38
-0.060060002 -0.04862 1.001 1.1433703e-38
-0.058327623 -0.048765715 1.0040001 1.1157116e-38
-0.056415241 -0.048765715 1.0040001 1.0696844e-38
-0.05450286 -0.048765715 1.0040001 9.1295183e-39
-0.052590482 -0.048765715 1.0040001 1.1066347e-38
-0.050678097 -0.048765715 1.0040001 1.8718584e-38
-0.049057141 -0.049057141 1.01 1.9360389e-38
-0.04713333 -0.049057141 1.01 1.889941e-38
-0.14998096 -0.047413334 1.016 1.7332053e-38
-0.1480457 -0.047413334 1.016 1.7977422e-38
-0.14611048 -0.047413334 1.016 1.5672541e-38
-0.14374952 -0.047273334 1.013 7.7437168e-39
-0.14182 -0.047273334 1.013 7.28524e-39
-0.13947618 -0.04713333 1.01 8.8525657e-39
-0.13755237 -0.04713333 1.01 9.9556833e-39
-0.13562857 -0.04713333 1.01 1.1154226e-38
-0.13900001 -0.049000002 1.0500001 1.1339697e-38
-0.13700001 -0.049000002 1.0500001 1.1247501e-38
-0.13551429 -0.049186666 1.054 1.0881602e-38
-0.13388668 -0.049326669 1.057 1.1803559e-38
-0.13224761 -0.04946667 1.0600001 1.2263451e-38
-0.13022858 -0.04946667 1.0600001 1.2632233e-38
-0.12820953 -0.04946667 1.0600001 1.2724076e-38
-0.12619048 -0.04946667 1.0600001 1.3369445e-38
-0.12452286 -0.04960667 1.0630001 1.3460915e-38
-0.12249811 -0.04960667 1.0630001 1.3921893e-38
-0.12047334 -0.04960667 1.0630001 1.3367297e-38
-0.11844858 -0.04960667 1.0630001 1.2906319e-38
-0.1168619 -0.049793333 1.067 1.216947e-38
-0.11482953 -0.049793333 1.067 1.2446057e-38
-0.11311429 -0.049933337 1.0700001 1.2538255e-38
-0.11107619 -0.049933337 1.0700001 1.3552407e-38
-0.10934381 -0.050073337 1.0730001 1.3460196e-38
-0.10730001 -0.050073337 1.0730001 1.3644587e-38
-0.10496191 -0.049933337 1.0700001 1.3460915e-38
-0.10292382 -0.049933337 1.0700001 1.3921893e-38
-0.10088572 -0.049933337 1.0700001 1.3829695e-38
-0.098847628 -0.049933337 1.0700001 1.4106282e-38
-0.096809521 -0.049933337 1.0700001 1.3921187e-38
-0.095037147 -0.050073337 1.0730001 1.36446e-38
-0.092993334 -0.050073337 1.0730001 1.3092858e-38
-0.09069524 -0.049933337 1.0700001 1.3092858e-38
-0.088657148 -0.049933337 1.0700001 1.3001016e-38
-0.086619049 -0.049933337 1.0700001 1.290882e-38
-0.084343813 -0.049793333 1.067 1.2816625e-38
-0.082311429 -0.049793333 1.067 1.2816625e-38
-0.079978101 -0.04960667 1.0630001 1.2172694e-38
-0.077953339 -0.04960667 1.0630001 1.2080499e-38
-0.071071438 -0.046433337 0.99500006 1.1805359e-38
-0.06917619 -0.046433337 0.99500006 1.1713164e-38
-0.067280956 -0.046433337 0.99500006 1.1620968e-38
-0.065582857 -0.046573333 0.99800003 1.1620968e-38
-0.063681908 -0.046573333 0.99800003 1.1343665e-38
-0.061966669 -0.046713337 1.001 1.1159274e-38
-0.060060002 -0.046713337 1.001 1.14337e-38
-0.058153339 -0.046713337 1.001 1.1249309e-38
-0.056415241 -0.046853337 1.0040001 1.0513188e-38
-0.05450286 -0.046853337 1.0040001 8.5770803e-39
-0.052747626 -0.046993338 1.0070001 1.0511346e-38
-0.050980952 -0.04713333 1.01 1.9454322e-38
-0.049057141 -0.04713333 1.01 2.0833361e-38
-0.04713333 -0.04713333 1.01 2.21241e-38
-0.045880955 -0.047833338 1.0250001 2.1848948e-38
-0.15236476 -0.045612384 1.0190001 1.7146942e-38
-0.14998096 -0.045478098 1.016 1.7239857e-38
-0.1480457 -0.045478098 1.016 1.7977422e-38
-0.14611048 -0.045478098 1.016 1.6317908e-38
-0.14374952 -0.045343809 1.013 8.1124966e-39
-0.14182 -0.045343809 1.013 7.5618241e-39
-0.13947618 -0.045209523 1.01 9.4057367e-39
-0.13755237 -0.045209523 1.01 9.314983e-39
-0.13562857 -0.045209523 1.01 9.8681568e-39
-0.13952953 -0.047179051 1.054 9.9599993e-39
-0.13752191 -0.047179051 1.054 1.078976e-38
-0.13551429 -0.047179051 1.054 1.0791207e-38
-0.13388668 -0.047313333 1.057 1.115999e-38
-0.13224761 -0.047447622 1.0600001 1.1344013e-38
-0.13022858 -0.047447622 1.0600001 1.1897187e-38
-0.12820953 -0.047447622 1.0600001 1.1989032e-38
-0.12619048 -0.047447622 1.0600001 1.2357814e-38
-0.12452286 -0.047581907 1.0630001 1.2909906e-38
-0.12249811 -0.047581907 1.0630001 1.3186493e-38
-0.12047334 -0.047581907 1.0630001 1.3001398e-38
-0.11844858 -0.047581907 1.0630001 1.1434073e-38
-0.1168619 -0.047760952 1.067 8.7647211e-39
-0.11482953 -0.047760952 1.067 9.5944818e-39
-0.11279715 -0.047760952 1.067 1.1710277e-38
-0.11107619 -0.047895238 1.0700001 1.2816625e-38
-0.1090381 -0.047895238 1.0700001 1.26333e-38
-0.10700001 -0.047895238 1.0700001 1.26333e-38
-0.10427524 -0.047581907 1.0630001 1.2634026e-38
-0.10225048 -0.047581907 1.0630001 1.2910613e-38
-0.10088572 -0.047895238 1.0700001 1.300389e-38
-0.098847628 -0.047895238 1.0700001 1.3096086e-38
-0.096809521 -0.047895238 1.0700001 1.3003903e-38
-0.09477143 -0.047895238 1.0700001 1.263512e-38
-0.092733338 -0.047895238 1.0700001 1.2267414e-38
-0.09069524 -0.047895238 1.0700001 1.2175218e-38
-0.08194571 -0.044269525 0.98900002 1.2175571e-38
-0.080061905 -0.044269525 0.98900002 1.2083376e-38
-0.0781781 -0.044269525 0.98900002 1.2174142e-38
-0.076294288 -0.044269525 0.98900002 1.2081946e-38
-0.074410483 -0.044269525 0.98900002 1.1989029e-38
-0.072526664 -0.044269525 0.98900002 1.2081225e-38
-0.070857145 -0.04440381 0.99200004 1.1805003e-38
-0.06917619 -0.044538099 0.99500006 1.1805003e-38
-0.067280956 -0.044538099 0.99500006 1.1713164e-38
-0.065385722 -0.044538099 0.99500006 1.1713164e-38
-0.063681908 -0.044672381 0.99800003 1.1528056e-38
-0.061966669 -0.044806667 1.001 1.125147e-38
-0.060060002 -0.044806667 1.001 1.1250391e-38
-0.058153339 -0.044806667 1.001 1.0973804e-38
-0.056415241 -0.044940956 1.0040001 1.0973078e-38
-0.05450286 -0.044940956 1.0040001 9.5901434e-39
-0.052904762 -0.045209523 1.01 1.0691065e-38
-0.050980952 -0.045209523 1.01 1.9357454e-38
-0.049202859 -0.045343809 1.013 2.009866e-38
-0.047693335 -0.045746669 1.0220001 2.1297203e-38
-0.045880955 -0.045880955 1.0250001 2.1297206e-38
-0.043928575 -0.045880955 1.0250001 1.8070359e-38
-0.15236476 -0.043671433 1.0190001 1.7054747e-38
-0.15042381 -0.043671433 1.0190001 1.7239501e-38
-0.1480457 -0.043542858 1.016 1.7977066e-38
-0.14611048 -0.043542858 1.016 1.6687043e-38
-0.14374952 -0.043414284 1.013 8.2972409e-39
-0.14139999 -0.043285716 1.01 7.468925e-39
-0.13947618 -0.043285716 1.01 9.4972289e-39
-0.13673525 -0.043028574 1.0040001 9.7738158e-39
-0.13401714 -0.042771429 0.99800003 1.0603576e-38
-0.13132191 -0.042514287 0.99200004 1.0696125e-38
-0.12943238 -0.042514287 0.99200004 1.1341495e-38
-0.12754287 -0.042514287 0.99200004 1.1250738e-38
-0.12565334 -0.042514287 0.99200004 1.1435129e-38
-0.12376382 -0.042514287 0.99200004 1.134329e-38
-0.12187429 -0.042514287 0.99200004 1.134329e-38
-0.11962191 -0.042385716 0.98900002 9.5941259e-39
-0.11773809 -0.042385716 0.98900002 9.1331477e-39
-0.11562001 -0.042300001 0.98700005 9.3182452e-39
-0.11374 -0.042300001 0.98700005 1.0332397e-38
-0.11186 -0.042300001 0.98700005 9.1313555e-39
-0.10998 -0.042300001 0.98700005 5.259139e-39
-0.10777143 -0.04217143 0.98400003 4.7074492e-39
-0.10589714 -0.04217143 0.98400003 7.1967312e-39
-0.10402286 -0.04217143 0.98400003 9.7763213e-39
-0.10214858 -0.04217143 0.98400003 9.6841257e-39
-0.10027429 -0.04217143 0.98400003 1.0052908e-38
-0.098399997 -0.04217143 0.98400003 9.9607125e-39
-0.10427524 -0.045557145 1.0630001 9.2271062e-39
-0.094651431 -0.04217143 0.98400003 8.028563e-39
-0.09277714 -0.04217143 0.98400003 7.9363646e-39
-0.090902865 -0.04217143 0.98400003 8.3051471e-39
-0.089028575 -0.04217143 0.98400003 8.8565608e-39
-0.087420009 -0.042300001 0.98700005 1.0608278e-38
-0.085540004 -0.042300001 0.98700005 1.1528773e-38
-0.083659999 -0.042300001 0.98700005 1.2266338e-38
-0.081780002 -0.042300001 0.98700005 1.2174489e-38
-0.080061905 -0.042385716 0.98900002 1.2082294e-38
-0.0781781 -0.042385716 0.98900002 1.2081946e-38
-0.076294288 -0.042385716 0.98900002 1.1989751e-38
-0.074410483 -0.042385716 0.98900002 1.1989751e-38
-0.072526664 -0.042385716 0.98900002 1.1897555e-38
-0.070857145 -0.042514287 0.99200004 1.1896849e-38
-0.06917619 -0.042642858 0.99500006 1.1804653e-38
-0.067280956 -0.042642858 0.99500006 1.1804641e-38
-0.065385722 -0.042642858 0.99500006 1.1804641e-38
-0.063490473 -0.042642858 0.99500006 1.1528054e-38
-0.061966669 -0.0429 1.001 1.1251467e-38
-0.060060002 -0.0429 1.001 1.1158195e-38
-0.058327623 -0.043028574 1.0040001 1.0973804e-38
-0.056415241 -0.043028574 1.0040001 1.0788687e-38
-0.054828569 -0.043285716 1.01 1.0327708e-38
-0.053061903 -0.043414284 1.013 9.9578343e-39
-0.051132381 -0.043414284 1.013 1.1248573e-38
-0.049348574 -0.043542858 1.016 1.170741e-38
-0.047693335 -0.0438 1.0220001 1.1799606e-38
-0.045880955 -0.043928575 1.0250001 1.0147656e-38
-0.043928575 -0.043928575 1.0250001 8.9491124e-39
-0.041976195 -0.043928575 1.0250001 8.7704636e-39
-0.036119051 -0.043928575 1.0250001 1.116035e-38
-0.034166671 -0.043928575 1.0250001 1.1526972e-38
-0.032308571 -0.044057142 1.028 1.1711363e-38
-0.030350477 -0.044057142 1.028 1.1895022e-38
-0.02839238 -0.044057142 1.028 1.0327696e-38
-0.15236476 -0.041730478 1.0190001 1.7054744e-38
-0.15042381 -0.041730478 1.0190001 1.7055463e-38
-0.14848287 -0.041730478 1.0190001 1.7885224e-38
-0.14611048 -0.041607618 1.016 1.7240217e-38
-0.14374952 -0.041484762 1.013 9.2191972e-39
-0.14139999 -0.041361906 1.01 6.9171904e-39
-0.13906191 -0.041239049 1.0070001 9.2220811e-39
-0.13673525 -0.041116193 1.0040001 9.8652855e-39
-0.13401714 -0.040870477 0.99800003 1.0787242e-38
-0.13132191 -0.040624764 0.99200004 1.0420624e-38
-0.12943238 -0.040624764 0.99200004 1.0697211e-38
-0.12754287 -0.040624764 0.99200004 1.134186e-38
-0.12565334 -0.040624764 0.99200004 1.0880882e-38
-0.12376382 -0.040624764 0.99200004 8.9501437e-39
-0.12187429 -0.040624764 0.99200004 9.9642957e-39
-0.11962191 -0.040501904 0.98900002 9.0427247e-39
-0.11773809 -0.040501904 0.98900002 8.4895509e-39
-0.11562001 -0.04042 0.98700005 7.5686764e-39
-0.11374 -0.04042 0.98700005 8.3984371e-39
-0.11186 -0.04042 0.98700005 8.5778187e-39
-0.10998 -0.04042 0.98700005 6.0885367e-39
-0.10777143 -0.040297143 0.98400003 6.0884667e-39
-0.10589714 -0.040297143 0.98400003 9.4075093e-39
-0.10402286 -0.040297143 0.98400003 1.1894666e-38
-0.10214858 -0.040297143 0.98400003 1.2079057e-38
-0.10027429 -0.040297143 0.98400003 1.152947e-38
-0.098399997 -0.040297143 0.98400003 1.152947e-38
-0.096525721 -0.040297143 0.98400003 1.0977734e-38
-0.094651431 -0.040297143 0.98400003 8.4884523e-39
-0.09277714 -0.040297143 0.98400003 7.1980764e-39
-0.090902865 -0.040297143 0.98400003 8.4888153e-39
-0.089028575 -0.040297143 0.98400003 8.8551091e-39
-0.087420009 -0.04042 0.98700005 9.5926741e-39
-0.085540004 -0.04042 0.98700005 1.1434015e-38
-0.083659999 -0.04042 0.98700005 1.2263776e-38
-0.081780002 -0.04042 0.98700005 1.2633673e-38
-0.080061905 -0.040501904 0.98900002 1.2449281e-38
-0.0781781 -0.040501904 0.98900002 1.2173786e-38
-0.076525718 -0.040624764 0.99200004 1.208159e-38
-0.074636191 -0.040624764 0.99200004 1.1989751e-38
-0.072746672 -0.040624764 0.99200004 1.1989751e-38
-0.070857145 -0.040624764 0.99200004 1.1897199e-38
-0.06917619 -0.040747624 0.99500006 1.1805003e-38
-0.067280956 -0.040747624 0.99500006 1.1713164e-38
-0.065385722 -0.040747624 0.99500006 1.1620968e-38
-0.063490473 -0.040747624 0.99500006 1.1528054e-38
-0.061966669 -0.040993337 1.001 1.1435858e-38
-0.060060002 -0.040993337 1.001 1.1065997e-38
-0.058327623 -0.041116193 1.0040001 1.078941e-38
-0.056583814 -0.041239049 1.0070001 1.0881586e-38
-0.054828569 -0.041361906 1.01 1.0512803e-38
-0.053219046 -0.041607618 1.016 9.3167879e-39
-0.05143524 -0.041730478 1.0190001 1.0791918e-38
-0.049640004 -0.041853335 1.0220001 1.0514621e-38
-0.047833338 -0.041976195 1.0250001 1.0422425e-38
-0.045880955 -0.041976195 1.0250001 1.060646e-38
-0.043928575 -0.041976195 1.0250001 1.125183e-38
-0.042099047 -0.042099047 1.028 1.1897555e-38
-0.040140949 -0.042099047 1.028 1.1897555e-38
-0.038182855 -0.042099047 1.028 1.1712811e-38
-0.036119051 -0.041976195 1.0250001 1.1897202e-38
-0.034166671 -0.041976195 1.0250001 1.2080887e-38
-0.032308571 -0.042099047 1.028 1.1896496e-38
-0.030350477 -0.042099047 1.028 1.1804643e-38
-0.02839238 -0.042099047 1.028 1.0698296e-38
-0.026434286 -0.042099047 1.028 1.0419503e-38
-0.024476191 -0.042099047 1.028 1.1710242e-38
-0.15042381 -0.039789528 1.0190001 1.7055097e-38
-0.14848287 -0.039789528 1.0190001 1.7884858e-38
-0.14567904 -0.03955524 1.013 1.724022e-38
-0.14332381 -0.039438095 1.01 1.0233352e-38
-0.14139999 -0.039438095 1.01 7.1944989e-39
-0.13906191 -0.039320953 1.0070001 8.9462159e-39
-0.13632667 -0.039086666 1.001 9.6816201e-39
-0.13401714 -0.038969524 0.99800003 1.0511381e-38
-0.13171905 -0.038852382 0.99500006 8.2086859e-39
-0.12943238 -0.038735237 0.99200004 7.0101427e-39
-0.12754287 -0.038735237 0.99200004 7.5629283e-39
-0.12565334 -0.038735237 0.99200004 7.655124e-39
-0.12376382 -0.038735237 0.99200004 9.1316483e-39
-0.12187429 -0.038735237 0.99200004 1.0698974e-38
-0.11998477 -0.038735237 0.99200004 1.0240885e-38
-0.11773809 -0.038618095 0.98900002 9.9642985e-39
-0.11562001 -0.038540002 0.98700005 1.0055082e-38
-0.11374 -0.038540002 0.98700005 1.051606e-38
-0.11186 -0.038540002 0.98700005 1.0883063e-38
-0.10998 -0.038540002 0.98700005 1.0422084e-38
-0.10777143 -0.03842286 0.98400003 8.0256987e-39
-0.10589714 -0.03842286 0.98400003 1.0791568e-38
-0.10402286 -0.03842286 0.98400003 1.2542556e-38
-0.10214858 -0.03842286 0.98400003 1.3003534e-38
-0.10027429 -0.03842286 0.98400003 1.245178e-38
-0.098399997 -0.03842286 0.98400003 1.245178e-38
-0.096525721 -0.03842286 0.98400003 1.2084092e-38
-0.094939999 -0.038540002 0.98700005 1.1991896e-38
-0.09277714 -0.03842286 0.98400003 1.1900779e-38
-0.090902865 -0.03842286 0.98400003 1.2638344e-38
-0.089028575 -0.03842286 0.98400003 1.2543272e-38
-0.087420009 -0.038540002 0.98700005 9.1320337e-39
-0.085540004 -0.038540002 0.98700005 8.0296168e-39
-0.083659999 -0.038540002 0.98700005 9.6891381e-39
-0.081780002 -0.038540002 0.98700005 1.1161069e-38
-0.080061905 -0.038618095 0.98900002 1.2451808e-38
-0.0781781 -0.038618095 0.98900002 1.235818e-38
-0.076525718 -0.038735237 0.99200004 1.2173789e-38
-0.074636191 -0.038735237 0.99200004 1.2081946e-38
-0.072746672 -0.038735237 0.99200004 1.1989751e-38
-0.070857145 -0.038735237 0.99200004 1.1989751e-38
-0.06917619 -0.038852382 0.99500006 1.1805359e-38
-0.067280956 -0.038852382 0.99500006 1.1804641e-38
-0.065385722 -0.038852382 0.99500006 1.1620249e-38
-0.063681908 -0.038969524 0.99800003 1.1435858e-38
-0.061966669 -0.039086666 1.001 1.1435858e-38
-0.060060002 -0.039086666 1.001 1.1158192e-38
-0.058327623 -0.039203811 1.0040001 1.0881605e-38
-0.056583814 -0.039320953 1.0070001 1.0513874e-38
-0.054828569 -0.039438095 1.01 1.0329482e-38
-0.05337619 -0.039789528 1.0190001 1.0330227e-38
-0.051586669 -0.039906669 1.0220001 1.3188291e-38
-0.049640004 -0.039906669 1.0220001 1.3925127e-38
-0.047833338 -0.040023815 1.0250001 1.3371954e-38
-0.046015237 -0.040140949 1.028 1.27266e-38
-0.044057142 -0.040140949 1.028 1.3464165e-38
-0.042099047 -0.040140949 1.028 1.5581402e-38
-0.040140949 -0.040140949 1.028 1.7148728e-38
-0.038182855 -0.040140949 1.028 1.7424624e-38
-0.03622476 -0.040140949 1.028 1.7701211e-38
-0.034266666 -0.040140949 1.028 1.7517889e-38
-0.032308571 -0.040140949 1.028 1.558178e-38
-0.030350477 -0.040140949 1.028 1.3833663e-38
-0.02839238 -0.040140949 1.028 1.1805359e-38
-0.026434286 -0.040140949 1.028 1.0146223e-38
-0.024547618 -0.040258095 1.031 8.9476803e-39
-0.022583811 -0.040258095 1.031 1.1155656e-38
-0.15042381 -0.037848573 1.0190001 1.6870709e-38
-0.14760856 -0.037625715 1.013 1.7608274e-38
-0.14524761 -0.037514284 1.01 1.7148384e-38
-0.14332381 -0.037514284 1.01 1.0602495e-38
-0.14139999 -0.037514284 1.01 7.5611206e-39
-0.13906191 -0.037402861 1.0070001 9.0362507e-39
-0.13632667 -0.037180003 1.001 9.497582e-39
-0.13401714 -0.037068572 0.99800003 8.6678213e-39
-0.13171905 -0.036957145 0.99500006 7.932064e-39
-0.12943238 -0.036845718 0.99200004 6.8257164e-39
-0.12754287 -0.036845718 0.99200004 7.1937773e-39
-0.12603334 -0.036957145 0.99500006 8.761103e-39
-0.12376382 -0.036845718 0.99200004 1.1063441e-38
-0.12187429 -0.036845718 0.99200004 1.1893201e-38
-0.11998477 -0.036845718 0.99200004 1.0884832e-38
-0.11773809 -0.036734283 0.98900002 1.0792637e-38
-0.11585429 -0.036734283 0.98900002 1.014728e-38
-0.11397048 -0.036734283 0.98900002 1.0239476e-38
-0.11208667 -0.036734283 0.98900002 1.1065994e-38
-0.10998 -0.036660001 0.98700005 1.0051842e-38
-0.1081 -0.036660001 0.98700005 7.2902889e-39
-0.10622001 -0.036660001 0.98700005 1.0332745e-38
-0.10434 -0.036660001 0.98700005 1.2265631e-38
-0.10246 -0.036660001 0.98700005 1.1712458e-38
-0.10058001 -0.036660001 0.98700005 1.097845e-38
-0.098700002 -0.036660001 0.98700005 1.1716015e-38
-0.096820004 -0.036660001 0.98700005 1.1808228e-38
-0.094939999 -0.036660001 0.98700005 1.217701e-38
-0.093060002 -0.036660001 0.98700005 1.2085897e-38
-0.091180004 -0.036660001 0.98700005 1.2270288e-38
-0.089300007 -0.036660001 0.98700005 1.245326e-38
-0.087420009 -0.036660001 0.98700005 1.0701543e-38
-0.085540004 -0.036660001 0.98700005 7.2953238e-39
-0.083659999 -0.036660001 0.98700005 8.0328888e-39
-0.081780002 -0.036660001 0.98700005 1.0056494e-38
-0.080061905 -0.036734283 0.98900002 1.1808211e-38
-0.078415245 -0.036845718 0.99200004 1.2450023e-38
-0.076525718 -0.036845718 0.99200004 1.2173436e-38
-0.074636191 -0.036845718 0.99200004 1.1806085e-38
-0.072746672 -0.036845718 0.99200004 1.1806085e-38
-0.070857145 -0.036845718 0.99200004 1.1989395e-38
-0.06917619 -0.036957145 0.99500006 1.1805003e-38
-0.067280956 -0.036957145 0.99500006 1.1713164e-38
-0.065582857 -0.037068572 0.99800003 1.1713164e-38
-0.063681908 -0.037068572 0.99800003 1.1344381e-38
-0.061966669 -0.037180003 1.001 1.1252186e-38
-0.06024 -0.03729143 1.0040001 1.0791207e-38
-0.058327623 -0.03729143 1.0040001 1.0514621e-38
-0.05675238 -0.037514284 1.01 1.0421693e-38
-0.054991428 -0.037625715 1.013 1.0145107e-38
-0.05337619 -0.037848573 1.0190001 1.0514618e-38
-0.051586669 -0.03796 1.0220001 1.30039e-38
-0.049785718 -0.038071431 1.0250001 1.3649269e-38
-0.047973335 -0.038182855 1.028 1.2727313e-38
-0.046015237 -0.038182855 1.028 1.2542218e-38
-0.044057142 -0.038182855 1.028 1.4478326e-38
-0.042099047 -0.038182855 1.028 1.631791e-38
-0.040140949 -0.038182855 1.028 1.8254019e-38
-0.038182855 -0.038182855 1.028 1.8346577e-38
-0.03622476 -0.038182855 1.028 1.8438773e-38
-0.034266666 -0.038182855 1.028 1.8439141e-38
-0.032308571 -0.038182855 1.028 1.7701576e-38
-0.030350477 -0.038182855 1.028 1.4573774e-38
-0.02839238 -0.038182855 1.028 1.2914253e-38
-0.026434286 -0.038182855 1.028 1.0151621e-38
-0.024547618 -0.038294286 1.031 8.1233174e-39
-0.022583811 -0.038294286 1.031 9.3156248e-39
-0.14909524 -0.035590474 1.01 1.7054377e-38
-0.14717142 -0.035590474 1.01 1.7607551e-38
-0.14524761 -0.035590474 1.01 1.7332413e-38
-0.14332381 -0.035590474 1.01 1.253824e-38
-0.14139999 -0.035590474 1.01 7.8398655e-39
-0.13906191 -0.035484765 1.0070001 8.3930393e-39
-0.13673525 -0.035379048 1.0040001 8.2082977e-39
-0.13442001 -0.035273336 1.001 6.8253633e-39
-0.13211618 -0.03516762 0.99800003 8.3011912e-39
-0.1298238 -0.035061907 0.99500006 9.8685169e-39
-0.12792858 -0.035061907 0.99500006 1.0974129e-38
-0.12603334 -0.035061907 0.99500006 1.1803889e-38
-0.12413809 -0.035061907 0.99500006 1.1711344e-38
-0.12187429 -0.034956191 0.99200004 1.1895735e-38
-0.11998477 -0.034956191 0.99200004 1.1251464e-38
-0.11773809 -0.034850478 0.98900002 1.1251464e-38
-0.11585429 -0.034850478 0.98900002 1.0330952e-38
-0.11397048 -0.034850478 0.98900002 7.933866e-39
-0.11208667 -0.034850478 0.98900002 6.9207735e-39
-0.10998 -0.034779999 0.98700005 7.0129691e-39
-0.1081 -0.034779999 0.98700005 7.1973954e-39
-0.10622001 -0.034779999 0.98700005 1.0332047e-38
-0.10434 -0.034779999 0.98700005 1.1806063e-38
-0.10246 -0.034779999 0.98700005 9.777759e-39
-0.10058001 -0.034779999 0.98700005 9.0434534e-39
-0.098700002 -0.034779999 0.98700005 1.144054e-38
-0.096820004 -0.034779999 0.98700005 1.2360328e-38
-0.094939999 -0.034779999 0.98700005 1.2636915e-38
-0.093248576 -0.034850478 0.98900002 1.2084815e-38
-0.091180004 -0.034779999 0.98700005 1.1900424e-38
-0.089300007 -0.034779999 0.98700005 1.2636547e-38
-0.087597147 -0.034850478 0.98900002 1.318972e-38
-0.085713334 -0.034850478 0.98900002 1.2174865e-38
-0.08382953 -0.034850478 0.98900002 9.7777786e-39
-0.08194571 -0.034850478 0.98900002 9.1352707e-39
-0.080061905 -0.034850478 0.98900002 1.1071379e-38
-0.078415245 -0.034956191 0.99200004 1.235818e-38
-0.076525718 -0.034956191 0.99200004 1.2081593e-38
-0.074861906 -0.035061907 0.99500006 1.1989395e-38
-0.072966672 -0.035061907 0.99500006 1.1897199e-38
-0.071071438 -0.035061907 0.99500006 1.1805006e-38
-0.06917619 -0.035061907 0.99500006 1.1805006e-38
-0.067483813 -0.03516762 0.99800003 1.1804641e-38
-0.065582857 -0.03516762 0.99800003 1.1896836e-38
-0.063681908 -0.03516762 0.99800003 1.1436221e-38
-0.061966669 -0.035273336 1.001 1.125183e-38
-0.06024 -0.035379048 1.0040001 1.1158192e-38
-0.058676191 -0.035590474 1.01 1.0881605e-38
-0.056920953 -0.03569619 1.013 1.0696138e-38
-0.055154286 -0.035801906 1.016 1.0419551e-38
-0.053533334 -0.036013335 1.0220001 9.9621629e-39
-0.051738098 -0.036119051 1.0250001 1.2174858e-38
-0.049931429 -0.03622476 1.028 1.1990126e-38
-0.048113335 -0.036330476 1.031 1.2819887e-38
-0.046149526 -0.036330476 1.031 1.5121178e-38
-0.044185713 -0.036330476 1.031 1.8348025e-38
-0.042221904 -0.036330476 1.031 1.8622082e-38
-0.040258095 -0.036330476 1.031 1.8437691e-38
-0.038182855 -0.03622476 1.028 1.8069274e-38
-0.03622476 -0.03622476 1.028 1.7977079e-38
-0.034266666 -0.03622476 1.028 1.8069993e-38
-0.032214291 -0.036119051 1.0250001 1.8162189e-38
-0.030261908 -0.036119051 1.0250001 1.7703008e-38
-0.02839238 -0.03622476 1.028 1.6504465e-38
-0.026434286 -0.03622476 1.028 1.4109534e-38
-0.024547618 -0.036330476 1.031 1.0421709e-38
-0.022583811 -0.036330476 1.031 1.0236952e-38
-0.14909524 -0.033666667 1.01 1.7054021e-38
-0.14717142 -0.033666667 1.01 1.7607195e-38
-0.14524761 -0.033666667 1.01 1.7516441e-38
-0.14332381 -0.033666667 1.01 1.3091051e-38
-0.14139999 -0.033666667 1.01 9.2202917e-39
-0.13906191 -0.033566669 1.0070001 8.2061397e-39
-0.13673525 -0.033466671 1.0040001 8.0253106e-39
-0.13442001 -0.033366665 1.001 8.2097018e-39
-0.13211618 -0.033266667 0.99800003 8.762175e-39
-0.13021523 -0.033266667 0.99800003 1.0882674e-38
-0.12792858 -0.033166666 0.99500006 1.060752e-38
-0.12603334 -0.033166666 0.99500006 1.0884107e-38
-0.12413809 -0.033166666 0.99500006 1.0884467e-38
-0.12224287 -0.033166666 0.99500006 1.0884467e-38
-0.11998477 -0.033066668 0.99200004 1.1067426e-38
-0.11809524 -0.033066668 0.99200004 1.1159621e-38
-0.11585429 -0.03296667 0.98900002 1.0606816e-38
-0.11397048 -0.03296667 0.98900002 8.0253386e-39
-0.11208667 -0.03296667 0.98900002 4.7108782e-39
-0.11020286 -0.03296667 0.98900002 7.2001602e-39
-0.10831904 -0.03296667 0.98900002 7.7498657e-39
-0.10643524 -0.03296667 0.98900002 1.0239148e-38
-0.10455143 -0.03296667 0.98900002 1.180571e-38
-0.10266762 -0.03296667 0.98900002 1.033058e-38
-0.10078382 -0.03296667 0.98900002 9.3185759e-39
-0.098899998 -0.03296667 0.98900002 1.1623467e-38
-0.097016193 -0.03296667 0.98900002 1.1992985e-38
-0.095132381 -0.03296667 0.98900002 1.1992985e-38
-0.093248576 -0.03296667 0.98900002 1.2176287e-38
-0.091364756 -0.03296667 0.98900002 1.1715309e-38
-0.089480951 -0.03296667 0.98900002 1.1806436e-38
-0.087597147 -0.03296667 0.98900002 1.2636196e-38
-0.085713334 -0.03296667 0.98900002 1.3095026e-38
-0.08382953 -0.03296667 0.98900002 1.0882331e-38
-0.08194571 -0.03296667 0.98900002 9.8685225e-39
-0.080304772 -0.033066668 0.99200004 1.0882674e-38
-0.078415245 -0.033066668 0.99200004 1.2448555e-38
-0.076757148 -0.033166666 0.99500006 1.2632947e-38
-0.074861906 -0.033166666 0.99500006 1.208159e-38
-0.072966672 -0.033166666 0.99500006 1.1989395e-38
-0.071071438 -0.033166666 0.99500006 1.1805003e-38
-0.069384769 -0.033266667 0.99800003 1.1805003e-38
-0.067483813 -0.033266667 0.99800003 1.1712808e-38
-0.065582857 -0.033266667 0.99800003 1.1712808e-38
-0.063681908 -0.033266667 0.99800003 1.1344028e-38
-0.062152382 -0.033466671 1.0040001 1.1251833e-38
-0.060420007 -0.033566669 1.0070001 1.1250385e-38
-0.058676191 -0.033666667 1.01 1.0789407e-38
-0.056920953 -0.033766668 1.013 1.0788687e-38
-0.055154286 -0.033866666 1.016 1.0604295e-38
-0.053533334 -0.03406667 1.0220001 9.6852201e-39
-0.051738098 -0.034166671 1.0250001 1.116035e-38
-0.049931429 -0.034266666 1.028 1.1528404e-38
-0.048113335 -0.034366667 1.031 1.4939642e-38
-0.046283811 -0.034466669 1.034 1.6503746e-38
-0.044185713 -0.034366667 1.031 1.7978876e-38
-0.042221904 -0.034366667 1.031 1.8162539e-38
-0.040258095 -0.034366667 1.031 1.7793757e-38
-0.038294286 -0.034366667 1.031 1.7793403e-38
-0.036330476 -0.034366667 1.031 1.7793403e-38
-0.034366667 -0.034366667 1.031 1.7701211e-38
-0.032214291 -0.034166671 1.0250001 1.7793406e-38
-0.030261908 -0.034166671 1.0250001 1.8253668e-38
-0.02839238 -0.034266666 1.028 1.8345864e-38
-0.026434286 -0.034266666 1.028 1.5214462e-38
-0.024547618 -0.034366667 1.031 1.0328094e-38
-0.022583811 -0.034366667 1.031 9.9610685e-39
-0.14909524 -0.031742856 1.01 1.6869632e-38
-0.14717142 -0.031742856 1.01 1.7330611e-38
-0.14524761 -0.031742856 1.01 1.7239854e-38
-0.14332381 -0.031742856 1.01 1.3828616e-38
-0.14139999 -0.031742856 1.01 9.0377473e-39
-0.13906191 -0.031648573 1.0070001 7.1016391e-39
-0.13673525 -0.031554289 1.0040001 7.3806418e-39
-0.13442001 -0.031460002 1.001 8.579185e-39
-0.13211618 -0.031365715 0.99800003 9.4075388e-39
-0.13021523 -0.031365715 0.99800003 1.0698278e-38
-0.1283143 -0.031365715 0.99800003 1.0698618e-38
-0.12641335 -0.031365715 0.99800003 1.0514227e-38
-0.12413809 -0.031271432 0.99500006 1.0238381e-38
-0.12224287 -0.031271432 0.99500006 1.0238381e-38
-0.12034763 -0.031271432 0.99500006 1.0699715e-38
-0.11809524 -0.031177143 0.99200004 1.1160693e-38
-0.11585429 -0.031082857 0.98900002 1.1067426e-38
-0.11397048 -0.031082857 0.98900002 9.3157089e-39
-0.11208667 -0.031082857 0.98900002 4.7099057e-39
-0.11020286 -0.031082857 0.98900002 7.106992e-39
-0.10831904 -0.031082857 0.98900002 9.223198e-39
-0.10643524 -0.031082857 0.98900002 1.0052959e-38
-0.10455143 -0.031082857 0.98900002 1.0700782e-38
-0.10266762 -0.031082857 0.98900002 1.0700782e-38
-0.10078382 -0.031082857 0.98900002 1.0055075e-38
-0.098899998 -0.031082857 0.98900002 1.0516053e-38
-0.097016193 -0.031082857 0.98900002 1.0332022e-38
-0.095132381 -0.031082857 0.98900002 1.014763e-38
-0.093248576 -0.031082857 0.98900002 1.0333098e-38
-0.091364756 -0.031082857 0.98900002 1.0240902e-38
-0.089480951 -0.031082857 0.98900002 1.1253262e-38
-0.087597147 -0.031082857 0.98900002 1.1345457e-38
-0.085713334 -0.031082857 0.98900002 1.1712795e-38
-0.08382953 -0.031082857 0.98900002 1.1159621e-38
-0.082194284 -0.031177143 0.99200004 1.0146214e-38
-0.080304772 -0.031177143 0.99200004 9.2242573e-39
-0.078652389 -0.031271432 0.99500006 9.9621573e-39
-0.076757148 -0.031271432 0.99500006 1.2082657e-38
-0.074861906 -0.031271432 0.99500006 1.2265619e-38
-0.072966672 -0.031271432 0.99500006 1.2081227e-38
-0.07128571 -0.031365715 0.99800003 1.1897199e-38
-0.069384769 -0.031365715 0.99800003 1.1805003e-38
-0.067483813 -0.031365715 0.99800003 1.1620612e-38
-0.065779999 -0.031460002 1.001 1.1436221e-38
-0.063873336 -0.031460002 1.001 1.1435861e-38
-0.062152382 -0.031554289 1.0040001 1.1159274e-38
-0.060600001 -0.031742856 1.01 1.1158189e-38
-0.058850475 -0.031837143 1.013 1.0605016e-38
-0.056920953 -0.031837143 1.013 1.0328429e-38
-0.055154286 -0.031931426 1.016 1.0144037e-38
-0.053533334 -0.032120001 1.0220001 9.2238916e-39
-0.051586669 -0.032120001 1.0220001 1.051463e-38
-0.049785718 -0.032214291 1.0250001 1.1987978e-38
-0.047973335 -0.032308571 1.028 1.7058738e-38
-0.046283811 -0.032497145 1.034 1.7701211e-38
-0.044185713 -0.032402854 1.031 1.7516819e-38
-0.042221904 -0.032402854 1.031 1.7609716e-38
-0.04037524 -0.032497145 1.034 1.7609716e-38
-0.038294286 -0.032402854 1.031 1.7793757e-38
-0.036330476 -0.032402854 1.031 1.7793757e-38
-0.034366667 -0.032402854 1.031 1.7608646e-38
-0.032214291 -0.032214291 1.0250001 1.7516451e-38
-0.030261908 -0.032214291 1.0250001 1.7793038e-38
-0.028309526 -0.032214291 1.0250001 1.8254016e-38
-0.026511429 -0.032402854 1.031 1.724058e-38
-0.024547618 -0.032402854 1.031 1.0971277e-38
-0.022583811 -0.032402854 1.031 9.6841313e-39
-0.14820953 -0.029641908 1.0040001 1.6594122e-38
-0.14629716 -0.029641908 1.0040001 1.70551e-38
-0.14524761 -0.029819047 1.01 1.696363e-38
-0.14332381 -0.029819047 1.01 1.4382153e-38
-0.14139999 -0.029819047 1.01 1.170887e-38
-0.13906191 -0.029730478 1.0070001 7.4678712e-39
-0.13714382 -0.029730478 1.0070001 6.6409244e-39
-0.13482286 -0.029641908 1.0040001 9.222402e-39
-0.13251334 -0.029553335 1.001 9.9603496e-39
-0.13021523 -0.029464763 0.99800003 1.0513523e-38
-0.1283143 -0.029464763 0.99800003 1.0330933e-38
-0.12641335 -0.029464763 0.99800003 1.0238737e-38
-0.12451239 -0.029464763 0.99800003 9.9625132e-39
-0.12224287 -0.029376192 0.99500006 1.0331296e-38
-0.12034763 -0.029376192 0.99500006 1.0239113e-38
-0.11809524 -0.02928762 0.99200004 1.0423504e-38
-0.11620572 -0.02928762 0.99200004 1.1067426e-38
-0.1143162 -0.02928762 0.99200004 9.3157089e-39
-0.11242667 -0.02928762 0.99200004 5.6293186e-39
-0.11020286 -0.029199047 0.98900002 8.1186006e-39
-0.10831904 -0.029199047 0.98900002 1.1342581e-38
-0.10643524 -0.029199047 0.98900002 1.0605016e-38
-0.10455143 -0.029199047 0.98900002 8.3044436e-39
-0.10266762 -0.029199047 0.98900002 9.0420087e-39
-0.10078382 -0.029199047 0.98900002 1.0881933e-38
-0.098899998 -0.029199047 0.98900002 1.1342911e-38
-0.097016193 -0.029199047 0.98900002 1.0236977e-38
-0.095132381 -0.029199047 0.98900002 9.775999e-39
-0.093248576 -0.029199047 0.98900002 1.1159952e-38
-0.091364756 -0.029199047 0.98900002 1.1989713e-38
-0.089480951 -0.029199047 0.98900002 1.1714593e-38
-0.087597147 -0.029199047 0.98900002 1.1714593e-38
-0.085713334 -0.029199047 0.98900002 1.1160716e-38
-0.08408381 -0.02928762 0.99200004 1.0791933e-38
-0.082194284 -0.02928762 0.99200004 1.0883766e-38
-0.080547623 -0.029376192 0.99500006 9.408636e-39
-0.078652389 -0.029376192 0.99500006 9.2253013e-39
-0.076757148 -0.029376192 0.99500006 1.1806779e-38
-0.075087622 -0.029464763 0.99800003 1.2173789e-38
-0.073186666 -0.029464763 0.99800003 1.1989398e-38
-0.07128571 -0.029464763 0.99800003 1.1805003e-38
-0.069384769 -0.029464763 0.99800003 1.1805003e-38
-0.067483813 -0.029464763 0.99800003 1.1620612e-38
-0.065779999 -0.029553335 1.001 1.1528417e-38
-0.063873336 -0.029553335 1.001 1.1344028e-38
-0.062152382 -0.029641908 1.0040001 1.1159637e-38
-0.060600001 -0.029819047 1.01 1.0699012e-38
-0.058850475 -0.029907618 1.013 1.0145838e-38
-0.056920953 -0.029907618 1.013 1.0696491e-38
-0.055154286 -0.02999619 1.016 9.8667303e-39
-0.053533334 -0.030173335 1.0220001 8.7632638e-39
-0.051586669 -0.030173335 1.0220001 1.2819871e-38
-0.049785718 -0.030261908 1.0250001 1.4937134e-38
-0.047973335 -0.030350477 1.028 1.7426416e-38
-0.046283811 -0.03052762 1.034 1.7700482e-38
-0.044314288 -0.03052762 1.034 1.7331699e-38
-0.042344764 -0.03052762 1.034 1.7056192e-38
-0.04037524 -0.03052762 1.034 1.7609365e-38
-0.038405713 -0.03052762 1.034 1.7701561e-38
-0.036436193 -0.03052762 1.034 1.7424974e-38
-0.034466669 -0.03052762 1.034 1.7147671e-38
-0.032497145 -0.03052762 1.034 1.7147671e-38
-0.03052762 -0.03052762 1.034 1.7239864e-38
