# .PCD v0.7 - Point Cloud Data file format
VERSION 0.7
FIELDS x y z rgb
SIZE 4 4 4 4
TYPE F F F F
COUNT 1 1 1 1
WIDTH 994
HEIGHT 1
VIEWPOINT 0 0 0 1 0 0 0
POINTS 994
DATA ascii
-0.066467628 0.09674 0.69100004 1.0333864e-38
-0.065151431 0.09674 0.69100004 1.0884512e-38
-0.063835248 0.09674 0.69100004 1.0515729e-38
-0.062519051 0.09674 0.69100004 1.06994e-38
-0.061202858 0.09674 0.69100004 1.06994e-38
-0.059886672 0.09674 0.69100004 1.0699397e-38
-0.058570478 0.09674 0.69100004 1.0607202e-38
-0.05742 0.09702 0.69300002 1.0331338e-38
-0.056100003 0.09702 0.69300002 1.0331338e-38
-0.054779999 0.09702 0.69300002 1.0331691e-38
-0.053537142 0.097159997 0.69400001 1.0239495e-38
-0.052215237 0.097159997 0.69400001 1.0055107e-38
-0.051040001 0.097440004 0.69600004 1.0147302e-38
-0.04971429 0.097440004 0.69600004 1.0055107e-38
-0.048458096 0.097580008 0.69700003 9.9629112e-39
-0.04713048 0.097580008 0.69700003 9.9629084e-39
-0.045868572 0.097720005 0.69800001 9.9629084e-39
-0.044539049 0.097720005 0.69800001 9.8707128e-39
-0.043209527 0.097720005 0.69800001 9.6863215e-39
-0.042060003 0.098140001 0.70100003 9.5937755e-39
-0.04084095 0.098420002 0.70300001 9.5015799e-39
-0.039558098 0.098560005 0.70400006 9.4093815e-39
-0.038217146 0.098560005 0.70400006 9.2249902e-39
-0.037033334 0.098980002 0.70700002 9.1331505e-39
-0.035737146 0.099120006 0.708 8.9487593e-39
-0.034631431 0.09982001 0.71300006 9.2238916e-39
-0.033273336 0.09982001 0.71300006 8.8551091e-39
-0.031960003 0.099960007 0.71400005 8.8529609e-39
-0.030685715 0.10024001 0.71600002 8.6685696e-39
-0.029485716 0.1008 0.72000003 8.5767145e-39
-0.028192384 0.10108001 0.72200006 9.959649e-39
-0.026817145 0.10108001 0.72200006 1.0144744e-38
-0.1547143 0.10245524 0.72200006 1.0695772e-38
-0.15333906 0.10245524 0.72200006 1.0236233e-38
-0.15196382 0.10245524 0.72200006 1.0236233e-38
-0.15058859 0.10245524 0.72200006 9.6837809e-39
-0.14921334 0.10245524 0.72200006 9.4993897e-39
-0.1478381 0.10245524 0.72200006 9.3160844e-39
-0.14646287 0.10245524 0.72200006 8.4863238e-39
-0.14468573 0.10217144 0.72000003 8.0231876e-39
-0.1433143 0.10217144 0.72000003 7.8387963e-39
-0.14194286 0.10217144 0.72000003 9.0358654e-39
-0.14057143 0.10217144 0.72000003 1.0603191e-38
-0.11579143 0.10089429 0.71100003 9.9589133e-39
-0.11443715 0.10089429 0.71100003 9.774522e-39
-0.11292382 0.10075239 0.71000004 8.6674682e-39
-0.11157144 0.10075239 0.71000004 8.3908813e-39
-0.11021905 0.10075239 0.71000004 8.3908813e-39
-0.10856 0.10046858 0.708 8.4830769e-39
-0.10706 0.10032666 0.70700002 8.3923233e-39
-0.10571333 0.10032666 0.70700002 8.6689101e-39
-0.10348096 0.099475242 0.70100003 8.7618246e-39
-0.10200001 0.099333346 0.70000005 9.0384115e-39
-0.10037905 0.099049523 0.69800001 9.3146453e-39
-0.09890762 0.09890762 0.69700003 9.5912322e-39
-0.097580008 0.09890762 0.69700003 9.3160844e-39
-0.096114293 0.098765716 0.69600004 9.5926713e-39
-0.094788581 0.098765716 0.69600004 9.5937531e-39
-0.093194291 0.098481901 0.69400001 9.6859487e-39
-0.091872387 0.098481901 0.69400001 9.8689079e-39
-0.09042 0.098340005 0.69300002 9.9611035e-39
-0.089099996 0.098340005 0.69300002 9.8692708e-39
-0.087779999 0.098340005 0.69300002 9.9614664e-39
-0.086460002 0.098340005 0.69300002 1.0329876e-38
-0.084894292 0.098056197 0.69100004 7.2874204e-39
-0.083578095 0.098056197 0.69100004 7.1944513e-39
-0.082142867 0.097914286 0.69000006 8.761777e-39
-0.080594286 0.097630478 0.68800002 8.7607653e-39
-0.079283811 0.097630478 0.68800002 1.0881265e-38
-0.077973336 0.097630478 0.68800002 1.1160731e-38
-0.076662861 0.097630478 0.68800002 7.749493e-39
-0.075352386 0.097630478 0.68800002 1.6721036e-39
-0.07404191 0.097630478 0.68800002 4.6223638e-39
-0.072731428 0.097630478 0.68800002 1.0048232e-38
-0.071628578 0.097914286 0.69000006 1.1523362e-38
-0.070416197 0.098056197 0.69100004 1.0788703e-38
-0.069100007 0.098056197 0.69100004 6.6399e-39
-0.06778381 0.098056197 0.69100004 5.35671e-39
-0.066467628 0.098056197 0.69100004 1.0335274e-38
-0.065151431 0.098056197 0.69100004 1.1069259e-38
-0.063835248 0.098056197 0.69100004 1.0608281e-38
-0.062519051 0.098056197 0.69100004 1.0424252e-38
-0.061202858 0.098056197 0.69100004 1.0424252e-38
-0.059886672 0.098056197 0.69100004 1.0699397e-38
-0.058570478 0.098056197 0.69100004 1.0515006e-38
-0.05742 0.098340005 0.69300002 1.0239498e-38
-0.056100003 0.098340005 0.69300002 1.0331694e-38
-0.05485905 0.098481901 0.69400001 1.0239495e-38
-0.053537142 0.098481901 0.69400001 1.0239495e-38
-0.052215237 0.098481901 0.69400001 1.0147302e-38
-0.051040001 0.098765716 0.69600004 1.0147302e-38
-0.049785715 0.09890762 0.69700003 1.0146947e-38
-0.048458096 0.09890762 0.69700003 1.0054751e-38
-0.047198098 0.099049523 0.69800001 9.9629112e-39
-0.045868572 0.099049523 0.69800001 9.9629112e-39
-0.044539049 0.099049523 0.69800001 9.6870404e-39
-0.043333337 0.099333346 0.70000005 9.6870404e-39
-0.042060003 0.099475242 0.70100003 9.5022988e-39
-0.04084095 0.09975905 0.70300001 9.4101031e-39
-0.039558098 0.099900961 0.70400006 9.4093815e-39
-0.038325716 0.10018477 0.70600003 9.2249902e-39
-0.037085712 0.10046858 0.708 9.0409549e-39
-0.035737146 0.10046858 0.708 8.9487593e-39
-0.034631431 0.1011781 0.71300006 8.9480362e-39
-0.033273336 0.1011781 0.71300006 8.5792537e-39
-0.032049526 0.10160381 0.71600002 9.0373521e-39
-0.030814288 0.10202952 0.71900004 8.6685696e-39
-0.029485716 0.10217144 0.72000003 8.7607526e-39
-0.028192384 0.10245524 0.72200006 9.9592958e-39
-0.026817145 0.10245524 0.72200006 1.060393e-38
-0.1547143 0.10383049 0.72200006 1.0786889e-38
-0.15333906 0.10383049 0.72200006 1.0511381e-38
-0.15196382 0.10383049 0.72200006 1.0419185e-38
-0.15058859 0.10383049 0.72200006 9.960365e-39
-0.14921334 0.10383049 0.72200006 9.2228e-39
-0.1478381 0.10383049 0.72200006 9.4068409e-39
-0.14646287 0.10383049 0.72200006 9.4068409e-39
-0.14508763 0.10383049 0.72200006 8.66892e-39
-0.14371239 0.10383049 0.72200006 7.5625724e-39
-0.14233714 0.10383049 0.72200006 8.1142944e-39
-0.14096192 0.10383049 0.72200006 9.4050332e-39
-0.11579143 0.10224857 0.71100003 1.005003e-38
-0.11443715 0.10224857 0.71100003 9.9578343e-39
-0.11308286 0.10224857 0.71100003 9.2209951e-39
-0.11157144 0.10210477 0.71000004 8.3912344e-39
-0.11021905 0.10210477 0.71000004 8.2068432e-39
-0.10856 0.10181714 0.708 8.4834301e-39
-0.10721143 0.10181714 0.708 8.3008465e-39
-0.10571333 0.10167333 0.70700002 8.4852377e-39
-0.10421906 0.10152952 0.70600003 8.7618246e-39
-0.10214572 0.10081048 0.70100003 8.9462159e-39
-0.10037905 0.10037905 0.69800001 9.130254e-39
-0.099049523 0.10037905 0.69800001 9.5912322e-39
-0.097580008 0.10023524 0.69700003 9.3164376e-39
-0.096252382 0.10023524 0.69700003 9.4086332e-39
-0.094788581 0.10009144 0.69600004 9.5001254e-39
-0.093462862 0.10009144 0.69600004 9.8689079e-39
-0.091872387 0.099803805 0.69400001 9.8689079e-39
-0.090550475 0.099803805 0.69400001 9.8689079e-39
-0.089099996 0.099660002 0.69300002 1.0053652e-38
-0.087779999 0.099660002 0.69300002 1.0422435e-38
-0.086460002 0.099660002 0.69300002 9.9611063e-39
-0.085140005 0.099660002 0.69300002 4.5215641e-39
-0.083578095 0.099372379 0.69100004 3.8797849e-39
-0.082261913 0.099372379 0.69100004 8.2129795e-39
-0.080828577 0.099228583 0.69000006 9.1295352e-39
-0.079514287 0.099228583 0.69000006 8.1153832e-39
-0.078200005 0.099228583 0.69000006 9.4068409e-39
-0.076885715 0.099228583 0.69000006 1.0144406e-38
-0.075571433 0.099228583 0.69000006 8.0239065e-39
-0.07425715 0.099228583 0.69000006 8.2082977e-39
-0.07294286 0.099228583 0.69000006 8.7614561e-39
-0.071732387 0.099372379 0.69100004 8.9458474e-39
-0.070416197 0.099372379 0.69100004 8.4856259e-39
-0.069299996 0.099660002 0.69300002 6.7339089e-39
-0.06778381 0.099372379 0.69100004 7.2870827e-39
-0.066467628 0.099372379 0.69100004 1.1620277e-38
-0.065151431 0.099372379 0.69100004 1.1896498e-38
-0.063835248 0.099372379 0.69100004 1.1804303e-38
-0.062519051 0.099372379 0.69100004 1.1344406e-38
-0.061202858 0.099372379 0.69100004 1.0883428e-38
-0.059886672 0.099372379 0.69100004 1.0423889e-38
-0.058740001 0.099660002 0.69300002 1.0239498e-38
-0.05742 0.099660002 0.69300002 1.0239142e-38
-0.056180954 0.099803805 0.69400001 1.0239142e-38
-0.05485905 0.099803805 0.69400001 1.0239495e-38
-0.053691432 0.10009144 0.69600004 1.0239495e-38
-0.05236572 0.10009144 0.69600004 1.0330615e-38
-0.051113334 0.10023524 0.69700003 1.0330615e-38
-0.049785715 0.10023524 0.69700003 1.0239145e-38
-0.048458096 0.10023524 0.69700003 9.9625581e-39
-0.047198098 0.10037905 0.69800001 9.9629112e-39
-0.045868572 0.10037905 0.69800001 9.8707156e-39
-0.044539049 0.10037905 0.69800001 1.0054381e-38
-0.043333337 0.10066667 0.70000005 9.8699897e-39
-0.042180002 0.10109809 0.70300001 9.5015799e-39
-0.040899049 0.10124191 0.70400006 9.5015799e-39
-0.039670479 0.10152952 0.70600003 9.4097346e-39
-0.038380001 0.10167333 0.70700002 9.2253433e-39
-0.037085712 0.10181714 0.708 9.3168187e-39
-0.035737146 0.10181714 0.708 9.1324274e-39
-0.034631431 0.1025362 0.71300006 8.9480334e-39
-0.033273336 0.1025362 0.71300006 8.5792509e-39
-0.032049526 0.10296762 0.71600002 8.6703675e-39
-0.030857144 0.10354286 0.72000003 8.3937806e-39
-0.029567622 0.10383049 0.72200006 8.7607554e-39
-0.028192384 0.10383049 0.72200006 1.0051494e-38
-0.026854288 0.10397429 0.72300005 1.0512087e-38
-0.025477143 0.10397429 0.72300005 1.0696478e-38
-0.15196382 0.10520572 0.72200006 1.0511381e-38
-0.15058859 0.10520572 0.72200006 1.0420627e-38
-0.14942001 0.10535144 0.72300005 9.6830621e-39
-0.14804286 0.10535144 0.72300005 9.0395003e-39
-0.14666572 0.10535144 0.72300005 9.131696e-39
-0.14528857 0.10535144 0.72300005 8.8551063e-39
-0.14391144 0.10535144 0.72300005 7.3799762e-39
-0.1425343 0.10535144 0.72300005 8.0221016e-39
-0.14115715 0.10535144 0.72300005 9.0362535e-39
-0.11443715 0.10360286 0.71100003 1.005003e-38
-0.11308286 0.10360286 0.71100003 1.005003e-38
-0.11157144 0.10345715 0.71000004 8.6670955e-39
-0.11021905 0.10345715 0.71000004 8.3912344e-39
-0.10886667 0.10345715 0.71000004 8.6678213e-39
-0.10721143 0.10316571 0.708 8.3930393e-39
-0.10571333 0.10302 0.70700002 8.7618218e-39
-0.10421906 0.10287429 0.70600003 8.7618246e-39
-0.10243714 0.10243714 0.70300001 8.8540203e-39
-0.10066667 0.10200001 0.70000005 9.1306072e-39
-0.099049523 0.10170857 0.69800001 9.4993897e-39
-0.097580008 0.10156287 0.69700003 9.3160844e-39
-0.096252382 0.10156287 0.69700003 9.5926713e-39
-0.094924763 0.10156287 0.69700003 9.5015575e-39
-0.093462862 0.10141715 0.69600004 9.5937531e-39
-0.092137143 0.10141715 0.69600004 9.6852355e-39
-0.090811431 0.10141715 0.69600004 9.8696267e-39
-0.08922857 0.10112571 0.69400001 1.0145135e-38
-0.087906666 0.10112571 0.69400001 1.0329526e-38
-0.086460002 0.10098 0.69300002 8.8565384e-39
-0.085140005 0.10098 0.69300002 4.7999307e-39
-0.08382 0.10098 0.69300002 5.9023476e-39
-0.082261913 0.10068858 0.69100004 8.3916296e-39
-0.080828577 0.10054287 0.69000006 9.7741409e-39
-0.079514287 0.10054287 0.69000006 9.3131627e-39
-0.078200005 0.10054287 0.69000006 7.7484112e-39
-0.076885715 0.10054287 0.69000006 8.2093893e-39
-0.075680956 0.10068858 0.69100004 8.8515119e-39
-0.074364766 0.10068858 0.69100004 7.9295556e-39
-0.073048577 0.10068858 0.69100004 7.1934395e-39
-0.071732387 0.10068858 0.69100004 7.5622221e-39
-0.070416197 0.10068858 0.69100004 7.4736096e-39
-0.069299996 0.10098 0.69300002 6.7360445e-39
-0.06778381 0.10068858 0.69100004 8.2054391e-39
-0.066467628 0.10068858 0.69100004 1.0971308e-38
-0.065151431 0.10068858 0.69100004 1.0421368e-38
-0.06402 0.10098 0.69300002 1.0513564e-38
-0.062699996 0.10098 0.69300002 1.0700075e-38
-0.061380003 0.10098 0.69300002 1.0884467e-38
-0.060060002 0.10098 0.69300002 1.0516085e-38
-0.058740001 0.10098 0.69300002 1.0331694e-38
-0.05742 0.10098 0.69300002 1.0239145e-38
-0.056180954 0.10112571 0.69400001 1.0239145e-38
-0.055017143 0.10141715 0.69600004 1.0606841e-38
-0.053691432 0.10141715 0.69600004 1.0699037e-38
-0.05236572 0.10141715 0.69600004 1.0330615e-38
-0.051113334 0.10156287 0.69700003 1.0238419e-38
-0.049785715 0.10156287 0.69700003 1.0054751e-38
-0.048527621 0.10170857 0.69800001 9.9625553e-39
-0.047198098 0.10170857 0.69800001 9.9629112e-39
-0.045868572 0.10170857 0.69800001 9.9629112e-39
-0.044666667 0.10200001 0.70000005 9.6870404e-39
-0.04339524 0.10214572 0.70100003 9.5026491e-39
-0.042180002 0.10243714 0.70300001 9.5941287e-39
-0.040899049 0.10258286 0.70400006 9.501933e-39
-0.039726667 0.10302 0.70700002 9.4097346e-39
-0.038434286 0.10316571 0.708 9.2253433e-39
-0.037085712 0.10316571 0.708 9.2246231e-39
-0.035838097 0.10345715 0.71000004 8.8558406e-39
-0.034631431 0.10389429 0.71300006 9.0387941e-39
-0.033273336 0.10389429 0.71300006 8.8544028e-39
-0.032094285 0.10447714 0.71700001 8.6707178e-39
-0.030857144 0.10491429 0.72000003 8.2097397e-39
-0.029567622 0.10520572 0.72200006 8.7607526e-39
-0.028231429 0.10535144 0.72300005 1.0235883e-38
-0.026854288 0.10535144 0.72300005 1.0695399e-38
-0.025477143 0.10535144 0.72300005 1.0879791e-38
-0.15196382 0.10658097 0.72200006 1.0603576e-38
-0.15058859 0.10658097 0.72200006 1.0420627e-38
-0.14942001 0.10672858 0.72300005 9.7752577e-39
-0.14845239 0.10702381 0.72500002 9.4061347e-39
-0.14707144 0.10702381 0.72500002 9.4061347e-39
-0.14569049 0.10702381 0.72500002 9.0398507e-39
-0.14430954 0.10702381 0.72500002 8.3022856e-39
-0.14292859 0.10702381 0.72500002 8.4841686e-39
-0.14213334 0.10746667 0.72800004 8.2997773e-39
-0.14113334 0.1077619 0.73000002 9.1273674e-39
-0.13974287 0.1077619 0.73000002 9.7727368e-39
-0.11475906 0.10525239 0.71300006 9.8656386e-39
-0.11340096 0.10525239 0.71300006 9.8659862e-39
-0.11172857 0.10495714 0.71100003 8.667443e-39
-0.11037429 0.10495714 0.71100003 8.3908841e-39
-0.10886667 0.10480952 0.71000004 8.5752754e-39
-0.10751429 0.10480952 0.71000004 8.2086509e-39
-0.10586286 0.10451429 0.708 8.669629e-39
-0.10436667 0.10436667 0.70700002 8.669629e-39
-0.10243714 0.10377619 0.70300001 8.8540203e-39
-0.10066667 0.10333334 0.70000005 9.0384115e-39
-0.099049523 0.10303809 0.69800001 9.2228028e-39
-0.097580008 0.10289048 0.69700003 9.1316932e-39
-0.096252382 0.10289048 0.69700003 9.5004757e-39
-0.094924763 0.10289048 0.69700003 9.5926741e-39
-0.093597144 0.10289048 0.69700003 9.6848697e-39
-0.092137143 0.10274286 0.69600004 9.9611035e-39
-0.090811431 0.10274286 0.69600004 1.0053299e-38
-0.08922857 0.10244761 0.69400001 1.0054018e-38
-0.087906666 0.10244761 0.69400001 8.1179098e-39
-0.086584762 0.10244761 0.69400001 6.3690669e-39
-0.085140005 0.1023 0.69300002 6.4612625e-39
-0.08382 0.1023 0.69300002 7.8377594e-39
-0.082261913 0.10200477 0.69100004 6.9158031e-39
-0.080945715 0.10200477 0.69100004 7.471722e-39
-0.079514287 0.10185716 0.69000006 9.5000259e-39
-0.078200005 0.10185716 0.69000006 9.497582e-39
-0.076885715 0.10185716 0.69000006 8.5756257e-39
-0.075680956 0.10200477 0.69100004 7.6519094e-39
-0.074364766 0.10200477 0.69100004 7.00654e-39
-0.073048577 0.10200477 0.69100004 6.2722147e-39
-0.071732387 0.10200477 0.69100004 5.1658672e-39
-0.07062 0.1023 0.69300002 3.6039084e-39
-0.069299996 0.1023 0.69300002 5.2634298e-39
-0.067980006 0.1023 0.69300002 7.284566e-39
-0.066660002 0.1023 0.69300002 7.1001747e-39
-0.065340005 0.1023 0.69300002 7.1015942e-39
-0.06402 0.1023 0.69300002 5.3498773e-39
-0.062699996 0.1023 0.69300002 4.6202408e-39
-0.061380003 0.1023 0.69300002 9.4144135e-39
-0.060060002 0.1023 0.69300002 1.0884144e-38
-0.058740001 0.1023 0.69300002 1.0515362e-38
-0.057502858 0.10244761 0.69400001 1.0331341e-38
-0.056342859 0.10274286 0.69600004 1.0239145e-38
-0.055017143 0.10274286 0.69600004 1.0239498e-38
-0.053691432 0.10274286 0.69600004 1.0147302e-38
-0.052440956 0.10289048 0.69700003 1.0145873e-38
-0.051113334 0.10289048 0.69700003 1.0053677e-38
-0.049785715 0.10289048 0.69700003 9.6870404e-39
-0.048527621 0.10303809 0.69800001 9.779236e-39
-0.047198098 0.10303809 0.69800001 1.0054028e-38
-0.046000004 0.10333334 0.70000005 1.0054028e-38
-0.044730477 0.10348096 0.70100003 9.9621881e-39
-0.043519046 0.10377619 0.70300001 9.7777969e-39
-0.042240005 0.10392382 0.70400006 9.5941259e-39
-0.041015241 0.10421906 0.70600003 9.4097346e-39
-0.039726667 0.10436667 0.70700002 9.317539e-39
-0.038434286 0.10451429 0.708 9.2253433e-39
-0.037190478 0.10480952 0.71000004 9.4093619e-39
-0.035838097 0.10480952 0.71000004 8.8561881e-39
-0.034631431 0.10525239 0.71300006 8.9465985e-39
-0.033320002 0.1054 0.71400005 8.8544028e-39
-0.032094285 0.10584286 0.71700001 8.6707178e-39
-0.030857144 0.10628572 0.72000003 8.3019353e-39
-0.029567622 0.10658097 0.72200006 8.6689101e-39
-0.028192384 0.10658097 0.72200006 1.0236236e-38
-0.026854288 0.10672858 0.72300005 1.0695046e-38
-0.025477143 0.10672858 0.72300005 1.0695046e-38
-0.15121429 0.10840476 0.72500002 1.0603579e-38
-0.14983334 0.10840476 0.72500002 1.0234797e-38
-0.14845239 0.10840476 0.72500002 9.5905161e-39
-0.14707144 0.10840476 0.72500002 9.4983205e-39
-0.14569049 0.10840476 0.72500002 9.2242419e-39
-0.14470762 0.10870381 0.72700006 8.7632638e-39
-0.14332287 0.10870381 0.72700006 8.4845287e-39
-0.14213334 0.10885334 0.72800004 8.3923331e-39
-0.14113334 0.10915238 0.73000002 8.2061397e-39
-0.13974287 0.10915238 0.73000002 8.8515091e-39
-0.13854189 0.1093019 0.73100001 9.7727214e-39
-0.11492001 0.10676 0.71400005 9.9571154e-39
-0.11356001 0.10676 0.71400005 9.8656358e-39
-0.11204287 0.10661048 0.71300006 8.6670927e-39
-0.11037429 0.10631143 0.71100003 8.2986885e-39
-0.10902 0.10631143 0.71100003 8.4830797e-39
-0.10751429 0.10616191 0.71000004 8.4848692e-39
-0.10586286 0.10586286 0.708 8.6692605e-39
-0.10451429 0.10586286 0.708 8.7618218e-39
-0.10243714 0.10511524 0.70300001 8.9462131e-39
-0.10081048 0.1048162 0.70100003 8.7629106e-39
-0.099049523 0.10436761 0.69800001 9.0394975e-39
-0.097720005 0.10436761 0.69800001 9.2238888e-39
-0.096390471 0.10436761 0.69800001 9.4082801e-39
-0.094924763 0.1042181 0.69700003 9.8674631e-39
-0.093597144 0.1042181 0.69700003 1.0051854e-38
-0.092269525 0.1042181 0.69700003 9.7767122e-39
-0.090941906 0.1042181 0.69700003 1.0053299e-38
-0.08948572 0.10406857 0.69600004 9.87034e-39
-0.088160008 0.10406857 0.69600004 7.8420361e-39
-0.086834289 0.10406857 0.69600004 5.4460414e-39
-0.085262857 0.10376953 0.69400001 6.8289758e-39
-0.083940953 0.10376953 0.69400001 9.9592986e-39
-0.082499996 0.10362 0.69300002 8.7607554e-39
-0.080945715 0.10332096 0.69100004 1.7654287e-39
-0.079629533 0.10332096 0.69100004 6.3752102e-39
-0.078313336 0.10332096 0.69100004 9.4068409e-39
-0.076997146 0.10332096 0.69100004 7.1019502e-39
-0.075680956 0.10332096 0.69100004 6.4526151e-39
-0.074364766 0.10332096 0.69100004 6.8213976e-39
-0.073048577 0.10332096 0.69100004 6.915754e-39
-0.071732387 0.10332096 0.69100004 6.3625803e-39
-0.07062 0.10362 0.69300002 3.3255643e-39
-0.069400005 0.10376953 0.69400001 5.907042e-39
-0.067980006 0.10362 0.69300002 8.2061425e-39
-0.066660002 0.10362 0.69300002 8.8515119e-39
-0.065340005 0.10362 0.69300002 9.6820083e-39
-0.06402 0.10362 0.69300002 5.9941831e-39
-0.062790476 0.10376953 0.69400001 4.1577086e-39
-0.061468571 0.10376953 0.69400001 9.6894422e-39
-0.060146667 0.10376953 0.69400001 1.1251126e-38
-0.058824759 0.10376953 0.69400001 1.0790148e-38
-0.057502858 0.10376953 0.69400001 1.0147665e-38
-0.056342859 0.10406857 0.69600004 1.0147665e-38
-0.05509619 0.1042181 0.69700003 1.0055467e-38
-0.053768571 0.1042181 0.69700003 1.0055467e-38
-0.052440956 0.1042181 0.69700003 9.9629112e-39
-0.051113334 0.1042181 0.69700003 9.9629112e-39
-0.049857143 0.10436761 0.69800001 9.6866844e-39
-0.048527621 0.10436761 0.69800001 9.6866844e-39
-0.047198098 0.10436761 0.69800001 9.7788829e-39
-0.046065718 0.1048162 0.70100003 9.7788829e-39
-0.044858098 0.10511524 0.70300001 9.6870404e-39
-0.043519046 0.10511524 0.70300001 9.6870404e-39
-0.042240005 0.10526477 0.70400006 9.502296e-39
-0.041015241 0.10556381 0.70600003 9.4101003e-39
-0.039726667 0.10571333 0.70700002 9.317539e-39
-0.038434286 0.10586286 0.708 9.2253433e-39
-0.037190478 0.10616191 0.71000004 9.4090087e-39
-0.035838097 0.10616191 0.71000004 8.855835e-39
-0.034631431 0.10661048 0.71300006 8.8544028e-39
-0.033320002 0.10676 0.71400005 8.7622072e-39
-0.032094285 0.10720857 0.71700001 8.7629134e-39
-0.030857144 0.10765714 0.72000003 8.3019353e-39
-0.029567622 0.1079562 0.72200006 8.6685598e-39
-0.028192384 0.1079562 0.72200006 1.0328081e-38
-0.026854288 0.10810572 0.72300005 1.0604283e-38
-0.025477143 0.10810572 0.72300005 1.0696478e-38
-0.15024668 0.11008858 0.72700006 1.0603576e-38
-0.14886191 0.11008858 0.72700006 1.0142601e-38
-0.14747715 0.11008858 0.72700006 9.6816229e-39
-0.1460924 0.11008858 0.72700006 9.407194e-39
-0.14490667 0.11024 0.72800004 9.4993897e-39
-0.14352001 0.11024 0.72800004 9.0384115e-39
-0.14252381 0.11054286 0.73000002 8.4852377e-39
-0.14113334 0.11054286 0.73000002 8.2987179e-39
-0.13993429 0.11069429 0.73100001 8.022131e-39
-0.13854189 0.11069429 0.73100001 8.7603701e-39
-0.1138781 0.10842286 0.71600002 9.8659862e-39
-0.11204287 0.10796858 0.71300006 9.2206168e-39
-0.11037429 0.10766572 0.71100003 8.3001276e-39
-0.10902 0.10766572 0.71100003 8.1157364e-39
-0.10751429 0.10751429 0.71000004 8.2090012e-39
-0.10616191 0.10751429 0.71000004 8.4855881e-39
-0.10451429 0.10721143 0.708 8.5774334e-39
-0.10302 0.10706 0.70700002 8.9462159e-39
-0.10081048 0.10615143 0.70100003 9.0384115e-39
-0.099333346 0.10600001 0.70000005 9.2228028e-39
-0.097720005 0.10569715 0.69800001 9.4993897e-39
-0.096390471 0.10569715 0.69800001 9.5915853e-39
-0.094924763 0.10554572 0.69700003 9.5908763e-39
-0.093597144 0.10554572 0.69700003 9.8674631e-39
-0.092269525 0.10554572 0.69700003 9.7770654e-39
-0.090941906 0.10554572 0.69700003 9.7770654e-39
-0.089614287 0.10554572 0.69700003 9.5026337e-39
-0.088286668 0.10554572 0.69700003 8.8572643e-39
-0.086959057 0.10554572 0.69700003 8.3012346e-39
-0.08563143 0.10554572 0.69700003 7.7480609e-39
-0.083940953 0.10509143 0.69400001 9.8667148e-39
-0.082499996 0.10494 0.69300002 1.0880867e-38
-0.081180006 0.10494 0.69300002 1.0695071e-38
-0.079860002 0.10494 0.69300002 8.5745719e-39
-0.078540005 0.10494 0.69300002 8.390531e-39
-0.07722 0.10494 0.69300002 4.7027058e-39
-0.075899996 0.10494 0.69300002 8.3158096e-40
-0.074580006 0.10494 0.69300002 7.3938533e-40
-0.073260002 0.10494 0.69300002 1.2972352e-39
-0.071940005 0.10494 0.69300002 7.4743424e-39
-0.070721909 0.10509143 0.69400001 8.8544028e-39
-0.069400005 0.10509143 0.69400001 8.0246422e-39
-0.067980006 0.10494 0.69300002 7.5615186e-39
-0.066660002 0.10494 0.69300002 9.6820181e-39
-0.065434285 0.10509143 0.69400001 9.868224e-39
-0.06411238 0.10509143 0.69400001 8.1165071e-39
-0.062790476 0.10509143 0.69400001 2.8714245e-39
-0.061468571 0.10509143 0.69400001 6.743641e-39
-0.060146667 0.10509143 0.69400001 1.0791227e-38
-0.058824759 0.10509143 0.69400001 1.0699031e-38
-0.057668574 0.1053943 0.69600004 1.0239495e-38
-0.056342859 0.1053943 0.69600004 1.01473e-38
-0.05509619 0.10554572 0.69700003 1.0147302e-38
-0.053768571 0.10554572 0.69700003 1.0055107e-38
-0.052440956 0.10554572 0.69700003 9.9629112e-39
-0.051113334 0.10554572 0.69700003 9.8707156e-39
-0.049857143 0.10569715 0.69800001 9.6866844e-39
-0.048666667 0.10600001 0.70000005 9.7788801e-39
-0.047333337 0.10600001 0.70000005 1.0146226e-38
-0.046197142 0.10645428 0.70300001 9.961835e-39
-0.044921909 0.10660572 0.70400006 9.9621881e-39
-0.043580953 0.10660572 0.70400006 9.9621881e-39
-0.042240005 0.10660572 0.70400006 9.5015771e-39
-0.041015241 0.10690857 0.70600003 9.4093815e-39
-0.039782856 0.10721143 0.708 9.317539e-39
-0.038542859 0.10751429 0.71000004 9.2253433e-39
-0.037190478 0.10751429 0.71000004 9.4093619e-39
-0.035888575 0.10766572 0.71100003 8.9483837e-39
-0.034680001 0.10812001 0.71400005 8.8544028e-39
-0.033413332 0.10842286 0.71600002 8.7622072e-39
-0.032183811 0.10887714 0.71900004 8.4859762e-39
-0.030857144 0.10902857 0.72000003 8.301585e-39
-0.029567622 0.10933144 0.72200006 8.8526008e-39
-0.028231429 0.10948286 0.72300005 1.0419926e-38
-0.026854288 0.10948286 0.72300005 1.0695399e-38
-0.025477143 0.10948286 0.72300005 1.0787595e-38
-0.15045334 0.11162667 0.72800004 1.0511384e-38
-0.14906667 0.11162667 0.72800004 1.0419185e-38
-0.14768001 0.11162667 0.72800004 9.8660114e-39
-0.14629334 0.11162667 0.72800004 9.407194e-39
-0.14490667 0.11162667 0.72800004 9.3149984e-39
-0.14352001 0.11162667 0.72800004 9.4990366e-39
-0.14252381 0.11193334 0.73000002 9.0380584e-39
-0.14132667 0.11208667 0.73100001 8.1168406e-39
-0.13993429 0.11208667 0.73100001 7.7480581e-39
-0.13892095 0.11239334 0.73300004 8.207932e-39
-0.13771239 0.11254667 0.73400003 9.1298883e-39
-0.13631429 0.11254667 0.73400003 9.8652855e-39
-0.1138781 0.10978667 0.71600002 9.6812446e-39
-0.11220001 0.10948001 0.71400005 9.2202664e-39
-0.11068477 0.10932668 0.71300006 8.484872e-39
-0.10902 0.10902 0.71100003 8.1160895e-39
-0.10766572 0.10902 0.71100003 8.2090012e-39
-0.10616191 0.10886667 0.71000004 8.4855881e-39
-0.10451429 0.10856 0.708 8.5774334e-39
-0.10316571 0.10856 0.708 8.9462159e-39
-0.10109809 0.10779333 0.70300001 8.7632638e-39
-0.099475242 0.10748667 0.70100003 9.0398507e-39
-0.098000005 0.10733334 0.70000005 9.4068409e-39
-0.096390471 0.10702667 0.69800001 9.5912322e-39
-0.095060952 0.10702667 0.69800001 9.5912322e-39
-0.093731426 0.10702667 0.69800001 9.8678191e-39
-0.092269525 0.10687333 0.69700003 9.5926741e-39
-0.090941906 0.10687333 0.69700003 9.7770654e-39
-0.089614287 0.10687333 0.69700003 9.8696267e-39
-0.088286668 0.10687333 0.69700003 9.9618224e-39
-0.086959057 0.10687333 0.69700003 8.9476803e-39
-0.08563143 0.10687333 0.69700003 7.2881589e-39
-0.084182858 0.10672001 0.69600004 8.3898023e-39
-0.082857147 0.10672001 0.69600004 1.0786889e-38
-0.081297144 0.10641333 0.69400001 1.1246813e-38
-0.07997524 0.10641333 0.69400001 9.3107048e-39
-0.078653328 0.10641333 0.69400001 8.389452e-39
-0.077331424 0.10641333 0.69400001 1.3825841e-39
-0.075899996 0.10626 0.69300002 7.3755383e-40
-0.074580006 0.10626 0.69300002 7.3755383e-40
-0.073260002 0.10626 0.69300002 9.3020294e-40
-0.071940005 0.10626 0.69300002 7.9370708e-39
-0.070721909 0.10641333 0.69400001 1.0145858e-38
-0.069400005 0.10641333 0.69400001 8.7629233e-39
-0.068078093 0.10641333 0.69400001 4.7124518e-39
-0.066756189 0.10641333 0.69400001 8.5846683e-39
-0.065434285 0.10641333 0.69400001 1.0145894e-38
-0.06411238 0.10641333 0.69400001 7.2878296e-39
-0.062971428 0.10672001 0.69600004 4.4343627e-39
-0.061645716 0.10672001 0.69600004 8.3065792e-39
-0.060320001 0.10672001 0.69600004 1.0883063e-38
-0.058994289 0.10672001 0.69600004 1.0883063e-38
-0.057751432 0.10687333 0.69700003 1.0239142e-38
-0.056423813 0.10687333 0.69700003 1.0146947e-38
-0.05509619 0.10687333 0.69700003 1.01473e-38
-0.053768571 0.10687333 0.69700003 1.0055104e-38
-0.052440956 0.10687333 0.69700003 9.9629112e-39
-0.05118667 0.10702667 0.69800001 9.9629112e-39
-0.050000004 0.10733334 0.70000005 9.9629112e-39
-0.048736192 0.10748667 0.70100003 9.8707156e-39
-0.047400955 0.10748667 0.70100003 1.0146223e-38
-0.046197142 0.10779333 0.70300001 1.0146223e-38
-0.044921909 0.10794667 0.70400006 9.9621881e-39
-0.043580953 0.10794667 0.70400006 9.8699925e-39
-0.04236 0.10825334 0.70600003 9.2257091e-39
-0.041073337 0.10840667 0.70700002 9.3179047e-39
-0.039782856 0.10856 0.708 9.317539e-39
-0.038542859 0.10886667 0.71000004 9.1331477e-39
-0.037242856 0.10902 0.71100003 9.1324274e-39
-0.035888575 0.10902 0.71100003 8.8558406e-39
-0.034680001 0.10948001 0.71400005 8.8544028e-39
-0.033413332 0.10978667 0.71600002 8.5778159e-39
-0.032183811 0.11024667 0.71900004 8.5785222e-39
-0.030942859 0.11070668 0.72200006 8.2097397e-39
-0.029608574 0.11086001 0.72300005 8.7607554e-39
-0.028231429 0.11086001 0.72300005 1.0420277e-38
-0.026854288 0.11086001 0.72300005 1.0604283e-38
-0.025477143 0.11086001 0.72300005 1.0696478e-38
-0.14906667 0.11301334 0.72800004 1.0234794e-38
-0.14768001 0.11301334 0.72800004 1.0050403e-38
-0.14629334 0.11301334 0.72800004 9.4993897e-39
-0.14530477 0.11332382 0.73000002 9.3149984e-39
-0.14391428 0.11332382 0.73000002 9.3149984e-39
-0.14252381 0.11332382 0.73000002 9.5915853e-39
-0.14132667 0.11347905 0.73100001 8.7629134e-39
-0.13993429 0.11347905 0.73100001 8.0253484e-39
-0.13892095 0.11378953 0.73300004 8.3919827e-39
-0.13771239 0.11394477 0.73400003 8.4841784e-39
-0.13631429 0.11394477 0.73400003 9.1284492e-39
-0.11483239 0.11208192 0.72200006 9.5893993e-39
-0.11251429 0.11115047 0.71600002 9.3128124e-39
-0.11084 0.11084 0.71400005 8.4845161e-39
-0.10932668 0.11068477 0.71300006 8.3923205e-39
-0.10766572 0.11037429 0.71100003 8.3001248e-39
-0.10616191 0.11021905 0.71000004 8.4845161e-39
-0.10480952 0.11021905 0.71000004 8.3930421e-39
-0.10316571 0.10990857 0.708 8.669629e-39
-0.10124191 0.10928763 0.70400006 8.8536671e-39
-0.09975905 0.10913239 0.70300001 9.130254e-39
-0.098140001 0.10882191 0.70100003 9.2224497e-39
-0.096666671 0.10866667 0.70000005 9.4990366e-39
-0.095060952 0.10835619 0.69800001 9.6834278e-39
-0.093731426 0.10835619 0.69800001 9.7756234e-39
-0.092401907 0.10835619 0.69800001 9.6848697e-39
-0.091072381 0.10835619 0.69800001 9.7770654e-39
-0.089742862 0.10835619 0.69800001 1.0053668e-38
-0.088413335 0.10835619 0.69800001 1.0145863e-38
-0.086959057 0.10820096 0.69700003 9.03915e-39
-0.08563143 0.10820096 0.69700003 6.9186505e-39
-0.084303811 0.10820096 0.69700003 7.6533163e-39
-0.082857147 0.10804572 0.69600004 5.8094037e-39
-0.081531428 0.10804572 0.69600004 6.1781988e-39
-0.080205716 0.10804572 0.69600004 7.1001551e-39
-0.078653328 0.10773524 0.69400001 5.7197318e-39
-0.077331424 0.10773524 0.69400001 1.8020698e-42
-0.076009519 0.10773524 0.69400001 1.0761972e-42
-0.074687615 0.10773524 0.69400001 1.4349296e-42
-0.073365718 0.10773524 0.69400001 1.1124838e-39
-0.072043814 0.10773524 0.69400001 8.0271561e-39
-0.070721909 0.10773524 0.69400001 9.8685169e-39
-0.069600001 0.10804572 0.69600004 9.2231475e-39
-0.068078093 0.10773524 0.69400001 9.3135859e-39
-0.066756189 0.10773524 0.69400001 1.1157499e-38
-0.065434285 0.10773524 0.69400001 1.0697249e-38
-0.06411238 0.10773524 0.69400001 7.3782064e-39
-0.062971428 0.10804572 0.69600004 4.712442e-39
-0.061645716 0.10804572 0.69600004 8.6768541e-39
-0.060320001 0.10804572 0.69600004 1.0791227e-38
-0.059079047 0.10820096 0.69700003 1.0606836e-38
-0.057751432 0.10820096 0.69700003 1.0331341e-38
-0.056423813 0.10820096 0.69700003 1.0054754e-38
-0.05509619 0.10820096 0.69700003 9.9629112e-39
-0.053768571 0.10820096 0.69700003 9.9629112e-39
-0.052516192 0.10835619 0.69800001 9.9629112e-39
-0.05118667 0.10835619 0.69800001 9.9629112e-39
-0.050000004 0.10866667 0.70000005 9.9629084e-39
-0.048736192 0.10882191 0.70100003 9.8707128e-39
-0.047400955 0.10882191 0.70100003 1.0054384e-38
-0.04626286 0.10928763 0.70400006 9.9621881e-39
-0.044921909 0.10928763 0.70400006 9.7785171e-39
-0.043580953 0.10928763 0.70400006 9.5019302e-39
-0.04236 0.1095981 0.70600003 9.4093815e-39
-0.041073337 0.10975334 0.70700002 9.4093815e-39
-0.039782856 0.10990857 0.708 9.4090143e-39
-0.038542859 0.11021905 0.71000004 9.2246231e-39
-0.037242856 0.11037429 0.71100003 9.0398759e-39
-0.035989527 0.11068477 0.71300006 8.8554846e-39
-0.034777146 0.11115047 0.71600002 8.7636421e-39
-0.033459999 0.11130571 0.71700001 8.5792509e-39
-0.03222857 0.11177143 0.72000003 8.5785194e-39
-0.030942859 0.11208192 0.72200006 8.5785194e-39
-0.029608574 0.11223715 0.72300005 9.129538e-39
-0.028309524 0.11254762 0.72500002 1.0328081e-38
-0.026928572 0.11254762 0.72500002 1.0695399e-38
-0.14768001 0.11440001 0.72800004 1.0142598e-38
-0.14629334 0.11440001 0.72800004 9.6830621e-39
-0.14530477 0.11471429 0.73000002 9.5908664e-39
-0.14391428 0.11471429 0.73000002 9.3149984e-39
-0.14271905 0.11487143 0.73100001 9.407194e-39
-0.14132667 0.11487143 0.73100001 9.3160844e-39
-0.13993429 0.11487143 0.73100001 8.5785194e-39
-0.13892095 0.11518572 0.73300004 8.5760139e-39
-0.13771239 0.11534286 0.73400003 8.5760139e-39
-0.13631429 0.11534286 0.73400003 8.8515091e-39
-0.11620763 0.11345715 0.72200006 9.6805285e-39
-0.11483239 0.11345715 0.72200006 9.4968533e-39
-0.11267143 0.11267143 0.71700001 9.4046577e-39
-0.11115047 0.11251429 0.71600002 8.9444082e-39
-0.10948001 0.11220001 0.71400005 8.5756257e-39
-0.10796858 0.11204287 0.71300006 8.3004779e-39
-0.10631143 0.11172857 0.71100003 8.4848692e-39
-0.10480952 0.11157144 0.71000004 8.5767145e-39
-0.10316571 0.11125714 0.708 8.8533014e-39
-0.10152952 0.11094286 0.70600003 8.8540203e-39
-0.09975905 0.11047143 0.70300001 9.2228028e-39
-0.098420002 0.11047143 0.70300001 9.2228028e-39
-0.096666671 0.11000001 0.70000005 9.407194e-39
-0.095333338 0.11000001 0.70000005 9.3160872e-39
-0.093731426 0.10968572 0.69800001 9.5926741e-39
-0.092401907 0.10968572 0.69800001 9.5926741e-39
-0.091072381 0.10968572 0.69800001 9.7770654e-39
-0.089742862 0.10968572 0.69800001 9.5941259e-39
-0.088413335 0.10968572 0.69800001 9.4097346e-39
-0.087083809 0.10968572 0.69800001 8.3948596e-39
-0.085754283 0.10968572 0.69800001 7.1041208e-39
-0.084303811 0.10952857 0.69700003 8.4830797e-39
-0.082857147 0.10937143 0.69600004 5.9016021e-39
-0.081531428 0.10937143 0.69600004 4.430072e-39
-0.080205716 0.10937143 0.69600004 5.5364195e-39
-0.078880005 0.10937143 0.69600004 1.7614896e-39
-0.077554293 0.10937143 0.69600004 1.4895803e-42
-0.076009519 0.10905714 0.69400001 3.5873241e-43
-0.074687615 0.10905714 0.69400001 1.3836505e-39
-0.073365718 0.10905714 0.69400001 2.3092166e-39
-0.072043814 0.10905714 0.69400001 7.1955849e-39
-0.07092572 0.10937143 0.69600004 7.7462532e-39
-0.069600001 0.10937143 0.69600004 7.9306445e-39
-0.068078093 0.10905714 0.69400001 9.5876294e-39
-0.066756189 0.10905714 0.69400001 1.1154955e-38
-0.065622866 0.10937143 0.69600004 9.7770654e-39
-0.06429714 0.10937143 0.69600004 6.8268052e-39
-0.062971428 0.10937143 0.69600004 4.7113728e-39
-0.061734285 0.10952857 0.69700003 9.2289587e-39
-0.060406666 0.10952857 0.69700003 1.0516438e-38
-0.059079047 0.10952857 0.69700003 1.0332047e-38
-0.057751432 0.10952857 0.69700003 1.0055117e-38
-0.056504764 0.10968572 0.69800001 9.962921e-39
-0.055175241 0.10968572 0.69800001 9.7795989e-39
-0.053845715 0.10968572 0.69800001 9.8717946e-39
-0.052516192 0.10968572 0.69800001 9.9629084e-39
-0.05118667 0.10968572 0.69800001 9.9629084e-39
-0.050000004 0.11000001 0.70000005 9.8707156e-39
-0.048736192 0.11015715 0.70100003 9.8707156e-39
-0.047536191 0.11047143 0.70300001 9.8707156e-39
-0.04626286 0.11062858 0.70400006 9.8707156e-39
-0.045049526 0.11094286 0.70600003 9.5944888e-39
-0.043704763 0.11094286 0.70600003 9.5022932e-39
-0.04236 0.11094286 0.70600003 9.4093815e-39
-0.041073337 0.1111 0.70700002 9.2249902e-39
-0.039782856 0.11125714 0.708 9.3164628e-39
-0.038542859 0.11157144 0.71000004 9.1320715e-39
-0.037242856 0.11172857 0.71100003 8.9476803e-39
-0.035989527 0.11204287 0.71300006 8.8554846e-39
-0.034777146 0.11251429 0.71600002 8.6714493e-39
-0.033553336 0.11298572 0.71900004 8.3948624e-39
-0.03222857 0.11314286 0.72000003 8.8536671e-39
-0.030985717 0.11361429 0.72300005 8.8536671e-39
-0.029690476 0.11392858 0.72500002 9.129538e-39
-0.028309524 0.11392858 0.72500002 1.0235886e-38
-0.026928572 0.11392858 0.72500002 1.0695046e-38
-0.14550382 0.11626381 0.73100001 9.9585602e-39
-0.14411142 0.11626381 0.73100001 9.4064752e-39
-0.14271905 0.11626381 0.73100001 9.4986708e-39
-0.14132667 0.11626381 0.73100001 9.407194e-39
-0.13993429 0.11626381 0.73100001 9.3149984e-39
-0.13892095 0.11658191 0.73300004 9.0377025e-39
-0.13771239 0.11674096 0.73400003 8.66892e-39
-0.13668573 0.11705906 0.73600006 8.760052e-39
-0.13528381 0.11705906 0.73600006 8.6678564e-39
-0.11483239 0.11483239 0.72200006 9.6805257e-39
-0.11298572 0.11435524 0.71900004 9.4961345e-39
-0.11115047 0.1138781 0.71600002 9.3124621e-39
-0.10978667 0.1138781 0.71600002 8.8514839e-39
-0.10812001 0.11356001 0.71400005 8.3004779e-39
-0.10661048 0.11340096 0.71300006 8.3926736e-39
-0.10480952 0.11292382 0.71000004 8.3923233e-39
-0.10345715 0.11292382 0.71000004 8.6689101e-39
-0.10181714 0.11260571 0.708 8.8540203e-39
-0.099900961 0.11196953 0.70400006 9.1306072e-39
-0.098420002 0.11181048 0.70300001 9.2228028e-39
-0.096804768 0.11149239 0.70100003 9.3149984e-39
-0.095333338 0.11133334 0.70000005 9.03915e-39
-0.094000004 0.11133334 0.70000005 9.5001282e-39
-0.092666671 0.11133334 0.70000005 9.5926741e-39
-0.091072381 0.11101524 0.69800001 9.6848697e-39
-0.089742862 0.11101524 0.69800001 9.8692708e-39
-0.088413335 0.11101524 0.69800001 8.9473145e-39
-0.087083809 0.11101524 0.69800001 7.011572e-39
-0.085754283 0.11101524 0.69800001 6.4583982e-39
-0.084303811 0.11085619 0.69700003 7.8391593e-39
-0.082976192 0.11085619 0.69700003 6.8250074e-39
-0.081531428 0.11069715 0.69600004 4.5255144e-39
-0.080205716 0.11069715 0.69600004 5.2630794e-39
-0.078880005 0.11069715 0.69600004 2.3136124e-39
-0.077554293 0.11069715 0.69600004 5.6189546e-40
-0.076228574 0.11069715 0.69600004 1.8515329e-39
-0.074902862 0.11069715 0.69600004 6.6457056e-39
-0.073577143 0.11069715 0.69600004 7.8366285e-39
-0.072251432 0.11069715 0.69600004 7.6522373e-39
-0.07092572 0.11069715 0.69600004 7.1001747e-39
-0.069600001 0.11069715 0.69600004 6.4548053e-39
-0.068274289 0.11069715 0.69600004 7.1933975e-39
-0.066948578 0.11069715 0.69600004 7.3777888e-39
-0.065622866 0.11069715 0.69600004 8.2993891e-39
-0.06429714 0.11069715 0.69600004 9.0369542e-39
-0.063061908 0.11085619 0.69700003 9.684532e-39
-0.061734285 0.11085619 0.69700003 1.1159662e-38
-0.060406666 0.11085619 0.69700003 1.1068167e-38
-0.059079047 0.11085619 0.69700003 1.1252558e-38
-0.057834286 0.11101524 0.69800001 1.106782e-38
-0.056504764 0.11101524 0.69800001 1.0330255e-38
-0.055175241 0.11101524 0.69800001 1.0330971e-38
-0.053845715 0.11101524 0.69800001 1.0607558e-38
-0.052666668 0.11133334 0.70000005 1.0606476e-38
-0.051333338 0.11133334 0.70000005 1.0422084e-38
-0.050071429 0.11149239 0.70100003 1.0146579e-38
-0.048875239 0.11181048 0.70300001 1.0054384e-38
-0.047536191 0.11181048 0.70300001 1.0054384e-38
-0.04626286 0.11196953 0.70400006 9.9621881e-39
-0.045049526 0.11228763 0.70600003 9.5941287e-39
-0.043704763 0.11228763 0.70600003 9.501933e-39
-0.04242 0.11244667 0.70700002 9.4097346e-39
-0.041131429 0.11260571 0.708 9.317539e-39
-0.03989524 0.11292382 0.71000004 9.4090143e-39
-0.038597144 0.11308286 0.71100003 9.1324274e-39
-0.037347622 0.11340096 0.71300006 8.8554846e-39
-0.036040001 0.11356001 0.71400005 8.8554846e-39
-0.034825716 0.11403714 0.71700001 8.8544056e-39
-0.033553336 0.11435524 0.71900004 8.6700144e-39
-0.03222857 0.11451429 0.72000003 8.8533112e-39
-0.030985717 0.11499143 0.72300005 8.9455068e-39
-0.029690476 0.11530953 0.72500002 9.2217336e-39
-0.028387621 0.11562763 0.72700006 1.014369e-38
-0.14411142 0.11765619 0.73100001 9.5908636e-39
-0.14271905 0.11765619 0.73100001 9.498668e-39
-0.14132667 0.11765619 0.73100001 9.4071912e-39
-0.13993429 0.11765619 0.73100001 9.4071912e-39
-0.13892095 0.1179781 0.73300004 9.2238888e-39
-0.13771239 0.11813905 0.73400003 8.9473019e-39
-0.13668573 0.11846096 0.73600006 8.4859762e-39
-0.13528381 0.11846096 0.73600006 8.301585e-39
-0.13424572 0.11878286 0.73800004 8.6685598e-39
-0.13302 0.11894382 0.73900002 8.9451467e-39
-0.11620763 0.11620763 0.72200006 9.6805285e-39
-0.11483239 0.11620763 0.72200006 9.6805257e-39
-0.11298572 0.11572477 0.71900004 9.5883301e-39
-0.11115047 0.11524191 0.71600002 9.2202692e-39
-0.10978667 0.11524191 0.71600002 8.8514867e-39
-0.10812001 0.11492001 0.71400005 8.5752726e-39
-0.10661048 0.11475906 0.71300006 8.5752726e-39
-0.10495714 0.11443715 0.71100003 8.4845189e-39
-0.10345715 0.11427619 0.71000004 8.6689101e-39
-0.10181714 0.11395428 0.708 8.7618246e-39
-0.10032666 0.11379334 0.70700002 9.1306072e-39
-0.098560005 0.11331049 0.70400006 9.1306072e-39
-0.097080946 0.11314952 0.70300001 9.2228028e-39
-0.095469527 0.11282763 0.70100003 8.8551091e-39
-0.094134286 0.11282763 0.70100003 9.5004785e-39
-0.092666671 0.11266667 0.70000005 9.5926741e-39
-0.091333345 0.11266667 0.70000005 9.7770654e-39
-0.090000004 0.11266667 0.70000005 9.8692708e-39
-0.088413335 0.11234476 0.69800001 9.4082927e-39
-0.087083809 0.11234476 0.69800001 7.1959633e-39
-0.085754283 0.11234476 0.69800001 6.4583982e-39
-0.084303811 0.11218382 0.69700003 8.3930267e-39
-0.082976192 0.11218382 0.69700003 7.563266e-39
-0.081648573 0.11218382 0.69700003 4.7084862e-39
-0.080320954 0.11218382 0.69700003 5.999225e-39
-0.078993335 0.11218382 0.69700003 6.7342719e-39
-0.077665716 0.11218382 0.69700003 3.968403e-39
-0.076228574 0.11202286 0.69600004 5.0740121e-39
-0.074902862 0.11202286 0.69600004 7.9320766e-39
-0.073577143 0.11202286 0.69600004 8.0210198e-39
-0.072251432 0.11202286 0.69600004 7.467846e-39
-0.071027622 0.11218382 0.69700003 6.9157835e-39
-0.069700003 0.11218382 0.69700003 6.5470009e-39
-0.068274289 0.11202286 0.69600004 7.0104202e-39
-0.066948578 0.11202286 0.69600004 7.7479852e-39
-0.065717146 0.11218382 0.69700003 9.3114307e-39
-0.064389527 0.11218382 0.69700003 1.0878756e-38
-0.063061908 0.11218382 0.69700003 1.1433722e-38
-0.061734285 0.11218382 0.69700003 1.0696157e-38
-0.060493335 0.11234476 0.69800001 9.9621699e-39
-0.059163809 0.11234476 0.69800001 1.0330952e-38
-0.057834286 0.11234476 0.69800001 1.0698306e-38
-0.056504764 0.11234476 0.69800001 9.5919581e-39
-0.055333335 0.11266667 0.70000005 7.8409571e-39
-0.054000005 0.11266667 0.70000005 8.3019353e-39
-0.052741908 0.11282763 0.70100003 1.0328431e-38
-0.051406667 0.11282763 0.70100003 1.0605018e-38
-0.050214287 0.11314952 0.70300001 9.9629112e-39
-0.048875239 0.11314952 0.70300001 9.7785199e-39
-0.047603812 0.11331049 0.70400006 9.9618322e-39
-0.04626286 0.11331049 0.70400006 9.9618322e-39
-0.045049526 0.11363238 0.70600003 9.5941259e-39
-0.043704763 0.11363238 0.70600003 9.5019302e-39
-0.04242 0.11379334 0.70700002 9.4097346e-39
-0.041131429 0.11395428 0.708 9.4097346e-39
-0.03989524 0.11427619 0.71000004 9.2253433e-39
-0.038705718 0.11475906 0.71300006 9.0409521e-39
-0.037400004 0.11492001 0.71400005 8.9480362e-39
-0.036191426 0.11540286 0.71700001 8.7636449e-39
-0.034825716 0.11540286 0.71700001 8.8547588e-39
-0.033600003 0.11588572 0.72000003 8.5781719e-39
-0.032318097 0.11620763 0.72200006 8.7607526e-39
-0.030985717 0.11636858 0.72300005 9.1295352e-39
-0.029772382 0.11701239 0.72700006 9.2217336e-39
-0.028387621 0.11701239 0.72700006 1.014369e-38
-0.14411142 0.11904857 0.73100001 9.8663645e-39
-0.14271905 0.11904857 0.73100001 9.9585602e-39
-0.14132667 0.11904857 0.73100001 9.4997344e-39
-0.13993429 0.11904857 0.73100001 9.4075388e-39
-0.13892095 0.1193743 0.73300004 9.2245979e-39
-0.13771239 0.11953715 0.73400003 9.4089891e-39
-0.13668573 0.11986287 0.73600006 9.1320463e-39
-0.13528381 0.11986287 0.73600006 8.5788725e-39
-0.13388193 0.11986287 0.73600006 8.8526078e-39
-0.13284001 0.12018858 0.73800004 8.7604121e-39
-0.13161239 0.12035143 0.73900002 9.1280988e-39
-0.13020477 0.12035143 0.73900002 9.2202945e-39
-0.11499143 0.11774572 0.72300005 9.5883301e-39
-0.11314286 0.11725714 0.72000003 9.4961345e-39
-0.11130571 0.11676857 0.71700001 9.2202692e-39
-0.10978667 0.11660571 0.71600002 8.9436824e-39
-0.10842286 0.11660571 0.71600002 8.3001276e-39
-0.10676 0.11628 0.71400005 8.207932e-39
-0.10495714 0.11579143 0.71100003 8.2082977e-39
-0.10360286 0.11579143 0.71100003 8.5770803e-39
-0.10210477 0.11562857 0.71000004 8.5770803e-39
-0.10032666 0.11514 0.70700002 8.8536671e-39
-0.098840006 0.11497714 0.70600003 9.0384115e-39
-0.097219057 0.11465143 0.70400006 9.2228028e-39
-0.095741905 0.11448857 0.70300001 8.9469544e-39
-0.094134286 0.11416285 0.70100003 9.5923238e-39
-0.092799053 0.11416285 0.70100003 9.5926741e-39
-0.091333345 0.114 0.70000005 9.5004785e-39
-0.090000004 0.114 0.70000005 9.6855886e-39
-0.08866667 0.114 0.70000005 1.0146567e-38
-0.087083809 0.11367428 0.69800001 8.210139e-39
-0.085754283 0.11367428 0.69800001 5.1676833e-39
-0.084424764 0.11367428 0.69800001 5.8162434e-39
-0.082976192 0.11351143 0.69700003 8.2133298e-39
-0.081648573 0.11351143 0.69700003 8.6717968e-39
-0.080320954 0.11351143 0.69700003 8.5796012e-39
-0.078993335 0.11351143 0.69700003 7.1026887e-39
-0.077665716 0.11351143 0.69700003 3.9680372e-39
-0.076338097 0.11351143 0.69700003 4.8006818e-39
-0.075010478 0.11351143 0.69700003 9.0416808e-39
-0.07368286 0.11351143 0.69700003 9.4997218e-39
-0.072355241 0.11351143 0.69700003 7.8402004e-39
-0.071027622 0.11351143 0.69700003 7.9306543e-39
-0.069700003 0.11351143 0.69700003 7.4696761e-39
-0.068372384 0.11351143 0.69700003 7.1944961e-39
-0.067044765 0.11351143 0.69700003 1.069793e-38
-0.065717146 0.11351143 0.69700003 1.1617057e-38
-0.064389527 0.11351143 0.69700003 1.0879492e-38
-0.06315238 0.11367428 0.69800001 6.6403204e-39
-0.061822858 0.11367428 0.69800001 3.2290821e-39
-0.060493335 0.11367428 0.69800001 1.6707359e-39
-0.059333336 0.114 0.70000005 4.9897786e-39
-0.058000006 0.114 0.70000005 6.5523567e-39
-0.056666669 0.114 0.70000005 6.1835742e-39
-0.055412382 0.11416285 0.70100003 6.2750636e-39
-0.054077145 0.11416285 0.70100003 6.0906723e-39
-0.052741908 0.11416285 0.70100003 6.4602059e-39
-0.051553335 0.11448857 0.70300001 9.8714442e-39
-0.050214287 0.11448857 0.70300001 1.0330615e-38
-0.048944768 0.11465143 0.70400006 9.8696366e-39
-0.047603812 0.11465143 0.70400006 9.7785171e-39
-0.046394285 0.11497714 0.70600003 9.6863215e-39
-0.045113333 0.11514 0.70700002 9.5944818e-39
-0.043766666 0.11514 0.70700002 9.5022862e-39
-0.042479999 0.11530285 0.708 9.4100905e-39
-0.041247621 0.11562857 0.71000004 9.3178949e-39
-0.039951429 0.11579143 0.71100003 9.2253433e-39
-0.038760003 0.11628 0.71400005 9.0409521e-39
-0.037400004 0.11628 0.71400005 8.8554846e-39
-0.036191426 0.11676857 0.71700001 8.763289e-39
-0.034922861 0.11709429 0.71900004 8.5792509e-39
-0.033693336 0.11758287 0.72200006 8.3948596e-39
-0.032318097 0.11758287 0.72200006 8.576374e-39
-0.031071428 0.11807143 0.72500002 9.0373521e-39
-0.029813336 0.11856001 0.72800004 9.4061249e-39
-0.028426668 0.11856001 0.72800004 1.0235886e-38
-0.14271905 0.12044095 0.73100001 9.9585602e-39
-0.14132667 0.12044095 0.73100001 9.6830593e-39
-0.13993429 0.12044095 0.73100001 9.6830593e-39
-0.13892095 0.12077048 0.73300004 9.1320463e-39
-0.13771239 0.12093524 0.73400003 9.2242419e-39
-0.13668573 0.12126477 0.73600006 9.2253265e-39
-0.13528381 0.12126477 0.73600006 9.0409353e-39
-0.13388193 0.12126477 0.73600006 8.763289e-39
-0.13284001 0.12159429 0.73800004 8.6710934e-39
-0.13161239 0.12175905 0.73900002 8.8533112e-39
-0.13020477 0.12175905 0.73900002 8.8533112e-39
-0.12879714 0.12175905 0.73900002 9.3128404e-39
-0.1277343 0.12208858 0.74100006 9.5894273e-39
-0.11620763 0.11895811 0.72200006 9.8638408e-39
-0.11483239 0.11895811 0.72200006 9.7719927e-39
-0.11345715 0.11895811 0.72200006 9.7719927e-39
-0.11161619 0.11846381 0.71900004 9.3124621e-39
-0.10994 0.11813428 0.71700001 9.1280708e-39
-0.10842286 0.11796953 0.71600002 8.3923233e-39
-0.10676 0.11764001 0.71400005 8.3001276e-39
-0.10495714 0.11714572 0.71100003 8.3930421e-39
-0.10360286 0.11714572 0.71100003 8.5774334e-39
-0.10210477 0.11698096 0.71000004 8.5774334e-39
-0.10046858 0.11665143 0.708 8.9462159e-39
-0.098840006 0.11632191 0.70600003 9.0384115e-39
-0.097219057 0.11599239 0.70400006 9.3149984e-39
-0.095878102 0.11599239 0.70400006 9.2238916e-39
-0.094402857 0.11582762 0.70300001 9.5004785e-39
-0.092799053 0.1154981 0.70100003 9.3171662e-39
-0.091333345 0.11533334 0.70000005 9.3171662e-39
-0.090000004 0.11533334 0.70000005 9.5934e-39
-0.08866667 0.11533334 0.70000005 9.9621825e-39
-0.087083809 0.11500382 0.69800001 9.2257063e-39
-0.085754283 0.11500382 0.69800001 6.6442286e-39
-0.084424764 0.11500382 0.69800001 5.2630823e-39
-0.083095238 0.11500382 0.69800001 7.6601686e-39
-0.081765719 0.11500382 0.69800001 8.5814089e-39
-0.080436192 0.11500382 0.69800001 7.7516482e-39
-0.079106666 0.11500382 0.69800001 5.9999438e-39
-0.07777714 0.11500382 0.69800001 5.1701832e-39
-0.076338097 0.11483905 0.69700003 5.0783225e-39
-0.075010478 0.11483905 0.69700003 8.5817564e-39
-0.07368286 0.11483905 0.69700003 9.1335008e-39
