# .PCD v0.7 - Point Cloud Data file format
VERSION 0.7
FIELDS x y z rgb
SIZE 4 4 4 4
TYPE F F F F
COUNT 1 1 1 1
WIDTH 948
HEIGHT 1
VIEWPOINT 0 0 0 1 0 0 0
POINTS 948
DATA ascii
-0.10740381 -0.02756381 0.99800003 1.0881602e-38
-0.10582001 -0.027646668 1.001 1.0330252e-38
-0.10391334 -0.027646668 1.001 1.079123e-38
-0.10200667 -0.027646668 1.001 1.0883416e-38
-0.099799998 -0.02756381 0.99800003 1.0422438e-38
-0.097310476 -0.027398096 0.99200004 9.4068409e-39
-0.094939999 -0.02726 0.98700005 8.1161021e-39
-0.09277714 -0.027177144 0.98400003 8.2993919e-39
-0.090625718 -0.027094286 0.98100007 8.5759788e-39
-0.088485718 -0.02701143 0.97800004 8.3926764e-39
-0.086622857 -0.02701143 0.97800004 8.484872e-39
-0.0845 -0.026928572 0.97500002 8.6696234e-39
-0.082219049 -0.026790477 0.97000003 9.4071884e-39
-0.080122858 -0.026707619 0.96700007 9.4075444e-39
-0.078280956 -0.026707619 0.96700007 1.0052914e-38
-0.076439053 -0.026707619 0.96700007 9.685576e-39
-0.07436572 -0.026624763 0.96400005 1.0054359e-38
-0.072529532 -0.026624763 0.96400005 9.9621573e-39
-0.070693336 -0.026624763 0.96400005 1.0146549e-38
-0.068857148 -0.026624763 0.96400005 1.0330952e-38
-0.06688191 -0.026569527 0.96200007 1.0146561e-38
-0.065049522 -0.026569527 0.96200007 8.6710962e-39
-0.063217148 -0.026569527 0.96200007 8.1179224e-39
-0.061384764 -0.026569527 0.96200007 8.9455068e-39
-0.05936667 -0.026486667 0.95900005 1.0512833e-38
-0.057540003 -0.026486667 0.95900005 1.0238757e-38
-0.055713337 -0.026486667 0.95900005 1.0791931e-38
-0.053886667 -0.026486667 0.95900005 1.0792284e-38
-0.051897142 -0.026403811 0.95600003 1.0792284e-38
-0.05007619 -0.026403811 0.95600003 1.0791933e-38
-0.048406668 -0.026486667 0.95900005 1.0791933e-38
-0.046434287 -0.026403811 0.95600003 1.0791931e-38
-0.044613335 -0.026403811 0.95600003 1.0699735e-38
-0.042792384 -0.026403811 0.95600003 1.0883766e-38
-0.041100003 -0.026486667 0.95900005 1.0883766e-38
-0.039273337 -0.026486667 0.95900005 1.0974527e-38
-0.037446667 -0.026486667 0.95900005 1.0974527e-38
-0.03562 -0.026486667 0.95900005 1.0791215e-38
-0.03389905 -0.026569527 0.96200007 1.0699019e-38
-0.032066669 -0.026569527 0.96200007 1.0606473e-38
-0.030234287 -0.026569527 0.96200007 1.0514277e-38
-0.028460953 -0.026624763 0.96400005 1.0514984e-38
-0.026624763 -0.026624763 0.96400005 1.0422788e-38
-0.024865715 -0.026707619 0.96700007 1.023876e-38
-0.023095237 -0.026790477 0.97000003 1.023876e-38
-0.021313334 -0.026873333 0.97300005 1.0054366e-38
-0.0195 -0.026928572 0.97500002 9.8699743e-39
-0.017697142 -0.02701143 0.97800004 9.7770626e-39
-0.015882859 -0.027094286 0.98100007 9.5926713e-39
-0.014014287 -0.027094286 0.98100007 9.4089891e-39
-0.012145716 -0.027094286 0.98100007 9.0402066e-39
-0.010277143 -0.027094286 0.98100007 8.4855825e-39
-0.0084085716 -0.027094286 0.98100007 8.5777781e-39
-0.0065400004 -0.027094286 0.98100007 1.1249296e-38
-0.13060667 -0.025739999 1.001 1.3919372e-38
-0.1287 -0.025739999 1.001 1.2170517e-38
-0.12679334 -0.025739999 1.001 8.4826916e-39
-0.12451239 -0.025662858 0.99800003 8.0235379e-39
-0.12261143 -0.025662858 0.99800003 1.0144037e-38
-0.12034763 -0.025585715 0.99500006 1.0419891e-38
-0.11845239 -0.025585715 0.99500006 1.0973065e-38
-0.11655715 -0.025585715 0.99500006 1.1341141e-38
-0.11466191 -0.025585715 0.99500006 1.1433337e-38
-0.11276667 -0.025585715 0.99500006 1.1617356e-38
-0.11120572 -0.025662858 0.99800003 1.1801747e-38
-0.10930476 -0.025662858 0.99800003 1.1342583e-38
-0.10740381 -0.025662858 0.99800003 1.0973801e-38
-0.10550286 -0.025662858 0.99800003 1.0054371e-38
-0.10391334 -0.025739999 1.001 1.0607545e-38
-0.10200667 -0.025739999 1.001 1.1344028e-38
-0.099799998 -0.025662858 0.99800003 1.088305e-38
-0.09789905 -0.025662858 0.99800003 1.0052208e-38
-0.095132381 -0.02543143 0.98900002 8.0239037e-39
-0.09277714 -0.025302857 0.98400003 7.9320486e-39
-0.090625718 -0.025225716 0.98100007 8.3930267e-39
-0.088485718 -0.025148572 0.97800004 8.4848692e-39
-0.086622857 -0.025148572 0.97800004 8.5770648e-39
-0.0845 -0.025071429 0.97500002 8.8533014e-39
-0.082473338 -0.025020001 0.97300005 9.4064752e-39
-0.080371425 -0.024942858 0.97000003 9.0402066e-39
-0.078280956 -0.024865715 0.96700007 9.5933804e-39
-0.076439053 -0.024865715 0.96700007 9.5933804e-39
-0.074597143 -0.024865715 0.96700007 9.9621629e-39
-0.072529532 -0.024788573 0.96400005 1.0054353e-38
-0.070693336 -0.024788573 0.96400005 1.0423135e-38
-0.068857148 -0.024788573 0.96400005 1.078941e-38
-0.06688191 -0.024737146 0.96200007 8.7611058e-39
-0.065049522 -0.024737146 0.96200007 7.6554771e-39
-0.063217148 -0.024737146 0.96200007 7.6554771e-39
-0.061384764 -0.024737146 0.96200007 8.2054111e-39
-0.059552386 -0.024737146 0.96200007 9.1273674e-39
-0.057540003 -0.024660001 0.95900005 1.0787942e-38
-0.055713337 -0.024660001 0.95900005 1.1617703e-38
-0.053886667 -0.024660001 0.95900005 1.0884482e-38
-0.052060001 -0.024660001 0.95900005 1.0792286e-38
-0.050233334 -0.024660001 0.95900005 1.0791933e-38
-0.048406668 -0.024660001 0.95900005 1.0791933e-38
-0.046580002 -0.024660001 0.95900005 1.0883766e-38
-0.044753335 -0.024660001 0.95900005 1.0883766e-38
-0.042926669 -0.024660001 0.95900005 1.1159274e-38
-0.041100003 -0.024660001 0.95900005 1.125147e-38
-0.039273337 -0.024660001 0.95900005 1.1067076e-38
-0.037446667 -0.024660001 0.95900005 1.1067076e-38
-0.03562 -0.024660001 0.95900005 1.079157e-38
-0.03389905 -0.024737146 0.96200007 1.0699375e-38
-0.032066669 -0.024737146 0.96200007 1.0606823e-38
-0.030234287 -0.024737146 0.96200007 1.0606823e-38
-0.028460953 -0.024788573 0.96400005 1.0514984e-38
-0.026624763 -0.024788573 0.96400005 1.0514984e-38
-0.024865715 -0.024865715 0.96700007 1.0330955e-38
-0.023095237 -0.024942858 0.97000003 1.023876e-38
-0.021313334 -0.025020001 0.97300005 1.0054366e-38
-0.0195 -0.025071429 0.97500002 1.0054366e-38
-0.017697142 -0.025148572 0.97800004 9.594109e-39
-0.015882859 -0.025225716 0.98100007 9.4097178e-39
-0.014014287 -0.025225716 0.98100007 9.775971e-39
-0.012145716 -0.025225716 0.98100007 9.1306016e-39
-0.010308572 -0.025302857 0.98400003 8.3008283e-39
-0.0084342854 -0.025302857 0.98400003 8.6696108e-39
-0.0065600001 -0.025302857 0.98400003 1.1341492e-38
-0.13251334 -0.023833334 1.001 1.5118989e-38
-0.13060667 -0.023833334 1.001 1.1431164e-38
-0.1287 -0.023833334 1.001 9.1295001e-39
-0.12679334 -0.023833334 1.001 9.2216958e-39
-0.12451239 -0.023761906 0.99800003 9.5908763e-39
-0.12261143 -0.023761906 0.99800003 1.0512833e-38
-0.12034763 -0.023690477 0.99500006 1.1618407e-38
-0.11845239 -0.023690477 0.99500006 1.4107689e-38
-0.11655715 -0.023690477 0.99500006 1.4750582e-38
-0.1143162 -0.023619048 0.99200004 1.4934973e-38
-0.11242667 -0.023619048 0.99200004 1.4843837e-38
-0.11087143 -0.023690477 0.99500006 1.5028228e-38
-0.10930476 -0.023761906 0.99800003 1.4751291e-38
-0.10740381 -0.023761906 0.99800003 1.3829335e-38
-0.10550286 -0.023761906 0.99800003 1.1989009e-38
-0.10391334 -0.023833334 1.001 9.3153361e-39
-0.10200667 -0.023833334 1.001 9.4100681e-39
-0.099799998 -0.023761906 0.99800003 1.042422e-38
-0.09789905 -0.023761906 0.99800003 1.0419185e-38
-0.095420949 -0.023619048 0.99200004 8.2064901e-39
-0.093060002 -0.023500001 0.98700005 7.9320486e-39
-0.090625718 -0.023357144 0.98100007 8.3930267e-39
-0.088485718 -0.023285715 0.97800004 8.3926736e-39
-0.086622857 -0.023285715 0.97800004 8.5770648e-39
-0.0845 -0.023214286 0.97500002 8.6696234e-39
-0.082473338 -0.023166668 0.97300005 9.4071884e-39
-0.080371425 -0.023095237 0.97000003 9.0402066e-39
-0.078280956 -0.02302381 0.96700007 9.685576e-39
-0.076439053 -0.02302381 0.96700007 9.777766e-39
-0.074597143 -0.02302381 0.96700007 9.8699617e-39
-0.072529532 -0.022952382 0.96400005 1.0054709e-38
-0.070693336 -0.022952382 0.96400005 1.0515687e-38
-0.068857148 -0.022952382 0.96400005 8.3012346e-39
-0.06688191 -0.022904763 0.96200007 4.982192e-39
-0.065049522 -0.022904763 0.96200007 7.8398627e-39
-0.063217148 -0.022904763 0.96200007 9.4993841e-39
-0.061384764 -0.022904763 0.96200007 8.7614715e-39
-0.059552386 -0.022904763 0.96200007 7.7473196e-39
-0.057720002 -0.022904763 0.96200007 9.7777198e-39
-0.055713337 -0.022833334 0.95900005 1.1621632e-38
-0.053886667 -0.022833334 0.95900005 1.1344381e-38
-0.052060001 -0.022833334 0.95900005 1.0975599e-38
-0.050233334 -0.022833334 0.95900005 1.0699735e-38
-0.048406668 -0.022833334 0.95900005 1.0699735e-38
-0.046580002 -0.022833334 0.95900005 1.0699738e-38
-0.044753335 -0.022833334 0.95900005 1.0884129e-38
-0.042926669 -0.022833334 0.95900005 1.1067794e-38
-0.041100003 -0.022833334 0.95900005 1.0975599e-38
-0.039273337 -0.022833334 0.95900005 1.0791207e-38
-0.037446667 -0.022833334 0.95900005 1.0883403e-38
-0.035731431 -0.022904763 0.96200007 1.0974883e-38
-0.03389905 -0.022904763 0.96200007 1.0882687e-38
-0.032066669 -0.022904763 0.96200007 1.0607179e-38
-0.030297145 -0.022952382 0.96400005 1.0607179e-38
-0.028460953 -0.022952382 0.96400005 1.0607179e-38
-0.026624763 -0.022952382 0.96400005 1.0514984e-38
-0.024942858 -0.023095237 0.97000003 1.023876e-38
-0.023095237 -0.023095237 0.97000003 1.023876e-38
-0.021313334 -0.023166668 0.97300005 1.0239113e-38
-0.0195 -0.023214286 0.97500002 1.0054721e-38
-0.017697142 -0.023285715 0.97800004 9.6855858e-39
-0.015882859 -0.023357144 0.98100007 9.4089989e-39
-0.014014287 -0.023357144 0.98100007 9.775971e-39
-0.012145716 -0.023357144 0.98100007 9.2227972e-39
-0.010308572 -0.023428572 0.98400003 8.3004934e-39
-0.0084342854 -0.023428572 0.98400003 8.8536671e-39
-0.0065600001 -0.023428572 0.98400003 1.1525883e-38
-0.0047000004 -0.023500001 0.98700005 1.4660534e-38
-0.13251334 -0.021926668 1.001 1.5118989e-38
-0.13060667 -0.021926668 1.001 8.6652948e-39
-0.1287 -0.021926668 1.001 8.3875799e-39
-0.12679334 -0.021926668 1.001 1.0508079e-38
-0.12451239 -0.021860953 0.99800003 9.6834278e-39
-0.12261143 -0.021860953 0.99800003 1.1250754e-38
-0.12034763 -0.021795239 0.99500006 1.2264157e-38
-0.11845239 -0.021795239 0.99500006 1.4753439e-38
-0.11655715 -0.021795239 0.99500006 1.4936045e-38
-0.1143162 -0.021729525 0.99200004 1.484385e-38
-0.11242667 -0.021729525 0.99200004 1.4935682e-38
-0.11087143 -0.021795239 0.99500006 1.4935682e-38
-0.10930476 -0.021860953 0.99800003 1.5118641e-38
-0.10740381 -0.021860953 0.99800003 1.5303033e-38
-0.10582001 -0.021926668 1.001 1.3003196e-38
-0.10391334 -0.021926668 1.001 1.0698306e-38
-0.10200667 -0.021926668 1.001 8.6736045e-39
-0.099799998 -0.021860953 0.99800003 8.9501914e-39
-0.09789905 -0.021860953 0.99800003 1.0418094e-38
-0.095420949 -0.021729525 0.99200004 8.4819853e-39
-0.093060002 -0.02162 0.98700005 7.9316954e-39
-0.090625718 -0.021488573 0.98100007 8.2082823e-39
-0.08875715 -0.021488573 0.98100007 8.3001248e-39
-0.086622857 -0.021422857 0.97800004 8.6689073e-39
-0.0845 -0.021357143 0.97500002 8.761103e-39
-0.082642861 -0.021357143 0.97500002 9.4064724e-39
-0.080619998 -0.021313334 0.97300005 9.0402066e-39
-0.078280956 -0.021181906 0.96700007 9.685576e-39
-0.076439053 -0.021181906 0.96700007 9.8699617e-39
-0.074597143 -0.021181906 0.96700007 9.9621573e-39
-0.07275524 -0.021181906 0.96700007 1.0055069e-38
-0.070693336 -0.021116192 0.96400005 1.0147265e-38
-0.068857148 -0.021116192 0.96400005 7.838809e-39
-0.067020953 -0.021116192 0.96400005 7.1012439e-39
-0.065184765 -0.021116192 0.96400005 8.760017e-39
-0.063348576 -0.021116192 0.96400005 9.8663645e-39
-0.061384764 -0.021072382 0.96200007 8.8565384e-39
-0.059552386 -0.021072382 0.96200007 7.3814083e-39
-0.057720002 -0.021072382 0.96200007 8.579171e-39
-0.055887621 -0.021072382 0.96200007 1.0146497e-38
-0.05405524 -0.021072382 0.96200007 1.078976e-38
-0.052222859 -0.021072382 0.96200007 1.1250738e-38
-0.050390478 -0.021072382 0.96200007 1.0792286e-38
-0.048406668 -0.021006668 0.95900005 1.0792286e-38
-0.046580002 -0.021006668 0.95900005 1.0791933e-38
-0.044753335 -0.021006668 0.95900005 1.0884129e-38
-0.042926669 -0.021006668 0.95900005 1.0884129e-38
-0.041100003 -0.021006668 0.95900005 1.0884129e-38
-0.039396197 -0.021072382 0.96200007 1.0791568e-38
-0.037563812 -0.021072382 0.96200007 1.0883763e-38
-0.035731431 -0.021072382 0.96200007 1.079157e-38
-0.03389905 -0.021072382 0.96200007 1.079157e-38
-0.032133333 -0.021116192 0.96400005 1.0607539e-38
-0.030297145 -0.021116192 0.96400005 1.0607539e-38
-0.028460953 -0.021116192 0.96400005 1.0423867e-38
-0.026707619 -0.021181906 0.96700007 1.0331671e-38
-0.024942858 -0.02124762 0.97000003 1.0146927e-38
-0.023095237 -0.02124762 0.97000003 1.0146927e-38
-0.021313334 -0.021313334 0.97300005 1.0146564e-38
-0.0195 -0.021357143 0.97500002 1.0054368e-38
-0.017697142 -0.021422857 0.97800004 9.6855858e-39
-0.015882859 -0.021488573 0.98100007 9.5011946e-39
-0.014014287 -0.021488573 0.98100007 9.775971e-39
-0.012145716 -0.021488573 0.98100007 9.2227972e-39
-0.010308572 -0.021554286 0.98400003 8.4852223e-39
-0.0084342854 -0.021554286 0.98400003 8.9462005e-39
-0.0065800003 -0.02162 0.98700005 1.1618079e-38
-0.0047000004 -0.02162 0.98700005 1.4568339e-38
-0.13251334 -0.020020001 1.001 1.4198114e-38
-0.13060667 -0.020020001 1.001 7.7444203e-39
-0.1287 -0.020020001 1.001 6.4601583e-39
-0.12679334 -0.020020001 1.001 8.5806578e-39
-0.12451239 -0.019959999 0.99800003 1.0695775e-38
-0.12261143 -0.019959999 0.99800003 1.4014818e-38
-0.11998477 -0.01984 0.99200004 1.5027509e-38
-0.11809524 -0.01984 0.99200004 1.4935314e-38
-0.11655715 -0.0199 0.99500006 1.4750559e-38
-0.10930476 -0.019959999 0.99800003 1.4658011e-38
-0.10740381 -0.019959999 0.99800003 1.5211185e-38
-0.10550286 -0.019959999 0.99800003 1.4381462e-38
-0.10391334 -0.020020001 1.001 1.3920484e-38
-0.10170095 -0.019959999 0.99800003 1.1435523e-38
-0.099799998 -0.019959999 0.99800003 8.485263e-39
-0.097604766 -0.0199 0.99500006 8.3015471e-39
-0.095132381 -0.019780001 0.98900002 7.6561777e-39
-0.093248576 -0.019780001 0.98900002 8.0235407e-39
-0.090902865 -0.019680001 0.98400003 8.207932e-39
-0.08875715 -0.019620001 0.98100007 8.3004808e-39
-0.086622857 -0.01956 0.97800004 8.9458502e-39
-0.084760003 -0.01956 0.97800004 8.8543706e-39
-0.082642861 -0.0195 0.97500002 9.1309575e-39
-0.080619998 -0.01946 0.97300005 9.0402066e-39
-0.078523815 -0.019400001 0.97000003 9.685576e-39
-0.076439053 -0.019340001 0.96700007 9.778122e-39
-0.074597143 -0.019340001 0.96700007 9.8703176e-39
-0.07275524 -0.019340001 0.96700007 1.0054353e-38
-0.070913337 -0.019340001 0.96700007 1.0515331e-38
-0.068857148 -0.019280002 0.96400005 8.5767636e-39
-0.067020953 -0.019280002 0.96400005 6.9172422e-39
-0.065184765 -0.019280002 0.96400005 7.9323961e-39
-0.063348576 -0.019280002 0.96400005 8.6699611e-39
-0.061512385 -0.019280002 0.96400005 6.0845865e-39
-0.059676193 -0.019280002 0.96400005 1.1982181e-39
-0.057840001 -0.019280002 0.96400005 3.702763e-40
-0.055887621 -0.019240001 0.96200007 6.7317748e-39
-0.05405524 -0.019240001 0.96200007 8.9494599e-39
-0.052222859 -0.019240001 0.96200007 1.0885568e-38
-0.050390478 -0.019240001 0.96200007 1.1068873e-38
-0.048558097 -0.019240001 0.96200007 1.0792286e-38
-0.046725716 -0.019240001 0.96200007 1.0791933e-38
-0.044893336 -0.019240001 0.96200007 1.0884129e-38
-0.043060955 -0.019240001 0.96200007 1.0883776e-38
-0.041228574 -0.019240001 0.96200007 1.079158e-38
-0.039396197 -0.019240001 0.96200007 1.0791215e-38
-0.037563812 -0.019240001 0.96200007 1.0791215e-38
-0.035805713 -0.019280002 0.96400005 1.079157e-38
-0.033969525 -0.019280002 0.96400005 1.0699375e-38
-0.032133333 -0.019280002 0.96400005 1.0699375e-38
-0.030297145 -0.019280002 0.96400005 1.0699375e-38
-0.028549524 -0.019340001 0.96700007 1.0607179e-38
-0.026707619 -0.019340001 0.96700007 1.0514984e-38
-0.024942858 -0.019400001 0.97000003 1.023876e-38
-0.023166668 -0.01946 0.97300005 1.0146564e-38
-0.021357143 -0.0195 0.97500002 9.9621755e-39
-0.0195 -0.0195 0.97500002 9.8699799e-39
-0.017697142 -0.01956 0.97800004 9.6855858e-39
-0.015882859 -0.019620001 0.98100007 9.5011946e-39
-0.014014287 -0.019620001 0.98100007 9.775971e-39
-0.012145716 -0.019620001 0.98100007 9.3149928e-39
-0.010308572 -0.019680001 0.98400003 8.392689e-39
-0.0084342854 -0.019680001 0.98400003 9.5912322e-39
-0.0065800003 -0.01974 0.98700005 1.1802473e-38
-0.0047000004 -0.01974 0.98700005 1.4752733e-38
-0.13442001 -0.018113334 1.001 1.5210108e-38
-0.13251334 -0.018113334 1.001 1.3552745e-38
-0.13060667 -0.018113334 1.001 7.6522247e-39
-0.1287 -0.018113334 1.001 6.9200154e-39
-0.12679334 -0.018113334 1.001 9.1327105e-39
-0.12451239 -0.018059047 0.99800003 1.1708126e-38
-0.12224287 -0.018004762 0.99500006 1.4842778e-38
-0.11998477 -0.017950477 0.99200004 1.5210831e-38
-0.11809524 -0.017950477 0.99200004 1.4657658e-38
-0.10740381 -0.018059047 0.99800003 1.4658376e-38
-0.10550286 -0.018059047 0.99800003 1.474915e-38
-0.10391334 -0.018113334 1.001 1.4841345e-38
-0.10170095 -0.018059047 0.99800003 1.3277991e-38
-0.099500008 -0.018004762 0.99500006 1.0604318e-38
-0.097604766 -0.018004762 0.99500006 7.6580204e-39
-0.095132381 -0.01789619 0.98900002 7.1048467e-39
-0.093248576 -0.01789619 0.98900002 8.3908813e-39
-0.090902865 -0.017805716 0.98400003 8.5752726e-39
-0.08875715 -0.017751429 0.98100007 8.2079292e-39
-0.086622857 -0.017697142 0.97800004 8.9454942e-39
-0.084760003 -0.017697142 0.97800004 8.9465662e-39
-0.082642861 -0.017642858 0.97500002 9.4075444e-39
-0.080785714 -0.017642858 0.97500002 9.1323966e-39
-0.078523815 -0.017552381 0.97000003 9.6855704e-39
-0.07667619 -0.017552381 0.97000003 9.6855704e-39
-0.074597143 -0.017498096 0.96700007 9.8699617e-39
-0.07275524 -0.017498096 0.96700007 9.9621573e-39
-0.070913337 -0.017498096 0.96700007 1.0607527e-38
-0.069071427 -0.017498096 0.96700007 1.0146214e-38
-0.067020953 -0.01744381 0.96400005 8.4866923e-39
-0.065184765 -0.01744381 0.96400005 7.838809e-39
-0.063348576 -0.01744381 0.96400005 7.1934395e-39
-0.061512385 -0.01744381 0.96400005 6.7248411e-39
-0.059676193 -0.01744381 0.96400005 3.3136112e-39
-0.057840001 -0.01744381 0.96400005 9.2911693e-41
-0.055887621 -0.01740762 0.96200007 8.0217331e-39
-0.05405524 -0.01740762 0.96200007 9.2264153e-39
-0.052222859 -0.01740762 0.96200007 1.060935e-38
-0.050390478 -0.01740762 0.96200007 1.0976675e-38
-0.048558097 -0.01740762 0.96200007 1.0884479e-38
-0.046725716 -0.01740762 0.96200007 1.0700457e-38
-0.044893336 -0.01740762 0.96200007 1.0792652e-38
-0.043060955 -0.01740762 0.96200007 1.0883776e-38
-0.041228574 -0.01740762 0.96200007 1.079158e-38
-0.039478097 -0.01744381 0.96400005 1.0699738e-38
-0.037641905 -0.01744381 0.96400005 1.0699738e-38
-0.035805713 -0.01744381 0.96400005 1.0607539e-38
-0.033969525 -0.01744381 0.96400005 1.0607539e-38
-0.032133333 -0.01744381 0.96400005 1.0516063e-38
-0.03039143 -0.017498096 0.96700007 1.0516063e-38
-0.028549524 -0.017498096 0.96700007 1.0331671e-38
-0.026707619 -0.017498096 0.96700007 1.0423867e-38
-0.024942858 -0.017552381 0.97000003 1.014728e-38
-0.023166668 -0.017606668 0.97300005 1.014728e-38
-0.021357143 -0.017642858 0.97500002 9.9621755e-39
-0.01956 -0.017697142 0.97800004 9.9621755e-39
-0.017697142 -0.017697142 0.97800004 9.6855858e-39
-0.015882859 -0.017751429 0.98100007 9.5011946e-39
-0.014014287 -0.017751429 0.98100007 9.775971e-39
-0.012182858 -0.017805716 0.98400003 9.0384059e-39
-0.010340001 -0.017860001 0.98700005 8.3926736e-39
-0.0084600002 -0.017860001 0.98700005 9.6834124e-39
-0.0065800003 -0.017860001 0.98700005 1.1985782e-38
-0.0047000004 -0.017860001 0.98700005 1.456726e-38
-0.1359181 -0.016158095 0.99800003 1.4565465e-38
-0.13401714 -0.016158095 0.99800003 1.4934247e-38
-0.13251334 -0.016206667 1.001 1.2724426e-38
-0.13060667 -0.016206667 1.001 7.561471e-39
-0.1287 -0.016206667 1.001 7.3821174e-39
-0.12641335 -0.016158095 0.99800003 1.0332378e-38
-0.12413809 -0.016109524 0.99500006 1.1617728e-38
-0.12224287 -0.016109524 0.99500006 1.4383597e-38
-0.12034763 -0.016109524 0.99500006 1.4566894e-38
-0.10391334 -0.016206667 1.001 1.4749856e-38
-0.10200667 -0.016206667 1.001 1.4566912e-38
-0.099500008 -0.016109524 0.99500006 1.4474717e-38
-0.097604766 -0.016109524 0.99500006 1.2448578e-38
-0.095132381 -0.01601238 0.98900002 7.7466007e-39
-0.093248576 -0.01601238 0.98900002 7.4703642e-39
-0.091180004 -0.015980002 0.98700005 8.2079292e-39
-0.089028575 -0.015931429 0.98400003 8.4830769e-39
-0.086888582 -0.015882859 0.98100007 9.220642e-39
-0.084760003 -0.015834287 0.97800004 8.8540147e-39
-0.082897149 -0.015834287 0.97800004 9.4993841e-39
-0.080785714 -0.015785715 0.97500002 9.1323966e-39
-0.078766666 -0.015753334 0.97300005 9.5933748e-39
-0.07667619 -0.015704762 0.97000003 9.6855704e-39
-0.074828573 -0.015704762 0.97000003 9.6855704e-39
-0.07275524 -0.015656192 0.96700007 1.0144759e-38
-0.070913337 -0.015656192 0.96700007 1.0236955e-38
-0.069071427 -0.015656192 0.96700007 1.0238028e-38
-0.067229524 -0.015656192 0.96700007 1.0699006e-38
-0.065387622 -0.015656192 0.96700007 8.9484061e-39
-0.063545719 -0.015656192 0.96700007 5.8137547e-39
-0.061512385 -0.01560762 0.96400005 4.1517026e-39
-0.059676193 -0.01560762 0.96400005 3.5985289e-39
-0.057840001 -0.01560762 0.96400005 3.1389674e-39
-0.056003813 -0.01560762 0.96400005 9.5004659e-39
-0.054167621 -0.01560762 0.96400005 1.1344378e-38
-0.052222859 -0.015575239 0.96200007 1.0975596e-38
-0.050390478 -0.015575239 0.96200007 1.0700078e-38
-0.048659049 -0.01560762 0.96400005 1.1068861e-38
-0.046822857 -0.01560762 0.96400005 1.1068517e-38
-0.044986669 -0.01560762 0.96400005 1.0884126e-38
-0.043150477 -0.01560762 0.96400005 1.0791933e-38
-0.041314285 -0.01560762 0.96400005 1.0699738e-38
-0.039478097 -0.01560762 0.96400005 1.0607542e-38
-0.037641905 -0.01560762 0.96400005 1.0607542e-38
-0.035805713 -0.01560762 0.96400005 1.0606823e-38
-0.033969525 -0.01560762 0.96400005 1.0606823e-38
-0.032233335 -0.015656192 0.96700007 1.0606823e-38
-0.03039143 -0.015656192 0.96700007 1.0514628e-38
-0.028549524 -0.015656192 0.96700007 1.0514984e-38
-0.026790477 -0.015704762 0.97000003 1.0514984e-38
-0.025020001 -0.015753334 0.97300005 1.0330952e-38
-0.023166668 -0.015753334 0.97300005 1.0146561e-38
-0.021357143 -0.015785715 0.97500002 9.8696267e-39
-0.01956 -0.015834287 0.97800004 9.8696267e-39
-0.017697142 -0.015834287 0.97800004 9.961807e-39
-0.015882859 -0.015882859 0.98100007 9.5930244e-39
-0.014014287 -0.015882859 0.98100007 9.5011847e-39
-0.012182858 -0.015931429 0.98400003 8.7636197e-39
-0.010340001 -0.015980002 0.98700005 8.5774306e-39
-0.0084600002 -0.015980002 0.98700005 1.0236952e-38
-0.0065933336 -0.01601238 0.98900002 1.1985782e-38
-0.0047095241 -0.01601238 0.98900002 1.4475064e-38
-0.1359181 -0.014257143 0.99800003 1.4473988e-38
-0.13401714 -0.014257143 0.99800003 1.4750575e-38
-0.13251334 -0.0143 1.001 1.2446763e-38
-0.13060667 -0.0143 1.001 8.1135686e-39
-0.1287 -0.0143 1.001 8.1178593e-39
-0.12641335 -0.014257143 0.99800003 1.0791533e-38
-0.12413809 -0.014214287 0.99500006 1.1894668e-38
-0.12224287 -0.014214287 0.99500006 1.438395e-38
-0.10391334 -0.0143 1.001 1.4381787e-38
-0.10170095 -0.014257143 0.99800003 1.4658026e-38
-0.099500008 -0.014214287 0.99500006 1.5303396e-38
-0.097310476 -0.014171429 0.99200004 1.4014114e-38
-0.095420949 -0.014171429 0.99200004 8.2057894e-39
-0.093248576 -0.014128571 0.98900002 7.6522373e-39
-0.091180004 -0.0141 0.98700005 8.6663892e-39
-0.089028575 -0.014057143 0.98400003 8.4837832e-39
-0.086888582 -0.014014287 0.98100007 9.1291526e-39
-0.084760003 -0.013971429 0.97800004 8.762175e-39
-0.082897149 -0.013971429 0.97800004 9.3153487e-39
-0.080785714 -0.013928572 0.97500002 9.4071912e-39
-0.078766666 -0.013900001 0.97300005 9.8681694e-39
-0.07667619 -0.013857143 0.97000003 9.5011847e-39
-0.074828573 -0.013857143 0.97000003 9.8699673e-39
-0.072980955 -0.013857143 0.97000003 9.8699673e-39
-0.070913337 -0.013814286 0.96700007 9.9621629e-39
-0.069071427 -0.013814286 0.96700007 9.962523e-39
-0.067229524 -0.013814286 0.96700007 1.0331306e-38
-0.065387622 -0.013814286 0.96700007 1.0054381e-38
-0.063545719 -0.013814286 0.96700007 6.7353383e-39
-0.061703809 -0.013814286 0.96700007 7.2848869e-39
-0.059676193 -0.01377143 0.96400005 7.2848869e-39
-0.057840001 -0.01377143 0.96400005 5.9963439e-39
-0.056003813 -0.01377143 0.96400005 9.1309953e-39
-0.054167621 -0.01377143 0.96400005 1.0792621e-38
-0.052331429 -0.01377143 0.96400005 9.5940782e-39
-0.050495241 -0.01377143 0.96400005 8.5788725e-39
-0.048659049 -0.01377143 0.96400005 8.947655e-39
-0.046822857 -0.01377143 0.96400005 1.115852e-38
-0.044986669 -0.01377143 0.96400005 1.1527303e-38
-0.043150477 -0.01377143 0.96400005 1.0791943e-38
-0.041314285 -0.01377143 0.96400005 1.0699748e-38
-0.039478097 -0.01377143 0.96400005 1.0607542e-38
-0.037641905 -0.01377143 0.96400005 1.0607542e-38
-0.035917144 -0.013814286 0.96700007 1.042387e-38
-0.034075242 -0.013814286 0.96700007 1.042387e-38
-0.032233335 -0.013814286 0.96700007 1.0331674e-38
-0.03039143 -0.013814286 0.96700007 1.0331674e-38
-0.028638097 -0.013857143 0.97000003 1.0331674e-38
-0.026790477 -0.013857143 0.97000003 1.0331674e-38
-0.025020001 -0.013900001 0.97300005 1.014728e-38
-0.023214286 -0.013928572 0.97500002 1.014728e-38
-0.021357143 -0.013928572 0.97500002 9.9621755e-39
-0.01956 -0.013971429 0.97800004 9.8699799e-39
-0.017697142 -0.013971429 0.97800004 9.7777786e-39
-0.015882859 -0.014014287 0.98100007 9.685583e-39
-0.014014287 -0.014014287 0.98100007 9.5008288e-39
-0.012182858 -0.014057143 0.98400003 8.5788725e-39
-0.010340001 -0.0141 0.98700005 8.3933924e-39
-0.0084600002 -0.0141 0.98700005 1.0698283e-38
-0.0065933336 -0.014128571 0.98900002 1.180247e-38
-0.0047095241 -0.014128571 0.98900002 1.4015165e-38
-0.13632667 -0.012393334 1.001 1.4473985e-38
-0.13442001 -0.012393334 1.001 1.4658376e-38
-0.13291049 -0.012430477 1.0040001 1.2722997e-38
-0.13060667 -0.012393334 1.001 8.3898023e-39
-0.1287 -0.012393334 1.001 8.5770648e-39
-0.12679334 -0.012393334 1.001 1.0881956e-38
-0.12451239 -0.01235619 0.99800003 1.1985782e-38
-0.12261143 -0.01235619 0.99800003 1.456726e-38
-0.10170095 -0.01235619 0.99800003 1.4289944e-38
-0.099500008 -0.012319048 0.99500006 1.4750922e-38
-0.097310476 -0.012281906 0.99200004 1.4198127e-38
-0.095420949 -0.012281906 0.99200004 1.0418106e-38
-0.093248576 -0.012244762 0.98900002 7.4710858e-39
-0.091180004 -0.01222 0.98700005 7.7476727e-39
-0.089300007 -0.01222 0.98700005 8.0238911e-39
-0.086888582 -0.012145716 0.98100007 8.9458474e-39
-0.085020006 -0.012145716 0.98100007 9.038043e-39
-0.082897149 -0.012108572 0.97800004 9.3146299e-39
-0.080785714 -0.012071429 0.97500002 9.3149984e-39
-0.078766666 -0.012046667 0.97300005 9.8681722e-39
-0.07667619 -0.012009524 0.97000003 9.5008288e-39
-0.074828573 -0.012009524 0.97000003 9.8696113e-39
-0.072980955 -0.012009524 0.97000003 9.9621629e-39
-0.070913337 -0.011972382 0.96700007 9.9621629e-39
-0.069071427 -0.011972382 0.96700007 1.0145838e-38
-0.067229524 -0.011972382 0.96700007 1.0514621e-38
-0.065387622 -0.011972382 0.96700007 1.0054721e-38
-0.063545719 -0.011972382 0.96700007 8.7639826e-39
-0.061703809 -0.011972382 0.96700007 9.5908763e-39
-0.059676193 -0.011935239 0.96400005 1.161918e-38
-0.057840001 -0.011935239 0.96400005 1.1249299e-38
-0.056003813 -0.011935239 0.96400005 8.0224519e-39
-0.054167621 -0.011935239 0.96400005 7.654726e-39
-0.052331429 -0.011935239 0.96400005 8.9454648e-39
-0.050495241 -0.011935239 0.96400005 8.9451565e-39
-0.048659049 -0.011935239 0.96400005 7.9310046e-39
-0.046822857 -0.011935239 0.96400005 8.4873803e-39
-0.044986669 -0.011935239 0.96400005 1.143764e-38
-0.043150477 -0.011935239 0.96400005 1.1620615e-38
-0.041314285 -0.011935239 0.96400005 1.1067441e-38
-0.039478097 -0.011935239 0.96400005 1.0791215e-38
-0.037759051 -0.011972382 0.96700007 1.0699019e-38
-0.035917144 -0.011972382 0.96700007 1.0606823e-38
-0.034075242 -0.011972382 0.96700007 1.0606823e-38
-0.032233335 -0.011972382 0.96700007 1.0514277e-38
-0.030485716 -0.012009524 0.97000003 1.0422082e-38
-0.028638097 -0.012009524 0.97000003 1.0330605e-38
-0.026873333 -0.012046667 0.97300005 1.0330605e-38
-0.025071429 -0.012071429 0.97500002 1.0238757e-38
-0.023214286 -0.012071429 0.97500002 1.0146561e-38
-0.021357143 -0.012071429 0.97500002 9.9621755e-39
-0.01956 -0.012108572 0.97800004 9.8699799e-39
-0.017751429 -0.012145716 0.98100007 9.4090087e-39
-0.015882859 -0.012145716 0.98100007 9.4090087e-39
-0.014014287 -0.012145716 0.98100007 9.5011847e-39
-0.01222 -0.01222 0.98700005 8.5792284e-39
-0.010340001 -0.01222 0.98700005 8.5774278e-39
-0.008477143 -0.012244762 0.98900002 1.106671e-38
-0.0066133337 -0.012281906 0.99200004 1.2077978e-38
-0.0047523812 -0.01235619 0.99800003 1.4106282e-38
-0.0028514285 -0.01235619 0.99800003 1.4105906e-38
-0.13632667 -0.010486667 1.001 1.4289944e-38
-0.13442001 -0.010486667 1.001 1.4658727e-38
-0.13251334 -0.010486667 1.001 1.2816274e-38
-0.13021523 -0.010455239 0.99800003 8.8518623e-39
-0.1283143 -0.010455239 0.99800003 8.7614589e-39
-0.12641335 -0.010455239 0.99800003 9.6834152e-39
-0.12451239 -0.010455239 0.99800003 1.1801018e-38
-0.12261143 -0.010455239 0.99800003 1.4659083e-38
-0.099500008 -0.01042381 0.99500006 1.4566178e-38
-0.097604766 -0.01042381 0.99500006 1.4475067e-38
-0.095420949 -0.010392382 0.99200004 1.0787242e-38
-0.093531437 -0.010392382 0.99200004 8.3901554e-39
-0.091364756 -0.010360952 0.98900002 8.2057642e-39
-0.089300007 -0.010340001 0.98700005 7.8402187e-39
-0.087154284 -0.010308572 0.98400003 8.8543706e-39
-0.085020006 -0.010277143 0.98100007 9.1309575e-39
-0.082897149 -0.010245714 0.97800004 9.3153487e-39
-0.081034288 -0.010245714 0.97800004 9.2228028e-39
-0.078928567 -0.010214286 0.97500002 9.8681722e-39
-0.076913334 -0.010193334 0.97300005 9.5933804e-39
-0.074828573 -0.010161905 0.97000003 9.9621629e-39
-0.072980955 -0.010161905 0.97000003 1.0054359e-38
-0.070913337 -0.010130477 0.96700007 9.9621629e-39
-0.069071427 -0.010130477 0.96700007 1.0054005e-38
-0.067229524 -0.010130477 0.96700007 1.0238397e-38
-0.065387622 -0.010130477 0.96700007 9.7781318e-39
-0.063545719 -0.010130477 0.96700007 7.8420235e-39
-0.061703809 -0.010130477 0.96700007 8.576374e-39
-0.059861906 -0.010130477 0.96700007 1.0881265e-38
-0.057840001 -0.010099048 0.96400005 1.1157492e-38
-0.056003813 -0.010099048 0.96400005 8.0228401e-39
-0.054167621 -0.010099048 0.96400005 5.9934166e-39
-0.052331429 -0.010099048 0.96400005 8.8514811e-39
-0.050495241 -0.010099048 0.96400005 1.124787e-38
-0.048659049 -0.010099048 0.96400005 8.9429789e-39
-0.046822857 -0.010099048 0.96400005 8.2086326e-39
-0.044986669 -0.010099048 0.96400005 1.1527675e-38
-0.043150477 -0.010099048 0.96400005 1.1620262e-38
-0.04144286 -0.010130477 0.96700007 1.1159284e-38
-0.039600953 -0.010130477 0.96700007 1.0699375e-38
-0.037759051 -0.010130477 0.96700007 1.0607179e-38
-0.035917144 -0.010130477 0.96700007 1.042387e-38
-0.034075242 -0.010130477 0.96700007 1.042387e-38
-0.032333333 -0.010161905 0.97000003 1.0514277e-38
-0.030485716 -0.010161905 0.97000003 1.0514277e-38
-0.028726669 -0.010193334 0.97300005 1.0330955e-38
-0.026928572 -0.010214286 0.97500002 1.0330955e-38
-0.025071429 -0.010214286 0.97500002 1.023876e-38
-0.023285715 -0.010245714 0.97800004 1.0146564e-38
-0.021422857 -0.010245714 0.97800004 9.9621755e-39
-0.019620001 -0.010277143 0.98100007 9.8699799e-39
-0.017751429 -0.010277143 0.98100007 9.2249706e-39
-0.015882859 -0.010277143 0.98100007 9.3171662e-39
-0.014057143 -0.010308572 0.98400003 9.5011847e-39
-0.012244762 -0.010360952 0.98900002 8.3026416e-39
-0.010360952 -0.010360952 0.98900002 8.3011912e-39
-0.0085028578 -0.010392382 0.99200004 1.0974864e-38
-0.0066133337 -0.010392382 0.99200004 1.2077978e-38
-0.0047380957 -0.01042381 0.99500006 1.392189e-38
-0.0028428573 -0.01042381 0.99500006 1.4013713e-38
-0.00094761909 -0.01042381 0.99500006 1.3737126e-38
-0.13632667 -0.0085800011 1.001 1.4105553e-38
-0.13442001 -0.0085800011 1.001 1.4658727e-38
-0.13211618 -0.0085542863 0.99800003 1.3369092e-38
-0.13021523 -0.0085542863 0.99800003 9.2202889e-39
-0.1283143 -0.0085542863 0.99800003 8.66892e-39
-0.12641335 -0.0085542863 0.99800003 8.5767243e-39
-0.12451239 -0.0085542863 0.99800003 1.0232996e-38
-0.09819334 -0.0085800011 1.001 1.4474348e-38
-0.095709525 -0.0085285725 0.99500006 1.1892871e-38
-0.093531437 -0.0085028578 0.99200004 8.0232002e-39
-0.091364756 -0.008477143 0.98900002 7.838809e-39
-0.089300007 -0.0084600002 0.98700005 8.0242596e-39
-0.087154284 -0.0084342854 0.98400003 8.7618246e-39
-0.085020006 -0.0084085716 0.98100007 8.8543706e-39
-0.08315143 -0.0084085716 0.98100007 9.2231531e-39
-0.081034288 -0.0083828568 0.97800004 9.2228028e-39
-0.078928567 -0.008357143 0.97500002 9.8681722e-39
-0.076913334 -0.0083400002 0.97300005 9.5933804e-39
-0.075060003 -0.0083400002 0.97300005 9.9621629e-39
-0.072980955 -0.0083142864 0.97000003 9.9621629e-39
-0.071133338 -0.0083142864 0.97000003 1.0054359e-38
-0.069285713 -0.0083142864 0.97000003 1.0329873e-38
-0.067229524 -0.0082885725 0.96700007 1.0053287e-38
-0.065387622 -0.0082885725 0.96700007 8.3948316e-39
-0.063545719 -0.0082885725 0.96700007 6.2743321e-39
-0.061703809 -0.0082885725 0.96700007 8.0235505e-39
-0.059861906 -0.0082885725 0.96700007 8.5767243e-39
-0.058020003 -0.0082885725 0.96700007 8.7614715e-39
-0.056178097 -0.0082885725 0.96700007 8.5770803e-39
-0.054336194 -0.0082885725 0.96700007 8.5767145e-39
-0.052494287 -0.0082885725 0.96700007 8.3001276e-39
-0.050652385 -0.0082885725 0.96700007 8.3908841e-39
-0.048659049 -0.0082628578 0.96400005 7.929906e-39
-0.046822857 -0.0082628578 0.96400005 7.5618619e-39
-0.045126669 -0.0082885725 0.96700007 1.0235535e-38
-0.043284763 -0.0082885725 0.96700007 1.1342581e-38
-0.04144286 -0.0082885725 0.96700007 1.1526972e-38
-0.039600953 -0.0082885725 0.96700007 1.0791918e-38
-0.037759051 -0.0082885725 0.96700007 1.0515331e-38
-0.035917144 -0.0082885725 0.96700007 1.0606823e-38
-0.034075242 -0.0082885725 0.96700007 1.0606823e-38
-0.032333333 -0.0083142864 0.97000003 1.0698671e-38
-0.030580001 -0.0083400002 0.97300005 1.051428e-38
-0.028726669 -0.0083400002 0.97300005 1.0422432e-38
-0.026928572 -0.008357143 0.97500002 1.0422432e-38
-0.025148572 -0.0083828568 0.97800004 1.0422785e-38
-0.023285715 -0.0083828568 0.97800004 1.0146198e-38
-0.021488573 -0.0084085716 0.98100007 9.9621755e-39
-0.019620001 -0.0084085716 0.98100007 9.8699799e-39
-0.017805716 -0.0084342854 0.98400003 9.3168131e-39
-0.015931429 -0.0084342854 0.98400003 9.3168131e-39
-0.014057143 -0.0084342854 0.98400003 9.3167935e-39
-0.012244762 -0.008477143 0.98900002 8.3948372e-39
-0.010392382 -0.0085028578 0.99200004 8.3011912e-39
-0.0085028578 -0.0085028578 0.99200004 1.0882669e-38
-0.0066333339 -0.0085285725 0.99500006 1.2354568e-38
-0.0047380957 -0.0085285725 0.99500006 1.3829698e-38
-0.0028428573 -0.0085285725 0.99500006 1.3737489e-38
-0.13401714 -0.0066533335 0.99800003 1.4566531e-38
-0.13211618 -0.0066533335 0.99800003 1.3738591e-38
-0.13021523 -0.0066533335 0.99800003 9.4053962e-39
-0.1283143 -0.0066533335 0.99800003 9.1287995e-39
-0.12641335 -0.0066533335 0.99800003 8.760017e-39
-0.10292381 -0.0067333328 1.01 1.3828613e-38
-0.10070001 -0.006713334 1.0070001 1.4197396e-38
-0.09848763 -0.0066933334 1.0040001 1.4382153e-38
-0.096286669 -0.0066733337 1.001 1.2077262e-38
-0.093814291 -0.0066333339 0.99500006 9.9585602e-39
-0.09164191 -0.0066133337 0.99200004 8.2068432e-39
-0.089480951 -0.0065933336 0.98900002 8.2082823e-39
-0.087420009 -0.0065800003 0.98700005 8.8536517e-39
-0.085280001 -0.0065600001 0.98400003 8.6692605e-39
-0.083405718 -0.0065600001 0.98400003 9.4068255e-39
-0.081282862 -0.0065400004 0.98100007 9.4071912e-39
-0.078928567 -0.0065000001 0.97500002 9.8681694e-39
-0.077071428 -0.0065000001 0.97500002 9.5933804e-39
-0.075214282 -0.0065000001 0.97500002 9.9621629e-39
-0.073357143 -0.0065000001 0.97500002 9.9621629e-39
-0.071353339 -0.0064866669 0.97300005 1.0146554e-38
-0.069500007 -0.0064866669 0.97300005 1.0697217e-38
-0.067646675 -0.0064866669 0.97300005 8.9454998e-39
-0.065793335 -0.0064866669 0.97300005 8.2990388e-39
-0.063742854 -0.0064666667 0.97000003 8.4834301e-39
-0.061895244 -0.0064666667 0.97000003 8.3919701e-39
-0.060047623 -0.0064666667 0.97000003 8.4841658e-39
-0.058020003 -0.006446667 0.96700007 8.1175412e-39
-0.056178097 -0.006446667 0.96700007 8.2097369e-39
-0.054336194 -0.006446667 0.96700007 9.1316932e-39
-0.052494287 -0.006446667 0.96700007 6.4580199e-39
-0.050652385 -0.006446667 0.96700007 5.9016147e-39
-0.048810478 -0.006446667 0.96700007 7.837723e-39
-0.046968576 -0.006446667 0.96700007 7.1033921e-39
-0.045126669 -0.006446667 0.96700007 9.2238916e-39
-0.043284763 -0.006446667 0.96700007 8.6721471e-39
-0.04144286 -0.006446667 0.96700007 9.5019078e-39
-0.039600953 -0.006446667 0.96700007 1.1342934e-38
-0.037759051 -0.006446667 0.96700007 1.1158542e-38
-0.036028571 -0.0064666667 0.97000003 1.0607179e-38
-0.03418095 -0.0064666667 0.97000003 1.0607179e-38
-0.032433335 -0.0064866669 0.97300005 1.0606473e-38
-0.030580001 -0.0064866669 0.97300005 1.0422082e-38
-0.028726669 -0.0064866669 0.97300005 1.0422082e-38
-0.026928572 -0.0065000001 0.97500002 1.0422082e-38
-0.025148572 -0.0065200003 0.97800004 1.023876e-38
-0.023357144 -0.0065400004 0.98100007 1.0146564e-38
-0.021488573 -0.0065400004 0.98100007 9.9628888e-39
-0.019680001 -0.0065600001 0.98400003 9.9628888e-39
-0.017805716 -0.0065600001 0.98400003 9.5015575e-39
-0.015980002 -0.0065800003 0.98700005 9.4093619e-39
-0.014128571 -0.0065933336 0.98900002 9.6837781e-39
-0.012281906 -0.0066133337 0.99200004 8.6696262e-39
-0.010392382 -0.0066133337 0.99200004 8.1164398e-39
-0.0085285725 -0.0066333339 0.99500006 1.10667e-38
-0.0066333339 -0.0066333339 0.99500006 1.2355647e-38
-0.0047523812 -0.0066533335 0.99800003 1.3646385e-38
-0.0028514285 -0.0066533335 0.99800003 1.3737842e-38
-0.13401714 -0.0047523812 0.99800003 1.4381787e-38
-0.13211618 -0.0047523812 0.99800003 1.4014818e-38
-0.13021523 -0.0047523812 0.99800003 1.1248949e-38
-0.1283143 -0.0047523812 0.99800003 8.8551063e-39
-0.10292381 -0.0048095239 1.01 1.3828253e-38
-0.10070001 -0.0047952384 1.0070001 1.410484e-38
-0.098781914 -0.0047952384 1.0070001 1.401337e-38
-0.096286669 -0.0047666668 1.001 1.2353849e-38
-0.094097145 -0.0047523812 0.99800003 9.7749074e-39
-0.09164191 -0.0047238097 0.99200004 7.5622123e-39
-0.089752384 -0.0047238097 0.99200004 8.1142944e-39
-0.087597147 -0.0047095241 0.98900002 8.9440551e-39
-0.085540004 -0.0047000004 0.98700005 8.761103e-39
-0.083405718 -0.0046857144 0.98400003 9.4064724e-39
-0.081282862 -0.0046714288 0.98100007 9.3153487e-39
-0.079171434 -0.0046571433 0.97800004 9.5919356e-39
-0.077071428 -0.0046428572 0.97500002 9.4086332e-39
-0.075214282 -0.0046428572 0.97500002 9.7774157e-39
-0.073357143 -0.0046428572 0.97500002 9.8696113e-39
-0.071500003 -0.0046428572 0.97500002 1.0146198e-38
-0.069642857 -0.0046428572 0.97500002 1.0513188e-38
-0.067646675 -0.0046333335 0.97300005 7.7473196e-39
-0.065793335 -0.0046333335 0.97300005 8.2075817e-39
-0.063742854 -0.004619048 0.97000003 1.014369e-38
-0.061895244 -0.004619048 0.97000003 1.0050721e-38
-0.060047623 -0.004619048 0.97000003 8.2990038e-39
-0.058020003 -0.0046047624 0.96700007 7.5629283e-39
-0.056178097 -0.0046047624 0.96700007 4.4282769e-39
-0.054336194 -0.0046047624 0.96700007 3.5110416e-39
-0.052494287 -0.0046047624 0.96700007 3.3266503e-39
-0.050652385 -0.0046047624 0.96700007 6.180354e-39
-0.048810478 -0.0046047624 0.96700007 8.3008535e-39
-0.046968576 -0.0046047624 0.96700007 8.5756607e-39
-0.045126669 -0.0046047624 0.96700007 1.0419573e-38
-0.043284763 -0.0046047624 0.96700007 8.3955603e-39
-0.04144286 -0.0046047624 0.96700007 7.0126258e-39
-0.039600953 -0.0046047624 0.96700007 9.410794e-39
-0.037759051 -0.0046047624 0.96700007 1.0517142e-38
-0.036028571 -0.004619048 0.97000003 1.0699012e-38
-0.03418095 -0.004619048 0.97000003 1.0606816e-38
-0.032433335 -0.0046333335 0.97300005 1.0514277e-38
-0.030580001 -0.0046333335 0.97300005 1.0422082e-38
-0.028785715 -0.0046428572 0.97500002 1.0146214e-38
-0.026928572 -0.0046428572 0.97500002 1.0238409e-38
-0.025148572 -0.0046571433 0.97800004 1.023876e-38
-0.023357144 -0.0046714288 0.98100007 1.0054368e-38
-0.021488573 -0.0046714288 0.98100007 1.0054366e-38
-0.019680001 -0.0046857144 0.98400003 1.0146561e-38
-0.017805716 -0.0046857144 0.98400003 9.6848697e-39
-0.015980002 -0.0047000004 0.98700005 9.5004785e-39
-0.014128571 -0.0047095241 0.98900002 9.6837781e-39
-0.012281906 -0.0047238097 0.99200004 8.6696262e-39
-0.010392382 -0.0047238097 0.99200004 8.3933924e-39
-0.0085285725 -0.0047380957 0.99500006 1.1251457e-38
-0.0066333339 -0.0047380957 0.99500006 1.2815193e-38
-0.0047523812 -0.0047523812 0.99800003 1.3737149e-38
-0.0028514285 -0.0047523812 0.99800003 1.3828956e-38
-0.1287 -0.0028600001 1.001 1.0330229e-38
-0.12679334 -0.0028600001 1.001 8.7629036e-39
-0.10070001 -0.0028771432 1.0070001 1.4012997e-38
-0.098781914 -0.0028771432 1.0070001 1.3737139e-38
-0.096286669 -0.0028600001 1.001 1.309177e-38
-0.094097145 -0.0028514285 0.99800003 1.0605018e-38
-0.09164191 -0.0028342858 0.99200004 7.6547582e-39
-0.089752384 -0.0028342858 0.99200004 8.2993919e-39
-0.087597147 -0.0028257142 0.98900002 8.9447614e-39
-0.085540004 -0.0028200001 0.98700005 8.5774306e-39
-0.083405718 -0.0028114286 0.98400003 9.3149956e-39
-0.081282862 -0.0028028574 0.98100007 9.4075444e-39
-0.079171434 -0.0027942858 0.97800004 9.5919356e-39
-0.077308573 -0.0027942858 0.97800004 9.4089891e-39
-0.075445719 -0.0027942858 0.97800004 9.8699673e-39
-0.073357143 -0.0027857143 0.97500002 9.7781346e-39
-0.071500003 -0.0027857143 0.97500002 9.8703302e-39
-0.069642857 -0.0027857143 0.97500002 1.0329873e-38
-0.067785718 -0.0027857143 0.97500002 8.946939e-39
-0.065928571 -0.0027857143 0.97500002 8.5749251e-39
-0.063940004 -0.0027800002 0.97300005 9.9578595e-39
-0.062086668 -0.0027800002 0.97300005 1.0510289e-38
-0.060047623 -0.0027714286 0.97000003 9.1273547e-39
-0.058200002 -0.0027714286 0.97000003 8.4809288e-39
-0.056178097 -0.0027628574 0.96700007 3.3179735e-39
-0.054336194 -0.0027628574 0.96700007 2.4904325e-39
-0.052494287 -0.0027628574 0.96700007 5.6250839e-39
-0.050652385 -0.0027628574 0.96700007 7.1934297e-39
-0.048810478 -0.0027628574 0.96700007 8.5763642e-39
-0.046968576 -0.0027628574 0.96700007 8.2997745e-39
-0.045126669 -0.0027628574 0.96700007 1.0328078e-38
-0.043284763 -0.0027628574 0.96700007 8.397005e-39
-0.04144286 -0.0027628574 0.96700007 6.9218749e-39
-0.039600953 -0.0027628574 0.96700007 9.0409297e-39
-0.037759051 -0.0027628574 0.96700007 1.0700451e-38
-0.036028571 -0.0027714286 0.97000003 1.0607176e-38
-0.03418095 -0.0027714286 0.97000003 1.0514981e-38
-0.032433335 -0.0027800002 0.97300005 1.0422084e-38
-0.030580001 -0.0027800002 0.97300005 1.0422084e-38
-0.028785715 -0.0027857143 0.97500002 1.0238409e-38
-0.026928572 -0.0027857143 0.97500002 1.0238409e-38
-0.025225716 -0.0028028574 0.98100007 1.023876e-38
-0.023357144 -0.0028028574 0.98100007 1.023876e-38
-0.021488573 -0.0028028574 0.98100007 9.9621755e-39
-0.019680001 -0.0028114286 0.98400003 9.9621755e-39
-0.017860001 -0.0028200001 0.98700005 9.5015575e-39
-0.01601238 -0.0028257142 0.98900002 9.3171662e-39
-0.014171429 -0.0028342858 0.99200004 9.5915797e-39
-0.012319048 -0.0028428573 0.99500006 8.5774278e-39
-0.01042381 -0.0028428573 0.99500006 8.3930267e-39
-0.0085285725 -0.0028428573 0.99500006 1.1435482e-38
-0.0066533335 -0.0028514285 0.99800003 1.2999218e-38
-0.0047523812 -0.0028514285 0.99800003 1.3736783e-38
-0.0028514285 -0.0028514285 0.99800003 1.3644565e-38
-0.1287 -0.00095333339 1.001 1.1896483e-38
-0.12679334 -0.00095333339 1.001 9.1306142e-39
-0.098781914 -0.0009590477 1.0070001 1.3737136e-38
-0.096286669 -0.00095333339 1.001 1.3368354e-38
-0.094097145 -0.00095047621 0.99800003 1.143369e-38
-0.09164191 -0.00094476191 0.99200004 7.745865e-39
-0.089752384 -0.00094476191 0.99200004 8.0228051e-39
-0.087597147 -0.00094190479 0.98900002 8.7603701e-39
-0.085540004 -0.00094000006 0.98700005 8.6692633e-39
-0.083659999 -0.00094000006 0.98700005 9.4068283e-39
-0.081531428 -0.00093714288 0.98400003 9.3153487e-39
-0.079171434 -0.00093142863 0.97800004 9.4075444e-39
-0.077308573 -0.00093142863 0.97800004 9.3164376e-39
-0.075445719 -0.00093142863 0.97800004 9.8696113e-39
-0.073582858 -0.00093142863 0.97800004 9.8699673e-39
-0.071500003 -0.00092857145 0.97500002 9.8699673e-39
-0.069642857 -0.00092857145 0.97500002 1.0238031e-38
-0.067785718 -0.00092857145 0.97500002 1.0330227e-38
-0.065928571 -0.00092857145 0.97500002 9.3142796e-39
-0.063940004 -0.00092666672 0.97300005 7.1937801e-39
-0.062086668 -0.00092666672 0.97300005 7.9288242e-39
-0.060233336 -0.00092666672 0.97300005 8.7585848e-39
-0.058200002 -0.00092380954 0.97000003 7.3767294e-39
-0.056352381 -0.00092380954 0.97000003 4.6205715e-40
-0.054504763 -0.00092380954 0.97000003 3.7000866e-40
-0.052657142 -0.00092380954 0.97000003 6.3627246e-39
-0.050809525 -0.00092380954 0.97000003 7.7459001e-39
-0.048961904 -0.00092380954 0.97000003 9.1288345e-39
-0.047114287 -0.00092380954 0.97000003 9.3135439e-39
-0.045266669 -0.00092380954 0.97000003 1.088087e-38
-0.043419048 -0.00092380954 0.97000003 8.5778187e-39
-0.041571431 -0.00092380954 0.97000003 7.5636668e-39
-0.039723814 -0.00092380954 0.97000003 9.5937531e-39
-0.037876189 -0.00092380954 0.97000003 1.1068883e-38
-0.036140002 -0.00092666672 0.97300005 1.0699012e-38
-0.03428667 -0.00092666672 0.97300005 1.0514621e-38
-0.032499999 -0.00092857145 0.97500002 1.0606476e-38
-0.030642856 -0.00092857145 0.97500002 1.0422084e-38
-0.028785715 -0.00092857145 0.97500002 1.0422082e-38
-0.026928572 -0.00092857145 0.97500002 1.0422082e-38
-0.025225716 -0.00093428575 0.98100007 1.0238409e-38
-0.023357144 -0.00093428575 0.98100007 1.0238409e-38
-0.021488573 -0.00093428575 0.98100007 9.8692708e-39
-0.019680001 -0.00093714288 0.98400003 9.6848796e-39
-0.017860001 -0.00094000006 0.98700005 9.6848669e-39
-0.01601238 -0.00094190479 0.98900002 9.5004757e-39
-0.014171429 -0.00094476191 0.99200004 9.2242419e-39
-0.012319048 -0.00094761909 0.99500006 8.3944813e-39
-0.01042381 -0.00094761909 0.99500006 8.3930239e-39
-0.0085542863 -0.00095047621 0.99800003 1.1619871e-38
-0.0066533335 -0.00095047621 0.99800003 1.3276511e-38
-0.0047666668 -0.00095333339 1.001 1.3184316e-38
-0.0028600001 -0.00095333339 1.001 1.3460174e-38
-0.099076189 0.00096190476 1.01 1.3645294e-38
-0.096286669 0.00095333339 1.001 1.3737489e-38
-0.094380006 0.00095333339 1.001 1.1617375e-38
-0.09191905 0.00094761909 0.99500006 8.1139413e-39
-0.089752384 0.00094476191 0.99200004 7.9306094e-39
-0.087597147 0.00094190479 0.98900002 8.7603701e-39
-0.085713334 0.00094190479 0.98900002 8.6692633e-39
-0.083659999 0.00094000006 0.98700005 9.3146327e-39
-0.081531428 0.00093714288 0.98400003 9.4075444e-39
-0.079414286 0.00093428575 0.98100007 9.5919356e-39
-0.077308573 0.00093142863 0.97800004 9.3164376e-39
-0.075445719 0.00093142863 0.97800004 9.7774157e-39
-0.073582858 0.00093142863 0.97800004 9.7777716e-39
-0.071719997 0.00093142863 0.97800004 1.0146554e-38
-0.069642857 0.00092857145 0.97500002 1.0145838e-38
-0.067785718 0.00092857145 0.97500002 9.7770556e-39
-0.065928571 0.00092857145 0.97500002 8.9487396e-39
-0.064071432 0.00092857145 0.97500002 7.104827e-39
-0.062086668 0.00092666672 0.97300005 6.4551388e-39
-0.060233336 0.00092666672 0.97300005 6.916117e-39
-0.058380004 0.00092666672 0.97300005 4.4293685e-39
-0.056352381 0.00092380954 0.97000003 9.6173916e-41
-0.054504763 0.00092380954 0.97000003 5.5362079e-40
-0.052657142 0.00092380954 0.97000003 6.4541411e-39
-0.050809525 0.00092380954 0.97000003 7.4700138e-39
-0.048961904 0.00092380954 0.97000003 8.9451439e-39
-0.047114287 0.00092380954 0.97000003 9.4982827e-39
-0.045266669 0.00092380954 0.97000003 9.406087e-39
-0.043419048 0.00092380954 0.97000003 8.576374e-39
-0.041571431 0.00092380954 0.97000003 9.1295478e-39
-0.039723814 0.00092380954 0.97000003 1.0881605e-38
-0.037876189 0.00092380954 0.97000003 1.1526975e-38
-0.036140002 0.00092666672 0.97300005 1.0331668e-38
-0.03428667 0.00092666672 0.97300005 1.0239473e-38
-0.032499999 0.00092857145 0.97500002 1.0330965e-38
-0.030642856 0.00092857145 0.97500002 1.0330965e-38
-0.028785715 0.00092857145 0.97500002 1.0514267e-38
-0.02701143 0.00093142863 0.97800004 1.0606463e-38
