# .PCD v0.7 - Point Cloud Data file format
VERSION 0.7
FIELDS x y z rgb
SIZE 4 4 4 4
TYPE F F F F
COUNT 1 1 1 1
WIDTH 976
HEIGHT 1
VIEWPOINT 0 0 0 1 0 0 0
POINTS 976
DATA ascii
-0.1519981 0.054230478 0.80200005 8.8500742e-39
-0.15047048 0.054230478 0.80200005 8.8500742e-39
-0.14912857 0.054298095 0.80300003 8.6671207e-39
-0.14759906 0.054298095 0.80300003 8.6671207e-39
-0.14643335 0.054433338 0.80500007 8.6671207e-39
-0.14526001 0.054568574 0.80700004 8.7593163e-39
-0.14372286 0.054568574 0.80700004 8.6671179e-39
-0.1425381 0.054703813 0.80900002 8.7593135e-39
-0.14099714 0.054703813 0.80900002 8.7593135e-39
-0.13945618 0.054703813 0.80900002 8.7593135e-39
-0.13791524 0.054703813 0.80900002 8.8515091e-39
-0.13637429 0.054703813 0.80900002 8.8515091e-39
-0.13516667 0.054839052 0.81100005 8.8515091e-39
-0.13362192 0.054839052 0.81100005 8.8515091e-39
-0.13207716 0.054839052 0.81100005 8.9426258e-39
-0.13053238 0.054839052 0.81100005 9.0348214e-39
-0.12898763 0.054839052 0.81100005 9.0348214e-39
-0.12744285 0.054839052 0.81100005 9.0348214e-39
-0.12558763 0.054703813 0.80900002 8.9426258e-39
-0.12404668 0.054703813 0.80900002 8.9426258e-39
-0.12280858 0.054839052 0.81100005 8.8500742e-39
-0.12096476 0.054703813 0.80900002 8.8500742e-39
-0.11942381 0.054703813 0.80900002 8.6653326e-39
-0.11788286 0.054703813 0.80900002 8.573137e-39
-0.1163419 0.054703813 0.80900002 8.3898247e-39
-0.11480095 0.054703813 0.80900002 8.2054335e-39
-0.11326 0.054703813 0.80900002 8.0210226e-39
-0.11144286 0.054568574 0.80700004 7.8366313e-39
-0.10990572 0.054568574 0.80700004 8.0210422e-39
-0.10810001 0.054433338 0.80500007 9.1273898e-39
-0.10656668 0.054433338 0.80500007 1.0512415e-38
-0.10503335 0.054433338 0.80500007 1.1618763e-38
-0.094885714 0.04990286 0.73800004 1.2079075e-38
-0.093480006 0.04990286 0.73800004 1.2263466e-38
-0.09219905 0.049970478 0.73900002 1.189576e-38
-0.090791427 0.049970478 0.73900002 1.1803564e-38
-0.089625724 0.050105717 0.74100006 1.1343665e-38
-0.088333338 0.050173335 0.74200004 1.0882687e-38
-0.087154284 0.050308574 0.74400002 1.0606473e-38
-0.086082861 0.050511431 0.74700004 1.0514277e-38
-0.08488667 0.050646666 0.74900001 1.0514621e-38
-0.083571434 0.050714288 0.75000006 1.0238034e-38
-0.082361907 0.050849527 0.75200003 9.9614566e-39
-0.081252381 0.051052384 0.75500005 9.131696e-39
-0.08023715 0.051322859 0.75900006 1.0508504e-38
-0.07879144 0.051322859 0.75900006 1.5210481e-38
-0.077549525 0.051458098 0.76100004 1.6684175e-38
-0.076100007 0.051458098 0.76100004 1.6131001e-38
-0.076514289 0.052742857 0.78000003 1.410631e-38
-0.075028576 0.052742857 0.78000003 1.3553136e-38
-0.073637143 0.052810475 0.78100002 1.217094e-38
-0.07214953 0.052810475 0.78100002 1.2078744e-38
-0.07057143 0.052742857 0.78000003 1.1710312e-38
-0.069085717 0.052742857 0.78000003 1.0972747e-38
-0.067686662 0.052810475 0.78100002 1.0145861e-38
-0.066114292 0.052742857 0.78000003 9.8692736e-39
-0.064628571 0.052742857 0.78000003 9.9618098e-39
-0.062980957 0.052607622 0.77800006 9.9618098e-39
-0.061499052 0.052607622 0.77800006 1.087981e-38
-0.060017146 0.052607622 0.77800006 1.1432984e-38
-0.058685716 0.052742857 0.78000003 1.1617025e-38
-0.0572 0.052742857 0.78000003 1.1432634e-38
-0.055714291 0.052742857 0.78000003 1.1618097e-38
-0.054228574 0.052742857 0.78000003 1.281664e-38
-0.052742857 0.052742857 0.78000003 1.4014076e-38
-0.1672543 0.051517144 0.74100006 7.7476727e-39
-0.17412382 0.054089524 0.77800006 9.6815851e-39
-0.17264192 0.054089524 0.77800006 1.3277215e-38
-0.17116001 0.054089524 0.77800006 1.4933897e-38
-0.16967811 0.054089524 0.77800006 1.1983637e-38
-0.16884476 0.054298095 0.78100002 7.4725768e-39
-0.16778573 0.054437146 0.78300005 6.181838e-39
-0.16671905 0.054576188 0.78500003 6.9132625e-39
-0.16522381 0.054576188 0.78500003 7.7430232e-39
-0.16372858 0.054576188 0.78500003 7.928827e-39
-0.16306001 0.054854289 0.78900003 8.0210226e-39
-0.16176191 0.05492381 0.79000002 8.1132182e-39
-0.16066287 0.05506286 0.79200006 8.2054139e-39
-0.1595562 0.055201907 0.79400003 8.2050607e-39
-0.15884002 0.05548 0.79800004 8.2972564e-39
-0.15771429 0.05561905 0.80000001 8.4812917e-39
-0.15619047 0.05561905 0.80000001 8.5734873e-39
-0.15505335 0.0557581 0.80200005 8.5741964e-39
-0.15352573 0.0557581 0.80200005 8.666392e-39
-0.1519981 0.0557581 0.80200005 8.665683e-39
-0.15047048 0.0557581 0.80200005 8.665683e-39
-0.14912857 0.055827621 0.80300003 8.665683e-39
-0.14796667 0.055966668 0.80500007 8.7578786e-39
-0.14643335 0.055966668 0.80500007 8.5749251e-39
-0.14526001 0.056105718 0.80700004 8.4827294e-39
-0.14407904 0.056244761 0.80900002 8.5749223e-39
-0.1425381 0.056244761 0.80900002 8.6671179e-39
-0.14099714 0.056244761 0.80900002 8.6671207e-39
-0.13945618 0.056244761 0.80900002 8.6671207e-39
-0.13791524 0.056244761 0.80900002 8.6671179e-39
-0.13637429 0.056244761 0.80900002 8.7593135e-39
-0.13516667 0.056383811 0.81100005 8.7593163e-39
-0.13362192 0.056383811 0.81100005 8.7593163e-39
-0.13207716 0.056383811 0.81100005 8.7586073e-39
-0.13053238 0.056383811 0.81100005 8.6664116e-39
-0.12930572 0.056522857 0.81300002 8.8504301e-39
-0.12744285 0.056383811 0.81100005 8.8504301e-39
-0.12589811 0.056383811 0.81100005 8.8504301e-39
-0.12435335 0.056383811 0.81100005 8.7582345e-39
-0.12280858 0.056383811 0.81100005 8.7582345e-39
-0.12096476 0.056244761 0.80900002 8.7582345e-39
-0.11942381 0.056244761 0.80900002 8.5738433e-39
-0.11788286 0.056244761 0.80900002 8.4816476e-39
-0.1163419 0.056244761 0.80900002 7.8377075e-39
-0.11480095 0.056244761 0.80900002 7.9299032e-39
-0.11326 0.056244761 0.80900002 7.9295528e-39
-0.11144286 0.056105718 0.80700004 8.4827266e-39
-0.10990572 0.056105718 0.80700004 8.7611058e-39
-0.10810001 0.055966668 0.80500007 9.1298883e-39
-0.09743239 0.051169526 0.73600006 1.0880163e-38
-0.096030481 0.051169526 0.73600006 1.2447489e-38
-0.094885714 0.051308576 0.73800004 1.2081593e-38
-0.093480006 0.051308576 0.73800004 1.1805006e-38
-0.09219905 0.051378097 0.73900002 1.1528419e-38
-0.090791427 0.051378097 0.73900002 1.1344028e-38
-0.089625724 0.051517144 0.74100006 1.1159637e-38
-0.088333338 0.051586669 0.74200004 1.1067441e-38
-0.087154284 0.051725715 0.74400002 1.0791215e-38
-0.085967623 0.051864766 0.74600005 1.0606823e-38
-0.084660001 0.051934287 0.74700004 1.0606463e-38
-0.083460003 0.052073333 0.74900001 1.0145485e-38
-0.082142867 0.052142859 0.75000006 1.0328794e-38
-0.081252381 0.05249048 0.75500005 9.5912294e-39
-0.08023715 0.052768577 0.75900006 1.0874052e-38
-0.07879144 0.052768577 0.75900006 1.5760421e-38
-0.077549525 0.05290762 0.76100004 1.640939e-38
-0.076100007 0.05290762 0.76100004 1.5303042e-38
-0.076514289 0.054228574 0.78000003 1.1623133e-38
-0.075028576 0.054228574 0.78000003 1.1346546e-38
-0.073542856 0.054228574 0.78000003 1.1067817e-38
-0.072057143 0.054228574 0.78000003 1.1252208e-38
-0.07057143 0.054228574 0.78000003 1.1434801e-38
-0.069085717 0.054228574 0.78000003 1.1434801e-38
-0.067600004 0.054228574 0.78000003 1.1251833e-38
-0.066114292 0.054228574 0.78000003 1.1251833e-38
-0.064628571 0.054228574 0.78000003 1.1343675e-38
-0.063142858 0.054228574 0.78000003 1.1251479e-38
-0.061657146 0.054228574 0.78000003 1.1066728e-38
-0.060171433 0.054228574 0.78000003 1.1066728e-38
-0.058760952 0.054298095 0.78100002 1.1158924e-38
-0.057273332 0.054298095 0.78100002 1.1158924e-38
-0.055714291 0.054228574 0.78000003 1.1065999e-38
-0.054228574 0.054228574 0.78000003 1.1065999e-38
-0.052742857 0.054228574 0.78000003 1.3550199e-38
-0.051257145 0.054228574 0.78000003 1.4933133e-38
-0.17030667 0.052999999 0.74200004 1.2262009e-38
-0.16866572 0.052928574 0.74100006 9.3139418e-39
-0.1672543 0.052928574 0.74100006 6.0870948e-39
-0.16584286 0.052928574 0.74100006 6.6402335e-39
-0.17308572 0.055714291 0.78000003 8.9451243e-39
-0.1716 0.055714291 0.78000003 1.1525845e-38
-0.17011429 0.055714291 0.78000003 1.4015127e-38
-0.16884476 0.055785716 0.78100002 1.2445019e-38
-0.16778573 0.055928573 0.78300005 1.0693302e-38
-0.16671905 0.05607143 0.78500003 9.5880204e-39
-0.16522381 0.05607143 0.78500003 8.6660641e-39
-0.16372858 0.05607143 0.78500003 7.2856254e-39
-0.16306001 0.056357145 0.78900003 7.0090385e-39
-0.16176191 0.05642857 0.79000002 7.1923409e-39
-0.16066287 0.056571431 0.79200006 7.4689278e-39
-0.1595562 0.056714289 0.79400003 7.651887e-39
-0.15844192 0.056857146 0.79600006 7.8362782e-39
-0.15771429 0.057142857 0.80000001 8.1118057e-39
-0.15619047 0.057142857 0.80000001 8.0196101e-39
-0.15505335 0.057285715 0.80200005 7.8362782e-39
-0.15352573 0.057285715 0.80200005 8.1128651e-39
-0.1519981 0.057285715 0.80200005 8.2965501e-39
-0.15047048 0.057285715 0.80200005 8.2965501e-39
-0.14912857 0.057357144 0.80300003 8.2969004e-39
-0.14796667 0.057500005 0.80500007 8.4812917e-39
-0.14679715 0.057642858 0.80700004 8.2976291e-39
-0.14526001 0.057642858 0.80700004 8.2054335e-39
-0.14407904 0.057785716 0.80900002 8.2983354e-39
-0.1425381 0.057785716 0.80900002 8.390531e-39
-0.14099714 0.057785716 0.80900002 8.3898247e-39
-0.13945618 0.057785716 0.80900002 8.3898247e-39
-0.13791524 0.057785716 0.80900002 8.2061397e-39
-0.13637429 0.057785716 0.80900002 8.2983354e-39
-0.13516667 0.057928573 0.81100005 8.3898303e-39
-0.13362192 0.057928573 0.81100005 8.3898303e-39
-0.13240287 0.058071431 0.81300002 8.3898303e-39
-0.13085429 0.058071431 0.81300002 8.2054391e-39
-0.12930572 0.058071431 0.81300002 7.9295528e-39
-0.12775715 0.058071431 0.81300002 7.8373572e-39
-0.12589811 0.057928573 0.81100005 7.8373572e-39
-0.12435335 0.057928573 0.81100005 7.7451616e-39
-0.12280858 0.057928573 0.81100005 8.1125092e-39
-0.12126382 0.057928573 0.81100005 8.2047048e-39
-0.11942381 0.057785716 0.80900002 8.1146826e-39
-0.11788286 0.057785716 0.80900002 8.9444433e-39
-0.1163419 0.057785716 0.80900002 9.6826739e-39
-0.11480095 0.057785716 0.80900002 1.0789021e-38
-0.11326 0.057785716 0.80900002 1.2722984e-38
-0.11144286 0.057642858 0.80700004 1.281518e-38
-0.099827625 0.052357145 0.73300004 1.2447852e-38
-0.098431431 0.052357145 0.73300004 1.2540048e-38
-0.097167619 0.052428573 0.73400003 1.1896136e-38
-0.096030481 0.052571431 0.73600006 1.180394e-38
-0.094885714 0.052714288 0.73800004 1.1619896e-38
-0.093480006 0.052714288 0.73800004 1.1527701e-38
-0.09219905 0.052785717 0.73900002 1.1436221e-38
-0.091037147 0.052928574 0.74100006 1.125183e-38
-0.089625724 0.052928574 0.74100006 1.1159284e-38
-0.088333338 0.052999999 0.74200004 1.1067088e-38
-0.087154284 0.053142861 0.74400002 1.1067438e-38
-0.085967623 0.053285718 0.74600005 1.0698656e-38
-0.084660001 0.053357143 0.74700004 1.0238409e-38
-0.083460003 0.0535 0.74900001 9.8696267e-39
-0.082142867 0.053571433 0.75000006 1.0051854e-38
-0.081467621 0.05407143 0.75700003 9.8674631e-39
-0.08023715 0.054214288 0.75900006 1.0232298e-38
-0.07879144 0.054214288 0.75900006 1.1430841e-38
-0.077549525 0.054357145 0.76100004 1.1984713e-38
-0.076100007 0.054357145 0.76100004 1.1984713e-38
-0.0763181 0.055571433 0.77800006 1.1436224e-38
-0.074836195 0.055571433 0.77800006 1.1897202e-38
-0.073354289 0.055571433 0.77800006 1.1897577e-38
-0.071872383 0.055571433 0.77800006 1.2358556e-38
-0.07057143 0.055714291 0.78000003 1.300391e-38
-0.069085717 0.055714291 0.78000003 1.3188301e-38
-0.067600004 0.055714291 0.78000003 1.3189373e-38
-0.066114292 0.055714291 0.78000003 1.3650351e-38
-0.064628571 0.055714291 0.78000003 1.3741127e-38
-0.063142858 0.055714291 0.78000003 1.3833323e-38
-0.061657146 0.055714291 0.78000003 1.3464537e-38
-0.060171433 0.055714291 0.78000003 1.3187951e-38
-0.058685716 0.055714291 0.78000003 1.2727316e-38
-0.0572 0.055714291 0.78000003 1.1805359e-38
-0.055714291 0.055714291 0.78000003 1.1619193e-38
-0.054298095 0.055785716 0.78100002 9.9596714e-39
-0.052810475 0.055785716 0.78100002 1.0511734e-38
-0.051125716 0.055571433 0.77800006 1.290882e-38
-0.17218286 0.054560002 0.74400002 1.3737502e-38
-0.17030667 0.054413334 0.74200004 1.2907741e-38
-0.16866572 0.054340001 0.74100006 1.0144403e-38
-0.1672543 0.054340001 0.74100006 6.8253605e-39
-0.16584286 0.054340001 0.74100006 7.194101e-39
-0.16398762 0.054193333 0.73900002 8.1160573e-39
-0.16236001 0.054120004 0.73800004 8.8532664e-39
-0.1609543 0.054120004 0.73800004 1.1250353e-38
-0.16884476 0.057273332 0.78100002 1.2997445e-38
-0.16735715 0.057273332 0.78100002 1.1891098e-38
-0.16629429 0.057420004 0.78300005 1.1430829e-38
-0.16480286 0.057420004 0.78300005 1.0693264e-38
-0.16372858 0.057566669 0.78500003 9.3149984e-39
-0.16306001 0.057860002 0.78900003 7.5632815e-39
-0.16176191 0.057933334 0.79000002 7.7433637e-39
-0.16066287 0.058080003 0.79200006 7.7433637e-39
-0.1595562 0.058226667 0.79400003 7.1919906e-39
-0.15844192 0.058373336 0.79600006 7.1919906e-39
-0.15771429 0.058666669 0.80000001 7.651887e-39
-0.15619047 0.058666669 0.80000001 7.7440826e-39
-0.15505335 0.058813337 0.80200005 7.5611206e-39
-0.15352573 0.058813337 0.80200005 7.7455119e-39
-0.1519981 0.058813337 0.80200005 8.0203135e-39
-0.1506581 0.058886666 0.80300003 8.2047048e-39
-0.14912857 0.058886666 0.80300003 8.2043419e-39
-0.14796667 0.059033338 0.80500007 8.4809288e-39
-0.14679715 0.059180003 0.80700004 8.1139469e-39
-0.14526001 0.059180003 0.80700004 8.0217513e-39
-0.14407904 0.059326664 0.80900002 8.2064929e-39
-0.1425381 0.059326664 0.80900002 8.2986885e-39
-0.14099714 0.059326664 0.80900002 8.2972564e-39
-0.13945618 0.059326664 0.80900002 8.2972564e-39
-0.13791524 0.059326664 0.80900002 8.0220988e-39
-0.13671143 0.059473336 0.81100005 8.0220988e-39
-0.13516667 0.059473336 0.81100005 8.0217485e-39
-0.13395143 0.05962 0.81300002 7.9295528e-39
-0.13240287 0.05962 0.81300002 7.7451644e-39
-0.13085429 0.05962 0.81300002 7.7451644e-39
-0.12930572 0.05962 0.81300002 7.5611235e-39
-0.12775715 0.05962 0.81300002 7.7455147e-39
-0.12589811 0.059473336 0.81100005 7.7451616e-39
-0.12435335 0.059473336 0.81100005 8.2061397e-39
-0.12280858 0.059473336 0.81100005 8.667471e-39
-0.12126382 0.059473336 0.81100005 9.1284492e-39
-0.11942381 0.059326664 0.80900002 9.1306072e-39
-0.11788286 0.059326664 0.80900002 9.2228028e-39
-0.1163419 0.059326664 0.80900002 9.9599993e-39
-0.11480095 0.059326664 0.80900002 1.1711716e-38
-0.10234 0.053606667 0.73100001 1.2815918e-38
-0.10094762 0.053606667 0.73100001 1.2631527e-38
-0.099555232 0.053606667 0.73100001 1.208159e-38
-0.098431431 0.053753335 0.73300004 1.1989395e-38
-0.097167619 0.053826667 0.73400003 1.1529145e-38
-0.096030481 0.053973336 0.73600006 1.1344754e-38
-0.09462858 0.053973336 0.73600006 1.1528419e-38
-0.093480006 0.054120004 0.73800004 1.1528419e-38
-0.09219905 0.054193333 0.73900002 1.1436224e-38
-0.091037147 0.054340001 0.74100006 1.1436224e-38
-0.089625724 0.054340001 0.74100006 1.1068167e-38
-0.088333338 0.054413334 0.74200004 1.0975972e-38
-0.087388575 0.05470667 0.74600005 1.079158e-38
-0.085967623 0.05470667 0.74600005 1.0607189e-38
-0.084660001 0.054780003 0.74700004 1.0237681e-38
-0.083460003 0.054926667 0.74900001 1.0053289e-38
-0.082142867 0.055000003 0.75000006 1.0144403e-38
-0.081467621 0.055513334 0.75700003 1.0052208e-38
-0.08023715 0.055660002 0.75900006 9.4082829e-39
-0.07899905 0.05580667 0.76100004 1.0053652e-38
-0.077651434 0.055880003 0.76200002 1.0421722e-38
-0.077600002 0.05690667 0.77600002 1.1435873e-38
-0.076121904 0.05690667 0.77600002 1.1988691e-38
-0.074836195 0.057053339 0.77800006 1.2541865e-38
-0.073354289 0.057053339 0.77800006 1.2450754e-38
-0.071872383 0.057053339 0.77800006 1.2819537e-38
-0.070390478 0.057053339 0.77800006 1.2912448e-38
-0.068908572 0.057053339 0.77800006 1.2912448e-38
-0.067426667 0.057053339 0.77800006 1.2822042e-38
-0.065944768 0.057053339 0.77800006 1.2914238e-38
-0.064462863 0.057053339 0.77800006 1.2913885e-38
-0.062980957 0.057053339 0.77800006 1.2821689e-38
-0.061499052 0.057053339 0.77800006 1.2821676e-38
-0.060017146 0.057053339 0.77800006 1.2637285e-38
-0.058685716 0.0572 0.78000003 1.2361067e-38
-0.0572 0.0572 0.78000003 1.1531306e-38
-0.055571433 0.057053339 0.77800006 1.2080527e-38
-0.054089524 0.057053339 0.77800006 1.1066375e-38
-0.052607622 0.057053339 0.77800006 1.0419185e-38
-0.051125716 0.057053339 0.77800006 1.0972359e-38
-0.17218286 0.055977143 0.74400002 1.3737502e-38
-0.17076571 0.055977143 0.74400002 1.3092133e-38
-0.16866572 0.055751432 0.74100006 1.1617356e-38
-0.1672543 0.055751432 0.74100006 7.3763566e-39
-0.16584286 0.055751432 0.74100006 7.1937801e-39
-0.16398762 0.055600952 0.73900002 8.3923233e-39
-0.16236001 0.055525716 0.73800004 8.7614589e-39
-0.16051809 0.055375241 0.73600006 9.4068283e-39
-0.15911621 0.055375241 0.73600006 1.0049324e-38
-0.16735715 0.058760952 0.78100002 1.1063476e-38
-0.16629429 0.058911432 0.78300005 1.1063829e-38
-0.16480286 0.058911432 0.78300005 1.124822e-38
-0.16372858 0.059061907 0.78500003 1.1341504e-38
-0.16306001 0.059362859 0.78900003 1.1802483e-38
-0.16176191 0.059438094 0.79000002 1.1248596e-38
-0.16106857 0.05973905 0.79400003 1.0879813e-38
-0.15995811 0.059889529 0.79600006 1.0419188e-38
-0.15884002 0.060040005 0.79800004 9.3128404e-39
-0.15771429 0.060190476 0.80000001 9.1298855e-39
-0.15619047 0.060190476 0.80000001 9.2220811e-39
-0.15505335 0.060340952 0.80200005 9.2209951e-39
-0.15352573 0.060340952 0.80200005 9.1287995e-39
-0.1519981 0.060340952 0.80200005 8.4841686e-39
-0.1506581 0.060416196 0.80300003 8.2997773e-39
-0.14912857 0.060416196 0.80300003 8.7582345e-39
-0.14796667 0.060566671 0.80500007 8.8504301e-39
-0.14679715 0.060717143 0.80700004 8.5749223e-39
-0.14562 0.060867622 0.80900002 8.4827266e-39
-0.14407904 0.060867622 0.80900002 8.4830797e-39
-0.1425381 0.060867622 0.80900002 8.667471e-39
-0.14099714 0.060867622 0.80900002 8.9429789e-39
-0.13945618 0.060867622 0.80900002 9.5883483e-39
-0.13825619 0.061018094 0.81100005 9.5890518e-39
-0.13671143 0.061018094 0.81100005 9.8656386e-39
-0.13516667 0.061018094 0.81100005 9.7738158e-39
-0.13362192 0.061018094 0.81100005 9.7738158e-39
-0.13240287 0.061168574 0.81300002 1.0327696e-38
-0.13085429 0.061168574 0.81300002 1.0512087e-38
-0.12930572 0.061168574 0.81300002 1.1618782e-38
-0.12775715 0.061168574 0.81300002 1.1895369e-38
-0.12620857 0.061168574 0.81300002 1.1986877e-38
-0.12435335 0.061018094 0.81100005 1.2079072e-38
-0.12280858 0.061018094 0.81100005 1.2540048e-38
-0.12126382 0.061018094 0.81100005 1.3185417e-38
-0.11942381 0.060867622 0.80900002 1.2633319e-38
-0.11788286 0.060867622 0.80900002 1.2448928e-38
-0.10498095 0.05492381 0.73000002 1.2448931e-38
-0.10359048 0.05492381 0.73000002 1.2448931e-38
-0.10234 0.054999046 0.73100001 1.2172341e-38
-0.10094762 0.054999046 0.73100001 1.2080146e-38
-0.099555232 0.054999046 0.73100001 1.1712811e-38
-0.098431431 0.055149525 0.73300004 1.1712811e-38
-0.097167619 0.055224765 0.73400003 1.1620262e-38
-0.095769532 0.055224765 0.73400003 1.1620262e-38
-0.09462858 0.055375241 0.73600006 1.1620615e-38
-0.093480006 0.055525716 0.73800004 1.1528419e-38
-0.092074282 0.055525716 0.73800004 1.1345104e-38
-0.090791427 0.055600952 0.73900002 1.1160713e-38
-0.089625724 0.055751432 0.74100006 1.1344028e-38
-0.088333338 0.055826671 0.74200004 1.1067441e-38
-0.087388575 0.056127623 0.74600005 1.079158e-38
-0.085967623 0.056127623 0.74600005 1.0607189e-38
-0.084660001 0.056202862 0.74700004 1.0514267e-38
-0.083460003 0.056353334 0.74900001 1.0145485e-38
-0.082142867 0.056428574 0.75000006 1.0328434e-38
-0.081252381 0.056804765 0.75500005 1.0328434e-38
-0.079814292 0.056804765 0.75500005 9.6848669e-39
-0.080244765 0.058159053 0.77300006 1.0975606e-38
-0.078772388 0.058159053 0.77300006 1.1805382e-38
-0.077400006 0.058234289 0.77400005 1.3003925e-38
-0.076121904 0.058384761 0.77600002 1.3741124e-38
-0.074643806 0.058384761 0.77600002 1.4386494e-38
-0.073165715 0.058384761 0.77600002 1.4387213e-38
-0.071687624 0.058384761 0.77600002 1.4295017e-38
-0.070209526 0.058384761 0.77600002 1.3096486e-38
-0.068731427 0.058384761 0.77600002 1.2635508e-38
-0.067426667 0.058535244 0.77800006 1.2267079e-38
-0.065944768 0.058535244 0.77800006 1.2267079e-38
-0.064462863 0.058535244 0.77800006 1.2358906e-38
-0.062980957 0.058535244 0.77800006 1.2174515e-38
-0.061499052 0.058535244 0.77800006 1.2267764e-38
-0.060017146 0.058535244 0.77800006 1.235996e-38
-0.058535244 0.058535244 0.77800006 1.2267782e-38
-0.057053339 0.058535244 0.77800006 1.2083391e-38
-0.055571433 0.058535244 0.77800006 1.2173083e-38
-0.053950477 0.058384761 0.77600002 1.2357474e-38
-0.052337144 0.058234289 0.77400005 1.1527719e-38
-0.05086286 0.058234289 0.77400005 9.3150236e-39
-0.049388573 0.058234289 0.77400005 1.0788333e-38
-0.16866572 0.057162859 0.74100006 1.1801766e-38
-0.1672543 0.057162859 0.74100006 7.2841806e-39
-0.16539524 0.057008572 0.73900002 7.28524e-39
-0.16398762 0.057008572 0.73900002 8.6681745e-39
-0.16236001 0.056931432 0.73800004 9.0362507e-39
-0.16051809 0.056777146 0.73600006 9.6816201e-39
-0.15868382 0.056622859 0.73400003 9.3146299e-39
-0.15707143 0.05654572 0.73300004 1.0144391e-38
-0.15567525 0.05654572 0.73300004 1.0420977e-38
-0.1538581 0.056391429 0.73100001 1.0605369e-38
-0.15225714 0.056314286 0.73000002 1.0973801e-38
-0.15086667 0.056314286 0.73000002 1.1342583e-38
-0.16176191 0.060942858 0.79000002 1.1341507e-38
-0.16106857 0.061251432 0.79400003 1.1802485e-38
-0.15995811 0.061405718 0.79600006 1.1711013e-38
-0.15884002 0.061560001 0.79800004 1.1434426e-38
-0.15771429 0.061714288 0.80000001 1.0514265e-38
-0.15619047 0.061714288 0.80000001 9.684504e-39
-0.15505335 0.061868574 0.80200005 9.1306044e-39
-0.15352573 0.061868574 0.80200005 9.1306044e-39
-0.15218763 0.061945714 0.80300003 9.4068409e-39
-0.15103334 0.062100001 0.80500007 9.2224497e-39
-0.1495 0.062100001 0.80500007 9.4061221e-39
-0.14833429 0.062254291 0.80700004 9.6827089e-39
-0.14679715 0.062254291 0.80700004 1.0140115e-38
-0.14562 0.06240857 0.80900002 8.941572e-39
-0.14407904 0.06240857 0.80900002 9.4968379e-39
-0.1425381 0.06240857 0.80900002 1.0142207e-38
-0.14099714 0.06240857 0.80900002 1.023374e-38
-0.13945618 0.06240857 0.80900002 1.0325936e-38
-0.13825619 0.062562861 0.81100005 1.0418485e-38
-0.13671143 0.062562861 0.81100005 1.0879463e-38
-0.13516667 0.062562861 0.81100005 1.1157119e-38
-0.13362192 0.062562861 0.81100005 1.1710293e-38
-0.13240287 0.062717147 0.81300002 1.1344025e-38
-0.13085429 0.062717147 0.81300002 1.2173786e-38
-0.12930572 0.062717147 0.81300002 1.2082669e-38
-0.12775715 0.062717147 0.81300002 1.2174865e-38
-0.12620857 0.062717147 0.81300002 1.1990474e-38
-0.12466 0.062717147 0.81300002 1.2267061e-38
-0.10978571 0.055928573 0.72500002 1.2359612e-38
-0.10840476 0.055928573 0.72500002 1.2359612e-38
-0.10731905 0.05608286 0.72700006 1.2267417e-38
-0.10593429 0.05608286 0.72700006 1.2175221e-38
-0.10469334 0.056160003 0.72800004 1.1898997e-38
-0.10359048 0.056314286 0.73000002 1.1714606e-38
-0.1022 0.056314286 0.73000002 1.1714243e-38
-0.10080953 0.056314286 0.73000002 1.1622047e-38
-0.099555232 0.056391429 0.73100001 1.1805006e-38
-0.098162852 0.056391429 0.73100001 1.1805006e-38
-0.097167619 0.056622859 0.73400003 1.1621341e-38
-0.095769532 0.056622859 0.73400003 1.1621341e-38
-0.09462858 0.056777146 0.73600006 1.1529145e-38
-0.093480006 0.056931432 0.73800004 1.143695e-38
-0.092074282 0.056931432 0.73800004 1.1252912e-38
-0.090791427 0.057008572 0.73900002 1.1252912e-38
-0.089625724 0.057162859 0.74100006 1.1068167e-38
-0.088571429 0.057394285 0.74400002 1.1068167e-38
-0.087388575 0.057548571 0.74600005 1.0791583e-38
-0.086082861 0.057625718 0.74700004 1.0607192e-38
-0.08488667 0.057780001 0.74900001 1.060646e-38
-0.083571434 0.057857145 0.75000006 1.0053287e-38
-0.082361907 0.058011431 0.75200003 1.0236239e-38
-0.081144765 0.058165714 0.75400001 1.0328434e-38
-0.08203429 0.05986286 0.77600002 9.6855858e-39
-0.080244765 0.059631433 0.77300006 1.1621694e-38
-0.078772388 0.059631433 0.77300006 1.1715707e-38
-0.077400006 0.059708573 0.77400005 1.3190837e-38
-0.076121904 0.05986286 0.77600002 1.2823149e-38
-0.074643806 0.05986286 0.77600002 1.3099736e-38
-0.073165715 0.05986286 0.77600002 1.3468491e-38
-0.071687624 0.05986286 0.77600002 1.3191904e-38
-0.070028573 0.059708573 0.77400005 1.2269587e-38
-0.06855429 0.059708573 0.77400005 1.2269587e-38
-0.067253336 0.05986286 0.77600002 1.2541129e-38
-0.065775238 0.05986286 0.77600002 1.3002108e-38
-0.06429714 0.05986286 0.77600002 1.3277253e-38
-0.062980957 0.060017146 0.77800006 1.3277253e-38
-0.061499052 0.060017146 0.77800006 1.346271e-38
-0.060017146 0.060017146 0.77800006 1.3186123e-38
-0.058535244 0.060017146 0.77800006 1.208123e-38
-0.057053339 0.060017146 0.77800006 1.2265622e-38
-0.055571433 0.060017146 0.77800006 1.1714255e-38
-0.053950477 0.05986286 0.77600002 1.1806451e-38
-0.052337144 0.059708573 0.77400005 1.1714625e-38
-0.05086286 0.059708573 0.77400005 9.5941259e-39
-0.04951619 0.05986286 0.77600002 1.02355e-38
-0.048038095 0.05986286 0.77600002 1.383113e-38
-0.17030667 0.058653336 0.74200004 1.3645659e-38
-0.16821048 0.058416191 0.73900002 1.2262747e-38
-0.16680285 0.058416191 0.73900002 7.1919878e-39
-0.16539524 0.058416191 0.73900002 7.1926913e-39
-0.16376573 0.058337145 0.73800004 8.760017e-39
-0.16236001 0.058337145 0.73800004 8.6689073e-39
-0.16051809 0.058179051 0.73600006 9.3142767e-39
-0.15868382 0.058020953 0.73400003 9.4986708e-39
-0.15707143 0.05794191 0.73300004 1.014404e-38
-0.15567525 0.05794191 0.73300004 1.0144756e-38
-0.1538581 0.057783809 0.73100001 1.0421343e-38
-0.15225714 0.057704762 0.73000002 1.0605018e-38
-0.15045334 0.057546668 0.72800004 1.078941e-38
-0.14906667 0.057546668 0.72800004 1.0973798e-38
-0.14747715 0.057467621 0.72700006 1.1342581e-38
-0.14569049 0.057309527 0.72500002 1.134366e-38
-0.14430954 0.057309527 0.72500002 1.1528051e-38
-0.14332287 0.057467621 0.72700006 1.1804287e-38
-0.14154762 0.057309527 0.72500002 1.2357461e-38
-0.14016667 0.057309527 0.72500002 1.2356738e-38
-0.13878572 0.057309527 0.72500002 1.2356738e-38
-0.15218763 0.063475236 0.80300003 1.2633325e-38
-0.15103334 0.063633338 0.80500007 1.3002108e-38
-0.13464285 0.057309527 0.72500002 1.2909556e-38
-0.1332619 0.057309527 0.72500002 1.3278339e-38
-0.14716095 0.063949525 0.80900002 1.0973125e-38
-0.14562 0.063949525 0.80900002 7.4696915e-39
-0.14407904 0.063949525 0.80900002 7.9327646e-39
-0.1425381 0.063949525 0.80900002 1.2358155e-38
-0.14099714 0.063949525 0.80900002 1.3092155e-38
-0.13945618 0.063949525 0.80900002 1.382972e-38
-0.13791524 0.063949525 0.80900002 1.300031e-38
-0.12170859 0.057072386 0.72200006 1.2723723e-38
-0.12033334 0.057072386 0.72200006 1.2263817e-38
-0.11895811 0.057072386 0.72200006 1.2171621e-38
-0.11758287 0.057072386 0.72200006 1.2355656e-38
-0.11620763 0.057072386 0.72200006 1.3093221e-38
-0.11483239 0.057072386 0.72200006 1.2817716e-38
-0.11345715 0.057072386 0.72200006 1.2817716e-38
-0.11208192 0.057072386 0.72200006 1.2634401e-38
-0.11086001 0.057151429 0.72300005 1.2910988e-38
-0.10978571 0.057309527 0.72500002 1.263512e-38
-0.10840476 0.057309527 0.72500002 1.2174142e-38
-0.10731905 0.057467621 0.72700006 1.1806082e-38
-0.10593429 0.057467621 0.72700006 1.1806082e-38
-0.10469334 0.057546668 0.72800004 1.1714609e-38
-0.10359048 0.057704762 0.73000002 1.1714609e-38
-0.1022 0.057704762 0.73000002 1.1806438e-38
-0.10080953 0.057704762 0.73000002 1.1714243e-38
-0.099555232 0.057783809 0.73100001 1.171389e-38
-0.098162852 0.057783809 0.73100001 1.1621694e-38
-0.097167619 0.058020953 0.73400003 1.1621341e-38
-0.095769532 0.058020953 0.73400003 1.1529145e-38
-0.09462858 0.058179051 0.73600006 1.143695e-38
-0.093480006 0.058337145 0.73800004 1.143695e-38
-0.092074282 0.058337145 0.73800004 1.1437303e-38
-0.091037147 0.058574289 0.74100006 1.1252912e-38
-0.089746676 0.058653336 0.74200004 1.1251479e-38
-0.088571429 0.05881143 0.74400002 1.1067088e-38
-0.087388575 0.058969527 0.74600005 1.0883416e-38
-0.086082861 0.059048574 0.74700004 1.0606829e-38
-0.08488667 0.059206665 0.74900001 1.0514621e-38
-0.083571434 0.059285719 0.75000006 9.7770556e-39
-0.082361907 0.059443813 0.75200003 1.0144043e-38
-0.081144765 0.059601903 0.75400001 1.0144043e-38
-0.08203429 0.061340958 0.77600002 9.2263999e-39
-0.080348574 0.06118286 0.77400005 1.1531291e-38
-0.07887429 0.06118286 0.77400005 1.263514e-38
-0.077400006 0.06118286 0.77400005 1.4479052e-38
-0.076121904 0.061340958 0.77600002 1.3648594e-38
-0.074451432 0.06118286 0.77400005 1.2542246e-38
-0.072977148 0.06118286 0.77400005 1.2175937e-38
-0.071687624 0.061340958 0.77600002 1.2268133e-38
-0.070028573 0.06118286 0.77400005 1.2727653e-38
-0.06855429 0.06118286 0.77400005 1.300424e-38
-0.067253336 0.061340958 0.77600002 1.3554909e-38
-0.065775238 0.061340958 0.77600002 1.3831495e-38
-0.06429714 0.061340958 0.77600002 1.3738581e-38
-0.062980957 0.061499052 0.77800006 1.3830777e-38
-0.061499052 0.061499052 0.77800006 1.3831142e-38
-0.060017146 0.061499052 0.77800006 1.3646751e-38
-0.058535244 0.061499052 0.77800006 1.346236e-38
-0.057053339 0.061499052 0.77800006 1.3646751e-38
-0.055571433 0.061499052 0.77800006 1.3187202e-38
-0.053950477 0.061340958 0.77600002 1.2080855e-38
-0.052472383 0.061340958 0.77600002 1.1805732e-38
-0.050994288 0.061340958 0.77600002 1.1529145e-38
-0.04951619 0.061340958 0.77600002 1.115857e-38
-0.048038095 0.061340958 0.77600002 1.1896136e-38
-0.17030667 0.06006667 0.74200004 1.3554543e-38
-0.16821048 0.059823811 0.73900002 1.2723726e-38
-0.16680285 0.059823811 0.73900002 7.8373572e-39
-0.16539524 0.059823811 0.73900002 6.9175435e-39
-0.16376573 0.05974286 0.73800004 8.3004779e-39
-0.16236001 0.05974286 0.73800004 8.6689073e-39
-0.16051809 0.059580956 0.73600006 9.3142767e-39
-0.15868382 0.059419051 0.73400003 9.407194e-39
-0.15707143 0.0593381 0.73300004 9.9603678e-39
-0.15567525 0.0593381 0.73300004 9.960365e-39
-0.1538581 0.059176192 0.73100001 1.0329148e-38
-0.15246572 0.059176192 0.73100001 1.0330229e-38
-0.15045334 0.058933336 0.72800004 1.0514621e-38
-0.14906667 0.058933336 0.72800004 1.0607179e-38
-0.14747715 0.058852386 0.72700006 1.0975962e-38
-0.14569049 0.058690481 0.72500002 1.0884126e-38
-0.14430954 0.058690481 0.72500002 1.1068517e-38
-0.14332287 0.058852386 0.72700006 1.134512e-38
-0.14154762 0.058690481 0.72500002 1.1529511e-38
-0.14016667 0.058690481 0.72500002 1.1805732e-38
-0.13878572 0.058690481 0.72500002 1.1990123e-38
-0.13740477 0.058690481 0.72500002 1.2634414e-38
-0.13602382 0.058690481 0.72500002 1.2634414e-38
-0.13464285 0.058690481 0.72500002 1.2451104e-38
-0.1332619 0.058690481 0.72500002 1.2082322e-38
-0.13188095 0.058690481 0.72500002 8.7683084e-39
-0.1305 0.058690481 0.72500002 4.2507226e-39
-0.14407904 0.065490477 0.80900002 4.3439594e-39
-0.1425381 0.065490477 0.80900002 9.7835015e-39
-0.14099714 0.065490477 0.80900002 1.0513561e-38
-0.12445905 0.058447625 0.72200006 1.0052583e-38
-0.12308381 0.058447625 0.72200006 9.4100877e-39
-0.12170859 0.058447625 0.72200006 9.7788702e-39
-0.12033334 0.058447625 0.72200006 8.6732514e-39
-0.11895811 0.058447625 0.72200006 8.5810557e-39
-0.11758287 0.058447625 0.72200006 9.4990211e-39
-0.11620763 0.058447625 0.72200006 1.0420977e-38
-0.11483239 0.058447625 0.72200006 1.1157822e-38
-0.11345715 0.058447625 0.72200006 1.1710996e-38
-0.11208192 0.058447625 0.72200006 1.1989029e-38
-0.11086001 0.058528576 0.72300005 1.2081225e-38
-0.10978571 0.058690481 0.72500002 1.2175549e-38
-0.10840476 0.058690481 0.72500002 1.2267744e-38
-0.10702381 0.058690481 0.72500002 1.2082319e-38
-0.10593429 0.058852386 0.72700006 1.1897928e-38
-0.10454953 0.058852386 0.72700006 1.1714606e-38
-0.10359048 0.059095241 0.73000002 1.1714606e-38
-0.1022 0.059095241 0.73000002 1.1714609e-38
-0.10080953 0.059095241 0.73000002 1.1714609e-38
-0.099555232 0.059176192 0.73100001 1.1713902e-38
-0.098162852 0.059176192 0.73100001 1.1713902e-38
-0.097167619 0.059419051 0.73400003 1.1529511e-38
-0.095769532 0.059419051 0.73400003 1.1529511e-38
-0.09462858 0.059580956 0.73600006 1.1437669e-38
-0.093480006 0.05974286 0.73800004 1.1345473e-38
-0.09219905 0.059823811 0.73900002 1.1345107e-38
-0.091037147 0.05998572 0.74100006 1.106852e-38
-0.089746676 0.06006667 0.74200004 1.1251126e-38
-0.088571429 0.060228571 0.74400002 1.1158931e-38
-0.087388575 0.06039048 0.74600005 1.079122e-38
-0.086082861 0.06047143 0.74700004 1.0606829e-38
-0.085000008 0.06071429 0.75000006 1.0514265e-38
-0.083794288 0.060876191 0.75200003 9.8688953e-39
-0.082361907 0.060876191 0.75200003 1.0144043e-38
-0.080929525 0.060876191 0.75200003 1.0051847e-38
-0.081822865 0.06265714 0.77400005 9.1331253e-39
-0.080348574 0.06265714 0.77400005 1.1530212e-38
-0.07887429 0.06265714 0.77400005 1.2635856e-38
-0.077400006 0.06265714 0.77400005 1.318903e-38
-0.075925723 0.06265714 0.77400005 1.3371626e-38
-0.074451432 0.06265714 0.77400005 1.2449669e-38
-0.072977148 0.06265714 0.77400005 1.198795e-38
-0.071502857 0.06265714 0.77400005 1.3094298e-38
-0.070028573 0.06265714 0.77400005 1.3554896e-38
-0.06855429 0.06265714 0.77400005 1.3647092e-38
-0.067253336 0.062819049 0.77600002 1.3830774e-38
-0.065944768 0.062980957 0.77800006 1.3830774e-38
-0.064462863 0.062980957 0.77800006 1.4014089e-38
-0.062980957 0.062980957 0.77800006 1.4014089e-38
-0.061657146 0.063142858 0.78000003 1.3830423e-38
-0.060171433 0.063142858 0.78000003 1.3830423e-38
-0.058535244 0.062980957 0.77800006 1.4014086e-38
-0.057053339 0.062980957 0.77800006 1.4290673e-38
-0.055571433 0.062980957 0.77800006 1.3738228e-38
-0.054089524 0.062980957 0.77800006 1.1986511e-38
-0.052607622 0.062980957 0.77800006 1.1528051e-38
-0.051125716 0.062980957 0.77800006 1.1712442e-38
-0.049643811 0.062980957 0.77800006 1.125183e-38
-0.17218286 0.061645716 0.74400002 1.3276521e-38
-0.17076571 0.061645716 0.74400002 1.392189e-38
-0.16889334 0.061480001 0.74200004 1.300031e-38
-0.1672543 0.061397146 0.74100006 8.5749194e-39
-0.16539524 0.061231427 0.73900002 7.1937773e-39
-0.16398762 0.061231427 0.73900002 8.1157336e-39
-0.16236001 0.061148573 0.73800004 8.4845189e-39
-0.16051809 0.060982861 0.73600006 9.3142796e-39
-0.15911621 0.060982861 0.73600006 9.4064752e-39
-0.15728572 0.060817145 0.73400003 9.959649e-39
-0.15567525 0.060734287 0.73300004 1.0236236e-38
-0.1538581 0.060568571 0.73100001 1.0605018e-38
-0.15246572 0.060568571 0.73100001 1.1158189e-38
-0.15086667 0.060485717 0.73000002 1.1250385e-38
-0.14906667 0.060320001 0.72800004 1.1435858e-38
-0.14747715 0.060237147 0.72700006 1.1528054e-38
-0.1460924 0.060237147 0.72700006 1.1435858e-38
-0.14470762 0.060237147 0.72700006 1.1620249e-38
-0.14332287 0.060237147 0.72700006 1.125183e-38
-0.14154762 0.060071427 0.72500002 1.0053287e-38
-0.14016667 0.060071427 0.72500002 8.8569266e-39
-0.13878572 0.060071427 0.72500002 8.8569266e-39
-0.13740477 0.060071427 0.72500002 8.9498355e-39
-0.13602382 0.060071427 0.72500002 9.0420311e-39
-0.13464285 0.060071427 0.72500002 7.4736656e-39
-0.1332619 0.060071427 0.72500002 5.629753e-39
-0.13188095 0.060071427 0.72500002 2.5954822e-39
-0.1305 0.060071427 0.72500002 1.9839584e-40
-0.12876286 0.059905719 0.72300005 4.1606878e-39
-0.12738572 0.059905719 0.72300005 9.5080343e-39
-0.12600857 0.059905719 0.72300005 9.4104409e-39
-0.12445905 0.059822865 0.72200006 7.9353108e-39
-0.12308381 0.059822865 0.72200006 8.3973777e-39
-0.12170859 0.059822865 0.72200006 1.0425682e-38
-0.12033334 0.059822865 0.72200006 9.411908e-39
-0.11895811 0.059822865 0.72200006 8.5821473e-39
-0.11758287 0.059822865 0.72200006 7.6597777e-39
-0.11636858 0.059905719 0.72300005 6.092452e-39
-0.11499143 0.059905719 0.72300005 5.6325808e-39
-0.11361429 0.059905719 0.72300005 4.8028202e-39
-0.11223715 0.059905719 0.72300005 5.5421649e-39
-0.11116667 0.060071427 0.72500002 4.4358173e-39
-0.10978571 0.060071427 0.72500002 5.1744739e-39
-0.10840476 0.060071427 0.72500002 1.0060842e-38
-0.10702381 0.060071427 0.72500002 1.2450023e-38
-0.10593429 0.060237147 0.72700006 1.2818805e-38
-0.10454953 0.060237147 0.72700006 1.2358177e-38
-0.10330667 0.060320001 0.72800004 1.208159e-38
-0.1022 0.060485717 0.73000002 1.1714609e-38
-0.10094762 0.060568571 0.73100001 1.1714609e-38
-0.099555232 0.060568571 0.73100001 1.1990126e-38
-0.098162852 0.060568571 0.73100001 1.1805735e-38
-0.097167619 0.060817145 0.73400003 1.1528795e-38
-0.095769532 0.060817145 0.73400003 1.1528795e-38
-0.09462858 0.060982861 0.73600006 1.1529145e-38
-0.093480006 0.061148573 0.73800004 1.143695e-38
-0.09219905 0.061231427 0.73900002 1.1345107e-38
-0.091037147 0.061397146 0.74100006 1.106852e-38
-0.089746676 0.061480001 0.74200004 1.1067814e-38
-0.088809527 0.061811436 0.74600005 1.0883423e-38
-0.087505721 0.06189429 0.74700004 1.1067438e-38
-0.086082861 0.06189429 0.74700004 1.060646e-38
-0.085000008 0.062142864 0.75000006 1.0514265e-38
-0.083794288 0.062308576 0.75200003 9.8688953e-39
-0.082361907 0.062308576 0.75200003 1.0052208e-38
-0.080929525 0.062308576 0.75200003 9.9600119e-39
-0.081717148 0.064048581 0.77300006 9.1331253e-39
-0.080244765 0.064048581 0.77300006 1.0884842e-38
-0.078772388 0.064048581 0.77300006 1.2543275e-38
-0.077400006 0.064131431 0.77400005 1.2174492e-38
-0.075925723 0.064131431 0.77400005 1.2172344e-38
-0.074451432 0.064131431 0.77400005 1.2448931e-38
-0.072977148 0.064131431 0.77400005 1.3093577e-38
-0.071502857 0.064131431 0.77400005 1.3738947e-38
-0.070028573 0.064131431 0.77400005 1.3922241e-38
-0.06855429 0.064131431 0.77400005 1.3830045e-38
-0.067600004 0.064628571 0.78000003 1.392189e-38
-0.061657146 0.064628571 0.78000003 1.3921893e-38
-0.060171433 0.064628571 0.78000003 1.3921893e-38
-0.058685716 0.064628571 0.78000003 1.4014442e-38
-0.0572 0.064628571 0.78000003 1.4291029e-38
-0.055714291 0.064628571 0.78000003 1.3830774e-38
-0.054089524 0.064462863 0.77800006 1.1710274e-38
-0.052607622 0.064462863 0.77800006 1.0975934e-38
-0.051125716 0.064462863 0.77800006 1.1621303e-38
-0.17218286 0.063062862 0.74400002 1.3092133e-38
-0.17030667 0.062893331 0.74200004 1.3645306e-38
-0.16889334 0.062893331 0.74200004 1.3185417e-38
-0.1672543 0.062808573 0.74100006 8.5756355e-39
-0.16584286 0.062808573 0.74100006 7.3767294e-39
-0.16398762 0.06263905 0.73900002 8.2064901e-39
-0.16236001 0.062554292 0.73800004 8.5752726e-39
-0.1609543 0.062554292 0.73800004 9.3128376e-39
-0.15911621 0.062384766 0.73600006 9.1306016e-39
-0.15728572 0.062215243 0.73400003 1.0052558e-38
-0.15567525 0.062130481 0.73300004 1.0328431e-38
-0.1538581 0.06196095 0.73100001 1.078941e-38
-0.15246572 0.06196095 0.73100001 1.0974883e-38
-0.15086667 0.061876193 0.73000002 1.0882687e-38
-0.14906667 0.061706673 0.72800004 1.115999e-38
-0.14768001 0.061706673 0.72800004 1.0514621e-38
-0.1460924 0.061621908 0.72700006 8.3058477e-39
-0.14470762 0.061621908 0.72700006 9.3199997e-39
-0.14332287 0.061621908 0.72700006 9.7752731e-39
-0.14154762 0.061452381 0.72500002 7.9313605e-39
-0.14016667 0.061452381 0.72500002 7.4714305e-39
-0.13878572 0.061452381 0.72500002 9.3153431e-39
-0.13740477 0.061452381 0.72500002 8.5817718e-39
-0.13602382 0.061452381 0.72500002 8.3973805e-39
-0.13464285 0.061452381 0.72500002 7.1059257e-39
-0.1332619 0.061452381 0.72500002 6.0917737e-39
-0.13188095 0.061452381 0.72500002 5.1686908e-39
-0.13014001 0.061282866 0.72300005 5.1686908e-39
-0.12876286 0.061282866 0.72300005 8.2089956e-39
-0.12738572 0.061282866 0.72300005 1.2357799e-38
-0.12583429 0.061198097 0.72200006 1.1808243e-38
-0.12445905 0.061198097 0.72200006 1.1439461e-38
-0.12308381 0.061198097 0.72200006 1.153201e-38
-0.12170859 0.061198097 0.72200006 1.2085183e-38
-0.12033334 0.061198097 0.72200006 1.1901515e-38
-0.11895811 0.061198097 0.72200006 1.0979559e-38
-0.11758287 0.061198097 0.72200006 9.7820876e-39
-0.11636858 0.061282866 0.72300005 9.0445226e-39
-0.11499143 0.061282866 0.72300005 9.1341847e-39
-0.11361429 0.061282866 0.72300005 7.566859e-39
-0.11223715 0.061282866 0.72300005 7.1980933e-39
-0.11116667 0.061452381 0.72500002 5.9995501e-39
-0.10978571 0.061452381 0.72500002 3.4224137e-39
-0.10840476 0.061452381 0.72500002 6.5570651e-39
-0.10702381 0.061452381 0.72500002 1.1893564e-38
-0.10593429 0.061621908 0.72700006 1.2999912e-38
-0.10454953 0.061621908 0.72700006 1.2634752e-38
-0.10330667 0.061706673 0.72800004 1.2265969e-38
-0.1022 0.061876193 0.73000002 1.1899e-38
-0.10094762 0.06196095 0.73100001 1.1806804e-38
-0.099555232 0.06196095 0.73100001 1.1897575e-38
-0.098431431 0.062130481 0.73300004 1.1805379e-38
-0.097167619 0.062215243 0.73400003 1.1620988e-38
-0.095769532 0.062215243 0.73400003 1.1620988e-38
-0.09462858 0.062384766 0.73600006 1.1437315e-38
-0.093480006 0.062554292 0.73800004 1.134512e-38
-0.09219905 0.06263905 0.73900002 1.1344754e-38
-0.091037147 0.062808573 0.74100006 1.1160363e-38
-0.089988567 0.063062862 0.74400002 1.1067814e-38
-0.088809527 0.063232385 0.74600005 1.0975618e-38
-0.087505721 0.063317142 0.74700004 1.0884129e-38
-0.08631333 0.063486665 0.74900001 1.0607542e-38
-0.085000008 0.063571438 0.75000006 1.0146561e-38
-0.083794288 0.063740954 0.75200003 9.7777786e-39
-0.082580954 0.063910477 0.75400001 1.0051854e-38
-0.081252381 0.063995242 0.75500005 9.7752675e-39
-0.081717148 0.065520957 0.77300006 9.2253209e-39
-0.080244765 0.065520957 0.77300006 1.0792647e-38
-0.078772388 0.065520957 0.77300006 1.1344754e-38
-0.077400006 0.065605715 0.77400005 1.1068167e-38
-0.075925723 0.065605715 0.77400005 1.1526975e-38
-0.074451432 0.065605715 0.77400005 1.3186496e-38
-0.072977148 0.065605715 0.77400005 1.3646385e-38
-0.071502857 0.065605715 0.77400005 1.3646385e-38
-0.070028573 0.065605715 0.77400005 1.3829695e-38
-0.057273332 0.066199049 0.78100002 1.4107361e-38
-0.055785716 0.066199049 0.78100002 1.4199559e-38
-0.052810475 0.066199049 0.78100002 1.0607164e-38
-0.051322855 0.066199049 0.78100002 1.1252533e-38
-0.049835239 0.066199049 0.78100002 1.1988679e-38
-0.17030667 0.064306669 0.74200004 1.3460562e-38
-0.16889334 0.064306669 0.74200004 1.3277613e-38
-0.16748001 0.064306669 0.74200004 9.8663743e-39
-0.16606668 0.064306669 0.74200004 6.9190163e-39
-0.16443144 0.064220004 0.74100006 7.2877988e-39
-0.16258 0.064046666 0.73900002 8.2075817e-39
-0.1609543 0.063960001 0.73800004 9.2217336e-39
-0.15954857 0.063960001 0.73800004 9.6830593e-39
-0.15728572 0.063613333 0.73400003 1.051282e-38
-0.15567525 0.063526668 0.73300004 1.0144756e-38
-0.1538581 0.063353337 0.73100001 9.1306044e-39
-0.15246572 0.063353337 0.73100001 6.6435182e-39
-0.15086667 0.063266665 0.73000002 4.8918012e-39
-0.14947619 0.063266665 0.73000002 4.8964479e-39
-0.14768001 0.063093334 0.72800004 4.3432741e-39
-0.14629334 0.063093334 0.72800004 7.567135e-39
-0.14470762 0.063006669 0.72700006 9.6876345e-39
-0.14332287 0.063006669 0.72700006 9.5919679e-39
-0.14154762 0.062833332 0.72500002 7.4714684e-39
-0.14016667 0.062833332 0.72500002 7.567582e-39
-0.13878572 0.062833332 0.72500002 1.0425647e-38
-0.13740477 0.062833332 0.72500002 1.0699748e-38
-0.13602382 0.062833332 0.72500002 1.0146574e-38
-0.13464285 0.062833332 0.72500002 9.5959013e-39
-0.1332619 0.062833332 0.72500002 9.3193144e-39
-0.13188095 0.062833332 0.72500002 9.4097178e-39
-0.13014001 0.062660009 0.72300005 8.856544e-39
-0.12876286 0.062660009 0.72300005 9.3160844e-39
-0.12738572 0.062660009 0.72300005 1.2266345e-38
-0.12583429 0.062573336 0.72200006 1.2726244e-38
-0.12445905 0.062573336 0.72200006 1.3371613e-38
-0.12308381 0.062573336 0.72200006 1.2820234e-38
-0.12170859 0.062573336 0.72200006 1.2543648e-38
-0.12033334 0.062573336 0.72200006 1.1808944e-38
-0.11895811 0.062573336 0.72200006 1.190114e-38
-0.11774572 0.062660009 0.72300005 1.1900792e-38
-0.11636858 0.062660009 0.72300005 1.236177e-38
-0.11499143 0.062660009 0.72300005 1.2729108e-38
-0.11392858 0.062833332 0.72500002 1.3005695e-38
-0.11254762 0.062833332 0.72500002 1.2636552e-38
-0.11116667 0.062833332 0.72500002 1.2636552e-38
-0.10978571 0.062833332 0.72500002 1.0423549e-38
-0.10840476 0.062833332 0.72500002 4.7074198e-39
-0.10702381 0.062833332 0.72500002 5.1740634e-39
-0.10593429 0.063006669 0.72700006 8.1243235e-39
-0.10454953 0.063006669 0.72700006 1.023911e-38
-0.10330667 0.063093334 0.72800004 1.2267414e-38
-0.1022 0.063266665 0.73000002 1.2450373e-38
-0.10094762 0.063353337 0.73100001 1.1989395e-38
-0.099555232 0.063353337 0.73100001 1.1713902e-38
-0.098431431 0.063526668 0.73300004 1.1713902e-38
-0.097167619 0.063613333 0.73400003 1.1713537e-38
-0.096030481 0.063786671 0.73600006 1.1621341e-38
-0.094885714 0.063960001 0.73800004 1.1436599e-38
-0.093606666 0.064046666 0.73900002 1.1344404e-38
-0.092448577 0.064220004 0.74100006 1.1344754e-38
-0.091159999 0.064306669 0.74200004 1.1252558e-38
-0.089988567 0.064479999 0.74400002 1.1067814e-38
-0.088809527 0.064653337 0.74600005 1.0883423e-38
-0.087505721 0.064740002 0.74700004 1.0884126e-38
-0.08631333 0.06491334 0.74900001 1.0791931e-38
-0.085000008 0.065000005 0.75000006 1.0606816e-38
-0.084017143 0.065346666 0.75400001 1.0053642e-38
-0.082580954 0.065346666 0.75400001 9.9596588e-39
-0.081252381 0.065433331 0.75500005 9.8674631e-39
-0.080554284 0.066040002 0.76200002 9.3164376e-39
-0.080037147 0.066820003 0.77100003 1.0054003e-38
-0.07856857 0.066820003 0.77100003 1.0513211e-38
-0.077400006 0.067080006 0.77400005 1.1435167e-38
-0.075925723 0.067080006 0.77400005 1.2078369e-38
-0.074451432 0.067080006 0.77400005 1.3461303e-38
-0.073165715 0.067253336 0.77600002 1.3645659e-38
-0.054298095 0.067686662 0.78100002 1.318541e-38
-0.052810475 0.067686662 0.78100002 1.1067076e-38
-0.051322855 0.067686662 0.78100002 1.0698293e-38
-0.049835239 0.067686662 0.78100002 1.1252912e-38
-0.17076571 0.065897144 0.74400002 1.3368366e-38
-0.16934858 0.065897144 0.74400002 1.3369445e-38
-0.16748001 0.065720007 0.74200004 1.0419185e-38
-0.16606668 0.065720007 0.74200004 8.8518623e-39
-0.16443144 0.065631427 0.74100006 7.929906e-39
-0.16302001 0.065631427 0.74100006 7.9313451e-39
-0.16117238 0.065454289 0.73900002 9.3142796e-39
-0.15954857 0.065365717 0.73800004 9.7756108e-39
-0.15771429 0.065188579 0.73600006 9.4990239e-39
-0.15588762 0.065011427 0.73400003 9.3156837e-39
-0.15427905 0.064922862 0.73300004 8.0249448e-39
-0.15246572 0.064745717 0.73100001 5.6318494e-39
-0.15107334 0.064745717 0.73100001 5.0786756e-39
-0.14947619 0.064657144 0.73000002 5.448177e-39
-0.14768001 0.064479999 0.72800004 5.9091551e-39
-0.14629334 0.064479999 0.72800004 9.1298435e-39
-0.14490667 0.064479999 0.72800004 1.1434734e-38
-0.14332287 0.064391434 0.72700006 1.1253265e-38
-0.14193811 0.064391434 0.72700006 1.0423504e-38
-0.14055334 0.064391434 0.72700006 1.0608949e-38
-0.13878572 0.064214289 0.72500002 1.1069927e-38
-0.13740477 0.064214289 0.72500002 1.0884126e-38
-0.13602382 0.064214289 0.72500002 1.0330952e-38
-0.13464285 0.064214289 0.72500002 1.005581e-38
-0.1332619 0.064214289 0.72500002 9.133854e-39
-0.13188095 0.064214289 0.72500002 9.6859389e-39
-0.1305 0.064214289 0.72500002 9.3171564e-39
-0.12876286 0.064037152 0.72300005 8.8586866e-39
-0.12738572 0.064037152 0.72300005 1.1624555e-38
-0.12600857 0.064037152 0.72300005 1.2265278e-38
-0.12463143 0.064037152 0.72300005 1.2080887e-38
-0.12325429 0.064037152 0.72300005 1.1899688e-38
-0.12170859 0.063948572 0.72200006 1.1715297e-38
-0.12033334 0.063948572 0.72200006 1.0610764e-38
-0.11912286 0.064037152 0.72300005 1.0610764e-38
-0.11774572 0.064037152 0.72300005 9.7810282e-39
-0.11636858 0.064037152 0.72300005 1.1256158e-38
-0.11499143 0.064037152 0.72300005 1.1993701e-38
-0.11392858 0.064214289 0.72500002 1.2362483e-38
-0.11254762 0.064214289 0.72500002 1.2729111e-38
-0.11116667 0.064214289 0.72500002 1.3005698e-38
-0.10978571 0.064214289 0.72500002 1.2176698e-38
-0.10840476 0.064214289 0.72500002 8.8576552e-39
-0.10731905 0.064391434 0.72700006 4.0746032e-39
-0.10593429 0.064391434 0.72700006 6.1951027e-39
-0.10469334 0.064479999 0.72800004 8.490239e-39
-0.10359048 0.064657144 0.73000002 1.1256108e-38
-0.1022 0.064657144 0.73000002 1.2541858e-38
-0.10094762 0.064745717 0.73100001 1.2173076e-38
-0.099555232 0.064745717 0.73100001 1.1713902e-38
-0.098431431 0.064922862 0.73300004 1.1713902e-38
-0.097167619 0.065011427 0.73400003 1.1621707e-38
-0.096030481 0.065188579 0.73600006 1.134512e-38
-0.094885714 0.065365717 0.73800004 1.134512e-38
-0.093606666 0.065454289 0.73900002 1.134512e-38
-0.092448577 0.065631427 0.74100006 1.1253277e-38
