# .PCD v0.7 - Point Cloud Data file format
VERSION 0.7
FIELDS x y z rgb
SIZE 4 4 4 4
TYPE F F F F
COUNT 1 1 1 1
WIDTH 985
HEIGHT 1
VIEWPOINT 0 0 0 1 0 0 0
POINTS 985
DATA ascii
-0.059678096 0.10274477 0.64600003 1.1483031e-38
-0.058447622 0.10274477 0.64600003 1.0841252e-38
-0.057217143 0.10274477 0.64600003 1.0841252e-38
-0.054840952 0.10290381 0.64700001 9.4658804e-39
-0.051301908 0.10322192 0.64900005 9.1939893e-39
-0.050142858 0.10338096 0.65000004 9.2861849e-39
-0.049130481 0.10385811 0.65300006 9.287959e-39
-0.047960002 0.10401715 0.65400004 9.1957633e-39
-0.046714287 0.10401715 0.65400004 9.3801546e-39
-0.044290476 0.10417619 0.65500003 9.1049942e-39
-0.096395247 0.10510191 0.65300006 6.7133183e-39
-0.095005721 0.10494096 0.65200001 6.7133183e-39
-0.091279998 0.10494096 0.65200001 6.8930432e-39
-0.089623809 0.1044581 0.64900005 6.5242663e-39
-0.088251427 0.10429715 0.648 6.6153843e-39
-0.086882859 0.10413619 0.64700001 6.6153843e-39
-0.085518099 0.10397524 0.64600003 6.6146669e-39
-0.084287621 0.10397524 0.64600003 6.6146669e-39
-0.082800008 0.10365334 0.64400005 6.9820088e-39
-0.081573337 0.10365334 0.64400005 7.0742031e-39
-0.080346674 0.10365334 0.64400005 6.7065023e-39
-0.079120003 0.10365334 0.64400005 7.1674735e-39
-0.077893339 0.10365334 0.64400005 8.089057e-39
-0.076666676 0.10365334 0.64400005 8.089057e-39
-0.075440004 0.10365334 0.64400005 7.9961453e-39
-0.074213333 0.10365334 0.64400005 7.9039511e-39
-0.072986677 0.10365334 0.64400005 7.4433387e-39
-0.068080008 0.10365334 0.64400005 7.4419038e-39
-0.066853337 0.10365334 0.64400005 7.3497096e-39
-0.065626673 0.10365334 0.64400005 7.534098e-39
-0.064400002 0.10365334 0.64400005 7.534098e-39
-0.060908575 0.10397524 0.64600003 8.4549641e-39
-0.059678096 0.10397524 0.64600003 8.4549641e-39
-0.058447622 0.10397524 0.64600003 8.9141416e-39
-0.057217143 0.10397524 0.64600003 9.2829241e-39
-0.055986669 0.10397524 0.64600003 9.4669594e-39
-0.051380955 0.10461906 0.65000004 9.8375538e-39
-0.049130481 0.10510191 0.65300006 9.6538674e-39
-0.043240003 0.10590667 0.65800005 9.4727005e-39
-0.041986667 0.10590667 0.65800005 9.0138874e-39
-0.040795241 0.10606763 0.65900004 8.9216918e-39
-0.03954 0.10606763 0.65900004 8.6472685e-39
-0.096395247 0.10634572 0.65300006 6.6200478e-39
-0.095005721 0.10618286 0.65200001 6.5278536e-39
-0.089761913 0.10585715 0.65000004 7.4483624e-39
-0.088251427 0.10553142 0.648 7.6313159e-39
-0.086882859 0.10536857 0.64700001 7.6313159e-39
-0.085518099 0.10520571 0.64600003 7.813203e-39
-0.084287621 0.10520571 0.64600003 7.9975943e-39
-0.08305715 0.10520571 0.64600003 8.1819884e-39
-0.081573337 0.10488001 0.64400005 8.274184e-39
-0.080346674 0.10488001 0.64400005 8.3663922e-39
-0.079120003 0.10488001 0.64400005 9.4727398e-39
-0.077893339 0.10488001 0.64400005 9.3848447e-39
-0.076666676 0.10488001 0.64400005 9.3848447e-39
-0.075440004 0.10488001 0.64400005 9.5674563e-39
-0.074213333 0.10488001 0.64400005 9.3830651e-39
-0.072873332 0.10471714 0.64300001 9.4756363e-39
-0.071648575 0.10471714 0.64300001 1.0121006e-38
-0.068080008 0.10488001 0.64400005 9.9369521e-39
-0.066853337 0.10488001 0.64400005 8.5540177e-39
-0.065626673 0.10488001 0.64400005 9.0113693e-39
-0.064400002 0.10488001 0.64400005 9.0113693e-39
-0.062139049 0.10520571 0.64600003 1.1408458e-38
-0.060908575 0.10520571 0.64600003 1.1968441e-38
-0.059678096 0.10520571 0.64600003 1.2152832e-38
-0.058447622 0.10520571 0.64600003 1.1600071e-38
-0.057217143 0.10520571 0.64600003 1.0862506e-38
-0.055986669 0.10520571 0.64600003 1.1133311e-38
-0.053691428 0.10553142 0.648 1.0671967e-38
-0.052538101 0.10569429 0.64900005 1.0210989e-38
-0.051301908 0.10569429 0.64900005 1.0024802e-38
-0.047000002 0.10716 0.65800005 9.8389817e-39
-0.045746669 0.10716 0.65800005 9.6545905e-39
-0.044493336 0.10716 0.65800005 9.3801546e-39
-0.043240003 0.10716 0.65800005 9.3801546e-39
-0.041986667 0.10716 0.65800005 9.2893855e-39
-0.040795241 0.10732286 0.65900004 9.2893855e-39
-0.095005721 0.10742477 0.65200001 7.0792267e-39
-0.093763813 0.10742477 0.65200001 7.2625376e-39
-0.088251427 0.10676572 0.648 7.9064665e-39
-0.087017149 0.10676572 0.648 8.1830533e-39
-0.085650474 0.10660095 0.64700001 8.1823345e-39
-0.084287621 0.10643619 0.64600003 8.0901388e-39
-0.08305715 0.10643619 0.64600003 8.4582053e-39
-0.081573337 0.10610668 0.64400005 8.9191835e-39
-0.080346674 0.10610668 0.64400005 8.6447686e-39
-0.079120003 0.10610668 0.64400005 9.7511161e-39
-0.077893339 0.10610668 0.64400005 9.5703038e-39
-0.076666676 0.10610668 0.64400005 9.8468907e-39
-0.075440004 0.10610668 0.64400005 9.8461914e-39
-0.074213333 0.10610668 0.64400005 1.030717e-38
-0.072873332 0.1059419 0.64300001 1.0308253e-38
-0.071648575 0.1059419 0.64300001 1.0400448e-38
-0.068080008 0.10610668 0.64400005 1.0400802e-38
-0.066853337 0.10610668 0.64400005 8.9256715e-39
-0.063369527 0.10643619 0.64600003 9.5598879e-39
-0.062139049 0.10643619 0.64600003 1.2233561e-38
-0.060908575 0.10643619 0.64600003 1.1968113e-38
-0.05977048 0.10660095 0.64700001 1.22447e-38
-0.058538094 0.10660095 0.64700001 1.1969569e-38
-0.057305716 0.10660095 0.64700001 1.0863222e-38
-0.056073334 0.10660095 0.64700001 1.104256e-38
-0.054925714 0.10676572 0.648 1.0212799e-38
-0.05377429 0.10693048 0.64900005 1.0394681e-38
-0.052538101 0.10693048 0.64900005 1.0302485e-38
-0.051301908 0.10693048 0.64900005 1.0116648e-38
-0.045746669 0.10841334 0.65800005 9.7467861e-39
-0.044493336 0.10841334 0.65800005 9.838609e-39
-0.043240003 0.10841334 0.65800005 1.0023e-38
-0.041986667 0.10841334 0.65800005 9.2893855e-39
-0.095005721 0.10866667 0.65200001 7.1710734e-39
-0.093763813 0.10866667 0.65200001 7.5387615e-39
-0.092238098 0.10833334 0.65000004 7.6309558e-39
-0.088251427 0.108 0.648 7.9986621e-39
-0.087017149 0.108 0.648 8.0908577e-39
-0.085650474 0.10783334 0.64700001 8.2755993e-39
-0.084287621 0.10766667 0.64600003 8.1834037e-39
-0.08305715 0.10766667 0.64600003 8.4578452e-39
-0.081573337 0.10733335 0.64400005 8.9188233e-39
-0.078135237 0.10766667 0.64600003 9.8461648e-39
-0.076666676 0.10733335 0.64400005 9.8461648e-39
-0.075440004 0.10733335 0.64400005 1.0029487e-38
-0.074213333 0.10733335 0.64400005 1.0306074e-38
-0.072986677 0.10733335 0.64400005 1.0398283e-38
-0.071648575 0.10716667 0.64300001 1.0951457e-38
-0.065830477 0.10766667 0.64600003 9.3794624e-39
-0.064599998 0.10766667 0.64600003 8.9184842e-39
-0.063369527 0.10766667 0.64600003 9.6528024e-39
-0.062139049 0.10766667 0.64600003 1.1681106e-38
-0.05862857 0.108 0.648 1.1320223e-38
-0.057305716 0.10783334 0.64700001 1.0859245e-38
-0.056073334 0.10783334 0.64700001 1.1040765e-38
-0.05377429 0.10816668 0.64900005 1.0486146e-38
-0.052538101 0.10816668 0.64900005 1.0301755e-38
-0.051301908 0.10816668 0.64900005 1.0208478e-38
-0.050142858 0.10833334 0.65000004 9.7474994e-39
-0.045816191 0.10983334 0.65900004 1.0022284e-38
-0.044560954 0.10983334 0.65900004 9.9308046e-39
-0.043305717 0.10983334 0.65900004 1.0023e-38
-0.042050481 0.10983334 0.65900004 9.2901044e-39
-0.040795241 0.10983334 0.65900004 9.1057131e-39
-0.095005721 0.10990857 0.65200001 7.3558136e-39
-0.093763813 0.10990857 0.65200001 7.5391203e-39
-0.092521906 0.10990857 0.65200001 7.5391203e-39
-0.076666676 0.10856 0.64400005 1.0029474e-38
-0.075440004 0.10856 0.64400005 1.0212443e-38
-0.074213333 0.10856 0.64400005 1.0304639e-38
-0.072986677 0.10856 0.64400005 1.0397913e-38
-0.071648575 0.10839143 0.64300001 1.1412065e-38
-0.070423812 0.10839143 0.64300001 1.0770297e-38
-0.069306672 0.10856 0.64400005 1.0954689e-38
-0.065830477 0.10889714 0.64600003 1.0023387e-38
-0.064599998 0.10889714 0.64600003 9.4702132e-39
-0.063369527 0.10889714 0.64600003 9.6531626e-39
-0.062139049 0.10889714 0.64600003 1.1497075e-38
-0.059955239 0.10940287 0.64900005 1.1319141e-38
-0.058719054 0.10940287 0.64900005 1.1135118e-38
-0.057394285 0.10923428 0.648 1.0950727e-38
-0.056159999 0.10923428 0.648 1.0949645e-38
-0.055010479 0.10940287 0.64900005 1.0027689e-38
-0.05377429 0.10940287 0.64900005 1.0577982e-38
-0.052538101 0.10940287 0.64900005 1.039359e-38
-0.051301908 0.10940287 0.64900005 1.0299234e-38
-0.050142858 0.10957143 0.65000004 9.8382559e-39
-0.044560954 0.11108857 0.65900004 9.839688e-39
-0.043305717 0.11108857 0.65900004 9.9318836e-39
-0.042050481 0.11108857 0.65900004 9.2893855e-39
-0.040795241 0.11108857 0.65900004 9.2893855e-39
-0.038459051 0.1115943 0.66200006 7.9997355e-39
-0.09266381 0.11132096 0.65300006 7.6313159e-39
-0.072986677 0.10978667 0.64400005 1.0490109e-38
-0.071760006 0.10978667 0.64400005 1.1596457e-38
-0.070533335 0.10978667 0.64400005 1.1138353e-38
-0.064900003 0.11063905 0.64900005 9.6520962e-39
-0.063663818 0.11063905 0.64900005 9.6528024e-39
-0.062427621 0.11063905 0.64900005 1.1865498e-38
-0.061285719 0.11080953 0.65000004 1.0950359e-38
-0.060047623 0.11080953 0.65000004 1.1042554e-38
-0.058719054 0.11063905 0.64900005 1.1134039e-38
-0.057482861 0.11063905 0.64900005 1.0857452e-38
-0.056246672 0.11063905 0.64900005 1.1040762e-38
-0.055010479 0.11063905 0.64900005 1.0671979e-38
-0.05377429 0.11063905 0.64900005 1.0577274e-38
-0.052538101 0.11063905 0.64900005 1.0300687e-38
-0.051380955 0.11080953 0.65000004 1.0392153e-38
-0.043437142 0.11268476 0.66100001 1.011448e-38
-0.042178098 0.11268476 0.66100001 9.4730607e-39
-0.039780006 0.11302572 0.66300005 8.9213443e-39
-0.038517147 0.11302572 0.66300005 8.2759748e-39
-0.037254289 0.11302572 0.66300005 7.9986621e-39
-0.093907632 0.11256477 0.65300006 7.8157072e-39
-0.072873332 0.11084095 0.64300001 1.0672356e-38
-0.071648575 0.11084095 0.64300001 1.1778704e-38
-0.064900003 0.11187524 0.64900005 9.5598879e-39
-0.063663818 0.11187524 0.64900005 9.4687573e-39
-0.062427621 0.11187524 0.64900005 1.1773648e-38
-0.061285719 0.11204763 0.65000004 1.0950364e-38
-0.060047623 0.11204763 0.65000004 1.1134755e-38
-0.058809526 0.11204763 0.65000004 1.113475e-38
-0.057482861 0.11187524 0.64900005 1.113475e-38
-0.056246672 0.11187524 0.64900005 1.0948206e-38
-0.055010479 0.11187524 0.64900005 1.0579424e-38
-0.05377429 0.11187524 0.64900005 1.0670189e-38
-0.052538101 0.11187524 0.64900005 1.0485797e-38
-0.038517147 0.11428858 0.66300005 8.8280598e-39
-0.074098095 0.11206571 0.64300001 1.039503e-38
-0.072873332 0.11206571 0.64300001 1.0394328e-38
-0.071648575 0.11206571 0.64300001 1.1224088e-38
-0.070423812 0.11206571 0.64300001 1.1138295e-38
-0.063761905 0.11328572 0.65000004 9.2839947e-39
-0.062523812 0.11328572 0.65000004 1.2142052e-38
-0.061285719 0.11328572 0.65000004 1.141134e-38
-0.060047623 0.11328572 0.65000004 1.1226948e-38
-0.058809526 0.11328572 0.65000004 1.1317705e-38
-0.057482861 0.11311144 0.64900005 1.1502096e-38
-0.056246672 0.11311144 0.64900005 1.1132249e-38
-0.055010479 0.11311144 0.64900005 1.0947857e-38
-0.05377429 0.11311144 0.64900005 1.094749e-38
-0.052538101 0.11311144 0.64900005 1.0486512e-38
-0.038517147 0.11555143 0.66300005 9.3808651e-39
-0.037254289 0.11555143 0.66300005 8.7380166e-39
-0.074213333 0.11346667 0.64400005 9.9333354e-39
-0.072986677 0.11346667 0.64400005 9.6528024e-39
-0.071760006 0.11346667 0.64400005 1.3432823e-38
-0.060232379 0.11487619 0.65200001 1.159399e-38
-0.053857144 0.11452381 0.65000004 1.1131163e-38
-0.052619051 0.11452381 0.65000004 1.1131163e-38
-0.039720006 0.1166381 0.66200006 9.4730607e-39
-0.038517147 0.11681429 0.66300005 9.5652563e-39
-0.072986677 0.11469334 0.64400005 8.8241039e-39
-0.071760006 0.11469334 0.64400005 1.6015363e-38
-0.068397142 0.11522762 0.64700001 1.9904157e-38
-0.067164764 0.11522762 0.64700001 6.167008e-39
-0.060232379 0.1161181 0.65200001 1.5843547e-38
-0.058990479 0.1161181 0.65200001 1.3994992e-38
-0.057748571 0.1161181 0.65200001 1.0491558e-38
-0.056506667 0.1161181 0.65200001 1.1225859e-38
-0.055010479 0.11558381 0.64900005 1.1594642e-38
-0.06962952 0.11646 0.64700001 2.092127e-38
-0.068397142 0.11646 0.64700001 1.9443599e-38
-0.067164764 0.11646 0.64700001 5.8908415e-39
-0.060232379 0.11736 0.65200001 1.5659262e-38
-0.058990479 0.11736 0.65200001 1.3534396e-38
-0.055010479 0.11682001 0.64900005 1.1686124e-38
-0.071982861 0.11751048 0.64600003 2.0070895e-38
-0.070752382 0.11751048 0.64600003 2.1010905e-38
-0.06962952 0.11769238 0.64700001 2.0826514e-38
-0.068397142 0.11769238 0.64700001 1.8426894e-38
-0.067164764 0.11769238 0.64700001 6.5336578e-39
-0.065932386 0.11769238 0.64700001 8.2680645e-39
-0.059955239 0.11805619 0.64900005 1.5750019e-38
-0.056246672 0.11805619 0.64900005 1.1039686e-38
-0.055010479 0.11805619 0.64900005 1.159286e-38
-0.05377429 0.11805619 0.64900005 1.2148205e-38
-0.052538101 0.11805619 0.64900005 1.2148205e-38
-0.051301908 0.11805619 0.64900005 1.1129016e-38
-0.050065719 0.11805619 0.64900005 1.0114864e-38
-0.091386676 0.11837334 0.64400005 8.4581955e-39
-0.07444381 0.11874096 0.64600003 8.1837624e-39
-0.072094291 0.11892476 0.64700001 2.0437879e-38
-0.070861906 0.11892476 0.64700001 2.0734358e-38
-0.068397142 0.11892476 0.64700001 1.6769903e-38
-0.067164764 0.11892476 0.64700001 5.2454497e-39
-0.059955239 0.11929239 0.64900005 1.4738388e-38
-0.058719054 0.11929239 0.64900005 1.123059e-38
-0.055010479 0.11929239 0.64900005 1.1684689e-38
-0.05377429 0.11929239 0.64900005 1.2054565e-38
-0.052538101 0.11929239 0.64900005 1.2331152e-38
-0.051301908 0.11929239 0.64900005 1.1405235e-38
-0.050065719 0.11929239 0.64900005 1.0206692e-38
-0.048829526 0.11929239 0.64900005 1.0664426e-38
-0.047593337 0.11929239 0.64900005 1.0203448e-38
-0.045120955 0.11929239 0.64900005 1.0664404e-38
-0.094131432 0.11997144 0.64600003 8.27417e-39
-0.091386676 0.11960001 0.64400005 8.3659999e-39
-0.085120954 0.11941428 0.64300001 9.3765519e-39
-0.067164764 0.12015714 0.64700001 5.795755e-39
-0.059955239 0.12052858 0.64900005 1.5658887e-38
-0.058719054 0.12052858 0.64900005 1.3258563e-38
-0.05377429 0.12052858 0.64900005 1.1684692e-38
-0.052538101 0.12052858 0.64900005 1.1869083e-38
-0.051301908 0.12052858 0.64900005 1.1405584e-38
-0.050065719 0.12052858 0.64900005 1.0575824e-38
-0.048829526 0.12052858 0.64900005 1.0573321e-38
-0.047593337 0.12052858 0.64900005 1.038893e-38
-0.046357144 0.12052858 0.64900005 1.0481099e-38
-0.045120955 0.12052858 0.64900005 1.0388903e-38
-0.089347623 0.12138952 0.64700001 8.9177289e-39
-0.085253336 0.12082668 0.64400005 9.3762015e-39
-0.084026672 0.12082668 0.64400005 9.2840059e-39
-0.082800008 0.12082668 0.64400005 9.6531486e-39
-0.081573337 0.12082668 0.64400005 1.0114127e-38
-0.080346674 0.12082668 0.64400005 1.0207394e-38
-0.073213331 0.12120191 0.64600003 9.9250495e-39
-0.069521904 0.12120191 0.64600003 2.0459539e-38
-0.063369527 0.12120191 0.64600003 9.2789724e-39
-0.059955239 0.12176477 0.64900005 1.5660294e-38
-0.058719054 0.12176477 0.64900005 1.4369192e-38
-0.05377429 0.12176477 0.64900005 1.1409182e-38
-0.052538101 0.12176477 0.64900005 1.1501377e-38
-0.051301908 0.12176477 0.64900005 1.1315547e-38
-0.050065719 0.12176477 0.64900005 1.0485786e-38
-0.048829526 0.12176477 0.64900005 1.0666584e-38
-0.047593337 0.12176477 0.64900005 1.0574389e-38
-0.046357144 0.12176477 0.64900005 1.0481099e-38
-0.045120955 0.12176477 0.64900005 1.0573294e-38
-0.089347623 0.12262191 0.64700001 8.9177289e-39
-0.085253336 0.12205334 0.64400005 9.3762015e-39
-0.084026672 0.12205334 0.64400005 9.4683972e-39
-0.082800008 0.12205334 0.64400005 9.5598739e-39
-0.081573337 0.12205334 0.64400005 1.0020852e-38
-0.077893339 0.12205334 0.64400005 1.039143e-38
-0.076666676 0.12205334 0.64400005 1.1497777e-38
-0.068080008 0.12205334 0.64400005 1.8242102e-38
-0.051301908 0.12300096 0.64900005 1.1407014e-38
-0.050065719 0.12300096 0.64900005 1.0761644e-38
-0.048829526 0.12300096 0.64900005 1.0666584e-38
-0.047593337 0.12300096 0.64900005 1.0574389e-38
-0.046357144 0.12300096 0.64900005 1.048182e-38
-0.045120955 0.12300096 0.64900005 1.0389625e-38
-0.085253336 0.12328001 0.64400005 9.4676685e-39
-0.084026672 0.12328001 0.64400005 9.5598641e-39
-0.082800008 0.12328001 0.64400005 9.8368111e-39
-0.068080008 0.12328001 0.64400005 1.6580085e-38
-0.064599998 0.12366287 0.64600003 1.1399824e-38
-0.063369527 0.12366287 0.64600003 1.0852045e-38
-0.058719054 0.12423715 0.64900005 1.2425491e-38
-0.057482861 0.12423715 0.64900005 1.1595731e-38
-0.048829526 0.12423715 0.64900005 1.094424e-38
-0.047593337 0.12423715 0.64900005 1.0667654e-38
-0.046357144 0.12423715 0.64900005 1.0482181e-38
-0.045190476 0.12442858 0.65000004 1.0389985e-38
-0.092900954 0.12489333 0.64600003 8.6418679e-39
-0.091670483 0.12489333 0.64600003 8.4574766e-39
-0.090440005 0.12489333 0.64600003 8.7333404e-39
-0.087706678 0.12450667 0.64400005 9.375833e-39
-0.086480007 0.12450667 0.64400005 9.4680286e-39
-0.085253336 0.12450667 0.64400005 9.4676685e-39
-0.084026672 0.12450667 0.64400005 9.6520597e-39
-0.082800008 0.12450667 0.64400005 9.6524199e-39
-0.081446663 0.12431334 0.64300001 9.7446155e-39
-0.080221906 0.12431334 0.64300001 1.0113413e-38
-0.078997143 0.12431334 0.64300001 1.0943174e-38
-0.077772386 0.12431334 0.64300001 1.0670177e-38
-0.071760006 0.12450667 0.64400005 1.2326109e-38
-0.064599998 0.12489333 0.64600003 1.112755e-38
-0.063369527 0.12489333 0.64600003 1.1035717e-38
-0.062139049 0.12489333 0.64600003 1.0482543e-38
-0.060908575 0.12489333 0.64600003 1.1131828e-38
-0.058719054 0.12547334 0.64900005 1.1688242e-38
-0.057482861 0.12547334 0.64900005 1.1227264e-38
-0.050142858 0.12566668 0.65000004 1.1128995e-38
-0.048904765 0.12566668 0.65000004 1.1128622e-38
-0.047593337 0.12547334 0.64900005 1.0667644e-38
-0.046357144 0.12547334 0.64900005 1.0573307e-38
-0.09181238 0.12631905 0.64700001 8.6418679e-39
-0.090440005 0.12612382 0.64600003 8.8262521e-39
-0.089209527 0.12612382 0.64600003 9.0106434e-39
-0.087979056 0.12612382 0.64600003 9.2843562e-39
-0.084287621 0.12612382 0.64600003 9.5598739e-39
-0.082800008 0.12573333 0.64400005 9.9290096e-39
-0.081573337 0.12573333 0.64400005 1.0482183e-38
-0.080346674 0.12573333 0.64400005 1.0299234e-38
-0.079120003 0.12573333 0.64400005 1.1313386e-38
-0.077893339 0.12573333 0.64400005 1.0855642e-38
-0.072986677 0.12573333 0.64400005 1.1314479e-38
-0.071760006 0.12573333 0.64400005 1.1314479e-38
-0.070533335 0.12573333 0.64400005 1.057688e-38
-0.064700007 0.12631905 0.64700001 1.0760941e-38
-0.063467614 0.12631905 0.64700001 1.1219392e-38
-0.062235236 0.12631905 0.64700001 1.0574023e-38
-0.059955239 0.12670954 0.64900005 1.2788847e-38
-0.050142858 0.12690476 0.65000004 1.149778e-38
-0.048904765 0.12690476 0.65000004 1.1035717e-38
-0.047593337 0.12670954 0.64900005 1.0666935e-38
-0.046357144 0.12670954 0.64900005 1.0665493e-38
-0.09181238 0.12755142 0.64700001 8.5503869e-39
-0.090580001 0.12755142 0.64700001 9.1918005e-39
-0.089209527 0.12735428 0.64600003 9.2839947e-39
-0.085650474 0.12755142 0.64700001 9.4669594e-39
-0.084287621 0.12735428 0.64600003 9.7435463e-39
-0.08305715 0.12735428 0.64600003 9.8353846e-39
-0.081826672 0.12735428 0.64600003 1.0204167e-38
-0.079120003 0.12696001 0.64400005 1.1589244e-38
-0.077893339 0.12696001 0.64400005 1.0854553e-38
-0.076547615 0.12676285 0.64300001 1.0762358e-38
-0.070533335 0.12696001 0.64400005 1.1222632e-38
-0.069306672 0.12696001 0.64400005 1.1868002e-38
-0.068080008 0.12696001 0.64400005 1.159356e-38
-0.064599998 0.12735428 0.64600003 1.0945332e-38
-0.063369527 0.12735428 0.64600003 1.0852057e-38
-0.062139049 0.12735428 0.64600003 1.0391079e-38
-0.09181238 0.12878382 0.64700001 8.8255347e-39
-0.090580001 0.12878382 0.64700001 9.1914417e-39
-0.089209527 0.12858477 0.64600003 9.4680286e-39
-0.087979056 0.12858477 0.64600003 9.4687475e-39
-0.085650474 0.12878382 0.64700001 9.7435393e-39
-0.084287621 0.12858477 0.64600003 9.6513437e-39
-0.08305715 0.12858477 0.64600003 1.0018687e-38
-0.081826672 0.12858477 0.64600003 1.0664056e-38
-0.080596194 0.12858477 0.64600003 1.0575455e-38
-0.077772386 0.12798762 0.64300001 1.085419e-38
-0.076547615 0.12798762 0.64300001 1.0577603e-38
-0.069306672 0.12818667 0.64400005 1.1681796e-38
-0.068080008 0.12818667 0.64400005 1.1407742e-38
-0.065830477 0.12858477 0.64600003 1.0945682e-38
-0.064599998 0.12858477 0.64600003 1.0945682e-38
-0.063369527 0.12858477 0.64600003 1.0759859e-38
-0.062139049 0.12858477 0.64600003 1.0206685e-38
-0.093332388 0.13041811 0.64900005 8.9177289e-39
-0.092096195 0.13041811 0.64900005 8.7333404e-39
-0.090719998 0.13021713 0.648 9.1914417e-39
-0.089347623 0.13001619 0.64700001 9.2836374e-39
-0.088115238 0.13001619 0.64700001 9.4669594e-39
-0.085650474 0.13001619 0.64700001 9.8360951e-39
-0.084418096 0.13001619 0.64700001 9.9282907e-39
-0.083185717 0.13001619 0.64700001 1.011198e-38
-0.081953332 0.13001619 0.64700001 1.0572958e-38
-0.080720954 0.13001619 0.64700001 1.0482897e-38
-0.079365723 0.12981524 0.64600003 1.0759483e-38
-0.076547615 0.12921238 0.64300001 1.0944947e-38
-0.075322859 0.12921238 0.64300001 1.0944947e-38
-0.067164764 0.13001619 0.64700001 1.1313036e-38
-0.065932386 0.13001619 0.64700001 1.1037878e-38
-0.064700007 0.13001619 0.64700001 1.0945682e-38
-0.063467614 0.13001619 0.64700001 1.0945682e-38
-0.062235236 0.13001619 0.64700001 1.0761291e-38
-0.061002858 0.13001619 0.64700001 1.0760938e-38
-0.093332388 0.13165429 0.64900005 9.1910914e-39
-0.092096195 0.13165429 0.64900005 9.3754827e-39
-0.090719998 0.13145143 0.648 9.375833e-39
-0.089347623 0.13124858 0.64700001 9.375833e-39
-0.085782856 0.13145143 0.648 9.8360951e-39
-0.084418096 0.13124858 0.64700001 1.057366e-38
-0.083185717 0.13124858 0.64700001 1.039143e-38
-0.081953332 0.13124858 0.64700001 1.0207038e-38
-0.080720954 0.13124858 0.64700001 1.0667291e-38
-0.076547615 0.13043714 0.64300001 1.066837e-38
-0.075322859 0.13043714 0.64300001 1.0760565e-38
-0.065932386 0.13124858 0.64700001 1.0945682e-38
-0.064700007 0.13124858 0.64700001 1.1037878e-38
-0.063467614 0.13124858 0.64700001 1.1130074e-38
-0.062235236 0.13124858 0.64700001 1.1037878e-38
-0.061002858 0.13124858 0.64700001 1.0944959e-38
-0.090860009 0.13289048 0.64900005 9.5602242e-39
-0.089485712 0.13268572 0.648 9.6524199e-39
-0.087017149 0.13268572 0.648 1.0112322e-38
-0.085782856 0.13268572 0.648 9.9283033e-39
-0.08454857 0.13268572 0.648 1.0665868e-38
-0.083314285 0.13268572 0.648 1.0575455e-38
-0.081953332 0.13248095 0.64700001 1.0667651e-38
-0.077893339 0.13186668 0.64400005 1.0759486e-38
-0.076547615 0.13166189 0.64300001 1.0851682e-38
-0.075322859 0.13166189 0.64300001 1.0667651e-38
-0.073982857 0.13145714 0.64200002 1.048326e-38
-0.089623809 0.13412668 0.64900005 9.6524199e-39
-0.088387623 0.13412668 0.64900005 1.0021205e-38
-0.087151438 0.13412668 0.64900005 9.8368139e-39
-0.085782856 0.13392 0.648 1.0113032e-38
-0.08454857 0.13392 0.648 1.1034989e-38
-0.083314285 0.13392 0.648 1.0761272e-38
-0.081953332 0.13371333 0.64700001 1.0761272e-38
-0.079120003 0.13309334 0.64400005 1.0852032e-38
-0.077893339 0.13309334 0.64400005 1.066837e-38
-0.076666676 0.13309334 0.64400005 1.0576174e-38
-0.075322859 0.13288668 0.64300001 1.0485055e-38
-0.074098095 0.13288668 0.64300001 1.0024076e-38
-0.072873332 0.13288668 0.64300001 1.0482897e-38
-0.071648575 0.13288668 0.64300001 1.0021918e-38
-0.088387623 0.13536286 0.64900005 9.5577075e-39
-0.087151438 0.13536286 0.64900005 9.7420974e-39
-0.085915245 0.13536286 0.64900005 9.6509934e-39
-0.084679052 0.13536286 0.64900005 1.1126123e-38
-0.083314285 0.13515429 0.648 1.0669076e-38
-0.081953332 0.13494572 0.64700001 1.0484685e-38
-0.080720954 0.13494572 0.64700001 1.0483247e-38
-0.077893339 0.13432001 0.64400005 1.0298145e-38
-0.076666676 0.13432001 0.64400005 1.0482536e-38
-0.075440004 0.13432001 0.64400005 1.0113761e-38
-0.074213333 0.13432001 0.64400005 9.9293697e-39
-0.072986677 0.13432001 0.64400005 9.9290096e-39
-0.071648575 0.13411143 0.64300001 9.6524227e-39
-0.070423812 0.13411143 0.64300001 1.0018687e-38
-0.088523813 0.13680953 0.65000004 9.7435393e-39
-0.087151438 0.13659906 0.64900005 1.0204517e-38
-0.085915245 0.13659906 0.64900005 1.0485055e-38
-0.084679052 0.13659906 0.64900005 1.0946033e-38
-0.083314285 0.13638857 0.648 1.0948547e-38
-0.082079999 0.13638857 0.648 1.0856351e-38
-0.080720954 0.13617809 0.64700001 1.0856351e-38
-0.079365723 0.13596763 0.64600003 1.0856351e-38
-0.078135237 0.13596763 0.64600003 1.0855642e-38
-0.076904759 0.13596763 0.64600003 1.0671251e-38
-0.075440004 0.13554667 0.64400005 1.06709e-38
-0.074213333 0.13554667 0.64400005 1.0763096e-38
-0.072986677 0.13554667 0.64400005 1.0946788e-38
-0.071760006 0.13554667 0.64400005 1.0578006e-38
-0.088523813 0.13804764 0.65000004 1.3073036e-38
-0.086047627 0.13804764 0.65000004 1.3073759e-38
-0.084809527 0.13804764 0.65000004 1.3165954e-38
-0.083442859 0.13783523 0.64900005 1.3259222e-38
-0.082206674 0.13783523 0.64900005 1.3443613e-38
-0.080845714 0.13762285 0.648 1.3628002e-38
-0.079365723 0.13719809 0.64600003 1.3812393e-38
-0.078135237 0.13719809 0.64600003 1.3628005e-38
-0.076904759 0.13719809 0.64600003 1.3535809e-38
-0.075440004 0.13677335 0.64400005 1.3535816e-38
-0.087554283 0.13971429 0.65200001 1.2981932e-38
-0.083442859 0.13907143 0.64900005 1.3351427e-38
-0.082206674 0.13907143 0.64900005 1.3351427e-38
-0.080845714 0.13885714 0.648 1.3536179e-38
-0.079488575 0.13864285 0.64700001 1.3628374e-38
-0.078135237 0.13842857 0.64600003 1.3628377e-38
-0.076904759 0.13842857 0.64600003 1.3443986e-38
-0.080845714 0.14009142 0.648 1.1415332e-38
-0.079611428 0.14009142 0.648 1.1507527e-38
-0.078377143 0.14009142 0.648 1.1415332e-38
-0.071190484 0.14052381 0.65000004 1.1046559e-38
-0.082206674 0.14154382 0.64900005 1.0954707e-38
-0.080970481 0.14154382 0.64900005 1.0863237e-38
-0.079611428 0.14132571 0.648 1.0863237e-38
-0.07726191 0.14154382 0.64900005 1.0679565e-38
-0.076025717 0.14154382 0.64900005 1.05863e-38
-0.074789532 0.14154382 0.64900005 1.05863e-38
-0.073553339 0.14154382 0.64900005 1.0494452e-38
-0.071190484 0.14176191 0.65000004 1.05863e-38
-0.069952384 0.14176191 0.65000004 1.0494104e-38
-0.082206674 0.14278001 0.64900005 1.1048697e-38
-0.080970481 0.14278001 0.64900005 1.0773565e-38
-0.079611428 0.14256001 0.648 1.0865761e-38
-0.07726191 0.14278001 0.64900005 1.0958307e-38
-0.076025717 0.14278001 0.64900005 1.0589181e-38
-0.074789532 0.14278001 0.64900005 1.0496985e-38
-0.073553339 0.14278001 0.64900005 1.0589534e-38
-0.072428577 0.14300001 0.65000004 1.0497338e-38
-0.082206674 0.14401621 0.64900005 1.0773925e-38
-0.080970481 0.14401621 0.64900005 1.0959045e-38
-0.079734296 0.14401621 0.64900005 1.086685e-38
-0.078498095 0.14401621 0.64900005 1.08672e-38
-0.07726191 0.14401621 0.64900005 1.0959396e-38
-0.076025717 0.14401621 0.64900005 1.0868638e-38
-0.074789532 0.14401621 0.64900005 1.0776442e-38
-0.073553339 0.14401621 0.64900005 1.1051591e-38
-0.073320009 0.14601335 0.65800005 1.1051591e-38
-0.072066672 0.14601335 0.65800005 1.0960105e-38
-0.035720002 0.14601335 0.65800005 1.2432393e-38
-0.027274286 0.14778858 0.66600001 1.0300673e-38
-0.081594288 0.14637144 0.65400004 1.1789172e-38
-0.080348574 0.14637144 0.65400004 1.160478e-38
-0.079102859 0.14637144 0.65400004 1.1328897e-38
-0.077380955 0.14547621 0.65000004 1.1328897e-38
-0.076142862 0.14547621 0.65000004 1.1328178e-38
-0.074904762 0.14547621 0.65000004 1.1328178e-38
-0.073666669 0.14547621 0.65000004 1.1512209e-38
-0.073320009 0.14726667 0.65800005 1.1512209e-38
-0.071957141 0.14704286 0.65700001 1.1420361e-38
-0.070705712 0.14704286 0.65700001 1.1420361e-38
-0.035720002 0.14726667 0.65800005 1.5566666e-38
-0.03451905 0.14749049 0.65900004 1.4273782e-38
-0.030940004 0.14838572 0.66300005 1.039176e-38
-0.029677145 0.14838572 0.66300005 1.094424e-38
-0.024588574 0.1481619 0.66200006 9.8397006e-39
-0.10671143 0.14964858 0.66300005 1.2338352e-38
-0.10544858 0.14964858 0.66300005 1.1787711e-38
-0.098984763 0.14942287 0.66200006 1.1419282e-38
-0.097576194 0.14919715 0.66100001 1.1235982e-38
-0.096317142 0.14919715 0.66100001 1.1235982e-38
-0.095058098 0.14919715 0.66100001 1.1328168e-38
-0.093799047 0.14919715 0.66100001 1.1420364e-38
-0.092539996 0.14919715 0.66100001 1.123597e-38
-0.091280952 0.14919715 0.66100001 1.1512557e-38
-0.08974953 0.14874573 0.65900004 1.1421799e-38
-0.088494293 0.14874573 0.65900004 1.1329603e-38
-0.087239049 0.14874573 0.65900004 1.1512557e-38
-0.085983813 0.14874573 0.65900004 1.1420361e-38
-0.081594288 0.14761716 0.65400004 1.1143427e-38
-0.080348574 0.14761716 0.65400004 1.1051231e-38
-0.079102859 0.14761716 0.65400004 1.0775713e-38
-0.074904762 0.14671429 0.65000004 1.0774992e-38
-0.073666669 0.14671429 0.65000004 1.0958304e-38
-0.073320009 0.14852001 0.65800005 1.0958304e-38
-0.071957141 0.14829428 0.65700001 1.0866459e-38
-0.070705712 0.14829428 0.65700001 1.0774263e-38
-0.036973335 0.14852001 0.65800005 1.6120912e-38
-0.035720002 0.14852001 0.65800005 1.6213107e-38
-0.03451905 0.14874573 0.65900004 1.5107158e-38
-0.03326381 0.14874573 0.65900004 1.1419333e-38
-0.025849525 0.14942287 0.66200006 1.0760565e-38
-0.024588574 0.14942287 0.66200006 9.8432949e-39
-0.10671143 0.15091144 0.66300005 1.1511125e-38
-0.10387143 0.15045619 0.66100001 1.1142708e-38
-0.098984763 0.15068382 0.66200006 1.1326726e-38
-0.097576194 0.15045619 0.66100001 1.1143777e-38
-0.096317142 0.15045619 0.66100001 1.0959386e-38
-0.095058098 0.15045619 0.66100001 1.0958667e-38
-0.093799047 0.15045619 0.66100001 1.0221102e-38
-0.092539996 0.15045619 0.66100001 9.9412905e-39
-0.091280952 0.15045619 0.66100001 9.6647037e-39
-0.08974953 0.15000096 0.65900004 9.2969651e-39
-0.088494293 0.15000096 0.65900004 9.1125738e-39
-0.087239049 0.15000096 0.65900004 9.110762e-39
-0.085853338 0.14977334 0.65800005 8.8341751e-39
-0.084600009 0.14977334 0.65800005 8.7412662e-39
-0.083346672 0.14977334 0.65800005 8.4646793e-39
-0.081594288 0.14886287 0.65400004 8.1884455e-39
-0.080348574 0.14886287 0.65400004 7.9118586e-39
-0.074573338 0.14977334 0.65800005 8.648688e-39
-0.073320009 0.14977334 0.65800005 8.7408836e-39
-0.072066672 0.14977334 0.65800005 8.9252749e-39
-0.070813335 0.14977334 0.65800005 9.0174705e-39
-0.069665715 0.15000096 0.65900004 9.2004269e-39
-0.068410479 0.15000096 0.65900004 9.0160356e-39
-0.067155235 0.15000096 0.65900004 8.923477e-39
-0.065900005 0.15000096 0.65900004 8.8312814e-39
-0.036973335 0.14977334 0.65800005 1.612017e-38
-0.035774291 0.15000096 0.65900004 1.6396757e-38
-0.03451905 0.15000096 0.65900004 1.5935101e-38
-0.033364762 0.15045619 0.66100001 1.4828753e-38
-0.029677145 0.15091144 0.66300005 1.0757701e-38
-0.025849525 0.15068382 0.66200006 1.0850976e-38
-0.024625717 0.15091144 0.66300005 1.0300673e-38
-0.023468571 0.15159428 0.66600001 9.839695e-39
-0.10671143 0.15217429 0.66300005 1.1418929e-38
-0.10513048 0.15171525 0.66100001 1.1142708e-38
-0.10039715 0.15217429 0.66300005 1.1234525e-38
-0.098984763 0.15194477 0.66200006 1.0865743e-38
-0.097576194 0.15171525 0.66100001 1.0588435e-38
-0.096317142 0.15171525 0.66100001 1.0219653e-38
-0.095058098 0.15171525 0.66100001 1.0034908e-38
-0.093799047 0.15171525 0.66100001 9.7583216e-39
-0.092539996 0.15171525 0.66100001 9.2955582e-39
-0.08974953 0.1512562 0.65900004 8.6476314e-39
-0.088494293 0.1512562 0.65900004 8.4632402e-39
-0.087239049 0.1512562 0.65900004 8.4621584e-39
-0.085853338 0.15102668 0.65800005 8.4621584e-39
-0.084600009 0.15102668 0.65800005 8.5550729e-39
-0.083346672 0.15102668 0.65800005 8.3706816e-39
-0.082093336 0.15102668 0.65800005 8.4621584e-39
-0.080839999 0.15102668 0.65800005 8.2777671e-39
-0.079586677 0.15102668 0.65800005 8.5536253e-39
-0.078333341 0.15102668 0.65800005 8.6458209e-39
-0.077080004 0.15102668 0.65800005 8.4614213e-39
-0.075826667 0.15102668 0.65800005 8.2770328e-39
-0.073431432 0.1512562 0.65900004 8.2770328e-39
-0.072066672 0.15102668 0.65800005 9.1046341e-39
-0.068410479 0.1512562 0.65900004 9.3797861e-39
-0.067155235 0.1512562 0.65900004 8.8273283e-39
-0.065900005 0.1512562 0.65900004 8.6429399e-39
-0.061063815 0.15171525 0.66100001 8.8276871e-39
-0.037029523 0.1512562 0.65900004 1.4460652e-38
-0.035774291 0.1512562 0.65900004 1.5106021e-38
-0.03451905 0.1512562 0.65900004 1.5933999e-38
-0.033364762 0.15171525 0.66100001 1.5473021e-38
-0.030846667 0.15171525 0.66100001 9.9398388e-39
-0.028414289 0.15217429 0.66300005 1.1222283e-38
-0.025849525 0.15194477 0.66200006 1.0943878e-38
-0.024625717 0.15217429 0.66300005 1.0486134e-38
-0.10671143 0.15343715 0.66300005 1.1695506e-38
-0.10528953 0.15320572 0.66200006 1.1511112e-38
-0.10039715 0.15343715 0.66300005 8.1841786e-39
-0.098984763 0.15320572 0.66200006 7.8153961e-39
-0.097576194 0.15297428 0.66100001 7.9993823e-39
-0.096317142 0.15297428 0.66100001 7.9993823e-39
-0.095058098 0.15297428 0.66100001 8.6476188e-39
-0.093799047 0.15297428 0.66100001 9.108597e-39
-0.092539996 0.15297428 0.66100001 8.6498132e-39
-0.091004767 0.15251143 0.65900004 7.7278569e-39
-0.08974953 0.15251143 0.65900004 8.000125e-39
-0.088494293 0.15251143 0.65900004 8.000125e-39
-0.087239049 0.15251143 0.65900004 7.8160757e-39
-0.085983813 0.15251143 0.65900004 7.6316844e-39
-0.084600009 0.15228 0.65800005 7.6306054e-39
-0.083346672 0.15228 0.65800005 7.3540185e-39
-0.082218096 0.15251143 0.65900004 7.5376853e-39
-0.080962859 0.15251143 0.65900004 7.814268e-39
-0.079707623 0.15251143 0.65900004 7.9972215e-39
-0.078452386 0.15251143 0.65900004 7.9050273e-39
-0.077080004 0.15228 0.65800005 8.0897745e-39
-0.075826667 0.15228 0.65800005 8.1819687e-39
-0.073431432 0.15251143 0.65900004 7.8124744e-39
-0.072066672 0.15228 0.65800005 8.3645635e-39
-0.068410479 0.15251143 0.65900004 8.0879808e-39
-0.067155235 0.15251143 0.65900004 8.089057e-39
-0.065900005 0.15251143 0.65900004 7.9968628e-39
-0.064644769 0.15251143 0.65900004 7.997939e-39
-0.061063815 0.15297428 0.66100001 7.9972215e-39
-0.042178098 0.15297428 0.66100001 9.8400383e-39
-0.040919047 0.15297428 0.66100001 1.0393212e-38
-0.039659999 0.15297428 0.66100001 1.0394644e-38
-0.035774291 0.15251143 0.65900004 1.2425482e-38
-0.03451905 0.15251143 0.65900004 1.29801e-38
-0.033364762 0.15297428 0.66100001 1.3717665e-38
-0.032105718 0.15297428 0.66100001 1.335029e-38
-0.030846667 0.15297428 0.66100001 1.0953203e-38
-0.029632382 0.15320572 0.66200006 1.1591441e-38
-0.028414289 0.15343715 0.66300005 1.140705e-38
-0.027192382 0.15366857 0.66400003 1.0945332e-38
-0.024662858 0.15366857 0.66400003 1.0577969e-38
-0.10671143 0.15470001 0.66300005 1.1142695e-38
-0.10528953 0.15446669 0.66200006 1.1047981e-38
-0.10039715 0.15470001 0.66300005 7.6295208e-39
-0.098984763 0.15446669 0.66200006 7.6295208e-39
-0.097723819 0.15446669 0.66200006 8.0883438e-39
-0.096317142 0.15423334 0.66100001 8.6415176e-39
-0.095058098 0.15423334 0.66100001 8.6436573e-39
-0.093799047 0.15423334 0.66100001 9.6578079e-39
-0.092539996 0.15423334 0.66100001 8.6483475e-39
-0.091004767 0.15376668 0.65900004 7.6341956e-39
-0.08974953 0.15376668 0.65900004 7.4451352e-39
-0.088494293 0.15376668 0.65900004 7.1685497e-39
-0.087239049 0.15376668 0.65900004 6.8912495e-39
-0.085983813 0.15376668 0.65900004 6.7990553e-39
-0.084728576 0.15376668 0.65900004 6.5231901e-39
-0.083473332 0.15376668 0.65900004 6.6153843e-39
-0.082218096 0.15376668 0.65900004 6.7068611e-39
-0.080962859 0.15376668 0.65900004 6.8912495e-39
-0.079707623 0.15376668 0.65900004 7.2596677e-39
-0.078452386 0.15376668 0.65900004 7.2596677e-39
-0.077080004 0.15353334 0.65800005 7.7192039e-39
-0.075826667 0.15353334 0.65800005 7.9035924e-39
-0.074573338 0.15353334 0.65800005 7.9968628e-39
-0.072066672 0.15353334 0.65800005 8.6418679e-39
-0.068410479 0.15376668 0.65900004 8.826978e-39
-0.067155235 0.15376668 0.65900004 8.7358614e-39
-0.065900005 0.15376668 0.65900004 8.6436658e-39
-0.064644769 0.15376668 0.65900004 8.5521862e-39
-0.061063815 0.15423334 0.66100001 7.2636152e-39
-0.059804764 0.15423334 0.66100001 7.2600265e-39
-0.057113335 0.15376668 0.65900004 6.7065023e-39
-0.055858098 0.15376668 0.65900004 6.7065023e-39
-0.054602861 0.15376668 0.65900004 7.1656798e-39
-0.053347621 0.15376668 0.65900004 7.2578741e-39
-0.052092385 0.15376668 0.65900004 7.625216e-39
-0.042178098 0.15423334 0.66100001 9.5612948e-39
-0.040919047 0.15423334 0.66100001 9.5612948e-39
-0.039659999 0.15423334 0.66100001 1.002299e-38
-0.038400952 0.15423334 0.66100001 9.8385992e-39
-0.03451905 0.15376668 0.65900004 1.1501002e-38
-0.032154288 0.15446669 0.66200006 1.1777248e-38
-0.030893337 0.15446669 0.66200006 1.214603e-38
-0.029677145 0.15470001 0.66300005 1.2238956e-38
-0.028457144 0.15493333 0.66400003 1.1685782e-38
-0.027274286 0.15539999 0.66600001 1.0946411e-38
-0.10528953 0.15572762 0.66200006 7.813203e-39
-0.10039715 0.15596287 0.66300005 7.0759967e-39
-0.099134296 0.15596287 0.66300005 7.168191e-39
-0.097723819 0.15572762 0.66200006 7.6277272e-39
-0.096317142 0.15549238 0.66100001 7.9043099e-39
-0.095058098 0.15549238 0.66100001 9.6538674e-39
-0.093799047 0.15549238 0.66100001 1.2050954e-38
-0.092539996 0.15549238 0.66100001 1.1225141e-38
-0.091004767 0.15502191 0.65900004 1.1225141e-38
-0.08974953 0.15502191 0.65900004 1.1500298e-38
-0.088494293 0.15502191 0.65900004 1.1684689e-38
-0.087239049 0.15502191 0.65900004 1.3434945e-38
-0.085983813 0.15502191 0.65900004 1.3711532e-38
-0.084728576 0.15502191 0.65900004 1.4171471e-38
-0.083473332 0.15502191 0.65900004 1.463245e-38
-0.082218096 0.15502191 0.65900004 1.5091629e-38
-0.080962859 0.15502191 0.65900004 1.5183824e-38
-0.079707623 0.15502191 0.65900004 1.5183821e-38
-0.078333341 0.15478668 0.65800005 1.5091626e-38
-0.077080004 0.15478668 0.65800005 1.5551874e-38
-0.075826667 0.15478668 0.65800005 1.5920656e-38
-0.074573338 0.15478668 0.65800005 1.582918e-38
-0.073320009 0.15478668 0.65800005 1.6197962e-38
-0.072066672 0.15478668 0.65800005 1.6197962e-38
-0.068410479 0.15502191 0.65900004 1.6012869e-38
-0.067155235 0.15502191 0.65900004 1.6196904e-38
-0.065900005 0.15502191 0.65900004 1.62891e-38
-0.064644769 0.15502191 0.65900004 1.6289806e-38
-0.057113335 0.15502191 0.65900004 1.5830273e-38
-0.055858098 0.15502191 0.65900004 1.5553686e-38
-0.054602861 0.15502191 0.65900004 1.4909405e-38
-0.053347621 0.15502191 0.65900004 1.4448427e-38
-0.052092385 0.15502191 0.65900004 1.3713739e-38
-0.050837144 0.15502191 0.65900004 1.3437152e-38
-0.049581908 0.15502191 0.65900004 1.2978682e-38
-0.048253335 0.15478668 0.65800005 1.2241117e-38
-0.047000002 0.15478668 0.65800005 1.0850346e-38
-0.045816191 0.15502191 0.65900004 9.6518033e-39
-0.043437142 0.15549238 0.66100001 7.8121156e-39
-0.042178098 0.15549238 0.66100001 7.9039511e-39
-0.040919047 0.15549238 0.66100001 7.9961453e-39
-0.039659999 0.15549238 0.66100001 8.7315552e-39
-0.038400952 0.15549238 0.66100001 8.9159465e-39
-0.03451905 0.15502191 0.65900004 1.0112709e-38
-0.032105718 0.15549238 0.66100001 1.1595731e-38
-0.030986669 0.1561981 0.66400003 1.2978665e-38
-0.029721906 0.1561981 0.66400003 1.2519823e-38
-0.028457144 0.1561981 0.66400003 1.1505671e-38
-0.027274286 0.15666857 0.66600001 1.1684692e-38
-0.099134296 0.15722571 0.66300005 6.4317133e-39
-0.097723819 0.15698858 0.66200006 7.1663973e-39
-0.096317142 0.15675142 0.66100001 7.6273684e-39
-0.095058098 0.15675142 0.66100001 1.1405584e-38
-0.093799047 0.15675142 0.66100001 1.2604128e-38
-0.092539996 0.15675142 0.66100001 1.2789242e-38
-0.091004767 0.15627715 0.65900004 1.2697046e-38
-0.08974953 0.15627715 0.65900004 1.3891641e-38
-0.088494293 0.15627715 0.65900004 1.5366771e-38
-0.087239049 0.15627715 0.65900004 1.6009615e-38
-0.085983813 0.15627715 0.65900004 1.6286202e-38
-0.084728576 0.15627715 0.65900004 1.7203126e-38
-0.083473332 0.15627715 0.65900004 1.7479713e-38
-0.082218096 0.15627715 0.65900004 1.7663378e-38
-0.080962859 0.15627715 0.65900004 1.7571183e-38
-0.079707623 0.15627715 0.65900004 1.7936739e-38
-0.078333341 0.15604001 0.65800005 1.7844544e-38
-0.077080004 0.15604001 0.65800005 1.8120403e-38
-0.075826667 0.15604001 0.65800005 1.839699e-38
-0.074573338 0.15604001 0.65800005 1.8305148e-38
-0.073320009 0.15604001 0.65800005 1.8581735e-38
-0.072066672 0.15604001 0.65800005 1.8581735e-38
-0.068410479 0.15627715 0.65900004 1.8673577e-38
-0.067155235 0.15627715 0.65900004 1.8672861e-38
-0.065900005 0.15627715 0.65900004 1.8949448e-38
-0.064644769 0.15627715 0.65900004 1.8857966e-38
-0.057113335 0.15627715 0.65900004 1.8402025e-38
-0.055858098 0.15627715 0.65900004 1.8586416e-38
-0.054602861 0.15627715 0.65900004 1.794609e-38
-0.053347621 0.15627715 0.65900004 1.794609e-38
-0.052092385 0.15627715 0.65900004 1.6754031e-38
-0.050837144 0.15627715 0.65900004 1.6108662e-38
-0.049581908 0.15627715 0.65900004 1.4268349e-38
-0.048253335 0.15604001 0.65800005 1.3622979e-38
-0.047000002 0.15604001 0.65800005 1.2975105e-38
-0.045816191 0.15627715 0.65900004 1.2329735e-38
-0.043437142 0.15675142 0.66100001 8.0937556e-39
-0.042178098 0.15675142 0.66100001 7.0745618e-39
-0.040919047 0.15675142 0.66100001 7.166756e-39
-0.039659999 0.15675142 0.66100001 7.8092528e-39
-0.038400952 0.15675142 0.66100001 8.1780353e-39
-0.028542858 0.15793714 0.66600001 1.2336173e-38
-0.027274286 0.15793714 0.66600001 1.1872697e-38
-0.099134296 0.15848857 0.66300005 1.4267211e-38
-0.097723819 0.15824954 0.66200006 1.4908669e-38
-0.096462868 0.15824954 0.66200006 1.5369648e-38
-0.09520191 0.15824954 0.66200006 1.5644072e-38
-0.093940958 0.15824954 0.66200006 1.5920659e-38
-0.092539996 0.15801048 0.66100001 1.6193654e-38
-0.091004767 0.15753239 0.65900004 1.6009263e-38
-0.08974953 0.15753239 0.65900004 1.637516e-38
-0.088494293 0.15753239 0.65900004 1.6467356e-38
-0.087239049 0.15753239 0.65900004 1.6831107e-38
-0.085983813 0.15753239 0.65900004 1.6462324e-38
-0.084728576 0.15753239 0.65900004 1.7012628e-38
-0.083473332 0.15753239 0.65900004 1.6828237e-38
-0.082218096 0.15753239 0.65900004 1.7102649e-38
-0.080962859 0.15753239 0.65900004 1.7102649e-38
-0.079707623 0.15753239 0.65900004 1.7285622e-38
-0.078333341 0.15729335 0.65800005 1.7101231e-38
-0.077080004 0.15729335 0.65800005 1.7376725e-38
-0.075826667 0.15729335 0.65800005 1.746892e-38
-0.074573338 0.15729335 0.65800005 1.7561822e-38
-0.073320009 0.15729335 0.65800005 1.7654018e-38
-0.072066672 0.15729335 0.65800005 1.7652588e-38
-0.070813335 0.15729335 0.65800005 1.7744784e-38
-0.068410479 0.15753239 0.65900004 1.7928819e-38
-0.067155235 0.15753239 0.65900004 1.8020658e-38
-0.065900005 0.15753239 0.65900004 1.8020658e-38
-0.064644769 0.15753239 0.65900004 1.7929547e-38
-0.063389532 0.15753239 0.65900004 1.8206133e-38
-0.062134288 0.15753239 0.65900004 1.8022457e-38
-0.057113335 0.15753239 0.65900004 1.8117529e-38
-0.055858098 0.15753239 0.65900004 1.8209725e-38
-0.054602861 0.15753239 0.65900004 1.8214366e-38
-0.053347621 0.15753239 0.65900004 1.8675344e-38
-0.052092385 0.15753239 0.65900004 1.8034316e-38
-0.050837144 0.15753239 0.65900004 1.8679685e-38
-0.049581908 0.15753239 0.65900004 1.7762038e-38
-0.048326671 0.15753239 0.65900004 1.7854234e-38
-0.047071431 0.15753239 0.65900004 1.7576955e-38
-0.045816191 0.15753239 0.65900004 1.8683302e-38
-0.043437142 0.15801048 0.66100001 1.7767114e-38
-0.042178098 0.15801048 0.66100001 1.6570018e-38
-0.040919047 0.15801048 0.66100001 1.5555866e-38
-0.039659999 0.15801048 0.66100001 1.482079e-38
-0.038400952 0.15801048 0.66100001 1.2515899e-38
-0.037141904 0.15801048 0.66100001 1.0294629e-38
-0.029856192 0.15944476 0.66700006 1.2243614e-38
-0.028585717 0.15944476 0.66700006 1.2888984e-38
-0.027315238 0.15944476 0.66700006 1.2795356e-38
-0.026044764 0.15944476 0.66700006 1.0490465e-38
-0.099134296 0.15975145 0.66300005 1.6745385e-38
-0.097723819 0.15951048 0.66200006 1.7295672e-38
-0.096462868 0.15951048 0.66200006 1.7111281e-38
-0.09520191 0.15951048 0.66200006 1.7384636e-38
-0.093940958 0.15951048 0.66200006 1.7292441e-38
-0.092539996 0.15926953 0.66100001 1.7474678e-38
-0.091004767 0.15878762 0.65900004 1.7382482e-38
-0.08974953 0.15878762 0.65900004 1.7289564e-38
-0.088494293 0.15878762 0.65900004 1.7289564e-38
-0.087239049 0.15878762 0.65900004 1.7378883e-38
-0.085983813 0.15878762 0.65900004 1.7102296e-38
-0.084728576 0.15878762 0.65900004 1.7377455e-38
-0.083473332 0.15878762 0.65900004 1.7377455e-38
-0.082218096 0.15878762 0.65900004 1.7285961e-38
-0.080962859 0.15878762 0.65900004 1.7193765e-38
-0.079707623 0.15878762 0.65900004 1.7285608e-38
-0.078333341 0.15854667 0.65800005 1.7285608e-38
-0.077080004 0.15854667 0.65800005 1.7377438e-38
-0.075826667 0.15854667 0.65800005 1.7377438e-38
-0.074573338 0.15854667 0.65800005 1.7468917e-38
-0.073320009 0.15854667 0.65800005 1.7561113e-38
-0.072066672 0.15854667 0.65800005 1.7744068e-38
-0.070813335 0.15854667 0.65800005 1.7928459e-38
-0.069665715 0.15878762 0.65900004 1.8021008e-38
-0.068410479 0.15878762 0.65900004 1.8113204e-38
-0.067155235 0.15878762 0.65900004 1.8205043e-38
-0.065900005 0.15878762 0.65900004 1.8205043e-38
-0.064644769 0.15878762 0.65900004 1.8022091e-38
-0.063389532 0.15878762 0.65900004 1.8114287e-38
-0.062134288 0.15878762 0.65900004 1.8114287e-38
-0.060879052 0.15878762 0.65900004 1.8390874e-38
-0.059623811 0.15878762 0.65900004 1.820792e-38
-0.058368575 0.15878762 0.65900004 1.820792e-38
-0.057113335 0.15878762 0.65900004 1.8667091e-38
-0.055858098 0.15878762 0.65900004 1.8759286e-38
-0.054602861 0.15878762 0.65900004 1.8851119e-38
-0.053347621 0.15878762 0.65900004 1.9496488e-38
-0.047071431 0.15878762 0.65900004 1.9316789e-38
-0.045816191 0.15878762 0.65900004 2.0423136e-38
-0.043437142 0.15926953 0.66100001 2.0243788e-38
-0.042178098 0.15926953 0.66100001 1.9236113e-38
-0.040919047 0.15926953 0.66100001 1.8867331e-38
-0.039659999 0.15926953 0.66100001 1.721394e-38
-0.038400952 0.15926953 0.66100001 1.5462223e-38
-0.037141904 0.15926953 0.66100001 1.334243e-38
-0.03326381 0.15878762 0.65900004 1.1219017e-38
-0.023503812 0.16071524 0.66700006 1.122262e-38
-0.099134296 0.1610143 0.66300005 1.5725109e-38
-0.097871438 0.1610143 0.66300005 1.6368311e-38
-0.096462868 0.16077144 0.66200006 1.6276115e-38
-0.09520191 0.16077144 0.66200006 1.6642034e-38
-0.093940958 0.16077144 0.66200006 1.6642034e-38
-0.092539996 0.16052857 0.66100001 1.6825349e-38
-0.091004767 0.16004287 0.65900004 1.6917544e-38
-0.08974953 0.16004287 0.65900004 1.7010453e-38
-0.088494293 0.16004287 0.65900004 1.6918258e-38
-0.087239049 0.16004287 0.65900004 1.7100854e-38
-0.085983813 0.16004287 0.65900004 1.7100854e-38
-0.084728576 0.16004287 0.65900004 1.7193052e-38
-0.083473332 0.16004287 0.65900004 1.7285248e-38
-0.082218096 0.16004287 0.65900004 1.7193402e-38
-0.080962859 0.16004287 0.65900004 1.7009011e-38
-0.079707623 0.16004287 0.65900004 1.7192684e-38
-0.078452386 0.16004287 0.65900004 1.7377075e-38
-0.077197149 0.16004287 0.65900004 1.7468197e-38
-0.075941913 0.16004287 0.65900004 1.7560393e-38
-0.074686669 0.16004287 0.65900004 1.7559679e-38
-0.073431432 0.16004287 0.65900004 1.7559679e-38
-0.072176196 0.16004287 0.65900004 1.765116e-38
-0.070920952 0.16004287 0.65900004 1.8112139e-38
-0.069665715 0.16004287 0.65900004 1.7928819e-38
-0.068410479 0.16004287 0.65900004 1.8113211e-38
-0.067155235 0.16004287 0.65900004 1.8022091e-38
-0.065900005 0.16004287 0.65900004 1.7929896e-38
-0.064644769 0.16004287 0.65900004 1.8022091e-38
-0.063389532 0.16004287 0.65900004 1.8022091e-38
-0.062134288 0.16004287 0.65900004 1.8206466e-38
-0.060879052 0.16004287 0.65900004 1.8298661e-38
-0.059623811 0.16004287 0.65900004 1.8299384e-38
-0.058368575 0.16004287 0.65900004 1.8114993e-38
-0.057113335 0.16004287 0.65900004 1.848269e-38
-0.055858098 0.16004287 0.65900004 1.848269e-38
-0.054602861 0.16004287 0.65900004 1.8573816e-38
-0.047071431 0.16004287 0.65900004 1.8573831e-38
-0.045816191 0.16004287 0.65900004 1.8573831e-38
-0.044560954 0.16004287 0.65900004 1.8484154e-38
-0.042178098 0.16052857 0.66100001 1.867571e-38
-0.040919047 0.16052857 0.66100001 1.9321079e-38
-0.039659999 0.16052857 0.66100001 1.8313064e-38
-0.038400952 0.16052857 0.66100001 1.9142824e-38
-0.037141904 0.16052857 0.66100001 1.7395435e-38
-0.03588286 0.16052857 0.66100001 1.5643718e-38
-0.023503812 0.16198573 0.66700006 1.205527e-38
-0.10560763 0.16252191 0.66400003 1.7299642e-38
-0.10434286 0.16252191 0.66400003 1.6930859e-38
-0.10292286 0.16227715 0.66300005 1.692295e-38
-0.10166001 0.16227715 0.66300005 1.6461972e-38
-0.099134296 0.16227715 0.66300005 1.6273967e-38
-0.097871438 0.16227715 0.66300005 1.6365803e-38
-0.096462868 0.1620324 0.66200006 1.6550194e-38
