# .PCD v0.7 - Point Cloud Data file format
VERSION 0.7
FIELDS x y z rgb
SIZE 4 4 4 4
TYPE F F F F
COUNT 1 1 1 1
WIDTH 319
HEIGHT 1
VIEWPOINT 0 0 0 1 0 0 0
POINTS 319
DATA ascii
-0.045348573 -0.15945143 1.536 1.649903e-38
-0.042422857 -0.15945143 1.536 1.6683421e-38
-0.039497141 -0.15945143 1.536 1.6775977e-38
-0.027667619 -0.15872477 1.529 1.7052929e-38
-0.045348573 -0.15652572 1.536 1.7054024e-38
-0.042422857 -0.15652572 1.536 1.7699393e-38
-0.036261909 -0.14939906 1.5230001 1.8162529e-38
-0.033360954 -0.14939906 1.5230001 1.8438763e-38
-0.01024 -0.1506743 1.536 1.3371238e-38
-0.039162859 -0.1464981 1.5230001 1.7056182e-38
-0.036261909 -0.1464981 1.5230001 1.751716e-38
-0.033360954 -0.1464981 1.5230001 1.7516444e-38
-0.030460002 -0.1464981 1.5230001 1.7516444e-38
-0.0073142857 -0.14774857 1.536 1.1064555e-38
-0.048054285 -0.14416286 1.529 1.6593418e-38
-0.045141906 -0.14416286 1.529 1.6317182e-38
-0.039162859 -0.14359716 1.5230001 1.6687762e-38
-0.036261909 -0.14359716 1.5230001 1.6872153e-38
-0.033360954 -0.14359716 1.5230001 1.696363e-38
-0.030460002 -0.14359716 1.5230001 1.696363e-38
-0.048274286 -0.14189714 1.536 1.7606131e-38
-0.045141906 -0.14125048 1.529 1.714694e-38
-0.042229522 -0.14125048 1.529 1.7607918e-38
-0.036261909 -0.14069621 1.5230001 1.7885224e-38
-0.033360954 -0.14069621 1.5230001 1.7793394e-38
-0.030460002 -0.14069621 1.5230001 1.7885589e-38
-0.016091429 -0.14189714 1.536 1.6871788e-38
-0.045141906 -0.1383381 1.529 1.7513923e-38
-0.042229522 -0.1383381 1.529 1.779051e-38
-0.036261909 -0.13779525 1.5230001 1.8068899e-38
-0.033360954 -0.13779525 1.5230001 1.7885589e-38
-0.030460002 -0.13779525 1.5230001 1.7885589e-38
-0.036261909 -0.1348943 1.5230001 1.1798517e-38
-0.033360954 -0.1348943 1.5230001 1.0693974e-38
-0.030460002 -0.1348943 1.5230001 9.495431e-39
-0.06025048 -0.13372667 1.5430001 4.5057295e-39
-0.044758096 -0.13138667 1.516 2.1194079e-39
-0.041870475 -0.13138667 1.516 1.1052559e-39
-0.030460002 -0.13199335 1.5230001 1.1034609e-39
-0.044758096 -0.12849905 1.516 6.3398778e-39
-0.041870475 -0.12849905 1.516 6.2476836e-39
-0.039317142 -0.12960096 1.529 7.3529395e-39
-0.050966669 -0.12668858 1.529 9.0970979e-39
-0.044758096 -0.12561142 1.516 1.0016902e-38
-0.036404762 -0.12668858 1.529 1.2692358e-38
-0.033492379 -0.12668858 1.529 1.1500298e-38
-0.030580001 -0.12668858 1.529 1.0209559e-38
-0.048054285 -0.12377618 1.529 9.8375398e-39
-0.045141906 -0.12377618 1.529 9.9297382e-39
-0.039162859 -0.12329049 1.5230001 1.0206712e-38
-0.036261909 -0.12329049 1.5230001 1.1681842e-38
-0.033360954 -0.12329049 1.5230001 1.1224437e-38
-0.030580001 -0.12377618 1.529 1.0855655e-38
-0.048054285 -0.12086381 1.529 9.5681332e-39
-0.045141906 -0.12086381 1.529 9.9337151e-39
-0.042063814 -0.12038954 1.5230001 1.0763476e-38
-0.039162859 -0.12038954 1.5230001 1.0397933e-38
-0.036261909 -0.12038954 1.5230001 1.0858911e-38
-0.033360954 -0.12038954 1.5230001 1.1226972e-38
-0.030460002 -0.12038954 1.5230001 1.1134776e-38
-0.024755238 -0.12086381 1.529 9.0099399e-39
-0.048054285 -0.11795143 1.529 8.8334296e-39
-0.045141906 -0.11795143 1.529 8.5608672e-39
-0.042063814 -0.11748858 1.5230001 9.2984323e-39
-0.039162859 -0.11748858 1.5230001 1.0131405e-38
-0.036261909 -0.11748858 1.5230001 1.0500187e-38
-0.033360954 -0.11748858 1.5230001 1.0684591e-38
-0.030460002 -0.11748858 1.5230001 1.0315809e-38
-0.024755238 -0.11795143 1.529 9.1021496e-39
-0.013225715 -0.11903144 1.5430001 9.9239775e-39
-0.066128574 -0.11609239 1.5430001 3.9550388e-39
-0.048054285 -0.11503904 1.529 7.9132908e-39
-0.045141906 -0.11503904 1.529 6.8178075e-39
-0.042063814 -0.11458763 1.5230001 8.1085463e-39
-0.039162859 -0.11458763 1.5230001 8.1110448e-39
-0.036261909 -0.11458763 1.5230001 8.572023e-39
-0.033360954 -0.11458763 1.5230001 9.4936317e-39
-0.030460002 -0.11458763 1.5230001 7.926306e-39
-0.013225715 -0.11609239 1.5430001 1.0108369e-38
-0.066128574 -0.11315334 1.5430001 4.4156792e-39
-0.063189529 -0.11315334 1.5430001 6.9852374e-39
-0.048054285 -0.11212667 1.529 9.1118438e-39
-0.045141906 -0.11212667 1.529 7.466051e-39
-0.042063814 -0.11168668 1.5230001 8.1114204e-39
-0.039162859 -0.11168668 1.5230001 7.8366159e-39
-0.036261909 -0.11168668 1.5230001 7.8366159e-39
-0.033360954 -0.11168668 1.5230001 9.3106642e-39
-0.030460002 -0.11168668 1.5230001 7.8355341e-39
-0.027667619 -0.11212667 1.529 8.7391222e-39
-0.063189529 -0.11021429 1.5430001 7.0777918e-39
-0.048054285 -0.10921429 1.529 9.7529e-39
-0.045141906 -0.10921429 1.529 7.1894444e-39
-0.042063814 -0.10878572 1.5230001 7.7426182e-39
-0.039162859 -0.10878572 1.5230001 7.1011991e-39
-0.036261909 -0.10878572 1.5230001 7.2855903e-39
-0.033360954 -0.10878572 1.5230001 8.574897e-39
-0.030460002 -0.10878572 1.5230001 7.4685495e-39
-0.027667619 -0.10921429 1.529 9.0167769e-39
-0.048054285 -0.10630191 1.529 1.149853e-38
-0.045141906 -0.10630191 1.529 9.7593642e-39
-0.042063814 -0.10588477 1.5230001 1.0128147e-38
-0.039162859 -0.10588477 1.5230001 1.0498719e-38
-0.036261909 -0.10588477 1.5230001 1.0959697e-38
-0.033360954 -0.10588477 1.5230001 1.1144088e-38
-0.030460002 -0.10588477 1.5230001 1.0775306e-38
-0.027667619 -0.10630191 1.529 1.0762387e-38
-0.048054285 -0.10338953 1.529 1.1862986e-38
-0.045141906 -0.10338953 1.529 1.0946761e-38
-0.042063814 -0.10298382 1.5230001 1.140774e-38
-0.039162859 -0.10298382 1.5230001 1.1776169e-38
-0.036261909 -0.10298382 1.5230001 1.2513734e-38
-0.033360954 -0.10298382 1.5230001 1.251409e-38
-0.030460002 -0.10298382 1.5230001 1.2882872e-38
-0.027667619 -0.10338953 1.529 1.232576e-38
-0.0014561905 -0.10338953 1.529 4.1397902e-39
-0.048054285 -0.10047714 1.529 7.4426283e-39
-0.045141906 -0.10047714 1.529 7.5337645e-39
-0.039162859 -0.10008286 1.5230001 7.9015059e-39
-0.036261909 -0.10008286 1.5230001 8.9156578e-39
-0.033492379 -0.10047714 1.529 8.4603633e-39
-0.030580001 -0.10047714 1.529 8.7369502e-39
-0.027667619 -0.10047714 1.529 8.086588e-39
-0.021842858 -0.10047714 1.529 7.4408654e-39
-0.0014561905 -0.10047714 1.529 4.0475946e-39
0.0014628571 -0.10093714 1.536 2.030822e-39
-0.048054285 -0.097564764 1.529 4.7786758e-39
-0.045141906 -0.097564764 1.529 4.6864802e-39
-0.042229522 -0.097564764 1.529 5.0552627e-39
-0.039317142 -0.097564764 1.529 4.4106444e-39
-0.036404762 -0.097564764 1.529 6.3467526e-39
-0.033492379 -0.097564764 1.529 5.887278e-39
-0.030580001 -0.097564764 1.529 5.7950824e-39
-0.027667619 -0.097564764 1.529 4.5035715e-39
-0.048054285 -0.094652385 1.529 5.2396539e-39
-0.045141906 -0.094652385 1.529 4.8708714e-39
-0.042229522 -0.094652385 1.529 5.2396539e-39
-0.039317142 -0.094652385 1.529 6.9914158e-39
-0.036404762 -0.094652385 1.529 1.3076327e-38
-0.033492379 -0.094652385 1.529 1.418953e-38
-0.030580001 -0.094652385 1.529 1.3912943e-38
-0.027667619 -0.094652385 1.529 1.2810802e-38
-0.042229522 -0.091740005 1.529 5.2378589e-39
-0.039317142 -0.091740005 1.529 8.4657975e-39
-0.036404762 -0.091740005 1.529 1.3813144e-38
-0.033492379 -0.091740005 1.529 1.5387335e-38
-0.030580001 -0.091740005 1.529 1.5756117e-38
-0.027667619 -0.091740005 1.529 1.4284575e-38
-0.042422857 -0.089234285 1.536 4.8687232e-39
-0.039497141 -0.089234285 1.536 5.4204775e-39
-0.036404762 -0.088827625 1.529 1.2519541e-38
-0.033492379 -0.088827625 1.529 1.4465995e-38
-0.024981905 -0.08964096 1.5430001 4.3266716e-39
-0.059977144 -0.086308569 1.536 4.8726791e-39
-0.042422857 -0.086308569 1.536 4.7768807e-39
-0.039497141 -0.086308569 1.536 4.8694337e-39
-0.036571428 -0.086308569 1.536 1.2152884e-38
-0.033645712 -0.086308569 1.536 1.1237112e-38
-0.030720001 -0.086308569 1.536 1.5201524e-38
-0.042422857 -0.08338286 1.536 5.2367799e-39
-0.039497141 -0.08338286 1.536 5.3289783e-39
-0.036571428 -0.08338286 1.536 1.3073411e-38
-0.033645712 -0.08338286 1.536 1.3815013e-38
-0.030720001 -0.08338286 1.536 1.6580882e-38
-0.057311434 -0.080823816 1.5430001 5.5148017e-39
-0.042422857 -0.080457143 1.536 5.3289755e-39
-0.039497141 -0.080457143 1.536 6.340982e-39
-0.036571428 -0.080457143 1.536 1.3255654e-38
-0.033645712 -0.080457143 1.536 1.4002255e-38
-0.030720001 -0.080457143 1.536 1.5661776e-38
-0.024981905 -0.080823816 1.5430001 3.7707078e-39
-0.042422857 -0.077531427 1.536 5.4211711e-39
-0.039497141 -0.077531427 1.536 6.5279069e-39
-0.036571428 -0.077531427 1.536 1.215184e-38
-0.033645712 -0.077531427 1.536 1.3634138e-38
-0.030720001 -0.077531427 1.536 1.6031224e-38
-0.027794285 -0.077531427 1.536 1.3819628e-38
-0.024981905 -0.077884771 1.5430001 5.3376299e-39
-0.042422857 -0.074605711 1.536 5.8828527e-39
-0.033645712 -0.074605711 1.536 1.0776089e-38
-0.030720001 -0.074605711 1.536 1.4095132e-38
-0.027794285 -0.074605711 1.536 1.3360094e-38
-0.036404762 -0.071353339 1.529 7.7317932e-39
-0.033492379 -0.071353339 1.529 7.8196728e-39
-0.030580001 -0.071353339 1.529 8.0040641e-39
-0.027667619 -0.071353339 1.529 7.9147453e-39
-0.024755238 -0.071353339 1.529 7.5459628e-39
-0.047645714 -0.067859046 1.516 7.3565409e-39
-0.033492379 -0.068440951 1.529 7.6385144e-39
-0.030580001 -0.068440951 1.529 6.8087537e-39
-0.027667619 -0.068440951 1.529 6.9945813e-39
-0.024755238 -0.068440951 1.529 7.6399507e-39
-0.066128574 -0.066128574 1.5430001 4.3234654e-39
-0.063189529 -0.066128574 1.5430001 5.7910327e-39
-0.047645714 -0.064971432 1.516 7.4483988e-39
-0.044758096 -0.064971432 1.516 7.4533916e-39
-0.039162859 -0.06527143 1.5230001 7.9165208e-39
-0.036261909 -0.06527143 1.5230001 7.8243251e-39
-0.033492379 -0.065528572 1.529 7.7310603e-39
-0.030580001 -0.065528572 1.529 7.7310603e-39
-0.027667619 -0.065528572 1.529 7.7325023e-39
-0.066128574 -0.063189529 1.5430001 4.6911647e-39
-0.047645714 -0.062083811 1.516 6.8962816e-39
-0.044758096 -0.062083811 1.516 6.7126106e-39
-0.042063814 -0.062370483 1.5230001 6.7126106e-39
-0.039162859 -0.062370483 1.5230001 6.9873898e-39
-0.036261909 -0.062370483 1.5230001 6.8951956e-39
-0.033360954 -0.062370483 1.5230001 6.9866822e-39
-0.066128574 -0.06025048 1.5430001 6.0690545e-39
-0.042063814 -0.059469528 1.5230001 6.159455e-39
-0.039162859 -0.059469528 1.5230001 6.1597942e-39
-0.036261909 -0.059469528 1.5230001 6.0675999e-39
-0.033360954 -0.059469528 1.5230001 6.341338e-39
-0.030460002 -0.059469528 1.5230001 5.8803598e-39
-0.042063814 -0.056568574 1.5230001 5.8861052e-39
-0.039162859 -0.056568574 1.5230001 6.4367426e-39
-0.036261909 -0.056568574 1.5230001 6.344547e-39
-0.033360954 -0.056568574 1.5230001 5.6995405e-39
-0.030460002 -0.056568574 1.5230001 5.4229578e-39
-0.044964768 -0.053667624 1.5230001 6.0694272e-39
-0.042063814 -0.053667624 1.5230001 6.2538185e-39
-0.039162859 -0.053667624 1.5230001 6.9931786e-39
-0.036261909 -0.053667624 1.5230001 8.0995261e-39
-0.033360954 -0.053667624 1.5230001 7.7346476e-39
-0.060523812 -0.05166667 1.5500001 5.5176632e-39
-0.057571433 -0.05166667 1.5500001 5.9775819e-39
-0.054372385 -0.051433336 1.5430001 5.7931907e-39
-0.039162859 -0.050766669 1.5230001 6.3470833e-39
-0.033492379 -0.050966669 1.529 7.6424744e-39
-0.054372385 -0.048494287 1.5430001 7.4466037e-39
-0.051433336 -0.048494287 1.5430001 8.1841436e-39
-0.057571433 -0.045761906 1.5500001 7.8114052e-39
-0.039497141 -0.045348573 1.536 1.1311602e-38
-0.036571428 -0.045348573 1.536 1.1311602e-38
-0.033645712 -0.045348573 1.536 1.1589627e-38
-0.030720001 -0.045348573 1.536 1.2419387e-38
-0.039497141 -0.042422857 1.536 1.1124333e-38
-0.036571428 -0.042422857 1.536 1.1954093e-38
-0.033645712 -0.042422857 1.536 1.1402722e-38
-0.030720001 -0.042422857 1.536 1.1771504e-38
-0.027794285 -0.042422857 1.536 1.1773309e-38
-0.039497141 -0.039497141 1.536 1.1399487e-38
-0.036571428 -0.039497141 1.536 1.1952661e-38
-0.033645712 -0.039497141 1.536 1.1770069e-38
-0.030720001 -0.039497141 1.536 1.2323243e-38
-0.027794285 -0.039497141 1.536 1.1865498e-38
-0.039497141 -0.036571428 1.536 1.1032137e-38
-0.036571428 -0.036571428 1.536 1.1861898e-38
-0.033645712 -0.036571428 1.536 1.1770777e-38
-0.030720001 -0.036571428 1.536 1.2231755e-38
-0.027794285 -0.036571428 1.536 1.2140289e-38
-0.039497141 -0.033645712 1.536 1.1035021e-38
-0.036571428 -0.033645712 1.536 1.1219412e-38
-0.033645712 -0.033645712 1.536 1.2047364e-38
-0.039497141 -0.030720001 1.536 1.0762387e-38
-0.036571428 -0.030720001 1.536 1.0762387e-38
-0.033645712 -0.030720001 1.536 1.1770069e-38
-0.030720001 -0.030720001 1.536 1.2138852e-38
-0.039497141 -0.027794285 1.536 1.0214241e-38
-0.036571428 -0.027794285 1.536 1.0398632e-38
-0.033645712 -0.027794285 1.536 1.1495277e-38
-0.030720001 -0.027794285 1.536 1.2232842e-38
-0.039497141 -0.02486857 1.536 1.02135e-38
-0.036571428 -0.02486857 1.536 1.0305695e-38
-0.033645712 -0.02486857 1.536 1.1769349e-38
-0.039497141 -0.021942858 1.536 1.0117717e-38
-0.036571428 -0.021942858 1.536 1.0763086e-38
-0.033645712 -0.021942858 1.536 1.1675704e-38
-0.030720001 -0.021942858 1.536 1.17679e-38
-0.027794285 -0.021942858 1.536 1.1491651e-38
-0.039497141 -0.019017143 1.536 9.8375538e-39
-0.036571428 -0.019017143 1.536 8.7312063e-39
-0.033645712 -0.019017143 1.536 9.8296267e-39
-0.030720001 -0.019017143 1.536 1.1673534e-38
-0.027794285 -0.019017143 1.536 1.2701713e-38
-0.039497141 -0.016091429 1.536 9.1907243e-39
-0.036571428 -0.016091429 1.536 9.3751127e-39
-0.033645712 -0.016091429 1.536 1.0200556e-38
-0.030720001 -0.016091429 1.536 1.2874222e-38
-0.027794285 -0.016091429 1.536 1.5193538e-38
-0.051433336 -0.013225715 1.5430001 8.6537817e-39
-0.039497141 -0.013165714 1.536 1.6032893e-38
-0.036571428 -0.013165714 1.536 1.6862654e-38
-0.033645712 -0.013165714 1.536 1.8522968e-38
-0.030720001 -0.013165714 1.536 1.9444925e-38
-0.033799049 -0.010286667 1.5430001 1.7514273e-38
-0.030860003 -0.010286667 1.5430001 1.8159643e-38
-0.033799049 -0.0073476196 1.5430001 1.7421727e-38
-0.030860003 -0.0073476196 1.5430001 1.7974901e-38
-0.027920954 -0.0073476196 1.5430001 1.7883419e-38
0.022042859 -0.0073476196 1.5430001 1.0683851e-38
-0.033799049 -0.0044085714 1.5430001 1.6961475e-38
-0.030860003 -0.0044085714 1.5430001 1.7422453e-38
-0.027920954 -0.0044085714 1.5430001 1.7607197e-38
-0.033799049 -0.0014695239 1.5430001 1.7421724e-38
-0.030860003 -0.0014695239 1.5430001 1.7421724e-38
-0.027920954 -0.0014695239 1.5430001 1.6771338e-38
-0.033799049 0.0014695239 1.5430001 1.7606116e-38
-0.030860003 0.0014695239 1.5430001 1.5854399e-38
-0.027920954 0.0014695239 1.5430001 1.6306703e-38
-0.025095237 0.0014761905 1.5500001 9.7608131e-39
-0.036738094 0.0044085714 1.5430001 1.7515002e-38
-0.033799049 0.0044085714 1.5430001 1.8157131e-38
-0.030860003 0.0044085714 1.5430001 1.2625394e-38
-0.025095237 0.0044285716 1.5500001 1.2977226e-38
-0.031000003 0.0073809526 1.5500001 1.1150264e-38
-0.028047619 0.0073809526 1.5500001 1.0202708e-38
-0.028047619 0.010333333 1.5500001 1.1217611e-38
-0.028047619 0.013285715 1.5500001 1.2507987e-38
-0.028047619 0.016238095 1.5500001 1.1593573e-38
-0.028047619 0.019190477 1.5500001 1.0679169e-38
-0.025321906 0.025321906 1.5640001 1.0320831e-38
-0.025321906 0.028300956 1.5640001 1.2618868e-38
-0.025321906 0.03128 1.5640001 1.381059e-38
-0.025321906 0.034259051 1.5640001 1.1865858e-38
-0.025321906 0.037238099 1.5640001 1.1955898e-38
0.007414286 0.051900003 1.557 5.5144458e-39
0.007414286 0.054865714 1.557 5.5147933e-39
-0.022342859 0.061070483 1.5640001 8.1038674e-39
-0.022242859 0.072659999 1.557 7.8229645e-39
