# .PCD v0.7 - Point Cloud Data file format
VERSION 0.7
FIELDS x y z rgb
SIZE 4 4 4 4
TYPE F F F F
COUNT 1 1 1 1
WIDTH 980
HEIGHT 1
VIEWPOINT 0 0 0 1 0 0 0
POINTS 980
DATA ascii
-0.078361906 0.08742857 0.68000001 2.0507378e-38
-0.076953337 0.087300003 0.67900002 1.6749728e-38
-0.075548574 0.087171435 0.67800003 1.7671684e-38
-0.070590481 0.08742857 0.68000001 1.5469769e-38
-0.069295242 0.08742857 0.68000001 1.5380097e-38
-0.068000004 0.08742857 0.68000001 1.5472293e-38
-0.066704765 0.08742857 0.68000001 1.5380107e-38
-0.065409526 0.08742857 0.68000001 1.5380107e-38
-0.064114287 0.08742857 0.68000001 1.667047e-38
-0.060051434 0.087171435 0.67800003 1.842216e-38
-0.058760002 0.087171435 0.67800003 1.9716454e-38
-0.057468574 0.087171435 0.67800003 2.0361824e-38
-0.056177147 0.087171435 0.67800003 1.9430982e-38
-0.054966666 0.087300003 0.67900002 1.9062199e-38
-0.053752381 0.08742857 0.68000001 2.061784e-38
-0.052457143 0.08742857 0.68000001 1.5086133e-38
-0.051161904 0.08742857 0.68000001 1.9022922e-38
-0.049866665 0.08742857 0.68000001 2.012927e-38
-0.048714288 0.087685719 0.68200004 1.9119071e-38
-0.047415242 0.087685719 0.68200004 1.893468e-38
-0.046183813 0.087814286 0.68300003 1.8842121e-38
-0.04494857 0.087942861 0.68400002 1.8381143e-38
-0.04246667 0.08820001 0.68600005 1.8658799e-38
-0.041220002 0.08832857 0.68700004 1.7744396e-38
-0.03991143 0.08832857 0.68700004 1.7836591e-38
-0.038771432 0.088714294 0.69000006 1.6275762e-38
-0.037511431 0.088842861 0.69100004 1.378648e-38
-0.0363 0.089099996 0.69300002 1.1668165e-38
-0.033708572 0.08922857 0.69400001 7.7166928e-39
-0.032480001 0.08948572 0.69600004 1.2695251e-38
-0.099475242 0.091463812 0.70100003 1.613061e-38
-0.095838092 0.090550475 0.69400001 1.4470736e-38
-0.094516195 0.090550475 0.69400001 1.3265346e-38
-0.093060002 0.09042 0.69300002 5.5209128e-39
-0.091475241 0.090159051 0.69100004 1.1207877e-38
-0.090028577 0.090028577 0.69000006 1.2959584e-38
-0.08820001 0.089506678 0.68600005 1.3323322e-38
-0.086893335 0.089506678 0.68600005 1.4060887e-38
-0.085337147 0.089245714 0.68400002 1.4792335e-38
-0.084034286 0.089245714 0.68400002 1.5253313e-38
-0.08261048 0.089115247 0.68300003 1.5802537e-38
-0.079657145 0.088723809 0.68000001 1.6446814e-38
-0.078361906 0.088723809 0.68000001 2.0503422e-38
-0.076953337 0.088593334 0.67900002 1.8302277e-38
-0.075548574 0.088462859 0.67800003 2.1621319e-38
-0.074257143 0.088462859 0.67800003 2.219212e-38
-0.070486665 0.088593334 0.67900002 2.1092976e-38
-0.068000004 0.088723809 0.68000001 2.1461043e-38
-0.066704765 0.088723809 0.68000001 2.219681e-38
-0.065409526 0.088723809 0.68000001 2.2289006e-38
-0.060051434 0.088462859 0.67800003 2.1552873e-38
-0.058760002 0.088462859 0.67800003 2.2285742e-38
-0.057468574 0.088462859 0.67800003 2.2562329e-38
-0.056177147 0.088462859 0.67800003 2.1356625e-38
-0.054966666 0.088593334 0.67900002 1.914393e-38
-0.053752381 0.088723809 0.68000001 1.8663087e-38
-0.052457143 0.088723809 0.68000001 1.7925522e-38
-0.051312383 0.088984765 0.68200004 1.9394226e-38
-0.050013337 0.088984765 0.68200004 1.9578617e-38
-0.048714288 0.088984765 0.68200004 1.9303462e-38
-0.047484763 0.089115247 0.68300003 1.9672245e-38
-0.046183813 0.089115247 0.68300003 1.9121945e-38
-0.04494857 0.089245714 0.68400002 1.9029749e-38
-0.043645717 0.089245714 0.68400002 1.8754617e-38
-0.04246667 0.089506678 0.68600005 1.9492182e-38
-0.041220002 0.089637145 0.68700004 1.8024605e-38
-0.03991143 0.089637145 0.68700004 1.7748018e-38
-0.038771432 0.090028577 0.69000006 1.4437987e-38
-0.037620001 0.09042 0.69300002 1.1026749e-38
-0.093060002 0.091740005 0.69300002 4.5074741e-39
-0.091475241 0.091475241 0.69100004 9.6459557e-39
-0.090028577 0.091342866 0.69000006 1.1582064e-38
-0.08820001 0.090813339 0.68600005 1.3323682e-38
-0.086893335 0.090813339 0.68600005 1.4522225e-38
-0.085337147 0.090548575 0.68400002 1.5253669e-38
-0.084034286 0.090548575 0.68400002 1.5161473e-38
-0.08261048 0.090416193 0.68300003 1.5985859e-38
-0.081190482 0.090283811 0.68200004 1.6354641e-38
-0.079657145 0.090019047 0.68000001 1.6538284e-38
-0.078361906 0.090019047 0.68000001 1.6999262e-38
-0.076953337 0.089886673 0.67900002 1.6996383e-38
-0.075548574 0.089754291 0.67800003 1.7641751e-38
-0.074257143 0.089754291 0.67800003 1.7464932e-38
-0.070486665 0.089886673 0.67900002 1.7194091e-38
-0.069193333 0.089886673 0.67900002 1.7561081e-38
-0.068000004 0.090019047 0.68000001 1.7745472e-38
-0.066704765 0.090019047 0.68000001 1.8021346e-38
-0.065409526 0.090019047 0.68000001 1.8113541e-38
-0.064114287 0.090019047 0.68000001 1.8204295e-38
-0.061342862 0.089754291 0.67800003 1.8203929e-38
-0.060051434 0.089754291 0.67800003 1.7927342e-38
-0.058760002 0.089754291 0.67800003 1.8199976e-38
-0.057468574 0.089754291 0.67800003 1.8015585e-38
-0.056177147 0.089754291 0.67800003 1.8474042e-38
-0.054966666 0.089886673 0.67900002 1.893502e-38
-0.053752381 0.090019047 0.68000001 1.93038e-38
-0.052457143 0.090019047 0.68000001 1.9856974e-38
-0.051312383 0.090283811 0.68200004 1.967404e-38
-0.050013337 0.090283811 0.68200004 1.967404e-38
-0.048714288 0.090283811 0.68200004 1.9217378e-38
-0.047484763 0.090416193 0.68300003 1.9217378e-38
-0.046183813 0.090416193 0.68300003 1.8022775e-38
-0.04494857 0.090548575 0.68400002 1.6547645e-38
-0.043645717 0.090548575 0.68400002 1.5623232e-38
-0.04246667 0.090813339 0.68600005 1.4885667e-38
-0.041220002 0.090945721 0.68700004 1.2769121e-38
-0.037511431 0.091475241 0.69100004 1.0564312e-38
-0.094379999 0.093060002 0.69300002 1.1240639e-38
-0.092791438 0.092791438 0.69100004 2.9430407e-39
-0.091475241 0.092791438 0.69100004 7.992558e-39
-0.090028577 0.092657149 0.69000006 1.0297439e-38
-0.08820001 0.092120007 0.68600005 1.3142543e-38
-0.086893335 0.092120007 0.68600005 1.5263042e-38
-0.085337147 0.091851428 0.68400002 1.5904449e-38
-0.084034286 0.091851428 0.68400002 1.5535666e-38
-0.08261048 0.091717146 0.68300003 1.654084e-38
-0.079657145 0.091314279 0.68000001 1.7095073e-38
-0.078361906 0.091314279 0.68000001 1.7648247e-38
-0.076953337 0.091180004 0.67900002 1.7552805e-38
-0.075659998 0.091180004 0.67900002 1.6999631e-38
-0.074257143 0.091045722 0.67800003 1.7641047e-38
-0.070590481 0.091314279 0.68000001 1.9022194e-38
-0.062726662 0.091180004 0.67900002 1.8564092e-38
-0.061433338 0.091180004 0.67900002 1.9022196e-38
-0.060140003 0.091180004 0.67900002 1.9114392e-38
-0.058760002 0.091045722 0.67800003 1.9298781e-38
-0.057468574 0.091045722 0.67800003 1.994415e-38
-0.056177147 0.091045722 0.67800003 1.9947755e-38
-0.053910479 0.091582857 0.68200004 2.0136107e-38
-0.052611433 0.091582857 0.68200004 2.0689281e-38
-0.051312383 0.091582857 0.68200004 2.0323382e-38
-0.050013337 0.091582857 0.68200004 2.0415578e-38
-0.048714288 0.091582857 0.68200004 1.9406095e-38
-0.047484763 0.091717146 0.68300003 1.9313899e-38
-0.046251431 0.091851428 0.68400002 1.5999178e-38
-0.04494857 0.091851428 0.68400002 1.5999178e-38
-0.043773334 0.092120007 0.68600005 1.2228526e-38
-0.04246667 0.092120007 0.68600005 9.1860706e-39
-0.037511431 0.092791438 0.69100004 9.0081323e-39
-0.094379999 0.094379999 0.69300002 1.0871143e-38
-0.092791438 0.09410762 0.69100004 3.2189059e-39
-0.091475241 0.09410762 0.69100004 6.9816501e-39
-0.090028577 0.093971431 0.69000006 7.8114052e-39
-0.088457145 0.093699045 0.68800002 9.7381513e-39
-0.086893335 0.093426675 0.68600005 1.0106934e-38
-0.085337147 0.093154289 0.68400002 1.2311337e-38
-0.084034286 0.093154289 0.68400002 1.3233287e-38
-0.08261048 0.0930181 0.68300003 1.4613329e-38
-0.08130952 0.0930181 0.68300003 1.4613329e-38
-0.079657145 0.092609517 0.68000001 1.618279e-38
-0.078361906 0.092609517 0.68000001 1.6459377e-38
-0.076953337 0.092473336 0.67900002 1.6733488e-38
-0.075659998 0.092473336 0.67900002 1.7010075e-38
-0.074366666 0.092473336 0.67900002 1.7468547e-38
-0.073073335 0.092473336 0.67900002 1.783733e-38
-0.070590481 0.092609517 0.68000001 1.903481e-38
-0.064114287 0.092609517 0.68000001 1.9038028e-38
-0.062726662 0.092473336 0.67900002 1.8853637e-38
-0.061433338 0.092473336 0.67900002 1.8760713e-38
-0.060140003 0.092473336 0.67900002 1.8576322e-38
-0.058760002 0.092337146 0.67800003 1.8573803e-38
-0.057468574 0.092337146 0.67800003 1.8389412e-38
-0.056177147 0.092337146 0.67800003 1.8206819e-38
-0.055047616 0.092609517 0.68000001 1.7653645e-38
-0.053752381 0.092609517 0.68000001 1.6825716e-38
-0.052457143 0.092609517 0.68000001 1.6272542e-38
-0.051312383 0.092881911 0.68200004 1.4884248e-38
-0.050013337 0.092881911 0.68200004 1.4792052e-38
-0.048714288 0.092881911 0.68200004 1.3320497e-38
-0.047484763 0.0930181 0.68300003 1.2951714e-38
-0.046251431 0.093154289 0.68400002 1.2126233e-38
-0.04494857 0.093154289 0.68400002 1.1757455e-38
-0.043773334 0.093426675 0.68600005 1.0106211e-38
-0.094379999 0.095700003 0.69300002 9.8576919e-39
-0.092791438 0.095423818 0.69100004 3.496206e-39
-0.091475241 0.095423818 0.69100004 5.5140758e-39
-0.090028577 0.095285721 0.69000006 5.8828555e-39
-0.088457145 0.095009528 0.68800002 6.6153843e-39
-0.086893335 0.094733343 0.68600005 6.3388016e-39
-0.085586667 0.094733343 0.68600005 7.7170515e-39
-0.084034286 0.094457142 0.68400002 8.3624125e-39
-0.082731433 0.094457142 0.68400002 1.1852164e-38
-0.08130952 0.094319053 0.68300003 1.3972664e-38
-0.079657145 0.093904756 0.68000001 1.4153455e-38
-0.078361906 0.093904756 0.68000001 1.489102e-38
-0.076953337 0.093766667 0.67900002 1.4891023e-38
-0.075659998 0.093766667 0.67900002 1.4891023e-38
-0.074366666 0.093766667 0.67900002 1.5809029e-38
-0.073073335 0.093766667 0.67900002 1.7745137e-38
-0.07188572 0.093904756 0.68000001 1.6920781e-38
-0.070590481 0.093904756 0.68000001 1.7381759e-38
-0.069295242 0.093904756 0.68000001 1.7842014e-38
-0.065409526 0.093904756 0.68000001 1.7932789e-38
-0.064114287 0.093904756 0.68000001 1.7474671e-38
-0.062819049 0.093904756 0.68000001 1.6921497e-38
-0.061433338 0.093766667 0.67900002 1.6918976e-38
-0.060140003 0.093766667 0.67900002 1.6642389e-38
-0.058846667 0.093766667 0.67900002 1.6456914e-38
-0.056342855 0.093904756 0.68000001 1.5817295e-38
-0.055047616 0.093904756 0.68000001 1.6001686e-38
-0.053752381 0.093904756 0.68000001 1.3428507e-38
-0.052457143 0.093904756 0.68000001 1.020166e-38
-0.051312383 0.094180956 0.68200004 9.5551964e-39
-0.050013337 0.094180956 0.68200004 9.002031e-39
-0.048714288 0.094180956 0.68200004 8.4520942e-39
-0.047484763 0.094319053 0.68300003 8.7286769e-39
-0.046251431 0.094457142 0.68400002 8.9119892e-39
-0.04494857 0.094457142 0.68400002 8.9119892e-39
-0.043773334 0.094733343 0.68600005 9.3726016e-39
-0.093060002 0.09702 0.69300002 4.320234e-39
-0.091475241 0.09674 0.69100004 6.342389e-39
-0.090028577 0.096600004 0.69000006 7.079954e-39
-0.088457145 0.096320003 0.68800002 7.1696385e-39
-0.087020002 0.096180007 0.68700004 7.0774429e-39
-0.085586667 0.09604001 0.68600005 7.9025218e-39
-0.084034286 0.095760003 0.68400002 7.9025218e-39
-0.082731433 0.095760003 0.68400002 9.4626434e-39
-0.08130952 0.095619999 0.68300003 9.7392261e-39
-0.078361906 0.095199995 0.68000001 1.0472834e-38
-0.077066667 0.095199995 0.68000001 1.093237e-38
-0.075771429 0.095199995 0.68000001 1.093237e-38
-0.074476197 0.095199995 0.68000001 1.1299712e-38
-0.073180959 0.095199995 0.68000001 1.1668489e-38
-0.07188572 0.095199995 0.68000001 1.2402814e-38
-0.070590481 0.095199995 0.68000001 1.2679397e-38
-0.069295242 0.095199995 0.68000001 1.249465e-38
-0.068000004 0.095199995 0.68000001 1.249465e-38
-0.066704765 0.095199995 0.68000001 1.2493934e-38
-0.065409526 0.095199995 0.68000001 1.2493934e-38
-0.064114287 0.095199995 0.68000001 1.2401751e-38
-0.060140003 0.095060006 0.67900002 1.1942202e-38
-0.058933333 0.095199995 0.68000001 1.2034396e-38
-0.057638094 0.095199995 0.68000001 1.212659e-38
-0.056342855 0.095199995 0.68000001 1.2405684e-38
-0.055047616 0.095199995 0.68000001 1.3512026e-38
-0.053910479 0.095480002 0.68200004 1.186367e-38
-0.052611433 0.095480002 0.68200004 1.1126105e-38
-0.051312383 0.095480002 0.68200004 1.0485067e-38
-0.05008667 0.095619999 0.68300003 9.8396978e-39
-0.043773334 0.09604001 0.68600005 9.8364454e-39
-0.090028577 0.097914286 0.69000006 7.3547458e-39
-0.088457145 0.097630478 0.68800002 7.5384098e-39
-0.087020002 0.097488575 0.68700004 7.5384098e-39
-0.085586667 0.097346671 0.68600005 7.812124e-39
-0.084034286 0.097062856 0.68400002 7.6277328e-39
-0.082731433 0.097062856 0.68400002 7.6262922e-39
-0.08130952 0.09692096 0.68300003 7.534098e-39
-0.078361906 0.096495233 0.68000001 7.534098e-39
-0.077066667 0.096495233 0.68000001 7.8099632e-39
-0.075771429 0.096495233 0.68000001 7.717769e-39
-0.074476197 0.096495233 0.68000001 7.625216e-39
-0.073180959 0.096495233 0.68000001 8.7315552e-39
-0.07188572 0.096495233 0.68000001 8.8244585e-39
-0.070590481 0.096495233 0.68000001 8.8244585e-39
-0.069295242 0.096495233 0.68000001 8.64007e-39
-0.068000004 0.096495233 0.68000001 8.4556816e-39
-0.066704765 0.096495233 0.68000001 8.6393596e-39
-0.065409526 0.096495233 0.68000001 8.9159465e-39
-0.064114287 0.096495233 0.68000001 9.3751337e-39
-0.061433338 0.096353337 0.67900002 8.6368414e-39
-0.060140003 0.096353337 0.67900002 8.2680645e-39
-0.058933333 0.096495233 0.68000001 8.6364827e-39
-0.057638094 0.096495233 0.68000001 9.0974538e-39
-0.056342855 0.096495233 0.68000001 1.0021556e-38
-0.052457143 0.096495233 0.68000001 1.0857077e-38
-0.051312383 0.096779048 0.68200004 1.1038618e-38
-0.091342866 0.099228583 0.69000006 7.2618341e-39
-0.090028577 0.099228583 0.69000006 7.6306166e-39
-0.088457145 0.098940954 0.68800002 7.4465673e-39
-0.08714667 0.098940954 0.68800002 7.5387615e-39
-0.085586667 0.098653339 0.68600005 8.1819743e-39
-0.084034286 0.098365717 0.68400002 8.0897787e-39
-0.082731433 0.098365717 0.68400002 8.2734539e-39
-0.08130952 0.098221906 0.68300003 8.4578452e-39
-0.078361906 0.097790472 0.68000001 8.8255487e-39
-0.074695244 0.098078102 0.68200004 9.0092379e-39
-0.073396191 0.098078102 0.68200004 1.0668759e-38
-0.072097145 0.098078102 0.68200004 1.0120954e-38
-0.070798099 0.098078102 0.68200004 1.0766323e-38
-0.069499053 0.098078102 0.68200004 1.0765265e-38
-0.066704765 0.097790472 0.68000001 1.1412065e-38
-0.065409526 0.097790472 0.68000001 1.2610609e-38
-0.062726662 0.097646669 0.67900002 1.0582675e-38
-0.061433338 0.097646669 0.67900002 1.0856011e-38
-0.060140003 0.097646669 0.67900002 8.7355111e-39
-0.058933333 0.097790472 0.68000001 9.7438896e-39
-0.057638094 0.097790472 0.68000001 1.1126824e-38
-0.056342855 0.097790472 0.68000001 1.0946398e-38
-0.055047616 0.097790472 0.68000001 1.2237137e-38
-0.092791438 0.10068858 0.69100004 6.0672538e-39
-0.091342866 0.10054287 0.69000006 7.4473044e-39
-0.090028577 0.10054287 0.69000006 7.4473044e-39
-0.088714294 0.10054287 0.69000006 7.9064665e-39
-0.08714667 0.10025143 0.68800002 7.9986621e-39
-0.085711427 0.10010572 0.68700004 8.2734539e-39
-0.084034286 0.09966857 0.68400002 8.2734539e-39
-0.082731433 0.09966857 0.68400002 8.5493121e-39
-0.08130952 0.099522859 0.68300003 8.5493121e-39
-0.078361906 0.099085711 0.68000001 9.1939627e-39
-0.074695244 0.099377148 0.68200004 9.4676923e-39
-0.073396191 0.099377148 0.68200004 1.0942822e-38
-0.072097145 0.099377148 0.68200004 1.0487225e-38
-0.070798099 0.099377148 0.68200004 1.0856008e-38
-0.069600955 0.099522859 0.68300003 1.0580511e-38
-0.0682 0.099377148 0.68200004 1.1410272e-38
-0.066900954 0.099377148 0.68200004 1.0953241e-38
-0.065601908 0.099377148 0.68200004 1.1875197e-38
-0.090159051 0.10200477 0.69100004 7.5384238e-39
-0.088714294 0.10185716 0.69000006 7.9064665e-39
-0.087400004 0.10185716 0.69000006 7.9986621e-39
-0.085711427 0.10141429 0.68700004 8.2734539e-39
-0.084279999 0.10126667 0.68600005 8.2734539e-39
-0.082973339 0.10126667 0.68600005 8.7319083e-39
-0.08130952 0.10082381 0.68300003 9.0084952e-39
-0.078361906 0.10038095 0.68000001 9.10213e-39
-0.069600955 0.10082381 0.68300003 1.0578712e-38
-0.0682 0.10067619 0.68200004 1.103969e-38
-0.066900954 0.10067619 0.68200004 1.1318425e-38
-0.065601908 0.10067619 0.68200004 1.1779403e-38
-0.090159051 0.10332096 0.69100004 7.5387699e-39
-0.088714294 0.10317144 0.69000006 8.0897787e-39
-0.087400004 0.10317144 0.69000006 8.27417e-39
-0.085711427 0.10272286 0.68700004 8.4578452e-39
-0.084279999 0.10257334 0.68600005 8.4578452e-39
-0.082973339 0.10257334 0.68600005 8.8244599e-39
-0.078361906 0.10167619 0.68000001 9.6520696e-39
-0.069600955 0.10212477 0.68300003 1.0853853e-38
-0.068300001 0.10212477 0.68300003 1.1222635e-38
-0.091475241 0.10463715 0.69100004 7.6309656e-39
-0.090028577 0.10448572 0.69000006 7.5387699e-39
-0.079657145 0.10297143 0.68000001 9.3744037e-39
-0.078361906 0.10297143 0.68000001 9.5587949e-39
-0.077066667 0.10297143 0.68000001 9.8360951e-39
-0.073180959 0.10297143 0.68000001 1.1404152e-38
-0.070901908 0.10342572 0.68300003 1.0947828e-38
-0.069600955 0.10342572 0.68300003 1.1038607e-38
-0.066999055 0.10342572 0.68300003 1.1224807e-38
-0.091475241 0.10595334 0.69100004 7.8160757e-39
-0.090028577 0.10580001 0.69000006 7.7238801e-39
-0.079657145 0.10426667 0.68000001 9.4676685e-39
-0.078361906 0.10426667 0.68000001 9.6520597e-39
-0.077066667 0.10426667 0.68000001 9.9290096e-39
-0.091475241 0.10726953 0.69100004 8.0912291e-39
-0.090028577 0.10711429 0.69000006 7.9068378e-39
-0.076953337 0.10540666 0.67900002 9.6509934e-39
-0.075659998 0.10540666 0.67900002 1.0296363e-38
-0.074366666 0.10540666 0.67900002 1.0112685e-38
-0.0682 0.10587239 0.68200004 8.5471583e-39
-0.090028577 0.10842858 0.69000006 7.9990334e-39
-0.088714294 0.10842858 0.69000006 8.6415078e-39
-0.076953337 0.1067 0.67900002 1.001941e-38
-0.075659998 0.1067 0.67900002 1.0388193e-38
-0.074366666 0.1067 0.67900002 1.0482897e-38
-0.073073335 0.1067 0.67900002 1.0851679e-38
-0.0682 0.10717143 0.68200004 8.5460821e-39
-0.062819049 0.10685714 0.68000001 1.8528094e-38
-0.084279999 0.10910667 0.68600005 9.1910914e-39
-0.082973339 0.10910667 0.68600005 9.374754e-39
-0.078361906 0.10815237 0.68000001 9.7428204e-39
-0.077066667 0.10815237 0.68000001 1.0018687e-38
-0.075659998 0.10799333 0.67900002 1.038747e-38
-0.074366666 0.10799333 0.67900002 1.0481099e-38
-0.073073335 0.10799333 0.67900002 1.066549e-38
-0.064114287 0.10815237 0.68000001 2.3228998e-38
-0.062819049 0.10815237 0.68000001 2.0094347e-38
-0.085586667 0.11041334 0.68600005 9.2843562e-39
-0.084279999 0.11041334 0.68600005 9.2843562e-39
-0.082973339 0.11041334 0.68600005 9.5598641e-39
-0.081428573 0.11009143 0.68400002 9.5598641e-39
-0.078246668 0.10928667 0.67900002 9.7438896e-39
-0.076953337 0.10928667 0.67900002 1.0203073e-38
-0.075659998 0.10928667 0.67900002 1.0387464e-38
-0.074366666 0.10928667 0.67900002 1.0572937e-38
-0.073073335 0.10928667 0.67900002 1.0849524e-38
-0.070590481 0.10944761 0.68000001 1.2417573e-38
-0.065409526 0.10944761 0.68000001 2.3491564e-38
-0.064114287 0.10944761 0.68000001 2.3231151e-38
-0.061433338 0.10928667 0.67900002 1.7869074e-38
-0.085711427 0.11188286 0.68700004 9.2843562e-39
-0.084279999 0.11172 0.68600005 9.2843562e-39
-0.082973339 0.11172 0.68600005 9.6506248e-39
-0.081666671 0.11172 0.68600005 9.8350161e-39
-0.080360003 0.11172 0.68600005 1.0019037e-38
-0.078246668 0.11058 0.67900002 9.9268432e-39
-0.076953337 0.11058 0.67900002 1.0017971e-38
-0.075659998 0.11058 0.67900002 1.0478949e-38
-0.074366666 0.11058 0.67900002 1.0481099e-38
-0.070590481 0.11074285 0.68000001 1.4168588e-38
-0.066704765 0.11074285 0.68000001 1.120754e-38
-0.065409526 0.11074285 0.68000001 2.3490087e-38
-0.064114287 0.11074285 0.68000001 2.3324415e-38
-0.062726662 0.11058 0.67900002 1.816146e-38
-0.061433338 0.11058 0.67900002 1.6024069e-38
-0.085586667 0.11302667 0.68600005 9.4669496e-39
-0.084279999 0.11302667 0.68600005 9.6513409e-39
-0.082973339 0.11302667 0.68600005 9.6516954e-39
-0.081666671 0.11302667 0.68600005 9.8360853e-39
-0.080360003 0.11302667 0.68600005 9.927562e-39
-0.079053335 0.11302667 0.68600005 1.0111953e-38
-0.077746667 0.11302667 0.68600005 1.0295268e-38
-0.075659998 0.11187334 0.67900002 1.0664051e-38
-0.074366666 0.11187334 0.67900002 1.0574016e-38
-0.070590481 0.11203809 0.68000001 1.3799805e-38
-0.065409526 0.11203809 0.68000001 2.3490074e-38
-0.064114287 0.11203809 0.68000001 2.3323343e-38
-0.062819049 0.11203809 0.68000001 1.769941e-38
-0.061523806 0.11203809 0.68000001 1.5101047e-38
-0.060228571 0.11203809 0.68000001 6.3424618e-39
-0.085586667 0.11433334 0.68600005 9.4676685e-39
-0.084279999 0.11433334 0.68600005 9.4676685e-39
-0.082973339 0.11433334 0.68600005 9.9261257e-39
-0.081666671 0.11433334 0.68600005 1.0110514e-38
-0.080360003 0.11433334 0.68600005 1.0110517e-38
-0.077746667 0.11433334 0.68600005 1.0203073e-38
-0.074366666 0.11316667 0.67900002 1.0572937e-38
-0.066704765 0.11333333 0.68000001 1.1483031e-38
-0.065409526 0.11333333 0.68000001 2.348719e-38
-0.064114287 0.11333333 0.68000001 2.3321907e-38
-0.062819049 0.11333333 0.68000001 1.8435539e-38
-0.061523806 0.11333333 0.68000001 1.6668019e-38
-0.060228571 0.11333333 0.68000001 7.3562606e-39
-0.058933333 0.11333333 0.68000001 9.0949427e-39
-0.057807621 0.11366667 0.68200004 1.1492019e-38
-0.085586667 0.11564001 0.68600005 9.6506248e-39
-0.084279999 0.11564001 0.68600005 9.6506248e-39
-0.082973339 0.11564001 0.68600005 9.9264914e-39
-0.081666671 0.11564001 0.68600005 1.0018687e-38
-0.080360003 0.11564001 0.68600005 1.0110517e-38
-0.079053335 0.11564001 0.68600005 1.0294908e-38
-0.070590481 0.11462857 0.68000001 1.2416494e-38
-0.069295242 0.11462857 0.68000001 1.1776127e-38
-0.068000004 0.11462857 0.68000001 8.4571165e-39
-0.066704765 0.11462857 0.68000001 1.2126949e-38
-0.065409526 0.11462857 0.68000001 2.3485729e-38
-0.064114287 0.11462857 0.68000001 2.3321191e-38
-0.062819049 0.11462857 0.68000001 1.8434823e-38
-0.061523806 0.11462857 0.68000001 1.648647e-38
-0.060228571 0.11462857 0.68000001 6.9903199e-39
-0.057807621 0.11496571 0.68200004 1.1765722e-38
-0.056508575 0.11496571 0.68200004 1.4911536e-38
-0.070590481 0.11592381 0.68000001 1.2231755e-38
-0.069295242 0.11592381 0.68000001 1.1684654e-38
-0.068000004 0.11592381 0.68000001 9.7485532e-39
-0.066704765 0.11592381 0.68000001 1.1762118e-38
-0.065409526 0.11592381 0.68000001 1.9045562e-38
-0.064114287 0.11592381 0.68000001 1.6198425e-38
-0.062819049 0.11592381 0.68000001 1.3248164e-38
-0.061523806 0.11592381 0.68000001 1.2883157e-38
-0.060228571 0.11592381 0.68000001 9.287582e-39
-0.056508575 0.11626477 0.68200004 1.3250858e-38
-0.075548574 0.11687429 0.67800003 1.066513e-38
-0.074257143 0.11687429 0.67800003 1.0665133e-38
-0.070590481 0.11721905 0.68000001 1.1865831e-38
-0.069295242 0.11721905 0.68000001 1.186655e-38
-0.068000004 0.11721905 0.68000001 1.1497767e-38
-0.066704765 0.11721905 0.68000001 1.1953351e-38
-0.065409526 0.11721905 0.68000001 1.4350437e-38
-0.064114287 0.11721905 0.68000001 1.2602401e-38
-0.062819049 0.11721905 0.68000001 1.0574097e-38
-0.061523806 0.11721905 0.68000001 1.1585281e-38
-0.060228571 0.11721905 0.68000001 1.1493086e-38
-0.055209529 0.11756381 0.68200004 1.296962e-38
-0.053910479 0.11756381 0.68200004 1.2882472e-38
-0.07188572 0.11851428 0.68000001 1.1681793e-38
-0.070590481 0.11851428 0.68000001 1.1681793e-38
-0.069295242 0.11851428 0.68000001 1.20502e-38
-0.068000004 0.11851428 0.68000001 1.20502e-38
-0.066704765 0.11851428 0.68000001 1.2047358e-38
-0.065409526 0.11851428 0.68000001 1.1401989e-38
-0.064114287 0.11851428 0.68000001 1.1769675e-38
-0.062819049 0.11851428 0.68000001 1.2599436e-38
-0.061523806 0.11851428 0.68000001 1.2325743e-38
-0.060228571 0.11851428 0.68000001 1.1772569e-38
-0.053910479 0.11886286 0.68200004 1.2511566e-38
-0.052688573 0.11903714 0.68300003 1.2695957e-38
-0.07188572 0.11980952 0.68000001 1.1496332e-38
-0.070590481 0.11980952 0.68000001 1.1680724e-38
-0.069295242 0.11980952 0.68000001 1.1864389e-38
-0.068000004 0.11980952 0.68000001 1.1864389e-38
-0.065601908 0.12016191 0.68200004 1.121723e-38
-0.062819049 0.11980952 0.68000001 1.2231016e-38
-0.061523806 0.11980952 0.68000001 1.2139554e-38
-0.060228571 0.11980952 0.68000001 1.2139554e-38
-0.05910667 0.12016191 0.68200004 1.2048064e-38
-0.057638094 0.11980952 0.68000001 1.1955869e-38
-0.053989526 0.1203381 0.68300003 1.2052383e-38
-0.070590481 0.12110476 0.68000001 1.1128256e-38
-0.069295242 0.12110476 0.68000001 1.1494145e-38
-0.066900954 0.12146095 0.68200004 1.1771127e-38
-0.065601908 0.12146095 0.68200004 1.1678931e-38
-0.064302862 0.12146095 0.68200004 1.1771487e-38
-0.061523806 0.12110476 0.68000001 1.2045919e-38
-0.060228571 0.12110476 0.68000001 1.2138115e-38
-0.057638094 0.12110476 0.68000001 1.2140263e-38
-0.056342855 0.12110476 0.68000001 1.2046985e-38
-0.028543809 0.12413239 0.69700003 1.0390341e-38
-0.072097145 0.12276001 0.68200004 1.1403777e-38
-0.070798099 0.12276001 0.68200004 1.1311581e-38
-0.0682 0.12276001 0.68200004 1.1862587e-38
-0.066900954 0.12276001 0.68200004 1.1677502e-38
-0.065601908 0.12276001 0.68200004 1.1400915e-38
-0.064302862 0.12276001 0.68200004 1.1583846e-38
-0.063003816 0.12276001 0.68200004 1.1768238e-38
-0.061704762 0.12276001 0.68200004 1.1861165e-38
-0.060405716 0.12276001 0.68200004 1.1861165e-38
-0.056342855 0.1224 0.68000001 1.2138833e-38
-0.028543809 0.12546 0.69700003 1.048182e-38
-0.084034286 0.12442286 0.68400002 1.0109448e-38
-0.070798099 0.12405905 0.68200004 1.1768616e-38
-0.069499053 0.12405905 0.68200004 1.1676055e-38
-0.0682 0.12405905 0.68200004 1.1676055e-38
-0.066900954 0.12405905 0.68200004 1.1492029e-38
-0.065698095 0.12424096 0.68300003 1.1215442e-38
-0.063003816 0.12405905 0.68200004 1.1122142e-38
-0.061704762 0.12405905 0.68200004 1.1213295e-38
-0.060494285 0.12424096 0.68300003 1.1489882e-38
-0.05910667 0.12405905 0.68200004 1.1215417e-38
-0.052457143 0.12369524 0.68000001 1.1769332e-38
-0.051161904 0.12369524 0.68000001 1.1860436e-38
-0.049866665 0.12369524 0.68000001 1.2321414e-38
-0.071213335 0.12609334 0.68600005 1.1950827e-38
-0.069906674 0.12609334 0.68600005 1.176825e-38
-0.063003816 0.1253581 0.68200004 1.0844481e-38
-0.061704762 0.1253581 0.68200004 1.066189e-38
-0.060405716 0.1253581 0.68200004 1.1030673e-38
-0.05910667 0.1253581 0.68200004 1.0848427e-38
-0.052457143 0.12499048 0.68000001 1.1400915e-38
-0.051161904 0.12499048 0.68000001 1.1766438e-38
-0.049866665 0.12499048 0.68000001 1.2043025e-38
-0.0363 0.12738001 0.69300002 1.1307613e-38
-0.034979999 0.12738001 0.69300002 1.1123221e-38
-0.028543809 0.12811525 0.69700003 1.0758051e-38
-0.085337147 0.12702857 0.68400002 1.0016902e-38
-0.07532572 0.12554286 0.67600006 1.1954067e-38
-0.071213335 0.1274 0.68600005 1.195479e-38
-0.063003816 0.12665714 0.68200004 1.1217212e-38
-0.061704762 0.12665714 0.68200004 1.1217597e-38
-0.060405716 0.12665714 0.68200004 1.2231749e-38
-0.057553336 0.1261 0.67900002 1.214062e-38
-0.056260001 0.1261 0.67900002 1.2418652e-38
-0.054966666 0.1261 0.67900002 1.3801586e-38
-0.053673334 0.1261 0.67900002 1.2880385e-38
-0.052457143 0.12628572 0.68000001 1.2050624e-38
-0.051161904 0.12628572 0.68000001 1.1862984e-38
-0.049866665 0.12628572 0.68000001 1.1402005e-38
-0.03882762 0.12832858 0.69100004 1.1212193e-38
-0.037511431 0.12832858 0.69100004 1.1119997e-38
-0.036195237 0.12832858 0.69100004 1.1119637e-38
-0.087942861 0.12833142 0.68400002 1.0017602e-38
-0.08664 0.12833142 0.68400002 9.833214e-39
-0.085337147 0.12833142 0.68400002 9.8335727e-39
-0.080952384 0.12758096 0.68000001 1.029275e-38
-0.079657145 0.12758096 0.68000001 1.0569334e-38
-0.078246668 0.12739334 0.67900002 1.1491291e-38
-0.076953337 0.12739334 0.67900002 1.1311568e-38
-0.071213335 0.12870668 0.68600005 1.2789239e-38
-0.069906674 0.12870668 0.68600005 1.2607388e-38
-0.067097142 0.12833142 0.68400002 1.196093e-38
-0.065794282 0.12833142 0.68400002 1.2145321e-38
-0.063096188 0.12814382 0.68300003 1.2882519e-38
-0.061795238 0.12814382 0.68300003 1.3253114e-38
-0.060405716 0.1279562 0.68200004 1.3068722e-38
-0.056260001 0.12739334 0.67900002 1.3713373e-38
-0.054966666 0.12739334 0.67900002 1.4727525e-38
-0.053673334 0.12739334 0.67900002 1.4178314e-38
-0.052457143 0.12758096 0.68000001 1.3256358e-38
-0.051161904 0.12758096 0.68000001 1.3436433e-38
-0.049866665 0.12758096 0.68000001 1.3252042e-38
-0.03882762 0.12964478 0.69100004 1.1398745e-38
-0.037511431 0.12964478 0.69100004 1.0937766e-38
-0.034979999 0.13001999 0.69300002 1.1119286e-38
-0.093699045 0.13039239 0.68800002 9.5573558e-39
-0.092120007 0.13001333 0.68600005 9.3729645e-39
-0.090813339 0.13001333 0.68600005 9.4633623e-39
-0.089506678 0.13001333 0.68600005 9.9243404e-39
-0.087942861 0.12963428 0.68400002 1.0295268e-38
-0.08664 0.12963428 0.68400002 1.1862594e-38
-0.085212387 0.12944476 0.68300003 1.2148114e-38
-0.082247622 0.12887619 0.68000001 1.2885402e-38
-0.080952384 0.12887619 0.68000001 1.3254184e-38
-0.079657145 0.12887619 0.68000001 1.3439294e-38
-0.078246668 0.12868667 0.67900002 1.3808077e-38
-0.076953337 0.12868667 0.67900002 1.4083948e-38
-0.071213335 0.13001333 0.68600005 1.5653432e-38
-0.069906674 0.13001333 0.68600005 1.5101362e-38
-0.068600006 0.13001333 0.68600005 1.4824775e-38
-0.063096188 0.12944476 0.68300003 1.5286822e-38
-0.061795238 0.12944476 0.68300003 1.5101722e-38
-0.05910667 0.12925524 0.68200004 1.5193905e-38
-0.055047616 0.12887619 0.68000001 1.5378296e-38
-0.053752381 0.12887619 0.68000001 1.5378652e-38
-0.052457143 0.12887619 0.68000001 1.5286457e-38
-0.051161904 0.12887619 0.68000001 1.5285753e-38
-0.049866665 0.12887619 0.68000001 1.6392101e-38
-0.096600004 0.13208573 0.69000006 9.2840059e-39
-0.095285721 0.13208573 0.69000006 9.1918103e-39
-0.093699045 0.13170287 0.68800002 9.4655133e-39
-0.092120007 0.13132001 0.68600005 9.2811248e-39
-0.090813339 0.13132001 0.68600005 9.6481081e-39
-0.089245714 0.13093714 0.68400002 1.0938845e-38
-0.087942861 0.13093714 0.68400002 1.1221178e-38
-0.08664 0.13093714 0.68400002 1.1774351e-38
-0.085212387 0.13074572 0.68300003 1.2882494e-38
-0.082247622 0.13017143 0.68000001 1.3440383e-38
-0.080952384 0.13017143 0.68000001 1.3624775e-38
-0.079657145 0.13017143 0.68000001 1.371696e-38
-0.078361906 0.13017143 0.68000001 1.3624765e-38
-0.076953337 0.12998 0.67900002 1.4268339e-38
-0.071213335 0.13132001 0.68600005 1.5008428e-38
-0.069906674 0.13132001 0.68600005 1.4825488e-38
-0.068600006 0.13132001 0.68600005 1.4456706e-38
-0.064397149 0.13074572 0.68300003 1.4548538e-38
-0.063096188 0.13074572 0.68300003 1.4548538e-38
-0.061795238 0.13074572 0.68300003 1.4456346e-38
-0.060494285 0.13074572 0.68300003 1.4179759e-38
-0.05910667 0.13055429 0.68200004 1.4087563e-38
-0.057807621 0.13055429 0.68200004 1.4087563e-38
-0.052457143 0.13017143 0.68000001 1.4824039e-38
-0.051161904 0.13017143 0.68000001 1.5008438e-38
-0.10023524 0.13475335 0.69700003 8.5493121e-39
-0.098481901 0.13417333 0.69400001 8.6415078e-39
-0.096600004 0.13340001 0.69000006 9.1907425e-39
-0.095285721 0.13340001 0.69000006 8.7297643e-39
-0.093699045 0.13301334 0.68800002 9.4665895e-39
-0.092120007 0.13262668 0.68600005 1.2324648e-38
-0.090813339 0.13262668 0.68600005 1.2426561e-38
-0.089245714 0.13224 0.68400002 1.3440713e-38
-0.08664 0.13224 0.68400002 1.3349257e-38
-0.083542861 0.13146667 0.68000001 1.3717679e-38
-0.082247622 0.13146667 0.68000001 1.3717326e-38
-0.080952384 0.13146667 0.68000001 1.3256348e-38
-0.079540007 0.13127334 0.67900002 1.3164498e-38
-0.072625719 0.13282001 0.68700004 1.2516998e-38
-0.071317144 0.13282001 0.68700004 1.2240411e-38
-0.070008576 0.13282001 0.68700004 1.1871979e-38
-0.068700001 0.13282001 0.68700004 1.1595392e-38
-0.064397149 0.13204667 0.68300003 1.1502483e-38
-0.063096188 0.13204667 0.68300003 1.1410287e-38
-0.061795238 0.13204667 0.68300003 1.1409568e-38
-0.060494285 0.13204667 0.68300003 1.1317373e-38
-0.059193335 0.13204667 0.68300003 1.1317723e-38
-0.057807621 0.13185334 0.68200004 1.1317723e-38
-0.056508575 0.13185334 0.68200004 1.1777631e-38
-0.055209529 0.13185334 0.68200004 1.1777631e-38
-0.051161904 0.13146667 0.68000001 1.2238956e-38
-0.028298097 0.13359334 0.69100004 1.1957703e-38
-0.10170857 0.13627619 0.69800001 8.4592717e-39
-0.098481901 0.13549525 0.69400001 8.8251801e-39
-0.09702 0.1353 0.69300002 9.1907243e-39
-0.095423818 0.13490954 0.69100004 9.0063358e-39
-0.093971431 0.13471429 0.69000006 1.094424e-38
-0.092657149 0.13471429 0.69000006 1.2788153e-38
-0.090813339 0.13393334 0.68600005 1.2702808e-38
-0.083542861 0.1327619 0.68000001 1.3441821e-38
-0.082247622 0.1327619 0.68000001 1.3532947e-38
-0.080952384 0.1327619 0.68000001 1.3071969e-38
-0.079540007 0.13256668 0.67900002 1.2796798e-38
-0.078246668 0.13256668 0.67900002 1.2612406e-38
-0.073048577 0.13490954 0.69100004 1.1596483e-38
-0.063188568 0.13354285 0.68400002 1.1226259e-38
-0.061885718 0.13354285 0.68400002 1.1041149e-38
-0.060494285 0.13334762 0.68300003 1.122554e-38
-0.059193335 0.13334762 0.68300003 1.1226259e-38
-0.056508575 0.1331524 0.68200004 1.1225543e-38
-0.055209529 0.1331524 0.68200004 1.150213e-38
-0.028298097 0.13490954 0.69100004 1.3161651e-38
-0.02706 0.1353 0.69300002 1.0672369e-38
-0.098765716 0.13721143 0.69600004 9.8375566e-39
-0.09674 0.13622572 0.69100004 1.03975e-38
-0.095423818 0.13622572 0.69100004 1.3255555e-38
-0.093971431 0.13602859 0.69000006 1.3072685e-38
-0.092657149 0.13602859 0.69000006 1.3164881e-38
-0.091342866 0.13602859 0.69000006 1.2888642e-38
-0.083542861 0.13405713 0.68000001 1.1965982e-38
-0.082247622 0.13405713 0.68000001 1.1873789e-38
-0.080952384 0.13405713 0.68000001 1.0859637e-38
-0.079657145 0.13405713 0.68000001 1.1135469e-38
-0.078361906 0.13405713 0.68000001 1.1596447e-38
-0.074364766 0.13622572 0.69100004 1.1507162e-38
-0.073048577 0.13622572 0.69100004 1.1415332e-38
-0.071732387 0.13622572 0.69100004 1.1415332e-38
-0.063742861 0.13602859 0.69000006 1.1876683e-38
-0.062428575 0.13602859 0.69000006 1.1693008e-38
-0.060582858 0.1348457 0.68400002 1.1693008e-38
-0.059280004 0.1348457 0.68400002 1.1693008e-38
-0.10303809 0.13893524 0.69800001 8.7329873e-39
-0.10156287 0.13873619 0.69700003 8.6407917e-39
-0.10009144 0.13853714 0.69600004 8.2720106e-39
-0.09674 0.13754191 0.69100004 1.0677374e-38
-0.095423818 0.13754191 0.69100004 1.3074461e-38
-0.093971431 0.13734286 0.69000006 1.2615304e-38
-0.091342866 0.13734286 0.69000006 1.2613497e-38
-0.083940953 0.13813905 0.69400001 1.1230222e-38
-0.081904761 0.13694477 0.68800002 1.0584852e-38
-0.079283811 0.13694477 0.68800002 1.1598961e-38
-0.077973336 0.13694477 0.68800002 1.1231288e-38
-0.074364766 0.13754191 0.69100004 1.1600799e-38
-0.073048577 0.13754191 0.69100004 1.1417124e-38
-0.071732387 0.13754191 0.69100004 1.1785907e-38
-0.067980006 0.13794 0.69300002 1.1695166e-38
-0.065057144 0.13734286 0.69000006 1.1880276e-38
-0.063742861 0.13734286 0.69000006 1.2249058e-38
-0.062428575 0.13734286 0.69000006 1.2157942e-38
-0.061114289 0.13734286 0.69000006 1.2065746e-38
-0.059280004 0.13614857 0.68400002 1.2249421e-38
-0.10600001 0.14066668 0.70000005 7.0742031e-39
-0.10466667 0.14066668 0.70000005 8.4571291e-39
-0.10156287 0.14006381 0.69700003 9.3776281e-39
-0.079283811 0.13825524 0.68800002 1.2523812e-38
-0.077973336 0.13825524 0.68800002 1.2431992e-38
-0.07062 0.13926001 0.69300002 1.2802219e-38
-0.069299996 0.13926001 0.69300002 1.2894415e-38
-0.067980006 0.13926001 0.69300002 1.3078087e-38
-0.065151431 0.13885811 0.69100004 1.3262835e-38
-0.062428575 0.13865715 0.69000006 1.2986974e-38
-0.061114289 0.13865715 0.69000006 1.2894778e-38
-0.059886672 0.13885811 0.69100004 1.2985917e-38
-0.058570478 0.13885811 0.69100004 1.2801526e-38
-0.021874286 0.13986287 0.69600004 9.9329598e-39
-0.083940953 0.14078286 0.69400001 1.2156134e-38
-0.082619049 0.14078286 0.69400001 1.2248329e-38
-0.081180006 0.14058001 0.69300002 1.2432345e-38
-0.079283811 0.13956572 0.68800002 1.234015e-38
-0.07062 0.14058001 0.69300002 1.2524188e-38
-0.069299996 0.14058001 0.69300002 1.2524188e-38
-0.067980006 0.14058001 0.69300002 1.2800061e-38
-0.062519051 0.1401743 0.69100004 1.2709305e-38
-0.061202858 0.1401743 0.69100004 1.2709305e-38
-0.059886672 0.1401743 0.69100004 1.3076651e-38
-0.058570478 0.1401743 0.69100004 1.2523477e-38
-0.057254288 0.1401743 0.69100004 1.2246156e-38
-0.023133334 0.14078286 0.69400001 1.2886133e-38
-0.018000001 0.142 0.70000005 1.0392153e-38
-0.10289048 0.14271906 0.69700003 8.8244585e-39
-0.088160008 0.1425143 0.69600004 1.233872e-38
-0.086584762 0.14210476 0.69400001 1.2155398e-38
-0.082619049 0.14210476 0.69400001 1.1324568e-38
-0.079860002 0.1419 0.69300002 1.040119e-38
-0.074364766 0.14149047 0.69100004 9.6610575e-39
-0.069400005 0.14210476 0.69400001 8.8312842e-39
-0.068078093 0.14210476 0.69400001 9.1972025e-39
-0.061202858 0.14149047 0.69100004 9.0138902e-39
-0.059886672 0.14149047 0.69100004 9.4737894e-39
-0.058570478 0.14149047 0.69100004 9.2893981e-39
-0.025777142 0.14210476 0.69400001 1.5839656e-38
-0.018000001 0.14333335 0.70000005 1.0761644e-38
-0.016761906 0.14415239 0.70400006 9.839688e-39
-0.090811431 0.14384001 0.69600004 1.2154326e-38
-0.086834289 0.14384001 0.69600004 1.1508594e-38
-0.085262857 0.14342667 0.69400001 1.1232007e-38
-0.082619049 0.14342667 0.69400001 1.0309335e-38
-0.081180006 0.14321999 0.69300002 1.0030217e-38
-0.079860002 0.14321999 0.69300002 8.6472825e-39
-0.078200005 0.14260001 0.69000006 9.6542177e-39
-0.075680956 0.14280666 0.69100004 9.4730607e-39
-0.07425715 0.14260001 0.69000006 9.2886694e-39
-0.068078093 0.14342667 0.69400001 8.0865459e-39
-0.066467628 0.14280666 0.69100004 8.5475171e-39
-0.061380003 0.14321999 0.69300002 8.4556816e-39
-0.060146667 0.14342667 0.69400001 8.4549641e-39
-0.057668574 0.14384001 0.69600004 8.7293944e-39
-0.018025715 0.14487334 0.70100003 1.1220102e-38
-0.092269525 0.14537428 0.69700003 1.058235e-38
-0.090811431 0.14516573 0.69600004 1.0213567e-38
-0.085262857 0.14474858 0.69400001 8.4607262e-39
-0.082619049 0.14474858 0.69400001 7.9046714e-39
-0.081180006 0.14454 0.69300002 8.0879808e-39
-0.079860002 0.14454 0.69300002 8.0879808e-39
-0.076885715 0.1439143 0.69000006 8.3624125e-39
-0.075680956 0.14412287 0.69100004 8.3627699e-39
-0.07425715 0.1439143 0.69000006 8.6393526e-39
-0.066467628 0.14412287 0.69100004 1.0292041e-38
-0.065151431 0.14412287 0.69100004 1.0478583e-38
-0.061380003 0.14454 0.69300002 1.0938504e-38
-0.060146667 0.14474858 0.69400001 1.1031431e-38
-0.047062859 0.14516573 0.69600004 9.0960189e-39
-0.045737144 0.14516573 0.69600004 8.9116305e-39
-0.044475239 0.14537428 0.69700003 8.6364827e-39
-0.033660002 0.14454 0.69300002 1.0856361e-38
-0.025851429 0.14516573 0.69600004 1.3531866e-38
-0.018077144 0.14662571 0.70300001 1.0941366e-38
-0.093597144 0.1467019 0.69700003 1.0770316e-38
-0.092269525 0.1467019 0.69700003 1.0214258e-38
-0.090811431 0.14649144 0.69600004 9.0157147e-39
-0.086834289 0.14649144 0.69600004 8.4585556e-39
-0.085508578 0.14649144 0.69600004 8.1819687e-39
-0.083940953 0.14607048 0.69400001 7.6262922e-39
-0.082619049 0.14607048 0.69400001 7.4419038e-39
-0.081297144 0.14607048 0.69400001 7.1656798e-39
-0.07997524 0.14607048 0.69400001 7.2578741e-39
-0.078313336 0.14543906 0.69100004 7.5330218e-39
-0.076997146 0.14543906 0.69100004 7.5330218e-39
-0.075680956 0.14543906 0.69100004 7.992558e-39
-0.07425715 0.14522858 0.69000006 8.4535292e-39
-0.07294286 0.14522858 0.69000006 9.927562e-39
-0.071732387 0.14543906 0.69100004 1.038854e-38
-0.065151431 0.14543906 0.69100004 1.2966418e-38
-0.061380003 0.14586 0.69300002 1.3426342e-38
-0.057668574 0.14649144 0.69600004 1.3609998e-38
-0.056342859 0.14649144 0.69600004 1.3886585e-38
-0.055017143 0.14649144 0.69600004 1.3611437e-38
-0.053768571 0.1467019 0.69700003 1.3519241e-38
-0.047062859 0.14649144 0.69600004 1.0482897e-38
-0.045737144 0.14649144 0.69600004 9.0077707e-39
-0.027099047 0.14607048 0.69400001 1.168537e-38
-0.019333335 0.14733334 0.70000005 1.0115595e-38
-0.018025715 0.14754382 0.70100003 1.1032483e-38
-0.015420954 0.14817525 0.70400006 1.0204502e-38
-0.092269525 0.14802952 0.69700003 8.9202891e-39
-0.090811431 0.14781715 0.69600004 7.9061371e-39
-0.086834289 0.14781715 0.69600004 1.0666224e-38
-0.085508578 0.14781715 0.69600004 1.2602333e-38
-0.083940953 0.14739239 0.69400001 1.2601981e-38
-0.082619049 0.14739239 0.69400001 1.2694176e-38
-0.081297144 0.14739239 0.69400001 1.4446217e-38
-0.07997524 0.14739239 0.69400001 1.4722804e-38
-0.078313336 0.14675523 0.69100004 1.5918501e-38
-0.076997146 0.14675523 0.69100004 1.6379479e-38
-0.075680956 0.14675523 0.69100004 1.6655337e-38
-0.074364766 0.14675523 0.69100004 1.6931924e-38
-0.073048577 0.14675523 0.69100004 1.7023407e-38
-0.071732387 0.14675523 0.69100004 1.7115602e-38
-0.067980006 0.14718001 0.69300002 1.7849574e-38
-0.065151431 0.14675523 0.69100004 1.8494934e-38
-0.062699996 0.14718001 0.69300002 1.8494218e-38
-0.061468571 0.14739239 0.69400001 1.8586414e-38
-0.060146667 0.14739239 0.69400001 1.8309838e-38
-0.057668574 0.14781715 0.69600004 1.8216912e-38
-0.056342859 0.14781715 0.69600004 1.8309108e-38
-0.055017143 0.14781715 0.69600004 1.8216196e-38
-0.053691432 0.14781715 0.69600004 1.8308392e-38
-0.047062859 0.14781715 0.69600004 1.8499976e-38
-0.045802858 0.14802952 0.69700003 1.8684367e-38
-0.019333335 0.14866666 0.70000005 1.2887575e-38
-0.018025715 0.14887907 0.70100003 1.2608078e-38
-0.092269525 0.14935715 0.69700003 8.0876445e-39
-0.090811431 0.14914286 0.69600004 7.9954489e-39
-0.088286668 0.14935715 0.69700003 1.0480016e-38
-0.086834289 0.14914286 0.69600004 1.3612529e-38
-0.085508578 0.14914286 0.69600004 1.3889115e-38
-0.083940953 0.14871427 0.69400001 1.4623444e-38
-0.082619049 0.14871427 0.69400001 1.6559552e-38
-0.081297144 0.14871427 0.69400001 1.7480792e-38
-0.079860002 0.1485 0.69300002 1.8126161e-38
-0.078313336 0.14807144 0.69100004 1.9227464e-38
-0.076997146 0.14807144 0.69100004 1.9043073e-38
-0.075680956 0.14807144 0.69100004 1.9500088e-38
-0.074364766 0.14807144 0.69100004 1.9500088e-38
-0.073048577 0.14807144 0.69100004 1.9498653e-38
-0.069299996 0.1485 0.69300002 1.9590489e-38
-0.067980006 0.1485 0.69300002 1.9774524e-38
-0.06402 0.1485 0.69300002 2.0236211e-38
-0.062699996 0.1485 0.69300002 2.0140789e-38
-0.061468571 0.14871427 0.69400001 2.0417375e-38
-0.060146667 0.14871427 0.69400001 2.0234419e-38
-0.056342859 0.14914286 0.69600004 2.02337e-38
-0.055017143 0.14914286 0.69600004 2.0232621e-38
-0.053691432 0.14914286 0.69600004 2.0417013e-38
-0.04971429 0.14914286 0.69600004 2.0605354e-38
-0.047062859 0.14914286 0.69600004 2.0883739e-38
-0.039164763 0.14935715 0.69700003 1.9327946e-38
-0.031199049 0.14935715 0.69700003 1.0480751e-38
-0.019333335 0.15000001 0.70000005 1.4363421e-38
-0.018025715 0.15021428 0.70100003 1.3070181e-38
-0.090941906 0.15068477 0.69700003 1.5922439e-38
-0.086834289 0.15046857 0.69600004 1.7390403e-38
-0.085508578 0.15046857 0.69600004 1.7206011e-38
-0.083940953 0.15003619 0.69400001 1.7571183e-38
-0.082619049 0.15003619 0.69400001 1.7663378e-38
-0.081297144 0.15003619 0.69400001 1.8209729e-38
-0.079860002 0.14982 0.69300002 1.7748751e-38
-0.078540005 0.14982 0.69300002 1.8480894e-38
-0.07722 0.14982 0.69300002 1.8480894e-38
-0.075899996 0.14982 0.69300002 1.847981e-38
-0.074364766 0.14938763 0.69100004 1.847981e-38
-0.073048577 0.14938763 0.69100004 1.8661342e-38
-0.070721909 0.15003619 0.69400001 1.8752117e-38
-0.069400005 0.15003619 0.69400001 1.8844313e-38
-0.068078093 0.15003619 0.69400001 1.9030128e-38
-0.066756189 0.15003619 0.69400001 1.9491106e-38
-0.065434285 0.15003619 0.69400001 1.9214516e-38
-0.06411238 0.15003619 0.69400001 1.8937929e-38
-0.062790476 0.15003619 0.69400001 1.9213087e-38
-0.061468571 0.15003619 0.69400001 1.9305283e-38
-0.060146667 0.15003619 0.69400001 1.9398542e-38
-0.056342859 0.15046857 0.69600004 1.9215235e-38
-0.055017143 0.15046857 0.69600004 1.9397826e-38
-0.053691432 0.15046857 0.69600004 1.9582217e-38
-0.05236572 0.15046857 0.69600004 1.9490021e-38
-0.051040001 0.15046857 0.69600004 1.9490021e-38
-0.04971429 0.15046857 0.69600004 1.9490365e-38
-0.048388574 0.15046857 0.69600004 1.9766952e-38
-0.047062859 0.15046857 0.69600004 1.9861308e-38
-0.041639999 0.15003619 0.69400001 1.9496851e-38
-0.040434286 0.15046857 0.69600004 1.9496851e-38
-0.039164763 0.15068477 0.69700003 1.9687331e-38
-0.020607619 0.15090095 0.69800001 1.4362693e-38
-0.019333335 0.15133335 0.70000005 1.4823671e-38
-0.10421906 0.15397525 0.70600003 1.1138353e-38
-0.096390471 0.15223049 0.69800001 1.0938139e-38
-0.094924763 0.15201239 0.69700003 1.4987532e-38
-0.086834289 0.15179428 0.69600004 1.9038407e-38
-0.085508578 0.15179428 0.69600004 1.876182e-38
-0.083940953 0.15135808 0.69400001 1.8852205e-38
-0.082619049 0.15135808 0.69400001 1.8667814e-38
-0.081297144 0.15135808 0.69400001 1.875607e-38
-0.07997524 0.15135808 0.69400001 1.8571679e-38
-0.078540005 0.15114 0.69300002 1.8661342e-38
-0.07722 0.15114 0.69300002 1.8569147e-38
-0.075899996 0.15114 0.69300002 1.8662059e-38
-0.074364766 0.15070382 0.69100004 1.8662059e-38
-0.069400005 0.15135808 0.69400001 1.9120523e-38
-0.068078093 0.15135808 0.69400001 1.8846453e-38
-0.066756189 0.15135808 0.69400001 1.9215235e-38
-0.065434285 0.15135808 0.69400001 1.8846087e-38
-0.06411238 0.15135808 0.69400001 1.8846087e-38
-0.062790476 0.15135808 0.69400001 1.9305993e-38
-0.061468571 0.15135808 0.69400001 1.9398189e-38
-0.060146667 0.15135808 0.69400001 1.9398542e-38
-0.058824759 0.15135808 0.69400001 1.9582933e-38
-0.047062859 0.15179428 0.69600004 1.9674769e-38
-0.040434286 0.15179428 0.69600004 1.9676208e-38
-0.039164763 0.15201239 0.69700003 1.9954217e-38
-0.025925715 0.15223049 0.69800001 2.1645195e-38
-0.024666667 0.15266669 0.70000005 1.8694943e-38
-0.10556381 0.15532002 0.70600003 1.2519862e-38
-0.10392382 0.15488 0.70400006 1.1047236e-38
-0.10243714 0.15466 0.70300001 5.6998992e-39
-0.10081048 0.15422001 0.70100003 1.0475383e-38
-0.099475242 0.15422001 0.70100003 1.6929077e-38
-0.098000005 0.15400001 0.70000005 1.7023415e-38
-0.096390471 0.15356 0.69800001 1.693122e-38
-0.094924763 0.15334 0.69700003 1.729137e-38
-0.092269525 0.15334 0.69700003 1.7654746e-38
-0.090811431 0.15312001 0.69600004 1.7285964e-38
-0.086834289 0.15312001 0.69600004 1.8202169e-38
-0.085262857 0.15267999 0.69400001 1.8202169e-38
-0.083940953 0.15267999 0.69400001 1.8201434e-38
-0.082619049 0.15267999 0.69400001 1.8293629e-38
-0.081297144 0.15267999 0.69400001 1.8476246e-38
-0.07997524 0.15267999 0.69400001 1.8568442e-38
-0.078540005 0.15246001 0.69300002 1.8476246e-38
-0.07722 0.15246001 0.69300002 1.8476246e-38
-0.075899996 0.15246001 0.69300002 1.8476246e-38
-0.07092572 0.15312001 0.69600004 1.8661359e-38
-0.069600001 0.15312001 0.69600004 1.8753555e-38
-0.068274289 0.15312001 0.69600004 1.8937213e-38
-0.066948578 0.15312001 0.69600004 1.9121605e-38
-0.065434285 0.15267999 0.69400001 1.9030128e-38
-0.06411238 0.15267999 0.69400001 1.8753541e-38
-0.062790476 0.15267999 0.69400001 1.9121242e-38
-0.061468571 0.15267999 0.69400001 1.9213437e-38
-0.060146667 0.15267999 0.69400001 1.921379e-38
-0.058824759 0.15267999 0.69400001 1.9305986e-38
-0.041760001 0.15312001 0.69600004 1.9675479e-38
-0.040492382 0.15334 0.69700003 1.9675479e-38
-0.039164763 0.15334 0.69700003 1.9675129e-38
-0.025925715 0.15356 0.69800001 2.341769e-38
-0.024666667 0.15400001 0.70000005 2.3141103e-38
-0.10556381 0.15666476 0.70600003 1.1786263e-38
-0.10392382 0.15622096 0.70400006 1.1140881e-38
-0.10243714 0.15599905 0.70300001 5.8857296e-39
-0.10081048 0.15555525 0.70100003 1.277055e-38
-0.099475242 0.15555525 0.70100003 1.9869613e-38
-0.097720005 0.15488952 0.69800001 1.9411509e-38
-0.096390471 0.15488952 0.69800001 1.8489553e-38
-0.094924763 0.15466762 0.69700003 1.8297958e-38
-0.092269525 0.15466762 0.69700003 1.7928096e-38
-0.090811431 0.15444572 0.69600004 1.7835901e-38
-0.086834289 0.15444572 0.69600004 1.8110692e-38
-0.085262857 0.15400191 0.69400001 1.8110692e-38
-0.083940953 0.15400191 0.69400001 1.8202873e-38
-0.082619049 0.15400191 0.69400001 1.8295068e-38
-0.081297144 0.15400191 0.69400001 1.8386209e-38
-0.07997524 0.15400191 0.69400001 1.8201817e-38
-0.078653328 0.15400191 0.69400001 1.8476965e-38
-0.077331424 0.15400191 0.69400001 1.838477e-38
-0.076009519 0.15400191 0.69400001 1.8476246e-38
-0.074687615 0.15400191 0.69400001 1.8660638e-38
-0.07092572 0.15444572 0.69600004 1.8754617e-38
