# .PCD v0.7 - Point Cloud Data file format
VERSION 0.7
FIELDS x y z rgb
SIZE 4 4 4 4
TYPE F F F F
COUNT 1 1 1 1
WIDTH 123
HEIGHT 1
VIEWPOINT 0 0 0 1 0 0 0
POINTS 123
DATA ascii
-0.029660001 -0.088979997 1.483 6.5228314e-39
-0.029660001 -0.086155243 1.483 4.7804681e-39
-0.029540002 -0.082993336 1.4770001 2.4846507e-39
-0.067545719 -0.076168574 1.5090001 4.7786758e-39
-0.02978 -0.06381429 1.4890001 5.4333989e-39
-0.032616191 -0.060978096 1.4890001 1.0223638e-38
-0.060978096 -0.055305716 1.4890001 6.344547e-39
-0.060978096 -0.052469525 1.4890001 6.4370943e-39
-0.060978096 -0.049633335 1.4890001 6.4371027e-39
-0.06381429 -0.046797145 1.4890001 6.436765e-39
-0.060978096 -0.046797145 1.4890001 6.4371027e-39
-0.058141906 -0.046797145 1.4890001 6.4371027e-39
-0.064671434 -0.038802858 1.5090001 5.0552627e-39
-0.027197143 -0.038648572 1.503 9.0279817e-39
-0.067545719 -0.035928573 1.5090001 8.091578e-39
-0.064671434 -0.035928573 1.5090001 8.5525561e-39
-0.027070478 -0.03561905 1.4960001 1.095182e-38
-0.024220953 -0.03561905 1.4960001 1.0306451e-38
0.0014314286 -0.035785716 1.503 6.1583859e-39
-0.064671434 -0.033054285 1.5090001 1.130872e-38
-0.064671434 -0.030180002 1.5090001 1.0200574e-38
-0.061797142 -0.030180002 1.5090001 1.0842346e-38
-0.061797142 -0.027305715 1.5090001 1.1027462e-38
-0.084791437 -0.02443143 1.5090001 4.2262265e-39
-0.061797142 -0.02443143 1.5090001 1.0115571e-38
-0.058922861 -0.02443143 1.5090001 1.1590702e-38
-0.055825714 -0.024334285 1.503 1.0672707e-38
-0.084791437 -0.021557143 1.5090001 4.5939272e-39
-0.081591427 -0.021471428 1.503 5.0548997e-39
-0.061551426 -0.021471428 1.503 7.7239165e-39
-0.058688574 -0.021471428 1.503 9.1068509e-39
-0.055825714 -0.021471428 1.503 8.0952228e-39
-0.061551426 -0.01860857 1.503 9.0279719e-39
-0.058688574 -0.01860857 1.503 9.6733413e-39
-0.055825714 -0.01860857 1.503 1.0041755e-38
-0.052962858 -0.01860857 1.503 8.9354077e-39
-0.055565715 -0.015672382 1.4960001 1.0321569e-38
-0.052716192 -0.015672382 1.4960001 7.4635048e-39
-0.049866665 -0.015672382 1.4960001 7.63463e-39
-0.044167623 -0.015672382 1.4960001 1.2334051e-38
-0.070140004 -0.012882858 1.503 9.4881569e-39
-0.055565715 -0.012822858 1.4960001 8.6634647e-39
-0.052716192 -0.012822858 1.4960001 6.0819871e-39
-0.049866665 -0.012822858 1.4960001 7.3634311e-39
-0.052962858 -0.01002 1.503 6.3592788e-39
-0.050099999 -0.01002 1.503 7.273378e-39
-0.055825714 -0.0071571432 1.503 7.8264873e-39
-0.052962858 -0.0071571432 1.503 7.918683e-39
-0.050099999 -0.0071571432 1.503 8.2806552e-39
-0.052962858 -0.0042942856 1.503 8.8337925e-39
-0.052962858 -0.0014314286 1.503 1.3541204e-38
-0.050099999 -0.0014314286 1.503 1.5573031e-38
-0.047237143 -0.0014314286 1.503 1.6126204e-38
-0.050099999 0.0014314286 1.503 1.6405762e-38
-0.047237143 0.0014314286 1.503 1.7880892e-38
-0.050099999 0.0042942856 1.503 1.7789441e-38
-0.047237143 0.0042942856 1.503 1.7512854e-38
-0.044551432 0.0071857143 1.5090001 1.6503018e-38
-0.041511431 0.0071571432 1.503 1.6779605e-38
-0.058688574 0.01002 1.503 1.3546614e-38
-0.044551432 0.01006 1.5090001 1.6870718e-38
-0.058688574 0.012882858 1.503 1.5112502e-38
-0.041677143 0.012934286 1.5090001 1.7424248e-38
-0.041677143 0.015808573 1.5090001 1.7793025e-38
-0.038802858 0.018682858 1.5090001 1.8615936e-38
-0.038802858 0.021557143 1.5090001 1.9076554e-38
-0.088827625 0.024755238 1.529 3.4015217e-39
-0.035928573 0.02443143 1.5090001 1.0776089e-38
-0.035928573 0.027305715 1.5090001 1.0591646e-38
-0.033054285 0.033054285 1.5090001 1.1418886e-38
-0.03032 0.036095239 1.516 1.1517562e-38
-0.03032 0.038982857 1.516 1.3170602e-38
-0.027559049 0.044964768 1.5230001 1.1315554e-38
-0.024658097 0.044964768 1.5230001 1.0301402e-38
-0.027559049 0.047865715 1.5230001 1.1681499e-38
-0.024658097 0.047865715 1.5230001 1.0943934e-38
-0.021657143 0.047645714 1.516 1.17679e-38
-0.027559049 0.050766669 1.5230001 1.4456319e-38
-0.024658097 0.050766669 1.5230001 1.4825102e-38
-0.021757144 0.050766669 1.5230001 1.2878946e-38
-0.018856192 0.050766669 1.5230001 1.195699e-38
-0.027559049 0.053667624 1.5230001 1.4180469e-38
-0.024658097 0.053667624 1.5230001 1.3903882e-38
-0.021757144 0.053667624 1.5230001 1.270029e-38
-0.018856192 0.053667624 1.5230001 1.1686138e-38
-0.024658097 0.056568574 1.5230001 1.2516951e-38
-0.021757144 0.056568574 1.5230001 1.3340974e-38
-0.018856192 0.056568574 1.5230001 1.4723908e-38
-0.01595524 0.056568574 1.5230001 1.3528214e-38
-0.024658097 0.059469528 1.5230001 1.3250947e-38
-0.021757144 0.059469528 1.5230001 1.3710094e-38
-0.018856192 0.059469528 1.5230001 1.4263268e-38
-0.01595524 0.059469528 1.5230001 1.3529659e-38
-0.024658097 0.062370483 1.5230001 1.0579774e-38
-0.021757144 0.062370483 1.5230001 9.7424841e-39
-0.018856192 0.062370483 1.5230001 9.4658972e-39
-0.01595524 0.062370483 1.5230001 1.0947828e-38
-0.013054286 0.062370483 1.5230001 1.2054175e-38
-0.021757144 0.06527143 1.5230001 8.4640305e-39
-0.018856192 0.06527143 1.5230001 8.5562261e-39
-0.01595524 0.06527143 1.5230001 1.1508269e-38
-0.013054286 0.06527143 1.5230001 1.2061443e-38
0.01595524 0.06527143 1.5230001 1.2155384e-38
-0.021757144 0.068172388 1.5230001 1.2529608e-38
-0.018856192 0.068172388 1.5230001 1.3174977e-38
-0.01595524 0.068172388 1.5230001 1.0958744e-38
-0.013054286 0.068172388 1.5230001 7.9162882e-39
-0.018856192 0.071073338 1.5230001 6.9960905e-39
-0.01595524 0.071073338 1.5230001 5.608131e-39
-0.013054286 0.071073338 1.5230001 5.9769135e-39
-0.018856192 0.073974289 1.5230001 5.3293286e-39
-0.01595524 0.073974289 1.5230001 9.9476496e-39
-0.013054286 0.073974289 1.5230001 1.3912045e-38
-0.010106667 0.073634289 1.516 1.2525333e-38
-0.01595524 0.076875247 1.5230001 1.2524191e-38
-0.013054286 0.076875247 1.5230001 1.3077364e-38
-0.010153335 0.076875247 1.5230001 1.2800447e-38
-0.01595524 0.079776198 1.5230001 1.1511531e-38
-0.013054286 0.079776198 1.5230001 9.4832271e-39
-0.010153335 0.079776198 1.5230001 9.1104257e-39
-0.0072190473 0.079409525 1.516 6.8977305e-39
-0.027559049 0.082677148 1.5230001 9.3034391e-39
-0.03032 0.08518476 1.516 7.6334935e-39
