# .PCD v0.7 - Point Cloud Data file format
VERSION 0.7
FIELDS x y z rgb
SIZE 4 4 4 4
TYPE F F F F
COUNT 1 1 1 1
WIDTH 129
HEIGHT 1
VIEWPOINT 0 0 0 1 0 0 0
POINTS 129
DATA ascii
-0.11284 -0.050840002 1.302 2.3324778e-38
-0.10951239 -0.050449528 1.2920001 1.7510009e-39
-0.10746571 -0.048174284 1.2970001 5.9711009e-39
-0.086417146 -0.018257145 1.2780001 6.7093764e-39
-0.083982863 -0.018257145 1.2780001 9.7518322e-39
-0.081548579 -0.015822859 1.2780001 9.2973042e-39
-0.11487714 0.0012352382 1.2970001 7.1736042e-39
-0.11487714 0.0037057146 1.2970001 7.8182729e-39
-0.11487714 0.0061761905 1.2970001 7.5423965e-39
-0.11036 0.01116 1.302 4.5020917e-39
-0.11825238 0.013692382 1.307 6.9852374e-39
-0.11576286 0.013692382 1.307 6.8930432e-39
-0.11576286 0.016181905 1.307 7.6284446e-39
-0.11327334 0.016181905 1.307 9.9247062e-39
-0.11327334 0.018671431 1.307 1.0846294e-38
-0.11327334 0.021160953 1.307 1.1857931e-38
-0.11078382 0.023650477 1.307 1.2421516e-38
-0.097960003 0.043400001 1.302 8.0026768e-39
-0.095480002 0.048359998 1.302 1.8246077e-38
-0.095480002 0.050840002 1.302 1.852988e-38
-0.093000002 0.050840002 1.302 1.8806461e-38
-0.095480002 0.053319998 1.302 1.8527369e-38
-0.093000002 0.053319998 1.302 1.8712479e-38
-0.088378102 0.060993332 1.307 1.8711747e-38
-0.085888579 0.06597238 1.307 1.8897936e-38
-0.020918095 0.065215245 1.2920001 1.3545886e-38
-0.08339905 0.068461902 1.307 1.9542237e-38
-0.08339905 0.070951432 1.307 1.9175243e-38
-0.080909528 0.073440954 1.307 2.0739629e-38
-0.080909528 0.075930484 1.307 1.7877982e-38
-0.078420006 0.075930484 1.307 1.861126e-38
-0.07564 0.07564 1.302 1.1880979e-38
-0.078420006 0.078420006 1.307 1.3168394e-38
-0.078420006 0.080909528 1.307 1.3077297e-38
-0.075930484 0.080909528 1.307 1.2339732e-38
-0.078420006 0.08339905 1.307 1.4366972e-38
-0.075930484 0.08339905 1.307 1.3629407e-38
-0.073440954 0.08339905 1.307 1.2067467e-38
-0.075930484 0.085888579 1.307 1.3903849e-38
-0.073440954 0.085888579 1.307 1.2159672e-38
-0.070951432 0.085888579 1.307 1.2436259e-38
-0.075930484 0.088378102 1.307 1.6294802e-38
-0.073440954 0.088378102 1.307 1.408823e-38
-0.070951432 0.088378102 1.307 1.3811643e-38
-0.073440954 0.090867624 1.307 1.53743e-38
-0.070951432 0.090867624 1.307 1.4267952e-38
-0.068461902 0.090867624 1.307 1.1689724e-38
-0.026140001 0.090867624 1.307 9.3851965e-39
-0.078720003 0.093714289 1.312 1.2773417e-38
-0.073440954 0.093357146 1.307 1.2783809e-38
-0.070951432 0.093357146 1.307 1.2691613e-38
-0.068461902 0.093357146 1.307 1.1498517e-38
-0.06597238 0.093357146 1.307 1.0945343e-38
-0.043233335 0.092642859 1.2970001 1.0768498e-38
-0.028520001 0.093000002 1.302 7.6334935e-39
-0.026140001 0.093357146 1.307 9.2930148e-39
-0.023650477 0.093357146 1.307 9.0264991e-39
-0.070951432 0.095846668 1.307 1.2135594e-38
-0.068461902 0.095846668 1.307 1.1309813e-38
-0.06597238 0.095846668 1.307 1.2047378e-38
-0.063482858 0.095846668 1.307 1.2872913e-38
-0.043233335 0.095113337 1.2970001 1.0492997e-38
-0.026140001 0.095846668 1.307 9.1096788e-39
-0.070951432 0.098336197 1.307 1.1579563e-38
-0.068461902 0.098336197 1.307 1.2136336e-38
-0.06597238 0.098336197 1.307 1.7391487e-38
-0.063482858 0.098336197 1.307 1.6017595e-38
-0.070951432 0.10082572 1.307 1.1394818e-38
-0.068461902 0.10082572 1.307 1.2874264e-38
-0.06597238 0.10082572 1.307 1.7576241e-38
-0.063482858 0.10082572 1.307 1.69417e-38
-0.060993332 0.10082572 1.307 1.1594353e-38
-0.075930484 0.10331524 1.307 1.4540983e-38
-0.068461902 0.10331524 1.307 1.4632468e-38
-0.06597238 0.10331524 1.307 1.5923207e-38
-0.063482858 0.10331524 1.307 1.555654e-38
-0.060993332 0.10331524 1.307 1.3436041e-38
-0.05850381 0.10331524 1.307 1.4719979e-38
-0.073721908 0.10620952 1.312 1.444914e-38
-0.063725717 0.10620952 1.312 1.5462915e-38
-0.06122667 0.10620952 1.312 1.3895589e-38
-0.058727618 0.10620952 1.312 1.5089843e-38
-0.063725717 0.10870858 1.312 1.3061516e-38
-0.06122667 0.10870858 1.312 1.2139559e-38
-0.058727618 0.10870858 1.312 1.1860861e-38
-0.038735237 0.10870858 1.312 1.409405e-38
-0.063725717 0.11120762 1.312 1.2693123e-38
-0.06122667 0.11120762 1.312 1.2232144e-38
-0.058727618 0.11120762 1.312 1.0024857e-38
-0.056228571 0.11120762 1.312 9.2872919e-39
-0.041077144 0.11078382 1.307 1.4919157e-38
-0.038735237 0.11120762 1.312 1.4004025e-38
-0.083718091 0.11370667 1.312 1.0021218e-38
-0.080909528 0.11327334 1.307 1.0666587e-38
-0.053729523 0.11370667 1.312 1.1144538e-38
-0.08403714 0.11664857 1.317 5.975047e-39
-0.05895143 0.11664857 1.317 1.1330336e-38
-0.053729523 0.11620572 1.312 1.0961563e-38
-0.051230475 0.11620572 1.312 9.1176508e-39
-0.08403714 0.11915715 1.317 6.344219e-39
-0.056442861 0.11915715 1.317 5.5126605e-39
-0.053729523 0.11870477 1.312 4.5939272e-39
-0.051230475 0.11870477 1.312 4.2251503e-39
-0.08403714 0.12166572 1.317 6.2527297e-39
-0.056442861 0.12166572 1.317 4.960193e-39
-0.053729523 0.12120381 1.312 4.2262265e-39
-0.051230475 0.12120381 1.312 5.3325684e-39
-0.048731431 0.12120381 1.312 1.040468e-38
-0.046056192 0.12074191 1.307 1.3631527e-38
-0.04356667 0.12074191 1.307 1.5292956e-38
-0.056442861 0.12417428 1.317 1.0954331e-38
-0.053729523 0.12370285 1.312 1.3453235e-38
-0.051230475 0.12370285 1.312 1.4375191e-38
-0.048731431 0.12370285 1.312 1.2715379e-38
-0.046056192 0.12323143 1.307 1.2254401e-38
-0.04356667 0.12323143 1.307 1.0959045e-38
-0.053729523 0.12620191 1.312 1.446317e-38
-0.051230475 0.12620191 1.312 1.4647561e-38
-0.048731431 0.12620191 1.312 1.2898716e-38
-0.046056192 0.12572095 1.307 9.9484554e-39
-0.04356667 0.12572095 1.307 7.1800838e-39
-0.041077144 0.12572095 1.307 5.6127581e-39
-0.051230475 0.12870096 1.312 9.2948421e-39
-0.048731431 0.12870096 1.312 8.6544796e-39
-0.04356667 0.12821047 1.307 7.5463187e-39
-0.041077144 0.12821047 1.307 6.9009493e-39
-0.038587622 0.12821047 1.307 7.9086357e-39
-0.038587622 0.13069999 1.307 8.0008313e-39
-0.036098097 0.13069999 1.307 8.0008313e-39
