# .PCD v0.7 - Point Cloud Data file format
VERSION 0.7
FIELDS x y z rgb
SIZE 4 4 4 4
TYPE F F F F
COUNT 1 1 1 1
WIDTH 361
HEIGHT 1
VIEWPOINT 0 0 0 1 0 0 0
POINTS 361
DATA ascii
-0.013722857 -0.17839715 1.6010001 1.4008659e-38
-0.010726667 -0.17622381 1.6090001 1.465337e-38
-0.0076619047 -0.17622381 1.6090001 9.0294362e-39
-0.053133339 -0.17154478 1.5940001 1.557637e-38
-0.050097149 -0.17154478 1.5940001 1.6682717e-38
-0.047060952 -0.17154478 1.5940001 1.6774923e-38
-0.028699048 -0.17068382 1.5860001 1.8435516e-38
-0.010726667 -0.17315906 1.6090001 1.5209027e-38
-0.059205718 -0.16850857 1.5940001 1.1982886e-38
-0.053133339 -0.16850857 1.5940001 1.4932808e-38
-0.050097149 -0.16850857 1.5940001 1.6315743e-38
-0.047060952 -0.16850857 1.5940001 1.6407582e-38
-0.044024762 -0.16850857 1.5940001 1.7237343e-38
-0.034740951 -0.16766286 1.5860001 1.7792662e-38
-0.031720001 -0.16766286 1.5860001 1.7977053e-38
-0.028699048 -0.16766286 1.5860001 1.8160021e-38
-0.010726667 -0.1700943 1.6090001 1.4381802e-38
-0.062515244 -0.16619904 1.6010001 1.1612272e-38
-0.059205718 -0.1654724 1.5940001 1.2351678e-38
-0.053133339 -0.1654724 1.5940001 1.4748777e-38
-0.050097149 -0.1654724 1.5940001 1.6131711e-38
-0.047060952 -0.1654724 1.5940001 1.5764008e-38
-0.044024762 -0.1654724 1.5940001 1.6593769e-38
-0.037952382 -0.1654724 1.5940001 1.705511e-38
-0.034740951 -0.16464192 1.5860001 1.7423159e-38
-0.031720001 -0.16464192 1.5860001 1.8345116e-38
-0.028699048 -0.16464192 1.5860001 1.8067825e-38
-0.053133339 -0.1624362 1.5940001 1.4933168e-38
-0.050097149 -0.1624362 1.5940001 1.6039516e-38
-0.047060952 -0.1624362 1.5940001 1.5763655e-38
-0.044024762 -0.1624362 1.5940001 1.6409024e-38
-0.040988572 -0.1624362 1.5940001 1.6593771e-38
-0.034740951 -0.16162096 1.5860001 1.7146217e-38
-0.031720001 -0.16162096 1.5860001 1.7975977e-38
-0.028699048 -0.16162096 1.5860001 1.7699763e-38
-0.050097149 -0.1594 1.5940001 1.6683083e-38
-0.047060952 -0.1594 1.5940001 1.6406869e-38
-0.044024762 -0.1594 1.5940001 1.6960043e-38
-0.040988572 -0.1594 1.5940001 1.6961828e-38
-0.034740951 -0.15860002 1.5860001 1.7330245e-38
-0.031720001 -0.15860002 1.5860001 1.7606832e-38
-0.028699048 -0.15860002 1.5860001 1.742245e-38
-0.022771429 -0.1594 1.5940001 1.70551e-38
-0.0076619047 -0.16090001 1.6090001 9.7709221e-39
-0.0045971428 -0.16090001 1.6090001 6.5480379e-39
-0.053133339 -0.15636382 1.5940001 1.5669995e-38
-0.050097149 -0.15636382 1.5940001 1.6776342e-38
-0.047060952 -0.15636382 1.5940001 1.6683809e-38
-0.040782858 -0.15557905 1.5860001 1.6961828e-38
-0.037761904 -0.15557905 1.5860001 1.7238415e-38
-0.034740951 -0.15557905 1.5860001 1.7238059e-38
-0.031720001 -0.15557905 1.5860001 1.7514646e-38
-0.028699048 -0.15557905 1.5860001 1.7515728e-38
-0.022771429 -0.15636382 1.5940001 1.7514652e-38
-0.0076619047 -0.15783525 1.6090001 1.0418096e-38
-0.0045971428 -0.15783525 1.6090001 7.1948843e-39
-0.053133339 -0.15332761 1.5940001 1.5394776e-38
-0.050097149 -0.15332761 1.5940001 1.6040145e-38
-0.047060952 -0.15332761 1.5940001 1.6591585e-38
-0.040782858 -0.1525581 1.5860001 1.6408289e-38
-0.037761904 -0.1525581 1.5860001 1.6777071e-38
-0.034740951 -0.1525581 1.5860001 1.6684888e-38
-0.031720001 -0.1525581 1.5860001 1.6777084e-38
-0.028699048 -0.1525581 1.5860001 1.6685241e-38
-0.0076619047 -0.15477048 1.6090001 1.1157066e-38
-0.053133339 -0.15029144 1.5940001 1.1246027e-38
-0.050097149 -0.15029144 1.5940001 1.3366526e-38
-0.047060952 -0.15029144 1.5940001 1.290559e-38
-0.044024762 -0.15029144 1.5940001 1.2813395e-38
-0.040988572 -0.15029144 1.5940001 1.2814461e-38
-0.037761904 -0.14953715 1.5860001 1.2906657e-38
-0.034740951 -0.14953715 1.5860001 1.2907378e-38
-0.031720001 -0.14953715 1.5860001 1.2815183e-38
-0.0076619047 -0.15170573 1.6090001 6.0053038e-39
-0.053133339 -0.14725524 1.5940001 4.2262685e-39
-0.050097149 -0.14725524 1.5940001 8.4672675e-39
-0.047060952 -0.14725524 1.5940001 6.624787e-39
-0.044024762 -0.14725524 1.5940001 3.1224293e-39
-0.040988572 -0.14725524 1.5940001 3.3078715e-39
-0.034740951 -0.1465162 1.5860001 5.42798e-39
-0.031720001 -0.1465162 1.5860001 4.5060378e-39
-0.025920954 -0.14790191 1.6010001 2.8472591e-39
-0.0076619047 -0.14864096 1.6090001 5.8936217e-39
-0.053133339 -0.14421906 1.5940001 6.2480423e-39
-0.050097149 -0.14421906 1.5940001 6.6168192e-39
-0.047060952 -0.14421906 1.5940001 6.0661902e-39
-0.044024762 -0.14421906 1.5940001 4.867647e-39
-0.040988572 -0.14421906 1.5940001 5.8796241e-39
-0.037761904 -0.14349525 1.5860001 7.6313355e-39
-0.034740951 -0.14349525 1.5860001 9.1100515e-39
-0.019735239 -0.14421906 1.5940001 6.1551306e-39
-0.065564767 -0.14180286 1.6010001 5.0599206e-39
-0.053133339 -0.14118285 1.5940001 7.9972342e-39
-0.050097149 -0.14118285 1.5940001 8.1816254e-39
-0.047060952 -0.14118285 1.5940001 8.2734539e-39
-0.044024762 -0.14118285 1.5940001 8.2734539e-39
-0.040782858 -0.14047429 1.5860001 9.0974903e-39
-0.037761904 -0.14047429 1.5860001 1.1125794e-38
-0.034740951 -0.14047429 1.5860001 1.0855659e-38
-0.031720001 -0.14047429 1.5860001 1.0855659e-38
-0.019735239 -0.14118285 1.5940001 8.8241404e-39
-0.065892383 -0.13944668 1.6090001 4.0421968e-39
-0.050317146 -0.13875334 1.6010001 9.3773015e-39
-0.047060952 -0.13814668 1.5940001 1.0204152e-38
-0.044024762 -0.13814668 1.5940001 1.0388543e-38
-0.040782858 -0.13745333 1.5860001 1.0845958e-38
-0.037761904 -0.13745333 1.5860001 1.2597675e-38
-0.034740951 -0.13745333 1.5860001 1.2233194e-38
-0.031720001 -0.13745333 1.5860001 1.2601977e-38
-0.047060952 -0.13511048 1.5940001 9.7543167e-39
-0.044024762 -0.13511048 1.5940001 1.0768469e-38
-0.040782858 -0.13443239 1.5860001 1.0217838e-38
-0.037761904 -0.13443239 1.5860001 1.1969555e-38
-0.034740951 -0.13443239 1.5860001 1.1328132e-38
-0.031720001 -0.13443239 1.5860001 1.1512523e-38
-0.028699048 -0.13443239 1.5860001 1.095006e-38
-0.062827617 -0.13331714 1.6090001 5.3347334e-39
-0.047060952 -0.1320743 1.5940001 8.1942175e-39
-0.044024762 -0.1320743 1.5940001 9.0239782e-39
-0.040782858 -0.13141143 1.5860001 6.9139113e-39
-0.037761904 -0.13141143 1.5860001 8.3890414e-39
-0.034740951 -0.13141143 1.5860001 8.2057642e-39
-0.031720001 -0.13141143 1.5860001 7.5603948e-39
-0.028699048 -0.13141143 1.5860001 8.748155e-39
-0.019735239 -0.1320743 1.5940001 1.0109828e-38
-0.059762858 -0.13025239 1.6090001 7.8114052e-39
-0.047060952 -0.1290381 1.5940001 8.1952853e-39
-0.044024762 -0.1290381 1.5940001 1.0131394e-38
-0.040782858 -0.12839049 1.5860001 7.8355047e-39
-0.037761904 -0.12839049 1.5860001 8.4808741e-39
-0.034740951 -0.12839049 1.5860001 8.3887331e-39
-0.031720001 -0.12839049 1.5860001 6.7292118e-39
-0.028699048 -0.12839049 1.5860001 8.9314574e-39
-0.062827617 -0.12718762 1.6090001 6.4389258e-39
-0.059762858 -0.12718762 1.6090001 7.8114052e-39
-0.056698099 -0.12718762 1.6090001 8.1801877e-39
-0.047060952 -0.12600191 1.5940001 8.1020078e-39
-0.044024762 -0.12600191 1.5940001 9.300551e-39
-0.040782858 -0.12536952 1.5860001 7.3741706e-39
-0.037761904 -0.12536952 1.5860001 7.9273444e-39
-0.034740951 -0.12536952 1.5860001 7.8359097e-39
-0.031720001 -0.12536952 1.5860001 5.8998014e-39
-0.028699048 -0.12536952 1.5860001 8.4722519e-39
-0.062827617 -0.12412287 1.6090001 5.9786707e-39
-0.059762858 -0.12412287 1.6090001 7.9957866e-39
-0.047060952 -0.12296572 1.5940001 9.11255e-39
-0.044024762 -0.12296572 1.5940001 9.0203544e-39
-0.040782858 -0.12234858 1.5860001 8.5630028e-39
-0.037761904 -0.12234858 1.5860001 9.3927635e-39
-0.034740951 -0.12234858 1.5860001 9.3034489e-39
-0.031720001 -0.12234858 1.5860001 8.7502751e-39
-0.028699048 -0.12234858 1.5860001 1.0310753e-38
-0.059762858 -0.1210581 1.6090001 8.271656e-39
-0.047060952 -0.11992953 1.5940001 1.0030569e-38
-0.044024762 -0.11992953 1.5940001 9.4773949e-39
-0.040782858 -0.11932763 1.5860001 9.5695989e-39
-0.037761904 -0.11932763 1.5860001 1.0675946e-38
-0.034740951 -0.11932763 1.5860001 1.0862511e-38
-0.031720001 -0.11932763 1.5860001 1.0954707e-38
-0.028699048 -0.11932763 1.5860001 1.2519862e-38
-0.050097149 -0.11689334 1.5940001 8.1798163e-39
-0.047060952 -0.11689334 1.5940001 8.4556984e-39
-0.044024762 -0.11689334 1.5940001 8.1791115e-39
-0.040782858 -0.11630668 1.5860001 7.9951238e-39
-0.037761904 -0.11630668 1.5860001 1.0023428e-38
-0.034740951 -0.11630668 1.5860001 9.2926491e-39
-0.031720001 -0.11630668 1.5860001 8.9238666e-39
-0.028699048 -0.11630668 1.5860001 9.4741635e-39
-0.050097149 -0.11385715 1.5940001 7.6284474e-39
-0.047060952 -0.11385715 1.5940001 8.2691491e-39
-0.044024762 -0.11385715 1.5940001 8.3613447e-39
-0.040782858 -0.11328572 1.5860001 8.0865459e-39
-0.037761904 -0.11328572 1.5860001 1.0299237e-38
-0.034740951 -0.11328572 1.5860001 9.2891473e-39
-0.031720001 -0.11328572 1.5860001 8.9203647e-39
-0.028699048 -0.11328572 1.5860001 7.9076071e-39
-0.050097149 -0.11082096 1.5940001 6.8012077e-39
-0.047060952 -0.11082096 1.5940001 6.8912495e-39
-0.044024762 -0.11082096 1.5940001 6.6146669e-39
-0.040782858 -0.11026477 1.5860001 6.5224726e-39
-0.037761904 -0.11026477 1.5860001 1.0855659e-38
-0.034740951 -0.11026477 1.5860001 1.3169617e-38
-0.031720001 -0.11026477 1.5860001 1.289303e-38
-0.028699048 -0.11026477 1.5860001 1.1421799e-38
-0.050097149 -0.10778476 1.5940001 5.1474583e-39
-0.047060952 -0.10778476 1.5940001 5.0552627e-39
-0.044024762 -0.10778476 1.5940001 4.4098975e-39
-0.040782858 -0.10724381 1.5860001 4.501733e-39
-0.037761904 -0.10724381 1.5860001 9.2959015e-39
-0.034740951 -0.10724381 1.5860001 1.4374262e-38
-0.031720001 -0.10724381 1.5860001 1.4743044e-38
-0.050097149 -0.10474858 1.5940001 5.3318496e-39
-0.047060952 -0.10474858 1.5940001 5.698837e-39
-0.044024762 -0.10474858 1.5940001 5.2378589e-39
-0.040782858 -0.10422286 1.5860001 4.7772395e-39
-0.037761904 -0.10422286 1.5860001 7.2665187e-39
-0.034740951 -0.10422286 1.5860001 1.2532375e-38
-0.031720001 -0.10422286 1.5860001 1.6681179e-38
-0.050097149 -0.10171238 1.5940001 5.698837e-39
-0.047060952 -0.10171238 1.5940001 5.9743449e-39
-0.044024762 -0.10171238 1.5940001 5.6055624e-39
-0.004617143 -0.10311619 1.6160001 4.6911437e-39
-0.050317146 -0.099109523 1.6010001 5.699193e-39
-0.047060952 -0.098676197 1.5940001 5.9743449e-39
-0.043803811 -0.098180957 1.5860001 5.6055624e-39
-0.040782858 -0.098180957 1.5860001 4.5939272e-39
-0.037761904 -0.098180957 1.5860001 6.8988123e-39
-0.034740951 -0.098180957 1.5860001 9.3017169e-39
-0.028970476 -0.099109523 1.6010001 1.3638469e-38
-0.050317146 -0.096060008 1.6010001 5.6995405e-39
-0.047060952 -0.095640004 1.5940001 6.0672412e-39
-0.043803811 -0.095160007 1.5860001 5.6984643e-39
-0.040782858 -0.095160007 1.5860001 4.5939272e-39
-0.037761904 -0.095160007 1.5860001 7.3597905e-39
-0.034740951 -0.095160007 1.5860001 1.0408755e-38
-0.032020003 -0.096060008 1.6010001 1.4004385e-38
-0.028970476 -0.096060008 1.6010001 1.3177864e-38
-0.022985715 -0.096540004 1.6090001 5.7971563e-39
-0.047060952 -0.092603818 1.5940001 5.975047e-39
-0.043803811 -0.09213905 1.5860001 5.6062701e-39
-0.040782858 -0.09213905 1.5860001 5.0531047e-39
-0.037761904 -0.09213905 1.5860001 8.3721474e-39
-0.034740951 -0.09213905 1.5860001 1.1055534e-38
-0.032020003 -0.093010478 1.6010001 1.409799e-38
-0.028970476 -0.093010478 1.6010001 1.3913974e-38
-0.047060952 -0.089567624 1.5940001 5.9743449e-39
-0.043803811 -0.089118101 1.5860001 5.7899537e-39
-0.040782858 -0.089118101 1.5860001 5.3296874e-39
-0.037761904 -0.089118101 1.5860001 8.9253113e-39
-0.034740951 -0.089118101 1.5860001 1.1423598e-38
-0.031720001 -0.089118101 1.5860001 1.2990924e-38
-0.028699048 -0.089118101 1.5860001 1.3174612e-38
-0.059205718 -0.086531438 1.5940001 5.6073463e-39
-0.047060952 -0.086531438 1.5940001 6.159455e-39
-0.043803811 -0.086097151 1.5860001 6.9892157e-39
-0.040782858 -0.086097151 1.5860001 6.5289606e-39
-0.037761904 -0.086097151 1.5860001 8.5572645e-39
-0.034740951 -0.086097151 1.5860001 7.6417458e-39
-0.031720001 -0.086097151 1.5860001 7.1807676e-39
-0.028699048 -0.086097151 1.5860001 7.6395976e-39
-0.056416195 -0.083861902 1.6010001 6.1612347e-39
-0.047060952 -0.083495244 1.5940001 6.4367426e-39
-0.044024762 -0.083495244 1.5940001 7.3586989e-39
-0.037761904 -0.083076194 1.5860001 8.1931273e-39
-0.034740951 -0.083076194 1.5860001 7.4580832e-39
-0.031720001 -0.083076194 1.5860001 6.9049094e-39
-0.028699048 -0.083076194 1.5860001 6.9963792e-39
-0.059465718 -0.080812387 1.6010001 5.9743449e-39
-0.047060952 -0.080459051 1.5940001 6.7108338e-39
-0.044024762 -0.080459051 1.5940001 7.7249857e-39
-0.040782858 -0.080055244 1.5860001 7.4566188e-39
-0.037761904 -0.080055244 1.5860001 7.4566188e-39
-0.034740951 -0.080055244 1.5860001 7.3626618e-39
-0.031720001 -0.080055244 1.5860001 7.1782705e-39
-0.028699048 -0.080055244 1.5860001 7.3644456e-39
-0.059205718 -0.077422865 1.5940001 6.2516325e-39
-0.047060952 -0.077422865 1.5940001 6.5300172e-39
-0.044024762 -0.077422865 1.5940001 6.5300172e-39
-0.037761904 -0.077034287 1.5860001 6.8055139e-39
-0.034740951 -0.077034287 1.5860001 6.9909842e-39
-0.031720001 -0.077034287 1.5860001 6.7143973e-39
-0.028699048 -0.077034287 1.5860001 6.6222128e-39
-0.025678096 -0.077034287 1.5860001 7.083191e-39
-0.062515244 -0.074713334 1.6010001 6.2527115e-39
-0.047060952 -0.074386671 1.5940001 6.2523513e-39
-0.044024762 -0.074386671 1.5940001 6.2523513e-39
-0.040988572 -0.074386671 1.5940001 5.9761428e-39
-0.037761904 -0.074013337 1.5860001 5.6995559e-39
-0.034740951 -0.074013337 1.5860001 5.8832115e-39
-0.031720001 -0.074013337 1.5860001 5.9754057e-39
-0.062515244 -0.071663812 1.6010001 6.4370943e-39
-0.047060952 -0.071350485 1.5940001 6.2527297e-39
-0.044024762 -0.071350485 1.5940001 6.160534e-39
-0.040988572 -0.071350485 1.5940001 5.7006447e-39
-0.037952382 -0.071350485 1.5940001 5.3318622e-39
-0.034916192 -0.071350485 1.5940001 5.2407217e-39
-0.031880002 -0.071350485 1.5940001 5.4251102e-39
-0.047060952 -0.068314292 1.5940001 6.1598278e-39
-0.037952382 -0.068314292 1.5940001 7.3601787e-39
-0.034916192 -0.068314292 1.5940001 7.5495375e-39
-0.031880002 -0.068314292 1.5940001 8.6558851e-39
-0.028843811 -0.068314292 1.5940001 1.0223619e-38
-0.041168571 -0.065564767 1.6010001 5.6113133e-39
-0.037952382 -0.065278098 1.5940001 7.0864434e-39
-0.034916192 -0.065278098 1.5940001 7.0889349e-39
-0.031880002 -0.065278098 1.5940001 9.4860213e-39
-0.041168571 -0.062515244 1.6010001 9.1990101e-39
-0.041168571 -0.059465718 1.6010001 1.1033936e-38
-0.0232 -0.060320001 1.6240001 1.2051688e-38
-0.035244767 -0.056698099 1.6090001 1.1309807e-38
-0.03218 -0.056698099 1.6090001 1.2139568e-38
-0.035244767 -0.053633336 1.6090001 1.1404866e-38
-0.03218 -0.053633336 1.6090001 1.1681452e-38
-0.029115239 -0.053633336 1.6090001 1.1772583e-38
-0.035244767 -0.050568573 1.6090001 1.1219046e-38
-0.03218 -0.050568573 1.6090001 1.177222e-38
-0.029115239 -0.050568573 1.6090001 1.1864779e-38
-0.035244767 -0.04750381 1.6090001 1.1126851e-38
-0.03218 -0.04750381 1.6090001 1.1864416e-38
-0.029115239 -0.04750381 1.6090001 1.2048094e-38
-0.035244767 -0.044439051 1.6090001 1.1589627e-38
-0.03218 -0.044439051 1.6090001 1.1589627e-38
-0.029115239 -0.044439051 1.6090001 1.1865498e-38
0.010773334 -0.044632383 1.6160001 4.8730294e-39
-0.035244767 -0.041374285 1.6090001 1.1038967e-38
-0.03218 -0.041374285 1.6090001 1.1131163e-38
-0.029115239 -0.041374285 1.6090001 1.1957693e-38
0.010773334 -0.041554287 1.6160001 5.0574235e-39
-0.035244767 -0.038309526 1.6090001 1.14985e-38
-0.03218 -0.038309526 1.6090001 1.1037522e-38
-0.029115239 -0.038309526 1.6090001 1.1217611e-38
0.010773334 -0.038476191 1.6160001 5.2418147e-39
-0.035244767 -0.035244767 1.6090001 1.1314064e-38
-0.03218 -0.035244767 1.6090001 1.0760896e-38
-0.029115239 -0.035244767 1.6090001 1.1032473e-38
0.010773334 -0.0353981 1.6160001 5.700995e-39
-0.035244767 -0.03218 1.6090001 9.8342902e-39
-0.03218 -0.03218 1.6090001 1.2046973e-38
-0.029115239 -0.03218 1.6090001 1.307158e-38
0.010773334 -0.03232 1.6160001 5.6087994e-39
-0.03218 -0.029115239 1.6090001 1.2330384e-38
-0.029241905 -0.016929524 1.6160001 1.751356e-38
-0.029241905 -0.013851429 1.6160001 1.7327018e-38
-0.029241905 -0.010773334 1.6160001 1.6864219e-38
-0.029386668 -0.0077333339 1.6240001 1.6863775e-38
-0.029386668 -0.0046399999 1.6240001 1.5293284e-38
-0.029386668 -0.0015466667 1.6240001 1.6212742e-38
-0.029386668 0.0015466667 1.6240001 1.5844663e-38
-0.026422858 0.0015542858 1.6320001 1.0958294e-38
-0.029386668 0.0046399999 1.6240001 1.2526259e-38
-0.026422858 0.0046628574 1.6320001 1.0866737e-38
-0.029386668 0.0077333339 1.6240001 1.1700842e-38
-0.026422858 0.0077714291 1.6320001 9.4881471e-39
-0.026422858 0.010880001 1.6320001 1.2893284e-38
-0.026422858 0.013988572 1.6320001 1.3812009e-38
-0.026422858 0.017097143 1.6320001 1.4540211e-38
-0.026422858 0.020205716 1.6320001 1.3337351e-38
-0.026422858 0.023314286 1.6320001 1.2779552e-38
-0.026422858 0.026422858 1.6320001 1.2322493e-38
-0.026422858 0.029531429 1.6320001 1.3437087e-38
0.010826667 0.029386668 1.6240001 1.1233062e-38
-0.026422858 0.032640003 1.6320001 1.41711e-38
-0.023314286 0.032640003 1.6320001 1.3439657e-38
-0.026422858 0.035748575 1.6320001 1.1405603e-38
-0.023314286 0.035748575 1.6320001 1.1499965e-38
-0.029386668 0.038666669 1.6240001 1.1131545e-38
-0.026422858 0.038857147 1.6320001 1.251448e-38
-0.023314286 0.038857147 1.6320001 1.1415332e-38
-0.026422858 0.041965716 1.6320001 1.2062496e-38
-0.023314286 0.041965716 1.6320001 1.1879209e-38
-0.010926667 0.042145714 1.6390001 1.1977488e-38
-0.029531429 0.045074288 1.6320001 7.1808124e-39
-0.026422858 0.045074288 1.6320001 9.9466813e-39
-0.023314286 0.045074288 1.6320001 1.0133601e-38
-0.020292383 0.045267619 1.6390001 1.0686774e-38
-0.029531429 0.04818286 1.6320001 4.7772395e-39
-0.020292383 0.048389524 1.6390001 5.2378519e-39
-0.026422858 0.051291432 1.6320001 6.1540951e-39
-0.023314286 0.051291432 1.6320001 5.6044764e-39
-0.026422858 0.054400001 1.6320001 1.0223648e-38
-0.023314286 0.054400001 1.6320001 1.0408004e-38
