# .PCD v0.7 - Point Cloud Data file format
VERSION 0.7
FIELDS x y z rgb
SIZE 4 4 4 4
TYPE F F F F
COUNT 1 1 1 1
WIDTH 335
HEIGHT 1
VIEWPOINT 0 0 0 1 0 0 0
POINTS 335
DATA ascii
-0.056416195 -0.15705048 1.6010001 1.0226474e-38
-0.056416195 -0.15400095 1.6010001 1.1055505e-38
-0.053133339 -0.14421906 1.5940001 6.3398778e-39
-0.050097149 -0.14421906 1.5940001 6.5242663e-39
-0.047060952 -0.14421906 1.5940001 6.1558481e-39
-0.053133339 -0.14118285 1.5940001 7.4451352e-39
-0.050097149 -0.14118285 1.5940001 7.8139177e-39
-0.047060952 -0.14118285 1.5940001 8.2702281e-39
-0.053133339 -0.13814668 1.5940001 7.813552e-39
-0.050097149 -0.13814668 1.5940001 8.2745301e-39
-0.047060952 -0.13814668 1.5940001 9.6509934e-39
-0.053133339 -0.13511048 1.5940001 7.2589503e-39
-0.050097149 -0.13511048 1.5940001 7.9043155e-39
-0.047060952 -0.13511048 1.5940001 8.7315552e-39
-0.053133339 -0.1320743 1.5940001 7.5362518e-39
-0.050097149 -0.1320743 1.5940001 8.5504037e-39
-0.047060952 -0.1320743 1.5940001 7.7210074e-39
-0.044024762 -0.1320743 1.5940001 7.6288118e-39
-0.050097149 -0.1290381 1.5940001 8.1816212e-39
-0.047060952 -0.1290381 1.5940001 7.7206571e-39
-0.026050476 -0.13025239 1.6090001 7.9233969e-39
-0.04726762 -0.12655525 1.6010001 7.534468e-39
-0.050317146 -0.12350571 1.6010001 8.0879921e-39
-0.04726762 -0.12350571 1.6010001 8.9127235e-39
-0.044218097 -0.12350571 1.6010001 1.0756636e-38
-0.056698099 -0.1210581 1.6090001 4.6922787e-39
-0.053633336 -0.1210581 1.6090001 7.9025218e-39
-0.050568573 -0.1210581 1.6090001 8.8244781e-39
-0.04726762 -0.1204562 1.6010001 9.8325218e-39
-0.044218097 -0.1204562 1.6010001 1.1676434e-38
-0.056698099 -0.11799334 1.6090001 4.2316607e-39
-0.053633336 -0.11799334 1.6090001 6.6164619e-39
-0.050568573 -0.11799334 1.6090001 6.8008532e-39
-0.044218097 -0.11740667 1.6010001 7.5355329e-39
-0.053633336 -0.11492857 1.6090001 4.5953635e-39
-0.050568573 -0.11492857 1.6090001 4.5031679e-39
-0.04750381 -0.11492857 1.6090001 5.0559745e-39
-0.050568573 -0.11186381 1.6090001 4.5978733e-39
-0.04750381 -0.11186381 1.6090001 5.2396539e-39
-0.041168571 -0.11130763 1.6010001 5.7910327e-39
-0.04726762 -0.1082581 1.6010001 5.2396539e-39
-0.044218097 -0.1082581 1.6010001 5.4240452e-39
-0.041168571 -0.1082581 1.6010001 5.698837e-39
-0.037952382 -0.10778476 1.5940001 5.0534676e-39
-0.050317146 -0.10520857 1.6010001 4.6893668e-39
-0.04726762 -0.10520857 1.6010001 5.2396539e-39
-0.044218097 -0.10520857 1.6010001 5.2396539e-39
-0.041168571 -0.10520857 1.6010001 5.5144458e-39
-0.037952382 -0.10474858 1.5940001 5.2378589e-39
-0.04726762 -0.10215905 1.6010001 5.2396539e-39
-0.044218097 -0.10215905 1.6010001 5.2396539e-39
-0.028699048 -0.10120191 1.5860001 6.9002599e-39
-0.040988572 -0.098676197 1.5940001 5.975047e-39
-0.047060952 -0.095640004 1.5940001 5.6995405e-39
-0.044024762 -0.095640004 1.5940001 5.6995405e-39
-0.040988572 -0.095640004 1.5940001 6.2501947e-39
-0.050097149 -0.092603818 1.5940001 5.5162408e-39
-0.047060952 -0.092603818 1.5940001 5.975047e-39
-0.044024762 -0.092603818 1.5940001 5.8828527e-39
-0.040988572 -0.092603818 1.5940001 6.2501947e-39
-0.037952382 -0.092603818 1.5940001 5.973612e-39
-0.034916192 -0.092603818 1.5940001 5.1453101e-39
-0.028699048 -0.09213905 1.5860001 8.4704947e-39
-0.010726667 -0.093475237 1.6090001 5.0534634e-39
-0.053133339 -0.089567624 1.5940001 5.6995405e-39
-0.050097149 -0.089567624 1.5940001 5.7917347e-39
-0.047060952 -0.089567624 1.5940001 5.975047e-39
-0.044024762 -0.089567624 1.5940001 5.975047e-39
-0.040988572 -0.089567624 1.5940001 6.5242663e-39
-0.037952382 -0.089567624 1.5940001 6.4320721e-39
-0.034916192 -0.089567624 1.5940001 5.515152e-39
-0.010726667 -0.090410486 1.6090001 5.1449472e-39
-0.0076619047 -0.090410486 1.6090001 5.8825122e-39
-0.050097149 -0.086531438 1.5940001 5.7917361e-39
-0.047060952 -0.086531438 1.5940001 6.342389e-39
-0.044024762 -0.086531438 1.5940001 6.4345846e-39
-0.040988572 -0.086531438 1.5940001 6.4342441e-39
-0.037952382 -0.086531438 1.5940001 6.8952222e-39
-0.034916192 -0.086531438 1.5940001 6.8052e-39
-0.028843811 -0.086531438 1.5940001 7.8257909e-39
-0.010726667 -0.087345719 1.6090001 5.6963511e-39
-0.0076619047 -0.087345719 1.6090001 6.0651336e-39
-0.053366669 -0.083861902 1.6010001 5.6995405e-39
-0.050317146 -0.083861902 1.6010001 6.0683202e-39
-0.04726762 -0.083861902 1.6010001 6.2523513e-39
-0.044218097 -0.083861902 1.6010001 6.344547e-39
-0.041168571 -0.083861902 1.6010001 6.7118903e-39
-0.038119048 -0.083861902 1.6010001 7.1728685e-39
-0.035069525 -0.083861902 1.6010001 7.9147593e-39
-0.010726667 -0.084280953 1.6090001 6.5264425e-39
-0.056416195 -0.080812387 1.6010001 5.4236949e-39
-0.053366669 -0.080812387 1.6010001 5.9743449e-39
-0.050317146 -0.080812387 1.6010001 6.2509318e-39
-0.04726762 -0.080812387 1.6010001 6.3449001e-39
-0.044218097 -0.080812387 1.6010001 6.4370943e-39
-0.038119048 -0.080812387 1.6010001 6.9884772e-39
-0.035069525 -0.080812387 1.6010001 6.7144085e-39
-0.032020003 -0.080812387 1.6010001 6.8987997e-39
-0.053366669 -0.077762857 1.6010001 6.0690391e-39
-0.050317146 -0.077762857 1.6010001 5.9768434e-39
-0.04726762 -0.077762857 1.6010001 6.344547e-39
-0.044218097 -0.077762857 1.6010001 6.5289382e-39
-0.038119048 -0.077762857 1.6010001 6.4371027e-39
-0.035069525 -0.077762857 1.6010001 6.4367426e-39
-0.053366669 -0.074713334 1.6010001 6.1612347e-39
-0.050317146 -0.074713334 1.6010001 6.1612347e-39
-0.04726762 -0.074713334 1.6010001 6.1612347e-39
-0.044218097 -0.074713334 1.6010001 6.0690391e-39
-0.041374285 -0.075086668 1.6090001 6.160534e-39
-0.038309526 -0.075086668 1.6090001 5.9761428e-39
-0.035244767 -0.075086668 1.6090001 5.9771994e-39
-0.053366669 -0.071663812 1.6010001 6.345626e-39
-0.050317146 -0.071663812 1.6010001 6.1612347e-39
-0.04726762 -0.071663812 1.6010001 6.160534e-39
-0.041374285 -0.072021902 1.6090001 6.0697775e-39
-0.038309526 -0.072021902 1.6090001 5.8853863e-39
-0.035244767 -0.072021902 1.6090001 5.7931907e-39
-0.03218 -0.072021902 1.6090001 5.6087994e-39
-0.056416195 -0.068614289 1.6010001 6.1612347e-39
-0.053366669 -0.068614289 1.6010001 5.7931907e-39
-0.050317146 -0.068614289 1.6010001 5.7931907e-39
-0.044439051 -0.06895715 1.6090001 5.7002846e-39
-0.041374285 -0.06895715 1.6090001 5.885036e-39
-0.038309526 -0.06895715 1.6090001 6.0694272e-39
-0.035244767 -0.06895715 1.6090001 6.1616355e-39
-0.03218 -0.06895715 1.6090001 7.267983e-39
-0.04750381 -0.065892383 1.6090001 4.8730294e-39
-0.044439051 -0.065892383 1.6090001 4.8730294e-39
-0.041374285 -0.065892383 1.6090001 5.4240452e-39
-0.038309526 -0.065892383 1.6090001 5.6084365e-39
-0.035244767 -0.065892383 1.6090001 5.885036e-39
-0.03218 -0.065892383 1.6090001 7.2679704e-39
-0.047710475 -0.063100956 1.6160001 8.8284073e-39
-0.044439051 -0.062827617 1.6090001 9.1971899e-39
-0.041374285 -0.062827617 1.6090001 8.9216918e-39
-0.038309526 -0.062827617 1.6090001 9.1982787e-39
-0.035244767 -0.062827617 1.6090001 9.1060956e-39
-0.03232 -0.063100956 1.6160001 9.7514651e-39
-0.044439051 -0.059762858 1.6090001 1.0941013e-38
-0.041374285 -0.059762858 1.6090001 1.0940643e-38
-0.038309526 -0.059762858 1.6090001 1.1586013e-38
-0.035244767 -0.059762858 1.6090001 1.1217611e-38
-0.041374285 -0.056698099 1.6090001 1.0385321e-38
-0.0353981 -0.056944765 1.6160001 1.0845958e-38
-0.03232 -0.056944765 1.6160001 1.1030349e-38
-0.029241905 -0.056944765 1.6160001 1.1584225e-38
-0.044632383 -0.053866666 1.6160001 1.0386037e-38
-0.041554287 -0.053866666 1.6160001 1.0663338e-38
-0.038309526 -0.053633336 1.6090001 1.0847729e-38
-0.035244767 -0.053633336 1.6090001 1.1123614e-38
-0.03218 -0.053633336 1.6090001 1.1031418e-38
-0.044632383 -0.050788574 1.6160001 9.8397216e-39
-0.041554287 -0.050788574 1.6160001 9.9326067e-39
-0.038309526 -0.050568573 1.6090001 1.0301389e-38
-0.035244767 -0.050568573 1.6090001 1.0481494e-38
-0.03218 -0.050568573 1.6090001 1.0942472e-38
-0.044632383 -0.047710475 1.6160001 8.9256967e-39
-0.041554287 -0.047710475 1.6160001 9.1090188e-39
-0.035244767 -0.04750381 1.6090001 9.7496742e-39
-0.03218 -0.04750381 1.6090001 1.0118457e-38
-0.029115239 -0.04750381 1.6090001 1.1495993e-38
-0.044632383 -0.044632383 1.6160001 8.9332623e-39
-0.041554287 -0.044632383 1.6160001 8.7492592e-39
-0.038476191 -0.044632383 1.6160001 7.6429116e-39
-0.03218 -0.044439051 1.6090001 1.0306849e-38
-0.029115239 -0.044439051 1.6090001 1.1407742e-38
-0.044632383 -0.041554287 1.6160001 7.8362628e-39
-0.041554287 -0.041554287 1.6160001 8.1139469e-39
-0.038476191 -0.041554287 1.6160001 5.0714911e-39
-0.0353981 -0.041554287 1.6160001 7.2697753e-39
0.0077333339 -0.041760001 1.6240001 1.8712463e-38
-0.044632383 -0.038476191 1.6160001 7.6522247e-39
-0.041554287 -0.038476191 1.6160001 7.1916123e-39
-0.038476191 -0.038476191 1.6160001 5.255504e-39
-0.0353981 -0.038476191 1.6160001 7.9172957e-39
-0.044632383 -0.0353981 1.6160001 6.6402209e-39
-0.041554287 -0.0353981 1.6160001 4.2431472e-39
-0.038476191 -0.0353981 1.6160001 4.4275384e-39
-0.0353981 -0.0353981 1.6160001 7.9183495e-39
-0.03232 -0.0353981 1.6160001 7.9183495e-39
-0.029241905 -0.0353981 1.6160001 1.0485031e-38
-0.041554287 -0.03232 1.6160001 7.2668886e-39
-0.038476191 -0.03232 1.6160001 7.912258e-39
-0.0353981 -0.03232 1.6160001 8.9224204e-39
-0.03232 -0.03232 1.6160001 8.9224204e-39
-0.029241905 -0.03232 1.6160001 1.0670137e-38
-0.041554287 -0.029241905 1.6160001 9.9300718e-39
-0.038476191 -0.029241905 1.6160001 1.168178e-38
-0.0353981 -0.029241905 1.6160001 1.1594276e-38
-0.03232 -0.029241905 1.6160001 1.3345993e-38
-0.029241905 -0.029241905 1.6160001 1.3536145e-38
-0.0015390477 -0.029241905 1.6160001 1.4474714e-38
-0.041554287 -0.026163809 1.6160001 1.7048235e-38
-0.038476191 -0.026163809 1.6160001 1.7417017e-38
-0.0353981 -0.026163809 1.6160001 1.7601777e-38
-0.03232 -0.026163809 1.6160001 1.8615929e-38
-0.026293335 -0.026293335 1.6240001 1.8800696e-38
-0.035573334 -0.0232 1.6240001 1.659267e-38
-0.032480001 -0.0232 1.6240001 1.7145844e-38
-0.029386668 -0.0232 1.6240001 1.6686327e-38
-0.026293335 -0.0232 1.6240001 1.705511e-38
-0.035573334 -0.020106668 1.6240001 1.5762556e-38
-0.032480001 -0.020106668 1.6240001 1.6500121e-38
-0.029386668 -0.020106668 1.6240001 1.6316831e-38
-0.035573334 -0.017013334 1.6240001 1.567001e-38
-0.032480001 -0.017013334 1.6240001 1.6591967e-38
-0.029386668 -0.017013334 1.6240001 1.6317182e-38
-0.035573334 -0.013920001 1.6240001 1.5577459e-38
-0.032480001 -0.013920001 1.6240001 1.6960393e-38
-0.029386668 -0.013920001 1.6240001 1.6961465e-38
0.029531429 -0.013988572 1.6320001 1.0036691e-38
-0.035573334 -0.010826667 1.6240001 1.4749468e-38
-0.032480001 -0.010826667 1.6240001 1.6869967e-38
-0.029386668 -0.010826667 1.6240001 1.7145866e-38
-0.026422858 -0.010880001 1.6320001 1.7053671e-38
0.017097143 -0.010880001 1.6320001 6.255217e-39
-0.047946669 -0.0077333339 1.6240001 1.4007249e-38
-0.035573334 -0.0077333339 1.6240001 1.3639497e-38
-0.032480001 -0.0077333339 1.6240001 1.7880496e-38
-0.029386668 -0.0077333339 1.6240001 1.7881626e-38
-0.026422858 -0.0077714291 1.6320001 1.695967e-38
-0.045074288 -0.0046628574 1.6320001 1.4559697e-38
-0.035573334 -0.0046399999 1.6240001 1.4649729e-38
-0.032480001 -0.0046399999 1.6240001 1.7692185e-38
-0.029386668 -0.0046399999 1.6240001 1.7789428e-38
-0.026422858 -0.0046628574 1.6320001 1.7144059e-38
-0.035573334 -0.0015466667 1.6240001 1.5848323e-38
-0.032480001 -0.0015466667 1.6240001 1.5110758e-38
-0.029386668 -0.0015466667 1.6240001 1.6771648e-38
-0.026422858 -0.0015542858 1.6320001 1.7509213e-38
-0.023314286 -0.0015542858 1.6320001 1.6491094e-38
-0.035573334 0.0015466667 1.6240001 1.4560073e-38
-0.032480001 0.0015466667 1.6240001 1.3453725e-38
-0.029386668 0.0015466667 1.6240001 1.4003973e-38
-0.026422858 0.0015542858 1.6320001 1.4833734e-38
-0.023314286 0.0015542858 1.6320001 1.5473725e-38
-0.032480001 0.0046399999 1.6240001 9.0081351e-39
-0.029386668 0.0046399999 1.6240001 9.7467637e-39
-0.026422858 0.0046628574 1.6320001 1.4172154e-38
-0.023314286 0.0046628574 1.6320001 1.2619905e-38
-0.07305143 0.0077714291 1.6320001 4.134391e-39
-0.032480001 0.0077333339 1.6240001 1.0659375e-38
-0.029386668 0.0077333339 1.6240001 1.1313703e-38
-0.026422858 0.0077714291 1.6320001 1.5739079e-38
-0.023314286 0.0077714291 1.6320001 1.2072143e-38
-0.020205716 0.0077714291 1.6320001 9.029687e-39
0.0046399999 0.0077333339 1.6240001 1.2340473e-38
-0.041760001 0.010826667 1.6240001 1.3444265e-38
-0.032480001 0.010826667 1.6240001 1.1763196e-38
-0.029386668 0.010826667 1.6240001 1.1957285e-38
-0.026422858 0.010880001 1.6320001 1.7304632e-38
-0.023314286 0.010880001 1.6320001 1.391173e-38
-0.020205716 0.010880001 1.6320001 1.3174165e-38
-0.032480001 0.013920001 1.6240001 1.2132331e-38
-0.029386668 0.013920001 1.6240001 1.1583846e-38
-0.026422858 0.013988572 1.6320001 1.5824845e-38
-0.023314286 0.013988572 1.6320001 1.3538288e-38
-0.020205716 0.013988572 1.6320001 1.3538288e-38
-0.035573334 0.017013334 1.6240001 1.1026717e-38
-0.032480001 0.017013334 1.6240001 1.1948669e-38
-0.026422858 0.017097143 1.6320001 1.1766458e-38
-0.023314286 0.017097143 1.6320001 1.1403082e-38
-0.020205716 0.017097143 1.6320001 1.333919e-38
-0.017097143 0.017097143 1.6320001 1.1869437e-38
-0.026422858 0.020205716 1.6320001 1.2134161e-38
-0.023314286 0.020205716 1.6320001 1.1859367e-38
-0.020205716 0.020205716 1.6320001 1.2873519e-38
-0.017097143 0.020205716 1.6320001 1.2509768e-38
-0.026422858 0.023314286 1.6320001 1.1948345e-38
-0.023314286 0.023314286 1.6320001 1.1766116e-38
-0.020205716 0.023314286 1.6320001 1.2227094e-38
-0.017097143 0.023314286 1.6320001 1.1958755e-38
-0.026422858 0.026422858 1.6320001 1.2042319e-38
-0.023314286 0.026422858 1.6320001 1.1860436e-38
-0.020205716 0.026422858 1.6320001 1.241361e-38
-0.017097143 0.026422858 1.6320001 1.1683964e-38
-0.013988572 0.026422858 1.6320001 1.4634224e-38
-0.020205716 0.029531429 1.6320001 1.3987047e-38
-0.017097143 0.029531429 1.6320001 1.3069059e-38
-0.013988572 0.029531429 1.6320001 1.3437841e-38
-0.020205716 0.032640003 1.6320001 1.4263296e-38
-0.017097143 0.032640003 1.6320001 1.3529332e-38
-0.013988572 0.032640003 1.6320001 1.3713723e-38
-0.020205716 0.035748575 1.6320001 1.2050978e-38
-0.017097143 0.035748575 1.6320001 1.1317003e-38
-0.013988572 0.035748575 1.6320001 1.1132611e-38
-0.010880001 0.035748575 1.6320001 1.0763849e-38
-0.045267619 0.039023813 1.6390001 4.5946447e-39
-0.020205716 0.038857147 1.6320001 9.6567681e-39
-0.017097143 0.038857147 1.6320001 9.8444188e-39
-0.013988572 0.038857147 1.6320001 1.0950766e-38
-0.010880001 0.038857147 1.6320001 9.5743059e-39
-0.023314286 0.041965716 1.6320001 9.293403e-39
-0.020205716 0.041965716 1.6320001 9.1090117e-39
-0.017097143 0.041965716 1.6320001 1.0125694e-38
-0.013988572 0.041965716 1.6320001 1.233839e-38
-0.010880001 0.041965716 1.6320001 1.123955e-38
-0.045267619 0.045267619 1.6390001 6.2527297e-39
-0.023314286 0.045074288 1.6320001 7.8240028e-39
-0.020205716 0.045074288 1.6320001 8.1005897e-39
-0.017097143 0.045074288 1.6320001 8.7488584e-39
-0.013988572 0.045074288 1.6320001 6.8127502e-39
-0.010880001 0.045074288 1.6320001 6.8094585e-39
-0.0077714291 0.045074288 1.6320001 7.5470222e-39
-0.023314286 0.04818286 1.6320001 6.1583592e-39
-0.020205716 0.04818286 1.6320001 6.1583592e-39
-0.017097143 0.04818286 1.6320001 6.3427477e-39
-0.013988572 0.04818286 1.6320001 5.5129996e-39
-0.010880001 0.04818286 1.6320001 6.3445413e-39
-0.0077333339 0.047946669 1.6240001 8.2806412e-39
-0.042145714 0.051511429 1.6390001 6.8977586e-39
-0.039023813 0.051511429 1.6390001 8.3728886e-39
-0.023314286 0.051291432 1.6320001 7.7271171e-39
-0.017013334 0.051040001 1.6240001 7.4476533e-39
-0.013920001 0.051040001 1.6240001 7.6320446e-39
-0.010826667 0.051040001 1.6240001 8.2810041e-39
-0.0077333339 0.051040001 1.6240001 1.0124917e-38
-0.0046399999 0.051040001 1.6240001 1.0684982e-38
-0.039023813 0.054633334 1.6390001 9.0171791e-39
-0.023314286 0.054400001 1.6320001 9.7597509e-39
-0.017013334 0.054133337 1.6240001 9.3909684e-39
-0.013920001 0.054133337 1.6240001 9.2987728e-39
-0.010826667 0.054133337 1.6240001 9.4821103e-39
-0.0077333339 0.054133337 1.6240001 1.0219675e-38
-0.0046399999 0.054133337 1.6240001 8.6534538e-39
-0.042145714 0.057755239 1.6390001 6.8037525e-39
-0.039023813 0.057755239 1.6390001 7.2647306e-39
-0.035748575 0.057508573 1.6320001 7.3604897e-39
-0.023314286 0.057508573 1.6320001 7.9140559e-39
-0.017013334 0.057226669 1.6240001 7.9147453e-39
-0.013920001 0.057226669 1.6240001 8.5601147e-39
-0.010826667 0.057226669 1.6240001 8.5622895e-39
-0.0077333339 0.057226669 1.6240001 8.4700939e-39
-0.010826667 0.060320001 1.6240001 6.6186381e-39
-0.0077333339 0.060320001 1.6240001 6.4342469e-39
