# .PCD v0.7 - Point Cloud Data file format
VERSION 0.7
FIELDS x y z rgb
SIZE 4 4 4 4
TYPE F F F F
COUNT 1 1 1 1
WIDTH 971
HEIGHT 1
VIEWPOINT 0 0 0 1 0 0 0
POINTS 971
DATA ascii
-0.095878102 0.054308575 0.70400006 4.8687162e-39
-0.094402857 0.054231428 0.70300001 6.2516451e-39
-0.093063809 0.054231428 0.70300001 1.177721e-38
-0.091724768 0.054231428 0.70300001 1.6663579e-38
-0.090128571 0.054077145 0.70100003 1.8244638e-38
-0.08866667 0.054000005 0.70000005 2.0272942e-38
-0.087333336 0.054000005 0.70000005 1.8807543e-38
-0.085754283 0.053845715 0.69800001 1.991389e-38
-0.084424764 0.053845715 0.69800001 2.0926966e-38
-0.082976192 0.053768571 0.69700003 2.1572335e-38
-0.081648573 0.053768571 0.69700003 2.2125869e-38
-0.080320954 0.053768571 0.69700003 2.2494652e-38
-0.078993335 0.053768571 0.69700003 2.2863434e-38
-0.077665716 0.053768571 0.69700003 2.295563e-38
-0.076338097 0.053768571 0.69700003 2.2771589e-38
-0.075010478 0.053768571 0.69700003 2.2587198e-38
-0.07368286 0.053768571 0.69700003 2.2495721e-38
-0.068764761 0.054077145 0.70100003 2.0927692e-38
-0.067429528 0.054077145 0.70100003 1.991354e-38
-0.066094287 0.054077145 0.70100003 1.6966895e-38
-0.064943813 0.054231428 0.70300001 1.3832244e-38
-0.063604765 0.054231428 0.70300001 8.8537022e-39
-0.062354293 0.054308575 0.70400006 1.9390299e-39
-0.061013337 0.054308575 0.70400006 3.490521e-39
-0.059672385 0.054308575 0.70400006 2.7551083e-39
-0.058331434 0.054308575 0.70400006 1.3778912e-39
-0.057152383 0.054462858 0.70600003 2.2076476e-39
-0.055886667 0.054540001 0.70700002 5.9837084e-39
-0.05461714 0.05461714 0.708 8.2885991e-39
-0.05326857 0.05461714 0.708 9.305237e-39
-0.051919997 0.05461714 0.708 8.291085e-39
-0.1054 0.056440003 0.71400005 1.557059e-38
-0.10404 0.056440003 0.71400005 1.0038852e-38
-0.10224857 0.056202859 0.71100003 7.7310603e-39
-0.10075239 0.056123812 0.71000004 5.7949633e-39
-0.099120006 0.055965714 0.708 6.2577281e-39
-0.097633332 0.055886667 0.70700002 7.0874832e-39
-0.095878102 0.055649526 0.70400006 7.3547318e-39
-0.094537146 0.055649526 0.70400006 6.617178e-39
-0.093063809 0.055570476 0.70300001 6.0632951e-39
-0.091724768 0.055570476 0.70300001 5.6945182e-39
-0.090128571 0.055412382 0.70100003 3.6748548e-39
-0.08866667 0.055333335 0.70000005 3.1224069e-39
-0.087333336 0.055333335 0.70000005 1.3778912e-39
-0.085754283 0.055175241 0.69800001 1.2856969e-39
-0.084424764 0.055175241 0.69800001 3.6734198e-40
-0.082976192 0.05509619 0.69700003 6.4392467e-40
-0.081648573 0.05509619 0.69700003 3.6734198e-40
-0.080320954 0.05509619 0.69700003 3.6734198e-40
-0.078993335 0.05509619 0.69700003 1.1023847e-39
-0.077665716 0.05509619 0.69700003 1.1945789e-39
-0.076338097 0.05509619 0.69700003 7.7410866e-39
-0.075010478 0.05509619 0.69700003 2.4860156e-39
-0.07368286 0.05509619 0.69700003 1.0224591e-38
-0.067621902 0.055570476 0.70300001 1.0101905e-39
-0.064943813 0.055570476 0.70300001 2.4907169e-39
-0.063695244 0.055649526 0.70400006 1.2010613e-39
-0.062354293 0.055649526 0.70400006 7.1746481e-43
-0.061013337 0.055649526 0.70400006 6.4284847e-40
-0.058331434 0.055649526 0.70400006 5.5198169e-39
-0.057152383 0.05580762 0.70600003 1.1328142e-38
-0.055886667 0.055886667 0.70700002 1.188026e-38
-0.05461714 0.055965714 0.708 1.1972456e-38
-0.10210477 0.057476193 0.71000004 8.7390802e-39
-0.10075239 0.057476193 0.71000004 7.2639725e-39
-0.098980002 0.057233334 0.70700002 6.80623e-39
-0.097633332 0.057233334 0.70700002 7.3593981e-39
-0.09615048 0.057152383 0.70600003 7.8146268e-39
-0.094805717 0.057152383 0.70600003 7.906821e-39
-0.093196198 0.056990478 0.70400006 6.1583592e-39
-0.091724768 0.056909524 0.70300001 4.3162683e-39
-0.090128571 0.056747623 0.70100003 2.2966049e-39
-0.08866667 0.056666669 0.70000005 2.4809933e-39
-0.085754283 0.056504764 0.69800001 1.7448744e-39
-0.084424764 0.056504764 0.69800001 1.9292629e-39
-0.082976192 0.056423813 0.69700003 1.9292629e-39
-0.081648573 0.056423813 0.69700003 1.9292629e-39
-0.080320954 0.056423813 0.69700003 1.7448744e-39
-0.078993335 0.056423813 0.69700003 1.9292629e-39
-0.077665716 0.056423813 0.69700003 6.4468445e-39
-0.076338097 0.056423813 0.69700003 1.5572333e-38
-0.075010478 0.056423813 0.69700003 1.4742572e-38
-0.07368286 0.056423813 0.69700003 1.5935001e-38
-0.07245905 0.056504764 0.69800001 1.6672566e-38
-0.071129531 0.056504764 0.69800001 2.0915422e-38
-0.069799997 0.056504764 0.69800001 1.695101e-38
-0.067621902 0.056909524 0.70300001 2.2958874e-39
-0.065036193 0.056990478 0.70400006 4.7898469e-39
-0.063695244 0.056990478 0.70400006 5.1560903e-39
-0.062354293 0.056990478 0.70400006 3.0355936e-39
-0.061013337 0.056990478 0.70400006 4.043273e-39
-0.059672385 0.056990478 0.70400006 4.1354672e-39
-0.058497142 0.057152383 0.70600003 6.6178954e-39
-0.057233334 0.057233334 0.70700002 1.2149623e-38
-0.055965714 0.057314284 0.708 1.3069443e-38
-0.053720001 0.057800002 0.71400005 1.5545743e-38
-0.10046858 0.058662858 0.708 1.1221178e-38
-0.098980002 0.058580004 0.70700002 1.0395736e-38
-0.097633332 0.058580004 0.70700002 1.0119149e-38
-0.09615048 0.058497142 0.70600003 1.0024452e-38
-0.094537146 0.058331434 0.70400006 1.0116648e-38
-0.093196198 0.058331434 0.70400006 8.6433154e-39
-0.091855243 0.058331434 0.70400006 7.6291635e-39
-0.090514295 0.058331434 0.70400006 6.9909842e-39
-0.089173339 0.058331434 0.70400006 7.1753754e-39
-0.087083809 0.057834286 0.69800001 6.4406844e-39
-0.085754283 0.057834286 0.69800001 3.9514375e-39
-0.084424764 0.057834286 0.69800001 4.043273e-39
-0.082976192 0.057751432 0.69700003 5.2418119e-39
-0.081648573 0.057751432 0.69700003 6.8098635e-39
-0.080320954 0.057751432 0.69700003 6.8098635e-39
-0.078993335 0.057751432 0.69700003 7.1818858e-39
-0.077665716 0.057751432 0.69700003 1.6493644e-38
-0.076338097 0.057751432 0.69700003 1.6039451e-38
-0.075010478 0.057751432 0.69700003 1.5394082e-38
-0.07368286 0.057751432 0.69700003 1.3819971e-38
-0.07245905 0.057834286 0.69800001 1.2621428e-38
-0.071129531 0.057834286 0.69800001 1.3721352e-38
-0.069799997 0.057834286 0.69800001 1.3075983e-38
-0.067621902 0.058248568 0.70300001 7.9140461e-39
-0.066565715 0.058497142 0.70600003 1.0116648e-38
-0.063695244 0.058331434 0.70400006 1.1777967e-38
-0.058497142 0.058497142 0.70600003 1.4995806e-38
-0.057233334 0.058580004 0.70700002 1.5180198e-38
-0.10210477 0.060180955 0.71000004 1.1304388e-38
-0.10046858 0.060011428 0.708 1.296391e-38
-0.098980002 0.059926666 0.70700002 1.2047358e-38
-0.097633332 0.059926666 0.70700002 1.0848815e-38
-0.09615048 0.059841909 0.70600003 1.1032123e-38
-0.094537146 0.059672385 0.70400006 1.1032123e-38
-0.093196198 0.059672385 0.70400006 1.02063e-38
-0.091855243 0.059672385 0.70400006 9.929713e-39
-0.090514295 0.059672385 0.70400006 8.3674446e-39
-0.089173339 0.059672385 0.70400006 7.7220752e-39
-0.086000003 0.059333336 0.70000005 4.7772395e-39
-0.084666677 0.059333336 0.70000005 3.7666903e-39
-0.081648573 0.059079047 0.69700003 6.2527059e-39
-0.080320954 0.059079047 0.69700003 6.5292885e-39
-0.078993335 0.059079047 0.69700003 6.3459763e-39
-0.077665716 0.059079047 0.69700003 1.2246495e-38
-0.076447621 0.059163809 0.69800001 9.6782935e-39
-0.075010478 0.059079047 0.69700003 8.4797503e-39
-0.07368286 0.059079047 0.69700003 1.0152127e-39
-0.07245905 0.059163809 0.69800001 1.383991e-39
-0.071129531 0.059163809 0.69800001 5.8792752e-39
-0.069059052 0.059672385 0.70400006 1.1122204e-38
-0.066565715 0.059841909 0.70600003 1.2966058e-38
-0.063966669 0.059926666 0.70700002 1.4895342e-38
-0.062619999 0.059926666 0.70700002 1.6278276e-38
-0.058497142 0.059841909 0.70600003 1.8298661e-38
-0.057233334 0.059926666 0.70700002 1.8022074e-38
-0.056123812 0.060180955 0.71000004 1.7467829e-38
-0.054848574 0.060265716 0.71100003 1.7283437e-38
-0.053644765 0.060435243 0.71300006 1.6822452e-38
-0.10404 0.061880007 0.71400005 7.4476603e-39
-0.10210477 0.061533332 0.71000004 1.084197e-38
-0.10046858 0.061360002 0.708 1.1948316e-38
-0.098980002 0.061273329 0.70700002 1.2039089e-38
-0.097633332 0.061273329 0.70700002 1.2315676e-38
-0.09615048 0.061186668 0.70600003 1.3144688e-38
-0.094537146 0.061013337 0.70400006 1.4066645e-38
-0.093196198 0.061013337 0.70400006 1.3792932e-38
-0.091855243 0.061013337 0.70400006 1.4346106e-38
-0.090514295 0.061013337 0.70400006 1.3979503e-38
-0.089173339 0.061013337 0.70400006 1.4532677e-38
-0.087707624 0.060926665 0.70300001 1.4442642e-38
-0.086000003 0.060666669 0.70000005 1.4903621e-38
-0.084666677 0.060666669 0.70000005 1.4903267e-38
-0.083333343 0.060666669 0.70000005 1.5548637e-38
-0.082000002 0.060666669 0.70000005 1.5274205e-38
-0.079106666 0.060493335 0.69800001 1.5459303e-38
-0.073788576 0.060493335 0.69800001 1.4998685e-38
-0.071740955 0.061013337 0.70400006 1.5457135e-38
-0.070400007 0.061013337 0.70400006 1.6102504e-38
-0.069059052 0.061013337 0.70400006 1.6928324e-38
-0.067718096 0.061013337 0.70400006 1.7204911e-38
-0.061273329 0.061273329 0.70700002 1.792915e-38
-0.059926666 0.061273329 0.70700002 1.7191585e-38
-0.058580004 0.061273329 0.70700002 1.7831557e-38
-0.057314284 0.061360002 0.708 1.7370578e-38
-0.055002861 0.061793335 0.71300006 1.7002522e-38
-0.053644765 0.061793335 0.71300006 1.6635547e-38
-0.051000003 0.061880007 0.71400005 1.5533869e-38
-0.10404 0.063240007 0.71400005 5.9790239e-39
-0.10210477 0.062885717 0.71000004 1.0381716e-38
-0.10046858 0.062708572 0.708 1.1488056e-38
-0.099120006 0.062708572 0.708 1.2588303e-38
-0.097633332 0.062619999 0.70700002 1.3325868e-38
-0.096286669 0.062619999 0.70700002 1.442825e-38
-0.094537146 0.062354293 0.70400006 1.5442402e-38
-0.093196198 0.062354293 0.70400006 1.5809011e-38
-0.091855243 0.062354293 0.70400006 1.6269989e-38
-0.090385713 0.062265713 0.70300001 1.6545878e-38
-0.089046665 0.062265713 0.70300001 1.7467834e-38
-0.087707624 0.062265713 0.70300001 1.7560743e-38
-0.084666677 0.062000006 0.70000005 1.8113567e-38
-0.083333343 0.062000006 0.70000005 1.8758936e-38
-0.082000002 0.062000006 0.70000005 1.8575974e-38
-0.079106666 0.061822858 0.69800001 1.9129142e-38
-0.076666676 0.062000006 0.70000005 1.9313539e-38
-0.075118095 0.061822858 0.69800001 1.949793e-38
-0.071740955 0.062354293 0.70400006 1.9586889e-38
-0.070400007 0.062354293 0.70400006 2.0140063e-38
-0.069059052 0.062354293 0.70400006 1.9956032e-38
-0.067718096 0.062354293 0.70400006 1.977164e-38
-0.066377148 0.062354293 0.70400006 1.977128e-38
-0.058580004 0.062619999 0.70700002 1.7737581e-38
-0.057314284 0.062708572 0.708 1.7368799e-38
-0.054848574 0.062974289 0.71100003 1.7094357e-38
-0.053644765 0.063151434 0.71300006 1.6633389e-38
-0.05228667 0.063151434 0.71300006 1.6633389e-38
-0.10389429 0.064509533 0.71300006 5.7049355e-39
-0.10210477 0.064238101 0.71000004 1.0198404e-38
-0.10046858 0.064057142 0.708 1.1581331e-38
-0.099120006 0.064057142 0.708 1.2588303e-38
-0.097633332 0.063966669 0.70700002 1.2772694e-38
-0.096286669 0.063966669 0.70700002 1.4057299e-38
-0.094805717 0.063876189 0.70600003 1.4610473e-38
-0.093196198 0.063695244 0.70400006 1.5344426e-38
-0.091855243 0.063695244 0.70400006 1.5528817e-38
-0.090385713 0.063604765 0.70300001 1.5987654e-38
-0.089046665 0.063604765 0.70300001 1.690961e-38
-0.087707624 0.063604765 0.70300001 1.663231e-38
-0.086122856 0.063423812 0.70100003 1.7001092e-38
-0.084787622 0.063423812 0.70100003 1.7185133e-38
-0.083333343 0.06333334 0.70000005 1.7922698e-38
-0.082000002 0.06333334 0.70000005 1.7830853e-38
-0.080781907 0.063423812 0.70100003 1.8752809e-38
-0.075333342 0.06333334 0.70000005 1.8939731e-38
-0.074105717 0.063423812 0.70100003 1.8936122e-38
-0.071740955 0.063695244 0.70400006 1.9026888e-38
-0.070400007 0.063695244 0.70400006 1.9856649e-38
-0.069059052 0.063695244 0.70400006 1.930527e-38
-0.067718096 0.063695244 0.70400006 1.9213074e-38
-0.066377148 0.063695244 0.70400006 1.9121945e-38
-0.065036193 0.063695244 0.70400006 1.8753163e-38
-0.063695244 0.063695244 0.70400006 1.8750291e-38
-0.058580004 0.063966669 0.70700002 1.7826201e-38
-0.057314284 0.064057142 0.708 1.7826201e-38
-0.056123812 0.064238101 0.71000004 1.7185118e-38
-0.054848574 0.064328574 0.71100003 1.7000727e-38
-0.053644765 0.064509533 0.71300006 1.6632325e-38
-0.05228667 0.064509533 0.71300006 1.6724521e-38
-0.051000003 0.064599998 0.71400005 1.5808663e-38
-0.04977905 0.064780958 0.71600002 1.4702316e-38
-0.044571429 0.065142855 0.72000003 1.8422508e-38
-0.10389429 0.065867618 0.71300006 4.8759161e-39
-0.10210477 0.065590478 0.71000004 9.7388674e-39
-0.10046858 0.065405719 0.708 1.1213988e-38
-0.099120006 0.065405719 0.708 1.2681199e-38
-0.097633332 0.065313332 0.70700002 1.286559e-38
-0.096286669 0.065313332 0.70700002 1.3964382e-38
-0.094805717 0.065220952 0.70600003 1.4609751e-38
-0.093196198 0.065036193 0.70400006 1.5343719e-38
-0.091724768 0.064943813 0.70300001 1.5804697e-38
-0.090385713 0.064943813 0.70300001 1.6171332e-38
-0.089046665 0.064943813 0.70300001 1.6816701e-38
-0.087707624 0.064943813 0.70300001 1.6724869e-38
-0.086122856 0.064759046 0.70100003 1.6817064e-38
-0.084787622 0.064759046 0.70100003 1.7184755e-38
-0.083452389 0.064759046 0.70100003 1.8106711e-38
-0.082117148 0.064759046 0.70100003 1.7831922e-38
-0.080781907 0.064759046 0.70100003 1.8661683e-38
-0.079446673 0.064759046 0.70100003 1.8478371e-38
-0.078111432 0.064759046 0.70100003 1.8847153e-38
-0.076776192 0.064759046 0.70100003 1.8846087e-38
-0.075440958 0.064759046 0.70100003 1.8753891e-38
-0.071740955 0.065036193 0.70400006 1.9025446e-38
-0.070400007 0.065036193 0.70400006 2.0039598e-38
-0.069059052 0.065036193 0.70400006 1.9398176e-38
-0.067718096 0.065036193 0.70400006 1.9121589e-38
-0.066377148 0.065036193 0.70400006 1.9121945e-38
-0.065036193 0.065036193 0.70400006 1.8937554e-38
-0.063695244 0.065036193 0.70400006 1.8842487e-38
-0.062354293 0.065036193 0.70400006 1.8381509e-38
-0.061013337 0.065036193 0.70400006 1.8381146e-38
-0.058580004 0.065313332 0.70700002 1.7919449e-38
-0.057314284 0.065405719 0.708 1.7827253e-38
-0.056123812 0.065590478 0.71000004 1.727661e-38
-0.054848574 0.065682858 0.71100003 1.7553197e-38
-0.053494286 0.065682858 0.71100003 1.6725953e-38
-0.05228667 0.065867618 0.71300006 1.7186931e-38
-0.051000003 0.065960005 0.71400005 1.5900859e-38
-0.04977905 0.066144764 0.71600002 1.4794511e-38
-0.044571429 0.066514291 0.72000003 1.841998e-38
-0.10210477 0.066942856 0.71000004 9.8307029e-39
-0.10046858 0.066754289 0.708 1.130583e-38
-0.099120006 0.066754289 0.708 1.2589001e-38
-0.097771429 0.066754289 0.708 1.2865587e-38
-0.096286669 0.066660002 0.70700002 1.3964395e-38
-0.094805717 0.066565715 0.70600003 1.4517568e-38
-0.093196198 0.066377148 0.70400006 1.5343719e-38
-0.091724768 0.066282853 0.70300001 1.5620306e-38
-0.090385713 0.066282853 0.70300001 1.5710003e-38
-0.089046665 0.066282853 0.70300001 1.5710003e-38
-0.087707624 0.066282853 0.70300001 1.6260997e-38
-0.086368576 0.066282853 0.70300001 1.6353192e-38
-0.084787622 0.066094287 0.70100003 1.6628713e-38
-0.083452389 0.066094287 0.70100003 1.7458473e-38
-0.082117148 0.066094287 0.70100003 1.7366625e-38
-0.080781907 0.066094287 0.70100003 1.810419e-38
-0.079446673 0.066094287 0.70100003 1.7918733e-38
-0.078111432 0.066094287 0.70100003 1.7918733e-38
-0.076776192 0.066094287 0.70100003 1.8102761e-38
-0.075440958 0.066094287 0.70100003 1.8194957e-38
-0.071740955 0.066377148 0.70400006 1.8376849e-38
-0.067718096 0.066377148 0.70400006 1.8570932e-38
-0.066377148 0.066377148 0.70400006 1.8753516e-38
-0.065036193 0.066377148 0.70400006 1.8384733e-38
-0.063695244 0.066377148 0.70400006 1.8749222e-38
-0.062354293 0.066377148 0.70400006 1.8841418e-38
-0.061013337 0.066377148 0.70400006 1.8476207e-38
-0.059841909 0.066565715 0.70600003 1.8015229e-38
-0.058580004 0.066660002 0.70700002 1.7921967e-38
-0.057314284 0.066754289 0.708 1.7553184e-38
-0.056123812 0.066942856 0.71000004 1.727661e-38
-0.054848574 0.067037143 0.71100003 1.7092219e-38
-0.053494286 0.067037143 0.71100003 1.6816714e-38
-0.05228667 0.067225717 0.71300006 1.6724518e-38
-0.051000003 0.067320004 0.71400005 1.5901219e-38
-0.04977905 0.067508571 0.71600002 1.5809023e-38
-0.044695243 0.068074286 0.72200006 1.8323841e-38
-0.10389429 0.068583816 0.71300006 5.0599346e-39
-0.10210477 0.06829524 0.71000004 1.0105851e-38
-0.10046858 0.068102859 0.708 1.1673171e-38
-0.097771429 0.068102859 0.708 1.30507e-38
-0.096286669 0.068006672 0.70700002 1.4149139e-38
-0.094805717 0.067910478 0.70600003 1.4794508e-38
-0.093196198 0.067718096 0.70400006 1.5251173e-38
-0.091724768 0.067621902 0.70300001 1.5158978e-38
-0.090385713 0.067621902 0.70300001 1.5710354e-38
-0.089046665 0.067621902 0.70300001 1.7093288e-38
-0.087707624 0.067621902 0.70300001 1.70029e-38
-0.086368576 0.067621902 0.70300001 1.7832661e-38
-0.084787622 0.067429528 0.70100003 1.7744746e-38
-0.083452389 0.067429528 0.70100003 1.829792e-38
-0.082117148 0.067429528 0.70100003 1.8573803e-38
-0.080781907 0.067429528 0.70100003 1.8758195e-38
-0.079446673 0.067429528 0.70100003 1.8941873e-38
-0.078111432 0.067429528 0.70100003 1.9402851e-38
-0.076776192 0.067429528 0.70100003 1.9588331e-38
-0.075440958 0.067429528 0.70100003 2.0049309e-38
-0.071639046 0.067621902 0.70300001 2.0515322e-38
-0.067621902 0.067621902 0.70300001 2.1076759e-38
-0.066377148 0.067718096 0.70400006 1.922322e-38
-0.065036193 0.067718096 0.70400006 1.7471503e-38
-0.063695244 0.067718096 0.70400006 1.8475504e-38
-0.062354293 0.067718096 0.70400006 1.8936482e-38
-0.061186668 0.067910478 0.70600003 1.8384027e-38
-0.059926666 0.068006672 0.70700002 1.8199636e-38
-0.058580004 0.068006672 0.70700002 1.8013442e-38
-0.057314284 0.068102859 0.708 1.764466e-38
-0.056123812 0.06829524 0.71000004 1.7366653e-38
-0.054848574 0.068391435 0.71100003 1.7458849e-38
-0.053494286 0.068391435 0.71100003 1.6816714e-38
-0.05228667 0.068583816 0.71300006 1.7001105e-38
-0.051000003 0.068680003 0.71400005 1.5899074e-38
-0.04977905 0.068872385 0.71600002 1.6083465e-38
-0.044571429 0.06925714 0.72000003 1.8321313e-38
-0.10389429 0.069941908 0.71300006 5.2439727e-39
-0.10210477 0.069647625 0.71000004 1.0198045e-38
-0.10075239 0.069647625 0.71000004 1.1580975e-38
-0.099120006 0.069451429 0.708 1.2587584e-38
-0.097771429 0.069451429 0.708 1.3048562e-38
-0.096286669 0.069353335 0.70700002 1.4149139e-38
-0.094805717 0.06925524 0.70600003 1.4886704e-38
-0.093196198 0.069059052 0.70400006 1.5160067e-38
-0.091724768 0.068960957 0.70300001 1.5067871e-38
-0.090385713 0.068960957 0.70300001 1.5720083e-38
-0.089046665 0.068960957 0.70300001 2.1804994e-38
-0.087707624 0.068960957 0.70300001 1.7955046e-38
-0.086368576 0.068960957 0.70300001 1.7955046e-38
-0.084787622 0.068764761 0.70100003 1.684979e-38
-0.083452389 0.068764761 0.70100003 1.7679551e-38
-0.082117148 0.068764761 0.70100003 1.7588052e-38
-0.080781907 0.068764761 0.70100003 1.8510008e-38
-0.079446673 0.068764761 0.70100003 1.7496238e-38
-0.078111432 0.068764761 0.70100003 1.8879173e-38
-0.076776192 0.068764761 0.70100003 1.8328873e-38
-0.075440958 0.068764761 0.70100003 1.9435221e-38
-0.072978094 0.068960957 0.70300001 1.8696966e-38
-0.071639046 0.068960957 0.70300001 1.6667599e-38
-0.070299998 0.068960957 0.70300001 1.8050533e-38
-0.068960957 0.068960957 0.70300001 1.8789463e-38
-0.067621902 0.068960957 0.70300001 2.0817767e-38
-0.066377148 0.069059052 0.70400006 2.219207e-38
-0.065036193 0.069059052 0.70400006 1.5830571e-38
-0.063695244 0.069059052 0.70400006 1.8470477e-38
-0.062531434 0.06925524 0.70600003 1.9392434e-38
-0.061186668 0.06925524 0.70600003 1.8475504e-38
-0.059926666 0.069353335 0.70700002 1.8106721e-38
-0.058580004 0.069353335 0.70700002 1.8013442e-38
-0.057314284 0.069451429 0.708 1.7552464e-38
-0.056123812 0.069647625 0.71000004 1.7366653e-38
-0.054848574 0.069745712 0.71100003 1.7458849e-38
-0.053494286 0.069745712 0.71100003 1.6910339e-38
-0.05228667 0.069941908 0.71300006 1.6541556e-38
-0.051000003 0.07004001 0.71400005 1.5898713e-38
-0.04977905 0.070236191 0.71600002 1.5898713e-38
-0.045879051 0.070530482 0.71900004 1.1310862e-38
-0.044571429 0.070628576 0.72000003 1.8133339e-38
-0.043320004 0.070824765 0.72200006 1.5942979e-38
-0.10389429 0.071300007 0.71300006 5.0595815e-39
-0.10210477 0.071000002 0.71000004 1.0106209e-38
-0.10075239 0.071000002 0.71000004 1.1581331e-38
-0.099120006 0.070800006 0.708 1.268048e-38
-0.097771429 0.070800006 0.708 1.3141458e-38
-0.096286669 0.070699997 0.70700002 1.405658e-38
-0.094805717 0.070600003 0.70600003 1.4886341e-38
-0.093196198 0.070400007 0.70400006 1.5068574e-38
-0.091855243 0.070400007 0.70400006 1.5529553e-38
-0.090385713 0.070299998 0.70300001 1.5542915e-38
-0.089046665 0.070299998 0.70300001 1.9322936e-38
-0.087707624 0.070299998 0.70300001 1.3914908e-38
-0.086368576 0.070299998 0.70300001 1.2624169e-38
-0.084787622 0.070100002 0.70100003 8.7564366e-39
-0.083452389 0.070100002 0.70100003 9.8627842e-39
-0.082117148 0.070100002 0.70100003 1.1149861e-38
-0.080781907 0.070100002 0.70100003 1.3362557e-38
-0.079446673 0.070100002 0.70100003 9.3153305e-39
-0.078111432 0.070100002 0.70100003 1.1804613e-38
-0.076666676 0.070000008 0.70000005 1.2174517e-38
-0.075333342 0.070000008 0.70000005 1.1621344e-38
-0.072978094 0.070299998 0.70300001 5.3631812e-39
-0.071639046 0.070299998 0.70300001 1.5824836e-39
-0.070299998 0.070299998 0.70300001 5.0859175e-39
-0.068960957 0.070299998 0.70300001 1.0217543e-38
-0.067621902 0.070299998 0.70300001 1.4550737e-38
-0.066377148 0.070400007 0.70400006 2.1364894e-38
-0.065036193 0.070400007 0.70400006 1.6847308e-38
-0.063695244 0.070400007 0.70400006 1.8010938e-38
-0.062531434 0.070600003 0.70600003 1.8840699e-38
-0.061186668 0.070600003 0.70600003 1.8658459e-38
-0.059926666 0.070699997 0.70700002 1.8381872e-38
-0.058580004 0.070699997 0.70700002 1.8105275e-38
-0.057314284 0.070800006 0.708 1.8289666e-38
-0.056123812 0.071000002 0.71000004 1.7551405e-38
-0.054848574 0.071100004 0.71100003 1.7551405e-38
-0.053644765 0.071300007 0.71300006 1.6725953e-38
-0.05228667 0.071300007 0.71300006 1.6357171e-38
-0.051142856 0.071599998 0.71600002 1.5897278e-38
-0.04977905 0.071599998 0.71600002 1.5897278e-38
-0.048482858 0.071699999 0.71700001 1.4889954e-38
-0.04711714 0.071699999 0.71700001 1.369141e-38
-0.045879051 0.071900003 0.71900004 1.1218654e-38
-0.044571429 0.072000004 0.72000003 1.7764544e-38
-0.043320004 0.072200008 0.72200006 1.5850776e-38
-0.041944765 0.072200008 0.72200006 1.6035168e-38
-0.10389429 0.072658099 0.71300006 5.2446916e-39
-0.10224857 0.072454289 0.71100003 1.0289522e-38
-0.10075239 0.07235238 0.71000004 1.1949035e-38
-0.099399999 0.07235238 0.71000004 1.2773395e-38
-0.097771429 0.072148569 0.708 1.3142177e-38
-0.096286669 0.072046667 0.70700002 1.4148779e-38
-0.094805717 0.071944758 0.70600003 1.4517561e-38
-0.093196198 0.071740955 0.70400006 1.4883449e-38
-0.091855243 0.071740955 0.70400006 1.7003947e-38
-0.090385713 0.071639046 0.70300001 1.5458989e-38
-0.089046665 0.071639046 0.70300001 1.4629228e-38
-0.087707624 0.071639046 0.70300001 1.1419529e-38
-0.086368576 0.071639046 0.70300001 1.5383921e-38
-0.084787622 0.071435243 0.70100003 1.5111837e-38
-0.083452389 0.071435243 0.70100003 1.418988e-38
-0.082117148 0.071435243 0.70100003 1.6778776e-38
-0.080781907 0.071435243 0.70100003 1.797732e-38
-0.079446673 0.071435243 0.70100003 1.6499405e-38
-0.078111432 0.071435243 0.70100003 1.6130623e-38
-0.076666676 0.071333334 0.70000005 1.8254384e-38
-0.075333342 0.071333334 0.70000005 1.8069993e-38
-0.071639046 0.071639046 0.70300001 1.6228974e-38
-0.070299998 0.071639046 0.70300001 1.6136779e-38
-0.068960957 0.071639046 0.70300001 1.2998917e-38
-0.067621902 0.071639046 0.70300001 5.4388751e-39
-0.066377148 0.071740955 0.70400006 1.8880958e-38
-0.065036193 0.071740955 0.70400006 1.8143393e-38
-0.063876189 0.071944758 0.70600003 1.8383677e-38
-0.062531434 0.071944758 0.70600003 1.7738307e-38
-0.061273329 0.072046667 0.70700002 1.8566263e-38
-0.059926666 0.072046667 0.70700002 1.8381872e-38
-0.058662858 0.072148569 0.708 1.8290017e-38
-0.057314284 0.072148569 0.708 1.7829038e-38
-0.056123812 0.07235238 0.71000004 1.7459552e-38
-0.054771431 0.07235238 0.71000004 1.7459552e-38
-0.053494286 0.072454289 0.71100003 1.6815995e-38
-0.05228667 0.072658099 0.71300006 1.6631604e-38
-0.051142856 0.072963811 0.71600002 1.6174218e-38
-0.049848571 0.073065713 0.71700001 1.5989827e-38
-0.048482858 0.073065713 0.71700001 1.4796682e-38
-0.047248576 0.073269531 0.71900004 1.3229356e-38
-0.044571429 0.073371425 0.72000003 1.8129026e-38
-0.043320004 0.073575243 0.72200006 1.5666719e-38
-0.041944765 0.073575243 0.72200006 1.6035501e-38
-0.10389429 0.074016191 0.71300006 5.1517743e-39
-0.10224857 0.073808573 0.71100003 1.0289522e-38
-0.10075239 0.073704764 0.71000004 1.1856839e-38
-0.099399999 0.073704764 0.71000004 1.2864874e-38
-0.097771429 0.073497139 0.708 1.3141461e-38
-0.096286669 0.073393337 0.70700002 1.4241685e-38
-0.094805717 0.073289528 0.70600003 1.4702663e-38
-0.093460955 0.073289528 0.70600003 1.4791255e-38
-0.091855243 0.073081911 0.70400006 1.7833708e-38
-0.090385713 0.072978094 0.70300001 1.528358e-38
-0.089046665 0.072978094 0.70300001 1.2056733e-38
-0.087707624 0.072978094 0.70300001 6.7075785e-39
-0.086368576 0.072978094 0.70300001 1.7955437e-38
-0.08502952 0.072978094 0.70300001 1.9630119e-38
-0.083452389 0.072770476 0.70100003 1.7970598e-38
-0.082117148 0.072770476 0.70100003 1.7241977e-38
-0.080781907 0.072770476 0.70100003 1.7979542e-38
-0.079446673 0.072770476 0.70100003 1.8431923e-38
-0.078111432 0.072770476 0.70100003 1.7970945e-38
-0.076666676 0.072666667 0.70000005 1.9541883e-38
-0.075333342 0.072666667 0.70000005 1.9173101e-38
-0.072978094 0.072978094 0.70300001 1.8439113e-38
-0.071639046 0.072978094 0.70300001 1.7516113e-38
-0.070299998 0.072978094 0.70300001 1.6501961e-38
-0.068960957 0.072978094 0.70300001 1.3280195e-38
-0.067621902 0.072978094 0.70300001 6.2733274e-39
-0.066377148 0.073081911 0.70400006 1.7777544e-38
-0.065036193 0.073081911 0.70400006 1.8238522e-38
-0.063876189 0.073289528 0.70600003 1.8295811e-38
-0.062531434 0.073289528 0.70600003 1.6820681e-38
-0.061273329 0.073393337 0.70700002 1.8290402e-38
-0.059926666 0.073393337 0.70700002 1.8566989e-38
-0.058662858 0.073497139 0.708 1.8013442e-38
-0.057314284 0.073497139 0.708 1.764466e-38
-0.056123812 0.073704764 0.71000004 1.7552108e-38
-0.054771431 0.073704764 0.71000004 1.77365e-38
-0.053494286 0.073808573 0.71100003 1.6908193e-38
-0.052360002 0.07412 0.71400005 1.7369172e-38
-0.051142856 0.074327618 0.71600002 1.6266414e-38
-0.049848571 0.074431427 0.71700001 1.571324e-38
-0.048482858 0.074431427 0.71700001 1.4981073e-38
-0.047248576 0.074639052 0.71900004 1.3598139e-38
-0.044571429 0.074742861 0.72000003 1.7850634e-38
-0.043320004 0.074950479 0.72200006 1.483554e-38
-0.041944765 0.074950479 0.72200006 1.6218474e-38
-0.1054 0.075480007 0.71400005 1.3726321e-38
-0.10389429 0.07537429 0.71300006 5.2443231e-39
-0.1025362 0.07537429 0.71300006 1.0381357e-38
-0.10089429 0.075162858 0.71100003 1.1856483e-38
-0.099399999 0.075057149 0.71000004 1.2863095e-38
-0.097771429 0.074845709 0.708 1.3139681e-38
-0.096286669 0.074740008 0.70700002 1.4333881e-38
-0.094805717 0.074634291 0.70600003 1.497925e-38
-0.093460955 0.074634291 0.70600003 1.4882731e-38
-0.091855243 0.074422859 0.70400006 1.7556402e-38
-0.090514295 0.074422859 0.70400006 1.528319e-38
-0.089046665 0.07431715 0.70300001 1.4361234e-38
-0.087707624 0.07431715 0.70300001 5.0542061e-39
-0.086368576 0.07431715 0.70300001 1.1231313e-38
-0.08502952 0.07431715 0.70300001 9.6733511e-39
-0.083690472 0.07431715 0.70300001 6.9074822e-39
-0.082351431 0.07431715 0.70300001 7.286326e-39
-0.080781907 0.074105717 0.70100003 1.3094651e-38
-0.079446673 0.074105717 0.70100003 8.7550844e-39
-0.078111432 0.074105717 0.70100003 6.0814111e-39
-0.076666676 0.074000001 0.70000005 7.7443713e-39
-0.075333342 0.074000001 0.70000005 9.311697e-39
-0.074000001 0.074000001 0.70000005 7.8376599e-39
-0.072978094 0.07431715 0.70300001 7.2844861e-39
-0.071639046 0.07431715 0.70300001 5.3430894e-39
-0.068960957 0.07431715 0.70300001 1.8492796e-40
-0.067621902 0.07431715 0.70300001 6.4590611e-40
-0.066377148 0.074422859 0.70400006 1.7318665e-38
-0.065036193 0.074422859 0.70400006 1.8517208e-38
-0.063876189 0.074634291 0.70600003 1.8664589e-38
-0.062619999 0.074740008 0.70700002 1.801922e-38
-0.061273329 0.074740008 0.70700002 1.8568068e-38
-0.060011428 0.074845709 0.708 1.8199285e-38
-0.058662858 0.074845709 0.708 1.8290382e-38
-0.057314284 0.074845709 0.708 1.7645013e-38
-0.056123812 0.075057149 0.71000004 1.7642509e-38
-0.054771431 0.075057149 0.71000004 1.7642509e-38
-0.053494286 0.075162858 0.71100003 1.6907114e-38
-0.05228667 0.07537429 0.71300006 1.7091506e-38
-0.051000003 0.075480007 0.71400005 1.6449363e-38
-0.04977905 0.075691432 0.71600002 1.6264972e-38
-0.048482858 0.075797141 0.71700001 1.4889238e-38
-0.047248576 0.076008573 0.71900004 1.4336064e-38
-0.044571429 0.076114289 0.72000003 1.7204909e-38
-0.043320004 0.076325722 0.72200006 1.4557517e-38
-0.1054 0.076840006 0.71400005 1.3357894e-38
-0.10404 0.076840006 0.71400005 5.244679e-39
-0.1025362 0.07673239 0.71300006 1.0473193e-38
-0.10089429 0.076517142 0.71100003 1.1948316e-38
-0.099399999 0.076409526 0.71000004 1.2864874e-38
-0.097771429 0.076194286 0.708 1.295707e-38
-0.096286669 0.076086663 0.70700002 1.4241685e-38
-0.094939999 0.076086663 0.70700002 1.4794859e-38
-0.093460955 0.075979047 0.70600003 1.497529e-38
-0.091855243 0.075763814 0.70400006 1.7556768e-38
-0.090514295 0.075763814 0.70400006 1.5372878e-38
-0.089046665 0.075656191 0.70300001 1.4635313e-38
-0.087707624 0.075656191 0.70300001 5.6069875e-40
-0.086368576 0.075656191 0.70300001 3.9460565e-42
-0.08502952 0.075656191 0.70300001 9.1993843e-41
-0.083690472 0.075656191 0.70300001 1.5274153e-43
-0.082351431 0.075656191 0.70300001 2.9057325e-40
-0.080781907 0.075440958 0.70100003 5.6715594e-40
-0.079446673 0.075440958 0.70100003 1.8104776e-42
-0.078111432 0.075440958 0.70100003 4.6314876e-40
-0.076666676 0.075333342 0.70000005 8.5479206e-44
-0.075333342 0.075333342 0.70000005 2.9496282e-39
-0.074000001 0.075333342 0.70000005 5.9723242e-39
-0.067621902 0.075656191 0.70300001 2.9389166e-39
-0.066377148 0.075763814 0.70400006 1.8236302e-38
-0.065220952 0.075979047 0.70600003 1.9527041e-38
-0.063876189 0.075979047 0.70600003 1.8299397e-38
-0.062619999 0.076086663 0.70700002 1.7008658e-38
-0.061273329 0.076086663 0.70700002 1.8569147e-38
-0.060011428 0.076194286 0.708 1.7923777e-38
-0.058662858 0.076194286 0.708 1.8197118e-38
-0.057314284 0.076194286 0.708 1.7920531e-38
-0.056123812 0.076409526 0.71000004 1.7552108e-38
-0.054771431 0.076409526 0.71000004 1.7552108e-38
-0.053494286 0.076517142 0.71100003 1.7000739e-38
-0.05228667 0.07673239 0.71300006 1.7277326e-38
-0.051000003 0.076840006 0.71400005 1.6174579e-38
-0.04977905 0.077055238 0.71600002 1.5990187e-38
-0.048482858 0.077162862 0.71700001 1.5166894e-38
-0.047248576 0.077378094 0.71900004 1.396835e-38
-0.044571429 0.07748571 0.72000003 1.6190018e-38
-0.043320004 0.077700958 0.72200006 1.4279129e-38
-0.1054 0.078200005 0.71400005 1.3171352e-38
-0.1025362 0.078090489 0.71300006 1.0473193e-38
-0.1011781 0.078090489 0.71300006 1.1856123e-38
-0.099399999 0.077761903 0.71000004 1.2862716e-38
-0.097771429 0.077542856 0.708 1.3231499e-38
-0.096286669 0.077433333 0.70700002 1.4241337e-38
-0.094939999 0.077433333 0.70700002 1.4517924e-38
-0.093460955 0.077323809 0.70600003 1.4974937e-38
-0.091855243 0.07710477 0.70400006 1.6726654e-38
-0.090514295 0.07710477 0.70400006 1.5279943e-38
-0.089173339 0.07710477 0.70400006 1.6017508e-38
-0.087832384 0.07710477 0.70400006 7.0017391e-39
-0.086491436 0.07710477 0.70400006 1.3732017e-38
-0.08502952 0.076995239 0.70300001 1.7417858e-38
-0.083690472 0.076995239 0.70300001 1.8985184e-38
-0.082351431 0.076995239 0.70300001 1.7606441e-38
-0.080781907 0.076776192 0.70100003 1.9358158e-38
-0.079446673 0.076776192 0.70100003 1.7333141e-38
-0.078111432 0.076776192 0.70100003 1.6687772e-38
-0.076666676 0.076666676 0.70000005 1.6871512e-38
-0.075333342 0.076666676 0.70000005 1.7148098e-38
-0.074000001 0.076666676 0.70000005 1.733143e-38
-0.068960957 0.076995239 0.70300001 1.2815289e-38
-0.067621902 0.076995239 0.70300001 9.2205299e-40
-0.065220952 0.077323809 0.70600003 2.008201e-38
-0.063876189 0.077323809 0.70600003 1.9127355e-38
-0.062619999 0.077433333 0.70700002 1.7283443e-38
-0.061273329 0.077433333 0.70700002 1.838154e-38
-0.059926666 0.077433333 0.70700002 1.8197148e-38
-0.058662858 0.077542856 0.708 1.8197118e-38
-0.057314284 0.077542856 0.708 1.7828335e-38
-0.056123812 0.077761903 0.71000004 1.7642509e-38
-0.054848574 0.077871427 0.71100003 1.7642509e-38
-0.053494286 0.077871427 0.71100003 1.7093638e-38
-0.05228667 0.078090489 0.71300006 1.6909247e-38
-0.051000003 0.078200005 0.71400005 1.6542625e-38
-0.04977905 0.078419052 0.71600002 1.6358234e-38
-0.048482858 0.078528576 0.71700001 1.5167963e-38
-0.047248576 0.078747623 0.71900004 1.4430398e-38
-0.044571429 0.078857146 0.72000003 1.5729393e-38
-0.043320004 0.079076193 0.72200006 1.3910349e-38
-0.041944765 0.079076193 0.72200006 1.7229392e-38
-0.10812001 0.079560004 0.71400005 1.5023549e-38
-0.099540003 0.079225719 0.71100003 1.3139656e-38
-0.097771429 0.078891426 0.708 1.3324047e-38
-0.096422859 0.078891426 0.708 1.4149139e-38
-0.094939999 0.078780003 0.70700002 1.4702313e-38
-0.093460955 0.078668572 0.70600003 1.4976739e-38
-0.092116199 0.078668572 0.70600003 1.6451869e-38
-0.090771429 0.078668572 0.70600003 1.4908287e-38
-0.089173339 0.078445718 0.70400006 1.4723896e-38
-0.087832384 0.078445718 0.70400006 6.6268638e-39
-0.086491436 0.078445718 0.70400006 1.5201046e-38
-0.08502952 0.078334287 0.70300001 1.9070925e-38
-0.083690472 0.078334287 0.70300001 1.8702143e-38
-0.082351431 0.078334287 0.70300001 1.8518699e-38
-0.080781907 0.078111432 0.70100003 2.1561154e-38
-0.079446673 0.078111432 0.70100003 1.8991947e-38
-0.078111432 0.078111432 0.70100003 1.7885599e-38
-0.076666676 0.078000009 0.70000005 1.8071474e-38
-0.075333342 0.078000009 0.70000005 1.7702692e-38
-0.071740955 0.078445718 0.70400006 1.2732345e-38
-0.070400007 0.078445718 0.70400006 1.5221627e-38
-0.067910478 0.078668572 0.70600003 3.0507529e-39
-0.066565715 0.078668572 0.70600003 1.6207687e-38
-0.065220952 0.078668572 0.70600003 1.9065752e-38
-0.063876189 0.078668572 0.70600003 1.9219546e-38
-0.062619999 0.078780003 0.70700002 1.6453677e-38
-0.061273329 0.078780003 0.70700002 1.8471936e-38
-0.059926666 0.078780003 0.70700002 1.8748523e-38
-0.058662858 0.078891426 0.708 1.8289673e-38
-0.057314284 0.078891426 0.708 1.7828695e-38
-0.056123812 0.079114296 0.71000004 1.7736853e-38
-0.054848574 0.079225719 0.71100003 1.7644657e-38
-0.053494286 0.079225719 0.71100003 1.7185474e-38
-0.05228667 0.079448573 0.71300006 1.6908887e-38
-0.051000003 0.079560004 0.71400005 1.654084e-38
-0.04977905 0.079782858 0.71600002 1.6909623e-38
-0.04841524 0.079782858 0.71600002 1.5534585e-38
-0.047248576 0.080117144 0.71900004 1.4704824e-38
-0.044571429 0.080228575 0.72000003 1.305248e-38
-0.043320004 0.080451436 0.72200006 1.3814906e-38
-0.041944765 0.080451436 0.72200006 1.7871513e-38
-0.10812001 0.080920003 0.71400005 1.5115745e-38
-0.099540003 0.080580004 0.71100003 1.3047461e-38
-0.098047622 0.080466673 0.71000004 1.3231852e-38
-0.096422859 0.080239996 0.708 1.4241685e-38
-0.094939999 0.080126666 0.70700002 1.4794859e-38
-0.093593337 0.080126666 0.70700002 1.5068947e-38
-0.092116199 0.080013335 0.70600003 1.543773e-38
-0.090771429 0.080013335 0.70600003 1.4719217e-38
-0.089426666 0.080013335 0.70600003 1.7300694e-38
-0.087832384 0.079786673 0.70400006 9.7697184e-39
-0.086491436 0.079786673 0.70400006 1.3088741e-38
-0.08502952 0.079673328 0.70300001 1.3457807e-38
-0.083690472 0.079673328 0.70300001 1.1798286e-38
-0.082351431 0.079673328 0.70300001 1.161733e-38
-0.081012383 0.079673328 0.70300001 1.3369047e-38
-0.079446673 0.079446673 0.70100003 8.0211165e-39
-0.078111432 0.079446673 0.70100003 6.3615952e-39
-0.076776192 0.079446673 0.70100003 5.8141723e-39
-0.075440958 0.079446673 0.70100003 5.9063679e-39
-0.073081911 0.079786673 0.70400006 1.7672952e-39
-0.071740955 0.079786673 0.70400006 6.9292962e-39
-0.070400007 0.079786673 0.70400006 1.10781e-38
-0.068006672 0.080126666 0.70700002 6.2742298e-39
-0.066565715 0.080013335 0.70600003 1.7867548e-38
-0.065220952 0.080013335 0.70600003 1.8512917e-38
-0.063876189 0.080013335 0.70600003 1.8572006e-38
-0.062531434 0.080013335 0.70600003 1.7096875e-38
-0.061273329 0.080126666 0.70700002 1.8472299e-38
-0.059926666 0.080126666 0.70700002 1.865669e-38
-0.058662858 0.080239996 0.708 1.8196401e-38
-0.057314284 0.080239996 0.708 1.801201e-38
-0.056123812 0.080466673 0.71000004 1.7735776e-38
-0.054848574 0.080580004 0.71100003 1.7735776e-38
-0.053494286 0.080580004 0.71100003 1.7370576e-38
-0.05228667 0.080806673 0.71300006 1.6725206e-38
-0.051000003 0.080920003 0.71400005 1.6540124e-38
-0.04977905 0.081146665 0.71600002 1.6908907e-38
-0.04841524 0.081146665 0.71600002 1.5352695e-38
-0.045942858 0.081600003 0.72000003 1.2413594e-38
-0.044571429 0.081600003 0.72000003 1.1860421e-38
-0.043620002 0.082393341 0.72700006 1.1234903e-38
-0.1054 0.082280003 0.71400005 1.2617828e-38
-0.099540003 0.081934288 0.71100003 1.3231492e-38
-0.098047622 0.08181905 0.71000004 1.3600274e-38
-0.096422859 0.081588566 0.708 1.4426079e-38
-0.094939999 0.081473336 0.70700002 1.4702666e-38
-0.093593337 0.081473336 0.70700002 1.5161133e-38
-0.092116199 0.081358097 0.70600003 1.5529915e-38
-0.090771429 0.081358097 0.70600003 1.4437582e-38
-0.089426666 0.081358097 0.70600003 1.8401994e-38
-0.087832384 0.081127621 0.70400006 1.0048161e-38
-0.086491436 0.081127621 0.70400006 1.0509139e-38
-0.08502952 0.081012383 0.70300001 5.2771863e-39
-0.083690472 0.081012383 0.70300001 2.8800999e-39
-0.082351431 0.081012383 0.70300001 2.9200818e-40
-0.081012383 0.081012383 0.70300001 9.685775e-42
-0.079446673 0.080781907 0.70100003 1.0761972e-42
-0.078111432 0.080781907 0.70100003 1.0761972e-42
-0.076776192 0.080781907 0.70100003 5.6051939e-45
-0.07431715 0.081012383 0.70300001 9.7275337e-41
-0.073081911 0.081127621 0.70400006 3.6007093e-39
-0.071740955 0.081127621 0.70400006 9.0437295e-39
-0.070400007 0.081127621 0.70400006 1.1072033e-38
-0.06925524 0.081358097 0.70600003 9.2112589e-39
-0.068006672 0.081473336 0.70700002 1.1423954e-38
-0.065220952 0.081358097 0.70600003 1.758558e-38
-0.063876189 0.081358097 0.70600003 1.7740806e-38
-0.062531434 0.081358097 0.70600003 1.764861e-38
-0.061273329 0.081473336 0.70700002 1.8656308e-38
-0.059926666 0.081473336 0.70700002 1.8840699e-38
-0.058662858 0.081588566 0.708 1.8196033e-38
-0.057314284 0.081588566 0.708 1.8196033e-38
-0.056123812 0.08181905 0.71000004 1.7828322e-38
-0.054771431 0.08181905 0.71000004 1.7828322e-38
-0.053494286 0.081934288 0.71100003 1.7553187e-38
-0.05228667 0.082164772 0.71300006 1.8198557e-38
-0.051000003 0.082280003 0.71400005 1.7096903e-38
-0.04977905 0.082510479 0.71600002 1.7189099e-38
-0.048618097 0.082856201 0.71900004 1.5447787e-38
-0.047314286 0.082971431 0.72000003 1.4064852e-38
-0.046070479 0.083201908 0.72200006 1.0757667e-38
-0.044695243 0.083201908 0.72200006 8.7293944e-39
-0.1054 0.083640002 0.71400005 1.307844e-38
-0.099540003 0.083288573 0.71100003 1.3230773e-38
-0.098047622 0.083171427 0.71000004 1.3415164e-38
-0.096422859 0.082937144 0.708 1.442536e-38
-0.095074289 0.082937144 0.708 1.4609751e-38
-0.093593337 0.082819998 0.70700002 1.5161496e-38
-0.092246667 0.082819998 0.70700002 1.5161496e-38
-0.090899996 0.082819998 0.70700002 1.5075404e-38
-0.089426666 0.08270286 0.70600003 2.0146164e-38
-0.087832384 0.082468584 0.70400006 1.5927157e-38
-0.086491436 0.082468584 0.70400006 1.8232048e-38
-0.08502952 0.082351431 0.70300001 1.612446e-38
-0.083690472 0.082351431 0.70300001 1.5940069e-38
-0.082351431 0.082351431 0.70300001 1.5848957e-38
-0.081012383 0.082351431 0.70300001 1.5941153e-38
-0.079446673 0.082117148 0.70100003 1.7228647e-38
-0.078111432 0.082117148 0.70100003 1.7874016e-38
-0.07431715 0.082351431 0.70300001 1.8242095e-38
-0.071944758 0.08270286 0.70600003 2.0085615e-38
-0.070600003 0.08270286 0.70600003 2.0454398e-38
-0.06925524 0.08270286 0.70600003 1.9245493e-38
-0.068006672 0.082819998 0.70700002 1.8784515e-38
-0.065220952 0.08270286 0.70600003 1.5087255e-38
-0.063876189 0.08270286 0.70600003 1.8381496e-38
-0.062619999 0.082819998 0.70700002 1.9119061e-38
-0.061273329 0.082819998 0.70700002 1.8841052e-38
-0.059926666 0.082819998 0.70700002 1.8748856e-38
-0.058662858 0.082937144 0.708 1.8566248e-38
-0.057314284 0.082937144 0.708 1.8197465e-38
-0.056123812 0.083171427 0.71000004 1.8013783e-38
-0.054771431 0.083171427 0.71000004 1.8382565e-38
-0.053494286 0.083288573 0.71100003 1.7466737e-38
-0.05228667 0.083522864 0.71300006 1.7927715e-38
-0.051000003 0.083640002 0.71400005 1.6092813e-38
-0.04977905 0.083874285 0.71600002 1.3603531e-38
-0.048618097 0.084225714 0.71900004 1.1852177e-38
-0.047314286 0.08434286 0.72000003 1.0838025e-38
-0.046070479 0.084577151 0.72200006 8.5446472e-39
-0.044757146 0.084694296 0.72300005 8.8212299e-39
-0.043500002 0.084928572 0.72500002 9.3030425e-39
-0.10569524 0.085238092 0.71600002 1.3080238e-38
-0.10404 0.085000008 0.71400005 5.5201967e-39
-0.09982001 0.084880956 0.71300006 1.3323682e-38
-0.098185718 0.084642857 0.71100003 1.3876856e-38
-0.096695244 0.084523819 0.71000004 1.4333883e-38
-0.095074289 0.084285714 0.708 1.5163644e-38
-0.093593337 0.084166668 0.70700002 1.5161483e-38
-0.092246667 0.084166668 0.70700002 1.5161483e-38
-0.090899996 0.084166668 0.70700002 1.5805416e-38
-0.089426666 0.084047616 0.70600003 1.9401046e-38
-0.087832384 0.083809532 0.70400006 1.7753779e-38
-0.086491436 0.083809532 0.70400006 2.1902582e-38
-0.08502952 0.083690472 0.70300001 2.0071598e-38
-0.083690472 0.083690472 0.70300001 2.0255989e-38
-0.082351431 0.083690472 0.70300001 2.1177953e-38
-0.081012383 0.083690472 0.70300001 2.0901366e-38
-0.078111432 0.083452389 0.70100003 2.1455258e-38
-0.075656191 0.083690472 0.70300001 2.1269785e-38
-0.07431715 0.083690472 0.70300001 2.1450224e-38
-0.070600003 0.084047616 0.70600003 1.9693124e-38
-0.06925524 0.084047616 0.70600003 2.0146223e-38
-0.068006672 0.084166668 0.70700002 1.9132071e-38
-0.065220952 0.084047616 0.70600003 1.7832285e-38
-0.063876189 0.084047616 0.70600003 1.9025796e-38
-0.062619999 0.084166668 0.70700002 1.9671166e-38
-0.061273329 0.084166668 0.70700002 1.912051e-38
-0.059926666 0.084166668 0.70700002 1.9304901e-38
-0.058662858 0.084285714 0.708 1.8937564e-38
-0.057314284 0.084285714 0.708 1.8660977e-38
-0.056123812 0.084523819 0.71000004 1.8571655e-38
-0.054771431 0.084523819 0.71000004 1.8848242e-38
-0.053644765 0.084880956 0.71300006 1.7471071e-38
-0.05228667 0.084880956 0.71300006 1.7102289e-38
-0.051000003 0.085000008 0.71400005 1.4254312e-38
-0.04977905 0.085238092 0.71600002 1.1027465e-38
-0.048482858 0.085357144 0.71700001 8.6368414e-39
-0.047248576 0.085595243 0.71900004 7.9914818e-39
-0.046070479 0.085952386 0.72200006 7.0767142e-39
-0.10404 0.086360008 0.71400005 4.5064049e-39
-0.10132001 0.086360008 0.71400005 1.0661905e-38
-0.09982001 0.086239055 0.71300006 1.2681191e-38
-0.098185718 0.085997149 0.71100003 1.3510944e-38
-0.096695244 0.085876197 0.71000004 1.4520077e-38
-0.095074289 0.085634284 0.708 1.5073251e-38
-0.093725719 0.085634284 0.708 1.5345509e-38
-0.092246667 0.085513331 0.70700002 1.5345509e-38
-0.090899996 0.085513331 0.70700002 1.5990498e-38
-0.089426666 0.085392386 0.70600003 1.5713914e-38
-0.087832384 0.08515048 0.70400006 1.6168448e-38
-0.086491436 0.08515048 0.70400006 1.6629426e-38
-0.08502952 0.08502952 0.70300001 1.6634783e-38
-0.083690472 0.08502952 0.70300001 1.7095761e-38
-0.082351431 0.08502952 0.70300001 1.6822051e-38
-0.081012383 0.08502952 0.70300001 1.6822051e-38
-0.079673328 0.08502952 0.70300001 1.700431e-38
-0.078334287 0.08502952 0.70300001 1.6543332e-38
-0.076995239 0.08502952 0.70300001 1.7279099e-38
-0.075656191 0.08502952 0.70300001 1.746349e-38
-0.07431715 0.08502952 0.70300001 1.755137e-38
-0.070600003 0.085392386 0.70600003 1.8101657e-38
-0.06925524 0.085392386 0.70600003 1.8195307e-38
-0.068006672 0.085513331 0.70700002 1.8656285e-38
-0.065220952 0.085392386 0.70600003 1.9672601e-38
-0.063876189 0.085392386 0.70600003 1.930705e-38
-0.062619999 0.085513331 0.70700002 1.9675832e-38
-0.061273329 0.085513331 0.70700002 1.8666359e-38
-0.059926666 0.085513331 0.70700002 1.8205381e-38
-0.058662858 0.085634284 0.708 1.7287734e-38
-0.057314284 0.085634284 0.708 1.608919e-38
-0.056123812 0.085876197 0.71000004 1.5072561e-38
-0.054848574 0.085997149 0.71100003 1.4058409e-38
-0.053644765 0.086239055 0.71300006 1.2401756e-38
-0.05228667 0.086239055 0.71300006 1.2217365e-38
-0.051000003 0.086360008 0.71400005 1.0657581e-38
-0.04977905 0.086601906 0.71600002 1.0473193e-38
-0.048482858 0.086722851 0.71700001 8.9170283e-39
-0.047248576 0.086964764 0.71900004 8.6404414e-39
-0.046070479 0.087327629 0.72200006 8.0000914e-39
-0.10433143 0.087965719 0.71600002 2.8504877e-39
-0.10268001 0.087719999 0.71400005 7.1656798e-39
-0.10132001 0.087719999 0.71400005 8.7329971e-39
-0.09982001 0.087597147 0.71300006 1.1852177e-38
-0.098185718 0.087351426 0.71100003 1.3880481e-38
-0.096695244 0.087228574 0.71000004 1.4985023e-38
-0.095074289 0.086982854 0.708 1.5630393e-38
-0.093725719 0.086982854 0.708 1.5901928e-38
-0.092246667 0.086860001 0.70700002 1.627071e-38
-0.090899996 0.086860001 0.70700002 1.6543717e-38
-0.089553341 0.086860001 0.70700002 1.6543717e-38
-0.088081911 0.086737148 0.70600003 1.6907445e-38
-0.086737148 0.086737148 0.70600003 1.6446467e-38
-0.08515048 0.086491436 0.70400006 1.7458092e-38
-0.083690472 0.086368576 0.70300001 1.7550288e-38
-0.082351431 0.086368576 0.70300001 1.7827591e-38
-0.081012383 0.086368576 0.70300001 1.8196373e-38
-0.079673328 0.086368576 0.70300001 1.8103837e-38
-0.078334287 0.086368576 0.70300001 1.8103837e-38
-0.076995239 0.086368576 0.70300001 1.8471181e-38
-0.075656191 0.086368576 0.70300001 1.8655572e-38
-0.07431715 0.086368576 0.70300001 1.8932522e-38
-0.070600003 0.086737148 0.70600003 1.985592e-38
-0.06925524 0.086737148 0.70600003 1.9766964e-38
-0.068006672 0.086860001 0.70700002 2.0227942e-38
-0.063876189 0.086737148 0.70600003 1.9865631e-38
-0.062619999 0.086860001 0.70700002 1.9589044e-38
-0.061273329 0.086860001 0.70700002 1.7841659e-38
-0.059926666 0.086860001 0.70700002 1.7472876e-38
-0.058662858 0.086982854 0.708 1.4621276e-38
-0.057314284 0.086982854 0.708 1.4344689e-38
-0.056123812 0.087228574 0.71000004 1.102889e-38
-0.054848574 0.087351426 0.71100003 8.9084019e-39
-0.053644765 0.087597147 0.71300006 7.9010813e-39
-0.05228667 0.087597147 0.71300006 8.1776639e-39
-0.051142856 0.087965719 0.71600002 8.1798163e-39
-0.04977905 0.087965719 0.71600002 8.6407889e-39
-0.048482858 0.088088572 0.71700001 8.6433154e-39
-0.047314286 0.088457145 0.72000003 8.7355111e-39
-0.046070479 0.088702865 0.72200006 8.3667257e-39
-0.10268001 0.089080006 0.71400005 6.5228314e-39
-0.10132001 0.089080006 0.71400005 7.3525878e-39
-0.09982001 0.088955246 0.71300006 9.0953056e-39
-0.098185718 0.088705719 0.71100003 9.3718925e-39
-0.096695244 0.088580951 0.71000004 1.1025282e-38
-0.095074289 0.088331431 0.708 1.167065e-38
-0.093725719 0.088331431 0.708 1.2681908e-38
-0.092246667 0.088206671 0.70700002 1.3142879e-38
-0.090899996 0.088206671 0.70700002 1.4430382e-38
-0.089553341 0.088206671 0.70700002 1.4430382e-38
-0.088081911 0.088081911 0.70600003 1.5719329e-38
-0.086737148 0.088081911 0.70600003 1.5534938e-38
-0.08515048 0.087832384 0.70400006 1.6642702e-38
-0.083809532 0.087832384 0.70400006 1.6919289e-38
-0.082351431 0.087707624 0.70300001 1.7196614e-38
-0.081012383 0.087707624 0.70300001 1.7657592e-38
-0.079673328 0.087707624 0.70300001 1.7657255e-38
-0.078334287 0.087707624 0.70300001 1.7565059e-38
-0.076995239 0.087707624 0.70300001 1.7655457e-38
-0.075656191 0.087707624 0.70300001 1.7839848e-38
-0.07431715 0.087707624 0.70300001 1.765616e-38
-0.073081911 0.087832384 0.70400006 1.68264e-38
-0.06925524 0.088081911 0.70600003 1.6087408e-38
-0.068006672 0.088206671 0.70700002 1.6179604e-38
