# .PCD v0.7 - Point Cloud Data file format
VERSION 0.7
FIELDS x y z rgb
SIZE 4 4 4 4
TYPE F F F F
COUNT 1 1 1 1
WIDTH 994
HEIGHT 1
VIEWPOINT 0 0 0 1 0 0 0
POINTS 994
DATA ascii
-0.093726665 0.065372378 0.82700002 8.274184e-39
-0.092151433 0.065372378 0.82700002 8.274184e-39
-0.091014288 0.065688573 0.83100003 8.090492e-39
-0.089646667 0.065846674 0.83300006 8.1826862e-39
-0.088271432 0.066004761 0.83500004 8.1823345e-39
-0.086680956 0.066004761 0.83500004 8.1823345e-39
-0.081088573 0.066637143 0.84300005 6.8937607e-39
-0.079482861 0.066637143 0.84300005 6.6153843e-39
-0.14268857 0.067757145 0.83700001 1.0504153e-38
-0.1379057 0.067757145 0.83700001 5.7931808e-39
-0.13598572 0.067595243 0.83500004 6.344547e-39
-0.12462571 0.066623807 0.82300001 6.9852374e-39
-0.1230581 0.066623807 0.82300001 7.2618229e-39
-0.11051714 0.066623807 0.82300001 9.9383843e-39
-0.10921429 0.066785723 0.82500005 9.3880817e-39
-0.10581429 0.066623807 0.82300001 8.3677949e-39
-0.10424667 0.066623807 0.82300001 8.6443818e-39
-0.10292857 0.066785723 0.82500005 9.0146063e-39
-0.10135715 0.066785723 0.82500005 1.0120954e-38
-0.099785723 0.066785723 0.82500005 9.5703038e-39
-0.098452382 0.066947617 0.82700002 8.6483475e-39
-0.095301904 0.066947617 0.82700002 8.8291626e-39
-0.093726665 0.066947617 0.82700002 8.6422504e-39
-0.092151433 0.066947617 0.82700002 8.2734679e-39
-0.091233335 0.067433342 0.83300006 8.3656495e-39
-0.089646667 0.067433342 0.83300006 8.3656495e-39
-0.088060006 0.067433342 0.83300006 8.2734539e-39
-0.086680956 0.067595243 0.83500004 8.3656495e-39
-0.1379057 0.069351427 0.83700001 5.8853737e-39
-0.13598572 0.069185719 0.83500004 6.2523513e-39
-0.13407335 0.069020011 0.83300006 6.2523513e-39
-0.12932856 0.068191424 0.82300001 6.8941194e-39
-0.12776095 0.068191424 0.82300001 7.0777918e-39
-0.12619334 0.068191424 0.82300001 6.9855962e-39
-0.1045 0.068357147 0.82500005 8.3656607e-39
-0.10292857 0.068357147 0.82500005 8.9213443e-39
-0.10135715 0.068357147 0.82500005 1.0304279e-38
-0.098452382 0.068522863 0.82700002 9.478111e-39
-0.095301904 0.068522863 0.82700002 8.0937556e-39
-0.086680956 0.069185719 0.83500004 8.2734539e-39
-0.13439524 0.070776194 0.83500004 6.2527059e-39
-0.13280477 0.070776194 0.83500004 6.8019252e-39
-0.12932856 0.069759049 0.82300001 6.8941194e-39
-0.11835524 0.069759049 0.82300001 7.9972342e-39
-0.11678762 0.069759049 0.82300001 8.9191905e-39
-0.083500005 0.070776194 0.83500004 8.0883438e-39
-0.082105711 0.070945717 0.83700001 7.9064665e-39
-0.080511428 0.070945717 0.83700001 7.7220752e-39
-0.13598572 0.07236667 0.83500004 6.4349419e-39
-0.13280477 0.07236667 0.83500004 6.8941194e-39
-0.12432285 0.071153335 0.82100004 7.4451352e-39
-0.11992285 0.071326666 0.82300001 8.0897899e-39
-0.11835524 0.071326666 0.82300001 8.274184e-39
-0.10342763 0.071846671 0.82900006 1.1877715e-38
-0.10184858 0.071846671 0.82900006 1.4827976e-38
-0.10051143 0.072020002 0.83100003 1.1600436e-38
-0.085090473 0.07236667 0.83500004 8.2738042e-39
-0.083500005 0.07236667 0.83500004 8.0894158e-39
-0.13598572 0.073957145 0.83500004 6.5278536e-39
-0.13121429 0.073071435 0.82500005 7.0777918e-39
-0.12932856 0.072894283 0.82300001 7.1699874e-39
-0.12745048 0.072717145 0.82100004 7.4451352e-39
-0.10367715 0.073602863 0.83100003 1.3440446e-38
-0.10209429 0.073602863 0.83100003 1.4915576e-38
-0.13121429 0.074642867 0.82500005 7.0777918e-39
-0.12932856 0.0744619 0.82300001 7.1699874e-39
-0.12776095 0.0744619 0.82300001 7.4451352e-39
-0.1230581 0.0744619 0.82300001 7.7213563e-39
-0.10367715 0.075185716 0.83100003 1.5843265e-38
-0.10051143 0.075185716 0.83100003 1.1969209e-38
-0.098928571 0.075185716 0.83100003 8.1891882e-39
-0.12932856 0.076029524 0.82300001 7.1699874e-39
-0.1230581 0.076029524 0.82300001 7.7213563e-39
-0.11735523 0.076399051 0.82700002 9.3798015e-39
-0.11578 0.076399051 0.82700002 9.0138874e-39
-0.079860002 0.078246668 0.84700006 7.9064665e-39
-0.12964287 0.077785715 0.82500005 7.5373308e-39
-0.11735523 0.077974282 0.82700002 8.9188233e-39
-0.11392858 0.077785715 0.82500005 8.1826974e-39
-0.11235715 0.077785715 0.82500005 1.0112685e-38
-0.079860002 0.079860002 0.84700006 8.0901332e-39
-0.12995714 0.079549521 0.82700002 7.4451352e-39
-0.12807143 0.079357147 0.82500005 7.6288076e-39
-0.12650001 0.079357147 0.82500005 7.6288076e-39
-0.12492857 0.079357147 0.82500005 7.7202801e-39
-0.12335715 0.079357147 0.82500005 7.9046686e-39
-0.11735523 0.079549521 0.82700002 8.9191835e-39
-0.11550001 0.079357147 0.82500005 8.9202653e-39
-0.11392858 0.079357147 0.82500005 8.5514827e-39
-0.11235715 0.079357147 0.82500005 8.0004515e-39
-0.098928571 0.079934284 0.83100003 8.3703159e-39
-0.079860002 0.081473336 0.84700006 7.997939e-39
-0.12964287 0.080928579 0.82500005 7.4454911e-39
-0.12807143 0.080928579 0.82500005 7.6291621e-39
-0.12650001 0.080928579 0.82500005 7.7213563e-39
-0.12492857 0.080928579 0.82500005 7.8124744e-39
-0.12335715 0.080928579 0.82500005 7.9968642e-39
-0.10209429 0.081517145 0.83100003 1.2615673e-38
-0.10051143 0.081517145 0.83100003 1.0957188e-38
-0.098928571 0.081517145 0.83100003 8.6522977e-39
-0.083899997 0.082301915 0.83900005 8.6407917e-39
-0.12964287 0.082500003 0.82500005 7.6295264e-39
-0.12807143 0.082500003 0.82500005 7.7213563e-39
-0.12650001 0.082500003 0.82500005 7.7213563e-39
-0.12492857 0.082500003 0.82500005 7.9046686e-39
-0.12335715 0.082500003 0.82500005 7.9046686e-39
-0.11078572 0.082500003 0.82500005 1.6487128e-38
-0.083899997 0.083899997 0.83900005 8.7329873e-39
-0.082498096 0.084100001 0.84100002 8.5493121e-39
-0.12807143 0.084071428 0.82500005 7.8121156e-39
-0.12650001 0.084071428 0.82500005 7.9965041e-39
-0.12492857 0.084071428 0.82500005 7.9957866e-39
-0.12335715 0.084071428 0.82500005 8.0879808e-39
-0.10921429 0.084071428 0.82500005 1.5474435e-38
-0.10500667 0.084479049 0.82900006 1.1861878e-38
-0.10367715 0.084682859 0.83100003 1.3812739e-38
-0.083899997 0.085498095 0.83900005 9.1910886e-39
-0.10367715 0.086265713 0.83100003 1.0858163e-38
-0.077447623 0.088860959 0.85600007 7.8142708e-39
-0.074533336 0.089276187 0.86000001 6.9852374e-39
-0.072895236 0.089276187 0.86000001 6.2476836e-39
-0.10921429 0.087214291 0.82500005 1.0485773e-38
-0.098452382 0.087425716 0.82700002 1.0488282e-38
-0.096877143 0.087425716 0.82700002 1.0028052e-38
-0.095301904 0.087425716 0.82700002 1.0396834e-38
-0.093953341 0.087637149 0.82900006 1.0579791e-38
-0.083700001 0.088482857 0.83700001 9.0988958e-39
-0.082301915 0.088694289 0.83900005 8.7329873e-39
-0.074360006 0.090702862 0.85800004 7.2621788e-39
-0.072725721 0.090702862 0.85800004 6.8012077e-39
-0.11365238 0.088570476 0.82300001 1.002265e-38
-0.11078572 0.088785723 0.82500005 9.284366e-39
-0.10921429 0.088785723 0.82500005 9.839688e-39
-0.10764287 0.088785723 0.82500005 1.0577253e-38
-0.10607143 0.088785723 0.82500005 9.9347703e-39
-0.10526 0.089431427 0.83100003 8.9206184e-39
-0.098452382 0.089000955 0.82700002 1.08542e-38
-0.096877143 0.089000955 0.82700002 1.0670198e-38
-0.095301904 0.089000955 0.82700002 1.0117025e-38
-0.093953341 0.089216195 0.82900006 1.0300337e-38
-0.083700001 0.090077139 0.83700001 9.374754e-39
-0.082301915 0.090292387 0.83900005 9.1910914e-39
-0.074360006 0.092337146 0.85800004 7.9064665e-39
-0.072725721 0.092337146 0.85800004 7.5376853e-39
-0.11392858 0.090357147 0.82500005 9.1936123e-39
-0.11235715 0.090357147 0.82500005 9.3754827e-39
-0.11078572 0.090357147 0.82500005 9.3754827e-39
-0.10921429 0.090357147 0.82500005 9.5595376e-39
-0.10790381 0.090576194 0.82700002 1.0758081e-38
-0.096877143 0.090576194 0.82700002 1.1040053e-38
-0.095532387 0.090795241 0.82900006 9.8415097e-39
-0.082301915 0.091890484 0.83900005 9.1914417e-39
-0.074533336 0.094190478 0.86000001 7.7220752e-39
-0.072895236 0.094190478 0.86000001 7.7220752e-39
-0.11235715 0.091928579 0.82500005 9.0981825e-39
-0.11078572 0.091928579 0.82500005 9.466965e-39
-0.1045 0.091928579 0.82500005 1.0208117e-38
-0.10342763 0.092374288 0.82900006 1.0390374e-38
-0.095532387 0.092374288 0.82900006 1.0302488e-38
-0.082301915 0.093488574 0.83900005 9.4669496e-39
-0.080703817 0.093488574 0.83900005 9.374754e-39
-0.079294287 0.093711428 0.84100002 9.1910914e-39
-0.077692382 0.093711428 0.84100002 9.1910914e-39
-0.071793333 0.094380006 0.84700006 7.9064665e-39
-0.11235715 0.093500003 0.82500005 9.1907425e-39
-0.11078572 0.093500003 0.82500005 9.3751337e-39
-0.10921429 0.093500003 0.82500005 9.4687573e-39
-0.10764287 0.093500003 0.82500005 9.4687573e-39
-0.1045 0.093500003 0.82500005 1.1588555e-38
-0.10135715 0.093500003 0.82500005 9.1915062e-39
-0.098214291 0.093500003 0.82500005 1.0020477e-38
-0.090576194 0.093726665 0.82700002 9.5598641e-39
-0.082301915 0.095086671 0.83900005 9.4669496e-39
-0.080703817 0.095086671 0.83900005 9.4669496e-39
-0.079294287 0.095313333 0.84100002 9.375833e-39
-0.077877149 0.095540009 0.84300005 9.2836374e-39
-0.076452382 0.095766664 0.84500003 8.9177289e-39
-0.073406667 0.09599334 0.84700006 8.1826862e-39
-0.11078572 0.095071435 0.82500005 1.0670554e-38
-0.10921429 0.095071435 0.82500005 1.0671636e-38
-0.10764287 0.095071435 0.82500005 1.0671636e-38
-0.10607143 0.095071435 0.82500005 1.0580511e-38
-0.1045 0.095071435 0.82500005 1.0949294e-38
-0.10135715 0.095071435 0.82500005 9.7507532e-39
-0.099785723 0.095071435 0.82500005 1.0299234e-38
-0.098214291 0.095071435 0.82500005 1.0022647e-38
-0.090576194 0.095301904 0.82700002 9.6502717e-39
-0.082301915 0.096684769 0.83900005 9.5580761e-39
-0.080896191 0.096915238 0.84100002 9.5580761e-39
-0.079482861 0.097145721 0.84300005 9.4669594e-39
-0.077877149 0.097145721 0.84300005 9.3747638e-39
-0.074842855 0.09737619 0.84500003 8.8262521e-39
-0.073406667 0.097606674 0.84700006 8.4581955e-39
-0.071793333 0.097606674 0.84700006 8.18161e-39
-0.10135715 0.096642859 0.82500005 1.3258126e-38
-0.099785723 0.096642859 0.82500005 1.3073762e-38
-0.098214291 0.096642859 0.82500005 1.3350348e-38
-0.093726665 0.096877143 0.82700002 1.3718428e-38
-0.081088573 0.098751433 0.84300005 9.2804158e-39
-0.079482861 0.098751433 0.84300005 9.2818591e-39
-0.074842855 0.098985717 0.84500003 9.2836374e-39
-0.073406667 0.099220008 0.84700006 8.6415078e-39
-0.071793333 0.099220008 0.84700006 8.5493121e-39
-0.096642859 0.098214291 0.82500005 1.3719128e-38
-0.095071435 0.098214291 0.82500005 1.4087911e-38
-0.074842855 0.10059524 0.84500003 9.4676685e-39
-0.073406667 0.10083334 0.84700006 8.8251829e-39
-0.096642859 0.099785723 0.82500005 1.085708e-38
-0.095071435 0.099785723 0.82500005 1.1318058e-38
-0.082694285 0.10196286 0.84300005 1.2890084e-38
-0.081088573 0.10196286 0.84300005 1.0124215e-38
-0.07502 0.10244668 0.84700006 9.2829241e-39
-0.097976193 0.10111143 0.82300001 9.6603526e-39
-0.096642859 0.10135715 0.82500005 9.7518182e-39
-0.095071435 0.10135715 0.82500005 9.4752313e-39
-0.087214291 0.10135715 0.82500005 1.2520215e-38
-0.085642859 0.10135715 0.82500005 1.325778e-38
-0.084275246 0.10160286 0.82700002 1.2892247e-38
-0.076452382 0.10381429 0.84500003 9.0981965e-39
-0.07502 0.10406001 0.84700006 9.2825878e-39
-0.098214291 0.10292857 0.82500005 9.2022612e-39
-0.096642859 0.10292857 0.82500005 9.6610813e-39
-0.095071435 0.10292857 0.82500005 9.47669e-39
-0.085850477 0.1031781 0.82700002 1.1962375e-38
-0.076452382 0.10542382 0.84500003 1.1412082e-38
-0.07502 0.10567334 0.84700006 7.9086483e-39
-0.073580004 0.10592286 0.84900004 8.8248172e-39
-0.10135715 0.1045 0.82500005 1.0126375e-38
-0.099785723 0.1045 0.82500005 1.0127104e-38
-0.098214291 0.1045 0.82500005 1.0127104e-38
-0.096642859 0.1045 0.82500005 1.0310051e-38
-0.095071435 0.1045 0.82500005 1.0217855e-38
-0.088570476 0.10424667 0.82300001 9.6625232e-39
-0.087214291 0.1045 0.82500005 1.00277e-38
-0.085850477 0.10475334 0.82700002 1.1041852e-38
-0.077877149 0.10678001 0.84300005 1.4089358e-38
-0.076452382 0.10703333 0.84500003 1.2152932e-38
-0.07502 0.10728668 0.84700006 9.387063e-39
-0.073580004 0.10754 0.84900004 8.9177709e-39
-0.099880956 0.10787144 0.83900005 1.2249408e-38
-0.098282859 0.10787144 0.83900005 1.2341229e-38
-0.096684769 0.10787144 0.83900005 1.1695859e-38
-0.095086671 0.10787144 0.83900005 1.1603673e-38
-0.076814294 0.10915715 0.84900004 1.4365958e-38
-0.075197145 0.10915715 0.84900004 1.2337654e-38
-0.14727144 0.11025239 0.84500003 9.2980441e-39
-0.14497238 0.10973047 0.84100002 9.2980441e-39
-0.14337048 0.10973047 0.84100002 9.6643281e-39
-0.096684769 0.10946953 0.83900005 1.1695869e-38
-0.14727144 0.11186191 0.84500003 9.6668182e-39
-0.14337048 0.11133238 0.84100002 9.481006e-39
-0.14143144 0.11106763 0.83900005 9.481006e-39
-0.13983335 0.11106763 0.83900005 9.5721227e-39
-0.13823524 0.11106763 0.83900005 9.9409052e-39
-0.13631143 0.11080286 0.83700001 9.6661162e-39
-0.1206562 0.11106763 0.83900005 1.0128559e-38
-0.1190581 0.11106763 0.83900005 1.0405146e-38
-0.11746 0.11106763 0.83900005 1.0405143e-38
-0.11586191 0.11106763 0.83900005 1.0405143e-38
-0.11426381 0.11106763 0.83900005 1.0312594e-38
-0.11266571 0.11106763 0.83900005 1.0220398e-38
-0.11080286 0.11080286 0.83700001 1.040443e-38
-0.10920857 0.11080286 0.83700001 1.0773212e-38
-0.10761429 0.11080286 0.83700001 1.0957956e-38
-0.098282859 0.11106763 0.83900005 1.1511112e-38
-0.096684769 0.11106763 0.83900005 1.1326721e-38
-0.095086671 0.11106763 0.83900005 1.1418196e-38
-0.14692287 0.11320286 0.84300005 9.4835144e-39
-0.14497238 0.11293428 0.84100002 9.2069275e-39
-0.14337048 0.11293428 0.84100002 9.5732017e-39
-0.14143144 0.11266571 0.83900005 9.5732017e-39
-0.13823524 0.11266571 0.83900005 9.7575929e-39
-0.12385239 0.11266571 0.83900005 9.4806557e-39
-0.12225429 0.11266571 0.83900005 9.665047e-39
-0.1206562 0.11266571 0.83900005 9.483164e-39
-0.1190581 0.11266571 0.83900005 9.5753597e-39
-0.11746 0.11266571 0.83900005 9.5753597e-39
-0.11586191 0.11266571 0.83900005 9.483164e-39
-0.11426381 0.11266571 0.83900005 9.2984197e-39
-0.11266571 0.11266571 0.83900005 9.3906153e-39
-0.10920857 0.11239714 0.83700001 9.8515962e-39
-0.10761429 0.11239714 0.83700001 1.0034908e-38
-0.10602 0.11239714 0.83700001 1.0495887e-38
-0.095086671 0.11266571 0.83900005 1.0493716e-38
-0.14888096 0.11508096 0.84500003 1.0217126e-38
-0.14143144 0.11426381 0.83900005 9.481006e-39
-0.12545048 0.11426381 0.83900005 1.1873776e-38
-0.12385239 0.11426381 0.83900005 1.2518053e-38
-0.12225429 0.11426381 0.83900005 1.2518053e-38
-0.1206562 0.11426381 0.83900005 1.3529308e-38
-0.1190581 0.11426381 0.83900005 1.37137e-38
-0.11746 0.11426381 0.83900005 1.3896656e-38
-0.11586191 0.11426381 0.83900005 1.3896656e-38
-0.11426381 0.11426381 0.83900005 1.4171104e-38
-0.11266571 0.11426381 0.83900005 1.4355496e-38
-0.10920857 0.11399143 0.83700001 1.4354424e-38
-0.10761429 0.11399143 0.83700001 1.4262228e-38
-0.10602 0.11399143 0.83700001 1.4354424e-38
-0.096684769 0.11426381 0.83900005 1.1774751e-38
-0.087096192 0.11426381 0.83900005 1.0216047e-38
-0.14657429 0.11613809 0.84100002 9.6661484e-39
-0.13663715 0.11586191 0.83900005 8.6501636e-39
-0.13503905 0.11586191 0.83900005 9.0189461e-39
-0.12414762 0.11613809 0.84100002 1.4627413e-38
-0.12254572 0.11613809 0.84100002 1.5088392e-38
-0.1206562 0.11586191 0.83900005 1.5731223e-38
-0.1190581 0.11586191 0.83900005 1.5731223e-38
-0.11746 0.11586191 0.83900005 1.6188964e-38
-0.11586191 0.11586191 0.83900005 1.6465551e-38
-0.11426381 0.11586191 0.83900005 1.7295672e-38
-0.11266571 0.11586191 0.83900005 1.6650303e-38
-0.11106763 0.11586191 0.83900005 1.7107693e-38
-0.10761429 0.11558571 0.83700001 1.7294596e-38
-0.10602 0.11558571 0.83700001 1.7294596e-38
-0.10442571 0.11558571 0.83700001 1.7203845e-38
-0.10283143 0.11558571 0.83700001 1.6927258e-38
-0.10123715 0.11558571 0.83700001 1.6927983e-38
-0.099642858 0.11558571 0.83700001 1.7112374e-38
-0.098048575 0.11558571 0.83700001 1.5735549e-38
-0.096684769 0.11586191 0.83900005 1.509018e-38
-0.087096192 0.11586191 0.83900005 1.0027692e-38
-0.085701905 0.11613809 0.84100002 9.4773893e-39
-0.13503905 0.11746 0.83900005 1.3987062e-38
-0.12414762 0.11774001 0.84100002 1.5174456e-38
-0.12254572 0.11774001 0.84100002 1.5266652e-38
-0.1206562 0.11746 0.83900005 1.5633986e-38
-0.1190581 0.11746 0.83900005 1.5449594e-38
-0.11746 0.11746 0.83900005 1.5815866e-38
-0.11586191 0.11746 0.83900005 1.5908061e-38
-0.11426381 0.11746 0.83900005 1.6274323e-38
-0.11266571 0.11746 0.83900005 1.6274323e-38
-0.10761429 0.11718 0.83700001 1.6550554e-38
-0.10602 0.11718 0.83700001 1.664275e-38
-0.10442571 0.11718 0.83700001 1.6645621e-38
-0.10283143 0.11718 0.83700001 1.6737817e-38
-0.10123715 0.11718 0.83700001 1.6739254e-38
-0.099642858 0.11718 0.83700001 1.6923646e-38
-0.098048575 0.11718 0.83700001 1.6466267e-38
-0.096684769 0.11746 0.83900005 1.7388224e-38
-0.095086671 0.11746 0.83900005 1.6560994e-38
-0.091890484 0.11746 0.83900005 1.6192201e-38
-0.087096192 0.11746 0.83900005 1.6196167e-38
-0.085701905 0.11774001 0.84100002 1.5829903e-38
-0.14371143 0.11962572 0.84300005 1.0112685e-38
-0.13728859 0.11962572 0.84300005 1.5728339e-38
-0.13568287 0.11962572 0.84300005 1.6004926e-38
-0.13055524 0.11934191 0.84100002 1.6369756e-38
-0.12895334 0.11934191 0.84100002 1.6185364e-38
-0.12414762 0.11934191 0.84100002 1.5998099e-38
-0.12254572 0.11934191 0.84100002 1.5998099e-38
-0.12094381 0.11934191 0.84100002 1.6090295e-38
-0.11934191 0.11934191 0.84100002 1.6090295e-38
-0.11774001 0.11934191 0.84100002 1.6089929e-38
-0.11613809 0.11934191 0.84100002 1.627432e-38
-0.11426381 0.1190581 0.83900005 1.6273254e-38
-0.11266571 0.1190581 0.83900005 1.6365449e-38
-0.11106763 0.1190581 0.83900005 1.6457648e-38
-0.10761429 0.11877429 0.83700001 1.6457279e-38
-0.10602 0.11877429 0.83700001 1.6826062e-38
-0.10442571 0.11877429 0.83700001 1.6735298e-38
-0.10283143 0.11877429 0.83700001 1.7011885e-38
-0.10123715 0.11877429 0.83700001 1.6920058e-38
-0.099642858 0.11877429 0.83700001 1.6827863e-38
-0.098048575 0.11877429 0.83700001 1.7103728e-38
-0.096684769 0.1190581 0.83900005 1.7564706e-38
-0.095086671 0.1190581 0.83900005 1.7840947e-38
-0.093488574 0.1190581 0.83900005 1.8025338e-38
-0.091890484 0.1190581 0.83900005 1.7842014e-38
-0.090507619 0.11934191 0.84100002 1.793421e-38
-0.13568287 0.12123144 0.84300005 1.5077222e-38
-0.13375905 0.12094381 0.84100002 1.5444928e-38
-0.12735143 0.12094381 0.84100002 1.5719364e-38
-0.12574953 0.12094381 0.84100002 1.581156e-38
-0.12414762 0.12094381 0.84100002 1.5812278e-38
-0.12254572 0.12094381 0.84100002 1.6181061e-38
-0.12094381 0.12094381 0.84100002 1.6090295e-38
-0.11934191 0.12094381 0.84100002 1.5998099e-38
-0.11746 0.1206562 0.83900005 1.6090298e-38
-0.11426381 0.1206562 0.83900005 1.6273254e-38
-0.11266571 0.1206562 0.83900005 1.6549841e-38
-0.11106763 0.1206562 0.83900005 1.6641337e-38
-0.10761429 0.12036857 0.83700001 1.6548773e-38
-0.10602 0.12036857 0.83700001 1.6917555e-38
-0.10442571 0.12036857 0.83700001 1.6826778e-38
-0.10283143 0.12036857 0.83700001 1.6734582e-38
-0.10123715 0.12036857 0.83700001 1.6735667e-38
-0.099642858 0.12036857 0.83700001 1.6643471e-38
-0.098282859 0.1206562 0.83900005 1.6734232e-38
-0.096684769 0.1206562 0.83900005 1.6734232e-38
-0.095086671 0.1206562 0.83900005 1.7008309e-38
-0.093488574 0.1206562 0.83900005 1.71927e-38
-0.092109524 0.12094381 0.84100002 1.7192333e-38
-0.090507619 0.12094381 0.84100002 1.7284529e-38
-0.13407715 0.12283715 0.84300005 1.5261623e-38
-0.13215715 0.12254572 0.84100002 1.5446014e-38
-0.12895334 0.12254572 0.84100002 1.5628963e-38
-0.12735143 0.12254572 0.84100002 1.5904474e-38
-0.12574953 0.12254572 0.84100002 1.5904474e-38
-0.12414762 0.12254572 0.84100002 1.599667e-38
-0.12254572 0.12254572 0.84100002 1.6088865e-38
-0.12094381 0.12254572 0.84100002 1.6090298e-38
-0.11934191 0.12254572 0.84100002 1.6182493e-38
-0.11746 0.12225429 0.83900005 1.627397e-38
-0.11586191 0.12225429 0.83900005 1.6366166e-38
-0.11426381 0.12225429 0.83900005 1.6273254e-38
-0.11266571 0.12225429 0.83900005 1.6457645e-38
-0.11106763 0.12225429 0.83900005 1.6549136e-38
-0.10946953 0.12225429 0.83900005 1.6641332e-38
-0.10761429 0.12196286 0.83700001 1.6549844e-38
-0.10602 0.12196286 0.83700001 1.682643e-38
-0.10442571 0.12196286 0.83700001 1.6826428e-38
-0.10307714 0.12225429 0.83900005 1.7010819e-38
-0.10147905 0.12225429 0.83900005 1.6826428e-38
-0.099880956 0.12225429 0.83900005 1.6734232e-38
-0.098282859 0.12225429 0.83900005 1.6734232e-38
-0.096684769 0.12225429 0.83900005 1.6826428e-38
-0.095086671 0.12225429 0.83900005 1.7010103e-38
-0.093488574 0.12225429 0.83900005 1.6825712e-38
-0.092109524 0.12254572 0.84100002 1.7100505e-38
-0.14852859 0.12444286 0.84300005 1.1955518e-38
-0.13407715 0.12444286 0.84300005 1.5352025e-38
-0.13215715 0.12414762 0.84100002 1.544422e-38
-0.12895334 0.12414762 0.84100002 1.5536768e-38
-0.12735143 0.12414762 0.84100002 1.5904474e-38
-0.12574953 0.12414762 0.84100002 1.6181061e-38
-0.12414762 0.12414762 0.84100002 1.5995951e-38
-0.12254572 0.12414762 0.84100002 1.6088147e-38
-0.12094381 0.12414762 0.84100002 1.6181055e-38
-0.11934191 0.12414762 0.84100002 1.6273251e-38
-0.11774001 0.12414762 0.84100002 1.6273251e-38
-0.11613809 0.12414762 0.84100002 1.6181055e-38
-0.11426381 0.12385239 0.83900005 1.6363654e-38
-0.11266571 0.12385239 0.83900005 1.6732437e-38
-0.11106763 0.12385239 0.83900005 1.6549844e-38
-0.10946953 0.12385239 0.83900005 1.6457648e-38
-0.10787144 0.12385239 0.83900005 1.6642039e-38
-0.10627334 0.12385239 0.83900005 1.682643e-38
-0.10467524 0.12385239 0.83900005 1.673388e-38
-0.10307714 0.12385239 0.83900005 1.6918272e-38
-0.10147905 0.12385239 0.83900005 1.6826428e-38
-0.099880956 0.12385239 0.83900005 1.6734232e-38
-0.098282859 0.12385239 0.83900005 1.6826418e-38
-0.096684769 0.12385239 0.83900005 1.7010809e-38
-0.095086671 0.12385239 0.83900005 1.7010103e-38
-0.093488574 0.12385239 0.83900005 1.6917907e-38
-0.092109524 0.12414762 0.84100002 1.7100865e-38
-0.14888096 0.12634763 0.84500003 1.1678931e-38
-0.13761429 0.12634763 0.84500003 1.4981799e-38
-0.13568287 0.12604858 0.84300005 1.4981799e-38
-0.13407715 0.12604858 0.84300005 1.5165108e-38
-0.13215715 0.12574953 0.84100002 1.5441695e-38
-0.12895334 0.12574953 0.84100002 1.5073982e-38
-0.12735143 0.12574953 0.84100002 1.5810841e-38
-0.12574953 0.12574953 0.84100002 1.5718645e-38
-0.12414762 0.12574953 0.84100002 1.5807971e-38
-0.12254572 0.12574953 0.84100002 1.6176753e-38
-0.12094381 0.12574953 0.84100002 1.6180695e-38
-0.11934191 0.12574953 0.84100002 1.60885e-38
-0.11774001 0.12574953 0.84100002 1.617926e-38
-0.11613809 0.12574953 0.84100002 1.6271456e-38
-0.11453619 0.12574953 0.84100002 1.627109e-38
-0.11293428 0.12574953 0.84100002 1.691646e-38
-0.11106763 0.12545048 0.83900005 1.6642752e-38
-0.10946953 0.12545048 0.83900005 1.6642752e-38
-0.10787144 0.12545048 0.83900005 1.6826076e-38
-0.10627334 0.12545048 0.83900005 1.6918272e-38
-0.10467524 0.12545048 0.83900005 1.6919351e-38
-0.10307714 0.12545048 0.83900005 1.6734959e-38
-0.10147905 0.12545048 0.83900005 1.6919702e-38
-0.099880956 0.12545048 0.83900005 1.7011898e-38
-0.098282859 0.12545048 0.83900005 1.7103377e-38
-0.096915238 0.12574953 0.84100002 1.7011182e-38
-0.095313333 0.12574953 0.84100002 1.7195213e-38
-0.093711428 0.12574953 0.84100002 1.7010822e-38
-0.092109524 0.12574953 0.84100002 1.7285975e-38
-0.084100001 0.12574953 0.84100002 1.6916476e-38
-0.14692287 0.12765428 0.84300005 1.3979133e-38
-0.13728859 0.12765428 0.84300005 1.6286192e-38
-0.13568287 0.12765428 0.84300005 1.5179844e-38
-0.13407715 0.12765428 0.84300005 1.5820179e-38
-0.13215715 0.12735143 0.84100002 1.5635788e-38
-0.12895334 0.12735143 0.84100002 1.5819819e-38
-0.12735143 0.12735143 0.84100002 1.609319e-38
-0.12574953 0.12735143 0.84100002 1.5816603e-38
-0.12414762 0.12735143 0.84100002 1.581624e-38
-0.12254572 0.12735143 0.84100002 1.5724044e-38
-0.12094381 0.12735143 0.84100002 1.5909138e-38
-0.11934191 0.12735143 0.84100002 1.6001333e-38
-0.11774001 0.12735143 0.84100002 1.6090298e-38
-0.11613809 0.12735143 0.84100002 1.5537124e-38
-0.11453619 0.12735143 0.84100002 1.6179979e-38
-0.11293428 0.12735143 0.84100002 1.7101936e-38
-0.10946953 0.12704857 0.83900005 1.6734948e-38
-0.10787144 0.12704857 0.83900005 1.6734965e-38
-0.10627334 0.12704857 0.83900005 1.6919356e-38
-0.10467524 0.12704857 0.83900005 1.6828234e-38
-0.10307714 0.12704857 0.83900005 1.6736038e-38
-0.10147905 0.12704857 0.83900005 1.7011898e-38
-0.099880956 0.12704857 0.83900005 1.7104094e-38
-0.098517142 0.12735143 0.84100002 1.7104096e-38
-0.096915238 0.12735143 0.84100002 1.7104096e-38
-0.095313333 0.12735143 0.84100002 1.7288122e-38
-0.093711428 0.12735143 0.84100002 1.7103731e-38
-0.084100001 0.12735143 0.84100002 1.387474e-38
-0.082694285 0.12765428 0.84300005 1.3688152e-38
-0.14888096 0.12956667 0.84500003 1.0572947e-38
-0.14727144 0.12956667 0.84500003 1.3515305e-38
-0.13407715 0.12926 0.84300005 1.7584847e-38
-0.13215715 0.12895334 0.84100002 1.6939477e-38
-0.12895334 0.12895334 0.84100002 1.7770289e-38
-0.12735143 0.12895334 0.84100002 1.8226982e-38
-0.12574953 0.12895334 0.84100002 1.7766004e-38
-0.12414762 0.12895334 0.84100002 1.7765288e-38
-0.12254572 0.12895334 0.84100002 1.7396505e-38
-0.12094381 0.12895334 0.84100002 1.7579818e-38
-0.11934191 0.12895334 0.84100002 1.7487622e-38
-0.11774001 0.12895334 0.84100002 1.6929773e-38
-0.11613809 0.12895334 0.84100002 1.6468795e-38
-0.11453619 0.12895334 0.84100002 1.6367997e-38
-0.11293428 0.12895334 0.84100002 1.6183606e-38
-0.11133238 0.12895334 0.84100002 1.6734595e-38
-0.10946953 0.12864667 0.83900005 1.6734595e-38
-0.10787144 0.12864667 0.83900005 1.6919351e-38
-0.10627334 0.12864667 0.83900005 1.7195937e-38
-0.10467524 0.12864667 0.83900005 1.6921148e-38
-0.10307714 0.12864667 0.83900005 1.7013344e-38
-0.10147905 0.12864667 0.83900005 1.7104817e-38
-0.10011905 0.12895334 0.84100002 1.7104817e-38
-0.098517142 0.12895334 0.84100002 1.7104817e-38
-0.096915238 0.12895334 0.84100002 1.7197012e-38
-0.095313333 0.12895334 0.84100002 1.7380329e-38
-0.093711428 0.12895334 0.84100002 1.7103742e-38
-0.084100001 0.12895334 0.84100002 1.4148075e-38
-0.082694285 0.12926 0.84300005 1.3137864e-38
-0.070014283 0.12956667 0.84500003 6.9816501e-39
-0.13407715 0.13086572 0.84300005 1.0306437e-38
-0.13215715 0.13055524 0.84100002 9.8454586e-39
-0.12895334 0.13055524 0.84100002 1.5104124e-38
-0.12735143 0.13055524 0.84100002 1.3257424e-38
-0.12574953 0.13055524 0.84100002 1.2519859e-38
-0.12414762 0.13055524 0.84100002 1.2613853e-38
-0.12254572 0.13055524 0.84100002 1.3812396e-38
-0.12094381 0.13055524 0.84100002 1.3631239e-38
-0.11934191 0.13055524 0.84100002 1.4460999e-38
-0.11774001 0.13055524 0.84100002 1.5279276e-38
-0.11613809 0.13055524 0.84100002 1.6938798e-38
-0.11453619 0.13055524 0.84100002 1.794677e-38
-0.11293428 0.13055524 0.84100002 1.4812119e-38
-0.11133238 0.13055524 0.84100002 1.655022e-38
-0.10973047 0.13055524 0.84100002 1.6734612e-38
-0.10787144 0.13024476 0.83900005 1.6827161e-38
-0.10627334 0.13024476 0.83900005 1.7103747e-38
-0.10467524 0.13024476 0.83900005 1.7012628e-38
-0.10307714 0.13024476 0.83900005 1.7104824e-38
-0.10147905 0.13024476 0.83900005 1.7104824e-38
-0.096915238 0.13055524 0.84100002 1.7197012e-38
-0.095313333 0.13055524 0.84100002 1.7380329e-38
-0.093711428 0.13055524 0.84100002 1.7288133e-38
-0.084100001 0.13055524 0.84100002 2.2814787e-38
-0.082694285 0.13086572 0.84300005 2.1561896e-38
-0.14405239 0.13278572 0.84500003 1.5013868e-38
-0.14083333 0.13278572 0.84500003 2.6668167e-39
-0.13889429 0.13247144 0.84300005 1.2623939e-38
-0.13407715 0.13247144 0.84300005 7.2870827e-39
-0.13215715 0.13215715 0.84100002 6.9183002e-39
-0.13055524 0.13215715 0.84100002 8.483395e-39
-0.12895334 0.13215715 0.84100002 1.0142916e-38
-0.12735143 0.13215715 0.84100002 6.82634e-39
-0.12574953 0.13215715 0.84100002 6.2731662e-39
-0.12414762 0.13215715 0.84100002 1.3984706e-39
-0.12254572 0.13215715 0.84100002 4.6253177e-39
-0.12094381 0.13215715 0.84100002 7.7477666e-39
-0.11934191 0.13215715 0.84100002 6.1804409e-39
-0.11774001 0.13215715 0.84100002 9.3876684e-39
-0.11613809 0.13215715 0.84100002 1.6578913e-38
-0.11453619 0.13215715 0.84100002 1.8228082e-38
-0.11293428 0.13215715 0.84100002 1.4079279e-38
-0.11133238 0.13215715 0.84100002 1.636618e-38
-0.10973047 0.13215715 0.84100002 1.7011549e-38
-0.10812858 0.13215715 0.84100002 1.6828234e-38
-0.10627334 0.13184287 0.83900005 1.7104821e-38
-0.10467524 0.13184287 0.83900005 1.7104817e-38
-0.10307714 0.13184287 0.83900005 1.7104817e-38
-0.10147905 0.13184287 0.83900005 1.6920425e-38
-0.099880956 0.13184287 0.83900005 1.7197012e-38
-0.098282859 0.13184287 0.83900005 1.7289927e-38
-0.096915238 0.13215715 0.84100002 1.7382122e-38
-0.095313333 0.13215715 0.84100002 1.7382122e-38
-0.093711428 0.13215715 0.84100002 1.7382122e-38
-0.084100001 0.13215715 0.84100002 2.3479654e-38
-0.082694285 0.13247144 0.84300005 2.3324775e-38
-0.15120286 0.13503143 0.84900004 7.6262922e-39
-0.14600667 0.13471334 0.84700006 2.0247031e-38
-0.14405239 0.13439524 0.84500003 1.4832645e-38
-0.14083333 0.13439524 0.84500003 5.2461686e-39
-0.13889429 0.13407715 0.84300005 1.4650123e-38
-0.13247144 0.13407715 0.84300005 1.5120825e-38
-0.13086572 0.13407715 0.84300005 1.5397762e-38
-0.12895334 0.13375905 0.84100002 1.5305566e-38
-0.12735143 0.13375905 0.84100002 1.5029634e-38
-0.12574953 0.13375905 0.84100002 1.6596959e-38
-0.12414762 0.13375905 0.84100002 1.5672216e-38
-0.12254572 0.13375905 0.84100002 1.4289281e-38
-0.12094381 0.13375905 0.84100002 1.5209144e-38
-0.11934191 0.13375905 0.84100002 1.0968145e-38
-0.11774001 0.13375905 0.84100002 8.376043e-39
-0.11613809 0.13375905 0.84100002 1.6212657e-38
-0.11453619 0.13375905 0.84100002 1.7769588e-38
-0.11293428 0.13375905 0.84100002 1.3989568e-38
-0.11133238 0.13375905 0.84100002 1.6366168e-38
-0.10973047 0.13375905 0.84100002 1.7103733e-38
-0.10812858 0.13375905 0.84100002 1.6828953e-38
-0.10652667 0.13375905 0.84100002 1.7013344e-38
-0.10147905 0.13344096 0.83900005 1.7198444e-38
-0.099880956 0.13344096 0.83900005 1.7198444e-38
-0.098282859 0.13344096 0.83900005 1.7289927e-38
-0.096915238 0.13375905 0.84100002 1.7382122e-38
-0.095313333 0.13375905 0.84100002 1.7381403e-38
-0.093711428 0.13375905 0.84100002 1.7289208e-38
-0.084100001 0.13375905 0.84100002 2.3506995e-38
-0.082694285 0.13407715 0.84300005 2.341769e-38
-0.15120286 0.13664857 0.84900004 7.534098e-39
-0.14405239 0.13600476 0.84500003 1.5106767e-38
-0.14083333 0.13600476 0.84500003 6.5346695e-39
-0.13889429 0.13568287 0.84300005 1.427909e-38
-0.12926 0.13568287 0.84300005 1.3465597e-38
-0.12765428 0.13568287 0.84300005 1.1990101e-38
-0.12574953 0.13536096 0.84100002 1.475597e-38
-0.12414762 0.13536096 0.84100002 1.5762951e-38
-0.12254572 0.13536096 0.84100002 1.5301973e-38
-0.12094381 0.13536096 0.84100002 1.6497319e-38
-0.11934191 0.13536096 0.84100002 8.3841032e-39
-0.11774001 0.13536096 0.84100002 5.6084224e-39
-0.11613809 0.13536096 0.84100002 1.5104563e-38
-0.11453619 0.13536096 0.84100002 1.6573576e-38
-0.11293428 0.13536096 0.84100002 1.3807707e-38
-0.11133238 0.13536096 0.84100002 1.6458375e-38
-0.10973047 0.13536096 0.84100002 1.7011549e-38
-0.10812858 0.13536096 0.84100002 1.6921509e-38
-0.10652667 0.13536096 0.84100002 1.7198095e-38
-0.10492477 0.13536096 0.84100002 1.7106612e-38
-0.10332286 0.13536096 0.84100002 1.7291003e-38
-0.10172095 0.13536096 0.84100002 1.7291359e-38
-0.10011905 0.13536096 0.84100002 1.7383554e-38
-0.098517142 0.13536096 0.84100002 1.7474678e-38
-0.096915238 0.13536096 0.84100002 1.7382482e-38
-0.095313333 0.13536096 0.84100002 1.7381403e-38
-0.093711428 0.13536096 0.84100002 1.5998469e-38
-0.084100001 0.13536096 0.84100002 2.3509167e-38
-0.082694285 0.13568287 0.84300005 2.341769e-38
-0.14405239 0.13761429 0.84500003 1.5106744e-38
-0.14083333 0.13761429 0.84500003 2.9423232e-39
-0.13889429 0.13728859 0.84300005 1.3176034e-38
-0.12765428 0.13728859 0.84300005 7.3728086e-39
-0.12574953 0.13696286 0.84100002 5.8054828e-39
-0.12414762 0.13696286 0.84100002 6.261031e-39
-0.12254572 0.13696286 0.84100002 6.0766397e-39
-0.12094381 0.13696286 0.84100002 7.2809114e-39
-0.11802001 0.13728859 0.84300005 6.0697523e-39
-0.11613809 0.13696286 0.84100002 1.5934676e-38
-0.11453619 0.13696286 0.84100002 1.6574279e-38
-0.11293428 0.13696286 0.84100002 1.4084997e-38
-0.11133238 0.13696286 0.84100002 1.6643852e-38
-0.10973047 0.13696286 0.84100002 1.6736048e-38
-0.10812858 0.13696286 0.84100002 1.6921148e-38
-0.10652667 0.13696286 0.84100002 1.7197735e-38
-0.10492477 0.13696286 0.84100002 1.7106612e-38
-0.10332286 0.13696286 0.84100002 1.7198807e-38
-0.10172095 0.13696286 0.84100002 1.7383554e-38
-0.10011905 0.13696286 0.84100002 1.7383554e-38
-0.098517142 0.13696286 0.84100002 1.7382836e-38
-0.096915238 0.13696286 0.84100002 1.6645271e-38
-0.095313333 0.13696286 0.84100002 1.6082766e-38
-0.093711428 0.13696286 0.84100002 1.4054462e-38
-0.08730381 0.13696286 0.84100002 2.3509856e-38
-0.085701905 0.13696286 0.84100002 2.341769e-38
-0.084100001 0.13696286 0.84100002 2.3325494e-38
-0.15897144 0.1410362 0.85600007 6.8930432e-39
-0.15443715 0.13988285 0.84900004 7.0774429e-39
-0.15084668 0.13955334 0.84700006 7.7213563e-39
-0.1392238 0.1392238 0.84500003 1.2535359e-38
-0.13728859 0.13889429 0.84300005 1.1524126e-38
-0.12795715 0.1392238 0.84500003 1.3640246e-38
-0.12604858 0.13889429 0.84300005 1.1427551e-38
-0.12283715 0.13889429 0.84300005 9.7676178e-39
-0.12123144 0.13889429 0.84300005 1.0133979e-38
-0.11962572 0.13889429 0.84300005 5.7085887e-39
-0.11802001 0.13889429 0.84300005 8.0079835e-39
-0.11613809 0.13856475 0.84100002 1.5291424e-38
-0.11453619 0.13856475 0.84100002 1.6388485e-38
-0.11293428 0.13856475 0.84100002 1.3991399e-38
-0.11133238 0.13856475 0.84100002 1.682896e-38
-0.10973047 0.13856475 0.84100002 1.7013351e-38
-0.10812858 0.13856475 0.84100002 1.6921141e-38
-0.10652667 0.13856475 0.84100002 1.7289924e-38
-0.10492477 0.13856475 0.84100002 1.7198807e-38
-0.10332286 0.13856475 0.84100002 1.7475394e-38
-0.10172095 0.13856475 0.84100002 1.7383554e-38
-0.10011905 0.13856475 0.84100002 1.7291359e-38
-0.098517142 0.13856475 0.84100002 1.710552e-38
-0.096915238 0.13856475 0.84100002 1.5261607e-38
-0.095313333 0.13856475 0.84100002 1.5345139e-38
-0.093711428 0.13856475 0.84100002 1.9217355e-38
-0.088905722 0.13856475 0.84100002 2.341769e-38
-0.08730381 0.13856475 0.84100002 2.341769e-38
-0.084300004 0.13889429 0.84300005 2.3141103e-38
-0.082890481 0.1392238 0.84500003 2.3048907e-38
-0.15934287 0.14300001 0.85800004 6.9848843e-39
-0.15734096 0.14266668 0.85600007 7.1692756e-39
-0.15443715 0.14150001 0.84900004 7.2607775e-39
-0.15246001 0.14116667 0.84700006 7.9983426e-39
-0.15084668 0.14116667 0.84700006 7.9075665e-39
-0.14600667 0.14116667 0.84700006 1.7761712e-38
-0.13117619 0.14083333 0.84500003 1.5578489e-38
-0.12795715 0.14083333 0.84500003 1.6591564e-38
-0.12604858 0.14050001 0.84300005 1.6591564e-38
-0.12444286 0.14050001 0.84300005 1.4931341e-38
-0.12283715 0.14050001 0.84300005 1.5207928e-38
-0.12123144 0.14050001 0.84300005 1.4566531e-38
-0.11962572 0.14050001 0.84300005 1.2169445e-38
-0.11802001 0.14050001 0.84300005 8.7552231e-39
-0.11453619 0.14016667 0.84100002 1.6847292e-38
-0.11293428 0.14016667 0.84100002 1.4081423e-38
-0.11133238 0.14016667 0.84100002 1.68286e-38
-0.10973047 0.14016667 0.84100002 1.7105187e-38
-0.10812858 0.14016667 0.84100002 1.6828583e-38
-0.10652667 0.14016667 0.84100002 1.710517e-38
-0.10492477 0.14016667 0.84100002 1.71059e-38
-0.10332286 0.14016667 0.84100002 1.6921509e-38
-0.10172095 0.14016667 0.84100002 1.6364008e-38
-0.10011905 0.14016667 0.84100002 1.3690334e-38
-0.098517142 0.14016667 0.84100002 1.4423195e-38
-0.096915238 0.14016667 0.84100002 1.9032964e-38
-0.095313333 0.14016667 0.84100002 2.0170233e-38
-0.093711428 0.14016667 0.84100002 2.3503681e-38
-0.088905722 0.14016667 0.84100002 2.341769e-38
-0.087511435 0.14050001 0.84300005 2.3233299e-38
-0.085905716 0.14050001 0.84300005 2.3048907e-38
-0.084300004 0.14050001 0.84300005 2.3048907e-38
-0.082890481 0.14083333 0.84500003 2.3048907e-38
-0.068728574 0.14150001 0.84900004 1.3711198e-38
-0.067269526 0.14183334 0.85100001 1.1876663e-38
-0.15480095 0.14345428 0.85100001 7.2618341e-39
-0.15282001 0.14311714 0.84900004 8.8291598e-39
-0.14600667 0.14278001 0.84700006 1.7484759e-38
-0.14405239 0.14244285 0.84500003 1.4650085e-38
-0.12123144 0.14210573 0.84300005 1.3464868e-38
-0.11669048 0.14244285 0.84500003 1.0333416e-38
-0.11159715 0.14210573 0.84300005 1.6921509e-38
-0.10999143 0.14210573 0.84300005 1.6921509e-38
-0.10812858 0.14176857 0.84100002 1.6921148e-38
-0.10652667 0.14176857 0.84100002 1.7013344e-38
-0.10492477 0.14176857 0.84100002 1.6827857e-38
-0.10332286 0.14176857 0.84100002 1.5537118e-38
-0.10172095 0.14176857 0.84100002 1.5714991e-38
-0.10011905 0.14176857 0.84100002 1.4885242e-38
-0.098517142 0.14176857 0.84100002 1.4609767e-38
-0.096915238 0.14176857 0.84100002 2.0786874e-38
-0.095313333 0.14176857 0.84100002 2.2387678e-38
-0.09393429 0.14210573 0.84300005 2.350519e-38
-0.088905722 0.14176857 0.84100002 2.3141103e-38
-0.087511435 0.14210573 0.84300005 2.3048907e-38
-0.084300004 0.14210573 0.84300005 2.3048907e-38
-0.082890481 0.14244285 0.84500003 2.3048907e-38
-0.079671435 0.14244285 0.84500003 2.3048907e-38
-0.070179999 0.14278001 0.84700006 6.9816501e-39
-0.068728574 0.14311714 0.84900004 1.3343143e-38
-0.067269526 0.14345428 0.85100001 1.1968859e-38
-0.15480095 0.14507523 0.85100001 7.6306419e-39
-0.15282001 0.14473429 0.84900004 9.3823588e-39
-0.14405239 0.14405239 0.84500003 1.5656622e-38
-0.12180667 0.14439334 0.84700006 1.3278983e-38
-0.12019334 0.14439334 0.84700006 8.7613972e-39
-0.11858001 0.14439334 0.84700006 1.0876767e-38
-0.11669048 0.14405239 0.84500003 1.6131894e-38
-0.11508096 0.14405239 0.84500003 1.7955437e-38
-0.11347143 0.14405239 0.84500003 1.3898829e-38
-0.11159715 0.14371143 0.84300005 1.5997383e-38
-0.10999143 0.14371143 0.84300005 1.5259818e-38
-0.10838572 0.14371143 0.84300005 1.5343756e-38
-0.10678001 0.14371143 0.84300005 1.4421799e-38
-0.10517429 0.14371143 0.84300005 1.414733e-38
-0.10356858 0.14371143 0.84300005 1.5899036e-38
-0.10196286 0.14371143 0.84300005 1.8781535e-38
-0.095540009 0.14371143 0.84300005 2.341769e-38
-0.09393429 0.14371143 0.84300005 2.341769e-38
-0.089117147 0.14371143 0.84300005 2.3048907e-38
-0.087511435 0.14371143 0.84300005 2.3048907e-38
-0.084300004 0.14371143 0.84300005 2.3233299e-38
-0.068728574 0.14473429 0.84900004 1.3435693e-38
-0.067269526 0.14507523 0.85100001 1.1692632e-38
-0.15934287 0.14790286 0.85800004 6.6153843e-39
-0.15480095 0.1466962 0.85100001 7.9093643e-39
-0.15282001 0.14635143 0.84900004 9.2922988e-39
-0.15120286 0.14635143 0.84900004 8.7430879e-39
-0.13632667 0.14600667 0.84700006 1.151326e-38
-0.13439524 0.14566191 0.84500003 1.2344103e-38
-0.12826 0.14600667 0.84700006 1.2075052e-38
-0.12664667 0.14600667 0.84700006 1.1706269e-38
-0.12503333 0.14600667 0.84700006 1.2076837e-38
-0.12342 0.14600667 0.84700006 1.2537815e-38
-0.12180667 0.14600667 0.84700006 1.3184656e-38
-0.12019334 0.14600667 0.84700006 1.1801722e-38
-0.11858001 0.14600667 0.84700006 1.4465629e-38
-0.11669048 0.14566191 0.84500003 1.5940759e-38
-0.11508096 0.14566191 0.84500003 1.7676716e-38
-0.11347143 0.14566191 0.84500003 1.315913e-38
-0.11159715 0.14531715 0.84300005 1.4798429e-38
-0.10999143 0.14531715 0.84300005 1.4890623e-38
-0.10838572 0.14531715 0.84300005 1.4975643e-38
-0.10678001 0.14531715 0.84300005 1.4791255e-38
-0.10517429 0.14531715 0.84300005 1.4793445e-38
-0.10356858 0.14531715 0.84300005 1.8573466e-38
-0.10196286 0.14531715 0.84300005 2.2286834e-38
-0.10035715 0.14531715 0.84300005 2.3500863e-38
-0.098985717 0.14566191 0.84500003 2.341769e-38
-0.068728574 0.14635143 0.84900004 1.3435339e-38
-0.067269526 0.1466962 0.85100001 1.1784465e-38
-0.15480095 0.14831714 0.85100001 8.0040781e-39
-0.12856287 0.14796858 0.84900004 1.4179359e-38
-0.12664667 0.14762001 0.84700006 1.4363751e-38
-0.12503333 0.14762001 0.84700006 1.4272634e-38
-0.12342 0.14762001 0.84700006 1.4272634e-38
-0.12180667 0.14762001 0.84700006 1.4365183e-38
-0.12019334 0.14762001 0.84700006 1.4457378e-38
-0.11858001 0.14762001 0.84700006 1.3615452e-38
-0.11696667 0.14762001 0.84700006 1.1033974e-38
-0.11508096 0.14727144 0.84500003 1.3504133e-38
-0.11347143 0.14727144 0.84500003 1.3411937e-38
-0.11186191 0.14727144 0.84500003 1.4799508e-38
-0.11025239 0.14727144 0.84500003 2.2451746e-38
-0.10864286 0.14727144 0.84500003 2.238649e-38
-0.10703333 0.14727144 0.84500003 2.3497159e-38
-0.10542382 0.14727144 0.84500003 2.3326182e-38
-0.10381429 0.14727144 0.84500003 2.3509856e-38
-0.10220476 0.14727144 0.84500003 2.341769e-38
-0.10059524 0.14727144 0.84500003 2.341769e-38
-0.098985717 0.14727144 0.84500003 2.341769e-38
-0.09737619 0.14727144 0.84500003 2.3141103e-38
-0.095766664 0.14727144 0.84500003 2.3048907e-38
-0.087511435 0.14692287 0.84300005 2.3233299e-38
-0.084300004 0.14692287 0.84300005 2.2495734e-38
-0.083086669 0.14762001 0.84700006 2.0192981e-38
-0.076814294 0.14796858 0.84900004 2.3418025e-38
-0.068728574 0.14796858 0.84900004 1.2336175e-38
-0.067269526 0.14831714 0.85100001 1.1692988e-38
-0.12856287 0.14958571 0.84900004 1.4709153e-38
-0.12664667 0.14923334 0.84700006 1.6184283e-38
-0.12503333 0.14923334 0.84700006 1.4709853e-38
-0.12342 0.14923334 0.84700006 1.6184983e-38
-0.12180667 0.14923334 0.84700006 1.4432901e-38
-0.12019334 0.14923334 0.84700006 1.6000226e-38
-0.11858001 0.14923334 0.84700006 1.4150559e-38
-0.11696667 0.14923334 0.84700006 1.3873976e-38
-0.11535334 0.14923334 0.84700006 1.4515452e-38
-0.11374 0.14923334 0.84700006 2.0508168e-38
-0.11186191 0.14888096 0.84500003 1.9521658e-38
-0.11025239 0.14888096 0.84500003 2.0167028e-38
-0.10864286 0.14888096 0.84500003 2.2665707e-38
-0.10703333 0.14888096 0.84500003 2.3505191e-38
-0.10542382 0.14888096 0.84500003 2.341769e-38
-0.10381429 0.14888096 0.84500003 2.341769e-38
-0.10220476 0.14888096 0.84500003 2.341769e-38
-0.10059524 0.14888096 0.84500003 2.3325494e-38
-0.098985717 0.14888096 0.84500003 2.3048907e-38
-0.09737619 0.14888096 0.84500003 2.3048907e-38
-0.095766664 0.14888096 0.84500003 2.3048907e-38
-0.094157144 0.14888096 0.84500003 2.3048907e-38
-0.084500007 0.14888096 0.84500003 2.2680125e-38
-0.083086669 0.14923334 0.84700006 1.9366821e-38
-0.078246668 0.14923334 0.84700006 1.9740115e-38
-0.068728574 0.14958571 0.84900004 1.1785171e-38
-0.067269526 0.14993809 0.85100001 1.1785184e-38
-0.065648571 0.14993809 0.85100001 1.1692988e-38
-0.15209335 0.15209335 0.85400003 8.5590469e-39
-0.14473429 0.15120286 0.84900004 2.3414463e-38
-0.14278001 0.15084668 0.84700006 2.2492506e-38
-0.13664857 0.15120286 0.84900004 1.8059178e-38
-0.13471334 0.15084668 0.84700006 1.8513682e-38
-0.12856287 0.15120286 0.84900004 1.8695187e-38
-0.12664667 0.15084668 0.84700006 1.8971774e-38
-0.12503333 0.15084668 0.84700006 1.9158317e-38
-0.12342 0.15084668 0.84700006 1.9895882e-38
-0.12180667 0.15084668 0.84700006 2.0175712e-38
-0.12019334 0.15084668 0.84700006 2.1005472e-38
-0.11858001 0.15084668 0.84700006 2.2950151e-38
-0.11696667 0.15084668 0.84700006 2.3504765e-38
-0.11535334 0.15084668 0.84700006 2.3416974e-38
-0.11374 0.15084668 0.84700006 2.3509168e-38
-0.11212667 0.15084668 0.84700006 2.341769e-38
-0.10864286 0.15049048 0.84500003 2.341769e-38
-0.10703333 0.15049048 0.84500003 2.341769e-38
-0.10542382 0.15049048 0.84500003 2.341769e-38
-0.10381429 0.15049048 0.84500003 2.3141103e-38
-0.10220476 0.15049048 0.84500003 2.3048907e-38
-0.10059524 0.15049048 0.84500003 2.3048907e-38
-0.098985717 0.15049048 0.84500003 2.3048907e-38
-0.09737619 0.15049048 0.84500003 2.3048907e-38
-0.095766664 0.15049048 0.84500003 2.3048907e-38
-0.094157144 0.15049048 0.84500003 2.3048907e-38
-0.084500007 0.15049048 0.84500003 2.341769e-38
-0.083086669 0.15084668 0.84700006 2.3234365e-38
-0.081665717 0.15120286 0.84900004 1.4014802e-38
-0.068728574 0.15120286 0.84900004 1.1601503e-38
-0.067269526 0.15155905 0.85100001 1.1600436e-38
-0.065648571 0.15155905 0.85100001 1.1600436e-38
-0.16135238 0.15480001 0.86000001 3.4958683e-39
-0.14993809 0.15318 0.85100001 4.5946447e-39
-0.14473429 0.15282001 0.84900004 2.3416971e-38
-0.14278001 0.15246001 0.84700006 2.3416971e-38
-0.13664857 0.15282001 0.84900004 2.0928055e-38
-0.13471334 0.15246001 0.84700006 1.9818821e-38
-0.12664667 0.15246001 0.84700006 2.0273312e-38
-0.12503333 0.15246001 0.84700006 2.0458419e-38
-0.12342 0.15246001 0.84700006 2.1564767e-38
-0.12180667 0.15246001 0.84700006 2.2029711e-38
-0.12019334 0.15246001 0.84700006 2.3508082e-38
-0.11858001 0.15246001 0.84700006 2.3417687e-38
-0.11696667 0.15246001 0.84700006 2.3417687e-38
-0.11535334 0.15246001 0.84700006 2.341769e-38
-0.11374 0.15246001 0.84700006 2.341769e-38
-0.11212667 0.15246001 0.84700006 2.341769e-38
-0.10703333 0.1521 0.84500003 2.3233299e-38
-0.10542382 0.1521 0.84500003 2.3048907e-38
-0.10381429 0.1521 0.84500003 2.3048907e-38
-0.10220476 0.1521 0.84500003 2.3048907e-38
-0.10083334 0.15246001 0.84700006 2.3048907e-38
-0.09737619 0.1521 0.84500003 2.3048907e-38
-0.095766664 0.1521 0.84500003 2.3048907e-38
-0.094157144 0.1521 0.84500003 2.3048907e-38
-0.087719053 0.1521 0.84500003 2.3048907e-38
-0.086109526 0.1521 0.84500003 2.3233299e-38
-0.084500007 0.1521 0.84500003 2.341769e-38
-0.083086669 0.15246001 0.84700006 2.341769e-38
-0.078431435 0.15282001 0.84900004 1.5130388e-38
-0.067269526 0.15318 0.85100001 1.150896e-38
-0.16135238 0.1564381 0.86000001 3.4029664e-39
-0.15046667 0.15534668 0.85400003 4.5020917e-39
-0.14831714 0.15480095 0.85100001 5.1456576e-39
-0.14473429 0.15443715 0.84900004 2.3417687e-38
-0.13503143 0.15443715 0.84900004 2.341769e-38
-0.1331 0.15407334 0.84700006 2.341769e-38
-0.12664667 0.15407334 0.84700006 2.341769e-38
-0.12503333 0.15407334 0.84700006 2.341769e-38
-0.12342 0.15407334 0.84700006 2.341769e-38
-0.12180667 0.15407334 0.84700006 2.341769e-38
-0.12019334 0.15407334 0.84700006 2.341769e-38
-0.11858001 0.15407334 0.84700006 2.341769e-38
-0.11696667 0.15407334 0.84700006 2.341769e-38
-0.11535334 0.15407334 0.84700006 2.3325494e-38
-0.11374 0.15407334 0.84700006 2.3141103e-38
-0.11212667 0.15407334 0.84700006 2.3048907e-38
-0.11051334 0.15407334 0.84700006 2.3048907e-38
-0.10703333 0.15370953 0.84500003 2.3048907e-38
-0.10542382 0.15370953 0.84500003 2.3048907e-38
-0.10381429 0.15370953 0.84500003 2.3048907e-38
-0.10220476 0.15370953 0.84500003 2.3048907e-38
-0.10059524 0.15370953 0.84500003 2.3048907e-38
-0.09737619 0.15370953 0.84500003 2.3325494e-38
-0.095766664 0.15370953 0.84500003 2.341769e-38
-0.094157144 0.15370953 0.84500003 2.341769e-38
-0.087719053 0.15370953 0.84500003 2.341769e-38
-0.086313337 0.15407334 0.84700006 2.3233299e-38
-0.084700003 0.15407334 0.84700006 2.341769e-38
-0.079860002 0.15407334 0.84700006 1.3845115e-38
-0.078431435 0.15443715 0.84900004 1.2554376e-38
-0.15934287 0.15770859 0.85800004 6.7090135e-39
-0.14507523 0.1564219 0.85100001 2.3416974e-38
-0.13503143 0.15605429 0.84900004 2.341769e-38
-0.1331 0.15568668 0.84700006 2.341769e-38
-0.12826 0.15568668 0.84700006 2.341769e-38
-0.12664667 0.15568668 0.84700006 2.341769e-38
-0.12503333 0.15568668 0.84700006 2.341769e-38
-0.12342 0.15568668 0.84700006 2.341769e-38
-0.12180667 0.15568668 0.84700006 2.341769e-38
-0.12019334 0.15568668 0.84700006 2.3325494e-38
-0.11858001 0.15568668 0.84700006 2.3233299e-38
-0.11696667 0.15568668 0.84700006 2.3048907e-38
-0.11535334 0.15568668 0.84700006 2.3048907e-38
-0.11374 0.15568668 0.84700006 2.3048907e-38
-0.11212667 0.15568668 0.84700006 2.3048907e-38
-0.11051334 0.15568668 0.84700006 2.3048907e-38
-0.10890001 0.15568668 0.84700006 2.3048907e-38
-0.10728668 0.15568668 0.84700006 2.3048907e-38
-0.10381429 0.15531905 0.84500003 2.3048907e-38
-0.10220476 0.15531905 0.84500003 2.3048907e-38
-0.10059524 0.15531905 0.84500003 2.3141103e-38
-0.098985717 0.15531905 0.84500003 2.3325494e-38
-0.09737619 0.15531905 0.84500003 2.341769e-38
-0.095766664 0.15531905 0.84500003 2.3417687e-38
-0.08932858 0.15531905 0.84500003 2.3418043e-38
-0.087719053 0.15531905 0.84500003 2.3418043e-38
-0.086313337 0.15568668 0.84700006 2.341769e-38
-0.084700003 0.15568668 0.84700006 2.341769e-38
