# .PCD v0.7 - Point Cloud Data file format
VERSION 0.7
FIELDS x y z rgb
SIZE 4 4 4 4
TYPE F F F F
COUNT 1 1 1 1
WIDTH 346
HEIGHT 1
VIEWPOINT 0 0 0 1 0 0 0
POINTS 346
DATA ascii
-0.038666669 -0.18405335 1.6240001 1.0687092e-38
-0.013851429 -0.18314667 1.6160001 1.1700888e-38
-0.010773334 -0.18314667 1.6160001 1.1055913e-38
-0.038666669 -0.18096001 1.6240001 1.5943332e-38
-0.0353981 -0.18006858 1.6160001 1.5943688e-38
-0.03232 -0.18006858 1.6160001 1.6128079e-38
-0.016929524 -0.18006858 1.6160001 1.5761102e-38
-0.013851429 -0.18006858 1.6160001 1.5853297e-38
-0.010773334 -0.18006858 1.6160001 1.5576367e-38
-0.038476191 -0.17699048 1.6160001 1.6683071e-38
-0.0353981 -0.17699048 1.6160001 1.6866746e-38
-0.03232 -0.17699048 1.6160001 1.741992e-38
-0.029241905 -0.17699048 1.6160001 1.7328803e-38
-0.016929524 -0.17699048 1.6160001 1.7144061e-38
-0.013851429 -0.17699048 1.6160001 1.7328453e-38
-0.038476191 -0.17391238 1.6160001 1.7697958e-38
-0.0353981 -0.17391238 1.6160001 1.779052e-38
-0.03232 -0.17391238 1.6160001 1.8251498e-38
-0.029241905 -0.17391238 1.6160001 1.834333e-38
-0.016929524 -0.17391238 1.6160001 1.7974911e-38
-0.013851429 -0.17391238 1.6160001 1.7606128e-38
-0.010773334 -0.17391238 1.6160001 1.7146219e-38
-0.0077333339 -0.17477334 1.6240001 1.5855481e-38
-0.041760001 -0.17168 1.6240001 1.5948765e-38
-0.038476191 -0.17083429 1.6160001 1.668633e-38
-0.0353981 -0.17083429 1.6160001 1.6871081e-38
-0.03232 -0.17083429 1.6160001 1.733206e-38
-0.029241905 -0.17083429 1.6160001 1.7515728e-38
-0.026163809 -0.17083429 1.6160001 1.8253293e-38
-0.023085715 -0.17083429 1.6160001 1.8252937e-38
-0.02000762 -0.17083429 1.6160001 1.7607567e-38
-0.016929524 -0.17083429 1.6160001 1.7239504e-38
-0.013851429 -0.17083429 1.6160001 1.6962917e-38
-0.010773334 -0.17083429 1.6160001 1.6777807e-38
-0.041554287 -0.1677562 1.6160001 1.6040245e-38
-0.038476191 -0.1677562 1.6160001 1.6685614e-38
-0.0353981 -0.1677562 1.6160001 1.6594848e-38
-0.03232 -0.1677562 1.6160001 1.7055826e-38
-0.029241905 -0.1677562 1.6160001 1.7239138e-38
-0.026163809 -0.1677562 1.6160001 1.7976703e-38
-0.023085715 -0.1677562 1.6160001 1.7977069e-38
-0.02000762 -0.1677562 1.6160001 1.7055113e-38
-0.016929524 -0.1677562 1.6160001 1.6686683e-38
-0.013851429 -0.1677562 1.6160001 1.6778879e-38
-0.010773334 -0.1677562 1.6160001 1.677816e-38
-0.041554287 -0.1646781 1.6160001 1.6040245e-38
-0.038476191 -0.1646781 1.6160001 1.6685614e-38
-0.0353981 -0.1646781 1.6160001 1.6595567e-38
-0.03232 -0.1646781 1.6160001 1.6872153e-38
-0.029241905 -0.1646781 1.6160001 1.687179e-38
-0.023085715 -0.1646781 1.6160001 1.7055473e-38
-0.02000762 -0.1646781 1.6160001 1.6871081e-38
-0.016929524 -0.1646781 1.6160001 1.6410103e-38
-0.013851429 -0.1646781 1.6160001 1.668669e-38
-0.010773334 -0.1646781 1.6160001 1.6870721e-38
-0.041554287 -0.16160001 1.6160001 1.7236986e-38
-0.038476191 -0.16160001 1.6160001 1.7513573e-38
-0.0353981 -0.16160001 1.6160001 1.7608271e-38
-0.03232 -0.16160001 1.6160001 1.7884858e-38
-0.029241905 -0.16160001 1.6160001 1.8160724e-38
-0.023085715 -0.16160001 1.6160001 1.8069252e-38
-0.02000762 -0.16160001 1.6160001 1.8253643e-38
-0.013851429 -0.16160001 1.6160001 1.7516088e-38
-0.010773334 -0.16160001 1.6160001 1.7516441e-38
-0.0015390477 -0.16160001 1.6160001 9.0337074e-39
-0.041554287 -0.15852192 1.6160001 1.6961478e-38
-0.038476191 -0.15852192 1.6160001 1.7145869e-38
-0.0353981 -0.15852192 1.6160001 1.7514646e-38
-0.03232 -0.15852192 1.6160001 1.7883428e-38
-0.029241905 -0.15852192 1.6160001 1.806782e-38
-0.026293335 -0.15930668 1.6240001 1.8160015e-38
-0.0232 -0.15930668 1.6240001 1.8252214e-38
-0.020106668 -0.15930668 1.6240001 1.8160018e-38
-0.017013334 -0.15930668 1.6240001 1.7699763e-38
-0.013851429 -0.15852192 1.6160001 1.7146589e-38
-0.010773334 -0.15852192 1.6160001 1.6410109e-38
0.0015466667 -0.15930668 1.6240001 1.575585e-39
-0.041554287 -0.15544382 1.6160001 1.1426863e-38
-0.038476191 -0.15544382 1.6160001 1.0504907e-38
-0.0353981 -0.15544382 1.6160001 1.0138996e-38
-0.03232 -0.15544382 1.6160001 1.0599974e-38
-0.029241905 -0.15544382 1.6160001 1.0507428e-38
-0.026293335 -0.15621333 1.6240001 1.0415232e-38
-0.0232 -0.15621333 1.6240001 9.1255975e-39
-0.020106668 -0.15621333 1.6240001 7.7426631e-39
-0.017013334 -0.15621333 1.6240001 6.7284957e-39
-0.013920001 -0.15621333 1.6240001 5.8065394e-39
-0.054400001 -0.15387429 1.6320001 7.6497037e-39
-0.029386668 -0.15312 1.6240001 4.6990904e-39
-0.026293335 -0.15312 1.6240001 3.8693298e-39
-0.0232 -0.15312 1.6240001 1.7535373e-39
-0.020106668 -0.15312 1.6240001 3.7975188e-43
-0.017013334 -0.15312 1.6240001 1.1023847e-39
-0.013920001 -0.15312 1.6240001 1.3789688e-39
-0.054400001 -0.15076573 1.6320001 5.6995405e-39
-0.0353981 -0.14928761 1.6160001 6.799414e-39
-0.03232 -0.14928761 1.6160001 8.4589354e-39
-0.029241905 -0.14928761 1.6160001 8.4653856e-39
-0.026293335 -0.15002666 1.6240001 8.5575812e-39
-0.0232 -0.15002666 1.6240001 8.4639562e-39
-0.020106668 -0.15002666 1.6240001 6.3434652e-39
-0.017013334 -0.15002666 1.6240001 7.3525906e-39
-0.013920001 -0.15002666 1.6240001 7.7213731e-39
-0.054400001 -0.14765716 1.6320001 7.7206389e-39
-0.0353981 -0.14620952 1.6160001 1.0570455e-38
-0.03232 -0.14620952 1.6160001 1.2045585e-38
-0.029241905 -0.14620952 1.6160001 1.1773651e-38
-0.026293335 -0.14693335 1.6240001 1.2050238e-38
-0.017013334 -0.14693335 1.6240001 1.0753402e-38
-0.013920001 -0.14693335 1.6240001 1.0753402e-38
0.0015542858 -0.14765716 1.6320001 8.1059777e-39
-0.054400001 -0.14454857 1.6320001 7.8128331e-39
-0.0353981 -0.14313143 1.6160001 9.8386454e-39
-0.03232 -0.14313143 1.6160001 1.2235732e-38
-0.029241905 -0.14313143 1.6160001 1.1596084e-38
-0.017013334 -0.14384001 1.6240001 1.0754478e-38
-0.013920001 -0.14384001 1.6240001 9.8325218e-39
0.0015542858 -0.14454857 1.6320001 6.7219278e-39
-0.054400001 -0.14144 1.6320001 7.9046686e-39
-0.0353981 -0.14005333 1.6160001 8.5500674e-39
-0.03232 -0.14005333 1.6160001 1.1500328e-38
-0.029241905 -0.14005333 1.6160001 1.0308955e-38
-0.026293335 -0.14074668 1.6240001 1.1415302e-38
-0.0232 -0.14074668 1.6240001 1.0213189e-38
-0.020106668 -0.14074668 1.6240001 9.7522105e-39
-0.017013334 -0.14074668 1.6240001 1.0758434e-38
-0.013920001 -0.14074668 1.6240001 9.3754995e-39
0.0015542858 -0.14144 1.6320001 5.8889512e-39
-0.054400001 -0.13833143 1.6320001 7.8114052e-39
-0.038476191 -0.13697524 1.6160001 9.2040296e-39
-0.0353981 -0.13697524 1.6160001 9.2977162e-39
-0.03232 -0.13697524 1.6160001 1.1510411e-38
-0.029241905 -0.13697524 1.6160001 1.1051919e-38
-0.026293335 -0.13765334 1.6240001 1.1144115e-38
-0.0232 -0.13765334 1.6240001 9.9377032e-39
-0.020106668 -0.13765334 1.6240001 9.4767251e-39
-0.017013334 -0.13765334 1.6240001 1.0850976e-38
-0.013920001 -0.13765334 1.6240001 9.3758456e-39
0.0015542858 -0.13833143 1.6320001 6.808402e-39
-0.054400001 -0.13522287 1.6320001 7.812124e-39
-0.038476191 -0.13389716 1.6160001 9.2094372e-39
-0.0353981 -0.13389716 1.6160001 8.3854457e-39
-0.03232 -0.13389716 1.6160001 9.4917932e-39
-0.029241905 -0.13389716 1.6160001 1.0041027e-38
-0.026293335 -0.13456 1.6240001 9.672244e-39
-0.0232 -0.13456 1.6240001 8.9260652e-39
-0.020106668 -0.13456 1.6240001 9.1104565e-39
-0.017013334 -0.13456 1.6240001 1.0854203e-38
-0.013920001 -0.13456 1.6240001 9.0102903e-39
0.0015542858 -0.13522287 1.6320001 6.8995186e-39
-0.054400001 -0.13211429 1.6320001 7.6266636e-39
-0.038476191 -0.13081905 1.6160001 1.0221409e-38
-0.0353981 -0.13081905 1.6160001 9.5825231e-39
-0.03232 -0.13081905 1.6160001 1.0043501e-38
-0.029241905 -0.13081905 1.6160001 1.0133247e-38
-0.026293335 -0.13146667 1.6240001 9.3956824e-39
-0.017013334 -0.13146667 1.6240001 1.1037155e-38
-0.013920001 -0.13146667 1.6240001 9.1932424e-39
0.0015542858 -0.13211429 1.6320001 6.4371027e-39
-0.054400001 -0.12900572 1.6320001 7.8114052e-39
-0.038476191 -0.12774095 1.6160001 1.058733e-38
-0.0353981 -0.12774095 1.6160001 9.5818197e-39
-0.03232 -0.12774095 1.6160001 9.6740153e-39
-0.029241905 -0.12774095 1.6160001 1.0133954e-38
-0.026293335 -0.12837334 1.6240001 9.9495624e-39
-0.017013334 -0.12837334 1.6240001 1.1127916e-38
-0.013920001 -0.12837334 1.6240001 9.7449812e-39
-0.0015466667 -0.12837334 1.6240001 1.0203078e-38
0.0015542858 -0.12900572 1.6320001 6.6222016e-39
-0.054400001 -0.12589714 1.6320001 7.5366119e-39
-0.038476191 -0.12466287 1.6160001 9.7510671e-39
-0.0353981 -0.12466287 1.6160001 9.4766662e-39
-0.03232 -0.12466287 1.6160001 1.0767405e-38
-0.026293335 -0.12528001 1.6240001 1.0402246e-38
-0.0232 -0.12528001 1.6240001 1.0770273e-38
-0.020106668 -0.12528001 1.6240001 9.1107522e-39
-0.017013334 -0.12528001 1.6240001 1.0482897e-38
-0.013920001 -0.12528001 1.6240001 9.1921592e-39
0.0015542858 -0.12589714 1.6320001 5.4262032e-39
-0.057755239 -0.12331524 1.6390001 5.0592536e-39
-0.051291432 -0.12278858 1.6320001 7.9057644e-39
-0.0353981 -0.12158477 1.6160001 1.0386738e-38
-0.03232 -0.12158477 1.6160001 1.1308694e-38
-0.029241905 -0.12158477 1.6160001 1.1868391e-38
-0.026293335 -0.12218667 1.6240001 1.1499609e-38
-0.0232 -0.12218667 1.6240001 1.0394681e-38
-0.020106668 -0.12218667 1.6240001 8.6429637e-39
-0.016929524 -0.12158477 1.6160001 9.7424841e-39
-0.013851429 -0.12158477 1.6160001 9.0971147e-39
-0.010773334 -0.12158477 1.6160001 9.0981825e-39
-0.0076952381 -0.12158477 1.6160001 9.6513563e-39
-0.035573334 -0.11909334 1.6240001 6.706152e-39
-0.03232 -0.11850667 1.6160001 8.8266515e-39
-0.029241905 -0.11850667 1.6160001 9.9398514e-39
-0.026293335 -0.11909334 1.6240001 9.6632645e-39
-0.0232 -0.11909334 1.6240001 8.3732137e-39
-0.02000762 -0.11850667 1.6160001 6.068323e-39
-0.016929524 -0.11850667 1.6160001 7.2607902e-39
-0.013851429 -0.11850667 1.6160001 6.2466382e-39
-0.010773334 -0.11850667 1.6160001 6.7983505e-39
-0.0076952381 -0.11850667 1.6160001 6.9827417e-39
-0.060877144 -0.11707143 1.6390001 3.8661026e-39
-0.047946669 -0.116 1.6240001 4.4120513e-39
-0.035573334 -0.116 1.6240001 2.2047694e-39
-0.026293335 -0.116 1.6240001 1.0411314e-38
-0.0232 -0.116 1.6240001 8.3812446e-39
-0.02000762 -0.11542857 1.6160001 6.6295276e-39
-0.016929524 -0.11542857 1.6160001 3.9547011e-39
-0.013851429 -0.11542857 1.6160001 3.4015273e-39
-0.010773334 -0.11542857 1.6160001 4.8694393e-39
-0.0076952381 -0.11542857 1.6160001 5.2382218e-39
-0.057755239 -0.11394952 1.6390001 3.4990955e-39
-0.035573334 -0.11290666 1.6240001 3.4908251e-39
-0.026293335 -0.11290666 1.6240001 1.5016794e-38
-0.0232 -0.11290666 1.6240001 1.4557952e-38
-0.016929524 -0.11235048 1.6160001 5.609203e-39
-0.010726667 -0.11186381 1.6090001 5.3304104e-39
-0.0076619047 -0.11186381 1.6090001 5.7913886e-39
-0.060877144 -0.11082762 1.6390001 3.867169e-39
-0.057755239 -0.11082762 1.6390001 3.3139952e-39
-0.035573334 -0.10981334 1.6240001 4.0421968e-39
-0.032480001 -0.10981334 1.6240001 7.4534309e-39
-0.029386668 -0.10981334 1.6240001 1.3354727e-38
-0.026293335 -0.10981334 1.6240001 1.5751814e-38
-0.0232 -0.10981334 1.6240001 1.4740543e-38
-0.010726667 -0.10879906 1.6090001 5.6062701e-39
-0.0076619047 -0.10879906 1.6090001 5.9750484e-39
-0.035573334 -0.10672001 1.6240001 3.7666903e-39
-0.032480001 -0.10672001 1.6240001 6.3481623e-39
-0.029386668 -0.10672001 1.6240001 1.3357894e-38
-0.0232 -0.10672001 1.6240001 1.3544088e-38
-0.020106668 -0.10672001 1.6240001 8.9343063e-39
-0.017013334 -0.10672001 1.6240001 6.4382224e-39
-0.010726667 -0.10573429 1.6090001 5.5140758e-39
-0.0076619047 -0.10573429 1.6090001 5.9750512e-39
-0.038857147 -0.10413715 1.6320001 5.1463751e-39
-0.035573334 -0.10362667 1.6240001 4.1336735e-39
-0.032480001 -0.10362667 1.6240001 8.3746683e-39
-0.029386668 -0.10362667 1.6240001 1.4373155e-38
-0.0232 -0.10362667 1.6240001 1.2437438e-38
-0.020106668 -0.10362667 1.6240001 9.7637643e-39
-0.017013334 -0.10362667 1.6240001 6.5325662e-39
-0.013920001 -0.10362667 1.6240001 4.3198711e-39
-0.010826667 -0.10362667 1.6240001 5.6984643e-39
-0.0015466667 -0.10362667 1.6240001 5.7917347e-39
-0.035573334 -0.10053334 1.6240001 4.4098975e-39
-0.032480001 -0.10053334 1.6240001 9.2040688e-39
-0.029386668 -0.10053334 1.6240001 1.4465315e-38
-0.020106668 -0.10053334 1.6240001 1.151439e-38
-0.017013334 -0.10053334 1.6240001 7.2683362e-39
-0.013920001 -0.10053334 1.6240001 4.4102716e-39
-0.010826667 -0.10053334 1.6240001 5.5140758e-39
-0.035573334 -0.097440004 1.6240001 4.5939272e-39
-0.032480001 -0.097440004 1.6240001 8.8349234e-39
0.0046628574 -0.097920001 1.6320001 5.515152e-39
-0.054400001 -0.094811432 1.6320001 5.7917347e-39
0.0046628574 -0.094811432 1.6320001 5.4229578e-39
-0.057508573 -0.091702856 1.6320001 4.9663167e-39
-0.035573334 -0.091253333 1.6240001 6.9902653e-39
-0.032480001 -0.091253333 1.6240001 8.557591e-39
0.0046828575 -0.092096195 1.6390001 5.6984643e-39
-0.057508573 -0.088594288 1.6320001 4.9648747e-39
-0.035573334 -0.088160001 1.6240001 7.2704479e-39
-0.032480001 -0.088160001 1.6240001 7.9158173e-39
0.0078047626 -0.08897429 1.6390001 5.0549124e-39
-0.032480001 -0.081973337 1.6240001 5.6995559e-39
-0.032480001 -0.078880005 1.6240001 5.6070099e-39
-0.032480001 -0.075786673 1.6240001 7.3590898e-39
0.0015466667 -0.075786673 1.6240001 6.7122421e-39
-0.035573334 -0.072693333 1.6240001 6.5300396e-39
-0.026422858 -0.07305143 1.6320001 1.0038508e-38
-0.023314286 -0.07305143 1.6320001 9.2148714e-39
-0.026422858 -0.069942862 1.6320001 1.252238e-38
-0.023314286 -0.069942862 1.6320001 1.0776047e-38
-0.017097143 -0.069942862 1.6320001 8.9307161e-39
-0.013988572 -0.069942862 1.6320001 8.5619336e-39
-0.060877144 -0.067120954 1.6390001 4.6886382e-39
-0.026422858 -0.066834286 1.6320001 1.2516982e-38
-0.023414286 -0.067120954 1.6390001 1.1233436e-38
-0.020292383 -0.067120954 1.6390001 1.0495871e-38
-0.013988572 -0.066834286 1.6320001 9.7557951e-39
-0.060877144 -0.063999049 1.6390001 8.0004515e-39
-0.023414286 -0.063999049 1.6390001 1.1500675e-38
-0.020292383 -0.063999049 1.6390001 1.1408479e-38
-0.017170478 -0.063999049 1.6390001 1.1039703e-38
-0.060877144 -0.060877144 1.6390001 9.9272145e-39
-0.023414286 -0.060877144 1.6390001 1.232539e-38
-0.020292383 -0.060877144 1.6390001 1.2417585e-38
-0.017170478 -0.060877144 1.6390001 1.2324315e-38
-0.023414286 -0.057755239 1.6390001 1.2233194e-38
-0.020292383 -0.057755239 1.6390001 1.2140998e-38
-0.017170478 -0.057755239 1.6390001 1.2138485e-38
-0.054633334 -0.054633334 1.6390001 1.1223009e-38
-0.023414286 -0.054633334 1.6390001 1.241795e-38
-0.020292383 -0.054633334 1.6390001 1.2233558e-38
-0.017170478 -0.054633334 1.6390001 1.2416859e-38
-0.054633334 -0.051511429 1.6390001 9.1136528e-39
-0.023414286 -0.051511429 1.6390001 1.2326109e-38
-0.020292383 -0.051511429 1.6390001 1.2233913e-38
-0.017170478 -0.051511429 1.6390001 1.2507987e-38
-0.054633334 -0.048389524 1.6390001 6.3593152e-39
-0.023414286 -0.048389524 1.6390001 1.232576e-38
-0.020292383 -0.048389524 1.6390001 1.232576e-38
-0.017170478 -0.048389524 1.6390001 1.2692741e-38
-0.054633334 -0.045267619 1.6390001 7.7433021e-39
-0.023414286 -0.045267619 1.6390001 1.2232492e-38
-0.020292383 -0.045267619 1.6390001 1.1679318e-38
-0.017170478 -0.045267619 1.6390001 1.1396971e-38
-0.054633334 -0.042145714 1.6390001 8.6627542e-39
-0.051511429 -0.042145714 1.6390001 8.478363e-39
-0.023414286 -0.042145714 1.6390001 1.1863281e-38
-0.020292383 -0.042145714 1.6390001 1.1586698e-38
-0.017170478 -0.042145714 1.6390001 1.0756232e-38
-0.054633334 -0.039023813 1.6390001 8.0162792e-39
-0.051511429 -0.039023813 1.6390001 7.8318879e-39
-0.023414286 -0.039023813 1.6390001 1.0939915e-38
-0.020292383 -0.039023813 1.6390001 1.6656044e-38
-0.017170478 -0.039023813 1.6390001 1.6769046e-38
-0.054900002 -0.036077142 1.6470001 5.978993e-39
-0.023414286 -0.035901908 1.6390001 1.3902431e-38
-0.020292383 -0.035901908 1.6390001 1.5746343e-38
-0.017170478 -0.035901908 1.6390001 1.750491e-38
-0.023414286 -0.032780003 1.6390001 1.9076577e-38
-0.020292383 -0.032780003 1.6390001 1.9814142e-38
-0.017170478 -0.032780003 1.6390001 1.8710668e-38
-0.023414286 -0.029658096 1.6390001 1.7883428e-38
-0.020292383 -0.029658096 1.6390001 1.8436602e-38
-0.020391429 -0.026665714 1.6470001 1.8805372e-38
-0.055166669 -0.023642858 1.6550001 1.4747335e-38
-0.055166669 -0.020490477 1.6550001 1.4561463e-38
-0.017254286 -0.01098 1.6470001 1.2325017e-38
-0.017254286 -0.0078428574 1.6470001 1.20502e-38
-0.017254286 -0.0047057141 1.6470001 1.2696661e-38
-0.017254286 -0.0015685714 1.6470001 1.0676286e-38
-0.017254286 0.0015685714 1.6470001 9.8526108e-39
-0.017254286 0.0047057141 1.6470001 1.1606851e-38
-0.017254286 0.0078428574 1.6470001 1.1880567e-38
-0.017254286 0.01098 1.6470001 1.2246808e-38
-0.017338097 0.014185715 1.6550001 1.2147463e-38
-0.017338097 0.017338097 1.6550001 1.1776186e-38
-0.026924763 0.020589525 1.6630001 1.2779884e-38
-0.017338097 0.020490477 1.6550001 1.1130437e-38
-0.026924763 0.033260003 1.6630001 1.2140662e-38
0.020292383 0.039023813 1.6390001 6.1594368e-39
-0.061174288 0.042351428 1.6470001 6.4371027e-39
0.013988572 0.041965716 1.6320001 6.8037525e-39
