# .PCD v0.7 - Point Cloud Data file format
VERSION 0.7
FIELDS x y z rgb
SIZE 4 4 4 4
TYPE F F F F
COUNT 1 1 1 1
WIDTH 504
HEIGHT 1
VIEWPOINT 0 0 0 1 0 0 0
POINTS 504
DATA ascii
-0.046584763 -0.054139048 1.322 1.0017632e-38
-0.05185524 -0.05185524 1.3280001 7.1667798e-39
-0.046584763 -0.051620953 1.322 7.6255818e-39
-0.054384764 -0.049325716 1.3280001 5.698837e-39
-0.05185524 -0.049325716 1.3280001 5.5144458e-39
-0.049325716 -0.049325716 1.3280001 5.6977552e-39
-0.046584763 -0.049102858 1.322 5.6977552e-39
-0.056914289 -0.046796191 1.3280001 4.8766392e-39
-0.054384764 -0.046796191 1.3280001 6.0683384e-39
-0.05185524 -0.046796191 1.3280001 5.9761428e-39
-0.049325716 -0.046796191 1.3280001 6.159455e-39
-0.046584763 -0.046584763 1.322 6.2516507e-39
-0.044066668 -0.046584763 1.322 6.6186381e-39
-0.028958095 -0.046584763 1.322 1.6031593e-38
-0.026560001 -0.046796191 1.3280001 1.925844e-38
-0.056914289 -0.044266671 1.3280001 5.0610304e-39
-0.054384764 -0.044266671 1.3280001 6.344547e-39
-0.05185524 -0.044266671 1.3280001 6.1601557e-39
-0.049325716 -0.044266671 1.3280001 6.5274991e-39
-0.046584763 -0.044066668 1.322 6.7118903e-39
-0.044066668 -0.044066668 1.322 6.7118903e-39
-0.056914289 -0.041737143 1.3280001 5.2436196e-39
-0.054384764 -0.041737143 1.3280001 6.344547e-39
-0.05185524 -0.041737143 1.3280001 6.1601557e-39
-0.049325716 -0.041737143 1.3280001 6.5274991e-39
-0.046584763 -0.041548569 1.322 6.5274991e-39
-0.044066668 -0.041548569 1.322 6.8937677e-39
-0.054384764 -0.039207622 1.3280001 6.5278536e-39
-0.05185524 -0.039207622 1.3280001 6.6200478e-39
-0.046584763 -0.039030477 1.322 6.8937677e-39
-0.044066668 -0.039030477 1.322 7.0777918e-39
-0.046584763 -0.036512382 1.322 6.8941194e-39
-0.028629525 -0.036098097 1.307 1.5017426e-38
-0.024030479 -0.036678094 1.3280001 1.6678386e-38
-0.021581905 -0.034277145 1.3330001 6.6283814e-39
-0.013912382 -0.034148574 1.3280001 7.4437073e-39
-0.044266671 -0.03161905 1.3280001 7.0774429e-39
-0.041737143 -0.03161905 1.3280001 6.8930516e-39
-0.039207622 -0.03161905 1.3280001 6.2473249e-39
-0.044266671 -0.029089525 1.3280001 7.260395e-39
-0.041737143 -0.029089525 1.3280001 7.0760037e-39
-0.039207622 -0.029089525 1.3280001 6.7990553e-39
-0.044266671 -0.026560001 1.3280001 7.4447863e-39
-0.041737143 -0.026560001 1.3280001 7.5369819e-39
-0.039207622 -0.026560001 1.3280001 7.1710608e-39
-0.044266671 -0.024030479 1.3280001 7.5376853e-39
-0.041737143 -0.024030479 1.3280001 7.814268e-39
-0.039355241 -0.024120953 1.3330001 8.3699894e-39
-0.036816191 -0.024120953 1.3330001 1.1596836e-38
-0.044266671 -0.021500953 1.3280001 8.091578e-39
-0.041737143 -0.021500953 1.3280001 1.0857447e-38
-0.039207622 -0.021500953 1.3280001 1.0679577e-38
-0.029089525 -0.021500953 1.3280001 1.1327114e-38
-0.044266671 -0.01897143 1.3280001 8.3696026e-39
-0.041737143 -0.01897143 1.3280001 1.0674493e-38
-0.039207622 -0.01897143 1.3280001 1.0219322e-38
-0.036678094 -0.01897143 1.3280001 1.0956887e-38
-0.029089525 -0.01897143 1.3280001 1.0402274e-38
-0.026660001 -0.019042857 1.3330001 1.0586666e-38
-0.046796191 -0.016441904 1.3280001 8.0944548e-39
-0.044266671 -0.016441904 1.3280001 7.9086357e-39
-0.041737143 -0.016441904 1.3280001 7.7242444e-39
-0.039207622 -0.016441904 1.3280001 7.7228151e-39
-0.036678094 -0.016441904 1.3280001 7.7228151e-39
-0.029089525 -0.016441904 1.3280001 7.1696385e-39
-0.026660001 -0.016503809 1.3330001 7.1696385e-39
-0.046796191 -0.013912382 1.3280001 8.0026292e-39
-0.044266671 -0.013912382 1.3280001 8.0923207e-39
-0.041737143 -0.013912382 1.3280001 8.000125e-39
-0.039207622 -0.013912382 1.3280001 7.5395028e-39
-0.036678094 -0.013912382 1.3280001 7.2629159e-39
-0.013912382 -0.013912382 1.3280001 8.1877407e-39
-0.011425715 -0.013964763 1.3330001 8.0955451e-39
-0.0037942859 -0.013912382 1.3280001 8.4618122e-39
0.0012695239 -0.013964763 1.3330001 7.8153708e-39
-0.057814289 -0.011562858 1.3490001 8.1866561e-39
-0.054999046 -0.011511429 1.3430001 8.0026292e-39
-0.044266671 -0.011382857 1.3280001 7.9083078e-39
-0.041737143 -0.011382857 1.3280001 7.8161121e-39
-0.039207622 -0.011382857 1.3280001 7.4476855e-39
-0.036678094 -0.011382857 1.3280001 8.0008593e-39
-0.011425715 -0.011425715 1.3330001 7.3572555e-39
-0.060607623 -0.0090266671 1.3540001 7.9118685e-39
-0.057814289 -0.0089933341 1.3490001 8.0040641e-39
-0.055244766 -0.0089933341 1.3490001 7.9118825e-39
-0.042208571 -0.0089533329 1.3430001 7.6345977e-39
-0.039650477 -0.0089533329 1.3430001 7.4483834e-39
-0.052675243 -0.00642381 1.3490001 7.8182701e-39
-0.050105717 -0.00642381 1.3490001 7.6356893e-39
-0.044766668 -0.006395238 1.3430001 8.5608672e-39
-0.042208571 -0.006395238 1.3430001 9.3906279e-39
-0.039650477 -0.006395238 1.3430001 9.5775177e-39
-0.037092384 -0.006395238 1.3430001 1.4279495e-38
-0.052870478 -0.0038685717 1.3540001 7.3597807e-39
-0.050105717 -0.0038542862 1.3490001 7.2668914e-39
-0.047536191 -0.0038542862 1.3490001 7.4512827e-39
-0.044766668 -0.0038371431 1.3430001 7.4552357e-39
-0.042208571 -0.0038371431 1.3430001 8.4693877e-39
-0.039650477 -0.0038371431 1.3430001 9.1161766e-39
-0.037092384 -0.0038371431 1.3430001 1.3725958e-38
-0.047536191 -0.0012847619 1.3490001 1.1040413e-38
-0.044766668 -0.0012790477 1.3430001 1.1777967e-38
-0.042208571 -0.0012790477 1.3430001 1.2146749e-38
-0.039650477 -0.0012790477 1.3430001 1.1961656e-38
-0.037092384 -0.0012790477 1.3430001 1.2883612e-38
-0.034534287 -0.0012790477 1.3430001 1.2885402e-38
-0.047536191 0.0012847619 1.3490001 1.3982041e-38
-0.042208571 0.0012790477 1.3430001 1.4257532e-38
-0.039650477 0.0012790477 1.3430001 1.4348666e-38
-0.037092384 0.0012790477 1.3430001 1.4625253e-38
-0.034534287 0.0012790477 1.3430001 1.4717078e-38
-0.052675243 0.0038542862 1.3490001 1.2322157e-38
-0.047324762 0.0038371431 1.3430001 1.3610385e-38
-0.044766668 0.0038371431 1.3430001 1.3886229e-38
-0.042208571 0.0038371431 1.3430001 1.3886229e-38
-0.039650477 0.0038371431 1.3430001 1.4161756e-38
-0.037092384 0.0038371431 1.3430001 1.4530539e-38
-0.034534287 0.0038371431 1.3430001 1.4715639e-38
-0.031976189 0.0038371431 1.3430001 1.490003e-38
-0.052675243 0.00642381 1.3490001 1.3330914e-38
-0.047324762 0.006395238 1.3430001 1.3976279e-38
-0.044766668 0.006395238 1.3430001 1.3794389e-38
-0.042208571 0.006395238 1.3430001 1.3886585e-38
-0.039650477 0.006395238 1.3430001 1.3978811e-38
-0.037092384 0.006395238 1.3430001 1.4347594e-38
-0.034534287 0.006395238 1.3430001 1.4806054e-38
-0.031976189 0.006395238 1.3430001 1.5174836e-38
-0.047324762 0.0089533329 1.3430001 1.3604629e-38
-0.044766668 0.0089533329 1.3430001 1.3421321e-38
-0.042208571 0.0089533329 1.3430001 1.38823e-38
-0.039650477 0.0089533329 1.3430001 1.4068138e-38
-0.037092384 0.0089533329 1.3430001 1.425253e-38
-0.034534287 0.0089533329 1.3430001 1.4529833e-38
-0.031976189 0.0089533329 1.3430001 1.5175202e-38
-0.029418096 0.0089533329 1.3430001 1.4992226e-38
-0.047324762 0.011511429 1.3430001 1.4163193e-38
-0.044766668 0.011511429 1.3430001 1.425647e-38
-0.042208571 0.011511429 1.3430001 1.425647e-38
-0.039650477 0.011511429 1.3430001 1.4256088e-38
-0.037092384 0.011511429 1.3430001 1.4809261e-38
-0.034534287 0.011511429 1.3430001 1.4623477e-38
-0.031976189 0.011511429 1.3430001 1.4623477e-38
-0.029418096 0.011511429 1.3430001 1.5083369e-38
-0.047324762 0.014069525 1.3430001 1.3817061e-38
-0.044766668 0.014069525 1.3430001 1.3911392e-38
-0.042208571 0.014069525 1.3430001 1.4280174e-38
-0.039650477 0.014069525 1.3430001 1.3813433e-38
-0.037092384 0.014069525 1.3430001 1.4274411e-38
-0.034534287 0.014069525 1.3430001 1.4633171e-38
-0.031976189 0.014069525 1.3430001 1.3711215e-38
-0.029418096 0.014069525 1.3430001 1.4808577e-38
-0.047324762 0.016627621 1.3430001 9.3149956e-39
-0.044766668 0.016627621 1.3430001 9.7773807e-39
-0.042208571 0.016627621 1.3430001 9.5007938e-39
-0.039650477 0.016627621 1.3430001 8.6634675e-39
-0.037092384 0.016627621 1.3430001 1.0599576e-38
-0.034534287 0.016627621 1.3430001 1.3531866e-38
-0.031976189 0.016627621 1.3430001 1.3347474e-38
-0.029418096 0.016627621 1.3430001 1.4808224e-38
-0.026980001 0.016701905 1.3490001 1.4716029e-38
-0.073502868 0.019342858 1.3540001 6.0658063e-39
-0.044766668 0.019185714 1.3430001 9.9599993e-39
-0.042208571 0.019185714 1.3430001 9.6834124e-39
-0.039650477 0.019185714 1.3430001 9.2145183e-39
-0.037092384 0.019185714 1.3430001 1.0966235e-38
-0.034534287 0.019185714 1.3430001 1.3623333e-38
-0.031976189 0.019185714 1.3430001 1.3899919e-38
-0.029418096 0.019185714 1.3430001 1.4808224e-38
-0.076362863 0.022002857 1.3590001 6.4338839e-39
-0.073502868 0.021921907 1.3540001 5.9729058e-39
-0.044766668 0.02174381 1.3430001 8.9451439e-39
-0.042208571 0.02174381 1.3430001 8.668557e-39
-0.039650477 0.02174381 1.3430001 9.0301299e-39
-0.037092384 0.02174381 1.3430001 1.0136477e-38
-0.034534287 0.02174381 1.3430001 1.3070156e-38
-0.031976189 0.02174381 1.3430001 1.3438939e-38
-0.029418096 0.02174381 1.3430001 1.5085524e-38
-0.076362863 0.024591429 1.3590001 6.2509444e-39
-0.073502868 0.024500953 1.3540001 5.6977706e-39
-0.042208571 0.024301905 1.3430001 9.7742039e-39
-0.039650477 0.024301905 1.3430001 1.041167e-38
-0.037092384 0.024301905 1.3430001 1.0964844e-38
-0.034534287 0.024301905 1.3430001 1.2885061e-38
-0.031976189 0.024301905 1.3430001 1.3530431e-38
-0.029418096 0.024301905 1.3430001 1.4714937e-38
-0.026980001 0.024410479 1.3490001 1.360859e-38
-0.076362863 0.027180001 1.3590001 6.2509444e-39
-0.073502868 0.027080001 1.3540001 5.8821619e-39
-0.042397145 0.026980001 1.3490001 8.3001276e-39
-0.039827622 0.026980001 1.3490001 9.6751461e-39
-0.037092384 0.026860001 1.3430001 9.7673418e-39
-0.034534287 0.026860001 1.3430001 1.2422997e-38
-0.031976189 0.026860001 1.3430001 1.3160562e-38
-0.029418096 0.026860001 1.3430001 1.4531548e-38
-0.026980001 0.026980001 1.3490001 1.3425202e-38
-0.042397145 0.029549526 1.3490001 1.0865748e-38
-0.039827622 0.029549526 1.3490001 1.1230941e-38
-0.037258096 0.029549526 1.3490001 1.1784114e-38
-0.031976189 0.029418096 1.3430001 1.2142094e-38
-0.029418096 0.029418096 1.3430001 1.5278845e-38
-0.026980001 0.029549526 1.3490001 1.9151061e-38
-0.024410479 0.029549526 1.3490001 2.0456868e-38
0.0038542862 0.029549526 1.3490001 2.1389358e-38
-0.060383812 0.032119051 1.3490001 1.2042728e-38
-0.042397145 0.032119051 1.3490001 1.4263636e-38
-0.039827622 0.032119051 1.3490001 1.4357977e-38
-0.037258096 0.032119051 1.3490001 1.4542369e-38
-0.034688573 0.032119051 1.3490001 1.4264383e-38
-0.031976189 0.031976189 1.3430001 1.454097e-38
-0.029418096 0.031976189 1.3430001 1.851042e-38
-0.026980001 0.032119051 1.3490001 1.9340181e-38
-0.024410479 0.032119051 1.3490001 2.0458057e-38
-0.073774293 0.034945715 1.3590001 5.3289755e-39
-0.060383812 0.034688573 1.3490001 1.9443871e-38
-0.042397145 0.034688573 1.3490001 1.796694e-38
-0.039827622 0.034688573 1.3490001 2.0921093e-38
-0.037258096 0.034688573 1.3490001 2.1658658e-38
-0.034688573 0.034688573 1.3490001 2.1752038e-38
-0.026980001 0.034688573 1.3490001 2.2307745e-38
-0.024410479 0.034688573 1.3490001 2.1479064e-38
-0.021840954 0.034688573 1.3490001 2.1018085e-38
-0.073774293 0.037534289 1.3590001 5.5126409e-39
-0.060607623 0.037396193 1.3540001 2.0371985e-38
-0.057814289 0.037258096 1.3490001 1.9357833e-38
-0.039827622 0.037258096 1.3490001 2.0281591e-38
-0.037258096 0.037258096 1.3490001 2.1480134e-38
-0.034688573 0.037258096 1.3490001 2.1296828e-38
-0.026980001 0.037258096 1.3490001 2.102025e-38
-0.024410479 0.037258096 1.3490001 2.0559625e-38
-0.021840954 0.037258096 1.3490001 2.0283039e-38
-0.058028575 0.039975241 1.3540001 2.1292839e-38
-0.039827622 0.039827622 1.3490001 2.1202844e-38
-0.037258096 0.039827622 1.3490001 2.1202844e-38
-0.034688573 0.039827622 1.3490001 2.0927329e-38
-0.032119051 0.039827622 1.3490001 2.0742938e-38
-0.029549526 0.039827622 1.3490001 2.0651468e-38
-0.026980001 0.039827622 1.3490001 2.0467077e-38
-0.024410479 0.039827622 1.3490001 2.0466711e-38
-0.021840954 0.039827622 1.3490001 2.1019885e-38
-0.01927143 0.039827622 1.3490001 2.1296109e-38
-0.055244766 0.042397145 1.3490001 1.8528801e-38
-0.039827622 0.042397145 1.3490001 1.9913518e-38
-0.037258096 0.042397145 1.3490001 2.0835474e-38
-0.034688573 0.042397145 1.3490001 2.0743301e-38
-0.032119051 0.042397145 1.3490001 2.0651105e-38
-0.029549526 0.042397145 1.3490001 2.0467077e-38
-0.01927143 0.042397145 1.3490001 1.9820263e-38
-0.055244766 0.044966672 1.3490001 1.4284209e-38
-0.039827622 0.044966672 1.3490001 1.7698988e-38
-0.037258096 0.044966672 1.3490001 2.1018031e-38
-0.034688573 0.044966672 1.3490001 2.1019169e-38
-0.032119051 0.044966672 1.3490001 2.0742582e-38
-0.027080001 0.045133337 1.3540001 2.1387951e-38
-0.016701905 0.044966672 1.3490001 9.5578897e-39
-0.063186675 0.047712382 1.3540001 1.9352785e-38
-0.055244766 0.047536191 1.3490001 1.7142254e-38
-0.052675243 0.047536191 1.3490001 1.7695427e-38
-0.039827622 0.047536191 1.3490001 1.9078337e-38
-0.037258096 0.047536191 1.3490001 2.1475423e-38
-0.034688573 0.047536191 1.3490001 2.0465998e-38
-0.032119051 0.047536191 1.3490001 2.1019171e-38
-0.024500953 0.047712382 1.3540001 2.0737533e-38
-0.016701905 0.047536191 1.3490001 1.6180304e-38
-0.060607623 0.05029143 1.3540001 1.8892539e-38
-0.050105717 0.050105717 1.3490001 1.8894356e-38
-0.047536191 0.050105717 1.3490001 1.944753e-38
-0.039827622 0.050105717 1.3490001 1.9911004e-38
-0.037258096 0.050105717 1.3490001 2.0556373e-38
-0.034688573 0.050105717 1.3490001 2.0649673e-38
-0.032119051 0.050105717 1.3490001 2.175602e-38
-0.024500953 0.05029143 1.3540001 1.916618e-38
-0.021921907 0.05029143 1.3540001 8.2870955e-39
-0.014132381 0.050105717 1.3490001 1.5934658e-38
-0.011562858 0.050105717 1.3490001 1.3260985e-38
-0.047712382 0.052870478 1.3540001 1.8893257e-38
-0.044966672 0.052675243 1.3490001 1.8527719e-38
-0.037258096 0.052675243 1.3490001 1.9358912e-38
-0.034688573 0.052675243 1.3490001 2.064967e-38
-0.032119051 0.052675243 1.3490001 2.1756018e-38
-0.027080001 0.052870478 1.3540001 1.7699043e-38
-0.024500953 0.052870478 1.3540001 1.7776438e-38
-0.021921907 0.052870478 1.3540001 1.1046157e-38
-0.011562858 0.052675243 1.3490001 1.3083086e-38
-0.0090266671 0.052870478 1.3540001 1.1703412e-38
-0.058028575 0.055449527 1.3540001 1.6959255e-38
-0.047712382 0.055449527 1.3540001 1.7973794e-38
-0.044966672 0.055244766 1.3490001 1.7881608e-38
-0.042397145 0.055244766 1.3490001 1.742063e-38
-0.037258096 0.055244766 1.3490001 1.94493e-38
-0.032238096 0.055449527 1.3540001 2.2216273e-38
-0.02965905 0.055449527 1.3540001 2.2492497e-38
-0.027080001 0.055449527 1.3540001 1.7974911e-38
-0.024500953 0.055449527 1.3540001 1.6853426e-38
-0.021921907 0.055449527 1.3540001 1.1229493e-38
-0.019342858 0.055449527 1.3540001 1.4442242e-38
-0.01676381 0.055449527 1.3540001 1.4995415e-38
-0.058242857 0.058242857 1.3590001 1.7791586e-38
-0.045133337 0.058028575 1.3540001 1.8618475e-38
-0.042554289 0.058028575 1.3540001 1.8249693e-38
-0.039827622 0.057814289 1.3490001 1.8247192e-38
-0.032238096 0.058028575 1.3540001 2.1940039e-38
-0.02965905 0.058028575 1.3540001 2.2768368e-38
-0.027080001 0.058028575 1.3540001 1.8158586e-38
-0.024500953 0.058028575 1.3540001 1.7312968e-38
-0.021921907 0.058028575 1.3540001 1.1873426e-38
-0.019342858 0.058028575 1.3540001 1.5454251e-38
-0.01676381 0.058028575 1.3540001 1.5730838e-38
-0.014184763 0.058028575 1.3540001 1.35271e-38
-0.042554289 0.060607623 1.3540001 2.1939689e-38
-0.039827622 0.060383812 1.3490001 2.1014881e-38
-0.032238096 0.060607623 1.3540001 2.0278344e-38
-0.02965905 0.060607623 1.3540001 2.1198511e-38
-0.027080001 0.060607623 1.3540001 1.8801425e-38
-0.024500953 0.060607623 1.3540001 1.7683909e-38
-0.021921907 0.060607623 1.3540001 9.9394759e-39
-0.019342858 0.060607623 1.3540001 1.3517802e-38
-0.01676381 0.060607623 1.3540001 1.6007084e-38
-0.014184763 0.060607623 1.3540001 1.3620425e-38
-0.055449527 0.063186675 1.3540001 1.8437684e-38
-0.032238096 0.063186675 1.3540001 1.8708125e-38
-0.02965905 0.063186675 1.3540001 1.9629025e-38
-0.027080001 0.063186675 1.3540001 1.8522677e-38
-0.024500953 0.063186675 1.3540001 1.6213442e-38
-0.021921907 0.063186675 1.3540001 1.07739e-38
-0.019342858 0.063186675 1.3540001 1.2046638e-38
-0.01676381 0.063186675 1.3540001 1.2968594e-38
-0.014184763 0.063186675 1.3540001 1.316051e-38
-0.011605715 0.063186675 1.3540001 1.2976119e-38
-0.047888577 0.066008575 1.3590001 2.0281591e-38
-0.045133337 0.065765716 1.3540001 2.0370199e-38
-0.032238096 0.065765716 1.3540001 1.5186618e-38
-0.02965905 0.065765716 1.3540001 1.5564411e-38
-0.027080001 0.065765716 1.3540001 1.5748802e-38
-0.024500953 0.065765716 1.3540001 1.4832222e-38
-0.021921907 0.065765716 1.3540001 1.1420983e-38
-0.019342858 0.065765716 1.3540001 1.0766716e-38
-0.01676381 0.065765716 1.3540001 1.0397933e-38
-0.014184763 0.065765716 1.3540001 1.2145658e-38
-0.011605715 0.065765716 1.3540001 1.2698832e-38
-0.045300003 0.068597153 1.3590001 1.9999599e-38
-0.032238096 0.068344772 1.3540001 1.8860792e-38
-0.02965905 0.068344772 1.3540001 1.6852326e-38
-0.027080001 0.068344772 1.3540001 1.6299153e-38
-0.024500953 0.068344772 1.3540001 1.2992359e-38
-0.021921907 0.068344772 1.3540001 9.3045335e-39
-0.019342858 0.068344772 1.3540001 9.486324e-39
-0.01676381 0.068344772 1.3540001 1.0316085e-38
0.0064476193 0.068344772 1.3540001 7.4674088e-39
-0.045300003 0.071185715 1.3590001 1.8242782e-38
-0.042554289 0.070923813 1.3540001 7.2715059e-39
-0.032238096 0.070923813 1.3540001 1.9325042e-38
-0.02965905 0.070923813 1.3540001 1.8139149e-38
-0.027080001 0.070923813 1.3540001 1.8139149e-38
-0.024500953 0.070923813 1.3540001 1.6397158e-38
-0.021921907 0.070923813 1.3540001 1.3723485e-38
-0.019342858 0.070923813 1.3540001 1.2989054e-38
-0.016825715 0.071185715 1.3590001 1.455638e-38
-0.042554289 0.073502868 1.3540001 8.6486978e-39
-0.02965905 0.073502868 1.3540001 1.8137328e-38
-0.027080001 0.073502868 1.3540001 1.8690502e-38
-0.024500953 0.073502868 1.3540001 1.749953e-38
-0.021921907 0.073502868 1.3540001 1.4457074e-38
-0.019342858 0.073502868 1.3540001 1.3538281e-38
-0.016825715 0.073774293 1.3590001 1.4921215e-38
-0.014237144 0.073774293 1.3590001 1.6388485e-38
-0.011648572 0.073774293 1.3590001 1.334603e-38
0.0064476193 0.073502868 1.3540001 1.4735428e-38
0.0090600001 0.073774293 1.3590001 6.8987997e-39
-0.042554289 0.076081902 1.3540001 9.4777326e-39
-0.02965905 0.076081902 1.3540001 1.6380148e-38
-0.027080001 0.076081902 1.3540001 1.7209908e-38
-0.024500953 0.076081902 1.3540001 1.58317e-38
-0.021921907 0.076081902 1.3540001 1.5278527e-38
-0.016825715 0.076362863 1.3590001 1.279281e-38
-0.014237144 0.076362863 1.3590001 1.4079242e-38
-0.011648572 0.076362863 1.3590001 1.4263633e-38
-0.0090600001 0.076362863 1.3590001 1.535993e-38
0.0064476193 0.076081902 1.3540001 1.2610539e-38
-0.042554289 0.078660958 1.3540001 9.8472774e-39
-0.02965905 0.078660958 1.3540001 1.5271311e-38
-0.027080001 0.078660958 1.3540001 1.5363507e-38
-0.024500953 0.078660958 1.3540001 1.628512e-38
-0.016825715 0.078951433 1.3590001 1.0668344e-38
-0.014237144 0.078951433 1.3590001 1.2876036e-38
-0.011648572 0.078951433 1.3590001 1.4996535e-38
-0.0090600001 0.078951433 1.3590001 1.55454e-38
0.0064476193 0.078660958 1.3540001 1.1958746e-38
0.0090600001 0.078951433 1.3590001 8.6397113e-39
-0.042554289 0.081239998 1.3540001 1.0400451e-38
-0.02965905 0.081239998 1.3540001 1.4991527e-38
-0.024500953 0.081239998 1.3540001 1.4437245e-38
-0.016825715 0.081540003 1.3590001 1.1490961e-38
-0.014237144 0.081540003 1.3590001 1.3062255e-38
-0.011648572 0.081540003 1.3590001 1.4260799e-38
-0.0090600001 0.081540003 1.3590001 1.5083706e-38
-0.006471429 0.081540003 1.3590001 1.5175901e-38
-0.042554289 0.083819054 1.3540001 1.0309347e-38
-0.024591429 0.084128574 1.3590001 1.4253935e-38
-0.022002857 0.084128574 1.3590001 1.3977348e-38
-0.019414287 0.084128574 1.3590001 1.1953323e-38
-0.016825715 0.084128574 1.3590001 1.4626993e-38
-0.014237144 0.084128574 1.3590001 1.5003774e-38
-0.011648572 0.084128574 1.3590001 1.4819383e-38
-0.0090600001 0.084128574 1.3590001 1.462452e-38
-0.006471429 0.084128574 1.3590001 1.4808911e-38
0.022359049 0.085490473 1.381 6.7108071e-39
-0.045300003 0.086717151 1.3590001 1.8883162e-38
-0.042554289 0.086398095 1.3540001 1.0769947e-38
-0.024591429 0.086717151 1.3590001 1.3887325e-38
-0.022002857 0.086717151 1.3590001 1.3057564e-38
-0.019414287 0.086717151 1.3590001 1.3337364e-38
-0.016825715 0.086717151 1.3590001 1.8684711e-38
-0.014237144 0.086717151 1.3590001 1.6570394e-38
-0.011648572 0.086717151 1.3590001 1.5648437e-38
-0.0090600001 0.086717151 1.3590001 1.4994737e-38
0.024899049 0.087801903 1.376 1.2704253e-38
-0.045300003 0.089305714 1.3590001 1.8422537e-38
-0.042554289 0.088977151 1.3540001 1.2614213e-38
-0.024591429 0.089305714 1.3590001 1.4907966e-38
-0.022002857 0.089305714 1.3590001 1.4262597e-38
-0.019414287 0.089305714 1.3590001 1.4815378e-38
-0.016825715 0.089305714 1.3590001 1.7396856e-38
-0.014237144 0.089305714 1.3590001 1.6383842e-38
-0.0117 0.089699998 1.365 1.5461885e-38
-0.0091000004 0.089699998 1.365 1.5180558e-38
0.0064999997 0.089699998 1.365 1.0486146e-38
-0.053300001 0.092299998 1.365 1.4618036e-38
-0.047888577 0.091894291 1.3590001 1.4906867e-38
-0.045300003 0.091894291 1.3590001 1.5185237e-38
-0.042554289 0.091556191 1.3540001 1.5369628e-38
-0.0195 0.092299998 1.365 1.5645531e-38
-0.016825715 0.091894291 1.3590001 1.6567487e-38
-0.0117 0.092299998 1.365 1.5828866e-38
-0.0091000004 0.092299998 1.365 1.5921697e-38
-0.0064999997 0.092299998 1.365 1.7212436e-38
0.0064999997 0.092299998 1.365 9.5695625e-39
-0.047888577 0.094482861 1.3590001 1.4067749e-38
-0.045300003 0.094482861 1.3590001 1.4346466e-38
-0.042554289 0.094135247 1.3540001 1.5452813e-38
-0.024699999 0.094900005 1.365 1.6108308e-38
-0.0195 0.094900005 1.365 1.5460418e-38
-0.016900001 0.094900005 1.365 1.6382374e-38
-0.0143 0.094900005 1.365 1.6384182e-38
-0.0117 0.094900005 1.365 1.5923204e-38
-0.0091000004 0.094900005 1.365 1.5275287e-38
-0.0064999997 0.094900005 1.365 1.5828461e-38
-0.022180954 0.097857147 1.3700001 1.3710097e-38
-0.0195 0.097499996 1.365 1.269134e-38
-0.016900001 0.097499996 1.365 1.2414753e-38
-0.0143 0.097499996 1.365 1.2693826e-38
-0.0117 0.097499996 1.365 1.3339196e-38
-0.0091000004 0.097499996 1.365 1.3063344e-38
-0.0064999997 0.097499996 1.365 1.3432127e-38
-0.0039000001 0.097499996 1.365 1.3256711e-38
0.016900001 0.097499996 1.365 7.7210074e-39
-0.022180954 0.10046668 1.3700001 1.3065855e-38
-0.0195 0.1001 1.365 1.1499659e-38
-0.016900001 0.1001 1.365 1.1315268e-38
-0.0143 0.1001 1.365 1.0576977e-38
-0.0117 0.1001 1.365 1.177552e-38
-0.0091000004 0.1001 1.365 1.0769272e-38
-0.0064999997 0.1001 1.365 1.1783423e-38
-0.0039000001 0.1001 1.365 1.280227e-38
-0.016900001 0.1027 1.365 1.5107874e-38
-0.0143 0.1027 1.365 1.3446179e-38
-0.0117 0.1027 1.365 1.1786658e-38
-0.0091000004 0.1027 1.365 1.2708614e-38
-0.0039000001 0.1053 1.365 6.9971821e-39
-0.022180954 0.10829525 1.3700001 4.8673079e-39
-0.0195 0.10789999 1.365 3.6748548e-39
-0.0039000001 0.10789999 1.365 6.9895422e-39
-0.0013 0.10789999 1.365 9.0178363e-39
0.0012942858 0.10742572 1.3590001 1.1973162e-38
0.0038828573 0.10742572 1.3590001 1.3263901e-38
0.0143 0.10789999 1.365 8.6454944e-39
-0.045300003 0.11001429 1.3590001 6.0629378e-39
-0.042554289 0.10960954 1.3540001 5.9707422e-39
-0.034688573 0.10920477 1.3490001 3.2149879e-39
-0.0064999997 0.1105 1.365 7.3498385e-39
-0.0012942858 0.11001429 1.3590001 1.3626242e-38
0.0012942858 0.11001429 1.3590001 1.4645063e-38
0.0038828573 0.11001429 1.3590001 1.3907498e-38
0.006471429 0.11001429 1.3590001 1.3352882e-38
0.014352382 0.11090478 1.3700001 8.8295088e-39
0.016961906 0.11090478 1.3700001 8.0941382e-39
-0.0012942858 0.11260287 1.3590001 1.3173207e-38
0.0012942858 0.11260287 1.3590001 1.187812e-38
0.0038828573 0.11260287 1.3590001 8.4668821e-39
0.006471429 0.11260287 1.3590001 8.4610696e-39
0.0143 0.1131 1.365 8.7383963e-39
-0.016961906 0.11612382 1.3700001 1.8524487e-38
-0.0012942858 0.11519143 1.3590001 9.2131114e-39
0.0012942858 0.11519143 1.3590001 8.4657975e-39
0.0038828573 0.11519143 1.3590001 6.7140806e-39
0.006471429 0.11519143 1.3590001 7.8157072e-39
-0.019571429 0.11873335 1.3700001 1.0215003e-38
-0.0012942858 0.11778001 1.3590001 7.73181e-39
0.0012942858 0.11778001 1.3590001 7.8161121e-39
0.0038828573 0.11778001 1.3590001 7.8161121e-39
0.006471429 0.11778001 1.3590001 8.0001124e-39
0.0091000004 0.11830001 1.365 7.8157212e-39
0.0012942858 0.12036858 1.3590001 8.0930269e-39
0.0038828573 0.12036858 1.3590001 7.9086357e-39
0.006471429 0.12036858 1.3590001 7.8160757e-39
