# .PCD v0.7 - Point Cloud Data file format
VERSION 0.7
FIELDS x y z rgb
SIZE 4 4 4 4
TYPE F F F F
COUNT 1 1 1 1
WIDTH 279
HEIGHT 1
VIEWPOINT 0 0 0 1 0 0 0
POINTS 279
DATA ascii
-0.02994762 -0.19071905 1.6550001 1.2626801e-38
-0.02679524 -0.19071905 1.6550001 1.2534605e-38
-0.033100002 -0.18756667 1.6550001 1.4929193e-38
-0.02994762 -0.18756667 1.6550001 1.5021744e-38
-0.02679524 -0.18756667 1.6550001 1.5021744e-38
-0.033100002 -0.1844143 1.6550001 1.8342249e-38
-0.02994762 -0.1844143 1.6550001 1.8251125e-38
-0.02679524 -0.1844143 1.6550001 1.8619907e-38
-0.023642858 -0.1844143 1.6550001 1.8251488e-38
-0.033100002 -0.18126191 1.6550001 1.7514652e-38
-0.02994762 -0.18126191 1.6550001 1.7791586e-38
-0.02679524 -0.18126191 1.6550001 1.8068173e-38
-0.023642858 -0.18126191 1.6550001 1.7884154e-38
-0.052014288 -0.17810954 1.6550001 1.4288508e-38
-0.03294 -0.17724858 1.6470001 1.7053673e-38
-0.029802859 -0.17724858 1.6470001 1.6962551e-38
-0.026665714 -0.17724858 1.6470001 1.7884507e-38
-0.023642858 -0.17810954 1.6550001 1.7423895e-38
-0.0078809531 -0.17810954 1.6550001 1.52112e-38
-0.039214287 -0.17411143 1.6470001 1.65005e-38
-0.036077142 -0.17411143 1.6470001 1.6224633e-38
-0.03294 -0.17411143 1.6470001 1.6870002e-38
-0.029802859 -0.17411143 1.6470001 1.6687046e-38
-0.026665714 -0.17411143 1.6470001 1.7055829e-38
-0.0078809531 -0.17495716 1.6550001 1.5210844e-38
-0.039214287 -0.1709743 1.6470001 1.7052238e-38
-0.036077142 -0.1709743 1.6470001 1.6961475e-38
-0.03294 -0.1709743 1.6470001 1.7330257e-38
-0.029802859 -0.1709743 1.6470001 1.7515002e-38
-0.026665714 -0.1709743 1.6470001 1.7515002e-38
-0.023528572 -0.1709743 1.6470001 1.7331699e-38
-0.020391429 -0.1709743 1.6470001 1.7147308e-38
-0.039214287 -0.16783714 1.6470001 1.6501223e-38
-0.036077142 -0.16783714 1.6470001 1.6960396e-38
-0.03294 -0.16783714 1.6470001 1.7421374e-38
-0.029802859 -0.16783714 1.6470001 1.7239141e-38
-0.026665714 -0.16783714 1.6470001 1.7515728e-38
-0.023528572 -0.16783714 1.6470001 1.7700482e-38
-0.020391429 -0.16783714 1.6470001 1.7331699e-38
-0.039214287 -0.16470002 1.6470001 1.3639924e-38
-0.036077142 -0.16470002 1.6470001 1.3733902e-38
-0.03294 -0.16470002 1.6470001 1.419488e-38
-0.029802859 -0.16470002 1.6470001 1.3919742e-38
-0.026665714 -0.16470002 1.6470001 1.4011938e-38
-0.023642858 -0.1655 1.6550001 1.3460212e-38
-0.039214287 -0.16156286 1.6470001 1.1336825e-38
-0.036077142 -0.16156286 1.6470001 1.0508837e-38
-0.03294 -0.16156286 1.6470001 1.0969816e-38
-0.029802859 -0.16156286 1.6470001 1.1245343e-38
-0.026665714 -0.16156286 1.6470001 1.1153147e-38
-0.036077142 -0.15842572 1.6470001 4.7829792e-39
-0.03294 -0.15842572 1.6470001 6.9956659e-39
-0.029802859 -0.15842572 1.6470001 7.1818858e-39
-0.026665714 -0.15842572 1.6470001 7.0896902e-39
-0.036252383 -0.15604287 1.6550001 6.0632951e-39
-0.033100002 -0.15604287 1.6550001 8.1837876e-39
-0.036252383 -0.15289047 1.6550001 8.6390485e-39
-0.033100002 -0.15289047 1.6550001 1.0851744e-38
-0.02994762 -0.15289047 1.6550001 1.0122413e-38
-0.036252383 -0.1497381 1.6550001 1.1038255e-38
-0.033100002 -0.1497381 1.6550001 1.2513385e-38
0.0015761906 -0.1497381 1.6550001 7.8268797e-39
-0.036252383 -0.14658572 1.6550001 9.3898894e-39
-0.033100002 -0.14658572 1.6550001 1.1233802e-38
-0.036252383 -0.14343335 1.6550001 6.6387636e-39
-0.033100002 -0.14343335 1.6550001 8.021698e-39
-0.039404765 -0.14028096 1.6550001 1.0313275e-38
-0.036252383 -0.14028096 1.6550001 8.3886785e-39
-0.033100002 -0.14028096 1.6550001 8.757461e-39
-0.02994762 -0.14028096 1.6550001 8.8486099e-39
-0.039404765 -0.13712858 1.6550001 1.021927e-38
-0.036252383 -0.13712858 1.6550001 8.020612e-39
-0.033100002 -0.13712858 1.6550001 7.9284164e-39
-0.02994762 -0.13712858 1.6550001 8.1121042e-39
-0.02679524 -0.13712858 1.6550001 8.2042998e-39
-0.039404765 -0.13397619 1.6550001 1.0948206e-38
-0.036252383 -0.13397619 1.6550001 1.0682362e-38
-0.033100002 -0.13397619 1.6550001 1.0774557e-38
-0.02994762 -0.13397619 1.6550001 1.0866072e-38
-0.02679524 -0.13397619 1.6550001 1.1050463e-38
-0.039404765 -0.13082381 1.6550001 1.0942822e-38
-0.036252383 -0.13082381 1.6550001 1.0943491e-38
-0.033100002 -0.13082381 1.6550001 1.1404462e-38
-0.02994762 -0.13082381 1.6550001 1.2788163e-38
-0.02679524 -0.13082381 1.6550001 1.306475e-38
-0.049098097 -0.12828857 1.6630001 7.3522207e-39
-0.039404765 -0.12767144 1.6550001 7.1660414e-39
-0.036252383 -0.12767144 1.6550001 6.6146669e-39
-0.033100002 -0.12767144 1.6550001 8.3663768e-39
-0.02994762 -0.12767144 1.6550001 9.3844944e-39
-0.02679524 -0.12767144 1.6550001 9.2922988e-39
-0.039404765 -0.12451906 1.6550001 4.5942859e-39
-0.036252383 -0.12451906 1.6550001 2.6643056e-39
-0.033100002 -0.12451906 1.6550001 7.4584727e-39
-0.02994762 -0.12451906 1.6550001 8.2911677e-39
-0.02679524 -0.12451906 1.6550001 8.1989721e-39
-0.0015685714 -0.12391715 1.6470001 5.0552627e-39
0.0047285715 -0.12451906 1.6550001 4.6018249e-39
-0.039404765 -0.12136667 1.6550001 4.6879151e-39
-0.036252383 -0.12136667 1.6550001 3.6748548e-39
-0.033100002 -0.12136667 1.6550001 9.4831739e-39
-0.02994762 -0.12136667 1.6550001 1.3267914e-38
-0.02679524 -0.12136667 1.6550001 1.5757196e-38
-0.039404765 -0.11821429 1.6550001 4.8708714e-39
-0.036252383 -0.11821429 1.6550001 3.7666903e-39
-0.033100002 -0.11821429 1.6550001 7.0857273e-39
-0.02994762 -0.11821429 1.6550001 1.2806205e-38
-0.02679524 -0.11821429 1.6550001 1.6033052e-38
-0.039404765 -0.11506192 1.6550001 5.1463751e-39
-0.036252383 -0.11506192 1.6550001 3.5826605e-39
-0.033100002 -0.11506192 1.6550001 5.7953515e-39
-0.02994762 -0.11506192 1.6550001 1.3823442e-38
-0.02679524 -0.11506192 1.6550001 1.5943942e-38
-0.042557143 -0.11190952 1.6550001 5.8828527e-39
-0.039404765 -0.11190952 1.6550001 5.2374931e-39
-0.036252383 -0.11190952 1.6550001 4.0421968e-39
-0.033100002 -0.11190952 1.6550001 8.0066046e-39
-0.02994762 -0.11190952 1.6550001 1.4927032e-38
-0.02679524 -0.11190952 1.6550001 1.5941184e-38
-0.046151433 -0.10980858 1.6710001 5.698837e-39
-0.036427621 -0.10928287 1.6630001 4.0421968e-39
-0.033260003 -0.10928287 1.6630001 9.2973435e-39
-0.030092383 -0.10928287 1.6630001 1.5295454e-38
-0.049334288 -0.10662572 1.6710001 5.6995405e-39
-0.036427621 -0.10611524 1.6630001 4.5939272e-39
-0.033260003 -0.10611524 1.6630001 8.927119e-39
-0.030092383 -0.10611524 1.6630001 1.1788453e-38
-0.049334288 -0.10344286 1.6710001 5.975047e-39
-0.030092383 -0.10294763 1.6630001 9.5746044e-39
-0.049334288 -0.10026001 1.6710001 6.1594368e-39
-0.026924763 -0.099780001 1.6630001 7.1775474e-39
-0.049098097 -0.096612386 1.6630001 6.1594368e-39
-0.039404765 -0.096147619 1.6550001 7.816831e-39
-0.036252383 -0.096147619 1.6550001 7.1775334e-39
-0.055166669 -0.092995241 1.6550001 5.8832115e-39
-0.030237146 -0.093894288 1.6710001 7.3637408e-39
-0.061768573 -0.09027715 1.6630001 5.3314992e-39
-0.058600958 -0.09027715 1.6630001 5.6080861e-39
-0.042557143 -0.089842863 1.6550001 6.344547e-39
-0.039404765 -0.089842863 1.6550001 6.344547e-39
-0.058600958 -0.087109528 1.6630001 5.7928277e-39
-0.042557143 -0.086690478 1.6550001 6.2527297e-39
-0.039404765 -0.086690478 1.6550001 6.0683384e-39
-0.042557143 -0.0835381 1.6550001 5.8853863e-39
-0.039404765 -0.0835381 1.6550001 5.8853863e-39
0.014254287 -0.083941914 1.6630001 3.7666903e-39
-0.039595243 -0.080774285 1.6630001 5.8850234e-39
-0.036427621 -0.080774285 1.6630001 6.0697775e-39
-0.023757145 -0.080774285 1.6630001 8.2028873e-39
-0.039595243 -0.077606671 1.6630001 8.2788489e-39
-0.036427621 -0.077606671 1.6630001 8.0941185e-39
-0.033260003 -0.077606671 1.6630001 8.4629011e-39
-0.030092383 -0.077606671 1.6630001 8.4661381e-39
-0.023757145 -0.077606671 1.6630001 1.0593804e-38
-0.042762857 -0.074439049 1.6630001 8.4596402e-39
-0.039595243 -0.074439049 1.6630001 9.012814e-39
-0.036427621 -0.074439049 1.6630001 9.0135399e-39
-0.033260003 -0.074439049 1.6630001 9.2901268e-39
-0.030092383 -0.074439049 1.6630001 9.6592736e-39
-0.026924763 -0.074439049 1.6630001 1.2517338e-38
-0.042762857 -0.071271434 1.6630001 1.0021218e-38
-0.039595243 -0.071271434 1.6630001 1.039e-38
-0.036427621 -0.071271434 1.6630001 1.0574037e-38
-0.033260003 -0.071271434 1.6630001 1.1035015e-38
-0.030092383 -0.071271434 1.6630001 1.075916e-38
-0.026924763 -0.071271434 1.6630001 1.158892e-38
-0.042762857 -0.068103813 1.6630001 1.0847013e-38
-0.039595243 -0.068103813 1.6630001 1.0939208e-38
-0.036427621 -0.068103813 1.6630001 1.1490964e-38
-0.030092383 -0.068103813 1.6630001 1.1588192e-38
-0.026924763 -0.068103813 1.6630001 1.1680387e-38
-0.058882859 -0.065248571 1.6710001 9.4669594e-39
-0.036602858 -0.065248571 1.6710001 1.0938872e-38
-0.030092383 -0.064936198 1.6630001 1.1494917e-38
-0.026924763 -0.064936198 1.6630001 1.18637e-38
-0.036602858 -0.062065721 1.6710001 1.1311581e-38
-0.033420004 -0.062065721 1.6710001 1.1219385e-38
-0.026924763 -0.061768573 1.6630001 1.1863333e-38
-0.062400002 -0.059200004 1.6800001 9.2022247e-39
-0.039785717 -0.058882859 1.6710001 1.059024e-38
-0.036602858 -0.058882859 1.6710001 1.0214258e-38
-0.033420004 -0.058882859 1.6710001 1.058304e-38
-0.039785717 -0.055700004 1.6710001 7.006149e-39
-0.036602858 -0.055700004 1.6710001 6.6279862e-39
-0.033420004 -0.055700004 1.6710001 7.7343338e-39
-0.039785717 -0.052517146 1.6710001 5.9022775e-39
-0.036602858 -0.052517146 1.6710001 6.8141795e-39
-0.033420004 -0.052517146 1.6710001 7.2751577e-39
-0.049098097 -0.049098097 1.6630001 7.6514988e-39
-0.039785717 -0.049334288 1.6710001 5.7193506e-39
-0.036602858 -0.049334288 1.6710001 6.8156243e-39
-0.033420004 -0.049334288 1.6710001 7.0000155e-39
-0.039785717 -0.046151433 1.6710001 6.72879e-39
-0.036602858 -0.046151433 1.6710001 7.0836114e-39
-0.033420004 -0.046151433 1.6710001 7.8211764e-39
-0.039785717 -0.042968575 1.6710001 6.8087509e-39
-0.036602858 -0.042968575 1.6710001 7.8135506e-39
-0.033420004 -0.042968575 1.6710001 9.1964766e-39
-0.039785717 -0.039785717 1.6710001 1.2620329e-38
-0.036602858 -0.039785717 1.6710001 1.511204e-38
-0.033420004 -0.039785717 1.6710001 1.5849605e-38
-0.039785717 -0.036602858 1.6710001 1.6399294e-38
-0.036602858 -0.036602858 1.6710001 1.6494358e-38
-0.033420004 -0.036602858 1.6710001 1.8061683e-38
-0.042968575 -0.033420004 1.6710001 1.7878374e-38
-0.039785717 -0.033420004 1.6710001 1.8154961e-38
-0.036602858 -0.033420004 1.6710001 1.7786904e-38
-0.033420004 -0.033420004 1.6710001 1.7971295e-38
-0.042968575 -0.030237146 1.6710001 1.511395e-38
-0.039785717 -0.030237146 1.6710001 1.5482732e-38
-0.036602858 -0.030237146 1.6710001 1.61292e-38
-0.033420004 -0.030237146 1.6710001 1.7051157e-38
-0.042968575 -0.027054287 1.6710001 1.4281663e-38
-0.039785717 -0.027054287 1.6710001 1.4373858e-38
-0.036602858 -0.027054287 1.6710001 1.5391638e-38
-0.033420004 -0.027054287 1.6710001 1.7419942e-38
-0.042968575 -0.023871431 1.6710001 1.4742278e-38
-0.039785717 -0.023871431 1.6710001 1.4834473e-38
-0.036602858 -0.023871431 1.6710001 1.539161e-38
-0.033420004 -0.023871431 1.6710001 1.7327718e-38
-0.042968575 -0.020688573 1.6710001 1.4374209e-38
-0.039785717 -0.020688573 1.6710001 1.4097622e-38
-0.036602858 -0.020688573 1.6710001 1.3638101e-38
-0.033420004 -0.020688573 1.6710001 1.7325926e-38
-0.042968575 -0.017505715 1.6710001 1.4835918e-38
-0.039785717 -0.017505715 1.6710001 1.4190549e-38
-0.036602858 -0.017505715 1.6710001 1.2993435e-38
-0.033420004 -0.017505715 1.6710001 1.7050043e-38
-0.042968575 -0.014322858 1.6710001 1.6958951e-38
-0.039785717 -0.014322858 1.6710001 1.7235538e-38
-0.033420004 -0.014322858 1.6710001 1.70515e-38
-0.039999999 -0.011200001 1.6800001 1.6407575e-38
-0.036800001 -0.011200001 1.6800001 1.6683071e-38
-0.033420004 -0.01114 1.6710001 1.5668919e-38
-0.039999999 -0.0080000004 1.6800001 1.1241014e-38
-0.036800001 -0.0080000004 1.6800001 8.6412387e-39
-0.033420004 -0.0079571437 1.6710001 8.5490431e-39
-0.039999999 -0.0047999998 1.6800001 5.4323171e-39
-0.036800001 -0.0047999998 1.6800001 1.0472834e-38
-0.039999999 -0.0016000001 1.6800001 6.0744158e-39
-0.036800001 -0.0016000001 1.6800001 1.0380998e-38
-0.069455236 0.0016152381 1.6960001 4.3177032e-39
-0.066224761 0.0016152381 1.6960001 8.2821097e-39
-0.039999999 0.0016000001 1.6800001 7.1750069e-39
-0.036800001 0.0016000001 1.6800001 1.1302582e-38
-0.043200001 0.0047999998 1.6800001 1.3721628e-38
-0.039999999 0.0047999998 1.6800001 6.9913471e-39
-0.036800001 0.0047999998 1.6800001 1.1025641e-38
-0.036800001 0.0080000004 1.6800001 1.0749058e-38
-0.036800001 0.011200001 1.6800001 1.0565394e-38
-0.040190477 0.014468572 1.6880001 8.7420341e-39
-0.040190477 0.01768381 1.6880001 1.1683247e-38
-0.040190477 0.020899048 1.6880001 1.2507603e-38
-0.040190477 0.024114287 1.6880001 1.1124681e-38
-0.040190477 0.027329525 1.6880001 8.1808953e-39
-0.053302858 0.030689526 1.6960001 5.7931907e-39
-0.040190477 0.030544763 1.6880001 7.4448185e-39
-0.040190477 0.03376 1.6880001 6.15766e-39
-0.040190477 0.036975238 1.6880001 6.2516577e-39
-0.040190477 0.040190477 1.6880001 8.0984373e-39
-0.058882859 0.042968575 1.6710001 6.34314e-39
-0.055700004 0.042968575 1.6710001 6.6186381e-39
-0.052517146 0.042968575 1.6710001 6.5264425e-39
-0.045930479 0.042762857 1.6630001 8.552245e-39
-0.058882859 0.046151433 1.6710001 5.7910327e-39
-0.055700004 0.046151433 1.6710001 6.342389e-39
-0.052517146 0.046151433 1.6710001 6.2501947e-39
-0.049098097 0.045930479 1.6630001 6.2494927e-39
-0.045930479 0.045930479 1.6630001 6.9870577e-39
-0.042762857 0.045930479 1.6630001 7.4490882e-39
-0.039595243 0.045930479 1.6630001 7.7256751e-39
-0.027329525 0.046620954 1.6880001 7.6378095e-39
-0.052517146 0.049334288 1.6710001 5.6995405e-39
-0.049098097 0.049098097 1.6630001 5.6055624e-39
-0.045930479 0.049098097 1.6630001 5.3289755e-39
-0.042762857 0.049098097 1.6630001 5.6055624e-39
-0.049098097 0.052265719 1.6630001 7.457723e-39
-0.045930479 0.052265719 1.6630001 7.1811361e-39
-0.042762857 0.052265719 1.6630001 7.0874958e-39
