# .PCD v0.7 - Point Cloud Data file format
VERSION 0.7
FIELDS x y z rgba
SIZE 4 4 4 4
TYPE F F F U
COUNT 1 1 1 1
WIDTH 1082
HEIGHT 1
VIEWPOINT 0 0 0 1 0 0 0
POINTS 1082
DATA ascii
-0.095657147 0.03472 0.74400002 14301440
-0.094240002 0.03472 0.74400002 14169856
-0.092822857 0.03472 0.74400002 14233856
-0.09140572 0.03472 0.74400002 14168064
-0.092407629 0.035653338 0.76400006 14365952
-0.090952389 0.035653338 0.76400006 14300160
-0.089497149 0.035653338 0.76400006 15095040
-0.088041909 0.035653338 0.76400006 15687173
-0.086586677 0.035653338 0.76400006 15227706
-0.085131437 0.035653338 0.76400006 15227706
-0.083676197 0.035653338 0.76400006 15227977
-0.082220957 0.035653338 0.76400006 15227977
-0.080765724 0.035653338 0.76400006 15295837
-0.079310484 0.035653338 0.76400006 14966872
-0.077855244 0.035653338 0.76400006 15228749
-0.076400004 0.035653338 0.76400006 15228749
-0.074944772 0.035653338 0.76400006 15363917
-0.07329715 0.035560001 0.76200002 15824468
-0.071845718 0.035560001 0.76200002 15433292
-0.070394285 0.035560001 0.76200002 16551773
-0.068942852 0.035560001 0.76200002 16103354
-0.067491435 0.035560001 0.76200002 16169147
-0.066213332 0.035653338 0.76400006 16105622
-0.0647581 0.035653338 0.76400006 16764837
-0.06330286 0.035653338 0.76400006 16307369
-0.06184762 0.035653338 0.76400006 15452060
-0.060392387 0.035653338 0.76400006 15971172
-0.05909143 0.035746668 0.76600003 15839586
-0.057632383 0.035746668 0.76600003 15841355
-0.056173336 0.035746668 0.76600003 16038734
-0.054571431 0.035653338 0.76400006 16042586
-0.053116191 0.035653338 0.76400006 16174172
-0.051525716 0.035560001 0.76200002 16110668
-0.050074287 0.035560001 0.76200002 16769112
-0.048622858 0.035560001 0.76200002 15518509
-0.047295243 0.035653338 0.76400006 9794560
-0.15120856 0.037254285 0.76700002 7367019
-0.14974762 0.037254285 0.76700002 7367019
-0.14828667 0.037254285 0.76700002 8741979
-0.14663428 0.037205715 0.76600003 9268323
-0.14517525 0.037205715 0.76600003 12483714
-0.14334096 0.037108574 0.76400006 13339023
-0.1415143 0.037011426 0.76200002 11419992
-0.14006287 0.037011426 0.76200002 10696269
-0.13861144 0.037011426 0.76200002 11751730
-0.13716 0.037011426 0.76200002 11356972
-0.13570857 0.037011426 0.76200002 11818025
-0.13425714 0.037011426 0.76200002 11225888
-0.1331543 0.037108574 0.76400006 11554594
-0.13169906 0.037108574 0.76400006 13133626
-0.13024382 0.037108574 0.76400006 12937592
-0.12878858 0.037108574 0.76400006 14253452
-0.12733334 0.037108574 0.76400006 13066623
-0.12587811 0.037108574 0.76400006 12079728
-0.12442287 0.037108574 0.76400006 11541078
-0.12296763 0.037108574 0.76400006 11014734
-0.12151239 0.037108574 0.76400006 11474176
-0.12005715 0.037108574 0.76400006 11474176
-0.11860192 0.037108574 0.76400006 11735808
-0.11714668 0.037108574 0.76400006 12064768
-0.11569143 0.037108574 0.76400006 12789804
-0.1142362 0.037108574 0.76400006 14303043
-0.1130762 0.037205715 0.76600003 14176293
-0.11161715 0.037205715 0.76600003 14307879
-0.10627524 0.03589429 0.73900002 14239744
-0.10515144 0.035991434 0.74100006 13976576
-0.10374001 0.035991434 0.74100006 14107904
-0.10232858 0.035991434 0.74100006 14305280
-0.10105333 0.036040001 0.74200004 14373120
-0.099640004 0.036040001 0.74200004 14504704
-0.098226674 0.036040001 0.74200004 14636032
-0.096813336 0.036040001 0.74200004 14636032
-0.095400006 0.036040001 0.74200004 14768128
-0.093986668 0.036040001 0.74200004 14636544
-0.092448577 0.035991434 0.74100006 14898688
-0.091037147 0.035991434 0.74100006 15030272
-0.089383811 0.03589429 0.73900002 14963712
-0.087976187 0.03589429 0.73900002 14832128
-0.086568572 0.03589429 0.73900002 14960384
-0.088041909 0.037108574 0.76400006 16013056
-0.086586677 0.037108574 0.76400006 15228446
-0.084908567 0.037011426 0.76200002 13649414
-0.083347626 0.036962859 0.76100004 14432823
-0.081898101 0.036962859 0.76100004 14301237
-0.080448568 0.036962859 0.76100004 14499877
-0.079102859 0.037011426 0.76200002 14631463
-0.077651434 0.037011426 0.76200002 14498355
-0.076100007 0.036962859 0.76100004 14300976
-0.074650481 0.036962859 0.76100004 14698028
-0.073200949 0.036962859 0.76100004 15421751
-0.071751431 0.036962859 0.76100004 13783579
-0.070301905 0.036962859 0.76100004 14178337
-0.068852387 0.036962859 0.76100004 13858181
-0.067402862 0.036962859 0.76100004 14450318
-0.065953337 0.036962859 0.76100004 13796222
-0.064503811 0.036962859 0.76100004 14914703
-0.063054286 0.036962859 0.76100004 14195315
-0.061685719 0.037011426 0.76200002 13734764
-0.060234286 0.037011426 0.76200002 13998195
-0.058782857 0.037011426 0.76200002 15182469
-0.057331428 0.037011426 0.76200002 14724208
-0.056026667 0.037108574 0.76400006 14461036
-0.054571431 0.037108574 0.76400006 14396274
-0.053116191 0.037108574 0.76400006 14593653
-0.051525716 0.037011426 0.76200002 16040285
-0.050074287 0.037011426 0.76200002 16764522
-0.048622858 0.037011426 0.76200002 15252736
-0.047295243 0.037108574 0.76400006 6633984
-0.15160286 0.038816195 0.76900005 7826539
-0.14916192 0.038563814 0.76400006 7629160
-0.14770667 0.038563814 0.76400006 9135706
-0.14625144 0.038563814 0.76400006 9662050
-0.14441714 0.038462859 0.76200002 12223350
-0.1429657 0.038462859 0.76200002 10841697
-0.14132857 0.038412381 0.76100004 10048030
-0.13987905 0.038412381 0.76100004 9916444
-0.13842954 0.038412381 0.76100004 11168324
-0.13698001 0.038412381 0.76100004 10839359
-0.13553049 0.038412381 0.76100004 10708804
-0.13408096 0.038412381 0.76100004 9590323
-0.13280571 0.038462859 0.76200002 9658669
-0.13135429 0.038462859 0.76200002 9921841
-0.12990287 0.038462859 0.76200002 10379078
-0.12845144 0.038462859 0.76200002 10313285
-0.127 0.038462859 0.76200002 11033419
-0.12554857 0.038462859 0.76200002 11099212
-0.12442287 0.038563814 0.76400006 10762053
-0.12296763 0.038563814 0.76400006 10498881
-0.12151239 0.038563814 0.76400006 10560537
-0.12005715 0.038563814 0.76400006 11481639
-0.11860192 0.038563814 0.76400006 11213144
-0.11714668 0.038563814 0.76400006 11673695
-0.11569143 0.038563814 0.76400006 12467480
-0.11453524 0.038664766 0.76600003 14112305
-0.1130762 0.038664766 0.76600003 14309414
-0.10768285 0.037301905 0.73900002 14112035
-0.10627524 0.037301905 0.73900002 14372864
-0.10486761 0.037301905 0.73900002 14438656
-0.10346 0.037301905 0.73900002 14307840
-0.10205238 0.037301905 0.73900002 14242048
-0.10064476 0.037301905 0.73900002 14440448
-0.099505723 0.037402861 0.74100006 14637824
-0.098094292 0.037402861 0.74100006 14637568
-0.096682861 0.037402861 0.74100006 14703360
-0.095271438 0.037402861 0.74100006 14768384
-0.093860008 0.037402861 0.74100006 14768384
-0.09219905 0.037301905 0.73900002 14899456
-0.090791427 0.037301905 0.73900002 15031040
-0.089383811 0.037301905 0.73900002 15031296
-0.08785715 0.037251431 0.73800004 14504960
-0.086451426 0.037251431 0.73800004 14963200
-0.088041909 0.038563814 0.76400006 16742420
-0.08636 0.038462859 0.76200002 15431728
-0.084908567 0.038462859 0.76200002 13326352
-0.083347626 0.038412381 0.76100004 14500663
-0.081682861 0.038311433 0.75900006 14698042
-0.08023715 0.038311433 0.75900006 14567469
-0.07899905 0.038412381 0.76100004 14699055
-0.077549525 0.038412381 0.76100004 14369588
-0.076100007 0.038412381 0.76100004 14172209
-0.074650481 0.038412381 0.76100004 14171936
-0.073008575 0.038311433 0.75900006 14698280
-0.071562864 0.038311433 0.75900006 12142080
-0.070117153 0.038311433 0.75900006 12800006
-0.068671428 0.038311433 0.75900006 11692150
-0.067402862 0.038412381 0.76100004 11626357
-0.065953337 0.038412381 0.76100004 11496026
-0.064503811 0.038412381 0.76100004 11759198
-0.063054286 0.038412381 0.76100004 11500373
-0.061604768 0.038412381 0.76100004 11829338
-0.060155239 0.038412381 0.76100004 12556643
-0.058782857 0.038462859 0.76200002 12425057
-0.057331428 0.038462859 0.76200002 11177550
-0.056026667 0.038563814 0.76400006 11111757
-0.054428574 0.038462859 0.76200002 11178581
-0.052977145 0.038462859 0.76200002 11244374
-0.051458098 0.038412381 0.76100004 14985583
-0.050008573 0.038412381 0.76100004 16169857
-0.048622858 0.038462859 0.76200002 15445777
-0.14916192 0.04001905 0.76400006 7957353
-0.14712666 0.039861906 0.76100004 9594710
-0.14567715 0.039861906 0.76100004 9463124
-0.14384858 0.039757144 0.75900006 10966320
-0.14240287 0.039757144 0.75900006 10703148
-0.14095715 0.039757144 0.75900006 10961957
-0.13951144 0.039757144 0.75900006 10896164
-0.13806573 0.039757144 0.75900006 11163961
-0.13662001 0.039757144 0.75900006 11427133
-0.1351743 0.039757144 0.75900006 11100736
-0.13372858 0.039757144 0.75900006 9587497
-0.13263142 0.039861906 0.76100004 9585731
-0.13135429 0.039914284 0.76200002 9125180
-0.12990287 0.039914284 0.76200002 9915929
-0.12845144 0.039914284 0.76200002 10179101
-0.127 0.039914284 0.76200002 11561311
-0.12554857 0.039914284 0.76200002 13469308
-0.12409715 0.039914284 0.76200002 13405839
-0.12264571 0.039914284 0.76200002 13997976
-0.12119429 0.039914284 0.76200002 13998741
-0.11974286 0.039914284 0.76200002 15314601
-0.11829143 0.039914284 0.76200002 15576473
-0.11684 0.039914284 0.76200002 11760479
-0.11538857 0.039914284 0.76200002 13194540
-0.11393715 0.039914284 0.76200002 13786677
-0.10909048 0.038709525 0.73900002 14309153
-0.10768285 0.038709525 0.73900002 14177567
-0.10627524 0.038709525 0.73900002 14504707
-0.10486761 0.038709525 0.73900002 14504707
-0.10346 0.038709525 0.73900002 14440192
-0.10205238 0.038709525 0.73900002 14440192
-0.10064476 0.038709525 0.73900002 14505728
-0.099237144 0.038709525 0.73900002 14637312
-0.097829521 0.038709525 0.73900002 14571018
-0.096682861 0.038814291 0.74100006 14636811
-0.095014282 0.038709525 0.73900002 14768384
-0.093606666 0.038709525 0.73900002 14702592
-0.09219905 0.038709525 0.73900002 14833920
-0.090668574 0.038657144 0.73800004 14965504
-0.089262858 0.038657144 0.73800004 14964992
-0.08785715 0.038657144 0.73800004 14504448
-0.086451426 0.038657144 0.73800004 15029000
-0.085045718 0.038657144 0.73800004 16742702
-0.08636 0.039914284 0.76200002 15300864
-0.084797144 0.039861906 0.76100004 14313984
-0.083128572 0.039757144 0.75900006 15228488
-0.081682861 0.039757144 0.75900006 15557453
-0.08023715 0.039757144 0.75900006 15295303
-0.07879144 0.039757144 0.75900006 15163717
-0.077345721 0.039757144 0.75900006 15294540
-0.075900003 0.039757144 0.75900006 15294540
-0.074454293 0.039757144 0.75900006 15098435
-0.073008575 0.039757144 0.75900006 14835263
-0.071562864 0.039757144 0.75900006 12607039
-0.070117153 0.039757144 0.75900006 13067590
-0.068671428 0.039757144 0.75900006 11960448
-0.067225717 0.039757144 0.75900006 11763069
-0.065780006 0.039757144 0.75900006 11695230
-0.064334288 0.039757144 0.75900006 11695230
-0.062888578 0.039757144 0.75900006 12290418
-0.061442863 0.039757144 0.75900006 12422004
-0.059997149 0.039757144 0.75900006 13016188
-0.058551431 0.039757144 0.75900006 13213567
-0.05710572 0.039757144 0.75900006 13015416
-0.05580667 0.039861906 0.76100004 12883830
-0.054357145 0.039861906 0.76100004 12818559
-0.05290762 0.039861906 0.76100004 13015938
-0.051322859 0.039757144 0.75900006 15576975
-0.049877148 0.039757144 0.75900006 16234905
-0.048622858 0.039914284 0.76200002 14852132
-0.14674 0.041202862 0.75900006 10318174
-0.14529429 0.041202862 0.75900006 9265486
-0.14346953 0.041094288 0.75700003 11289859
-0.14202763 0.041094288 0.75700003 12474133
-0.14058572 0.041094288 0.75700003 12341081
-0.13914382 0.041094288 0.75700003 13920113
-0.13770191 0.041094288 0.75700003 13730440
-0.13626 0.041094288 0.75700003 14059405
-0.13481809 0.041094288 0.75700003 13931147
-0.13337618 0.041094288 0.75700003 12154736
-0.13228287 0.041202862 0.75900006 12283494
-0.13083716 0.041202862 0.75900006 12678252
-0.12973239 0.041311432 0.76100004 12616318
-0.12828286 0.041311432 0.76100004 14129557
-0.12683333 0.041311432 0.76100004 14724279
-0.12538381 0.041311432 0.76100004 13474212
-0.12409715 0.041365717 0.76200002 13211783
-0.12264571 0.041365717 0.76200002 13409162
-0.12119429 0.041365717 0.76200002 13016239
-0.11958572 0.041311432 0.76100004 14858443
-0.1181362 0.041311432 0.76100004 15711451
-0.11668667 0.041311432 0.76100004 13540282
-0.11538857 0.041365717 0.76200002 12867644
-0.11049809 0.040117145 0.73900002 12933437
-0.10909048 0.040117145 0.73900002 14374164
-0.10753715 0.04006286 0.73800004 14374164
-0.10613143 0.04006286 0.73800004 14504966
-0.10486761 0.040117145 0.73900002 14570759
-0.10332 0.04006286 0.73800004 14505728
-0.10191429 0.04006286 0.73800004 14571520
-0.10050857 0.04006286 0.73800004 14571264
-0.099102862 0.04006286 0.73800004 14637056
-0.097697146 0.04006286 0.73800004 14505736
-0.096421905 0.040117145 0.73900002 14571529
-0.095014282 0.040117145 0.73900002 14638080
-0.093606666 0.040117145 0.73900002 14638080
-0.09219905 0.040117145 0.73900002 14834688
-0.090668574 0.04006286 0.73800004 14834688
-0.089262858 0.04006286 0.73800004 14898944
-0.087619051 0.03995429 0.73600006 14767360
-0.085982859 0.039845716 0.73400003 15028739
-0.084584765 0.039845716 0.73400003 15752462
-0.083186664 0.039845716 0.73400003 15097088
-0.084797144 0.041311432 0.76100004 15097088
-0.082909524 0.041094288 0.75700003 15163181
-0.081467621 0.041094288 0.75700003 15623732
-0.08002571 0.041094288 0.75700003 15295305
-0.07879144 0.041202862 0.75900006 15426891
-0.077141903 0.041094288 0.75700003 15361618
-0.0757 0.041094288 0.75700003 15493204
-0.074258097 0.041094288 0.75700003 15099466
-0.072816193 0.041094288 0.75700003 15231052
-0.071374282 0.041094288 0.75700003 12411184
-0.069932379 0.041094288 0.75700003 12345391
-0.068490475 0.041094288 0.75700003 11304546
-0.067048572 0.041094288 0.75700003 10975581
-0.065606669 0.041094288 0.75700003 11104861
-0.064164765 0.041094288 0.75700003 12223342
-0.062557146 0.040985718 0.75500005 12291434
-0.06111905 0.040985718 0.75500005 11896676
-0.059680957 0.040985718 0.75500005 13408611
-0.058242857 0.040985718 0.75500005 13803369
-0.056955241 0.041094288 0.75700003 14130006
-0.055513334 0.041094288 0.75700003 14064213
-0.05407143 0.041094288 0.75700003 13670234
-0.052629523 0.041094288 0.75700003 13999199
-0.05118762 0.041094288 0.75700003 15707010
-0.049877148 0.041202862 0.75900006 16167561
-0.048431434 0.041202862 0.75900006 14324786
-0.14596668 0.042423811 0.75500005 10841941
-0.14452857 0.042423811 0.75500005 9855046
-0.14309049 0.042423811 0.75500005 11159316
-0.14165239 0.042423811 0.75500005 13462071
-0.14021429 0.042423811 0.75500005 12613265
-0.13914382 0.042536192 0.75700003 16297673
-0.13770191 0.042536192 0.75700003 14527688
-0.13626 0.042536192 0.75700003 14198723
-0.13481809 0.042536192 0.75700003 15123893
-0.13337618 0.042536192 0.75700003 15387065
-0.13228287 0.042648572 0.75900006 14468030
-0.13083716 0.042648572 0.75900006 13810100
-0.12939143 0.042648572 0.75900006 13807299
-0.12794574 0.042648572 0.75900006 14465229
-0.12650001 0.042648572 0.75900006 14137034
-0.12505428 0.042648572 0.75900006 11834279
-0.12360859 0.042648572 0.75900006 10783076
-0.12216286 0.042648572 0.75900006 11375213
-0.12103524 0.042760953 0.76100004 12295115
-0.11927143 0.042648572 0.75900006 14203112
-0.11782572 0.042648572 0.75900006 15776724
-0.11638001 0.042648572 0.75900006 14131899
-0.11493429 0.042648572 0.75900006 13651784
-0.11049809 0.041524764 0.73900002 13585991
-0.10894287 0.041468576 0.73800004 14504716
-0.10753715 0.041468576 0.73800004 14636302
-0.10613143 0.041468576 0.73800004 14635528
-0.10444191 0.041356195 0.73600006 14635528
-0.10304001 0.041356195 0.73600006 14505728
-0.10191429 0.041468576 0.73800004 14571520
-0.10050857 0.041468576 0.73800004 14570496
-0.098834291 0.041356195 0.73600006 14636288
-0.09743239 0.041356195 0.73600006 14571776
-0.09629143 0.041468576 0.73800004 14571776
-0.094885714 0.041468576 0.73800004 14702336
-0.093480006 0.041468576 0.73800004 14833922
-0.092074282 0.041468576 0.73800004 14834432
-0.090422861 0.041356195 0.73600006 14768640
-0.08902096 0.041356195 0.73600006 14964480
-0.087261908 0.041187622 0.73300004 14898688
-0.085865714 0.041187622 0.73300004 15028224
-0.084584765 0.04124381 0.73400003 15422979
-0.083186664 0.04124381 0.73400003 15095813
-0.084351428 0.042536192 0.75700003 15030020
-0.082909524 0.042536192 0.75700003 15096065
-0.081252381 0.042423811 0.75500005 15819788
-0.079814292 0.042423811 0.75500005 15295046
-0.078376196 0.042423811 0.75500005 15426632
-0.0769381 0.042423811 0.75500005 15295571
-0.075500011 0.042423811 0.75500005 15427157
-0.074061908 0.042423811 0.75500005 15165509
-0.072623812 0.042423811 0.75500005 15428681
-0.071185715 0.042423811 0.75500005 13462352
-0.06965524 0.042367619 0.75400001 12936008
-0.068219043 0.042367619 0.75400001 12811336
-0.066782854 0.042367619 0.75400001 12679750
-0.065433331 0.042423811 0.75500005 13007182
-0.063995242 0.042423811 0.75500005 14717800
-0.062474284 0.042367619 0.75400001 14260066
-0.061038099 0.042367619 0.75400001 13865308
-0.059601903 0.042367619 0.75400001 14521927
-0.058165714 0.042367619 0.75400001 14719306
-0.056729525 0.042367619 0.75400001 15112233
-0.055293337 0.042367619 0.75400001 15770163
-0.05385714 0.042367619 0.75400001 15442220
-0.052420951 0.042367619 0.75400001 15902771
-0.051052384 0.042423811 0.75500005 15836755
-0.049614292 0.042423811 0.75500005 15047239
-0.048431434 0.042648572 0.75900006 14324225
-0.14740478 0.043861907 0.75500005 8548954
-0.14577332 0.043803807 0.75400001 11168587
-0.14433715 0.043803807 0.75400001 10181692
-0.14290096 0.043803807 0.75400001 10961664
-0.14146475 0.043803807 0.75400001 13988142
-0.14002857 0.043803807 0.75400001 11302076
-0.13859238 0.043803807 0.75400001 12881108
-0.1371562 0.043803807 0.75400001 11772852
-0.13572 0.043803807 0.75400001 11970231
-0.13428381 0.043803807 0.75400001 13418431
-0.13302381 0.043861907 0.75500005 13878982
-0.13193429 0.043978095 0.75700003 13946331
-0.13049237 0.043978095 0.75700003 11775162
-0.12905048 0.043978095 0.75700003 9210014
-0.12760857 0.043978095 0.75700003 11381183
-0.12616667 0.043978095 0.75700003 12498369
-0.12472476 0.043978095 0.75700003 9800856
-0.12328286 0.043978095 0.75700003 5724513
-0.12216286 0.044094287 0.75900006 10395816
-0.12071715 0.044094287 0.75900006 12431313
-0.11895715 0.043978095 0.75700003 13418208
-0.11751524 0.043978095 0.75700003 15710681
-0.11607334 0.043978095 0.75700003 13473719
-0.11175429 0.042874288 0.73800004 13521195
-0.11034857 0.042874288 0.73800004 13652781
-0.10894287 0.042874288 0.73800004 14701325
-0.10695428 0.042641908 0.73400003 14767118
-0.1055562 0.042641908 0.73400003 14701824
-0.1041581 0.042641908 0.73400003 14701824
-0.10276 0.042641908 0.73400003 14636800
-0.1013619 0.042641908 0.73400003 14636800
-0.099963814 0.042641908 0.73400003 14636544
-0.09856572 0.042641908 0.73400003 14636544
-0.097167619 0.042641908 0.73400003 14768386
-0.096030481 0.0427581 0.73600006 14768386
-0.094371431 0.042641908 0.73400003 14768384
-0.092973337 0.042641908 0.73400003 14768384
-0.091575243 0.042641908 0.73400003 14833664
-0.090177149 0.042641908 0.73400003 14965248
-0.088658094 0.042583812 0.73300004 15030784
-0.087261908 0.042583812 0.73300004 14964992
-0.085865714 0.042583812 0.73300004 15030272
-0.084584765 0.042641908 0.73400003 15359233
-0.083186664 0.042641908 0.73400003 15162880
-0.081788577 0.042641908 0.73400003 13649664
-0.082580954 0.043803807 0.75400001 14631168
-0.081144765 0.043803807 0.75400001 16275976
-0.079708569 0.043803807 0.75400001 15229001
-0.078272387 0.043803807 0.75400001 15294794
-0.076836191 0.043803807 0.75400001 15228747
-0.075399995 0.043803807 0.75400001 15360333
-0.073963813 0.043803807 0.75400001 15231050
-0.072527617 0.043803807 0.75400001 15165257
-0.071091428 0.043803807 0.75400001 14381646
-0.069470473 0.043687619 0.75200003 14381646
-0.068038099 0.043687619 0.75200003 14384197
-0.066605717 0.043687619 0.75200003 14186818
-0.065173343 0.043687619 0.75200003 14514525
-0.063740954 0.043687619 0.75200003 15961971
-0.062474284 0.043803807 0.75400001 15570288
-0.061038099 0.043803807 0.75400001 15241323
-0.059443813 0.043687619 0.75200003 15633760
-0.058011431 0.043687619 0.75200003 15436381
-0.05657905 0.043687619 0.75200003 15502660
-0.055146668 0.043687619 0.75200003 15502660
-0.053714287 0.043687619 0.75200003 15567673
-0.052281909 0.043687619 0.75200003 16357189
-0.050984763 0.043803807 0.75400001 15636824
-0.04954857 0.043803807 0.75400001 15110480
-0.048112381 0.043803807 0.75400001 12676918
-0.14720953 0.04524 0.75400001 8416847
-0.14577332 0.04524 0.75400001 11034171
-0.14395429 0.045120001 0.75200003 8205072
-0.14252192 0.045120001 0.75200003 10826496
-0.14108953 0.045120001 0.75200003 16755308
-0.13965714 0.045120001 0.75200003 13085393
-0.13859238 0.04524 0.75400001 7756160
-0.1371562 0.04524 0.75400001 7168384
-0.13572 0.04524 0.75400001 8023693
-0.13428381 0.04524 0.75400001 9138824
-0.13284762 0.04524 0.75400001 9994133
-0.13158572 0.045300003 0.75500005 11181750
-0.13014764 0.045300003 0.75500005 10326441
-0.12853906 0.04524 0.75400001 9270930
-0.12710287 0.04524 0.75400001 9863067
-0.12566666 0.04524 0.75400001 11705514
-0.12423047 0.04524 0.75400001 11442342
-0.12279429 0.04524 0.75400001 11180726
-0.1213581 0.04524 0.75400001 14470376
-0.12008096 0.045300003 0.75500005 14272468
-0.11864287 0.045300003 0.75500005 14075089
-0.11720477 0.045300003 0.75500005 15579831
-0.11607334 0.045420002 0.75700003 11434872
-0.11175429 0.044280004 0.73800004 13650176
-0.11004953 0.044160005 0.73600006 14768656
-0.10864763 0.044160005 0.73600006 14832900
-0.10695428 0.044040002 0.73400003 14832900
-0.10541239 0.043979999 0.73300004 14832898
-0.10401619 0.043979999 0.73300004 14964484
-0.10262001 0.043979999 0.73300004 14636544
-0.1013619 0.044040002 0.73400003 14768128
-0.099963814 0.044040002 0.73400003 14768384
-0.098431431 0.043979999 0.73300004 14834176
-0.097035244 0.043979999 0.73300004 14702082
-0.09563905 0.043979999 0.73300004 14833668
-0.094242856 0.043979999 0.73300004 14768640
-0.092846669 0.043979999 0.73300004 14702848
-0.091450475 0.043979999 0.73300004 14832900
-0.090054289 0.043979999 0.73300004 15030279
-0.088658094 0.043979999 0.73300004 15096324
-0.087261908 0.043979999 0.73300004 15293703
-0.085865714 0.043979999 0.73300004 15097092
-0.084469534 0.043979999 0.73300004 15294471
-0.08307334 0.043979999 0.73300004 15163398
-0.081677146 0.043979999 0.73300004 13255424
-0.082361907 0.045120001 0.75200003 14433280
-0.080929525 0.045120001 0.75200003 15749130
-0.079497144 0.045120001 0.75200003 15159615
-0.078272387 0.04524 0.75400001 15225408
-0.076836191 0.04524 0.75400001 15093813
-0.075200006 0.045120001 0.75200003 15028020
-0.073767617 0.045120001 0.75200003 14767687
-0.072335243 0.045120001 0.75200003 14570308
-0.070714295 0.045000002 0.75000006 14052413
-0.069285721 0.045000002 0.75000006 14315585
-0.067857146 0.045000002 0.75000006 13988391
-0.066428579 0.045000002 0.75000006 14119977
-0.065000005 0.045000002 0.75000006 14448482
-0.063571438 0.045000002 0.75000006 15566963
-0.062308576 0.045120001 0.75200003 14977388
-0.060876191 0.045120001 0.75200003 14648423
-0.059443813 0.045120001 0.75200003 14841711
-0.058011431 0.045120001 0.75200003 14183781
-0.056428574 0.045000002 0.75000006 14641191
-0.055000003 0.045000002 0.75000006 14180640
-0.053571433 0.045000002 0.75000006 14771712
-0.052142859 0.045000002 0.75000006 15561225
-0.050714288 0.045000002 0.75000006 14777108
-0.049417142 0.045120001 0.75200003 14974487
-0.048112381 0.04524 0.75400001 13134157
-0.14681906 0.046552382 0.75200003 8021579
-0.14500001 0.046428576 0.75000006 11363868
-0.14357144 0.046428576 0.75000006 11034903
-0.14214288 0.046428576 0.75000006 11358208
-0.1407143 0.046428576 0.75000006 16760929
-0.13928573 0.046428576 0.75000006 14801374
-0.13785715 0.046428576 0.75000006 11445931
-0.13642858 0.046428576 0.75000006 6128033
-0.13500002 0.046428576 0.75000006 5535896
-0.13357145 0.046428576 0.75000006 8217200
-0.13214287 0.046428576 0.75000006 9072509
-0.13106287 0.046552382 0.75200003 10655384
-0.12963048 0.046552382 0.75200003 9602696
-0.12785715 0.046428576 0.75000006 9271657
-0.12642859 0.046428576 0.75000006 9798001
-0.12483333 0.046366669 0.74900001 11571852
-0.12340666 0.046366669 0.74900001 11571852
-0.12214287 0.046428576 0.75000006 11506584
-0.12071429 0.046428576 0.75000006 10782861
-0.1199219 0.046676192 0.75400001 10383231
-0.11817143 0.046552382 0.75200003 9988473
-0.11673905 0.046552382 0.75200003 12281727
-0.11530667 0.046552382 0.75200003 10965867
-0.11175429 0.045685716 0.73800004 13185280
-0.11004953 0.04556191 0.73600006 14961676
-0.10835239 0.045438096 0.73400003 15096581
-0.10680858 0.045376193 0.73300004 14964995
-0.10541239 0.045376193 0.73300004 14899712
-0.10401619 0.045376193 0.73300004 14636544
-0.10262001 0.045376193 0.73300004 14569984
-0.10122381 0.045376193 0.73300004 14833152
-0.099827625 0.045376193 0.73300004 14834176
-0.098431431 0.045376193 0.73300004 14768384
-0.097035244 0.045376193 0.73300004 14768384
-0.095378101 0.045252379 0.73100001 14899968
-0.093985714 0.045252379 0.73100001 14834176
-0.092593335 0.045252379 0.73100001 14702592
-0.091200955 0.045252379 0.73100001 14701824
-0.089808576 0.045252379 0.73100001 14767616
-0.088658094 0.045376193 0.73300004 15030016
-0.087261908 0.045376193 0.73300004 15556352
-0.085865714 0.045376193 0.73300004 15097092
-0.084469534 0.045376193 0.73300004 15360264
-0.08307334 0.045376193 0.73300004 15229200
-0.081677146 0.045376193 0.73300004 12992256
-0.08028096 0.045376193 0.73300004 14498304
-0.080714293 0.046428576 0.75000006 15945739
-0.079285719 0.046428576 0.75000006 15094065
-0.078064762 0.046552382 0.75200003 15094065
-0.076632388 0.046552382 0.75200003 15094065
-0.075000003 0.046428576 0.75000006 15028272
-0.073571436 0.046428576 0.75000006 14570038
-0.072046667 0.046366669 0.74900001 14175280
-0.07062 0.046366669 0.74900001 13195285
-0.069193333 0.046366669 0.74900001 12866320
-0.067766666 0.046366669 0.74900001 12929792
-0.066339999 0.046366669 0.74900001 14837772
-0.06491334 0.046366669 0.74900001 14580581
-0.063486665 0.046366669 0.74900001 15370097
-0.062060002 0.046366669 0.74900001 14780270
-0.060633335 0.046366669 0.74900001 14714477
-0.059285719 0.046428576 0.75000006 14776429
-0.057780001 0.046366669 0.74900001 13723741
-0.056353334 0.046366669 0.74900001 14443037
-0.054926667 0.046366669 0.74900001 14245658
-0.0535 0.046366669 0.74900001 14573824
-0.052073333 0.046366669 0.74900001 15889670
-0.050511431 0.046242859 0.74700004 15040048
-0.049088575 0.046242859 0.74700004 14908462
-0.14642859 0.047857147 0.75000006 9665382
-0.14480667 0.047793336 0.74900001 13477163
-0.14338 0.047793336 0.74900001 15845711
-0.14195333 0.047793336 0.74900001 15386880
-0.14052667 0.047793336 0.74900001 16505344
-0.1391 0.047793336 0.74900001 14537899
-0.13767333 0.047793336 0.74900001 14406313
-0.13624667 0.047793336 0.74900001 10982353
-0.13482 0.047793336 0.74900001 9008563
-0.13339333 0.047793336 0.74900001 10445946
-0.13196667 0.047793336 0.74900001 9985395
-0.13054 0.047793336 0.74900001 10704702
-0.12911333 0.047793336 0.74900001 8467740
-0.12768666 0.047793336 0.74900001 10499337
-0.12592286 0.047665719 0.74700004 11157267
-0.12450001 0.047665719 0.74700004 11356186
-0.12307715 0.047665719 0.74700004 11224600
-0.12198 0.047793336 0.74900001 11158541
-0.12055333 0.047793336 0.74900001 10237440
-0.11928572 0.047857147 0.75000006 10891785
-0.11785715 0.047857147 0.75000006 11352336
-0.11642858 0.047857147 0.75000006 12010520
-0.11500001 0.047857147 0.75000006 10431488
-0.11175429 0.047091432 0.73800004 12591360
-0.10960096 0.046772383 0.73300004 14828313
-0.10820477 0.046772383 0.73300004 14765568
-0.10651714 0.046644762 0.73100001 15291904
-0.10512476 0.046644762 0.73100001 15031040
-0.10373238 0.046644762 0.73100001 15031040
-0.10234 0.046644762 0.73100001 15030528
-0.10094762 0.046644762 0.73100001 15096320
-0.099555232 0.046644762 0.73100001 15030784
-0.09802857 0.046580952 0.73000002 14636032
-0.096638098 0.046580952 0.73000002 14831616
-0.095247619 0.046580952 0.73000002 14963200
-0.093600005 0.046453338 0.72800004 14963456
-0.09221334 0.046453338 0.72800004 15160832
-0.091076195 0.046580952 0.73000002 15028992
-0.089808576 0.046644762 0.73100001 15884289
-0.088416189 0.046644762 0.73100001 15229961
-0.08702381 0.046644762 0.73100001 15361547
-0.085865714 0.046772383 0.73300004 15164684
-0.084469534 0.046772383 0.73300004 15098891
-0.08307334 0.046772383 0.73300004 15098137
-0.081677146 0.046772383 0.73300004 12992768
-0.081485718 0.047474284 0.74400002 14630947
-0.080606669 0.047793336 0.74900001 16341565
-0.079180002 0.047793336 0.74900001 15228733
-0.077857152 0.047857147 0.75000006 15162940
-0.076428577 0.047857147 0.75000006 15097386
-0.075000003 0.047857147 0.75000006 15097386
-0.073473334 0.047793336 0.74900001 15227454
-0.072046667 0.047793336 0.74900001 14964282
-0.070431434 0.047665719 0.74700004 14050596
-0.069008574 0.047665719 0.74700004 13458459
-0.067585714 0.047665719 0.74700004 12730884
-0.066162854 0.047665719 0.74700004 14902053
-0.064740002 0.047665719 0.74700004 14974056
-0.063317142 0.047665719 0.74700004 16421502
-0.06189429 0.047665719 0.74700004 15767926
-0.06047143 0.047665719 0.74700004 15702133
-0.059206665 0.047793336 0.74900001 15633787
-0.057780001 0.047793336 0.74900001 13791583
-0.056202862 0.047665719 0.74700004 14377246
-0.054780003 0.047665719 0.74700004 13258765
-0.053357143 0.047665719 0.74700004 14110464
-0.051934287 0.047665719 0.74700004 15426320
-0.050511431 0.047665719 0.74700004 14445092
-0.049022861 0.047601905 0.74600005 14510885
-0.047601905 0.047601905 0.74600005 12739072
-0.14642859 0.049285717 0.75000006 11309689
-0.14480667 0.049219999 0.74900001 12822590
-0.14338 0.049219999 0.74900001 15914861
-0.14195333 0.049219999 0.74900001 15129088
-0.14015144 0.049088575 0.74700004 14339584
-0.13872857 0.049088575 0.74700004 12697116
-0.13730572 0.049088575 0.74700004 14473527
-0.13588285 0.049088575 0.74700004 12494753
-0.13446002 0.049088575 0.74700004 9599861
-0.13285907 0.049022861 0.74600005 13200505
-0.13143811 0.049022861 0.74600005 13266298
-0.13019143 0.049088575 0.74700004 13919058
-0.12876858 0.049088575 0.74700004 13458507
-0.12717524 0.049022861 0.74600005 13781546
-0.1257543 0.049022861 0.74600005 13847339
-0.12433334 0.049022861 0.74600005 14107447
-0.12307715 0.049088575 0.74700004 14173240
-0.12165429 0.049088575 0.74700004 14240057
-0.12023143 0.049088575 0.74700004 15095366
-0.11880857 0.049088575 0.74700004 14703732
-0.11738572 0.049088575 0.74700004 14243181
-0.11580762 0.049022861 0.74600005 13388330
-0.11438668 0.049022861 0.74600005 11348747
-0.11114857 0.048234288 0.73400003 12593920
-0.10960096 0.048168574 0.73300004 13909765
-0.10790952 0.048037142 0.73100001 14633984
-0.10651714 0.048037142 0.73100001 15686662
-0.10498095 0.047971431 0.73000002 15096840
-0.10359048 0.047971431 0.73000002 14767875
-0.1022 0.047971431 0.73000002 15029504
-0.10080953 0.047971431 0.73000002 14963712
-0.099419042 0.047971431 0.73000002 15028736
-0.097759999 0.047840003 0.72800004 14897152
-0.096373342 0.047840003 0.72800004 14962432
-0.09498667 0.047840003 0.72800004 14830848
-0.093600005 0.047840003 0.72800004 14962688
-0.09221334 0.047840003 0.72800004 15094272
-0.090826668 0.047840003 0.72800004 15029024
-0.089685716 0.047971431 0.73000002 15621161
-0.088295236 0.047971431 0.73000002 15229457
-0.086904764 0.047971431 0.73000002 15426836
-0.08563143 0.048037142 0.73100001 15230236
-0.084469534 0.048168574 0.73300004 15098650
-0.083186664 0.048234288 0.73400003 15163930
-0.081788577 0.048234288 0.73400003 12926976
-0.081485718 0.048891429 0.74400002 14564882
-0.080283813 0.049022861 0.74600005 16538672
-0.078968577 0.049088575 0.74700004 15229253
-0.077545717 0.049088575 0.74700004 15097667
-0.076122858 0.049088575 0.74700004 15228740
-0.074900001 0.049219999 0.74900001 14833982
-0.073277146 0.049088575 0.74700004 15227200
-0.071854293 0.049088575 0.74700004 15358786
-0.070431434 0.049088575 0.74700004 14509630
-0.069008574 0.049088575 0.74700004 13588528
-0.067585714 0.049088575 0.74700004 12664832
-0.066162854 0.049088575 0.74700004 15230747
-0.064653337 0.049022861 0.74600005 15235690
-0.063232385 0.049022861 0.74600005 16748929
-0.061811436 0.049022861 0.74600005 15768705
-0.06047143 0.049088575 0.74700004 15439740
-0.059048574 0.049088575 0.74700004 15765125
-0.057548571 0.049022861 0.74600005 13593956
-0.056127623 0.049022861 0.74600005 14311974
-0.05470667 0.049022861 0.74600005 13259286
-0.053285718 0.049022861 0.74600005 13648128
-0.051864766 0.049022861 0.74600005 15292942
-0.050443813 0.049022861 0.74600005 14312744
-0.048891429 0.048891429 0.74400002 14510123
-0.047474284 0.048891429 0.74400002 11944716
-0.14584287 0.050511431 0.74700004 11835516
-0.14442 0.050511431 0.74700004 13808161
-0.14299715 0.050511431 0.74700004 16768846
-0.14138477 0.050443813 0.74600005 16114944
-0.13996382 0.050443813 0.74600005 15851776
-0.13854288 0.050443813 0.74600005 15656448
-0.13712192 0.050443813 0.74600005 16775424
-0.13570096 0.050443813 0.74600005 15191434
-0.13428 0.050443813 0.74600005 13678195
-0.13250287 0.050308574 0.74400002 14655901
-0.13108571 0.050308574 0.74400002 14590108
-0.13001715 0.050443813 0.74600005 15703190
-0.1285962 0.050443813 0.74600005 16624292
-0.12683429 0.050308574 0.74400002 15768971
-0.12541714 0.050308574 0.74400002 16295315
-0.124 0.050308574 0.74400002 15768723
-0.12291239 0.050443813 0.74600005 15966102
-0.12149144 0.050443813 0.74600005 15769484
-0.12007048 0.050443813 0.74600005 16361621
-0.11864953 0.050443813 0.74600005 15968664
-0.11722858 0.050443813 0.74600005 12810600
-0.11549714 0.050308574 0.74400002 12797747
-0.11208667 0.049429525 0.73100001 11021336
-0.11069429 0.049429525 0.73100001 12269312
-0.1093019 0.049429525 0.73100001 12598274
-0.10790952 0.049429525 0.73100001 13977859
-0.10651714 0.049429525 0.73100001 15293719
-0.10498095 0.049361907 0.73000002 15030529
-0.10359048 0.049361907 0.73000002 15359494
-0.1022 0.049361907 0.73000002 15097344
-0.10080953 0.049361907 0.73000002 15097344
-0.099010482 0.04915905 0.72700006 15230976
-0.097625725 0.04915905 0.72700006 16612611
-0.096373342 0.049226668 0.72800004 15498833
-0.094856195 0.04915905 0.72700006 15959384
-0.09347143 0.04915905 0.72700006 15634766
-0.092086673 0.04915905 0.72700006 16292696
-0.090701908 0.04915905 0.72700006 15635311
-0.089685716 0.049361907 0.73000002 14056279
-0.088295236 0.049361907 0.73000002 15164938
-0.086904764 0.049361907 0.73000002 15033352
-0.08563143 0.049429525 0.73100001 15164184
-0.084469534 0.049564764 0.73300004 15361563
-0.083186664 0.049632382 0.73400003 15032356
-0.081788577 0.049632382 0.73400003 12400640
-0.081266664 0.050173335 0.74200004 14496799
-0.080068566 0.050308574 0.74400002 16738644
-0.078862861 0.050443813 0.74600005 15431518
-0.077545717 0.050511431 0.74700004 15168346
-0.076122858 0.050511431 0.74700004 15230546
-0.074700005 0.050511431 0.74700004 15033167
-0.073179051 0.050443813 0.74600005 15226952
-0.071758099 0.050443813 0.74600005 15490124
-0.070148572 0.050308574 0.74400002 15097935
-0.068731427 0.050308574 0.74400002 14966349
-0.067314282 0.050308574 0.74400002 14378314
-0.066074289 0.050443813 0.74600005 14509900
-0.064653337 0.050443813 0.74600005 14181719
-0.063232385 0.050443813 0.74600005 13589582
-0.061811436 0.050443813 0.74600005 13590104
-0.06039048 0.050443813 0.74600005 14642792
-0.058969527 0.050443813 0.74600005 14578514
-0.057548571 0.050443813 0.74600005 13591619
-0.055977143 0.050308574 0.74400002 14113823
-0.054560002 0.050308574 0.74400002 13719065
-0.053142861 0.050308574 0.74400002 14111011
-0.051725715 0.050308574 0.74400002 14571562
-0.050308574 0.050308574 0.74400002 13851934
-0.048760001 0.050173335 0.74200004 13062418
-0.04734667 0.050173335 0.74200004 11615274
-0.045933336 0.050173335 0.74200004 10167828
-0.14667429 0.051725715 0.74400002 9268304
-0.14525715 0.051725715 0.74400002 12492161
-0.14384 0.051725715 0.74400002 14663209
-0.14280573 0.051864766 0.74600005 16571206
-0.14100571 0.051725715 0.74400002 16180483
-0.13958858 0.051725715 0.74400002 16048897
-0.13854288 0.051864766 0.74600005 16182528
-0.13675429 0.051725715 0.74400002 16775431
-0.13533714 0.051725715 0.74400002 16308886
-0.13392 0.051725715 0.74400002 14466682
-0.13250287 0.051725715 0.74400002 14787441
-0.13108571 0.051725715 0.74400002 14853234
-0.13001715 0.051864766 0.74600005 15113873
-0.12825143 0.051725715 0.74400002 16232354
-0.12683429 0.051725715 0.74400002 14521494
-0.12541714 0.051725715 0.74400002 15705768
-0.124 0.051725715 0.74400002 14980505
-0.12258286 0.051725715 0.74400002 15112091
-0.12116572 0.051725715 0.74400002 15046027
-0.11942668 0.051586669 0.74200004 16164508
-0.11801334 0.051586669 0.74200004 15901880
-0.11660001 0.051586669 0.74200004 12743816
-0.11503144 0.051517144 0.74100006 12995657
-0.11208667 0.050821904 0.73100001 11416625
-0.11069429 0.050821904 0.73100001 11873288
-0.1093019 0.050821904 0.73100001 11741702
-0.1077619 0.050752383 0.73000002 13454080
-0.10637143 0.050752383 0.73000002 14704133
-0.10469334 0.050613336 0.72800004 15030784
-0.10330667 0.050613336 0.72800004 15557125
-0.10178001 0.050543811 0.72700006 15229450
-0.10039525 0.050543811 0.72700006 15163657
-0.099010482 0.050543811 0.72700006 15164945
-0.097625725 0.050543811 0.72700006 16480805
-0.09624096 0.050543811 0.72700006 15499857
-0.094856195 0.050543811 0.72700006 15960408
-0.09347143 0.050543811 0.72700006 15702115
-0.092086673 0.050543811 0.72700006 15833701
-0.090701908 0.050543811 0.72700006 15700082
-0.089440003 0.050613336 0.72800004 14186843
-0.088295236 0.050752383 0.73000002 15230756
-0.086904764 0.050752383 0.73000002 14901791
-0.08563143 0.050821904 0.73100001 15163934
-0.084469534 0.050960954 0.73300004 15163934
-0.083186664 0.051030476 0.73400003 14638080
-0.082234286 0.051308576 0.73800004 13651200
-0.080938093 0.051378097 0.73900002 15094306
-0.080068566 0.051725715 0.74400002 16741701
-0.078862861 0.051864766 0.74600005 15498340
-0.077441908 0.051864766 0.74600005 15103582
-0.076020956 0.051864766 0.74600005 15363415
-0.074600004 0.051864766 0.74600005 15166036
-0.072982863 0.051725715 0.74400002 15363408
-0.071565717 0.051725715 0.74400002 15363408
-0.070148572 0.051725715 0.74400002 15230546
-0.068546675 0.051586669 0.74200004 15230546
-0.067133337 0.051586669 0.74200004 15035724
-0.065897144 0.051725715 0.74400002 14904138
-0.064479999 0.051725715 0.74400002 13722960
-0.063062862 0.051725715 0.74400002 12275514
-0.061645716 0.051725715 0.74400002 11679232
-0.060228571 0.051725715 0.74400002 13850386
-0.05881143 0.051725715 0.74400002 13720625
-0.057394285 0.051725715 0.74400002 12865316
-0.055826671 0.051586669 0.74200004 13977626
-0.054413334 0.051586669 0.74200004 14503970
-0.052999999 0.051586669 0.74200004 14309932
-0.051586669 0.051586669 0.74200004 14507311
-0.050173335 0.051586669 0.74200004 13458734
-0.048760001 0.051586669 0.74200004 12932390
-0.04734667 0.051586669 0.74200004 11354144
-0.045933336 0.051586669 0.74200004 10038284
-0.14628001 0.052999999 0.74200004 9661258
-0.14486668 0.052999999 0.74200004 13345666
-0.14384 0.053142861 0.74400002 14925846
-0.14242285 0.053142861 0.74400002 16175913
-0.14100571 0.053142861 0.74400002 15982336
-0.13958858 0.053142861 0.74400002 15982336
-0.13817143 0.053142861 0.74400002 15982336
-0.13675429 0.053142861 0.74400002 16706048
-0.13533714 0.053142861 0.74400002 16309636
-0.13392 0.053142861 0.74400002 16375429
-0.13214667 0.052999999 0.74200004 16242825
-0.13073334 0.052999999 0.74200004 16308618
-0.12966858 0.053142861 0.74400002 16306617
-0.12825143 0.053142861 0.74400002 16635582
-0.12683429 0.053142861 0.74400002 16104646
-0.12508002 0.052999999 0.74200004 16302025
-0.12366667 0.052999999 0.74200004 15969208
-0.12225334 0.052999999 0.74200004 15377071
-0.12084001 0.052999999 0.74200004 15773101
-0.11942668 0.052999999 0.74200004 16431031
-0.11801334 0.052999999 0.74200004 15970230
-0.11660001 0.052999999 0.74200004 14522784
-0.11503144 0.052928574 0.74100006 14187920
-0.11316001 0.052714288 0.73800004 13793162
-0.11114857 0.052428573 0.73400003 12144716
-0.1093019 0.052214287 0.73100001 9578789
-0.10746667 0.052000001 0.72800004 12268564
-0.10608001 0.052000001 0.72800004 14439733
-0.10454953 0.051928576 0.72700006 14637324
-0.10316477 0.051928576 0.72700006 15163668
-0.10178001 0.051928576 0.72700006 15163907
-0.10039525 0.051928576 0.72700006 15098114
-0.099010482 0.051928576 0.72700006 15229952
-0.097625725 0.051928576 0.72700006 15098368
-0.09624096 0.051928576 0.72700006 15162885
-0.094856195 0.051928576 0.72700006 15228678
-0.09347143 0.051928576 0.72700006 15162885
-0.092086673 0.051928576 0.72700006 15097092
-0.090701908 0.051928576 0.72700006 15096832
-0.089440003 0.052000001 0.72800004 15162624
-0.088053338 0.052000001 0.72800004 15162644
-0.086904764 0.052142855 0.73000002 15294230
-0.08563143 0.052214287 0.73100001 15228955
-0.084584765 0.052428573 0.73400003 14110474
-0.083640002 0.052714288 0.73800004 14369024
-0.082345717 0.052785717 0.73900002 16737556
-0.080938093 0.052785717 0.73900002 15565918
-0.079853341 0.052999999 0.74200004 16684399
-0.078651428 0.053142861 0.74400002 15767924
-0.077026673 0.052999999 0.74200004 15241580
-0.075613335 0.052999999 0.74200004 15566445
-0.074200004 0.052999999 0.74200004 15303273
-0.072786666 0.052999999 0.74200004 15566184
-0.071277149 0.052928574 0.74100006 15763563
-0.069865718 0.052928574 0.74100006 15363174
-0.068454288 0.052928574 0.74100006 14902623
-0.067042857 0.052928574 0.74100006 15298117
-0.065720007 0.052999999 0.74200004 15627082
-0.064306669 0.052999999 0.74200004 14444625
-0.062893331 0.052999999 0.74200004 12865593
-0.061480001 0.052999999 0.74200004 13195520
-0.05998572 0.052928574 0.74100006 14511376
-0.058574289 0.052928574 0.74100006 13851423
-0.057162859 0.052928574 0.74100006 12535563
-0.055751432 0.052928574 0.74100006 13911090
-0.054340001 0.052928574 0.74100006 15095364
-0.052928574 0.052928574 0.74100006 14243889
-0.051378097 0.052785717 0.73900002 14507061
-0.049970478 0.052785717 0.73900002 13722683
-0.04869429 0.052928574 0.74100006 12998960
-0.047155239 0.052785717 0.73900002 11288612
-0.045747619 0.052785717 0.73900002 9906959
-0.14608286 0.054340001 0.74100006 10119751
-0.14467144 0.054340001 0.74100006 14198917
-0.14345334 0.054413334 0.74200004 15384594
-0.14204001 0.054413334 0.74200004 16371489
-0.14062667 0.054413334 0.74200004 15912960
-0.13921334 0.054413334 0.74200004 16373510
-0.13780001 0.054413334 0.74200004 16047616
-0.13638668 0.054413334 0.74200004 16508160
-0.13497335 0.054413334 0.74200004 16244312
-0.13356 0.054413334 0.74200004 16310105
-0.13214667 0.054413334 0.74200004 16244069
-0.13073334 0.054413334 0.74200004 16244069
-0.12966858 0.054560002 0.74400002 15581621
-0.12790667 0.054413334 0.74200004 15647414
-0.12649333 0.054413334 0.74200004 15379846
-0.12491144 0.054340001 0.74100006 16103569
-0.1235 0.054340001 0.74100006 15971485
-0.12208858 0.054340001 0.74100006 16432036
-0.12067715 0.054340001 0.74100006 16171692
-0.11926573 0.054340001 0.74100006 16369071
-0.11785429 0.054340001 0.74100006 16241354
-0.11644286 0.054340001 0.74100006 15649217
-0.11472096 0.054193333 0.73900002 16171191
-0.11316001 0.054120004 0.73800004 14986917
-0.11114857 0.053826667 0.73400003 12417112
-0.10915238 0.053533334 0.73000002 8930083
-0.10746667 0.05338667 0.72800004 11742720
-0.10608001 0.05338667 0.72800004 13453326
-0.10454953 0.053313337 0.72700006 14310144
-0.10316477 0.053313337 0.72700006 15099648
-0.10178001 0.053313337 0.72700006 15164182
-0.10039525 0.053313337 0.72700006 15032596
-0.099010482 0.053313337 0.72700006 15097092
-0.097625725 0.053313337 0.72700006 14965506
-0.09624096 0.053313337 0.72700006 15096064
-0.094856195 0.053313337 0.72700006 14898688
-0.09347143 0.053313337 0.72700006 15028736
-0.092086673 0.053313337 0.72700006 15028736
-0.090701908 0.053313337 0.72700006 15028992
-0.089440003 0.05338667 0.72800004 15621120
-0.088053338 0.05338667 0.72800004 15228948
-0.086904764 0.053533334 0.73000002 15031569
-0.08563143 0.053606667 0.73100001 15095808
-0.084815241 0.053973336 0.73600006 13779968
-0.083640002 0.054120004 0.73800004 14365440
-0.082234286 0.054120004 0.73800004 16738855
-0.080938093 0.054193333 0.73900002 15767181
-0.079530478 0.054193333 0.73900002 16096146
-0.078440003 0.054413334 0.74200004 15769480
-0.076922864 0.054340001 0.74100006 14914171
-0.075511433 0.054340001 0.74100006 15699323
-0.07410001 0.054340001 0.74100006 15567737
-0.07268858 0.054340001 0.74100006 15632999
-0.07108476 0.054193333 0.73900002 15632999
-0.069677144 0.054193333 0.73900002 15498353
-0.068269521 0.054193333 0.73900002 15037802
-0.066861905 0.054193333 0.73900002 15429971
-0.065454289 0.054193333 0.73900002 15298385
-0.064220004 0.054340001 0.74100006 15231820
-0.062808573 0.054340001 0.74100006 13521202
-0.061397146 0.054340001 0.74100006 14244883
-0.059823811 0.054193333 0.73900002 15165985
-0.058416191 0.054193333 0.73900002 14705708
-0.057008572 0.054193333 0.73900002 14376743
-0.055600952 0.054193333 0.73900002 14442288
-0.054193333 0.054193333 0.73900002 14837046
-0.052785717 0.054193333 0.73900002 14772545
-0.051308576 0.054120004 0.73800004 15101510
-0.04990286 0.054120004 0.73800004 13921622
-0.048562858 0.054193333 0.73900002 12803141
-0.047091432 0.054120004 0.73800004 11421477
-0.045685716 0.054120004 0.73800004 9776652
-0.14608286 0.055751432 0.74100006 10512965
-0.14467144 0.055751432 0.74100006 14657924
-0.14326 0.055751432 0.74100006 15581184
-0.14184858 0.055751432 0.74100006 16239104
-0.14043716 0.055751432 0.74100006 16042806
-0.13902572 0.055751432 0.74100006 15713841
-0.13780001 0.055826671 0.74200004 15979008
-0.13620287 0.055751432 0.74100006 15979008
-0.13479143 0.055751432 0.74100006 15979008
-0.13338001 0.055751432 0.74100006 16044800
-0.13196859 0.055751432 0.74100006 15979008
-0.13055715 0.055751432 0.74100006 16769280
-0.12914573 0.055751432 0.74100006 16306617
-0.12738952 0.055600952 0.73900002 15253929
-0.12598191 0.055600952 0.73900002 15773795
-0.1245743 0.055600952 0.73900002 16760690
-0.12316667 0.055600952 0.73900002 16108682
-0.12175905 0.055600952 0.73900002 16240268
-0.12035143 0.055600952 0.73900002 16108441
-0.11894382 0.055600952 0.73900002 15713683
-0.11753619 0.055600952 0.73900002 16106675
-0.11612858 0.055600952 0.73900002 16369847
-0.11456572 0.055525716 0.73800004 16043958
-0.11285334 0.055375241 0.73600006 15649200
-0.11114857 0.055224765 0.73400003 14729093
-0.10915238 0.05492381 0.73000002 12097373
-0.10746667 0.054773338 0.72800004 12218394
-0.10608001 0.054773338 0.72800004 9718272
-0.10454953 0.054698102 0.72700006 12465152
-0.10316477 0.054698102 0.72700006 14438932
-0.10178001 0.054698102 0.72700006 14570265
-0.10039525 0.054698102 0.72700006 14899230
-0.099010482 0.054698102 0.72700006 15096583
-0.097625725 0.054698102 0.72700006 15228169
-0.09624096 0.054698102 0.72700006 15096842
-0.094856195 0.054698102 0.72700006 15228428
-0.09347143 0.054698102 0.72700006 15162387
-0.092086673 0.054698102 0.72700006 14899215
-0.090701908 0.054698102 0.72700006 15028992
-0.089440003 0.054773338 0.72800004 15160576
-0.088295236 0.05492381 0.73000002 14827520
-0.086904764 0.05492381 0.73000002 13314304
-0.08563143 0.054999046 0.73100001 13833472
-0.084584765 0.055224765 0.73400003 16734776
-0.08341334 0.055375241 0.73600006 15836801
-0.082011431 0.055375241 0.73600006 16763814
-0.08082857 0.055525716 0.73800004 16305864
-0.079530478 0.055600952 0.73900002 15516348
-0.078334294 0.055751432 0.74100006 16103582
-0.076715238 0.055600952 0.73900002 15708824
-0.075307623 0.055600952 0.73900002 16036002
-0.073899999 0.055600952 0.73900002 15772830
-0.072492383 0.055600952 0.73900002 15902844
-0.070988573 0.055525716 0.73800004 15442293
-0.069582857 0.055525716 0.73800004 15768980
-0.068177149 0.055525716 0.73800004 15703187
-0.066771425 0.055525716 0.73800004 15702122
-0.065454289 0.055600952 0.73900002 14846813
-0.064046666 0.055600952 0.73900002 15565657
