# .PCD v0.7 - Point Cloud Data file format
VERSION 0.7
FIELDS x y z rgba
SIZE 4 4 4 4
TYPE F F F U
COUNT 1 1 1 1
WIDTH 1090
HEIGHT 1
VIEWPOINT 0 0 0 1 0 0 0
POINTS 1090
DATA ascii
-0.11328001 0.065920003 0.67200005 13387523
-0.10866667 0.063958094 0.65200001 14698252
-0.10709524 0.063761905 0.65000004 16014112
-0.10585715 0.063761905 0.65000004 15097856
-0.10461906 0.063761905 0.65000004 15163648
-0.10338096 0.063761905 0.65000004 15162887
-0.10214286 0.063761905 0.65000004 15228680
-0.10090476 0.063761905 0.65000004 15163144
-0.099666677 0.063761905 0.65000004 15163144
-0.098428577 0.063761905 0.65000004 15163136
-0.097190477 0.063761905 0.65000004 15163136
-0.095952384 0.063761905 0.65000004 15097600
-0.094568573 0.063663818 0.64900005 15294976
-0.093332388 0.063663818 0.64900005 15162887
-0.092096195 0.063663818 0.64900005 15162887
-0.090860009 0.063663818 0.64900005 15096842
-0.089623809 0.063663818 0.64900005 15096842
-0.088387623 0.063663818 0.64900005 15096833
-0.087151438 0.063663818 0.64900005 15228419
-0.085915245 0.063663818 0.64900005 15097351
-0.084809527 0.063761905 0.65000004 15821074
-0.083571434 0.063761905 0.65000004 15229954
-0.082333334 0.063761905 0.65000004 14900992
-0.081469528 0.064056195 0.65300006 15163148
-0.080225721 0.064056195 0.65300006 13189376
-0.078981914 0.064056195 0.65300006 14760739
-0.079404771 0.065429524 0.66700006 16734786
-0.078134291 0.065429524 0.66700006 15295303
-0.076863818 0.065429524 0.66700006 15229510
-0.075706668 0.065527618 0.66800004 15162436
-0.074434288 0.065527618 0.66800004 15228229
-0.073052391 0.065429524 0.66700006 15162436
-0.071781911 0.065429524 0.66700006 15491401
-0.070511431 0.065429524 0.66700006 15295805
-0.069240957 0.065429524 0.66700006 12400913
-0.068072386 0.065527618 0.66800004 13380436
-0.066999994 0.065723814 0.67000002 14367331
-0.065723814 0.065723814 0.67000002 14243923
-0.064447619 0.065723814 0.67000002 16612471
-0.063171431 0.065723814 0.67000002 15700870
-0.061895236 0.065723814 0.67000002 16424593
-0.060619049 0.065723814 0.67000002 15901609
-0.059165716 0.065527618 0.66800004 15046300
-0.057893336 0.065527618 0.66800004 15567717
-0.056620955 0.065527618 0.66800004 14449236
-0.055348575 0.065527618 0.66800004 15364652
-0.054076191 0.065527618 0.66800004 14311964
-0.052803814 0.065527618 0.66800004 15162633
-0.05153143 0.065527618 0.66800004 15228426
-0.05025905 0.065527618 0.66800004 15300352
-0.04898667 0.065527618 0.66800004 16418816
-0.047857143 0.065723814 0.67000002 14645799
-0.046580952 0.065723814 0.67000002 9053440
-0.045372378 0.065821901 0.671 10494215
-0.1450638 0.067100003 0.671 12816190
-0.14314286 0.066800006 0.66800004 16237426
-0.14187048 0.066800006 0.66800004 15188992
-0.1405981 0.066800006 0.66800004 14991616
-0.13932572 0.066800006 0.66800004 13943129
-0.13805334 0.066800006 0.66800004 15916919
-0.13678096 0.066800006 0.66800004 14146439
-0.13530573 0.066700004 0.66700006 12435821
-0.13403524 0.066700004 0.66700006 10917275
-0.13276477 0.066700004 0.66700006 10917275
-0.1314943 0.066700004 0.66700006 11503513
-0.13022383 0.066700004 0.66700006 11108755
-0.12876 0.066600002 0.66600001 10573151
-0.12749143 0.066600002 0.66600001 10507358
-0.12584381 0.066399999 0.66400003 12139310
-0.12457906 0.066399999 0.66400003 14244686
-0.12331429 0.066399999 0.66400003 13525072
-0.12241714 0.066600002 0.66600001 14446174
-0.12114857 0.066600002 0.66600001 13853533
-0.12006001 0.066700004 0.66700006 13261396
-0.11878953 0.066700004 0.66700006 13842527
-0.11769524 0.066800006 0.66800004 13974113
-0.11642287 0.066800006 0.66800004 14104626
-0.11515048 0.066800006 0.66800004 13249317
-0.1138781 0.066800006 0.66800004 13445632
-0.10957143 0.064999998 0.65000004 13248256
-0.10833334 0.064999998 0.65000004 14567168
-0.10693048 0.064900003 0.64900005 16211991
-0.10569429 0.064900003 0.64900005 15164161
-0.1044581 0.064900003 0.64900005 15032576
-0.10338096 0.064999998 0.65000004 15163650
-0.10198572 0.064900003 0.64900005 15163650
-0.10074953 0.064900003 0.64900005 15163146
-0.099513337 0.064900003 0.64900005 15163146
-0.098277152 0.064900003 0.64900005 15163146
-0.097040959 0.064900003 0.64900005 15097353
-0.095804766 0.064900003 0.64900005 15097856
-0.094568573 0.064900003 0.64900005 15032064
-0.093332388 0.064900003 0.64900005 15096064
-0.092096195 0.064900003 0.64900005 15161856
-0.090860009 0.064900003 0.64900005 15031296
-0.089623809 0.064900003 0.64900005 14899712
-0.088387623 0.064900003 0.64900005 15030784
-0.087151438 0.064900003 0.64900005 15359744
-0.085915245 0.064900003 0.64900005 15163146
-0.084679052 0.064900003 0.64900005 15557904
-0.083571434 0.064999998 0.65000004 15164686
-0.082333334 0.064999998 0.65000004 14638342
-0.081344761 0.065200001 0.65200001 14570240
-0.080225721 0.065300003 0.65300006 13057024
-0.078981914 0.065300003 0.65300006 15026453
-0.079047628 0.066399999 0.66400003 16737071
-0.077782862 0.066399999 0.66400003 15230021
-0.076518096 0.066399999 0.66400003 15098435
-0.075479999 0.066600002 0.66600001 15162690
-0.074322864 0.066700004 0.66700006 15228483
-0.07294286 0.066600002 0.66600001 15228229
-0.071674287 0.066600002 0.66600001 15622987
-0.070405714 0.066600002 0.66600001 15297345
-0.069137141 0.066600002 0.66600001 12731418
-0.067868568 0.066600002 0.66600001 13577262
-0.066600002 0.066600002 0.66600001 14695743
-0.065331429 0.066600002 0.66600001 14439755
-0.064062856 0.066600002 0.66600001 16743024
-0.062888578 0.066700004 0.66700006 15766419
-0.061618101 0.066700004 0.66700006 16490142
-0.060438097 0.066800006 0.66800004 15901355
-0.059077147 0.066700004 0.66700006 15046046
-0.057806671 0.066700004 0.66700006 15699582
-0.056536198 0.066700004 0.66700006 14383722
-0.055182859 0.066600002 0.66600001 15299111
-0.053914286 0.066600002 0.66600001 13522700
-0.052645713 0.066600002 0.66600001 14763782
-0.05137714 0.066600002 0.66600001 15553298
-0.050108574 0.066600002 0.66600001 15229450
-0.048913337 0.066700004 0.66700006 16084759
-0.047642861 0.066700004 0.66700006 14315826
-0.046580952 0.066999994 0.67000002 9776128
-0.045372378 0.067100003 0.671 10495496
-0.14441526 0.068072386 0.66800004 13608517
-0.14314286 0.068072386 0.66800004 16768123
-0.14187048 0.068072386 0.66800004 16181278
-0.1405981 0.068072386 0.66800004 15983899
-0.13932572 0.068072386 0.66800004 16113920
-0.13784668 0.067970477 0.66700006 16245504
-0.13657621 0.067970477 0.66700006 15391762
-0.13530573 0.067970477 0.66700006 13812736
-0.13383429 0.067868568 0.66600001 13278336
-0.13256571 0.067868568 0.66600001 13344129
-0.13129714 0.067868568 0.66600001 13141642
-0.13002858 0.067868568 0.66600001 13010056
-0.12837334 0.067664765 0.66400003 14059386
-0.12691715 0.067562856 0.66300005 14125179
-0.1256543 0.067562856 0.66300005 14843769
-0.12439144 0.067562856 0.66300005 15567492
-0.12331429 0.067664765 0.66400003 15501931
-0.12204953 0.067664765 0.66400003 15567724
-0.12078477 0.067664765 0.66400003 15369843
-0.11988 0.067868568 0.66600001 15961980
-0.11861143 0.067868568 0.66600001 15565943
-0.11734285 0.067868568 0.66600001 14842220
-0.11607429 0.067868568 0.66600001 15232315
-0.11480572 0.067868568 0.66600001 13455904
-0.11353715 0.067868568 0.66600001 13450789
-0.10957143 0.066238098 0.65000004 12529687
-0.10833334 0.066238098 0.65000004 13711649
-0.10693048 0.066136196 0.64900005 15488060
-0.10553142 0.066034287 0.648 15098112
-0.10429715 0.066034287 0.648 15295488
-0.10322192 0.066136196 0.64900005 15163904
-0.10198572 0.066136196 0.64900005 15229696
-0.10074953 0.066136196 0.64900005 15163144
-0.099513337 0.066136196 0.64900005 15097351
-0.098125711 0.066034287 0.648 15162635
-0.096891426 0.066034287 0.648 14965256
-0.095657147 0.066034287 0.648 15029760
-0.094422854 0.066034287 0.648 15095552
-0.093188569 0.066034287 0.648 15028992
-0.091954283 0.066034287 0.648 15423744
-0.090719998 0.066034287 0.648 15229450
-0.089485712 0.066034287 0.648 16150552
-0.088251427 0.066034287 0.648 15299620
-0.087017149 0.066034287 0.648 15299620
-0.085782856 0.066034287 0.648 15231251
-0.084679052 0.066136196 0.64900005 14902286
-0.083442859 0.066136196 0.64900005 15165188
-0.082333334 0.066238098 0.65000004 14836224
-0.081344761 0.066441901 0.65200001 14504973
-0.080225721 0.066543818 0.65300006 12531200
-0.079102859 0.066645719 0.65400004 14961920
-0.078333341 0.06705334 0.65800005 16741669
-0.077665716 0.067562856 0.66300005 15431245
-0.076402865 0.067562856 0.66300005 15102280
-0.075253338 0.067664765 0.66400003 15296841
-0.074211434 0.067868568 0.66600001 15165255
-0.07294286 0.067868568 0.66600001 15229521
-0.071459055 0.067664765 0.66400003 15361107
-0.070194289 0.067664765 0.66400003 15298108
-0.068929531 0.067664765 0.66400003 15692866
-0.067664765 0.067664765 0.66400003 14836294
-0.066399999 0.067664765 0.66400003 14309950
-0.065135241 0.067664765 0.66400003 14440800
-0.064062856 0.067868568 0.66600001 16546176
-0.062794283 0.067868568 0.66600001 15701381
-0.06152571 0.067868568 0.66600001 15832967
-0.060257144 0.067868568 0.66600001 15766932
-0.058988571 0.067868568 0.66600001 15635346
-0.057719998 0.067868568 0.66600001 15635570
-0.056451429 0.067868568 0.66600001 14319710
-0.055182859 0.067868568 0.66600001 15298825
-0.053914286 0.067868568 0.66600001 13851392
-0.052645713 0.067868568 0.66600001 14896938
-0.05137714 0.067868568 0.66600001 15094317
-0.050108574 0.067868568 0.66600001 14832415
-0.048840001 0.067868568 0.66600001 15490345
-0.047571428 0.067868568 0.66600001 13789482
-0.046302855 0.067868568 0.66600001 10697216
-0.14419906 0.069240957 0.66700006 14005565
-0.14292859 0.069240957 0.66700006 16769642
-0.14165811 0.069240957 0.66700006 16247841
-0.14038762 0.069240957 0.66700006 16379427
-0.13911715 0.069240957 0.66700006 16248845
-0.13764 0.069137141 0.66600001 16577810
-0.13596192 0.068929531 0.66400003 16312663
-0.13469715 0.068929531 0.66400003 15852112
-0.13343239 0.068929531 0.66400003 16108691
-0.13196859 0.068825722 0.66300005 14924417
-0.13070573 0.068825722 0.66300005 15903646
-0.12944287 0.068825722 0.66300005 15706267
-0.12818 0.068825722 0.66300005 15836841
-0.12691715 0.068825722 0.66300005 14784153
-0.1256543 0.068825722 0.66300005 15169906
-0.12439144 0.068825722 0.66300005 16091008
-0.12312857 0.068825722 0.66300005 15566713
-0.12186572 0.068825722 0.66300005 15303541
-0.12078477 0.068929531 0.66400003 15564412
-0.11952001 0.068929531 0.66400003 16353928
-0.11825524 0.068929531 0.66400003 15632023
-0.11699048 0.068929531 0.66400003 15500437
-0.11572572 0.068929531 0.66400003 15364198
-0.11446096 0.068929531 0.66400003 13653580
-0.11319619 0.068929531 0.66400003 13321754
-0.10957143 0.067476198 0.65000004 11940101
-0.10833334 0.067476198 0.65000004 13385984
-0.10693048 0.067372382 0.64900005 14899222
-0.10553142 0.067268573 0.648 15030272
-0.10429715 0.067268573 0.648 15556612
-0.10322192 0.067372382 0.64900005 15164432
-0.10182857 0.067268573 0.648 15032846
-0.10059428 0.067268573 0.648 15163396
-0.099513337 0.067372382 0.64900005 14966017
-0.098125711 0.067268573 0.648 15031552
-0.096891426 0.067268573 0.648 15031552
-0.095657147 0.067268573 0.648 15096583
-0.094277143 0.067164764 0.64700001 15293962
-0.093044758 0.067164764 0.64700001 15229473
-0.091954283 0.067268573 0.648 15690024
-0.090580001 0.067164764 0.64700001 15565941
-0.089347623 0.067164764 0.64700001 15434355
-0.088251427 0.067268573 0.648 15500098
-0.086882859 0.067164764 0.64700001 14842168
-0.085650474 0.067164764 0.64700001 15296559
-0.08454857 0.067268573 0.648 15033387
-0.083442859 0.067372382 0.64900005 15163666
-0.082333334 0.067476198 0.65000004 14768908
-0.081344761 0.067683809 0.65200001 14373120
-0.080225721 0.067787625 0.65300006 13254656
-0.079102859 0.067891434 0.65400004 15027467
-0.078333341 0.06830667 0.65800005 16742197
-0.077431425 0.068618096 0.66100001 15432538
-0.07628762 0.068721905 0.66200006 15037780
-0.075139999 0.068825722 0.66300005 15430223
-0.073988572 0.068929531 0.66400003 14969672
-0.072723806 0.068929531 0.66400003 15296841
-0.071459055 0.068929531 0.66400003 15362634
-0.070194289 0.068929531 0.66400003 15296341
-0.068929531 0.068929531 0.66400003 15493720
-0.067664765 0.068929531 0.66400003 15297858
-0.066399999 0.068929531 0.66400003 15034686
-0.065135241 0.068929531 0.66400003 14772822
-0.063870475 0.068929531 0.66400003 15364959
-0.062605716 0.068929531 0.66400003 14972509
-0.061340958 0.068929531 0.66400003 14906716
-0.060076192 0.068929531 0.66400003 15104849
-0.05881143 0.068929531 0.66400003 15368021
-0.057546668 0.068929531 0.66400003 15564385
-0.056281909 0.068929531 0.66400003 15169627
-0.055017143 0.068929531 0.66400003 14968356
-0.053752381 0.068929531 0.66400003 14507805
-0.052487623 0.068929531 0.66400003 15161398
-0.051222861 0.068929531 0.66400003 15292984
-0.049958095 0.068929531 0.66400003 14505510
-0.048693337 0.068929531 0.66400003 14505510
-0.047357146 0.068825722 0.66300005 13261875
-0.046094287 0.068825722 0.66300005 10695948
-0.14398286 0.070405714 0.66600001 14597411
-0.14271429 0.070405714 0.66600001 16770379
-0.14102095 0.070194289 0.66400003 16182784
-0.13975619 0.070194289 0.66400003 16051200
-0.13849142 0.070194289 0.66400003 16183296
-0.13702002 0.070088573 0.66300005 16775424
-0.13555239 0.069982864 0.66200006 16313176
-0.13429144 0.069982864 0.66200006 15523660
-0.13303047 0.069982864 0.66200006 16040061
-0.13176954 0.069982864 0.66200006 14987373
-0.13050859 0.069982864 0.66200006 15902622
-0.12944287 0.070088573 0.66300005 15771036
-0.12798668 0.069982864 0.66200006 15901096
-0.12672572 0.069982864 0.66200006 15769510
-0.12546477 0.069982864 0.66200006 15903649
-0.12439144 0.070088573 0.66300005 16364200
-0.12294286 0.069982864 0.66200006 15700376
-0.12168191 0.069982864 0.66200006 14252930
-0.12060287 0.070088573 0.66300005 15566766
-0.11934 0.070088573 0.66300005 16755409
-0.11807715 0.070088573 0.66300005 16036775
-0.11681429 0.070088573 0.66300005 14062985
-0.11555143 0.070088573 0.66300005 14637424
-0.11428858 0.070088573 0.66300005 13979494
-0.11302572 0.070088573 0.66300005 13192221
-0.10957143 0.068714283 0.65000004 11218432
-0.10833334 0.068714283 0.65000004 12532240
-0.10693048 0.068608582 0.64900005 13321756
-0.10553142 0.068502858 0.648 14700800
-0.10429715 0.068502858 0.648 15292928
-0.10306286 0.068502858 0.648 15164416
-0.10182857 0.068502858 0.648 15230208
-0.10059428 0.068502858 0.648 15163655
-0.099360004 0.068502858 0.648 15689999
-0.098125711 0.068502858 0.648 15166464
-0.096891426 0.068502858 0.648 16745738
-0.095509529 0.068397142 0.64700001 15702876
-0.094277143 0.068397142 0.64700001 16360806
-0.093044758 0.068397142 0.64700001 15837060
-0.09181238 0.068397142 0.64700001 16363404
-0.090580001 0.068397142 0.64700001 15697818
-0.089347623 0.068397142 0.64700001 14513544
-0.088251427 0.068502858 0.648 15165952
-0.086882859 0.068397142 0.64700001 14705408
-0.085650474 0.068397142 0.64700001 15162145
-0.08454857 0.068502858 0.648 15293731
-0.083442859 0.068608582 0.64900005 15164436
-0.082333334 0.068714283 0.65000004 14177541
-0.081469528 0.06903144 0.65300006 14501132
-0.080348574 0.069137141 0.65400004 14895890
-0.079465717 0.06945429 0.65700001 15091030
-0.078333341 0.069559999 0.65800005 16742537
-0.077197149 0.069665715 0.65900004 15699312
-0.075941913 0.069665715 0.65900004 15436140
-0.074913338 0.069877148 0.66100001 15566945
-0.073877148 0.070088573 0.66300005 15106394
-0.07261429 0.070088573 0.66300005 15499857
-0.071351431 0.070088573 0.66300005 16289373
-0.070088573 0.070088573 0.66300005 15499898
-0.068721905 0.069982864 0.66200006 14184038
-0.067460962 0.069982864 0.66200006 15298619
-0.06620001 0.069982864 0.66200006 15956549
-0.06484095 0.069877148 0.66100001 15498833
-0.063581906 0.069877148 0.66100001 14511938
-0.062322859 0.069877148 0.66100001 14312492
-0.061063815 0.069877148 0.66100001 13259804
-0.059895243 0.069982864 0.66200006 13589504
-0.058634292 0.069982864 0.66200006 13852672
-0.057373337 0.069982864 0.66200006 14177298
-0.056112386 0.069982864 0.66200006 13387782
-0.054851435 0.069982864 0.66200006 14306073
-0.05359048 0.069982864 0.66200006 15358761
-0.052329529 0.069982864 0.66200006 14899757
-0.051068578 0.069982864 0.66200006 15031343
-0.049807623 0.069982864 0.66200006 14373926
-0.048546668 0.069982864 0.66200006 14110754
-0.047285721 0.069982864 0.66200006 13064253
-0.046024766 0.069982864 0.66200006 10498326
-0.044763811 0.069982864 0.66200006 10760476
-0.14333428 0.071351431 0.66300005 15649049
-0.14207143 0.071351431 0.66300005 16770614
-0.14080858 0.071351431 0.66300005 16247589
-0.13954572 0.071351431 0.66300005 16116003
-0.13828287 0.071351431 0.66300005 16183808
-0.13681334 0.071243815 0.66200006 16775936
-0.13555239 0.071243815 0.66200006 16379982
-0.13408858 0.071136191 0.66100001 14866743
-0.13282953 0.071136191 0.66100001 15843341
-0.13117239 0.070920952 0.65900004 16632857
-0.12991714 0.070920952 0.65900004 16105640
-0.12846668 0.070813335 0.65800005 16039847
-0.12721334 0.070813335 0.65800005 16105659
-0.12615144 0.070920952 0.65900004 16237245
-0.1248962 0.070920952 0.65900004 16238781
-0.12364096 0.070920952 0.65900004 16370367
-0.12238572 0.070920952 0.65900004 16036023
-0.1214981 0.071136191 0.66100001 15378093
-0.12023905 0.071136191 0.66100001 15969210
-0.11898 0.071136191 0.66100001 16759754
-0.11772095 0.071136191 0.66100001 16171727
-0.11610953 0.070920952 0.65900004 14461109
-0.11485429 0.070920952 0.65900004 15430285
-0.11342667 0.070813335 0.65800005 15101320
-0.1116619 0.070490479 0.65500003 14050424
-0.11007715 0.070275247 0.65300006 11352911
-0.10833334 0.069952384 0.65000004 11874560
-0.10676572 0.069737144 0.648 12400904
-0.10553142 0.069737144 0.648 13979904
-0.10429715 0.069737144 0.648 15098368
-0.10306286 0.069737144 0.648 15162885
-0.10182857 0.069737144 0.648 15294471
-0.10059428 0.069737144 0.648 15163148
-0.099360004 0.069737144 0.648 16150043
-0.097974285 0.06962952 0.64700001 15364125
-0.096741907 0.06962952 0.64700001 16746035
-0.095509529 0.06962952 0.64700001 15768437
-0.094131432 0.069521904 0.64600003 15768437
-0.092900954 0.069521904 0.64600003 15702135
-0.091670483 0.069521904 0.64600003 15702135
-0.090440005 0.069521904 0.64600003 15498090
-0.089209527 0.069521904 0.64600003 14774367
-0.088251427 0.069737144 0.648 15096835
-0.087017149 0.069737144 0.648 14899456
-0.085782856 0.069737144 0.648 15094807
-0.08454857 0.069737144 0.648 15357979
-0.083314285 0.069737144 0.648 15228959
-0.082586668 0.070167623 0.65200001 13584134
-0.081594288 0.070382863 0.65400004 14365952
-0.080348574 0.070382863 0.65400004 16736284
-0.079465717 0.070705712 0.65700001 15432029
-0.078333341 0.070813335 0.65800005 16616303
-0.077197149 0.070920952 0.65900004 15767928
-0.075941913 0.070920952 0.65900004 15241584
-0.074686669 0.070920952 0.65900004 15633010
-0.073654287 0.071136191 0.66100001 15369838
-0.072395235 0.071136191 0.66100001 15565407
-0.071136191 0.071136191 0.66100001 16223337
-0.069877148 0.071136191 0.66100001 15632256
-0.068618096 0.071136191 0.66100001 14447982
-0.067359053 0.071136191 0.66100001 15363397
-0.065900005 0.070920952 0.65900004 15889741
-0.064644769 0.070920952 0.65900004 15432281
-0.063389532 0.070920952 0.65900004 14708558
-0.062322859 0.071136191 0.66100001 14246949
-0.061063815 0.071136191 0.66100001 13194261
-0.059804764 0.071136191 0.66100001 13191680
-0.058545712 0.071136191 0.66100001 13257472
-0.057286669 0.071136191 0.66100001 13780224
-0.056027621 0.071136191 0.66100001 13846016
-0.05476857 0.071136191 0.66100001 14239488
-0.053509526 0.071136191 0.66100001 15489551
-0.052250478 0.071136191 0.66100001 14769191
-0.050991427 0.071136191 0.66100001 14900777
-0.049732383 0.071136191 0.66100001 14309675
-0.048473332 0.071136191 0.66100001 14572847
-0.047214285 0.071136191 0.66100001 12802101
-0.045955241 0.071136191 0.66100001 10104588
-0.044763811 0.071243815 0.66200006 10628881
-0.14437905 0.072504766 0.66200006 13740681
-0.14311811 0.072504766 0.66200006 15649280
-0.14164287 0.072395235 0.66100001 16701952
-0.13995907 0.072176196 0.65900004 16114432
-0.13870381 0.072176196 0.65900004 15982848
-0.13724001 0.072066672 0.65800005 16182016
-0.13598667 0.072066672 0.65800005 16642560
-0.13473335 0.072066672 0.65800005 16248625
-0.13348001 0.072066672 0.65800005 16117039
-0.13222668 0.072066672 0.65800005 16246317
-0.13097335 0.072066672 0.65800005 16774717
-0.12972 0.072066672 0.65800005 16444056
-0.12846668 0.072066672 0.65800005 14865024
-0.12721334 0.072066672 0.65800005 16107708
-0.12596001 0.072066672 0.65800005 16568259
-0.12470668 0.072066672 0.65800005 16240827
-0.12364096 0.072176196 0.65900004 16767428
-0.12220001 0.072066672 0.65800005 16171214
-0.12094668 0.072066672 0.65800005 15315905
-0.11987524 0.072176196 0.65900004 16036305
-0.11862001 0.072176196 0.65900004 16763112
-0.11736477 0.072176196 0.65900004 16373465
-0.11610953 0.072176196 0.65900004 16636637
-0.11485429 0.072176196 0.65900004 16374991
-0.11342667 0.072066672 0.65800005 15190717
-0.1116619 0.071738102 0.65500003 15834558
-0.11007715 0.071519054 0.65300006 11426427
-0.10866667 0.071409523 0.65200001 11352881
-0.10676572 0.070971422 0.648 11023916
-0.10553142 0.070971422 0.648 12796160
-0.10429715 0.070971422 0.648 14112005
-0.10306286 0.070971422 0.648 14504716
-0.10182857 0.070971422 0.648 14702095
-0.10059428 0.070971422 0.648 15096070
-0.099360004 0.070971422 0.648 15161863
-0.097520009 0.070533335 0.64400005 15095552
-0.096293338 0.070533335 0.64400005 15161344
-0.094919048 0.070423812 0.64300001 14962432
-0.093694285 0.070423812 0.64300001 14633472
-0.092613339 0.070533335 0.64400005 14960896
-0.091386676 0.070533335 0.64400005 15289856
-0.090160005 0.070533335 0.64400005 14961664
-0.088933334 0.070533335 0.64400005 15159040
-0.088251427 0.070971422 0.648 15094039
-0.086882859 0.070861906 0.64700001 15225625
-0.085650474 0.070861906 0.64700001 15161121
-0.08454857 0.070971422 0.648 15358500
-0.083314285 0.070971422 0.648 14830109
-0.082586668 0.071409523 0.65200001 12395776
-0.081594288 0.071628578 0.65400004 13768472
-0.080717139 0.071957141 0.65700001 16745605
-0.079586677 0.072066672 0.65800005 16040086
-0.078333341 0.072066672 0.65800005 15776914
-0.077080004 0.072066672 0.65800005 16038028
-0.075826667 0.072066672 0.65800005 15248512
-0.074573338 0.072066672 0.65800005 15767183
-0.073431432 0.072176196 0.65900004 15635597
-0.072176196 0.072176196 0.65900004 15700859
-0.070920952 0.072176196 0.65900004 15635066
-0.069665715 0.072176196 0.65900004 15565693
-0.068410479 0.072176196 0.65900004 15236728
-0.067155235 0.072176196 0.65900004 15496536
-0.065900005 0.072176196 0.65900004 15562329
-0.064644769 0.072176196 0.65900004 15431252
-0.063389532 0.072176196 0.65900004 15431252
-0.062134288 0.072176196 0.65900004 15364689
-0.060879052 0.072176196 0.65900004 15430482
-0.059623811 0.072176196 0.65900004 15364664
-0.058368575 0.072176196 0.65900004 15233078
-0.057113335 0.072176196 0.65900004 15297345
-0.055858098 0.072176196 0.65900004 15297345
-0.054602861 0.072176196 0.65900004 15364167
-0.053347621 0.072176196 0.65900004 15956304
-0.052092385 0.072176196 0.65900004 15498322
-0.050837144 0.072176196 0.65900004 15629908
-0.049581908 0.072176196 0.65900004 15566413
-0.048326671 0.072176196 0.65900004 14842690
-0.047071431 0.072176196 0.65900004 13395769
-0.045816191 0.072176196 0.65900004 9711361
-0.044696189 0.072395235 0.66100001 10431770
-0.14623524 0.073431432 0.65900004 8549467
-0.14498 0.073431432 0.65900004 10712913
-0.14372477 0.073431432 0.65900004 14199942
-0.14246953 0.073431432 0.65900004 15845632
-0.1412143 0.073431432 0.65900004 16635147
-0.13974668 0.073320009 0.65800005 16044327
-0.13849334 0.073320009 0.65800005 16044327
-0.13703142 0.07320857 0.65700001 16114944
-0.13577999 0.07320857 0.65700001 16773376
-0.13452858 0.07320857 0.65700001 16248098
-0.13327713 0.07320857 0.65700001 16248098
-0.13202572 0.07320857 0.65700001 16181265
-0.13077429 0.07320857 0.65700001 16775201
-0.12952286 0.07320857 0.65700001 16378786
-0.12827143 0.07320857 0.65700001 15391891
-0.12702 0.07320857 0.65700001 15844016
-0.12576857 0.07320857 0.65700001 15646637
-0.12470668 0.073320009 0.65800005 16040831
-0.12345334 0.073320009 0.65800005 16765068
-0.12220001 0.073320009 0.65800005 15977403
-0.12094668 0.073320009 0.65800005 15253680
-0.11969334 0.073320009 0.65800005 15711153
-0.11844 0.073320009 0.65800005 15776946
-0.11718668 0.073320009 0.65800005 15908532
-0.11593334 0.073320009 0.65800005 16766154
-0.11468001 0.073320009 0.65800005 16442324
-0.11290953 0.072985716 0.65500003 16179152
-0.11149143 0.072874293 0.65400004 16105901
-0.11024573 0.072874293 0.65400004 12816251
-0.10883334 0.072762862 0.65300006 12544080
-0.10742477 0.072651431 0.65200001 10570290
-0.10553142 0.072205715 0.648 11942656
-0.10429715 0.072205715 0.648 13126915
-0.10306286 0.072205715 0.648 13784576
-0.10182857 0.072205715 0.648 13916161
-0.10059428 0.072205715 0.648 14572045
-0.099360004 0.072205715 0.648 14506252
-0.097520009 0.071760006 0.64400005 14962176
-0.096293338 0.071760006 0.64400005 14633216
-0.094919048 0.071648575 0.64300001 14894080
-0.093694285 0.071648575 0.64300001 14894080
-0.092613339 0.071760006 0.64400005 14960384
-0.091386676 0.071760006 0.64400005 15355136
-0.090160005 0.071760006 0.64400005 15028992
-0.088933334 0.071760006 0.64400005 15357952
-0.088115238 0.072094291 0.64700001 15096342
-0.086882859 0.072094291 0.64700001 15096342
-0.085650474 0.072094291 0.64700001 15096083
-0.08454857 0.072205715 0.648 14372360
-0.083442859 0.072317146 0.64900005 14499072
-0.082586668 0.072651431 0.65200001 15749123
-0.081594288 0.072874293 0.65400004 15298369
-0.080717139 0.07320857 0.65700001 16753525
-0.079465717 0.07320857 0.65700001 16305605
-0.078214288 0.07320857 0.65700001 15647675
-0.077080004 0.073320009 0.65800005 16039068
-0.075711429 0.07320857 0.65700001 15117966
-0.07446 0.07320857 0.65700001 15901847
-0.073320009 0.073320009 0.65800005 15770261
-0.072066672 0.073320009 0.65800005 15768971
-0.070813335 0.073320009 0.65800005 15637385
-0.069559999 0.073320009 0.65800005 15767424
-0.06830667 0.073320009 0.65800005 14912115
-0.06705334 0.073320009 0.65800005 15565432
-0.065900005 0.073431432 0.65900004 15302260
-0.064546667 0.073320009 0.65800005 15432538
-0.063293338 0.073320009 0.65800005 15103573
-0.062040005 0.073320009 0.65800005 15431516
-0.060786668 0.073320009 0.65800005 15365723
-0.059533339 0.073320009 0.65800005 15497295
-0.058280002 0.073320009 0.65800005 15497295
-0.057026673 0.073320009 0.65800005 15430230
-0.055773336 0.073320009 0.65800005 15232851
-0.054520003 0.073320009 0.65800005 15364167
-0.053266671 0.073320009 0.65800005 15693132
-0.052013338 0.073320009 0.65800005 15366729
-0.050760005 0.073320009 0.65800005 15761487
-0.049506668 0.073320009 0.65800005 15565920
-0.048253335 0.073320009 0.65800005 14579025
-0.047071431 0.073431432 0.65900004 13395269
-0.045816191 0.073431432 0.65900004 9776654
-0.044696189 0.073654287 0.66100001 10234368
-0.14601335 0.074573338 0.65800005 8681053
-0.14476001 0.074573338 0.65800005 11237712
-0.14350668 0.074573338 0.65800005 14658948
-0.14225334 0.074573338 0.65800005 15910912
-0.14100002 0.074573338 0.65800005 16634624
-0.13974668 0.074573338 0.65800005 16044101
-0.13849334 0.074573338 0.65800005 15649343
-0.13703142 0.07446 0.65700001 15981824
-0.13577999 0.07446 0.65700001 16047616
-0.13452858 0.07446 0.65700001 16048128
-0.13327713 0.07446 0.65700001 16113920
-0.1316238 0.074233338 0.65500003 16048640
-0.13037619 0.074233338 0.65500003 16574976
-0.12952286 0.07446 0.65700001 16246631
-0.12827143 0.07446 0.65700001 16707182
-0.12663335 0.074233338 0.65500003 16375483
-0.12538572 0.074233338 0.65500003 14862244
-0.12451714 0.07446 0.65700001 15976527
-0.12326571 0.07446 0.65700001 16766300
-0.12201429 0.07446 0.65700001 16308650
-0.12076285 0.07446 0.65700001 16571822
-0.11951143 0.07446 0.65700001 16308636
-0.11826 0.07446 0.65700001 15321741
-0.11700857 0.07446 0.65700001 16107437
-0.11575714 0.07446 0.65700001 16766138
-0.11415715 0.074233338 0.65500003 16376235
-0.11290953 0.074233338 0.65500003 16442028
-0.11149143 0.07412 0.65400004 16376978
-0.11024573 0.07412 0.65400004 16640150
-0.10883334 0.074006677 0.65300006 15323034
-0.10758953 0.074006677 0.65300006 10322766
-0.10634572 0.074006677 0.65300006 11229184
-0.10510191 0.074006677 0.65300006 10505472
-0.10385811 0.074006677 0.65300006 12862731
-0.10245714 0.073893331 0.65200001 13849626
-0.10059428 0.07344 0.648 14176795
-0.099360004 0.07344 0.648 14571553
-0.09782286 0.073213331 0.64600003 14832920
-0.096592382 0.073213331 0.64600003 14767127
-0.095066674 0.072986677 0.64400005 15028767
-0.093840003 0.072986677 0.64400005 15357732
-0.092613339 0.072986677 0.64400005 15095820
-0.091386676 0.072986677 0.64400005 15161613
-0.090440005 0.073213331 0.64600003 15095296
-0.089209527 0.073213331 0.64600003 15029504
-0.088115238 0.07332667 0.64700001 14960896
-0.086882859 0.07332667 0.64700001 14171392
-0.085782856 0.07344 0.648 14097920
-0.084679052 0.073553339 0.64900005 14097920
-0.083442859 0.073553339 0.64900005 14044225
-0.082586668 0.073893331 0.65200001 16757158
-0.081594288 0.07412 0.65400004 16579022
-0.080471434 0.074233338 0.65500003 16644815
-0.079223812 0.074233338 0.65500003 16577769
-0.078214288 0.07446 0.65700001 15261909
-0.076962851 0.07446 0.65700001 15717309
-0.075480953 0.074233338 0.65500003 15783102
-0.074233338 0.074233338 0.65500003 15979981
-0.07320857 0.07446 0.65700001 15914188
-0.071957141 0.07446 0.65700001 16108461
-0.070705712 0.07446 0.65700001 14989980
-0.06945429 0.07446 0.65700001 16037274
-0.068202853 0.07446 0.65700001 16563618
-0.066951431 0.07446 0.65700001 16039334
-0.065700002 0.07446 0.65700001 14591888
-0.064448565 0.07446 0.65700001 15702124
-0.063197143 0.07446 0.65700001 15241573
-0.061945714 0.07446 0.65700001 15567217
-0.060694285 0.07446 0.65700001 15304045
-0.059442859 0.07446 0.65700001 15566695
-0.05819143 0.07446 0.65700001 16158832
-0.056939997 0.07446 0.65700001 15766127
-0.055688571 0.07446 0.65700001 14910818
-0.054437142 0.07446 0.65700001 15499857
-0.053185716 0.07446 0.65700001 15368271
-0.051934287 0.07446 0.65700001 15499335
-0.050682854 0.07446 0.65700001 15499335
-0.049506668 0.074573338 0.65800005 15498837
-0.048253335 0.074573338 0.65800005 14577735
-0.047000002 0.074573338 0.65800005 13525817
-0.045816191 0.074686669 0.65900004 9644032
-0.044696189 0.074913338 0.66100001 10104576
-0.14579143 0.075711429 0.65700001 8680794
-0.14454 0.075711429 0.65700001 11696978
-0.14328857 0.075711429 0.65700001 15381386
-0.14203715 0.075711429 0.65700001 15909134
-0.14078571 0.075711429 0.65700001 16632857
-0.13953428 0.075711429 0.65700001 16041800
-0.13828287 0.075711429 0.65700001 15910214
-0.13703142 0.075711429 0.65700001 16042552
-0.13536668 0.075480953 0.65500003 16568896
-0.13411906 0.075480953 0.65500003 16111161
-0.13287142 0.075480953 0.65500003 16176954
-0.13142286 0.075365715 0.65400004 16177461
-0.13017714 0.075365715 0.65400004 16506426
-0.12912858 0.075480953 0.65500003 16309626
-0.12788096 0.075480953 0.65500003 16704384
-0.12663335 0.075480953 0.65500003 16376255
-0.1251943 0.075365715 0.65400004 15060395
-0.12394858 0.075365715 0.65400004 16174444
-0.12270287 0.075365715 0.65400004 16766838
-0.12145714 0.075365715 0.65400004 16512207
-0.12021144 0.075365715 0.65400004 16578000
-0.11914762 0.075480953 0.65500003 16643803
-0.11772001 0.075365715 0.65400004 15196357
-0.11647429 0.075365715 0.65400004 16242355
-0.11540476 0.075480953 0.65500003 16110769
-0.11398286 0.075365715 0.65400004 14866869
-0.11273715 0.075365715 0.65400004 14603697
-0.11149143 0.075365715 0.65400004 14475945
-0.11024573 0.075365715 0.65400004 14739117
-0.10883334 0.075250484 0.65300006 15328967
-0.10758953 0.075250484 0.65300006 11315594
-0.10618286 0.075135238 0.65200001 11632691
-0.10494096 0.075135238 0.65200001 8935178
-0.10385811 0.075250484 0.65300006 12531456
-0.10261429 0.075250484 0.65300006 13715716
-0.10059428 0.074674278 0.648 13650688
-0.099360004 0.074674278 0.648 14505986
-0.097974285 0.074559048 0.64700001 14506522
-0.096741907 0.074559048 0.64700001 14374936
-0.095657147 0.074674278 0.648 14701332
-0.094277143 0.074559048 0.64700001 14503953
-0.092900954 0.07444381 0.64600003 14765312
-0.091670483 0.07444381 0.64600003 14633728
-0.090580001 0.074559048 0.64700001 14631680
-0.089347623 0.074559048 0.64700001 14500096
-0.088251427 0.074674278 0.648 14366976
-0.087017149 0.074674278 0.648 14235392
-0.085915245 0.074789532 0.64900005 14299648
-0.084809527 0.074904762 0.65000004 16739114
-0.083571434 0.074904762 0.65000004 15769732
-0.082586668 0.075135238 0.65200001 16768192
-0.081594288 0.075365715 0.65400004 16645881
-0.080348574 0.075365715 0.65400004 16580088
-0.079102859 0.075365715 0.65400004 16381939
-0.077976197 0.075480953 0.65500003 15526630
-0.076728575 0.075480953 0.65500003 15654098
-0.075365715 0.075365715 0.65400004 16114649
-0.07412 0.075365715 0.65400004 16182761
-0.072985716 0.075480953 0.65500003 15919589
-0.071738102 0.075480953 0.65500003 15848649
-0.070490479 0.075480953 0.65500003 15059133
-0.069242857 0.075480953 0.65500003 15908522
-0.067995243 0.075480953 0.65500003 16369073
-0.066747628 0.075480953 0.65500003 16239301
-0.065499999 0.075480953 0.65500003 15383992
-0.064252384 0.075480953 0.65500003 15770245
-0.063004769 0.075480953 0.65500003 14914936
-0.061757144 0.075480953 0.65500003 15699321
-0.060509525 0.075480953 0.65500003 15567735
-0.059261907 0.075480953 0.65500003 15633008
-0.05819143 0.075711429 0.65700001 16093559
-0.056939997 0.075711429 0.65700001 15701379
-0.055688571 0.075711429 0.65700001 15569793
-0.054271434 0.075480953 0.65500003 15698827
-0.053023811 0.075480953 0.65500003 15369862
-0.051776193 0.075480953 0.65500003 15432533
-0.050528575 0.075480953 0.65500003 15761498
-0.049280953 0.075480953 0.65500003 15498862
-0.048179999 0.075711429 0.65700001 15630448
-0.047000002 0.075826667 0.65800005 13788237
-0.045816191 0.075941913 0.65900004 9577485
-0.044696189 0.076172382 0.66100001 10105856
-0.14512572 0.076611437 0.65400004 8942683
-0.14366001 0.076494291 0.65300006 12288077
-0.14241621 0.076494291 0.65300006 15709313
-0.14117239 0.076494291 0.65300006 15774976
-0.13992859 0.076494291 0.65300006 15182848
-0.13889715 0.076611437 0.65400004 15442944
-0.13765144 0.076611437 0.65400004 16298243
-0.13640572 0.076611437 0.65400004 15772745
-0.13516001 0.076611437 0.65400004 16035917
-0.13391431 0.076611437 0.65400004 15840573
-0.13266857 0.076611437 0.65400004 15906366
-0.13142286 0.076611437 0.65400004 15838763
-0.13017714 0.076611437 0.65400004 15838763
-0.12893143 0.076611437 0.65400004 15773243
-0.12768573 0.076611437 0.65400004 15839036
-0.12644 0.076611437 0.65400004 15771203
-0.1251943 0.076611437 0.65400004 14850101
-0.12375905 0.076494291 0.65300006 15504926
-0.12251525 0.076494291 0.65300006 16689200
-0.12127144 0.076494291 0.65300006 15838566
-0.12002763 0.076494291 0.65300006 15838566
-0.11896572 0.076611437 0.65400004 15837281
-0.11772001 0.076611437 0.65400004 15705695
-0.11647429 0.076611437 0.65400004 15837024
-0.11522858 0.076611437 0.65400004 14850129
-0.11398286 0.076611437 0.65400004 14590080
-0.11273715 0.076611437 0.65400004 14590080
-0.11132096 0.076494291 0.65300006 14069394
-0.11007715 0.076494291 0.65300006 15319461
-0.10883334 0.076494291 0.65300006 15584902
-0.10758953 0.076494291 0.65300006 15913867
-0.10618286 0.076377138 0.65200001 14001067
-0.10494096 0.076377138 0.65200001 12948379
-0.10338096 0.076142862 0.65000004 11426652
-0.10198572 0.076025717 0.64900005 9518655
-0.10074953 0.076025717 0.64900005 11541504
-0.099513337 0.076025717 0.64900005 11409920
-0.098125711 0.075908571 0.648 12390656
-0.096891426 0.075908571 0.648 12522240
-0.095657147 0.075908571 0.648 13046016
-0.094422854 0.075908571 0.648 13177600
-0.093044758 0.075791426 0.64700001 13242880
-0.09181238 0.075791426 0.64700001 13242880
-0.090580001 0.075791426 0.64700001 13308416
-0.089485712 0.075908571 0.648 15611160
-0.088251427 0.075908571 0.648 15178752
-0.087151438 0.076025717 0.64900005 16762901
-0.085915245 0.076025717 0.64900005 16580527
-0.084809527 0.076142862 0.65000004 16777141
-0.083571434 0.076142862 0.65000004 16711420
-0.082586668 0.076377138 0.65200001 16711420
-0.081469528 0.076494291 0.65300006 16711420
-0.080348574 0.076611437 0.65400004 16711420
-0.079102859 0.076611437 0.65400004 16711420
-0.077857152 0.076611437 0.65400004 16711420
-0.076611437 0.076611437 0.65400004 16711422
-0.075250484 0.076494291 0.65300006 16448250
-0.074006677 0.076494291 0.65300006 16513782
-0.072874293 0.076611437 0.65400004 15987438
-0.071628578 0.076611437 0.65400004 15985123
-0.070382863 0.076611437 0.65400004 15656158
-0.069137141 0.076611437 0.65400004 15916496
-0.067891434 0.076611437 0.65400004 15390152
-0.066645719 0.076611437 0.65400004 15847364
-0.065400004 0.076611437 0.65400004 15452606
-0.06415429 0.076611437 0.65400004 15973040
-0.062908575 0.076611437 0.65400004 15512489
-0.06166286 0.076611437 0.65400004 15903373
-0.060417145 0.076611437 0.65400004 15574408
-0.059261907 0.076728575 0.65500003 15835786
-0.058014289 0.076728575 0.65500003 15901579
-0.05676667 0.076728575 0.65500003 15971224
-0.055519048 0.076728575 0.65500003 16763053
-0.054271434 0.076728575 0.65500003 16171700
-0.052942861 0.076611437 0.65400004 13868945
-0.051697146 0.076611437 0.65400004 15566945
-0.050451431 0.076611437 0.65400004 15830117
-0.049205717 0.076611437 0.65400004 15699328
-0.048033334 0.076728575 0.65500003 15172984
-0.047071431 0.077197149 0.65900004 14383193
-0.045816191 0.077197149 0.65900004 9251339
-0.14490382 0.077738099 0.65300006 9073756
-0.14366001 0.077738099 0.65300006 12485451
-0.14241621 0.077738099 0.65300006 15577722
-0.14117239 0.077738099 0.65300006 15773974
-0.13992859 0.077738099 0.65300006 14129152
-0.13868478 0.077738099 0.65300006 15043072
-0.13744096 0.077738099 0.65300006 15832576
-0.13640572 0.077857152 0.65400004 15636813
-0.13516001 0.077857152 0.65400004 15702606
-0.13391431 0.077857152 0.65400004 15703629
-0.13266857 0.077857152 0.65400004 15572043
-0.13122191 0.077738099 0.65300006 15370537
-0.12997811 0.077738099 0.65300006 15107365
-0.12873429 0.077738099 0.65300006 15635758
-0.12749048 0.077738099 0.65300006 15898930
-0.12624668 0.077738099 0.65300006 15634766
-0.12500286 0.077738099 0.65300006 14713664
-0.12375905 0.077738099 0.65300006 15103756
-0.12251525 0.077738099 0.65300006 15893272
-0.12127144 0.077738099 0.65300006 15637076
-0.12002763 0.077738099 0.65300006 15373904
-0.11896572 0.077857152 0.65400004 15502149
-0.11772001 0.077857152 0.65400004 16620630
-0.11647429 0.077857152 0.65400004 15837303
-0.11522858 0.077857152 0.65400004 15245166
-0.11380858 0.077738099 0.65300006 15702135
-0.11256477 0.077738099 0.65300006 15965307
-0.11132096 0.077738099 0.65300006 15836538
-0.11007715 0.077738099 0.65300006 15836538
-0.10883334 0.077738099 0.65300006 16106626
-0.10742477 0.077619046 0.65200001 16698763
-0.10618286 0.077619046 0.65200001 16173975
-0.10494096 0.077619046 0.65200001 14397564
-0.10338096 0.077380955 0.65000004 13876564
-0.10198572 0.07726191 0.64900005 11310637
-0.10074953 0.07726191 0.64900005 13727314
-0.099513337 0.07726191 0.64900005 12608833
-0.098125711 0.077142857 0.648 13184840
-0.096891426 0.077142857 0.648 12658496
-0.095657147 0.077142857 0.648 13773824
-0.094568573 0.07726191 0.64900005 14497544
-0.093188569 0.077142857 0.648 14235692
-0.091954283 0.077142857 0.648 14959415
-0.090719998 0.077142857 0.648 15097654
-0.089485712 0.077142857 0.648 15558205
-0.088387623 0.07726191 0.64900005 16173480
-0.087151438 0.07726191 0.64900005 16772299
-0.085915245 0.07726191 0.64900005 16711672
-0.084679052 0.07726191 0.64900005 16711672
-0.083442859 0.07726191 0.64900005 16711420
-0.082333334 0.077380955 0.65000004 16711420
-0.081344761 0.077619046 0.65200001 16711420
-0.080225721 0.077738099 0.65300006 16711420
-0.078981914 0.077738099 0.65300006 16711420
-0.077738099 0.077738099 0.65300006 16711420
-0.076494291 0.077738099 0.65300006 16711422
-0.075250484 0.077738099 0.65300006 16711422
-0.074006677 0.077738099 0.65300006 16645629
-0.072762862 0.077738099 0.65300006 16316664
-0.071519054 0.077738099 0.65300006 16249840
-0.070382863 0.077857152 0.65400004 15920875
-0.06903144 0.077738099 0.65300006 16050916
-0.067683809 0.077619046 0.65200001 15656158
-0.066441901 0.077619046 0.65200001 15719121
-0.065300003 0.077738099 0.65300006 15126984
-0.064056195 0.077738099 0.65300006 15976372
-0.06281238 0.077738099 0.65300006 15778993
-0.061568573 0.077738099 0.65300006 16105388
-0.060417145 0.077857152 0.65400004 15776423
-0.059171431 0.077857152 0.65400004 15969689
-0.057925716 0.077857152 0.65400004 15903896
-0.056680001 0.077857152 0.65400004 15970970
-0.05543429 0.077857152 0.65400004 16497314
-0.054188572 0.077857152 0.65400004 16104626
-0.052942861 0.077857152 0.65400004 14065043
-0.051618099 0.077738099 0.65300006 15633260
-0.050374292 0.077738099 0.65300006 16159604
-0.049130481 0.077738099 0.65300006 15633285
-0.047886673 0.077738099 0.65300006 15435906
-0.14614764 0.078981914 0.65300006 10257003
-0.14490382 0.078981914 0.65300006 9401694
-0.14366001 0.078981914 0.65300006 12748094
-0.14241621 0.078981914 0.65300006 15511400
-0.14117239 0.078981914 0.65300006 15642112
-0.13992859 0.078981914 0.65300006 14589440
-0.13868478 0.078981914 0.65300006 15175452
-0.13744096 0.078981914 0.65300006 15899175
-0.13619716 0.078981914 0.65300006 15702131
-0.13495335 0.078981914 0.65300006 15833717
-0.13370954 0.078981914 0.65300006 15834491
-0.13246572 0.078981914 0.65300006 16097663
-0.13122191 0.078981914 0.65300006 15699321
-0.12997811 0.078981914 0.65300006 14778219
-0.12873429 0.078981914 0.65300006 15565941
-0.12749048 0.078981914 0.65300006 16552836
-0.12624668 0.078981914 0.65300006 15767426
-0.12500286 0.078981914 0.65300006 15175289
-0.12375905 0.078981914 0.65300006 15566697
-0.12251525 0.078981914 0.65300006 15632490
-0.12127144 0.078981914 0.65300006 15769189
-0.12002763 0.078981914 0.65300006 15571810
-0.11896572 0.079102859 0.65400004 15701363
-0.11754001 0.078981914 0.65300006 16293500
-0.11629619 0.078981914 0.65300006 15903105
-0.11505239 0.078981914 0.65300006 15968898
-0.11380858 0.078981914 0.65300006 15769732
-0.11256477 0.078981914 0.65300006 15967111
-0.11115047 0.078860953 0.65200001 15836295
-0.10957143 0.078619048 0.65000004 15770502
-0.10833334 0.078619048 0.65000004 16038262
-0.10742477 0.078860953 0.65200001 16764298
-0.10585715 0.078619048 0.65000004 16244120
-0.10461906 0.078619048 0.65000004 16770464
-0.10338096 0.078619048 0.65000004 16447615
-0.10214286 0.078619048 0.65000004 16777104
-0.10074953 0.078498095 0.64900005 16711420
-0.099513337 0.078498095 0.64900005 16711420
-0.098125711 0.078377143 0.648 16710909
-0.096891426 0.078377143 0.648 16381944
-0.095657147 0.078377143 0.648 16645622
-0.094422854 0.078377143 0.648 16777208
-0.093188569 0.078377143 0.648 16711422
-0.091954283 0.078377143 0.648 16711422
-0.090719998 0.078377143 0.648 16711420
-0.089623809 0.078498095 0.64900005 16711420
-0.088387623 0.078498095 0.64900005 16711420
-0.087151438 0.078498095 0.64900005 16711420
-0.085915245 0.078498095 0.64900005 16711420
-0.084679052 0.078498095 0.64900005 16711420
-0.083442859 0.078498095 0.64900005 16711420
-0.082333334 0.078619048 0.65000004 16645627
-0.081095241 0.078619048 0.65000004 16645627
-0.079857148 0.078619048 0.65000004 16645627
-0.078619048 0.078619048 0.65000004 16645627
-0.077380955 0.078619048 0.65000004 16645627
-0.076142862 0.078619048 0.65000004 16645627
-0.074904762 0.078619048 0.65000004 16711420
-0.073666669 0.078619048 0.65000004 16711420
-0.072762862 0.078981914 0.65300006 16711420
-0.071409523 0.078860953 0.65200001 16711420
-0.070167623 0.078860953 0.65200001 16711420
-0.068925716 0.078860953 0.65200001 16711674
-0.067683809 0.078860953 0.65200001 16185330
-0.066441901 0.078860953 0.65200001 16249576
-0.065200001 0.078860953 0.65200001 15460060
-0.063958094 0.078860953 0.65200001 15850694
-0.062716186 0.078860953 0.65200001 15653315
-0.061568573 0.078981914 0.65300006 16111558
-0.060324769 0.078981914 0.65300006 15716800
-0.059080955 0.078981914 0.65300006 16107437
-0.057837147 0.078981914 0.65300006 15449507
-0.056593336 0.078981914 0.65300006 15972235
-0.055349529 0.078981914 0.65300006 15380098
-0.054105718 0.078981914 0.65300006 15903607
-0.05286191 0.078981914 0.65300006 15443056
-0.051539049 0.078860953 0.65200001 15767683
-0.050297141 0.078860953 0.65200001 16030855
-0.049055237 0.078860953 0.65200001 15835002
-0.047813334 0.078860953 0.65200001 14782314
-0.14739144 0.080225721 0.65300006 9536112
-0.14614764 0.080225721 0.65300006 10388330
-0.14490382 0.080225721 0.65300006 9730400
-0.14366001 0.080225721 0.65300006 13207096
-0.14219809 0.080102861 0.65200001 15575644
-0.14095619 0.080102861 0.65200001 15771904
-0.13971429 0.080102861 0.65200001 15048192
-0.13847238 0.080102861 0.65200001 15307531
-0.13723047 0.080102861 0.65200001 15899668
-0.13619716 0.080225721 0.65300006 15636815
-0.13495335 0.080225721 0.65300006 15505229
-0.13370954 0.080225721 0.65300006 15700825
-0.13226286 0.080102861 0.65200001 16358755
-0.13102096 0.080102861 0.65200001 15769189
-0.12938096 0.079857148 0.65000004 14387536
-0.12814286 0.079857148 0.65000004 15500599
-0.12690476 0.079857148 0.65000004 16684873
-0.12605333 0.080102861 0.65200001 15836002
-0.12481143 0.080102861 0.65200001 15112279
-0.12356953 0.080102861 0.65200001 15635526
-0.12232762 0.080102861 0.65200001 15503940
-0.12108571 0.080102861 0.65200001 15706148
-0.1198438 0.080102861 0.65200001 15706148
-0.11878382 0.080225721 0.65300006 15704874
-0.11736 0.080102861 0.65200001 16033839
-0.11576191 0.079857148 0.65000004 15772470
-0.11452381 0.079857148 0.65000004 15904056
-0.11363429 0.080102861 0.65200001 15705142
-0.11204763 0.079857148 0.65000004 15968314
-0.11063905 0.079734296 0.64900005 15836018
-0.10940287 0.079734296 0.64900005 16296569
-0.10816668 0.079734296 0.64900005 15970734
-0.10709524 0.079857148 0.65000004 16761278
-0.10585715 0.079857148 0.65000004 14669681
-0.1044581 0.079734296 0.64900005 14801267
-0.10322192 0.079734296 0.64900005 15004005
-0.10198572 0.079734296 0.64900005 16777092
-0.10074953 0.079734296 0.64900005 16711420
-0.099513337 0.079734296 0.64900005 16711420
-0.098277152 0.079734296 0.64900005 16711422
-0.097040959 0.079734296 0.64900005 16711422
-0.095657147 0.079611428 0.648 16711420
-0.094422854 0.079611428 0.648 16711420
-0.093188569 0.079611428 0.648 16711422
-0.091954283 0.079611428 0.648 16711422
-0.090719998 0.079611428 0.648 16711422
-0.089623809 0.079734296 0.64900005 16711422
-0.088387623 0.079734296 0.64900005 16711422
-0.087151438 0.079734296 0.64900005 16711422
-0.086047627 0.079857148 0.65000004 16711420
-0.084679052 0.079734296 0.64900005 16579834
-0.083442859 0.079734296 0.64900005 16645627
-0.082206674 0.079734296 0.64900005 16711420
-0.080970481 0.079734296 0.64900005 16645627
-0.079857148 0.079857148 0.65000004 16645627
-0.078498095 0.079734296 0.64900005 16645627
-0.07726191 0.079734296 0.64900005 16645627
-0.076025717 0.079734296 0.64900005 16645627
-0.074904762 0.079857148 0.65000004 16645627
-0.073666669 0.079857148 0.65000004 16645627
-0.072651431 0.080102861 0.65200001 16711420
-0.071409523 0.080102861 0.65200001 16711420
-0.070167623 0.080102861 0.65200001 16711420
-0.068925716 0.080102861 0.65200001 16711420
-0.067476198 0.079857148 0.65000004 16514041
-0.066238098 0.079857148 0.65000004 16316146
-0.065200001 0.080102861 0.65200001 15658216
-0.063958094 0.080102861 0.65200001 15852506
-0.062716186 0.080102861 0.65200001 15391955
-0.06147429 0.080102861 0.65200001 15718095
-0.060324769 0.080225721 0.65300006 15454923
-0.059080955 0.080225721 0.65300006 15846592
-0.057837147 0.080225721 0.65300006 15451834
-0.056593336 0.080225721 0.65300006 16038566
-0.055349529 0.080225721 0.65300006 15380636
-0.054105718 0.080225721 0.65300006 15902853
-0.052780952 0.080102861 0.65200001 15639681
