# .PCD v0.7 - Point Cloud Data file format
VERSION 0.7
FIELDS x y z rgba
SIZE 4 4 4 4
TYPE F F F U
COUNT 1 1 1 1
WIDTH 1180
HEIGHT 1
VIEWPOINT 0 0 0 1 0 0 0
POINTS 1180
DATA ascii
-0.018424762 0.059609525 1.138 13152706
-0.016257143 0.059609525 1.138 13020609
-0.014040001 0.059400003 1.1340001 13020609
-0.011880001 0.059400003 1.1340001 12824245
-0.0096857138 0.059190478 1.13 12561073
-0.0075333333 0.059190478 1.13 12098489
-0.0053619049 0.058980957 1.126 11506352
-0.003217143 0.058980957 1.126 11964064
-0.0010695239 0.058823813 1.123 13082545
0.0010695239 0.058823813 1.123 14728617
0.0032085713 0.058823813 1.123 15583926
0.0053285714 0.058614291 1.1190001 15647638
-0.093297146 0.061125714 1.126 15255481
-0.091152385 0.061125714 1.126 15321274
-0.089007616 0.061125714 1.126 15257035
-0.087171428 0.061342854 1.13 15257035
-0.085019045 0.061342854 1.13 15849170
-0.083160006 0.061560001 1.1340001 16112342
-0.081 0.061560001 1.1340001 15849433
-0.079118095 0.061777141 1.138 15520468
-0.076950483 0.061777141 1.138 14336973
-0.074980006 0.061940003 1.141 14402766
-0.072806664 0.061940003 1.141 14665940
-0.070880957 0.06215715 1.1450001 14336975
-0.068700008 0.06215715 1.1450001 13876429
-0.066519052 0.06215715 1.1450001 13613257
-0.064338103 0.06215715 1.1450001 13285582
-0.06215715 0.06215715 1.1450001 13285582
-0.059976194 0.06215715 1.1450001 13417161
-0.057997145 0.06237429 1.149 13417161
-0.055808574 0.06237429 1.149 13482702
-0.053620003 0.06237429 1.149 13482702
-0.051431429 0.06237429 1.149 13481675
-0.049242858 0.06237429 1.149 13810640
-0.047054287 0.06237429 1.149 13744847
-0.044865716 0.06237429 1.149 13744847
-0.042528573 0.06215715 1.1450001 13614545
-0.040347625 0.06215715 1.1450001 13548752
-0.038166672 0.06215715 1.1450001 13613770
-0.035985716 0.06215715 1.1450001 13547977
-0.033804763 0.06215715 1.1450001 13415367
-0.031623811 0.06215715 1.1450001 13612746
-0.02944286 0.06215715 1.1450001 13547464
-0.027261905 0.06215715 1.1450001 13481671
-0.024993334 0.061940003 1.141 13415880
-0.02282 0.061940003 1.141 13284294
-0.020646667 0.061940003 1.141 13086915
-0.018424762 0.061777141 1.138 13086915
-0.016257143 0.061777141 1.138 13020609
-0.014040001 0.061560001 1.1340001 12757437
-0.011880001 0.061560001 1.1340001 12691126
-0.0096857138 0.061342854 1.13 12691126
-0.0075333333 0.061342854 1.13 12624313
-0.0053619049 0.061125714 1.126 11769004
-0.003217143 0.061125714 1.126 11636630
-0.0010695239 0.06096286 1.123 13018283
0.0010657144 0.06074572 1.1190001 14203309
0.0031971431 0.06074572 1.1190001 15255997
0.0053285714 0.06074572 1.1190001 15581597
-0.095441908 0.063270479 1.126 15453630
-0.093297146 0.063270479 1.126 15649985
-0.091152385 0.063270479 1.126 16242122
-0.089007616 0.063270479 1.126 15585486
-0.087171428 0.063495234 1.13 15388107
-0.085019045 0.063495234 1.13 15388619
-0.083160006 0.063720003 1.1340001 15520205
-0.081 0.063720003 1.1340001 15257296
-0.079118095 0.063944757 1.138 14862538
-0.076950483 0.063944757 1.138 14533582
-0.074782856 0.063944757 1.138 14336203
-0.072806664 0.064113334 1.141 13875920
-0.070880957 0.064338103 1.1450001 13744334
-0.068700008 0.064338103 1.1450001 13481934
-0.066519052 0.064338103 1.1450001 13481934
-0.064338103 0.064338103 1.1450001 13022158
-0.06215715 0.064338103 1.1450001 12890572
-0.060185716 0.064562857 1.149 13219530
-0.057997145 0.064562857 1.149 13416909
-0.055808574 0.064562857 1.149 13416909
-0.053620003 0.064562857 1.149 13416909
-0.051431429 0.064562857 1.149 13547725
-0.049242858 0.064562857 1.149 13810897
-0.047054287 0.064562857 1.149 13679311
-0.044865716 0.064562857 1.149 13613518
-0.042528573 0.064338103 1.1450001 13679054
-0.040347625 0.064338103 1.1450001 13744847
-0.038166672 0.064338103 1.1450001 13679050
-0.035985716 0.064338103 1.1450001 13613257
-0.033804763 0.064338103 1.1450001 13613257
-0.031623811 0.064338103 1.1450001 13547464
-0.02944286 0.064338103 1.1450001 13349063
-0.027261905 0.064338103 1.1450001 13349063
-0.025080955 0.064338103 1.1450001 13283781
-0.02282 0.064113334 1.141 13152195
-0.020646667 0.064113334 1.141 13086145
-0.018424762 0.063944757 1.138 13086145
-0.016257143 0.063944757 1.138 12954046
-0.014040001 0.063720003 1.1340001 12690874
-0.011880001 0.063720003 1.1340001 12492986
-0.0096857138 0.063495234 1.13 12361400
-0.0075333333 0.063495234 1.13 12031924
-0.0053809523 0.063495234 1.13 11571373
-0.003217143 0.063270479 1.126 12294560
-0.0010695239 0.06310191 1.123 15057866
0.0010619047 0.062652387 1.115 15454150
0.0031857144 0.062652387 1.115 15322564
0.0074333334 0.062652387 1.115 15581854
-0.095780954 0.065647617 1.13 15386552
-0.09362857 0.065647617 1.13 15978178
-0.091476195 0.065647617 1.13 16109764
-0.089323811 0.065647617 1.13 15650764
-0.087171428 0.065647617 1.13 15387592
-0.085019045 0.065647617 1.13 14994376
-0.083160006 0.065880001 1.1340001 14665411
-0.081 0.065880001 1.1340001 14731211
-0.079118095 0.066112377 1.138 14862797
-0.076950483 0.066112377 1.138 14731470
-0.074782856 0.066112377 1.138 14205126
-0.072806664 0.066286668 1.141 13547718
-0.070633337 0.066286668 1.141 13416132
-0.068460003 0.066286668 1.141 13086922
-0.066519052 0.066519052 1.1450001 13218508
-0.064338103 0.066519052 1.1450001 13021131
-0.06215715 0.066519052 1.1450001 13086924
-0.059976194 0.066519052 1.1450001 13285069
-0.057997145 0.066751435 1.149 13416655
-0.055808574 0.066751435 1.149 13416655
-0.053620003 0.066751435 1.149 13416655
-0.051431429 0.066751435 1.149 13416909
-0.049242858 0.066751435 1.149 13482702
-0.047054287 0.066751435 1.149 13482702
-0.044865716 0.066751435 1.149 13482702
-0.042528573 0.066519052 1.1450001 13679054
-0.040347625 0.066519052 1.1450001 13810640
-0.038166672 0.066519052 1.1450001 13744845
-0.035985716 0.066519052 1.1450001 13679052
-0.033804763 0.066519052 1.1450001 13679565
-0.031623811 0.066519052 1.1450001 13416393
-0.02944286 0.066519052 1.1450001 13152195
-0.027261905 0.066519052 1.1450001 13217988
-0.024993334 0.066286668 1.141 13283781
-0.02282 0.066286668 1.141 13152195
-0.020646667 0.066286668 1.141 12954046
-0.018424762 0.066112377 1.138 12954046
-0.016257143 0.066112377 1.138 12822455
-0.014089524 0.066112377 1.138 12559283
-0.011880001 0.065880001 1.1340001 12295850
-0.0097200004 0.065880001 1.1340001 12230057
-0.0075600008 0.065880001 1.1340001 11900324
-0.0053809523 0.065647617 1.13 12031910
-0.003217143 0.065415241 1.126 13017261
-0.0010695239 0.065240949 1.123 15188430
0.0010619047 0.06477619 1.115 15979202
0.0031857144 0.06477619 1.115 15518651
0.0053095235 0.06477619 1.115 15779492
-0.095780954 0.0678 1.13 14599607
-0.09362857 0.0678 1.13 15453119
-0.091476195 0.0678 1.13 15650498
-0.089323811 0.0678 1.13 15453380
-0.087171428 0.0678 1.13 15453380
-0.085019045 0.0678 1.13 14928070
-0.083160006 0.068039998 1.1340001 14664898
-0.081 0.068039998 1.1340001 14862027
-0.079118095 0.068279997 1.138 14927820
-0.076950483 0.068279997 1.138 14665418
-0.074980006 0.068460003 1.141 14336453
-0.072806664 0.068460003 1.141 13679041
-0.070633337 0.068460003 1.141 13613248
-0.068460003 0.068460003 1.141 13480910
-0.066519052 0.068700008 1.1450001 13480910
-0.064338103 0.068700008 1.1450001 13678543
-0.06215715 0.068700008 1.1450001 13678543
-0.059976194 0.068700008 1.1450001 13482448
-0.057997145 0.068939999 1.149 13482448
-0.055808574 0.068939999 1.149 13482452
-0.053620003 0.068939999 1.149 13416659
-0.051431429 0.068939999 1.149 13613261
-0.049242858 0.068939999 1.149 13679054
-0.047054287 0.068939999 1.149 13679054
-0.044865716 0.068939999 1.149 13679054
-0.042528573 0.068700008 1.1450001 13679054
-0.040347625 0.068700008 1.1450001 13679054
-0.038166672 0.068700008 1.1450001 13481671
-0.035985716 0.068700008 1.1450001 13152706
-0.033804763 0.068700008 1.1450001 13218249
-0.031623811 0.068700008 1.1450001 13284042
-0.02944286 0.068700008 1.1450001 13020863
-0.027261905 0.068700008 1.1450001 13020863
-0.024993334 0.068460003 1.141 12954818
-0.02282 0.068460003 1.141 12889025
-0.020646667 0.068460003 1.141 12625085
-0.018424762 0.068279997 1.138 12559292
-0.016257143 0.068279997 1.138 12492725
-0.014089524 0.068279997 1.138 12361139
-0.011880001 0.068039998 1.1340001 13545129
-0.0097200004 0.068039998 1.1340001 14334645
-0.0075600008 0.068039998 1.1340001 15256512
-0.0053809523 0.0678 1.13 15453891
-0.0032285713 0.0678 1.13 15321047
-0.0010761905 0.0678 1.13 14728910
0.0010761905 0.0678 1.13 15647638
0.0032285713 0.0678 1.13 15845017
-0.09362857 0.069952376 1.13 14465951
-0.091476195 0.069952376 1.13 15255467
-0.089323811 0.069952376 1.13 15387844
-0.087171428 0.069952376 1.13 15256258
-0.085019045 0.069952376 1.13 15124422
-0.083160006 0.070200004 1.1340001 15124422
-0.081 0.070200004 1.1340001 15059408
-0.079118095 0.070447616 1.138 15125201
-0.076950483 0.070447616 1.138 14730443
-0.074980006 0.070633337 1.141 14138306
-0.072806664 0.070633337 1.141 13809859
-0.070633337 0.070633337 1.141 13612480
-0.068460003 0.070633337 1.141 13546437
-0.066519052 0.070880957 1.1450001 13875402
-0.064338103 0.070880957 1.1450001 14072007
-0.06215715 0.070880957 1.1450001 14006214
-0.059976194 0.070880957 1.1450001 13679052
-0.057997145 0.071128577 1.149 13547466
-0.055808574 0.071128577 1.149 13284042
-0.053620003 0.071128577 1.149 13349835
-0.051431429 0.071128577 1.149 13415369
-0.049242858 0.071128577 1.149 13217990
-0.047054287 0.071128577 1.149 13348804
-0.044865716 0.071128577 1.149 13283011
-0.042677142 0.071128577 1.149 13216707
-0.040488571 0.071128577 1.149 13216707
-0.038166672 0.070880957 1.1450001 13217477
-0.035985716 0.070880957 1.1450001 13085891
-0.033804763 0.070880957 1.1450001 12954820
-0.031623811 0.070880957 1.1450001 12889027
-0.02944286 0.070880957 1.1450001 12691639
-0.027261905 0.070880957 1.1450001 12823225
-0.024993334 0.070633337 1.141 12757180
-0.02282 0.070633337 1.141 12757180
-0.020646667 0.070633337 1.141 12295605
-0.018473335 0.070633337 1.141 12427191
-0.016257143 0.070447616 1.138 12558520
-0.014089524 0.070447616 1.138 12953278
-0.011921904 0.070447616 1.138 14990533
-0.0097200004 0.070200004 1.1340001 15451084
-0.0071799997 0.066671431 1.077 16307161
-0.0051285718 0.066671431 1.077 15978196
-0.0030771429 0.066671431 1.077 15845817
-0.0010285715 0.066857144 1.08 15056301
0.0010285715 0.066857144 1.08 14133888
-0.09362857 0.07210476 1.13 12097605
-0.091476195 0.07210476 1.13 13347672
-0.089323811 0.07210476 1.13 15123370
-0.087480001 0.072360002 1.1340001 15781300
-0.085320003 0.072360002 1.1340001 15716811
-0.083160006 0.072360002 1.1340001 16308948
-0.081 0.072360002 1.1340001 15850205
-0.079118095 0.072615236 1.138 15784412
-0.076950483 0.072615236 1.138 14730959
-0.074980006 0.072806664 1.141 13283513
-0.072806664 0.072806664 1.141 13479104
-0.070633337 0.072806664 1.141 13215932
-0.068460003 0.072806664 1.141 13283256
-0.066519052 0.073061906 1.1450001 13349049
-0.064338103 0.073061906 1.1450001 13151666
-0.06215715 0.073061906 1.1450001 12625322
-0.059976194 0.073061906 1.1450001 12823223
-0.057997145 0.07331714 1.149 12757430
-0.055808574 0.07331714 1.149 12756926
-0.053620003 0.07331714 1.149 13020098
-0.051431429 0.07331714 1.149 13020100
-0.049242858 0.07331714 1.149 12822721
-0.047054287 0.07331714 1.149 13019580
-0.044865716 0.07331714 1.149 13085373
-0.042677142 0.07331714 1.149 12953789
-0.040488571 0.07331714 1.149 12953789
-0.038166672 0.073061906 1.1450001 13216707
-0.035985716 0.073061906 1.1450001 13085121
-0.033804763 0.073061906 1.1450001 13545415
-0.031623811 0.073061906 1.1450001 13677001
-0.02944286 0.073061906 1.1450001 14139585
-0.027261905 0.073061906 1.1450001 14402757
-0.024993334 0.072806664 1.141 14797272
-0.02282 0.072806664 1.141 15257823
-0.020646667 0.072806664 1.141 15389148
-0.018473335 0.072806664 1.141 16047078
-0.0163 0.072806664 1.141 15718633
-0.014126667 0.072806664 1.141 15784426
-0.011921904 0.072615236 1.138 14796236
-0.0097542861 0.072615236 1.138 13677755
-0.0071799997 0.068722859 1.077 11825072
-0.0051285718 0.068722859 1.077 9719696
-0.0030771429 0.068722859 1.077 10376502
-0.0010285715 0.068914287 1.08 15245184
0.0010285715 0.068914287 1.08 15251855
-0.089237146 0.070774287 1.077 9528616
-0.087185711 0.070774287 1.077 11305027
-0.084818102 0.070511431 1.0730001 12095107
-0.082774296 0.070511431 1.0730001 15121585
-0.080730483 0.070511431 1.0730001 14927552
-0.083160006 0.074519999 1.1340001 15848654
-0.081 0.074519999 1.1340001 15850973
-0.079118095 0.074782856 1.138 14995664
-0.076950483 0.074782856 1.138 14468557
-0.074980006 0.074980006 1.141 13613248
-0.072806664 0.074980006 1.141 13875393
-0.070633337 0.074980006 1.141 14072772
-0.068460003 0.074980006 1.141 13875913
-0.066519052 0.075242862 1.1450001 13546948
-0.064338103 0.075242862 1.1450001 13218751
-0.06215715 0.075242862 1.1450001 13087165
-0.059976194 0.075242862 1.1450001 13086917
-0.057997145 0.075505719 1.149 13086917
-0.055808574 0.075505719 1.149 13085893
-0.053620003 0.075505719 1.149 13283272
-0.051610474 0.075768568 1.153 13348556
-0.049242858 0.075505719 1.149 13348556
-0.047054287 0.075505719 1.149 13414086
-0.044865716 0.075505719 1.149 13545672
-0.042677142 0.075505719 1.149 13611474
-0.040488571 0.075505719 1.149 13940439
-0.038166672 0.075242862 1.1450001 14467539
-0.035985716 0.075242862 1.1450001 14730711
-0.033804763 0.075242862 1.1450001 15190490
-0.031623811 0.075242862 1.1450001 15256283
-0.02944286 0.075242862 1.1450001 15389663
-0.027357142 0.075505719 1.149 14929112
-0.025080955 0.075242862 1.1450001 15585759
-0.022900002 0.075242862 1.1450001 15783138
-0.020719048 0.075242862 1.1450001 15979229
-0.018538097 0.075242862 1.1450001 15913436
-0.016357144 0.075242862 1.1450001 15257816
-0.014176192 0.075242862 1.1450001 14534093
-0.011995239 0.075242862 1.1450001 12297649
-0.0092571434 0.070971429 1.08 10981789
-0.0072000003 0.070971429 1.08 9328469
-0.0051285718 0.070774287 1.077 8012609
-0.0030771429 0.070774287 1.077 9455616
-0.0010285715 0.070971429 1.08 15837523
0.0010285715 0.070971429 1.08 15384227
-0.093600005 0.073028572 1.08 15652815
-0.091542862 0.073028572 1.08 12428958
-0.089237146 0.072825715 1.077 10779254
-0.087185711 0.072825715 1.077 5186849
-0.084818102 0.072555244 1.0730001 6951169
-0.082774296 0.072555244 1.0730001 7148548
-0.080730483 0.072555244 1.0730001 7673684
-0.078466676 0.07235238 1.0700001 12344987
-0.076214284 0.07214953 1.067 10974348
-0.073695242 0.071676195 1.0600001 12882345
-0.071676195 0.071676195 1.0600001 12885423
-0.074980006 0.077153333 1.141 13740732
-0.072806664 0.077153333 1.141 14467255
-0.070633337 0.077153333 1.141 14796220
-0.068700008 0.077423811 1.1450001 14533848
-0.066519052 0.077423811 1.1450001 15520743
-0.064338103 0.077423811 1.1450001 15194070
-0.06215715 0.077423811 1.1450001 15654621
-0.060185716 0.077694289 1.149 15458014
-0.057997145 0.077694289 1.149 15721186
-0.055808574 0.077694289 1.149 15655652
-0.053806666 0.07796476 1.153 15655652
-0.051610474 0.07796476 1.153 15786731
-0.049242858 0.077694289 1.149 15984110
-0.047054287 0.077694289 1.149 15786979
-0.044865716 0.077694289 1.149 16050151
-0.042677142 0.077694289 1.149 15917552
-0.040488571 0.077694289 1.149 15720173
-0.038166672 0.077423811 1.1450001 15192289
-0.035985716 0.077423811 1.1450001 15126496
-0.033922859 0.077694289 1.149 15125967
-0.031623811 0.077423811 1.1450001 14007486
-0.027257143 0.071676195 1.0600001 14202314
-0.025238097 0.071676195 1.0600001 12952247
-0.023219049 0.071676195 1.0600001 11698098
-0.022900002 0.077423811 1.1450001 11434926
-0.02079143 0.077694289 1.149 8396938
-0.018602857 0.077694289 1.149 7344250
-0.016414287 0.077694289 1.149 7213830
-0.013334286 0.072825715 1.077 7148037
-0.011282858 0.072825715 1.077 7876377
-0.0092314286 0.072825715 1.077 7942170
-0.0072000003 0.073028572 1.08 8597282
-0.0051428573 0.073028572 1.08 10834244
-0.0030857145 0.073028572 1.08 10312023
-0.0010285715 0.073028572 1.08 15378084
0.0010285715 0.073028572 1.08 15648426
-0.095657147 0.075085714 1.08 15454923
-0.093600005 0.075085714 1.08 15521227
-0.091288574 0.074877143 1.077 13679023
-0.089237146 0.074877143 1.077 12030602
-0.087185711 0.074877143 1.077 5780267
-0.085134283 0.074877143 1.077 6426887
-0.083082855 0.074877143 1.077 6558473
-0.080730483 0.07459905 1.0730001 6163712
-0.078466676 0.074390478 1.0700001 6361088
-0.076214284 0.074181899 1.067 7479571
-0.073695242 0.073695242 1.0600001 9058603
-0.071676195 0.073695242 1.0600001 11762040
-0.069854289 0.073903814 1.0630001 13012107
-0.067829534 0.073903814 1.0630001 12031122
-0.065619051 0.073695242 1.0600001 12228501
-0.063600004 0.073695242 1.0600001 12294310
-0.061580956 0.073695242 1.0600001 13281205
-0.059561908 0.073695242 1.0600001 13086136
-0.057379998 0.073486671 1.057 13415101
-0.055209525 0.073278099 1.054 13546946
-0.053201903 0.073278099 1.054 13875911
-0.051194288 0.073278099 1.054 13812430
-0.049186666 0.073278099 1.054 13746637
-0.051431429 0.07988286 1.149 13812178
-0.049242858 0.07988286 1.149 13614799
-0.046890479 0.079604767 1.1450001 13679050
-0.044709526 0.079604767 1.1450001 13744843
-0.042528573 0.079604767 1.1450001 13744336
-0.040347625 0.079604767 1.1450001 13546957
-0.035133332 0.073278099 1.054 13480381
-0.033125717 0.073278099 1.054 13217209
-0.031206667 0.073486671 1.057 12953264
-0.029193334 0.073486671 1.057 12558506
-0.027257143 0.073695242 1.0600001 10978718
-0.025238097 0.073695242 1.0600001 9136514
-0.023219049 0.073695242 1.0600001 8864859
-0.021200001 0.073695242 1.0600001 5706795
-0.01923524 0.073903814 1.0630001 6949130
-0.017275238 0.074181899 1.067 6949130
-0.015285715 0.074390478 1.0700001 7212033
-0.013284763 0.07459905 1.0730001 8527893
-0.011282858 0.074877143 1.077 9057317
-0.0092314286 0.074877143 1.077 9123110
-0.0072000003 0.075085714 1.08 9387538
-0.0051428573 0.075085714 1.08 11295535
-0.0030857145 0.075085714 1.08 10443607
-0.0010285715 0.075085714 1.08 15970219
0.0010285715 0.075085714 1.08 15582894
-0.095657147 0.077142857 1.08 15454664
-0.093600005 0.077142857 1.08 15389384
-0.091288574 0.076928571 1.077 14402489
-0.089237146 0.076928571 1.077 12887442
-0.087185711 0.076928571 1.077 6176556
-0.085134283 0.076928571 1.077 7154747
-0.083082855 0.076928571 1.077 7812677
-0.080730483 0.076642863 1.0730001 7548715
-0.078466676 0.076428577 1.0700001 5969683
-0.076428577 0.076428577 1.0700001 6819074
-0.074181899 0.076214284 1.067 7016453
-0.071879052 0.075928576 1.0630001 6950144
-0.069854289 0.075928576 1.0630001 6884352
-0.067829534 0.075928576 1.0630001 6687232
-0.065619051 0.07571429 1.0600001 6489856
-0.063600004 0.07571429 1.0600001 6162432
-0.061580956 0.07571429 1.0600001 6162432
-0.059561908 0.07571429 1.0600001 6359552
-0.057379998 0.075500004 1.057 6622720
-0.055209525 0.075285718 1.054 6425600
-0.053201903 0.075285718 1.054 6359808
-0.051194288 0.075285718 1.054 6492680
-0.049186666 0.075285718 1.054 6887438
-0.047179051 0.075285718 1.054 6822173
-0.045171428 0.075285718 1.054 6953759
-0.04316381 0.075285718 1.054 6622993
-0.041156191 0.075285718 1.054 6162442
-0.039260004 0.075500004 1.057 6097162
-0.037140954 0.075285718 1.054 6097162
-0.035133332 0.075285718 1.054 6621964
-0.033125717 0.075285718 1.054 6950929
-0.031206667 0.075500004 1.057 6688522
-0.029193334 0.075500004 1.057 6622729
-0.027257143 0.07571429 1.0600001 6951183
-0.025238097 0.07571429 1.0600001 7148562
-0.023219049 0.07571429 1.0600001 7608602
-0.021200001 0.07571429 1.0600001 8069153
-0.01923524 0.075928576 1.0630001 8266532
-0.017275238 0.076214284 1.067 9056048
-0.015285715 0.076428577 1.0700001 8926266
-0.013284763 0.076642863 1.0730001 9913161
-0.011282858 0.076928571 1.077 9652282
-0.0092314286 0.076928571 1.077 9389110
-0.0072000003 0.077142857 1.08 9650742
-0.0051428573 0.077142857 1.08 11295567
-0.0030857145 0.077142857 1.08 11299940
-0.0010285715 0.077142857 1.08 16629173
0.0010285715 0.077142857 1.08 15846311
-0.095657147 0.0792 1.08 15389382
-0.093600005 0.0792 1.08 14994883
-0.091542862 0.0792 1.08 15126469
-0.08948572 0.0792 1.08 12560035
-0.087185711 0.078979999 1.077 6836044
-0.085134283 0.078979999 1.077 7485493
-0.083082855 0.078979999 1.077 7617079
-0.081031427 0.078979999 1.077 7746859
-0.078686669 0.078686669 1.0730001 7220515
-0.076428577 0.078466676 1.0700001 7546400
-0.074390478 0.078466676 1.0700001 7085849
-0.071879052 0.077953339 1.0630001 7214350
-0.069854289 0.077953339 1.0630001 7082764
-0.067829534 0.077953339 1.0630001 7147267
-0.065619051 0.077733338 1.0600001 7147267
-0.063600004 0.077733338 1.0600001 7213323
-0.061580956 0.077733338 1.0600001 7015944
-0.059561908 0.077733338 1.0600001 7080965
-0.057542857 0.077733338 1.0600001 7015172
-0.055366669 0.07751333 1.057 7211776
-0.053201903 0.077293336 1.054 7211776
-0.051194288 0.077293336 1.054 7277576
-0.049186666 0.077293336 1.054 7803920
-0.047179051 0.077293336 1.054 7672871
-0.045171428 0.077293336 1.054 7870250
-0.04316381 0.077293336 1.054 7608611
-0.041156191 0.077293336 1.054 7016474
-0.039260004 0.07751333 1.057 7147787
-0.037140954 0.077293336 1.054 7476752
-0.035133332 0.077293336 1.054 7476253
-0.033220001 0.07751333 1.057 7542046
-0.031206667 0.07751333 1.057 7608602
-0.029193334 0.07751333 1.057 7542809
-0.027334288 0.077953339 1.0630001 7741472
-0.025309525 0.077953339 1.0630001 8070437
-0.023284763 0.077953339 1.0630001 8531249
-0.021260001 0.077953339 1.0630001 8728628
-0.019307619 0.078246668 1.067 8991023
-0.017275238 0.078246668 1.067 9056816
-0.015328572 0.078686669 1.0730001 9122357
-0.013284763 0.078686669 1.0730001 10175045
-0.011282858 0.078979999 1.077 9783600
-0.0092314286 0.078979999 1.077 9454635
-0.0072000003 0.0792 1.08 9783089
-0.0051428573 0.0792 1.08 11230535
-0.0030857145 0.0792 1.08 12220783
-0.0010285715 0.0792 1.08 16761528
0.0010285715 0.0792 1.08 15911339
-0.09394668 0.081558101 1.0840001 15323589
-0.091542862 0.081257142 1.08 15784140
-0.08948572 0.081257142 1.08 15059890
-0.08742857 0.081257142 1.08 8020039
-0.085371435 0.081257142 1.08 7616082
-0.083082855 0.081031427 1.077 7945047
-0.081031427 0.081031427 1.077 7746607
-0.078686669 0.080730483 1.0730001 7680814
-0.076642863 0.080730483 1.0730001 7678257
-0.074390478 0.080504768 1.0700001 7809843
-0.07214953 0.080279045 1.067 7809831
-0.069854289 0.079978101 1.0630001 7875624
-0.067829534 0.079978101 1.0630001 7940654
-0.065804772 0.079978101 1.0630001 8006447
-0.063780002 0.079978101 1.0630001 8072240
-0.06175524 0.079978101 1.0630001 8006447
-0.059561908 0.079752386 1.0600001 8071470
-0.057542857 0.079752386 1.0600001 8203056
-0.055523813 0.079752386 1.0600001 8202795
-0.053353336 0.07952667 1.057 8202795
-0.051340003 0.07952667 1.057 8400444
-0.049326669 0.07952667 1.057 9124167
-0.047313333 0.07952667 1.057 9257550
-0.045300003 0.07952667 1.057 9454929
-0.04316381 0.079300947 1.054 9191750
-0.041156191 0.079300947 1.054 8402234
-0.039260004 0.07952667 1.057 8533552
-0.037246667 0.07952667 1.057 8665138
-0.035233337 0.07952667 1.057 8664888
-0.033220001 0.07952667 1.057 8533302
-0.03129524 0.079752386 1.0600001 8532793
-0.029276192 0.079752386 1.0600001 8401207
-0.027334288 0.079978101 1.0630001 8597807
-0.025309525 0.079978101 1.0630001 8729393
-0.023284763 0.079978101 1.0630001 8860223
-0.021260001 0.079978101 1.0630001 8794430
-0.019307619 0.080279045 1.067 8925222
-0.017275238 0.080279045 1.067 8925222
-0.015328572 0.080730483 1.0730001 9188152
-0.013284763 0.080730483 1.0730001 10832977
-0.011282858 0.081031427 1.077 10113589
-0.0092314286 0.081031427 1.077 9850417
-0.0072000003 0.081257142 1.08 10046263
-0.0051428573 0.081257142 1.08 11954260
-0.0030857145 0.081257142 1.08 12682368
-0.0010323811 0.081558101 1.0840001 16762048
0.0010352382 0.081783809 1.087 15845546
0.0031057145 0.081783809 1.087 15977132
-0.09394668 0.083622865 1.0840001 15388353
-0.091881916 0.083622865 1.0840001 16046283
-0.08948572 0.083314285 1.08 15257546
-0.08742857 0.083314285 1.08 9073004
-0.085371435 0.083314285 1.08 8868168
-0.083314285 0.083314285 1.08 7749687
-0.081031427 0.083082855 1.077 8010288
-0.078686669 0.082774296 1.0730001 7615530
-0.076642863 0.082774296 1.0730001 7810345
-0.074390478 0.082542859 1.0700001 7941931
-0.07214953 0.082311429 1.067 7942444
-0.069854289 0.082002863 1.0630001 7876651
-0.067829534 0.082002863 1.0630001 8071988
-0.065804772 0.082002863 1.0630001 8071988
-0.063780002 0.082002863 1.0630001 8203826
-0.06175524 0.082002863 1.0630001 8006447
-0.059561908 0.081771433 1.0600001 8071209
-0.057542857 0.081771433 1.0600001 8531760
-0.055523813 0.081771433 1.0600001 8466989
-0.053353336 0.081540003 1.057 8401196
-0.051340003 0.081540003 1.057 8663355
-0.049326669 0.081540003 1.057 9847629
-0.047313333 0.081540003 1.057 9521744
-0.045300003 0.081540003 1.057 9521744
-0.043286666 0.081540003 1.057 9520199
-0.041273333 0.081540003 1.057 8599097
-0.039260004 0.081540003 1.057 8860725
-0.037352383 0.081771433 1.0600001 8926518
-0.035333335 0.081771433 1.0600001 8795450
-0.033314288 0.081771433 1.0600001 8729657
-0.03129524 0.081771433 1.0600001 8729398
-0.029276192 0.081771433 1.0600001 8597812
-0.027334288 0.082002863 1.0630001 8728880
-0.025309525 0.082002863 1.0630001 8860466
-0.023284763 0.082002863 1.0630001 8991802
-0.021340001 0.082311429 1.067 8860216
-0.019307619 0.082311429 1.067 8989732
-0.017323811 0.082542859 1.0700001 9121318
-0.015328572 0.082774296 1.0730001 9319477
-0.013284763 0.082774296 1.0730001 10898509
-0.011282858 0.083082855 1.077 10310714
-0.0092571434 0.083314285 1.08 9981749
-0.0072000003 0.083314285 1.08 10242870
-0.0051428573 0.083314285 1.08 12085074
-0.003097143 0.083622865 1.0840001 13209467
-0.0010323811 0.083622865 1.0840001 16696496
0.0010352382 0.083854288 1.087 15713699
0.0031142856 0.084085718 1.09 15911078
0.0051904763 0.084085718 1.09 15714210
-0.091881916 0.085687622 1.0840001 16374732
-0.089817151 0.085687622 1.0840001 15389384
-0.087752387 0.085687622 1.0840001 9928565
-0.085371435 0.085371435 1.08 8540230
-0.083314285 0.085371435 1.08 7421749
-0.081031427 0.085134283 1.077 8010031
-0.078979999 0.085134283 1.077 8141617
-0.076642863 0.084818102 1.0730001 8206125
-0.07459905 0.084818102 1.0730001 7942953
-0.07235238 0.084580958 1.0700001 7941156
-0.069854289 0.084027618 1.0630001 8138535
-0.067829534 0.084027618 1.0630001 8269626
-0.065804772 0.084027618 1.0630001 8072247
-0.063780002 0.084027618 1.0630001 8269358
-0.06175524 0.084027618 1.0630001 8335151
-0.059730481 0.084027618 1.0630001 8202545
-0.057542857 0.083790481 1.0600001 8663096
-0.055523813 0.083790481 1.0600001 8597807
-0.053504765 0.083790481 1.0600001 8663600
-0.051485714 0.083790481 1.0600001 8859966
-0.049326669 0.083553337 1.057 9978447
-0.047313333 0.083553337 1.057 9586242
-0.045300003 0.083553337 1.057 9520449
-0.043286666 0.083553337 1.057 9519936
-0.041273333 0.083553337 1.057 8664627
-0.039371431 0.083790481 1.0600001 8991802
-0.037352383 0.083790481 1.0600001 9123388
-0.035333335 0.083790481 1.0600001 8992572
-0.033314288 0.083790481 1.0600001 8860986
-0.03129524 0.083790481 1.0600001 8860473
-0.029359048 0.084027618 1.0630001 8794680
-0.027437143 0.084343813 1.067 8860975
-0.025404762 0.084343813 1.067 8860975
-0.023372382 0.084343813 1.067 9122609
-0.021340001 0.084343813 1.067 9319988
-0.019361906 0.084580958 1.0700001 9385771
-0.017372381 0.084818102 1.0730001 9517357
-0.015328572 0.084818102 1.0730001 9516858
-0.013334286 0.085134283 1.077 9977409
-0.011282858 0.085134283 1.077 10044992
-0.0092571434 0.085371435 1.08 10242371
-0.0072266674 0.085687622 1.0840001 9782832
-0.0051619052 0.085687622 1.0840001 12217173
-0.003097143 0.085687622 1.0840001 13012609
-0.0010352382 0.08592476 1.087 16763067
0.0010352382 0.08592476 1.087 16042664
0.0031142856 0.086161904 1.09 16042664
0.0051904763 0.086161904 1.09 15911332
-0.09006571 0.087995239 1.087 15520709
-0.087995239 0.087995239 1.087 10059890
-0.085687622 0.087752387 1.0840001 9262403
-0.083622865 0.087752387 1.0840001 7551785
-0.081257142 0.08742857 1.08 7812139
-0.078979999 0.087185711 1.077 7943725
-0.076928571 0.087185711 1.077 8337204
-0.07459905 0.086861916 1.0730001 8008239
-0.072555244 0.086861916 1.0730001 8203815
-0.070314288 0.086619049 1.0700001 8203815
-0.068084762 0.08637619 1.067 8334901
-0.066052385 0.08637619 1.067 8269108
-0.06402 0.08637619 1.067 8465199
-0.06175524 0.086052381 1.0630001 8596785
-0.059730481 0.086052381 1.0630001 8335151
-0.057705715 0.086052381 1.0630001 8532530
-0.055680957 0.086052381 1.0630001 8663600
-0.053656194 0.086052381 1.0630001 8729393
-0.051485714 0.085809529 1.0600001 8860473
-0.04946667 0.085809529 1.0600001 9452610
-0.047447622 0.085809529 1.0600001 9323068
-0.045428574 0.085809529 1.0600001 9454654
-0.043409526 0.085809529 1.0600001 9651272
-0.041390479 0.085809529 1.0600001 8795963
-0.039371431 0.085809529 1.0600001 9123129
-0.037458096 0.086052381 1.0630001 9188922
-0.035433333 0.086052381 1.0630001 9057854
-0.033408575 0.086052381 1.0630001 9057854
-0.031383812 0.086052381 1.0630001 8926261
-0.029359048 0.086052381 1.0630001 8926261
-0.027437143 0.08637619 1.067 9122609
-0.025476191 0.086619049 1.0700001 9122609
-0.023438096 0.086619049 1.0700001 9188402
-0.021400001 0.086619049 1.0700001 9319988
-0.019361906 0.086619049 1.0700001 9451053
-0.017372381 0.086861916 1.0730001 9451053
-0.015385714 0.087185711 1.077 9713976
-0.013334286 0.087185711 1.077 10108734
-0.011314286 0.08742857 1.08 9912376
-0.0092571434 0.08742857 1.08 10175548
-0.0072266674 0.087752387 1.0840001 9519656
-0.0051619052 0.087752387 1.0840001 13598822
-0.003097143 0.087752387 1.0840001 13804682
-0.0010323811 0.087752387 1.0840001 16370609
0.0010352382 0.087995239 1.087 16042666
0.0031057145 0.087995239 1.087 16042666
-0.09006571 0.09006571 1.087 15585727
-0.087995239 0.09006571 1.087 12032905
-0.08592476 0.09006571 1.087 9527145
-0.083854288 0.09006571 1.087 6763839
-0.081558101 0.089817151 1.0840001 7679794
-0.0792 0.08948572 1.08 8008759
-0.076928571 0.089237146 1.077 8074037
-0.074877143 0.089237146 1.077 7942451
-0.072555244 0.088905722 1.0730001 8073517
-0.070314288 0.088657148 1.0700001 8073517
-0.068084762 0.088408574 1.067 8269871
-0.066052385 0.088408574 1.067 8269871
-0.06402 0.088408574 1.067 8269610
-0.06175524 0.08807715 1.0630001 8269610
-0.059730481 0.08807715 1.0630001 8465195
-0.057705715 0.08807715 1.0630001 8530988
-0.055680957 0.08807715 1.0630001 8662060
-0.053656194 0.08807715 1.0630001 8727853
-0.051631432 0.08807715 1.0630001 8662324
-0.04960667 0.08807715 1.0630001 9451840
-0.047581907 0.08807715 1.0630001 9190199
-0.045428574 0.087828577 1.0600001 9124406
-0.043409526 0.087828577 1.0600001 9189440
-0.041390479 0.087828577 1.0600001 8992061
-0.039371431 0.087828577 1.0600001 9122609
-0.037458096 0.08807715 1.0630001 9319988
-0.035433333 0.08807715 1.0630001 9188927
-0.033408575 0.08807715 1.0630001 9123134
-0.031383812 0.08807715 1.0630001 8926261
-0.029469524 0.088408574 1.067 8926261
-0.027514286 0.088657148 1.0700001 9056816
-0.025476191 0.088657148 1.0700001 9056816
-0.023438096 0.088657148 1.0700001 9122609
-0.021400001 0.088657148 1.0700001 9122609
-0.019416191 0.088905722 1.0730001 9318446
-0.017372381 0.088905722 1.0730001 9450032
-0.015385714 0.089237146 1.077 9646137
-0.013334286 0.089237146 1.077 10501446
-0.011314286 0.08948572 1.08 10043202
-0.0092571434 0.08948572 1.08 10174788
-0.0072266674 0.089817151 1.0840001 10177849
-0.0051619052 0.089817151 1.0840001 14783359
-0.003097143 0.089817151 1.0840001 14461587
-0.0010323811 0.089817151 1.0840001 16764856
0.0010352382 0.09006571 1.087 16109229
0.0031057145 0.09006571 1.087 15846057
-0.087995239 0.092136197 1.087 13019800
-0.08592476 0.092136197 1.087 11502457
-0.083854288 0.092136197 1.087 6896947
-0.081783809 0.092136197 1.087 7746346
-0.079493344 0.091881916 1.0840001 7877932
-0.077142857 0.091542862 1.08 7942192
-0.074877143 0.091288574 1.077 7876399
-0.072825715 0.091288574 1.077 7942444
-0.070511431 0.090949535 1.0730001 7810858
-0.068276189 0.09069524 1.0700001 8204328
-0.066238098 0.09069524 1.0700001 8204328
-0.06402 0.090440959 1.067 8334890
-0.061987624 0.090440959 1.067 8269097
-0.059955239 0.090440959 1.067 8399137
-0.057922855 0.090440959 1.067 8530723
-0.055890478 0.090440959 1.067 8727592
-0.053656194 0.090101913 1.0630001 8727592
-0.051631432 0.090101913 1.0630001 8726829
-0.04960667 0.090101913 1.0630001 9450552
-0.047581907 0.090101913 1.0630001 9189942
-0.045557145 0.090101913 1.0630001 9124149
-0.043532383 0.090101913 1.0630001 9123899
-0.041507624 0.090101913 1.0630001 9058106
-0.039482862 0.090101913 1.0630001 9189179
-0.037458096 0.090101913 1.0630001 9320765
-0.035566669 0.090440959 1.067 9189447
-0.033534288 0.090440959 1.067 9057861
-0.031501904 0.090440959 1.067 9057336
-0.029469524 0.090440959 1.067 9057336
-0.027514286 0.09069524 1.0700001 8991015
-0.025547622 0.090949535 1.0730001 8925222
-0.023438096 0.09069524 1.0700001 9056816
-0.021400001 0.09069524 1.0700001 9122609
-0.019416191 0.090949535 1.0730001 9319721
-0.017437143 0.091288574 1.077 9188135
-0.015385714 0.091288574 1.077 9646389
-0.013371429 0.091542862 1.08 10304319
-0.011314286 0.091542862 1.08 10042409
-0.0092914291 0.091881916 1.0840001 10239788
-0.0072266674 0.091881916 1.0840001 10769475
-0.0051619052 0.091881916 1.0840001 15177606
-0.003097143 0.091881916 1.0840001 14855832
-0.0010352382 0.092136197 1.087 16566450
0.0010352382 0.092136197 1.087 15648939
0.0031057145 0.092136197 1.087 15714732
-0.087995239 0.094206668 1.087 14006182
-0.08592476 0.094206668 1.087 12688264
-0.083854288 0.094206668 1.087 7293238
-0.081783809 0.094206668 1.087 7811119
-0.079493344 0.09394668 1.0840001 8205877
-0.077142857 0.093600005 1.08 8074037
-0.074877143 0.093340002 1.077 8008244
-0.072825715 0.093340002 1.077 8073255
-0.070511431 0.092993334 1.0730001 7941669
-0.068467624 0.092993334 1.0730001 8203815
-0.066238098 0.092733338 1.0700001 8335401
-0.064200006 0.092733338 1.0700001 8335403
-0.061987624 0.092473336 1.067 8138024
-0.059955239 0.092473336 1.067 8464930
-0.057922855 0.092473336 1.067 8596516
-0.055890478 0.092473336 1.067 8859691
-0.053858098 0.092473336 1.067 8859691
-0.051631432 0.092126675 1.0630001 8859189
-0.04960667 0.092126675 1.0630001 9253947
-0.047581907 0.092126675 1.0630001 9322036
-0.045557145 0.092126675 1.0630001 9716794
-0.043532383 0.092126675 1.0630001 9454143
-0.041507624 0.092126675 1.0630001 8927799
-0.039482862 0.092126675 1.0630001 9123647
-0.037599046 0.092473336 1.067 9189440
-0.035566669 0.092473336 1.067 9189199
-0.033534288 0.092473336 1.067 8991820
-0.031501904 0.092473336 1.067 9057336
-0.029552381 0.092733338 1.0700001 8991543
-0.027591432 0.092993334 1.0730001 8925472
-0.025547622 0.092993334 1.0730001 8991265
-0.02350381 0.092993334 1.0730001 9188402
-0.02146 0.092993334 1.0730001 9188402
-0.019416191 0.092993334 1.0730001 9319477
-0.017437143 0.093340002 1.077 9385270
-0.015385714 0.093340002 1.077 9778745
-0.013371429 0.093600005 1.08 10963019
-0.011356192 0.09394668 1.0840001 10438961
-0.0092914291 0.09394668 1.0840001 10307375
-0.0072466666 0.094206668 1.087 10637630
-0.0051761903 0.094206668 1.087 15243140
-0.0031057145 0.094206668 1.087 14922134
-0.0010352382 0.094206668 1.087 16501166
0.0010352382 0.094206668 1.087 15846059
0.0031057145 0.094206668 1.087 15846059
-0.087995239 0.096277148 1.087 14401712
-0.08592476 0.096277148 1.087 12689554
-0.083854288 0.096277148 1.087 7426114
-0.081783809 0.096277148 1.087 8602156
-0.079493344 0.096011437 1.0840001 8075812
-0.077142857 0.095657147 1.08 8205623
-0.074877143 0.09539143 1.077 8139830
-0.072825715 0.09539143 1.077 8139562
-0.070511431 0.095037147 1.0730001 8139562
-0.068467624 0.095037147 1.0730001 8270634
-0.066238098 0.09477143 1.0700001 8270634
-0.064200006 0.09477143 1.0700001 8531750
-0.061987624 0.094505712 1.067 8400164
-0.059955239 0.094505712 1.067 8596519
-0.057922855 0.094505712 1.067 8662312
-0.055890478 0.094505712 1.067 8859691
-0.053858098 0.094505712 1.067 8859691
-0.051825713 0.094505712 1.067 9056564
-0.04960667 0.094151437 1.0630001 9385529
-0.047581907 0.094151437 1.0630001 9124156
-0.045728575 0.094505712 1.067 9584707
-0.043532383 0.094151437 1.0630001 9190219
-0.041507624 0.094151437 1.0630001 8992840
-0.039482862 0.094151437 1.0630001 9123138
-0.037599046 0.094505712 1.067 9123138
-0.035566669 0.094505712 1.067 9122632
-0.033534288 0.094505712 1.067 9122632
-0.031501904 0.094505712 1.067 9057843
-0.029552381 0.09477143 1.0700001 8860464
-0.027591432 0.095037147 1.0730001 8792866
-0.025547622 0.095037147 1.0730001 9450796
-0.02350381 0.095037147 1.0730001 9320239
-0.02146 0.095037147 1.0730001 9320239
-0.019416191 0.095037147 1.0730001 9517621
-0.017437143 0.09539143 1.077 9386035
-0.015385714 0.09539143 1.077 9778997
-0.013371429 0.095657147 1.08 10831685
-0.011356192 0.096011437 1.0840001 10505015
-0.0093171429 0.096277148 1.087 10241843
-0.0072466666 0.096277148 1.087 10506294
-0.0051761903 0.096277148 1.087 15374976
-0.0031057145 0.096277148 1.087 15054490
-0.0010380952 0.096542858 1.09 16304557
0.0010380952 0.096542858 1.09 15779755
-0.087995239 0.098347619 1.087 14795437
-0.08592476 0.098347619 1.087 13215627
-0.083854288 0.098347619 1.087 6965292
-0.081783809 0.098347619 1.087 8207139
-0.079493344 0.098076202 1.0840001 7943967
-0.077142857 0.09771429 1.08 8204853
-0.075085714 0.09771429 1.08 8270646
-0.072825715 0.097442858 1.077 8270634
-0.070511431 0.097080953 1.0730001 8336427
-0.068467624 0.097080953 1.0730001 8467250
-0.066238098 0.096809521 1.0700001 8335664
-0.064200006 0.096809521 1.0700001 8532263
-0.061987624 0.096538097 1.067 8400677
-0.059955239 0.096538097 1.067 8596267
-0.057922855 0.096538097 1.067 8859439
-0.055890478 0.096538097 1.067 8859691
-0.053858098 0.096538097 1.067 8859691
-0.051825713 0.096538097 1.067 8990514
-0.049793333 0.096538097 1.067 9319479
-0.047760952 0.096538097 1.067 9255485
-0.045728575 0.096538097 1.067 9452864
-0.043696191 0.096538097 1.067 9452623
-0.041507624 0.0961762 1.0630001 9189451
-0.039482862 0.0961762 1.0630001 9122884
-0.037599046 0.096538097 1.067 9188677
-0.035566669 0.096538097 1.067 9123134
-0.033534288 0.096538097 1.067 9057341
-0.031501904 0.096538097 1.067 9189172
-0.029552381 0.096809521 1.0700001 9189172
-0.027591432 0.097080953 1.0730001 9122357
-0.025547622 0.097080953 1.0730001 9714494
-0.02350381 0.097080953 1.0730001 9319729
-0.02146 0.097080953 1.0730001 9319729
-0.019416191 0.097080953 1.0730001 9450802
-0.017437143 0.097442858 1.077 9779767
-0.015428572 0.09771429 1.08 9976877
-0.013371429 0.09771429 1.08 10569014
-0.011356192 0.098076202 1.0840001 10636097
-0.0093171429 0.098347619 1.087 10833476
-0.0072466666 0.098347619 1.087 10769464
-0.0051904763 0.098619051 1.09 15703939
-0.0031142856 0.098619051 1.09 15515291
-0.0010380952 0.098619051 1.09 16436393
0.0010380952 0.098619051 1.09 15911850
0.0031142856 0.098619051 1.09 15780264
-0.087995239 0.1004181 1.087 15650489
-0.08592476 0.1004181 1.087 13676699
-0.083854288 0.1004181 1.087 7294778
-0.081783809 0.1004181 1.087 7943715
-0.079493344 0.10014096 1.0840001 7943715
-0.077142857 0.099771433 1.08 8335925
-0.075085714 0.099771433 1.08 8204339
-0.072825715 0.099494286 1.077 8335403
-0.070774287 0.099494286 1.077 8401196
-0.068467624 0.099124767 1.0730001 8597807
-0.066238098 0.098847628 1.0700001 8597807
-0.064200006 0.098847628 1.0700001 8597282
-0.061987624 0.098570473 1.067 8597282
-0.059955239 0.098570473 1.067 8663079
-0.058085714 0.098847628 1.0700001 8794665
-0.056047622 0.098847628 1.0700001 8925733
-0.053858098 0.098570473 1.067 8925733
-0.051825713 0.098570473 1.067 9056816
-0.049793333 0.098570473 1.067 9319988
-0.047760952 0.098570473 1.067 9254715
-0.045728575 0.098570473 1.067 9715266
-0.043696191 0.098570473 1.067 9584457
-0.041507624 0.098200962 1.0630001 9123906
-0.039482862 0.098200962 1.0630001 9189440
-0.037599046 0.098570473 1.067 9189440
-0.035566669 0.098570473 1.067 9189179
-0.033534288 0.098570473 1.067 9123386
-0.031590477 0.098847628 1.0700001 9189429
-0.029552381 0.098847628 1.0700001 9057843
-0.027591432 0.099124767 1.0730001 9188402
-0.025547622 0.099124767 1.0730001 9254195
-0.02350381 0.099124767 1.0730001 9319216
-0.02146 0.099124767 1.0730001 9450802
-0.019488573 0.099494286 1.077 9515827
-0.017437143 0.099494286 1.077 9844792
-0.015428572 0.099771433 1.08 10041658
-0.013371429 0.099771433 1.08 11094346
-0.011356192 0.10014096 1.0840001 10637367
-0.0093171429 0.1004181 1.087 10571574
-0.0072666667 0.10069524 1.09 10966845
-0.0051904763 0.10069524 1.09 15901320
-0.0031142856 0.10069524 1.09 15580834
-0.0010380952 0.10069524 1.09 16238764
0.0010380952 0.10069524 1.09 15713699
-0.087995239 0.10248857 1.087 15781562
-0.08592476 0.10248857 1.087 14137000
-0.083854288 0.10248857 1.087 7952458
-0.081783809 0.10248857 1.087 7878440
-0.079493344 0.10220572 1.0840001 8404784
-0.077428579 0.10220572 1.0840001 8008505
-0.075085714 0.10182858 1.08 7745333
-0.072825715 0.10154571 1.077 8138527
-0.070774287 0.10154571 1.077 8270113
-0.068722859 0.10154571 1.077 8465957
-0.066423811 0.10116857 1.0730001 8465957
-0.064200006 0.10088572 1.0700001 8597282
-0.062161908 0.10088572 1.0700001 8597282
-0.060123812 0.10088572 1.0700001 8663588
-0.058085714 0.10088572 1.0700001 8663588
-0.056047622 0.10088572 1.0700001 8924959
-0.053858098 0.10060286 1.067 9122338
-0.051825713 0.10060286 1.067 8990771
-0.049793333 0.10060286 1.067 9385529
-0.047760952 0.10060286 1.067 9518905
-0.045728575 0.10060286 1.067 9782077
-0.043696191 0.10060286 1.067 9650754
-0.041663811 0.10060286 1.067 9255996
-0.03963143 0.10060286 1.067 9320508
-0.037599046 0.10060286 1.067 9320508
-0.035566669 0.10060286 1.067 9320508
-0.033534288 0.10060286 1.067 9188922
-0.031590477 0.10088572 1.0700001 9253945
-0.029552381 0.10088572 1.0700001 9188152
-0.027591432 0.10116857 1.0730001 9188402
-0.025642859 0.10154571 1.077 9122609
-0.023591429 0.10154571 1.077 9319220
-0.021540001 0.10154571 1.077 9385013
-0.019488573 0.10154571 1.077 9515827
-0.017437143 0.10154571 1.077 9647413
-0.015428572 0.10182858 1.08 10041658
-0.013420953 0.10220572 1.0840001 11225932
-0.011387618 0.10248857 1.087 10767667
-0.0093428576 0.10277143 1.09 10833460
-0.0072666667 0.10277143 1.09 10967104
-0.0051904763 0.10277143 1.09 15769993
-0.0031142856 0.10277143 1.09 15844769
-0.0010380952 0.10277143 1.09 16371113
0.0010419048 0.10314858 1.0940001 16042398
-0.087995239 0.10455905 1.087 15715510
-0.08592476 0.10455905 1.087 14399911
-0.083854288 0.10455905 1.087 8741713
-0.081783809 0.10455905 1.087 8339507
-0.07971333 0.10455905 1.087 8142128
-0.077428579 0.10427048 1.0840001 8141624
-0.075363822 0.10427048 1.0840001 7812659
-0.073028572 0.10388572 1.08 8071972
-0.070774287 0.10359714 1.077 8203558
-0.068722859 0.10359714 1.077 8529961
-0.066423811 0.10321239 1.0730001 8595754
-0.064380005 0.10321239 1.0730001 8596519
-0.062336192 0.10321239 1.0730001 8596519
-0.060123812 0.10292382 1.0700001 8793385
-0.058085714 0.10292382 1.0700001 8793385
-0.056047622 0.10292382 1.0700001 8924709
-0.054009527 0.10292382 1.0700001 8990502
-0.051825713 0.10263524 1.067 8924208
-0.049793333 0.10263524 1.067 9582138
-0.047760952 0.10263524 1.067 9387330
-0.045728575 0.10263524 1.067 9650502
-0.043696191 0.10263524 1.067 9452871
-0.041663811 0.10263524 1.067 9255492
-0.03963143 0.10263524 1.067 9320767
-0.037599046 0.10263524 1.067 9320767
-0.035566669 0.10263524 1.067 9320508
-0.033534288 0.10263524 1.067 9123129
-0.031590477 0.10292382 1.0700001 9253945
-0.029552381 0.10292382 1.0700001 9122359
-0.027694287 0.10359714 1.077 9121846
-0.025642859 0.10359714 1.077 9121846
-0.023591429 0.10359714 1.077 9319220
-0.021540001 0.10359714 1.077 9385013
-0.019488573 0.10359714 1.077 9516338
-0.017485715 0.10388572 1.08 9516338
-0.015485716 0.10427048 1.0840001 10172718
-0.013420953 0.10427048 1.0840001 11422785
-0.011419049 0.10484762 1.09 10833712
-0.0093428576 0.10484762 1.09 10833712
-0.0072666667 0.10484762 1.09 11033415
-0.0051904763 0.10484762 1.09 15967890
-0.0031257146 0.10523239 1.0940001 15844517
-0.0010419048 0.10523239 1.0940001 16173482
0.0010419048 0.10523239 1.0940001 15910560
-0.088238098 0.10692381 1.09 15584175
-0.086161904 0.10692381 1.09 14729638
-0.083854288 0.10662952 1.087 9137233
-0.081783809 0.10662952 1.087 8208201
-0.07971333 0.10662952 1.087 7879236
-0.077642858 0.10662952 1.087 8140593
-0.075363822 0.10633525 1.0840001 8337972
-0.073028572 0.10594286 1.08 8270128
-0.070971429 0.10594286 1.08 8138542
-0.068722859 0.10564857 1.077 8399402
-0.066423811 0.10525619 1.0730001 8399402
-0.064380005 0.10525619 1.0730001 8662060
-0.062336192 0.10525619 1.0730001 8662060
-0.060292382 0.10525619 1.0730001 8726829
-0.058248572 0.10525619 1.0730001 8858415
-0.056204766 0.10525619 1.0730001 8924971
-0.054009527 0.10496191 1.0700001 8859178
-0.051971432 0.10496191 1.0700001 8924471
-0.049793333 0.10466762 1.067 9582401
-0.047760952 0.10466762 1.067 9387330
-0.045728575 0.10466762 1.067 10440018
-0.043696191 0.10466762 1.067 9849663
-0.041663811 0.10466762 1.067 8994354
-0.03963143 0.10466762 1.067 9451326
-0.037599046 0.10466762 1.067 9517119
-0.035566669 0.10466762 1.067 9451576
-0.033628572 0.10496191 1.0700001 9254197
-0.031590477 0.10496191 1.0700001 9318975
-0.029635239 0.10525619 1.0730001 9253182
-0.027694287 0.10564857 1.077 9253175
-0.025642859 0.10564857 1.077 9055796
-0.023591429 0.10564857 1.077 9252664
-0.021540001 0.10564857 1.077 9186871
-0.019542858 0.10594286 1.08 9580596
-0.017485715 0.10594286 1.08 10106940
-0.015485716 0.10633525 1.0840001 10370349
-0.013458095 0.10662952 1.087 11423037
-0.011387618 0.10662952 1.087 10833199
-0.0093428576 0.10692381 1.09 11096371
-0.0072666667 0.10692381 1.09 11033165
-0.0052095242 0.1073162 1.0940001 16296605
-0.0031257146 0.1073162 1.0940001 15713694
-0.0010419048 0.1073162 1.0940001 15911073
0.0010419048 0.1073162 1.0940001 15714212
-0.086161904 0.109 1.09 14928306
-0.084085718 0.109 1.09 9730659
-0.081783809 0.1087 1.087 8606286
-0.07971333 0.1087 1.087 7422012
-0.077642858 0.1087 1.087 8008237
-0.075572379 0.1087 1.087 8139823
-0.07329905 0.10840001 1.0840001 8401457
-0.070971429 0.108 1.08 8204078
-0.068914287 0.108 1.08 8662060
-0.066671431 0.1077 1.077 8727853
-0.064380005 0.10730001 1.0730001 8662324
-0.062336192 0.10730001 1.0730001 8596531
-0.060292382 0.10730001 1.0730001 8726829
-0.058248572 0.10730001 1.0730001 8990001
-0.056204766 0.10730001 1.0730001 8990514
-0.054009527 0.10700001 1.0700001 9056307
-0.051971432 0.10700001 1.0700001 9187382
-0.049933337 0.10700001 1.0700001 9450554
-0.047895238 0.10700001 1.0700001 9255485
-0.045857143 0.10700001 1.0700001 10242380
-0.043819048 0.10700001 1.0700001 9784650
-0.041780956 0.10700001 1.0700001 8797755
-0.03963143 0.1067 1.067 9319227
-0.037599046 0.1067 1.067 9450813
-0.035666667 0.10700001 1.0700001 9516345
-0.033628572 0.10700001 1.0700001 9253173
-0.031590477 0.10700001 1.0700001 9318457
-0.029635239 0.10730001 1.0730001 9318457
-0.027694287 0.1077 1.077 9318707
-0.025642859 0.1077 1.077 9121328
-0.023591429 0.1077 1.077 9383737
-0.021600001 0.108 1.08 9449530
-0.019542858 0.108 1.08 9711917
-0.017485715 0.108 1.08 9975089
-0.015485716 0.10840001 1.0840001 10437171
-0.013458095 0.1087 1.087 11358273
-0.011387618 0.1087 1.087 10833199
-0.0093428576 0.109 1.09 11030578
-0.0072666667 0.109 1.09 10901843
-0.0052095242 0.10940001 1.0940001 16428455
-0.0031257146 0.10940001 1.0940001 15713699
-0.0010419048 0.10940001 1.0940001 15845285
-0.086478107 0.11148382 1.0940001 15058860
-0.084085718 0.11107619 1.09 10913901
-0.082009524 0.11107619 1.09 9262935
-0.07993333 0.11107619 1.09 7618110
-0.077642858 0.11077047 1.087 8007735
-0.075572379 0.11077047 1.087 8139321
-0.073501907 0.11077047 1.087 8401457
-0.071234293 0.11046477 1.0840001 8335664
-0.068914287 0.11005715 1.08 8727853
-0.066671431 0.10975143 1.077 8925232
-0.064619996 0.10975143 1.077 8924476
-0.062336192 0.10934381 1.0730001 8727097
-0.060292382 0.10934381 1.0730001 8726572
-0.058248572 0.10934381 1.0730001 8989744
-0.056204766 0.10934381 1.0730001 8990771
-0.054009527 0.1090381 1.0700001 9056564
-0.051971432 0.1090381 1.0700001 9121589
-0.049933337 0.1090381 1.0700001 9318968
