# .PCD v0.7 - Point Cloud Data file format
VERSION 0.7
FIELDS x y z rgb
SIZE 4 4 4 4
TYPE F F F F
COUNT 1 1 1 1
WIDTH 962
HEIGHT 1
VIEWPOINT 0 0 0 1 0 0 0
POINTS 962
DATA ascii
-0.16393429 -0.011774287 0.95100003 9.0379813e-39
-0.16127047 -0.011712381 0.94600004 8.8571031e-39
-0.15946858 -0.011712381 0.94600004 8.2117435e-39
-0.15716667 -0.011675238 0.94300002 7.3837891e-39
-0.15537049 -0.011675238 0.94300002 6.8306238e-39
-0.15308572 -0.011638097 0.94000006 4.4411072e-39
-0.15129524 -0.011638097 0.94000006 2.5050284e-39
-0.14950477 -0.011638097 0.94000006 1.4040786e-39
-0.14740001 -0.011613334 0.93800002 1.4040786e-39
-0.14561333 -0.011613334 0.93800002 1.4040786e-39
-0.14336666 -0.011576191 0.93500006 1.8650498e-39
-0.14158572 -0.011576191 0.93500006 1.6793441e-39
-0.13950571 -0.01155143 0.93300003 4.445213e-39
-0.13772857 -0.01155143 0.93300003 6.4663338e-39
-0.13595143 -0.01155143 0.93300003 8.4946377e-39
-0.13417429 -0.01155143 0.93300003 1.1345846e-38
-0.13197143 -0.011514287 0.93000007 1.2636584e-38
-0.1302 -0.011514287 0.93000007 1.3740045e-38
-0.12842858 -0.011514287 0.93000007 1.4569806e-38
-0.12706572 -0.01155143 0.93300003 1.4018405e-38
-0.12528858 -0.01155143 0.93300003 1.4294992e-38
-0.12351143 -0.01155143 0.93300003 1.4110973e-38
-0.12173429 -0.01155143 0.93300003 1.4018778e-38
-0.12021429 -0.011576191 0.93500006 1.3742194e-38
-0.11843334 -0.011576191 0.93500006 1.3742194e-38
-0.11665238 -0.011576191 0.93500006 1.3558891e-38
-0.11524001 -0.011613334 0.93800002 1.2544739e-38
-0.11345333 -0.011613334 0.93800002 1.061006e-38
-0.11190477 -0.011638097 0.94000006 1.061006e-38
-0.11046572 -0.011675238 0.94300002 1.1252186e-38
-0.10866953 -0.011675238 0.94300002 1.1436577e-38
-0.10721334 -0.011712381 0.94600004 1.0791568e-38
-0.10541143 -0.011712381 0.94600004 1.0330589e-38
-0.10382858 -0.011737144 0.94800007 1.0514277e-38
-0.10202286 -0.011737144 0.94800007 1.1989407e-38
-0.10053429 -0.011774287 0.95100003 1.1896461e-38
-0.099034294 -0.011811429 0.95400006 1.1343287e-38
-0.097217143 -0.011811429 0.95400006 1.0699362e-38
-0.095400006 -0.011811429 0.95400006 8.2100802e-39
-0.09377905 -0.011836191 0.95600003 8.8518623e-39
-0.091958091 -0.011836191 0.95600003 1.3646035e-38
-0.09042 -0.011873334 0.95900005 1.5026073e-38
-0.088593334 -0.011873334 0.95900005 1.4749486e-38
-0.17390096 -0.010015239 0.95600003 1.3828619e-38
-0.17208001 -0.010015239 0.95600003 1.3828619e-38
-0.16990286 -0.0099942861 0.95400006 1.1247151e-38
-0.16755715 -0.0099628577 0.95100003 7.2827387e-39
-0.16574572 -0.0099628577 0.95100003 7.2848378e-39
-0.16393429 -0.0099628577 0.95100003 9.8663155e-39
-0.16161144 -0.0099314293 0.94800007 9.5000413e-39
-0.15946858 -0.0099104764 0.94600004 8.7624762e-39
-0.15716667 -0.009879048 0.94300002 8.1188641e-39
-0.15537049 -0.009879048 0.94300002 7.8422772e-39
-0.15357429 -0.009879048 0.94300002 4.9006434e-39
-0.15129524 -0.0098476186 0.94000006 3.2411473e-39
-0.14950477 -0.0098476186 0.94000006 1.5892028e-39
-0.14771429 -0.0098476186 0.94000006 1.036029e-39
-0.14561333 -0.0098266667 0.93800002 5.7433058e-40
-0.14382666 -0.0098266667 0.93800002 1.127496e-39
-0.14158572 -0.0097952392 0.93500006 7.5985129e-40
-0.13950571 -0.0097742863 0.93300003 1.6818076e-39
-0.13772857 -0.0097742863 0.93300003 4.4405607e-39
-0.13595143 -0.0097742863 0.93300003 4.1639738e-39
-0.13417429 -0.0097742863 0.93300003 7.1059621e-39
-0.13239715 -0.0097742863 0.93300003 9.3186572e-39
-0.13062 -0.0097742863 0.93300003 1.3093212e-38
-0.12884286 -0.0097742863 0.93300003 1.4107363e-38
-0.12706572 -0.0097742863 0.93300003 1.4569428e-38
-0.12528858 -0.0097742863 0.93300003 1.4385036e-38
-0.12351143 -0.0097742863 0.93300003 1.3926938e-38
-0.12173429 -0.0097742863 0.93300003 1.3926938e-38
-0.12021429 -0.0097952392 0.93500006 1.3742191e-38
-0.11843334 -0.0097952392 0.93500006 1.3834386e-38
-0.11665238 -0.0097952392 0.93500006 1.3007881e-38
-0.11524001 -0.0098266667 0.93800002 1.1809338e-38
-0.11369524 -0.0098476186 0.94000006 1.0241999e-38
-0.11226191 -0.009879048 0.94300002 1.0518586e-38
-0.11046572 -0.009879048 0.94300002 1.1528051e-38
-0.10901524 -0.0099104764 0.94600004 1.1620246e-38
-0.10721334 -0.0099104764 0.94600004 1.0330952e-38
-0.10563429 -0.0099314293 0.94800007 9.9621699e-39
-0.10382858 -0.0099314293 0.94800007 9.9636146e-39
-0.10234572 -0.0099628577 0.95100003 1.153094e-38
-0.10053429 -0.0099628577 0.95100003 1.1253625e-38
-0.099034294 -0.0099942861 0.95400006 1.0884842e-38
-0.097217143 -0.0099942861 0.95400006 1.1251094e-38
-0.095600002 -0.010015239 0.95600003 8.9462033e-39
-0.09377905 -0.010015239 0.95600003 9.2195476e-39
-0.092246674 -0.010046667 0.95900005 1.3737133e-38
-0.090702862 -0.010078096 0.96200007 1.5026073e-38
-0.088870488 -0.010078096 0.96200007 1.4749486e-38
-0.17390096 -0.0081942854 0.95600003 1.3828616e-38
-0.17208001 -0.0081942854 0.95600003 1.3920811e-38
-0.16990286 -0.0081771435 0.95400006 1.1063122e-38
-0.16755715 -0.0081514288 0.95100003 7.6518842e-39
-0.16574572 -0.0081514288 0.95100003 7.8384558e-39
-0.16393429 -0.0081514288 0.95100003 1.069652e-38
-0.16161144 -0.008125715 0.94800007 1.0882312e-38
-0.15946858 -0.0081085712 0.94600004 1.1619877e-38
-0.15716667 -0.0080828574 0.94300002 1.134399e-38
-0.15537049 -0.0080828574 0.94300002 1.0975208e-38
-0.15357429 -0.0080828574 0.94300002 9.1359615e-39
-0.15129524 -0.0080571435 0.94000006 8.029614e-39
-0.14950477 -0.0080571435 0.94000006 2.8775272e-39
-0.14771429 -0.0080571435 0.94000006 1.7711796e-39
-0.14592382 -0.0080571435 0.94000006 7.5980224e-40
-0.14382666 -0.0080400007 0.93800002 1.0363891e-39
-0.14204 -0.0080400007 0.93800002 7.5916045e-40
-0.13980478 -0.0080142869 0.93500006 1.5889211e-39
-0.13802381 -0.0080142869 0.93500006 2.3247878e-39
-0.13624287 -0.0080142869 0.93500006 2.4169834e-39
-0.13446191 -0.0080142869 0.93500006 1.9549319e-39
-0.13239715 -0.0079971431 0.93300003 1.1101927e-40
-0.13062 -0.0079971431 0.93300003 3.2402449e-39
-0.12884286 -0.0079971431 0.93300003 1.0247113e-38
-0.12706572 -0.0079971431 0.93300003 1.3741831e-38
-0.12528858 -0.0079971431 0.93300003 1.4018417e-38
-0.12351143 -0.0079971431 0.93300003 1.3834742e-38
-0.12173429 -0.0079971431 0.93300003 1.3742547e-38
-0.12021429 -0.0080142869 0.93500006 1.3741828e-38
-0.11843334 -0.0080142869 0.93500006 1.3834023e-38
-0.11665238 -0.0080142869 0.93500006 1.3190827e-38
-0.11524001 -0.0080400007 0.93800002 1.2176675e-38
-0.11369524 -0.0080571435 0.94000006 1.0425669e-38
-0.11226191 -0.0080828574 0.94300002 1.0702256e-38
-0.11046572 -0.0080828574 0.94300002 1.1436927e-38
-0.10901524 -0.0081085712 0.94600004 1.1621318e-38
-0.10721334 -0.0081085712 0.94600004 1.0423163e-38
-0.10563429 -0.008125715 0.94800007 9.9621853e-39
-0.10382858 -0.008125715 0.94800007 1.0606476e-38
-0.10234572 -0.0081514288 0.95100003 1.2173801e-38
-0.10053429 -0.0081514288 0.95100003 1.1804643e-38
-0.099034294 -0.0081771435 0.95400006 1.125147e-38
-0.097420953 -0.0081942854 0.95600003 1.1158898e-38
-0.095600002 -0.0081942854 0.95600003 9.0383989e-39
-0.09377905 -0.0081942854 0.95600003 9.1284464e-39
-0.092246674 -0.0082200002 0.95900005 1.3185054e-38
-0.090702862 -0.0082457149 0.96200007 1.502606e-38
-0.088870488 -0.0082457149 0.96200007 1.4657278e-38
-0.17390096 -0.0063733337 0.95600003 1.3459833e-38
-0.17208001 -0.0063733337 0.95600003 1.3828616e-38
-0.16990286 -0.0063600005 0.95400006 1.1800325e-38
-0.16808572 -0.0063600005 0.95400006 8.0203037e-39
-0.16626859 -0.0063600005 0.95400006 8.1167873e-39
-0.16393429 -0.0063399998 0.95100003 1.0421678e-38
-0.16161144 -0.0063200006 0.94800007 1.0055438e-38
-0.15946858 -0.0063066669 0.94600004 1.0977394e-38
-0.15716667 -0.0062866667 0.94300002 1.1621656e-38
-0.15537049 -0.0062866667 0.94300002 1.1806047e-38
-0.15357429 -0.0062866667 0.94300002 1.1253612e-38
-0.1517781 -0.0062866667 0.94300002 9.6862865e-39
-0.14950477 -0.006266667 0.94000006 8.6753715e-39
-0.14771429 -0.006266667 0.94000006 7.0158502e-39
-0.14592382 -0.006266667 0.94000006 5.2691653e-39
-0.14382666 -0.0062533333 0.93800002 3.3330571e-39
-0.14204 -0.0062533333 0.93800002 8.5209737e-40
-0.13980478 -0.0062333336 0.93500006 1.4052711e-39
-0.13802381 -0.0062333336 0.93500006 2.0485666e-39
-0.13624287 -0.0062333336 0.93500006 2.4173492e-39
-0.13446191 -0.0062333336 0.93500006 2.6910522e-39
-0.13239715 -0.0062199999 0.93300003 5.7055268e-40
-0.13062 -0.0062199999 0.93300003 6.6233493e-40
-0.12884286 -0.0062199999 0.93300003 8.867746e-39
-0.12706572 -0.0062199999 0.93300003 1.3006068e-38
-0.12528858 -0.0062199999 0.93300003 1.3835828e-38
-0.1237762 -0.0062333336 0.93500006 1.3926582e-38
-0.12199524 -0.0062333336 0.93500006 1.3742191e-38
-0.12021429 -0.0062333336 0.93500006 1.3834023e-38
-0.11843334 -0.0062333336 0.93500006 1.3926219e-38
-0.11702667 -0.0062533333 0.93800002 1.3650361e-38
-0.11548572 -0.006266667 0.94000006 1.2451818e-38
-0.11369524 -0.006266667 0.94000006 1.0424959e-38
-0.11261906 -0.0063066669 0.94600004 1.0701545e-38
-0.11081714 -0.0063066669 0.94600004 1.1344369e-38
-0.10901524 -0.0063066669 0.94600004 1.1436564e-38
-0.10744001 -0.0063200006 0.94800007 1.106852e-38
-0.10563429 -0.0063200006 0.94800007 1.0607542e-38
-0.10415715 -0.0063399998 0.95100003 1.1710287e-38
-0.10266858 -0.0063600005 0.95400006 1.2079069e-38
-0.10085143 -0.0063600005 0.95400006 1.1711366e-38
-0.099241905 -0.0063733337 0.95600003 1.1526975e-38
-0.097726673 -0.0063933334 0.95900005 1.1343287e-38
-0.096200012 -0.006413334 0.96200007 9.2227874e-39
-0.094367623 -0.006413334 0.96200007 9.2202664e-39
-0.092727624 -0.0064266669 0.96400005 1.3000287e-38
-0.091174297 -0.006446667 0.96700007 1.4472543e-38
-0.089332387 -0.006446667 0.96700007 1.4564739e-38
-0.17353715 -0.0045428574 0.95400006 1.3644212e-38
-0.17172001 -0.0045428574 0.95400006 1.4012994e-38
-0.16990286 -0.0045428574 0.95400006 1.2445697e-38
-0.16808572 -0.0045428574 0.95400006 5.9920027e-39
-0.16626859 -0.0045428574 0.95400006 6.364032e-39
-0.16393429 -0.0045285714 0.95100003 1.0605031e-38
-0.16161144 -0.0045142858 0.94800007 1.1525886e-38
-0.15980573 -0.0045142858 0.94800007 1.207906e-38
-0.15766667 -0.0045047617 0.94600004 1.1895725e-38
-0.15537049 -0.0044904761 0.94300002 1.3094268e-38
-0.15357429 -0.0044904761 0.94300002 1.3002105e-38
-0.1517781 -0.0044904761 0.94300002 1.3370887e-38
-0.14950477 -0.0044761905 0.94000006 1.291242e-38
-0.14771429 -0.0044761905 0.94000006 1.3373398e-38
-0.14592382 -0.0044761905 0.94000006 1.2913502e-38
-0.14413334 -0.0044761905 0.94000006 1.2636915e-38
-0.14234287 -0.0044761905 0.94000006 1.1441947e-38
-0.14025334 -0.0044666668 0.93800002 8.860469e-39
-0.13846667 -0.0044666668 0.93800002 5.6402151e-39
-0.13668001 -0.0044666668 0.93800002 2.4133681e-39
-0.13489333 -0.0044666668 0.93800002 8.5146818e-40
-0.13268095 -0.0044523813 0.93500006 1.8466311e-41
-0.13090001 -0.0044523813 0.93500006 7.5422508e-40
-0.12911905 -0.0044523813 0.93500006 7.7610929e-39
-0.1273381 -0.0044523813 0.93500006 1.273055e-38
-0.12555715 -0.0044523813 0.93500006 1.4021289e-38
-0.12417334 -0.0044666668 0.93800002 1.4203174e-38
-0.12199524 -0.0044523813 0.93500006 1.3834392e-38
-0.12021429 -0.0044523813 0.93500006 1.3649995e-38
-0.11881334 -0.0044666668 0.93800002 1.3742191e-38
-0.11702667 -0.0044666668 0.93800002 1.3742196e-38
-0.11548572 -0.0044761905 0.94000006 1.2451458e-38
-0.11369524 -0.0044761905 0.94000006 1.0424959e-38
-0.11261906 -0.0045047617 0.94600004 1.0517154e-38
-0.11081714 -0.0045047617 0.94600004 1.0608248e-38
-0.10901524 -0.0045047617 0.94600004 1.0884835e-38
-0.10744001 -0.0045142858 0.94800007 1.0884845e-38
-0.10563429 -0.0045142858 0.94800007 1.0516063e-38
-0.10415715 -0.0045285714 0.95100003 1.1067794e-38
-0.10266858 -0.0045428574 0.95400006 1.1252186e-38
-0.10085143 -0.0045428574 0.95400006 1.1619521e-38
-0.099241905 -0.0045523811 0.95600003 1.1527325e-38
-0.097726673 -0.0045666667 0.95900005 1.134399e-38
-0.096200012 -0.0045809527 0.96200007 9.3156865e-39
-0.094563812 -0.0045904764 0.96400005 9.3131907e-39
-0.0930162 -0.0046047624 0.96700007 1.2632233e-38
-0.091174297 -0.0046047624 0.96700007 1.4380701e-38
-0.089332387 -0.0046047624 0.96700007 1.4472896e-38
-0.17208001 -0.0027314285 0.95600003 1.4289231e-38
-0.17025904 -0.0027314285 0.95600003 1.2815195e-38
-0.16808572 -0.0027257146 0.95400006 4.8863712e-39
-0.16626859 -0.0027257146 0.95400006 4.9792647e-39
-0.16445144 -0.0027257146 0.95400006 9.9578287e-39
-0.16212286 -0.0027171429 0.95100003 1.0236236e-38
-0.15980573 -0.0027085717 0.94800007 9.6830621e-39
-0.15766667 -0.0027028571 0.94600004 1.005142e-38
-0.15586476 -0.0027028571 0.94600004 1.2448506e-38
-0.15357429 -0.0026942857 0.94300002 1.3460915e-38
-0.1517781 -0.0026942857 0.94300002 1.3829698e-38
-0.14950477 -0.0026857145 0.94000006 1.3096812e-38
-0.14771429 -0.0026857145 0.94000006 1.3281203e-38
-0.14592382 -0.0026857145 0.94000006 1.3833298e-38
-0.14413334 -0.0026857145 0.94000006 1.4109884e-38
-0.14234287 -0.0026857145 0.94000006 1.3097913e-38
-0.14055239 -0.0026857145 0.94000006 1.2268152e-38
-0.13846667 -0.0026800002 0.93800002 7.4859158e-39
-0.13668001 -0.0026800002 0.93800002 2.5995474e-39
-0.13489333 -0.0026800002 0.93800002 8.4963528e-40
-0.13310668 -0.0026800002 0.93800002 2.9646151e-40
-0.13090001 -0.0026714287 0.93500006 8.4963528e-40
-0.12911905 -0.0026714287 0.93500006 8.0408944e-39
-0.1273381 -0.0026714287 0.93500006 1.1533814e-38
-0.12555715 -0.0026714287 0.93500006 1.3377727e-38
-0.12417334 -0.0026800002 0.93800002 1.4019496e-38
-0.12238666 -0.0026800002 0.93800002 1.374291e-38
-0.1206 -0.0026800002 0.93800002 1.3375206e-38
-0.11881334 -0.0026800002 0.93800002 1.3375206e-38
-0.11702667 -0.0026800002 0.93800002 1.3834392e-38
-0.11548572 -0.0026857145 0.94000006 1.2728044e-38
-0.11369524 -0.0026857145 0.94000006 1.0333113e-38
-0.11261906 -0.0027028571 0.94600004 9.8721351e-39
-0.11081714 -0.0027028571 0.94600004 1.0056161e-38
-0.10924572 -0.0027085717 0.94800007 1.0793726e-38
-0.10744001 -0.0027085717 0.94800007 1.0793726e-38
-0.10563429 -0.0027085717 0.94800007 1.0056161e-38
-0.10415715 -0.0027171429 0.95100003 1.0423864e-38
-0.10266858 -0.0027257146 0.95400006 1.0977038e-38
-0.10085143 -0.0027257146 0.95400006 1.1528051e-38
-0.099241905 -0.0027314285 0.95600003 1.0790486e-38
-0.098032385 -0.0027485716 0.96200007 1.0789037e-38
-0.0964 -0.0027542859 0.96400005 9.3139068e-39
-0.094563812 -0.0027542859 0.96400005 9.4039416e-39
-0.0930162 -0.0027628574 0.96700007 1.2630789e-38
-0.091457151 -0.0027714286 0.97000003 1.4287436e-38
-0.089609526 -0.0027714286 0.97000003 1.4656218e-38
-0.17208001 -0.0009104762 0.95600003 1.4289584e-38
-0.17025904 -0.0009104762 0.95600003 1.3091782e-38
-0.16808572 -0.00090857147 0.95400006 3.687828e-39
-0.16626859 -0.00090857147 0.95400006 9.868224e-41
-0.16445144 -0.00090857147 0.95400006 2.8852735e-42
-0.16212286 -0.00090571429 0.95100003 1.5699013e-39
-0.16031143 -0.00090571429 0.95100003 3.5982052e-39
-0.15800001 -0.00090285722 0.94800007 4.4292844e-39
-0.15586476 -0.00090095244 0.94600004 1.0422e-38
-0.15357429 -0.00089809526 0.94300002 1.3001683e-38
-0.1517781 -0.00089809526 0.94300002 1.2909487e-38
-0.14950477 -0.00089523813 0.94000006 1.3922594e-38
-0.14771429 -0.00089523813 0.94000006 1.4199181e-38
-0.14592382 -0.00089523813 0.94000006 1.4199556e-38
-0.14413334 -0.00089523813 0.94000006 1.475273e-38
-0.14234287 -0.00089523813 0.94000006 1.4294641e-38
-0.14055239 -0.00089523813 0.94000006 1.475562e-38
-0.13876191 -0.00089523813 0.94000006 1.3928392e-38
-0.13697143 -0.00089523813 0.94000006 1.2453262e-38
-0.13518095 -0.00089523813 0.94000006 1.1162536e-38
-0.13310668 -0.00089333334 0.93800002 1.0609362e-38
-0.13090001 -0.00089047622 0.93500006 1.2729111e-38
-0.12911905 -0.00089047622 0.93500006 1.2452524e-38
-0.1273381 -0.00089047622 0.93500006 1.1716764e-38
-0.12555715 -0.00089047622 0.93500006 1.3560676e-38
-0.12417334 -0.00089333334 0.93800002 1.3927298e-38
-0.12238666 -0.00089333334 0.93800002 1.3650711e-38
-0.1206 -0.00089333334 0.93800002 1.3650711e-38
-0.11881334 -0.00089333334 0.93800002 1.3558516e-38
-0.11702667 -0.00089333334 0.93800002 1.3833673e-38
-0.11548572 -0.00089523813 0.94000006 1.2911717e-38
-0.11369524 -0.00089523813 0.94000006 1.0424249e-38
-0.11261906 -0.00090095244 0.94600004 9.8710757e-39
-0.11081714 -0.00090095244 0.94600004 1.033241e-38
-0.10924572 -0.00090285722 0.94800007 1.0977779e-38
-0.10744001 -0.00090285722 0.94800007 1.1253615e-38
-0.10596858 -0.00090571429 0.95100003 1.0977028e-38
-0.10415715 -0.00090571429 0.95100003 1.1436924e-38
-0.10266858 -0.00090857147 0.95400006 1.1621316e-38
-0.10106286 -0.0009104762 0.95600003 1.1344013e-38
-0.099553339 -0.00091333338 0.95900005 1.0053274e-38
-0.098032385 -0.00091619056 0.96200007 9.4993869e-39
-0.0964 -0.00091809529 0.96400005 8.6696262e-39
-0.094858103 -0.00092095241 0.96700007 9.2199161e-39
-0.0930162 -0.00092095241 0.96700007 1.2354568e-38
-0.091457151 -0.00092380954 0.97000003 1.3920093e-38
-0.089609526 -0.00092380954 0.97000003 1.4288875e-38
-0.17208001 0.0009104762 0.95600003 1.4197389e-38
-0.17025904 0.0009104762 0.95600003 1.3185054e-38
-0.16808572 0.00090857147 0.95400006 5.6250124e-39
-0.16626859 0.00090857147 0.95400006 2.8592514e-40
-0.16445144 0.00090857147 0.95400006 6.0984509e-42
-0.16212286 0.00090571429 0.95100003 1.4772979e-39
-0.16031143 0.00090571429 0.95100003 2.0304717e-39
-0.15800001 0.00090285722 0.94800007 1.203906e-39
-0.15586476 0.00090095244 0.94600004 8.1185726e-39
-0.15357429 0.00089809526 0.94300002 9.3160494e-39
-0.1517781 0.00089809526 0.94300002 9.5926363e-39
-0.14950477 0.00089523813 0.94000006 1.0786145e-38
-0.14771429 0.00089523813 0.94000006 1.3091035e-38
-0.14592382 0.00089523813 0.94000006 1.2449634e-38
-0.14413334 0.00089523813 0.94000006 1.3095004e-38
-0.14234287 0.00089523813 0.94000006 1.3372332e-38
-0.14025334 0.00089333334 0.93800002 1.383331e-38
-0.13846667 0.00089333334 0.93800002 1.4477976e-38
-0.13668001 0.00089333334 0.93800002 1.3371629e-38
-0.13489333 0.00089333334 0.93800002 1.3369105e-38
-0.13310668 0.00089333334 0.93800002 1.2815931e-38
-0.13132 0.00089333334 0.93800002 1.3741442e-38
-0.12911905 0.00089047622 0.93500006 1.2911682e-38
-0.1273381 0.00089047622 0.93500006 1.1992985e-38
-0.12596001 0.00089333334 0.93800002 1.3652506e-38
-0.12417334 0.00089333334 0.93800002 1.3927301e-38
-0.12238666 0.00089333334 0.93800002 1.3650714e-38
-0.1206 0.00089333334 0.93800002 1.337485e-38
-0.11881334 0.00089333334 0.93800002 1.337485e-38
-0.11702667 0.00089333334 0.93800002 1.3925869e-38
-0.11548572 0.00089523813 0.94000006 1.2911717e-38
-0.11369524 0.00089523813 0.94000006 1.1898997e-38
-0.11261906 0.00090095244 0.94600004 1.1345823e-38
-0.11081714 0.00090095244 0.94600004 1.0517161e-38
-0.10924572 0.00090285722 0.94800007 1.0701552e-38
-0.10744001 0.00090285722 0.94800007 1.1620249e-38
-0.10596858 0.00090571429 0.95100003 1.1804641e-38
-0.10448572 0.00090857147 0.95400006 1.1712795e-38
-0.10288381 0.0009104762 0.95600003 1.1251817e-38
-0.10106286 0.0009104762 0.95600003 1.0331306e-38
-0.099553339 0.00091333338 0.95900005 9.7781318e-39
-0.098236188 0.00091809529 0.96400005 9.4064724e-39
-0.0964 0.00091809529 0.96400005 8.5767117e-39
-0.094858103 0.00092095241 0.96700007 8.9436824e-39
-0.0930162 0.00092095241 0.96700007 1.2262725e-38
-0.091457151 0.00092380954 0.97000003 1.3920093e-38
-0.090071432 0.00092857145 0.97500002 1.4381071e-38
-0.17025904 0.0027314285 0.95600003 1.3460915e-38
-0.16843809 0.0027314285 0.95600003 7.4681991e-39
-0.16626859 0.0027257146 0.95400006 5.636653e-40
-0.16445144 0.0027257146 0.95400006 1.0491522e-41
-0.16263428 0.0027257146 0.95400006 2.3099677e-39
-0.16031143 0.0027171429 0.95100003 3.6007065e-39
-0.15800001 0.0027085717 0.94800007 4.4272301e-39
-0.1561943 0.0027085717 0.94800007 6.5477296e-39
-0.15357429 0.0026942857 0.94300002 6.2728411e-39
-0.1517781 0.0026942857 0.94300002 5.9040586e-39
-0.14950477 0.0026857145 0.94000006 6.1778079e-39
-0.14771429 0.0026857145 0.94000006 8.1139161e-39
-0.14592382 0.0026857145 0.94000006 7.0100698e-39
-0.14413334 0.0026857145 0.94000006 5.719331e-39
-0.14204 0.0026800002 0.93800002 1.764693e-39
-0.14025334 0.0026800002 0.93800002 4.7395417e-40
-0.13846667 0.0026800002 0.93800002 1.2137038e-39
-0.13668001 0.0026800002 0.93800002 2.2278558e-39
-0.13489333 0.0026800002 0.93800002 3.5121038e-39
-0.13310668 0.0026800002 0.93800002 1.8525824e-39
-0.13132 0.0026800002 0.93800002 6.5872939e-40
-0.12953334 0.0026800002 0.93800002 8.8641404e-39
-0.12774667 0.0026800002 0.93800002 1.2637263e-38
-0.12596001 0.0026800002 0.93800002 1.3928001e-38
-0.12417334 0.0026800002 0.93800002 1.3926935e-38
-0.12238666 0.0026800002 0.93800002 1.3650348e-38
-0.1206 0.0026800002 0.93800002 1.3375206e-38
-0.11881334 0.0026800002 0.93800002 1.3375206e-38
-0.1172762 0.0026857145 0.94000006 1.3925872e-38
-0.11585429 0.0026942857 0.94300002 1.2819524e-38
-0.11405809 0.0026942857 0.94300002 1.2268486e-38
-0.11261906 0.0027028571 0.94600004 1.2084095e-38
-0.11105144 0.0027085717 0.94800007 1.0516445e-38
-0.10924572 0.0027085717 0.94800007 1.0332054e-38
-0.10778 0.0027171429 0.95100003 1.1343662e-38
-0.10596858 0.0027171429 0.95100003 1.1528054e-38
-0.10448572 0.0027257146 0.95400006 1.0698656e-38
-0.10288381 0.0027314285 0.95600003 1.0237678e-38
-0.10138001 0.0027400001 0.95900005 1.0697211e-38
-0.099864773 0.0027485716 0.96200007 1.0236233e-38
-0.098236188 0.0027542859 0.96400005 9.4990366e-39
-0.096700005 0.0027628574 0.96700007 8.5770803e-39
-0.094858103 0.0027628574 0.96700007 8.8525657e-39
-0.0930162 0.0027628574 0.96700007 1.1987217e-38
-0.091457151 0.0027714286 0.97000003 1.373677e-38
-0.089886673 0.0027800002 0.97300005 1.4289944e-38
-0.088033341 0.0027800002 0.97300005 1.4380335e-38
-0.17079334 0.0045666667 0.95900005 1.3368719e-38
-0.16843809 0.0045523811 0.95600003 8.1135686e-39
-0.16626859 0.0045428574 0.95400006 4.2449773e-39
-0.16445144 0.0045428574 0.95400006 2.4932603e-39
-0.16263428 0.0045428574 0.95400006 3.5081255e-39
-0.16081716 0.0045428574 0.95400006 4.7066687e-39
-0.1585 0.0045285714 0.95100003 8.0210072e-39
-0.1561943 0.0045142858 0.94800007 7.4678334e-39
-0.15406287 0.0045047617 0.94600004 4.8874222e-39
-0.1517781 0.0044904761 0.94300002 7.3767042e-39
-0.1499819 0.0044904761 0.94300002 7.1923157e-39
-0.14771429 0.0044761905 0.94000006 6.9157288e-39
-0.14592382 0.0044761905 0.94000006 6.3654389e-39
-0.14413334 0.0044761905 0.94000006 4.7981132e-39
-0.14204 0.0044666668 0.93800002 1.8510704e-39
-0.14025334 0.0044666668 0.93800002 2.5886355e-39
-0.13846667 0.0044666668 0.93800002 1.1150412e-39
-0.13668001 0.0044666668 0.93800002 4.696718e-40
-0.13489333 0.0044666668 0.93800002 1.3005115e-39
-0.13310668 0.0044666668 0.93800002 5.451051e-42
-0.13132 0.0044666668 0.93800002 5.7397185e-42
-0.12953334 0.0044666668 0.93800002 1.1898972e-38
-0.12774667 0.0044666668 0.93800002 1.3373408e-38
-0.12596001 0.0044666668 0.93800002 1.3926582e-38
-0.1244381 0.0044761905 0.94000006 1.3834742e-38
-0.12264763 0.0044761905 0.94000006 1.3650351e-38
-0.12085715 0.0044761905 0.94000006 1.3282657e-38
-0.11906667 0.0044761905 0.94000006 1.3374853e-38
-0.1172762 0.0044761905 0.94000006 1.4017345e-38
-0.11585429 0.0044904761 0.94300002 1.2818802e-38
-0.11405809 0.0044904761 0.94300002 1.2359963e-38
-0.11261906 0.0045047617 0.94600004 1.0792637e-38
-0.11105144 0.0045142858 0.94800007 1.0238769e-38
-0.10959143 0.0045285714 0.95100003 1.0607552e-38
-0.10778 0.0045285714 0.95100003 1.0975606e-38
-0.10630286 0.0045428574 0.95400006 1.0791215e-38
-0.10448572 0.0045428574 0.95400006 1.0330229e-38
-0.10288381 0.0045523811 0.95600003 1.0330229e-38
-0.10138001 0.0045666667 0.95900005 1.0789407e-38
-0.099553339 0.0045666667 0.95900005 1.0144037e-38
-0.098236188 0.0045904764 0.96400005 9.8681722e-39
-0.096700005 0.0046047624 0.96700007 8.9462159e-39
-0.094858103 0.0046047624 0.96700007 8.9462005e-39
-0.0930162 0.0046047624 0.96700007 1.1619874e-38
-0.091174297 0.0046047624 0.96700007 1.3183609e-38
-0.089609526 0.004619048 0.97000003 1.4197761e-38
-0.087761909 0.004619048 0.97000003 1.4013711e-38
-0.17132764 0.006413334 0.96200007 1.3643506e-38
-0.16896667 0.0063933334 0.95900005 1.0877637e-38
-0.16661714 0.0063733337 0.95600003 4.3401114e-39
-0.1647962 0.0063733337 0.95600003 2.7727857e-39
-0.16263428 0.0063600005 0.95400006 3.3287691e-39
-0.16081716 0.0063600005 0.95400006 3.5131603e-39
-0.1585 0.0063399998 0.95100003 5.6282396e-39
-0.1561943 0.0063200006 0.94800007 5.9970221e-39
-0.15438859 0.0063200006 0.94800007 5.2551859e-39
-0.1517781 0.0062866667 0.94300002 9.4039893e-39
-0.1499819 0.0062866667 0.94300002 7.8377075e-39
-0.14771429 0.006266667 0.94000006 7.2845338e-39
-0.14592382 0.006266667 0.94000006 7.2870449e-39
-0.14413334 0.006266667 0.94000006 6.5494798e-39
-0.14204 0.0062533333 0.93800002 4.5233312e-39
-0.14025334 0.0062533333 0.93800002 7.3813957e-39
-0.13846667 0.0062533333 0.93800002 5.2624026e-39
-0.13668001 0.0062533333 0.93800002 1.9433599e-39
-0.13489333 0.0062533333 0.93800002 5.2627515e-39
-0.13310668 0.0062533333 0.93800002 4.8017734e-39
-0.13132 0.0062533333 0.93800002 6.6080892e-40
-0.12953334 0.0062533333 0.93800002 1.181648e-38
-0.12774667 0.0062533333 0.93800002 1.4570872e-38
-0.12622857 0.006266667 0.94000006 1.4109894e-38
-0.1244381 0.006266667 0.94000006 1.3834023e-38
-0.12264763 0.006266667 0.94000006 1.3741828e-38
-0.12085715 0.006266667 0.94000006 1.3650001e-38
-0.11906667 0.006266667 0.94000006 1.3557805e-38
-0.1172762 0.006266667 0.94000006 1.3649285e-38
-0.11585429 0.0062866667 0.94300002 1.2542937e-38
-0.11405809 0.0062866667 0.94300002 1.2358881e-38
-0.11285715 0.0063200006 0.94800007 9.8695987e-39
-0.11105144 0.0063200006 0.94800007 9.9639678e-39
-0.10959143 0.0063399998 0.95100003 1.1162511e-38
-0.10778 0.0063399998 0.95100003 1.079122e-38
-0.10630286 0.0063600005 0.95400006 1.0699024e-38
-0.10448572 0.0063600005 0.95400006 1.0514267e-38
-0.10288381 0.0063733337 0.95600003 1.0422072e-38
-0.10138001 0.0063933334 0.95900005 1.0238031e-38
-0.099553339 0.0063933334 0.95900005 9.5926615e-39
-0.098236188 0.0064266669 0.96400005 9.6837809e-39
-0.096700005 0.006446667 0.96700007 9.1306072e-39
-0.094858103 0.006446667 0.96700007 9.1302386e-39
-0.0930162 0.006446667 0.96700007 1.1619521e-38
-0.091174297 0.006446667 0.96700007 1.3367635e-38
-0.089332387 0.006446667 0.96700007 1.4197396e-38
-0.087490484 0.006446667 0.96700007 1.410554e-38
-0.17132764 0.0082457149 0.96200007 1.3919009e-38
-0.16896667 0.0082200002 0.95900005 1.1429727e-38
-0.16661714 0.0081942854 0.95600003 8.3926736e-39
-0.1647962 0.0081942854 0.95600003 7.0097391e-39
-0.16263428 0.0081771435 0.95400006 7.1033893e-39
-0.16081716 0.0081771435 0.95400006 5.3516723e-39
-0.1585 0.0081514288 0.95100003 5.0732582e-39
-0.1561943 0.008125715 0.94800007 4.9810625e-39
-0.15438859 0.008125715 0.94800007 3.9680092e-39
-0.15226096 0.0081085712 0.94600004 8.4855951e-39
-0.1499819 0.0080828574 0.94300002 7.1955877e-39
-0.14771429 0.0080571435 0.94000006 5.9048489e-39
-0.14592382 0.0080571435 0.94000006 6.7331522e-39
-0.14413334 0.0080571435 0.94000006 4.9814353e-39
-0.14234287 0.0080571435 0.94000006 4.1513019e-39
-0.14025334 0.0080400007 0.93800002 7.8391271e-39
-0.13846667 0.0080400007 0.93800002 6.5523988e-39
-0.13668001 0.0080400007 0.93800002 5.7226381e-39
-0.13489333 0.0080400007 0.93800002 7.9335311e-39
-0.13339049 0.0080571435 0.94000006 2.5861846e-39
-0.13160001 0.0080571435 0.94000006 1.9407984e-40
-0.12980953 0.0080571435 0.94000006 1.3101468e-38
-0.12801906 0.0080571435 0.94000006 1.4570519e-38
-0.12622857 0.0080571435 0.94000006 1.4017345e-38
-0.1244381 0.0080571435 0.94000006 1.3833663e-38
-0.12264763 0.0080571435 0.94000006 1.3833663e-38
-0.12085715 0.0080571435 0.94000006 1.3557805e-38
-0.11944667 0.0080828574 0.94300002 1.3465609e-38
-0.11765048 0.0080828574 0.94300002 1.3465254e-38
-0.11585429 0.0080828574 0.94300002 1.3188667e-38
-0.11442096 0.0081085712 0.94600004 1.2727313e-38
-0.11285715 0.008125715 0.94800007 1.0606813e-38
-0.11105144 0.008125715 0.94800007 1.0331671e-38
-0.10959143 0.0081514288 0.95100003 1.0700454e-38
-0.10778 0.0081514288 0.95100003 1.0607542e-38
-0.10630286 0.0081771435 0.95400006 1.0699738e-38
-0.10448572 0.0081771435 0.95400006 1.097488e-38
-0.10288381 0.0081942854 0.95600003 1.0790489e-38
-0.10138001 0.0082200002 0.95900005 1.0238031e-38
-0.099553339 0.0082200002 0.95900005 9.5926615e-39
-0.098236188 0.0082628578 0.96400005 9.7756108e-39
-0.096700005 0.0082885725 0.96700007 9.4068283e-39
-0.094858103 0.0082885725 0.96700007 9.2213482e-39
-0.0930162 0.0082885725 0.96700007 1.171063e-38
-0.091174297 0.0082885725 0.96700007 1.2814464e-38
-0.089332387 0.0082885725 0.96700007 1.3920811e-38
-0.17132764 0.010078096 0.96200007 1.3826814e-38
-0.16896667 0.010046667 0.95900005 1.1245336e-38
-0.16661714 0.010015239 0.95600003 7.9327492e-39
-0.1647962 0.010015239 0.95600003 8.0249448e-39
-0.16263428 0.0099942861 0.95400006 8.5785222e-39
-0.16081716 0.0099942861 0.95400006 1.0975609e-38
-0.1585 0.0099628577 0.95100003 1.1063466e-38
-0.15668859 0.0099628577 0.95100003 9.772727e-39
-0.15438859 0.0099314293 0.94800007 1.143222e-38
-0.15226096 0.0099104764 0.94600004 1.207759e-38
-0.1499819 0.009879048 0.94300002 9.6837809e-39
-0.14771429 0.0098476186 0.94000006 2.9535e-39
-0.14592382 0.0098476186 0.94000006 1.2090179e-39
-0.14459333 0.009879048 0.94300002 1.4856048e-39
-0.14234287 0.0098476186 0.94000006 2.7720514e-39
-0.14055239 0.0098476186 0.94000006 6.8286591e-39
-0.13876191 0.0098476186 0.94000006 5.263455e-39
-0.13697143 0.0098476186 0.94000006 4.8024768e-39
-0.13518095 0.0098476186 0.94000006 3.6089895e-39
-0.13339049 0.0098476186 0.94000006 7.5978403e-42
-0.13160001 0.0098476186 0.94000006 3.750253e-40
-0.12980953 0.0098476186 0.94000006 1.3190218e-38
-0.12801906 0.0098476186 0.94000006 1.4479393e-38
-0.12622857 0.0098476186 0.94000006 1.3649632e-38
-0.12483523 0.009879048 0.94300002 1.3649635e-38
-0.12303905 0.009879048 0.94300002 1.3649635e-38
-0.12124286 0.009879048 0.94300002 1.3557802e-38
-0.11944667 0.009879048 0.94300002 1.3373411e-38
-0.11765048 0.009879048 0.94300002 1.3465254e-38
-0.11622286 0.0099104764 0.94600004 1.3465254e-38
-0.11442096 0.0099104764 0.94600004 1.2360328e-38
-0.11321429 0.0099628577 0.95100003 1.0147633e-38
-0.11140286 0.0099628577 0.95100003 1.005617e-38
-0.10959143 0.0099628577 0.95100003 1.0424953e-38
-0.10778 0.0099628577 0.95100003 1.0607539e-38
-0.10630286 0.0099942861 0.95400006 1.0699735e-38
-0.10448572 0.0099942861 0.95400006 1.0974877e-38
-0.10288381 0.010015239 0.95600003 1.0882681e-38
-0.10138001 0.010046667 0.95900005 1.0146561e-38
-0.099553339 0.010046667 0.95900005 9.7777786e-39
-0.098236188 0.010099048 0.96400005 1.0513892e-38
-0.096700005 0.010130477 0.96700007 1.0513892e-38
-0.094858103 0.010130477 0.96700007 9.959649e-39
-0.0930162 0.010130477 0.96700007 1.1250388e-38
-0.091174297 0.010130477 0.96700007 1.2354555e-38
-0.089332387 0.010130477 0.96700007 1.3645294e-38
-0.1722181 0.011972382 0.96700007 1.3826814e-38
-0.16896667 0.011873334 0.95900005 1.1429727e-38
-0.16714001 0.011873334 0.95900005 7.6565182e-39
-0.1647962 0.011836191 0.95600003 7.1033445e-39
-0.16297524 0.011836191 0.95600003 8.1164398e-39
-0.16081716 0.011811429 0.95400006 1.0974504e-38
-0.1585 0.011774287 0.95100003 1.1617703e-38
-0.15668859 0.011774287 0.95100003 1.1802094e-38
-0.15487714 0.011774287 0.95100003 1.3182906e-38
-0.15258285 0.011737144 0.94800007 1.2445341e-38
-0.1499819 0.011675238 0.94300002 1.1249334e-38
-0.14818572 0.011675238 0.94300002 7.7459001e-39
-0.14638953 0.011675238 0.94300002 6.4587542e-39
-0.14459333 0.011675238 0.94300002 7.2885148e-39
-0.14279714 0.011675238 0.94300002 9.6812726e-39
-0.14055239 0.011638097 0.94000006 1.0050055e-38
-0.13876191 0.011638097 0.94000006 9.0387941e-39
-0.13697143 0.011638097 0.94000006 9.2231853e-39
-0.13561238 0.011675238 0.94300002 8.3991784e-39
-0.13339049 0.011638097 0.94000006 6.1864833e-39
-0.13160001 0.011638097 0.94000006 5.4561055e-39
-0.12980953 0.011638097 0.94000006 1.2094191e-38
-0.12801906 0.011638097 0.94000006 1.4203169e-38
-0.12663142 0.011675238 0.94300002 1.3557799e-38
-0.12483523 0.011675238 0.94300002 1.3649635e-38
-0.12303905 0.011675238 0.94300002 1.3741831e-38
-0.12124286 0.011675238 0.94300002 1.3465254e-38
-0.11944667 0.011675238 0.94300002 1.3465254e-38
-0.11765048 0.011675238 0.94300002 1.3190459e-38
-0.11622286 0.011712381 0.94600004 1.3190459e-38
-0.11442096 0.011712381 0.94600004 1.1623862e-38
-0.11285715 0.011737144 0.94800007 1.0333123e-38
-0.11140286 0.011774287 0.95100003 1.0977038e-38
-0.10959143 0.011774287 0.95100003 1.051606e-38
-0.10812001 0.011811429 0.95400006 1.0791215e-38
-0.10630286 0.011811429 0.95400006 1.0791215e-38
-0.10470476 0.011836191 0.95600003 1.0607532e-38
-0.10288381 0.011836191 0.95600003 1.0607532e-38
-0.10138001 0.011873334 0.95900005 1.0514981e-38
-0.099553339 0.011873334 0.95900005 1.0514981e-38
-0.098236188 0.011935239 0.96400005 1.0514618e-38
-0.096700005 0.011972382 0.96700007 9.961444e-39
-0.094858103 0.011972382 0.96700007 1.0143302e-38
-0.0930162 0.011972382 0.96700007 1.1157454e-38
-0.091174297 0.011972382 0.96700007 1.2262006e-38
-0.089332387 0.011972382 0.96700007 1.3737136e-38
-0.1722181 0.013814286 0.96700007 1.345947e-38
-0.16949525 0.013742859 0.96200007 1.1338971e-38
-0.16714001 0.013700001 0.95900005 8.2071935e-39
-0.16531335 0.013700001 0.95900005 5.349129e-39
-0.16297524 0.013657142 0.95600003 4.8020172e-39
-0.16081716 0.013628571 0.95400006 5.0786041e-39
-0.1585 0.013585715 0.95100003 5.5378264e-39
-0.15668859 0.013585715 0.95100003 8.2114997e-39
-0.15487714 0.013585715 0.95100003 1.032917e-38
-0.15306573 0.013585715 0.95100003 1.0513561e-38
-0.15045905 0.013514286 0.94600004 1.1066385e-38
-0.14865716 0.013514286 0.94600004 1.2172732e-38
-0.14685525 0.013514286 0.94600004 1.2449662e-38
-0.14536001 0.013542858 0.94800007 1.355601e-38
-0.14325143 0.013514286 0.94600004 1.3923338e-38
-0.14100096 0.013471429 0.94300002 1.4568707e-38
-0.13920477 0.013471429 0.94300002 1.4293194e-38
-0.13740857 0.013471429 0.94300002 1.4569781e-38
-0.13561238 0.013471429 0.94300002 1.3649645e-38
-0.1338162 0.013471429 0.94300002 1.4202819e-38
-0.13202 0.013471429 0.94300002 1.374291e-38
-0.13022381 0.013471429 0.94300002 1.4203888e-38
-0.12842761 0.013471429 0.94300002 1.3834392e-38
-0.12663142 0.013471429 0.94300002 1.3465609e-38
-0.12483523 0.013471429 0.94300002 1.3465607e-38
-0.12303905 0.013471429 0.94300002 1.3557802e-38
-0.12124286 0.013471429 0.94300002 1.3649279e-38
-0.11944667 0.013471429 0.94300002 1.3557083e-38
-0.11765048 0.013471429 0.94300002 1.3374124e-38
-0.11622286 0.013514286 0.94600004 1.346632e-38
-0.11466286 0.013542858 0.94800007 1.1716426e-38
-0.11285715 0.013542858 0.94800007 1.0610078e-38
-0.11140286 0.013585715 0.95100003 9.5030148e-39
-0.10993715 0.013628571 0.95400006 9.6874061e-39
-0.10812001 0.013628571 0.95400006 1.1436564e-38
-0.10630286 0.013628571 0.95400006 1.1713151e-38
-0.10470476 0.013657142 0.95600003 1.0699012e-38
-0.10288381 0.013657142 0.95600003 1.0606816e-38
-0.10138001 0.013700001 0.95900005 1.0699009e-38
-0.099864773 0.013742859 0.96200007 1.0699009e-38
-0.098541915 0.013814286 0.96700007 1.0513892e-38
-0.096700005 0.013814286 0.96700007 9.7763269e-39
-0.094858103 0.013814286 0.96700007 9.4997218e-39
-0.0930162 0.013814286 0.96700007 1.0606069e-38
-0.091174297 0.013814286 0.96700007 1.1893943e-38
-0.1722181 0.015656192 0.96700007 1.3736417e-38
-0.16949525 0.015575239 0.96200007 1.1800309e-38
-0.16766287 0.015575239 0.96200007 9.1295001e-39
-0.16583048 0.015575239 0.96200007 6.0870443e-39
-0.16348667 0.015526668 0.95900005 5.1711529e-39
-0.16115429 0.015478096 0.95600003 4.7101747e-39
-0.15900001 0.015445715 0.95400006 1.6764e-39
-0.15668859 0.015397143 0.95100003 4.0734864e-39
-0.15487714 0.015397143 0.95100003 6.0021383e-39
-0.15306573 0.015397143 0.95100003 7.1084858e-39
-0.15077715 0.015348572 0.94800007 8.4896126e-39
-0.14897144 0.015348572 0.94800007 9.134982e-39
-0.14716573 0.015348572 0.94800007 1.0514621e-38
-0.14536001 0.015348572 0.94800007 1.1252186e-38
-0.1435543 0.015348572 0.94800007 1.0884126e-38
-0.14144953 0.015316191 0.94600004 1.1068517e-38
-0.13920477 0.015267619 0.94300002 1.1253615e-38
-0.13740857 0.015267619 0.94300002 1.1806789e-38
-0.13561238 0.015267619 0.94300002 1.2636903e-38
-0.1338162 0.015267619 0.94300002 1.438862e-38
-0.13202 0.015267619 0.94300002 1.4111329e-38
-0.13022381 0.015267619 0.94300002 1.3926938e-38
-0.12842761 0.015267619 0.94300002 1.3282655e-38
-0.12663142 0.015267619 0.94300002 1.3190459e-38
-0.12483523 0.015267619 0.94300002 1.3557799e-38
-0.12303905 0.015267619 0.94300002 1.3557799e-38
-0.12124286 0.015267619 0.94300002 1.3832954e-38
-0.11944667 0.015267619 0.94300002 1.3740759e-38
-0.11802477 0.015316191 0.94600004 1.3649279e-38
-0.11622286 0.015316191 0.94600004 1.3649279e-38
-0.11466286 0.015348572 0.94800007 1.1807893e-38
-0.11285715 0.015348572 0.94800007 9.318611e-39
-0.11140286 0.015397143 0.95100003 9.594109e-39
-0.10993715 0.015445715 0.95400006 1.0516065e-38
-0.10812001 0.015445715 0.95400006 1.1895404e-38
-0.10630286 0.015445715 0.95400006 1.1434426e-38
-0.10470476 0.015478096 0.95600003 1.0514265e-38
-0.10288381 0.015478096 0.95600003 1.0698656e-38
-0.10138001 0.015526668 0.95900005 1.097488e-38
-0.099864773 0.015575239 0.96200007 1.0606097e-38
-0.098541915 0.015656192 0.96700007 1.0421343e-38
-0.096700005 0.015656192 0.96700007 9.6837781e-39
-0.094858103 0.015656192 0.96700007 8.9447585e-39
-0.0930162 0.015656192 0.96700007 1.060428e-38
-0.091174297 0.015656192 0.96700007 1.152551e-38
-0.17275238 0.017552381 0.97000003 1.3183246e-38
-0.17037621 0.017498096 0.96700007 1.1984703e-38
-0.16801143 0.01744381 0.96400005 9.2227846e-39
-0.16583048 0.01740762 0.96200007 5.8115463e-39
-0.16348667 0.017353334 0.95900005 4.4364563e-39
-0.16166002 0.017353334 0.95900005 4.9896301e-39
-0.15900001 0.017262857 0.95400006 2.8735489e-39
-0.15718286 0.017262857 0.95400006 3.5189183e-39
-0.15487714 0.017208571 0.95100003 3.7008699e-39
-0.15306573 0.017208571 0.95100003 3.8852611e-39
-0.15077715 0.017154286 0.94800007 4.5291858e-39
-0.14897144 0.017154286 0.94800007 1.1179475e-39
-0.14716573 0.017154286 0.94800007 9.4096631e-40
-0.14536001 0.017154286 0.94800007 3.1536614e-39
-0.1435543 0.017154286 0.94800007 3.4255694e-39
-0.14144953 0.017118096 0.94600004 1.766048e-39
-0.13964762 0.017118096 0.94600004 4.7785679e-40
-0.13784572 0.017118096 0.94600004 3.3359213e-39
-0.13604382 0.017118096 0.94600004 8.6753743e-39
-0.1338162 0.01706381 0.94300002 1.3377351e-38
-0.13202 0.01706381 0.94300002 1.3926582e-38
-0.13022381 0.01706381 0.94300002 1.3649995e-38
-0.12842761 0.01706381 0.94300002 1.3557799e-38
-0.12703429 0.017118096 0.94600004 1.3465604e-38
-0.12523238 0.017118096 0.94600004 1.3649632e-38
-0.12343048 0.017118096 0.94600004 1.4018415e-38
-0.12162858 0.017118096 0.94600004 1.374148e-38
-0.11982667 0.017118096 0.94600004 1.3649285e-38
-0.11802477 0.017118096 0.94600004 1.3649282e-38
-0.11646858 0.017154286 0.94800007 1.3741477e-38
-0.11466286 0.017154286 0.94800007 1.2361051e-38
-0.11285715 0.017154286 0.94800007 9.2263999e-39
-0.1117543 0.017262857 0.95400006 9.5952049e-39
-0.10993715 0.017262857 0.95400006 1.1439117e-38
-0.10834666 0.017299049 0.95600003 1.1158936e-38
-0.10652572 0.017299049 0.95600003 1.0605762e-38
-0.10470476 0.017299049 0.95600003 1.0422082e-38
-0.10288381 0.017299049 0.95600003 1.0514277e-38
-0.10169715 0.01740762 0.96200007 1.0054018e-38
-0.10007238 0.01744381 0.96400005 9.8696267e-39
-0.098541915 0.017498096 0.96700007 1.0329148e-38
-0.097000003 0.017552381 0.97000003 9.960365e-39
-0.095152386 0.017552381 0.97000003 9.3135789e-39
-0.093304761 0.017552381 0.97000003 1.0327731e-38
-0.091457151 0.017552381 0.97000003 1.1433668e-38
-0.17275238 0.019400001 0.97000003 1.2907378e-38
-0.17037621 0.019340001 0.96700007 1.1985422e-38
-0.16801143 0.019280002 0.96400005 9.6844816e-39
-0.16583048 0.019240001 0.96200007 5.9044608e-39
-0.16399811 0.019240001 0.96200007 5.447374e-39
-0.16166002 0.019180002 0.95900005 5.7239609e-39
-0.15900001 0.01908 0.95400006 2.8717412e-39
-0.15718286 0.01908 0.95400006 3.6093062e-39
-0.15487714 0.01902 0.95100003 1.9556353e-39
-0.15306573 0.01902 0.95100003 2.6010047e-39
-0.15077715 0.018960001 0.94800007 4.0710873e-39
-0.14897144 0.018960001 0.94800007 4.7545777e-40
-0.14716573 0.018960001 0.94800007 4.7639664e-40
-0.14536001 0.018960001 0.94800007 2.781279e-39
-0.1435543 0.018960001 0.94800007 3.5174385e-39
-0.14174858 0.018960001 0.94800007 1.8579172e-39
-0.13964762 0.018920001 0.94600004 5.7217819e-40
-0.13784572 0.018920001 0.94600004 4.2599936e-39
-0.13604382 0.018920001 0.94600004 9.1359643e-39
-0.13424191 0.018920001 0.94600004 1.365355e-38
-0.13244002 0.018920001 0.94600004 1.3926582e-38
-0.13063809 0.018920001 0.94600004 1.3649995e-38
-0.12883618 0.018920001 0.94600004 1.3374127e-38
-0.12703429 0.018920001 0.94600004 1.3374127e-38
-0.12523238 0.018920001 0.94600004 1.3649632e-38
-0.12343048 0.018920001 0.94600004 1.3649632e-38
-0.12162858 0.018920001 0.94600004 1.3649645e-38
-0.11982667 0.018920001 0.94600004 1.3557449e-38
-0.11802477 0.018920001 0.94600004 1.3465607e-38
-0.11646858 0.018960001 0.94800007 1.3649998e-38
-0.11466286 0.018960001 0.94800007 1.3004628e-38
-0.11285715 0.018960001 0.94800007 1.0884129e-38
-0.1117543 0.01908 0.95400006 1.1161066e-38
-0.11016762 0.01912 0.95600003 1.1068871e-38
-0.10834666 0.01912 0.95600003 1.0607179e-38
-0.10652572 0.01912 0.95600003 1.0607179e-38
-0.10470476 0.01912 0.95600003 1.0331674e-38
-0.10320667 0.019180002 0.95900005 1.0055087e-38
-0.10190857 0.019280002 0.96400005 9.3189613e-39
-0.10007238 0.019280002 0.96400005 9.5955482e-39
-0.09884762 0.019400001 0.97000003 1.0788687e-38
-0.097000003 0.019400001 0.97000003 9.682339e-39
-0.095446669 0.01946 0.97300005 9.7727368e-39
-0.093593337 0.01946 0.97300005 1.0786889e-38
-0.091740005 0.01946 0.97300005 1.1617703e-38
-0.17802 0.021663809 0.98900002 1.290666e-38
-0.17275238 0.02124762 0.97000003 1.2998855e-38
-0.17037621 0.021181906 0.96700007 1.2169094e-38
-0.16801143 0.021116192 0.96400005 9.9610685e-39
-0.16583048 0.021072382 0.96200007 6.9186127e-39
-0.16399811 0.021072382 0.96200007 4.4383032e-39
-0.16166002 0.021006668 0.95900005 5.2680639e-39
-0.15933333 0.020940954 0.95600003 3.6089587e-39
-0.15718286 0.020897144 0.95400006 3.6089587e-39
-0.15536572 0.020897144 0.95400006 2.6906962e-39
-0.15306573 0.020831428 0.95100003 3.6126525e-39
-0.15125428 0.020831428 0.95100003 4.8075734e-39
-0.14944287 0.020831428 0.95100003 1.0275525e-39
-0.14716573 0.020765714 0.94800007 3.8637442e-40
-0.14536001 0.020765714 0.94800007 2.9678521e-39
-0.1435543 0.020765714 0.94800007 4.2546532e-39
-0.14174858 0.020765714 0.94800007 2.9639144e-39
-0.13994287 0.020765714 0.94800007 1.036043e-39
-0.13813715 0.020765714 0.94800007 6.2911939e-39
-0.13604382 0.020721905 0.94600004 9.3207718e-39
-0.13424191 0.020721905 0.94600004 1.3285184e-38
-0.13244002 0.020721905 0.94600004 1.4018417e-38
-0.13091429 0.020765714 0.94800007 1.3834026e-38
-0.12910858 0.020765714 0.94800007 1.3465604e-38
-0.12730287 0.020765714 0.94800007 1.3465604e-38
-0.12549715 0.020765714 0.94800007 1.3465957e-38
-0.12343048 0.020721905 0.94600004 1.3465957e-38
-0.12162858 0.020721905 0.94600004 1.3649635e-38
-0.12008001 0.020765714 0.94800007 1.3649635e-38
-0.11827429 0.020765714 0.94800007 1.3465604e-38
-0.11646858 0.020765714 0.94800007 1.3557799e-38
-0.11466286 0.020765714 0.94800007 1.3005347e-38
-0.11321429 0.020831428 0.95100003 1.0700457e-38
-0.1117543 0.020897144 0.95400006 9.3186208e-39
-0.11016762 0.020940954 0.95600003 9.503012e-39
-0.10834666 0.020940954 0.95600003 1.060752e-38
-0.10652572 0.020940954 0.95600003 1.0884107e-38
-0.10503334 0.021006668 0.95900005 1.05157e-38
-0.10352953 0.021072382 0.96200007 1.0423504e-38
-0.10190857 0.021116192 0.96400005 1.0239473e-38
-0.10038382 0.021181906 0.96700007 1.0147277e-38
-0.09884762 0.02124762 0.97000003 9.8696141e-39
-0.097000003 0.02124762 0.97000003 8.5788753e-39
-0.095446669 0.021313334 0.97300005 8.9462159e-39
-0.093593337 0.021313334 0.97300005 1.0236955e-38
-0.091740005 0.021313334 0.97300005 1.1434744e-38
-0.17802 0.02354762 0.98900002 1.2906657e-38
-0.17275238 0.023095237 0.97000003 1.2998855e-38
-0.17037621 0.02302381 0.96700007 1.2445681e-38
-0.16801143 0.022952382 0.96400005 1.0329498e-38
-0.16617525 0.022952382 0.96400005 7.1026508e-39
-0.16399811 0.022904763 0.96200007 6.2775593e-39
-0.16216573 0.022904763 0.96200007 6.4619505e-39
-0.15933333 0.022761906 0.95600003 5.1744739e-39
-0.15751238 0.022761906 0.95600003 5.4510608e-39
-0.15536572 0.022714287 0.95400006 4.8086299e-39
-0.15306573 0.022642858 0.95100003 4.4398474e-39
-0.15125428 0.022642858 0.95100003 4.3487434e-39
-0.14944287 0.022642858 0.95100003 6.6091822e-40
-0.14763142 0.022642858 0.95100003 3.8277729e-40
-0.14582001 0.022642858 0.95100003 3.2408418e-39
-0.1435543 0.022571431 0.94800007 3.7940352e-39
-0.14174858 0.022571431 0.94800007 2.8720789e-39
-0.13994287 0.022571431 0.94800007 6.6868561e-40
-0.13813715 0.022571431 0.94800007 7.2145753e-39
-0.13604382 0.022523811 0.94600004 1.0428906e-38
-0.13424191 0.022523811 0.94600004 1.2918188e-38
-0.13244002 0.022523811 0.94600004 1.3925866e-38
-0.13091429 0.022571431 0.94800007 1.3741475e-38
-0.12910858 0.022571431 0.94800007 1.3466326e-38
-0.12730287 0.022571431 0.94800007 1.337413e-38
-0.12549715 0.022571431 0.94800007 1.3374124e-38
-0.12369143 0.022571431 0.94800007 1.3374124e-38
-0.12188572 0.022571431 0.94800007 1.3741831e-38
-0.12008001 0.022571431 0.94800007 1.3741831e-38
-0.11827429 0.022571431 0.94800007 1.3465604e-38
-0.11683714 0.022642858 0.95100003 1.3557799e-38
-0.11502572 0.022642858 0.95100003 1.2913872e-38
-0.11321429 0.022642858 0.95100003 1.0332394e-38
-0.11198857 0.022761906 0.95600003 8.6746709e-39
-0.11051334 0.022833334 0.95900005 9.6888228e-39
-0.10868668 0.022833334 0.95900005 1.1159621e-38
-0.10686 0.022833334 0.95900005 1.1067426e-38
-0.10536191 0.022904763 0.96200007 1.0699375e-38
-0.10374477 0.022952382 0.96400005 1.0514984e-38
-0.10190857 0.022952382 0.96400005 1.0331671e-38
-0.10038382 0.02302381 0.96700007 1.014728e-38
-0.09884762 0.023095237 0.97000003 9.4104212e-39
-0.097300008 0.023166668 0.97300005 9.22603e-39
-0.095446669 0.023166668 0.97300005 9.5937307e-39
-0.093593337 0.023166668 0.97300005 9.5937307e-39
-0.091740005 0.023166668 0.97300005 1.1801729e-38
-0.089886673 0.023166668 0.97300005 1.3645641e-38
-0.17712 0.025302857 0.98400003 1.290701e-38
-0.17417714 0.025148572 0.97800004 1.290666e-38
-0.17037621 0.024865715 0.96700007 1.226129e-38
-0.16801143 0.024788573 0.96400005 1.0421346e-38
-0.16617525 0.024788573 0.96400005 8.9462159e-39
-0.16399811 0.024737146 0.96200007 7.935308e-39
-0.16216573 0.024737146 0.96200007 8.2118949e-39
-0.15983334 0.024660001 0.95900005 8.3955603e-39
-0.15751238 0.024582857 0.95600003 8.5799515e-39
-0.15536572 0.02453143 0.95400006 7.9378373e-39
-0.15306573 0.024454286 0.95100003 8.2144242e-39
-0.15125428 0.024454286 0.95100003 7.1063306e-39
-0.14944287 0.024454286 0.95100003 5.7233962e-39
-0.14763142 0.024454286 0.95100003 3.6111013e-39
-0.14582001 0.024454286 0.95100003 3.9798838e-39
-0.1435543 0.024377145 0.94800007 4.714565e-39
-0.14174858 0.024377145 0.94800007 4.1613912e-39
-0.13994287 0.024377145 0.94800007 2.1420374e-39
-0.13813715 0.024377145 0.94800007 8.3191446e-39
-0.13604382 0.024325715 0.94600004 1.2177038e-38
-0.13424191 0.024325715 0.94600004 1.3375582e-38
-0.13272001 0.024377145 0.94800007 1.3649635e-38
-0.13091429 0.024377145 0.94800007 1.3557439e-38
-0.12910858 0.024377145 0.94800007 1.3465609e-38
-0.12730287 0.024377145 0.94800007 1.3465609e-38
-0.12549715 0.024377145 0.94800007 1.3374127e-38
-0.12369143 0.024377145 0.94800007 1.3374127e-38
-0.12188572 0.024377145 0.94800007 1.3557799e-38
-0.12008001 0.024377145 0.94800007 1.3465604e-38
-0.11864857 0.024454286 0.95100003 1.3373408e-38
-0.11683714 0.024454286 0.95100003 1.3557799e-38
-0.11502572 0.024454286 0.95100003 1.3281934e-38
-0.11321429 0.024454286 0.95100003 1.0977043e-38
-0.11198857 0.024582857 0.95600003 9.6877438e-39
