# .PCD v0.7 - Point Cloud Data file format
VERSION 0.7
FIELDS x y z rgb
SIZE 4 4 4 4
TYPE F F F F
COUNT 1 1 1 1
WIDTH 986
HEIGHT 1
VIEWPOINT 0 0 0 1 0 0 0
POINTS 986
DATA ascii
-0.16060857 0.048741907 0.83900005 4.8842748e-39
-0.15901048 0.048741907 0.83900005 1.5701717e-39
-0.15628667 0.048393335 0.83300006 1.2818032e-38
-0.15470001 0.048393335 0.83300006 1.2353899e-38
-0.15311335 0.048393335 0.83300006 4.9782487e-39
-0.15189047 0.048509523 0.83500004 8.0231904e-39
-0.1503 0.048509523 0.83500004 7.7466035e-39
-0.14870952 0.048509523 0.83500004 5.667972e-40
-0.14711905 0.048509523 0.83500004 3.517049e-39
-0.14552858 0.048509523 0.83500004 7.6546966e-39
-0.14393811 0.048509523 0.83500004 1.0604957e-38
-0.14234763 0.048509523 0.83500004 9.500138e-39
-0.14075716 0.048509523 0.83500004 2.3088788e-39
-0.13883334 0.048393335 0.83300006 7.467874e-39
-0.13724667 0.048393335 0.83300006 7.467874e-39
-0.13598572 0.048509523 0.83500004 5.6500354e-40
-0.13439524 0.048509523 0.83500004 9.7845581e-39
-0.13280477 0.048509523 0.83500004 1.3282307e-38
-0.13152857 0.048625711 0.83700001 1.3743285e-38
-0.13024476 0.048741907 0.83900005 1.374184e-38
-0.12864667 0.048741907 0.83900005 1.3373058e-38
-0.12735143 0.048858099 0.84100002 1.3096837e-38
-0.12574953 0.048858099 0.84100002 1.3189032e-38
-0.12444286 0.04897429 0.84300005 1.309719e-38
-0.12312857 0.049090479 0.84500003 1.3281581e-38
-0.12151904 0.049090479 0.84500003 1.2912445e-38
-0.12019334 0.04920667 0.84700006 1.0884142e-38
-0.11858001 0.04920667 0.84700006 1.0056163e-38
-0.11724286 0.049322858 0.84900004 9.9639678e-39
-0.1158981 0.049439047 0.85100001 1.0146201e-38
-0.11468 0.049613334 0.85400003 1.0146201e-38
-0.11305334 0.049613334 0.85400003 1.0237678e-38
-0.11168763 0.049729526 0.85600007 9.8688953e-39
-0.11031429 0.049845714 0.85800004 9.6848697e-39
-0.10893334 0.049961902 0.86000001 9.131696e-39
-0.10754476 0.050078098 0.86200005 9.9578567e-39
-0.10614857 0.050194286 0.86400002 1.11564e-38
-0.10486572 0.050368574 0.86700004 1.1156024e-38
-0.10321429 0.050368574 0.86700004 1.2170176e-38
-0.17302381 0.050700001 0.84500003 9.2224048e-39
-0.17141429 0.050700001 0.84500003 8.1160573e-39
-0.16940287 0.050580002 0.84300005 3.9734589e-39
-0.16739905 0.05046 0.84100002 1.945155e-39
-0.16579714 0.05046 0.84100002 1.7600337e-39
-0.16419524 0.05046 0.84100002 3.6961419e-39
-0.16259333 0.05046 0.84100002 4.7971435e-39
-0.16099143 0.05046 0.84100002 8.3273142e-40
-0.15938953 0.05046 0.84100002 1.1120859e-39
-0.15778762 0.05046 0.84100002 1.2728735e-38
-0.15507144 0.050100002 0.83500004 1.1157113e-38
-0.15348096 0.050100002 0.83500004 3.0438977e-39
-0.15189047 0.050100002 0.83500004 3.4224585e-39
-0.15066001 0.050219998 0.83700001 3.053676e-39
-0.1490657 0.050219998 0.83700001 6.5185322e-40
-0.14747143 0.050219998 0.83700001 5.9070041e-39
-0.14587715 0.050219998 0.83700001 5.9065669e-39
-0.14393811 0.050100002 0.83500004 9.133414e-39
-0.14234763 0.050100002 0.83500004 7.8452633e-39
-0.14075716 0.050100002 0.83500004 1.5759605e-39
-0.13916667 0.050100002 0.83500004 4.160727e-39
-0.13757619 0.050100002 0.83500004 3.423162e-39
-0.13598572 0.050100002 0.83500004 2.8806212e-40
-0.13471715 0.050219998 0.83700001 1.0798357e-38
-0.13312286 0.050219998 0.83700001 1.4018783e-38
-0.13152857 0.050219998 0.83700001 1.3834392e-38
-0.13055524 0.05046 0.84100002 1.3373774e-38
-0.12895334 0.05046 0.84100002 1.3281578e-38
-0.12735143 0.05046 0.84100002 1.3189032e-38
-0.12604858 0.050580002 0.84300005 1.3096837e-38
-0.12444286 0.050580002 0.84300005 1.3097543e-38
-0.12312857 0.050700001 0.84500003 1.3097543e-38
-0.12151904 0.050700001 0.84500003 1.2912445e-38
-0.12019334 0.050820004 0.84700006 1.1252924e-38
-0.11886001 0.050940003 0.84900004 9.9639678e-39
-0.11724286 0.050940003 0.84900004 9.5951852e-39
-0.1158981 0.051059999 0.85100001 1.0146214e-38
-0.11468 0.051240001 0.85400003 1.0238409e-38
-0.1133181 0.051360004 0.85600007 1.0145838e-38
-0.11168763 0.051360004 0.85600007 9.5004687e-39
-0.11031429 0.051479999 0.85800004 9.7752675e-39
-0.10893334 0.051599998 0.86000001 9.5908763e-39
-0.10754476 0.051720005 0.86200005 9.8656611e-39
-0.10651714 0.052020002 0.86700004 1.0695422e-38
-0.10486572 0.052020002 0.86700004 1.1247501e-38
-0.10321429 0.052020002 0.86700004 1.2353849e-38
-0.17343335 0.052433338 0.84700006 1.0512408e-38
-0.17182001 0.052433338 0.84700006 9.6826473e-39
-0.16980477 0.052309528 0.84500003 8.2097369e-39
-0.16779715 0.052185714 0.84300005 7.5643675e-39
-0.16619143 0.052185714 0.84300005 5.1741236e-39
-0.16458572 0.052185714 0.84300005 4.1599717e-39
-0.16336668 0.052309528 0.84500003 3.1487429e-39
-0.16175714 0.052309528 0.84500003 1.4091457e-41
-0.15938953 0.052061904 0.84100002 2.8770759e-40
-0.15778762 0.052061904 0.84100002 1.0982401e-38
-0.15544285 0.051814288 0.83700001 8.9505669e-39
-0.15384857 0.051814288 0.83700001 1.5749165e-39
-0.15225428 0.051814288 0.83700001 8.4421506e-40
-0.15066001 0.051814288 0.83700001 7.5201943e-40
-0.1490657 0.051814288 0.83700001 1.0080381e-40
-0.14747143 0.051814288 0.83700001 3.0510626e-39
-0.14587715 0.051814288 0.83700001 3.0470731e-39
-0.14428286 0.051814288 0.83700001 8.6709967e-39
-0.14268857 0.051814288 0.83700001 6.2837208e-39
-0.14075716 0.051690478 0.83500004 3.7944388e-39
-0.13916667 0.051690478 0.83500004 4.7178636e-39
-0.13757619 0.051690478 0.83500004 1.5832122e-39
-0.13631143 0.051814288 0.83700001 1.0044507e-40
-0.13471715 0.051814288 0.83700001 1.2085871e-38
-0.13312286 0.051814288 0.83700001 1.3926232e-38
-0.13184287 0.051938098 0.83900005 1.3649645e-38
-0.13055524 0.052061904 0.84100002 1.3005717e-38
-0.12895334 0.052061904 0.84100002 1.3005717e-38
-0.12735143 0.052061904 0.84100002 1.3281225e-38
-0.12604858 0.052185714 0.84300005 1.3096834e-38
-0.12444286 0.052185714 0.84300005 1.309719e-38
-0.12312857 0.052309528 0.84500003 1.3281581e-38
-0.12151904 0.052309528 0.84500003 1.2729133e-38
-0.12019334 0.052433338 0.84700006 1.0977416e-38
-0.11886001 0.052557144 0.84900004 9.7802996e-39
-0.11724286 0.052557144 0.84900004 9.4115171e-39
-0.1158981 0.052680954 0.85100001 9.9621825e-39
-0.11468 0.052866668 0.85400003 1.0054378e-38
-0.1133181 0.052990478 0.85600007 1.0146201e-38
-0.11168763 0.052990478 0.85600007 9.7774185e-39
-0.11057143 0.053238098 0.86000001 9.8674631e-39
-0.10893334 0.053238098 0.86000001 9.7752675e-39
-0.10754476 0.053361908 0.86200005 9.2220839e-39
-0.10651714 0.053671431 0.86700004 9.959649e-39
-0.10486572 0.053671431 0.86700004 1.1247501e-38
-0.10321429 0.053671431 0.86700004 1.2353849e-38
-0.17343335 0.054046672 0.84700006 9.4996405e-39
-0.17182001 0.054046672 0.84700006 1.0605988e-38
-0.16980477 0.053919047 0.84500003 1.078941e-38
-0.16779715 0.05379143 0.84300005 1.3002105e-38
-0.16619143 0.05379143 0.84300005 1.2542208e-38
-0.16458572 0.05379143 0.84300005 1.2265622e-38
-0.16298001 0.05379143 0.84300005 1.2263817e-38
-0.16099143 0.053663809 0.84100002 1.0143317e-38
-0.15938953 0.053663809 0.84100002 1.217123e-38
-0.15778762 0.053663809 0.84100002 1.4844903e-38
-0.15581429 0.053536192 0.83900005 1.3740023e-38
-0.15421619 0.053536192 0.83900005 7.5629157e-39
-0.1526181 0.053536192 0.83900005 5.5436194e-39
-0.15102001 0.053536192 0.83900005 6.0967932e-39
-0.14942192 0.053536192 0.83900005 1.0053965e-38
-0.14747143 0.053408574 0.83700001 1.079153e-38
-0.14587715 0.053408574 0.83700001 1.1250326e-38
-0.14428286 0.053408574 0.83700001 1.2448869e-38
-0.14268857 0.053408574 0.83700001 1.1988691e-38
-0.14075716 0.053280953 0.83500004 1.0790148e-38
-0.13916667 0.053280953 0.83500004 1.1161452e-38
-0.13757619 0.053280953 0.83500004 1.0423887e-38
-0.13631143 0.053408574 0.83700001 1.0425662e-38
-0.13471715 0.053408574 0.83700001 1.3560313e-38
-0.13344096 0.053536192 0.83900005 1.4018427e-38
-0.13184287 0.053536192 0.83900005 1.3557449e-38
-0.13055524 0.053663809 0.84100002 1.3557452e-38
-0.12895334 0.053663809 0.84100002 1.3373061e-38
-0.12735143 0.053663809 0.84100002 1.3189032e-38
-0.12604858 0.05379143 0.84300005 1.3096837e-38
-0.12444286 0.05379143 0.84300005 1.3096834e-38
-0.12312857 0.053919047 0.84500003 1.3281225e-38
-0.12180667 0.054046672 0.84700006 1.3096834e-38
-0.12019334 0.054046672 0.84700006 1.106853e-38
-0.11886001 0.054174289 0.84900004 9.6877438e-39
-0.11751905 0.054301906 0.85100001 9.5033526e-39
-0.1158981 0.054301906 0.85100001 9.7788731e-39
-0.11468 0.054493334 0.85400003 9.7788731e-39
-0.1133181 0.054620955 0.85600007 1.0422069e-38
-0.11194857 0.054748576 0.85800004 1.0514265e-38
-0.11057143 0.054876193 0.86000001 1.0052208e-38
-0.10918667 0.055003811 0.86200005 9.8678163e-39
-0.10779429 0.055131428 0.86400002 9.4054186e-39
-0.10651714 0.055322859 0.86700004 1.0050788e-38
-0.10510762 0.055450477 0.86900002 1.1063476e-38
-0.10345238 0.055450477 0.86900002 1.2262019e-38
-0.17749429 0.055922858 0.85100001 7.5613617e-39
-0.17343335 0.055660002 0.84700006 8.5769331e-39
-0.17182001 0.055660002 0.84700006 1.0328636e-38
-0.16980477 0.05552857 0.84500003 9.7791757e-39
-0.16779715 0.055397145 0.84300005 1.1530893e-38
-0.16619143 0.055397145 0.84300005 1.189789e-38
-0.16458572 0.055397145 0.84300005 1.2266672e-38
-0.16298001 0.055397145 0.84300005 1.3920118e-38
-0.16099143 0.055265717 0.84100002 1.3735727e-38
-0.15938953 0.055265717 0.84100002 1.3647474e-38
-0.15778762 0.055265717 0.84100002 1.4292844e-38
-0.15581429 0.055134289 0.83900005 1.4199957e-38
-0.15421619 0.055134289 0.83900005 1.1802871e-38
-0.1526181 0.055134289 0.83900005 1.0516438e-38
-0.15102001 0.055134289 0.83900005 1.0885221e-38
-0.14942192 0.055134289 0.83900005 1.1989748e-38
-0.14782383 0.055134289 0.83900005 1.2081944e-38
-0.14622572 0.055134289 0.83900005 1.2631492e-38
-0.14462763 0.055134289 0.83900005 1.3184666e-38
-0.14268857 0.055002857 0.83700001 1.5210494e-38
-0.14109428 0.055002857 0.83700001 1.465732e-38
-0.13950001 0.055002857 0.83700001 1.3649279e-38
-0.1379057 0.055002857 0.83700001 1.383367e-38
-0.13631143 0.055002857 0.83700001 1.3834379e-38
-0.13503905 0.055134289 0.83900005 1.4110966e-38
-0.13344096 0.055134289 0.83900005 1.3558888e-38
-0.13184287 0.055134289 0.83900005 1.3282301e-38
-0.13055524 0.055265717 0.84100002 1.3190111e-38
-0.12895334 0.055265717 0.84100002 1.300572e-38
-0.12735143 0.055265717 0.84100002 1.3189032e-38
-0.12604858 0.055397145 0.84300005 1.3096837e-38
-0.12444286 0.055397145 0.84300005 1.3004994e-38
-0.12312857 0.05552857 0.84500003 1.3281581e-38
-0.12180667 0.055660002 0.84700006 1.3189385e-38
-0.12019334 0.055660002 0.84700006 1.1161082e-38
-0.11886001 0.05579143 0.84900004 9.9639678e-39
-0.11751905 0.055922858 0.85100001 1.0056163e-38
-0.1158981 0.055922858 0.85100001 1.0145858e-38
-0.11494858 0.056251429 0.85600007 1.0053662e-38
-0.11358286 0.056382861 0.85800004 1.0422072e-38
-0.11194857 0.056382861 0.85800004 1.0145485e-38
-0.11082857 0.056645717 0.86200005 9.6848669e-39
-0.10944 0.056777142 0.86400002 9.5926713e-39
-0.10816857 0.056974288 0.86700004 8.9458502e-39
-0.10676286 0.057105716 0.86900002 9.5912196e-39
-0.10510762 0.057105716 0.86900002 1.0878365e-38
-0.10345238 0.057105716 0.86900002 1.2169104e-38
-0.10179714 0.057105716 0.86900002 1.2261996e-38
-0.17749429 0.05754381 0.85100001 7.6528791e-39
-0.17587334 0.05754381 0.85100001 7.7450747e-39
-0.17384286 0.057408575 0.84900004 7.4713198e-39
-0.17182001 0.057273336 0.84700006 7.7479025e-39
-0.17020668 0.057273336 0.84700006 7.2901698e-39
-0.16819525 0.057138097 0.84500003 7.1979742e-39
-0.16658571 0.057138097 0.84500003 5.3605384e-39
-0.16497619 0.057138097 0.84500003 5.6371224e-39
-0.16336668 0.057138097 0.84500003 7.4725698e-39
-0.16137429 0.057002861 0.84300005 9.9618518e-39
-0.15938953 0.056867622 0.84100002 1.1067438e-38
-0.15778762 0.056867622 0.84100002 1.0975243e-38
-0.15618572 0.056867622 0.84100002 1.1160022e-38
-0.15458381 0.056867622 0.84100002 1.1436609e-38
-0.15298191 0.056867622 0.84100002 1.1161101e-38
-0.15102001 0.056732383 0.83900005 1.1253297e-38
-0.14942192 0.056732383 0.83900005 1.1621691e-38
-0.14782383 0.056732383 0.83900005 1.1806082e-38
-0.14622572 0.056732383 0.83900005 1.1897187e-38
-0.14462763 0.056732383 0.83900005 1.1897187e-38
-0.14302954 0.056732383 0.83900005 1.1897555e-38
-0.14143144 0.056732383 0.83900005 1.1252186e-38
-0.13950001 0.056597143 0.83700001 1.0977416e-38
-0.1379057 0.056597143 0.83700001 1.3927676e-38
-0.13663715 0.056732383 0.83900005 1.4202821e-38
-0.13503905 0.056732383 0.83900005 1.4110626e-38
-0.13344096 0.056732383 0.83900005 1.3557449e-38
-0.13215715 0.056867622 0.84100002 1.3465254e-38
-0.13055524 0.056867622 0.84100002 1.3373777e-38
-0.12926 0.057002861 0.84300005 1.3189385e-38
-0.12765428 0.057002861 0.84300005 1.318903e-38
-0.12604858 0.057002861 0.84300005 1.318903e-38
-0.12444286 0.057002861 0.84300005 1.3097543e-38
-0.12312857 0.057138097 0.84500003 1.3005347e-38
-0.12180667 0.057273336 0.84700006 1.309719e-38
-0.12047715 0.057408575 0.84900004 1.162206e-38
-0.11886001 0.057408575 0.84900004 1.0148019e-38
-0.11793333 0.057746667 0.85400003 1.033241e-38
-0.11630667 0.057746667 0.85400003 1.0054384e-38
-0.11494858 0.05788191 0.85600007 9.9621881e-39
-0.11358286 0.058017146 0.85800004 1.0145129e-38
-0.11220952 0.058152381 0.86000001 9.5919553e-39
-0.11082857 0.058287621 0.86200005 9.8678191e-39
-0.10982 0.058625717 0.86700004 9.7756234e-39
-0.10816857 0.058625717 0.86700004 9.4071758e-39
-0.10676286 0.058760952 0.86900002 9.4993715e-39
-0.10510762 0.058760952 0.86900002 1.0879437e-38
-0.10345238 0.058760952 0.86900002 1.2077981e-38
-0.17853716 0.059512388 0.85600007 8.4826425e-39
-0.17587334 0.059164762 0.85100001 8.11386e-39
-0.17425238 0.059164762 0.85100001 7.7479025e-39
-0.17222571 0.059025716 0.84900004 8.1166794e-39
-0.17020668 0.05888667 0.84700006 7.3820151e-39
-0.16859335 0.05888667 0.84700006 7.1976238e-39
-0.16658571 0.058747619 0.84500003 4.3489298e-39
-0.16497619 0.058747619 0.84500003 2.7816111e-39
-0.16336668 0.058747619 0.84500003 2.2296831e-39
-0.16137429 0.058608577 0.84300005 4.995552e-39
-0.15976857 0.058608577 0.84300005 7.7524035e-39
-0.15778762 0.058469526 0.84100002 6.9226428e-39
-0.15618572 0.058469526 0.84100002 6.0975835e-39
-0.15458381 0.058469526 0.84100002 6.7429529e-39
-0.15298191 0.058469526 0.84100002 8.3062793e-39
-0.15138 0.058469526 0.84100002 8.3062793e-39
-0.14942192 0.058330476 0.83900005 8.4913362e-39
-0.14782383 0.058330476 0.83900005 9.04451e-39
-0.14622572 0.058330476 0.83900005 8.8604817e-39
-0.14462763 0.058330476 0.83900005 8.030721e-39
-0.14302954 0.058330476 0.83900005 6.375503e-39
-0.14143144 0.058330476 0.83900005 5.637938e-39
-0.13983335 0.058330476 0.83900005 8.6767938e-39
-0.13823524 0.058330476 0.83900005 1.319438e-38
-0.13663715 0.058330476 0.83900005 1.4110623e-38
-0.13503905 0.058330476 0.83900005 1.3926232e-38
-0.13375905 0.058469526 0.84100002 1.3190111e-38
-0.13215715 0.058469526 0.84100002 1.3190111e-38
-0.13055524 0.058469526 0.84100002 1.3373421e-38
-0.12926 0.058608577 0.84300005 1.318903e-38
-0.12765428 0.058608577 0.84300005 1.3280865e-38
-0.12604858 0.058608577 0.84300005 1.3373061e-38
-0.1247381 0.058747619 0.84500003 1.3096834e-38
-0.12312857 0.058747619 0.84500003 1.3004638e-38
-0.12180667 0.05888667 0.84700006 1.3188667e-38
-0.12047715 0.059025716 0.84900004 1.1990123e-38
-0.11914 0.059164762 0.85100001 1.1252558e-38
-0.11793333 0.059373334 0.85400003 9.8696239e-39
-0.11657906 0.059512388 0.85600007 9.9625356e-39
-0.11521715 0.059651431 0.85800004 9.9625356e-39
-0.11384762 0.059790477 0.86000001 9.7770654e-39
-0.11220952 0.059790477 0.86000001 9.5926741e-39
-0.11108571 0.060068574 0.86400002 9.5004785e-39
-0.10982 0.060277145 0.86700004 9.5004785e-39
-0.1084181 0.060416192 0.86900002 9.7763269e-39
-0.10676286 0.060416192 0.86900002 9.5919356e-39
-0.10510762 0.060416192 0.86900002 1.1063829e-38
-0.10369048 0.060555242 0.87100005 1.2262372e-38
-0.17853716 0.061142862 0.85600007 8.3912092e-39
-0.17649335 0.061000001 0.85400003 7.9302311e-39
-0.17425238 0.060785715 0.85100001 7.5635141e-39
-0.17222571 0.060642861 0.84900004 7.932291e-39
-0.17060858 0.060642861 0.84900004 7.4728038e-39
-0.16859335 0.060500003 0.84700006 7.4728038e-39
-0.16698001 0.060500003 0.84700006 4.3496613e-39
-0.16497619 0.060357146 0.84500003 3.2433137e-39
-0.16336668 0.060357146 0.84500003 2.6924843e-39
-0.16175714 0.060357146 0.84500003 3.9832231e-39
-0.15938953 0.060071427 0.84100002 4.6235549e-39
-0.15778762 0.060071427 0.84100002 4.9923374e-39
-0.15618572 0.060071427 0.84100002 4.6242765e-39
-0.15458381 0.060071427 0.84100002 2.2271901e-39
-0.15298191 0.060071427 0.84100002 1.1251208e-39
-0.15138 0.060071427 0.84100002 2.9536009e-40
-0.14942192 0.059928574 0.83900005 7.5732755e-40
-0.14782383 0.059928574 0.83900005 3.2466096e-39
-0.14622572 0.059928574 0.83900005 4.2571251e-39
-0.14462763 0.059928574 0.83900005 2.5054081e-39
-0.14302954 0.059928574 0.83900005 6.6869542e-40
-0.14143144 0.059928574 0.83900005 1.8672386e-39
-0.13983335 0.059928574 0.83900005 8.0328538e-39
-0.13823524 0.059928574 0.83900005 1.2919222e-38
-0.13696286 0.060071427 0.84100002 1.4110623e-38
-0.13536096 0.060071427 0.84100002 1.3465254e-38
-0.13375905 0.060071427 0.84100002 1.3373426e-38
-0.13215715 0.060071427 0.84100002 1.3373426e-38
-0.13086572 0.060214289 0.84300005 1.3189032e-38
-0.12926 0.060214289 0.84300005 1.3189032e-38
-0.12765428 0.060214289 0.84300005 1.309684e-38
-0.12604858 0.060214289 0.84300005 1.309684e-38
-0.1247381 0.060357146 0.84500003 1.3188667e-38
-0.12342 0.060500003 0.84700006 1.3096471e-38
-0.12180667 0.060500003 0.84700006 1.3004638e-38
-0.12047715 0.060642861 0.84900004 1.1713899e-38
-0.11914 0.060785715 0.85100001 1.0791946e-38
-0.11793333 0.061000001 0.85400003 8.3948596e-39
-0.11657906 0.061142862 0.85600007 9.4107884e-39
-0.11521715 0.061285719 0.85800004 1.0240549e-38
-0.11384762 0.061428569 0.86000001 1.0238034e-38
-0.11220952 0.061428569 0.86000001 9.6848599e-39
-0.11108571 0.061714288 0.86400002 9.5001254e-39
-0.11007334 0.062071431 0.86900002 9.5001254e-39
-0.1084181 0.062071431 0.86900002 9.3164376e-39
-0.10676286 0.062071431 0.86900002 9.4086332e-39
-0.10510762 0.062071431 0.86900002 1.0880516e-38
-0.10369048 0.062214289 0.87100005 1.2263451e-38
-0.10203143 0.062214289 0.87100005 1.2354192e-38
-0.18016763 0.062773332 0.85600007 9.4043074e-39
-0.17853716 0.062773332 0.85600007 9.0383611e-39
-0.17649335 0.062626667 0.85400003 8.4851873e-39
-0.17425238 0.062406667 0.85100001 7.7483117e-39
-0.17263143 0.062406667 0.85100001 7.7483117e-39
-0.17060858 0.062260002 0.84900004 7.4728038e-39
-0.16859335 0.062113333 0.84700006 7.6571951e-39
-0.16698001 0.062113333 0.84700006 5.0843396e-39
-0.16536668 0.062113333 0.84700006 3.9779921e-39
-0.16336668 0.061966669 0.84500003 3.4271697e-39
-0.16175714 0.061966669 0.84500003 3.334974e-39
-0.15938953 0.061673336 0.84100002 1.6801344e-39
-0.15778762 0.061673336 0.84100002 3.8006339e-39
-0.15618572 0.061673336 0.84100002 5.3611129e-39
-0.15458381 0.061673336 0.84100002 2.4108527e-39
-0.15298191 0.061673336 0.84100002 1.4939005e-39
-0.15138 0.061673336 0.84100002 1.125118e-39
-0.14942192 0.061526671 0.83900005 1.3126019e-39
-0.14782383 0.061526671 0.83900005 3.1565131e-39
-0.14622572 0.061526671 0.83900005 5.5435942e-39
-0.14462763 0.061526671 0.83900005 3.607486e-39
-0.14302954 0.061526671 0.83900005 8.5020001e-40
-0.14143144 0.061526671 0.83900005 4.5380252e-39
-0.14016667 0.061673336 0.84100002 9.4107716e-39
-0.13856475 0.061673336 0.84100002 1.3836162e-38
-0.13696286 0.061673336 0.84100002 1.3926951e-38
-0.13536096 0.061673336 0.84100002 1.3373777e-38
-0.13375905 0.061673336 0.84100002 1.3190111e-38
-0.13215715 0.061673336 0.84100002 1.3190111e-38
-0.13086572 0.061820004 0.84300005 1.3097913e-38
-0.12926 0.061820004 0.84300005 1.3097913e-38
-0.12765428 0.061820004 0.84300005 1.3004644e-38
-0.12634763 0.061966669 0.84500003 1.309684e-38
-0.12503333 0.062113333 0.84700006 1.3096474e-38
-0.12342 0.062113333 0.84700006 1.3188669e-38
-0.12209429 0.062260002 0.84900004 1.2821326e-38
-0.12076095 0.062406667 0.85100001 1.1254e-38
-0.11914 0.062406667 0.85100001 1.0332407e-38
-0.11793333 0.062626667 0.85400003 9.7792332e-39
-0.11657906 0.062773332 0.85600007 9.9621699e-39
-0.11521715 0.062920004 0.85800004 1.0054366e-38
-0.11384762 0.063066669 0.86000001 1.0422072e-38
-0.11247049 0.063213333 0.86200005 9.8688981e-39
-0.11147143 0.063579999 0.86700004 9.7770654e-39
-0.11007334 0.063726671 0.86900002 9.4082829e-39
-0.10866762 0.063873336 0.87100005 8.8554594e-39
-0.10700858 0.063873336 0.87100005 9.1320463e-39
-0.10534953 0.063873336 0.87100005 1.0696125e-38
-0.10392857 0.06402 0.87300003 1.207906e-38
-0.10250001 0.064166673 0.87500006 1.2446032e-38
-0.17812 0.064253338 0.85400003 8.7614211e-39
-0.17649335 0.064253338 0.85400003 9.3145948e-39
-0.17425238 0.064027622 0.85100001 8.4852195e-39
-0.17263143 0.064027622 0.85100001 8.2086326e-39
-0.17060858 0.063877143 0.84900004 8.1178257e-39
-0.16899143 0.063877143 0.84900004 8.302217e-39
-0.16698001 0.063726671 0.84700006 4.8088542e-39
-0.16536668 0.063726671 0.84700006 3.2415284e-39
-0.16375335 0.063726671 0.84700006 2.4166331e-39
-0.16175714 0.063576192 0.84500003 3.8917632e-39
-0.15976857 0.06342572 0.84300005 4.4416719e-39
-0.15778762 0.06327524 0.84100002 5.6402151e-39
-0.15618572 0.06327524 0.84100002 5.2696431e-39
-0.15458381 0.06327524 0.84100002 2.1349917e-39
-0.15298191 0.06327524 0.84100002 8.4926955e-40
-0.15138 0.06327524 0.84100002 2.0390014e-40
-0.1497781 0.06327524 0.84100002 4.8000498e-40
-0.14817619 0.06327524 0.84100002 3.4302651e-39
-0.14657429 0.06327524 0.84100002 4.9915148e-39
-0.14497238 0.06327524 0.84100002 3.9773629e-39
-0.14337048 0.06327524 0.84100002 1.5889113e-39
-0.14176857 0.06327524 0.84100002 6.0143015e-39
-0.14016667 0.06327524 0.84100002 8.7679777e-39
-0.13856475 0.06327524 0.84100002 1.3101172e-38
-0.13696286 0.06327524 0.84100002 1.3926232e-38
-0.13536096 0.06327524 0.84100002 1.3465254e-38
-0.13375905 0.06327524 0.84100002 1.3649282e-38
-0.13215715 0.06327524 0.84100002 1.3741477e-38
-0.13086572 0.06342572 0.84300005 1.3465609e-38
-0.12926 0.06342572 0.84300005 1.3465609e-38
-0.12795715 0.063576192 0.84500003 1.3004644e-38
-0.12634763 0.063576192 0.84500003 1.3004644e-38
-0.12503333 0.063726671 0.84700006 1.3004638e-38
-0.12342 0.063726671 0.84700006 1.3004638e-38
-0.12209429 0.063877143 0.84900004 1.2912445e-38
-0.12076095 0.064027622 0.85100001 1.1898294e-38
-0.11914 0.064027622 0.85100001 1.1530212e-38
-0.11793333 0.064253338 0.85400003 1.0792647e-38
-0.11657906 0.064403817 0.85600007 9.594479e-39
-0.11521715 0.064554289 0.85800004 9.1335008e-39
-0.11384762 0.064704761 0.86000001 9.6852355e-39
-0.11247049 0.064855248 0.86200005 9.8696267e-39
-0.11147143 0.065231435 0.86700004 1.0054005e-38
-0.11007334 0.065381907 0.86900002 1.0146201e-38
-0.10866762 0.065532386 0.87100005 1.0145109e-38
-0.10700858 0.065532386 0.87100005 9.49974e-39
-0.10559143 0.065682858 0.87300003 1.0327343e-38
-0.10392857 0.065682858 0.87300003 1.207906e-38
-0.10250001 0.065833338 0.87500006 1.2354205e-38
-0.17853716 0.066034287 0.85600007 8.8532664e-39
-0.17690668 0.066034287 0.85600007 9.3142445e-39
-0.17425238 0.065648571 0.85100001 8.5777781e-39
-0.17263143 0.065648571 0.85100001 8.0246043e-39
-0.17060858 0.065494291 0.84900004 8.1171166e-39
-0.16899143 0.065494291 0.84900004 8.3937035e-39
-0.16698001 0.065340005 0.84700006 6.0970818e-39
-0.16536668 0.065340005 0.84700006 4.2531693e-39
-0.16375335 0.065340005 0.84700006 1.957422e-39
-0.16175714 0.065185711 0.84500003 3.3403564e-39
-0.16014762 0.065185711 0.84500003 4.1661542e-39
-0.15816286 0.065031432 0.84300005 5.0881105e-39
-0.15618572 0.064877145 0.84100002 4.4427635e-39
-0.15458381 0.064877145 0.84100002 1.1237209e-39
-0.15298191 0.064877145 0.84100002 6.6412999e-40
-0.15138 0.064877145 0.84100002 5.7193436e-40
-0.1497781 0.064877145 0.84100002 6.6509549e-40
-0.14817619 0.064877145 0.84100002 3.52316e-39
-0.14657429 0.064877145 0.84100002 4.8071109e-39
-0.14497238 0.064877145 0.84100002 3.4241765e-39
-0.14337048 0.064877145 0.84100002 7.6163654e-40
-0.14176857 0.064877145 0.84100002 6.9387437e-39
-0.14016667 0.064877145 0.84100002 1.0428568e-38
-0.13856475 0.064877145 0.84100002 1.2733459e-38
-0.13696286 0.064877145 0.84100002 1.3742196e-38
-0.13536096 0.064877145 0.84100002 1.3465609e-38
-0.13375905 0.064877145 0.84100002 1.3649282e-38
-0.13247144 0.065031432 0.84300005 1.3741477e-38
-0.13086572 0.065031432 0.84300005 1.3373414e-38
-0.12956667 0.065185711 0.84500003 1.3281218e-38
-0.12795715 0.065185711 0.84500003 1.3004644e-38
-0.12664667 0.065340005 0.84700006 1.3004644e-38
-0.12503333 0.065340005 0.84700006 1.272913e-38
-0.12371143 0.065494291 0.84900004 1.2636935e-38
-0.12209429 0.065494291 0.84900004 1.2912445e-38
-0.12076095 0.065648571 0.85100001 1.217488e-38
-0.11914 0.065648571 0.85100001 1.1714243e-38
-0.11793333 0.065880001 0.85400003 9.5937433e-39
-0.11657906 0.066034287 0.85600007 9.3168187e-39
-0.11521715 0.066188574 0.85800004 9.2246231e-39
-0.11358286 0.066188574 0.85800004 8.3962889e-39
-0.11247049 0.066497147 0.86200005 9.6870277e-39
-0.11147143 0.066882864 0.86700004 1.0880899e-38
-0.11007334 0.067037143 0.86900002 1.0419921e-38
-0.10866762 0.067191429 0.87100005 1.0327343e-38
-0.10700858 0.067191429 0.87100005 9.7741689e-39
-0.10559143 0.067345716 0.87300003 9.8663645e-39
-0.10392857 0.067345716 0.87300003 1.207906e-38
-0.17853716 0.067664765 0.85600007 8.6692759e-39
-0.17690668 0.067664765 0.85600007 9.7756234e-39
-0.17486666 0.067506671 0.85400003 8.6692759e-39
-0.17263143 0.067269526 0.85100001 7.9317108e-39
-0.17060858 0.067111433 0.84900004 7.6579756e-39
-0.16899143 0.067111433 0.84900004 8.8565188e-39
-0.1673743 0.067111433 0.84900004 8.3991125e-39
-0.16575715 0.067111433 0.84900004 8.9522863e-39
-0.16375335 0.066953339 0.84700006 8.3988253e-39
-0.16214001 0.066953339 0.84700006 8.3066296e-39
-0.16014762 0.066795237 0.84500003 7.7549188e-39
-0.1585381 0.066795237 0.84500003 7.6627232e-39
-0.15618572 0.06647905 0.84100002 7.0188209e-39
-0.15458381 0.06647905 0.84100002 5.6358865e-39
-0.15298191 0.06647905 0.84100002 4.348323e-39
-0.15138 0.06647905 0.84100002 4.2561274e-39
-0.1497781 0.06647905 0.84100002 5.0837104e-39
-0.14817619 0.06647905 0.84100002 6.0978624e-39
-0.14657429 0.06647905 0.84100002 5.9134431e-39
-0.14497238 0.06647905 0.84100002 4.3461174e-39
-0.14337048 0.06647905 0.84100002 2.6012584e-39
-0.14176857 0.06647905 0.84100002 8.9627568e-39
-0.14016667 0.06647905 0.84100002 1.2359661e-38
-0.13889429 0.066637143 0.84300005 1.3373813e-38
-0.13728859 0.066637143 0.84300005 1.3374127e-38
-0.13536096 0.06647905 0.84100002 1.3281931e-38
-0.13375905 0.06647905 0.84100002 1.3465609e-38
-0.13247144 0.066637143 0.84300005 1.3373414e-38
-0.13086572 0.066637143 0.84300005 1.3280865e-38
-0.12956667 0.066795237 0.84500003 1.3096474e-38
-0.12826 0.066953339 0.84700006 1.3004641e-38
-0.12664667 0.066953339 0.84700006 1.3004641e-38
-0.12532857 0.067111433 0.84900004 1.3004638e-38
-0.12371143 0.067111433 0.84900004 1.2912443e-38
-0.12209429 0.067111433 0.84900004 1.3004641e-38
-0.12076095 0.067269526 0.85100001 1.1990489e-38
-0.11956 0.067506671 0.85400003 1.1161419e-38
-0.11820953 0.067664765 0.85600007 8.764333e-39
-0.11657906 0.067664765 0.85600007 9.3179075e-39
-0.11521715 0.067822859 0.85800004 9.5022988e-39
-0.11358286 0.067822859 0.85800004 9.8696267e-39
-0.11247049 0.068139054 0.86200005 1.106817e-38
-0.11147143 0.068534292 0.86700004 1.0974532e-38
-0.11007334 0.068692379 0.86900002 9.6837935e-39
-0.10866762 0.06885048 0.87100005 9.2231475e-39
-0.10700858 0.06885048 0.87100005 9.1309519e-39
-0.10559143 0.069008574 0.87300003 9.9585602e-39
-0.10452381 0.069403812 0.87800002 1.207906e-38
-0.17853716 0.069295242 0.85600007 8.3011912e-39
-0.17690668 0.069295242 0.85600007 9.8685169e-39
-0.17486666 0.069133334 0.85400003 9.777766e-39
-0.17263143 0.068890475 0.85100001 9.040201e-39
-0.17101048 0.068890475 0.85100001 9.0391122e-39
-0.16899143 0.068728574 0.84900004 9.1313078e-39
-0.1673743 0.068728574 0.84900004 8.4895383e-39
-0.16575715 0.068728574 0.84900004 9.2271034e-39
-0.16414 0.068728574 0.84900004 9.2257091e-39
-0.16214001 0.068566665 0.84700006 9.1335135e-39
-0.16052668 0.068566665 0.84700006 8.7672575e-39
-0.1585381 0.068404764 0.84500003 8.7672575e-39
-0.15655716 0.068242863 0.84300005 8.9520229e-39
-0.15495144 0.068242863 0.84300005 7.6612841e-39
-0.15298191 0.068080954 0.84100002 7.4761305e-39
-0.15138 0.068080954 0.84100002 6.3697829e-39
-0.1497781 0.068080954 0.84100002 5.5425404e-39
-0.14817619 0.068080954 0.84100002 6.0035186e-39
-0.14657429 0.068080954 0.84100002 6.0974994e-39
-0.14497238 0.068080954 0.84100002 5.6365213e-39
-0.14337048 0.068080954 0.84100002 6.3740583e-39
-0.14210573 0.068242863 0.84300005 1.18136e-38
-0.14050001 0.068242863 0.84300005 1.3649294e-38
-0.13889429 0.068242863 0.84300005 1.3557099e-38
-0.13728859 0.068242863 0.84300005 1.3373414e-38
-0.13568287 0.068242863 0.84300005 1.3465609e-38
-0.13407715 0.068242863 0.84300005 1.3373421e-38
-0.13247144 0.068242863 0.84300005 1.3373421e-38
-0.13086572 0.068242863 0.84300005 1.318903e-38
-0.12956667 0.068404764 0.84500003 1.318903e-38
-0.12826 0.068566665 0.84700006 1.3004641e-38
-0.12664667 0.068566665 0.84700006 1.2912445e-38
-0.12532857 0.068728574 0.84900004 1.2912445e-38
-0.12371143 0.068728574 0.84900004 1.282025e-38
-0.12209429 0.068728574 0.84900004 1.2912799e-38
-0.12076095 0.068890475 0.85100001 1.2544016e-38
-0.11956 0.069133334 0.85400003 1.0793019e-38
-0.11820953 0.069295242 0.85600007 9.9632587e-39
-0.11657906 0.069295242 0.85600007 1.079122e-38
-0.11521715 0.069457144 0.85800004 1.0422438e-38
-0.11384762 0.069619045 0.86000001 9.5022834e-39
-0.11247049 0.069780953 0.86200005 9.9632615e-39
-0.11147143 0.070185721 0.86700004 1.051428e-38
-0.11007334 0.070347615 0.86900002 9.1313456e-39
-0.10866762 0.070509523 0.87100005 8.4870328e-39
-0.10750001 0.07083334 0.87500006 8.8558153e-39
-0.10583334 0.07083334 0.87500006 1.0234068e-38
-0.10416667 0.07083334 0.87500006 1.2170176e-38
-0.18020572 0.071588568 0.86400002 9.3128376e-39
-0.17732 0.071091428 0.85800004 1.0419185e-38
-0.17527619 0.07092572 0.85600007 1.0329501e-38
-0.17364573 0.07092572 0.85600007 1.1343653e-38
-0.17161334 0.070760004 0.85400003 1.134366e-38
-0.16938953 0.070511431 0.85100001 1.1528051e-38
-0.16776857 0.070511431 0.85100001 1.1343665e-38
-0.16614762 0.070511431 0.85100001 1.125147e-38
-0.16414 0.070345722 0.84900004 1.0791233e-38
-0.16214001 0.070179999 0.84700006 1.042245e-38
-0.16052668 0.070179999 0.84700006 8.9505697e-39
-0.15891334 0.070179999 0.84700006 8.7661785e-39
-0.15692858 0.070014283 0.84500003 9.4129674e-39
-0.15495144 0.069848575 0.84300005 9.8739455e-39
-0.15334573 0.069848575 0.84300005 9.2275041e-39
-0.15174001 0.069848575 0.84300005 8.3977435e-39
-0.1497781 0.069682859 0.84100002 8.304822e-39
-0.14817619 0.069682859 0.84100002 8.304822e-39
-0.14692287 0.069848575 0.84300005 8.7679483e-39
-0.14531715 0.069848575 0.84300005 9.4133177e-39
-0.14371143 0.069848575 0.84300005 9.7806681e-39
-0.14210573 0.069848575 0.84300005 1.3191906e-38
-0.14050001 0.069848575 0.84300005 1.3833673e-38
-0.13889429 0.069848575 0.84300005 1.3372695e-38
-0.13728859 0.069848575 0.84300005 1.3373414e-38
-0.13568287 0.069848575 0.84300005 1.3373414e-38
-0.13407715 0.069848575 0.84300005 1.3373774e-38
-0.13247144 0.069848575 0.84300005 1.3281578e-38
-0.13086572 0.069848575 0.84300005 1.318903e-38
-0.12956667 0.070014283 0.84500003 1.3096834e-38
-0.12826 0.070179999 0.84700006 1.3004644e-38
-0.12694572 0.070345722 0.84900004 1.2912448e-38
-0.12532857 0.070345722 0.84900004 1.2912443e-38
-0.12371143 0.070345722 0.84900004 1.2728051e-38
-0.12209429 0.070345722 0.84900004 1.2912433e-38
-0.12076095 0.070511431 0.85100001 1.2728042e-38
-0.11956 0.070760004 0.85400003 1.12533e-38
-0.11820953 0.07092572 0.85600007 1.0146952e-38
-0.11657906 0.07092572 0.85600007 1.0331668e-38
-0.11521715 0.071091428 0.85800004 1.0147277e-38
-0.11384762 0.071257144 0.86000001 9.8692708e-39
-0.11247049 0.07142286 0.86200005 9.6848796e-39
-0.11147143 0.071837142 0.86700004 9.8699743e-39
-0.11032668 0.072168581 0.87100005 9.1324092e-39
-0.10891715 0.07233429 0.87300003 9.4068409e-39
-0.10750001 0.072500005 0.87500006 9.2224497e-39
-0.10583334 0.072500005 0.87500006 9.8660114e-39
-0.10416667 0.072500005 0.87500006 1.1986511e-38
-0.18020572 0.07323429 0.86400002 9.9574812e-39
-0.17773335 0.072895236 0.86000001 1.0418459e-38
-0.17568572 0.072725721 0.85800004 9.8699673e-39
-0.17364573 0.072556198 0.85600007 1.0791924e-38
-0.17161334 0.072386667 0.85400003 1.1159987e-38
-0.16998667 0.072386667 0.85400003 1.1436574e-38
-0.16776857 0.072132379 0.85100001 1.1528056e-38
-0.16614762 0.072132379 0.85100001 1.1989035e-38
-0.16414 0.071962863 0.84900004 1.1713902e-38
-0.16252285 0.071962863 0.84900004 1.1529511e-38
-0.16052668 0.071793333 0.84700006 1.1253647e-38
-0.15891334 0.071793333 0.84700006 1.097706e-38
-0.15730001 0.071793333 0.84700006 1.0885581e-38
-0.15531905 0.07162381 0.84500003 1.0977776e-38
-0.15370953 0.07162381 0.84500003 1.097813e-38
-0.1521 0.07162381 0.84500003 9.5951951e-39
-0.1501343 0.071454294 0.84300005 9.6848697e-39
-0.14852859 0.071454294 0.84300005 9.9614566e-39
-0.14692287 0.071454294 0.84300005 9.5959111e-39
-0.14531715 0.071454294 0.84300005 1.0056889e-38
-0.14371143 0.071454294 0.84300005 1.1714603e-38
-0.14210573 0.071454294 0.84300005 1.346632e-38
-0.14050001 0.071454294 0.84300005 1.3465254e-38
-0.13889429 0.071454294 0.84300005 1.3280862e-38
-0.13728859 0.071454294 0.84300005 1.3280862e-38
-0.13568287 0.071454294 0.84300005 1.3373058e-38
-0.13407715 0.071454294 0.84300005 1.3373421e-38
-0.13278572 0.07162381 0.84500003 1.3281225e-38
-0.13117619 0.07162381 0.84500003 1.3005717e-38
-0.12987334 0.071793333 0.84700006 1.2821326e-38
-0.12826 0.071793333 0.84700006 1.2820973e-38
-0.12664667 0.071793333 0.84700006 1.2820973e-38
-0.12532857 0.071962863 0.84900004 1.2912443e-38
-0.12371143 0.071962863 0.84900004 1.2728051e-38
-0.12238191 0.072132379 0.85100001 1.2728407e-38
-0.12118667 0.072386667 0.85400003 1.2636212e-38
-0.11956 0.072386667 0.85400003 1.1437685e-38
-0.11820953 0.072556198 0.85600007 1.0146947e-38
-0.11657906 0.072556198 0.85600007 1.0331671e-38
-0.11521715 0.072725721 0.85800004 1.0239476e-38
-0.11384762 0.072895236 0.86000001 1.0146214e-38
-0.11247049 0.073064767 0.86200005 1.0054018e-38
-0.11172857 0.073658101 0.86900002 9.8696141e-39
-0.11032668 0.073827624 0.87100005 9.408636e-39
-0.10891715 0.07399714 0.87300003 9.5912322e-39
-0.10786857 0.074420951 0.87800002 9.130254e-39
-0.10619619 0.074420951 0.87800002 9.7738158e-39
-0.10452381 0.074420951 0.87800002 1.1894315e-38
-0.18248287 0.075139999 0.86700004 1.0142576e-38
-0.17978859 0.074706666 0.86200005 9.4064752e-39
-0.17773335 0.074533336 0.86000001 9.6830621e-39
-0.17568572 0.074360006 0.85800004 9.7774157e-39
-0.17405143 0.074360006 0.85800004 1.0883763e-38
-0.17201525 0.074186668 0.85600007 1.1250738e-38
-0.16998667 0.074013337 0.85400003 1.1527325e-38
-0.16835999 0.074013337 0.85400003 1.1528051e-38
-0.16673334 0.074013337 0.85400003 1.1896833e-38
-0.16452667 0.073753335 0.85100001 1.1897199e-38
-0.16252285 0.073580004 0.84900004 1.2265982e-38
-0.16090572 0.073580004 0.84900004 1.2175234e-38
-0.15891334 0.073406667 0.84700006 1.2544016e-38
-0.15730001 0.073406667 0.84700006 1.2727688e-38
-0.15568668 0.073406667 0.84700006 1.3096471e-38
-0.15370953 0.073233336 0.84500003 1.3096821e-38
-0.1521 0.073233336 0.84500003 1.3189017e-38
-0.1501343 0.073060006 0.84300005 1.3464528e-38
-0.14852859 0.073060006 0.84300005 1.3648919e-38
-0.14692287 0.073060006 0.84300005 1.3557086e-38
-0.14531715 0.073060006 0.84300005 1.3464891e-38
-0.14371143 0.073060006 0.84300005 1.3465254e-38
-0.14244285 0.073233336 0.84500003 1.3926232e-38
-0.14083333 0.073233336 0.84500003 1.3465609e-38
-0.1392238 0.073233336 0.84500003 1.3281218e-38
-0.13761429 0.073233336 0.84500003 1.3373061e-38
-0.13600476 0.073233336 0.84500003 1.3465256e-38
-0.13439524 0.073233336 0.84500003 1.3373421e-38
-0.13278572 0.073233336 0.84500003 1.3281225e-38
-0.13117619 0.073233336 0.84500003 1.3281581e-38
-0.12987334 0.073406667 0.84700006 1.309719e-38
-0.12826 0.073406667 0.84700006 1.2820973e-38
-0.12664667 0.073406667 0.84700006 1.2820973e-38
-0.12532857 0.073580004 0.84900004 1.2912443e-38
-0.12371143 0.073580004 0.84900004 1.2728051e-38
-0.12238191 0.073753335 0.85100001 1.2728407e-38
-0.12118667 0.074013337 0.85400003 1.2820603e-38
-0.11956 0.074013337 0.85400003 1.1991568e-38
-0.11820953 0.074186668 0.85600007 1.0239851e-38
-0.11685143 0.074360006 0.85800004 9.5948419e-39
-0.11521715 0.074360006 0.85800004 9.8714288e-39
-0.11384762 0.074533336 0.86000001 1.023876e-38
-0.11247049 0.074706666 0.86200005 1.0146564e-38
-0.11147143 0.075139999 0.86700004 1.0054003e-38
-0.11032668 0.075486667 0.87100005 9.5008288e-39
-0.10866762 0.075486667 0.87100005 9.4082801e-39
-0.10750001 0.075833343 0.87500006 9.0394975e-39
-0.10619619 0.076093338 0.87800002 9.958207e-39
-0.10452381 0.076093338 0.87800002 1.1894315e-38
-0.1862143 0.076968573 0.86900002 1.1341495e-38
-0.18455905 0.076968573 0.86900002 1.1250002e-38
-0.18185143 0.076525718 0.86400002 1.0143655e-38
-0.17978859 0.07634858 0.86200005 9.0376927e-39
-0.17814668 0.07634858 0.86200005 8.945497e-39
-0.17568572 0.07599429 0.85800004 1.0051456e-38
-0.17405143 0.07599429 0.85800004 1.1434391e-38
-0.17201525 0.075817153 0.85600007 1.1434776e-38
-0.17038476 0.075817153 0.85600007 1.1619167e-38
-0.16835999 0.07564 0.85400003 1.1436577e-38
-0.16673334 0.07564 0.85400003 1.1897555e-38
-0.16452667 0.075374283 0.85100001 1.1713887e-38
-0.16252285 0.075197145 0.84900004 1.2082669e-38
-0.16090572 0.075197145 0.84900004 1.2083391e-38
-0.15928857 0.075197145 0.84900004 1.2636565e-38
-0.15730001 0.07502 0.84700006 1.2728042e-38
-0.15568668 0.07502 0.84700006 1.2912433e-38
-0.15370953 0.074842855 0.84500003 1.3004628e-38
-0.1521 0.074842855 0.84500003 1.318902e-38
-0.15049048 0.074842855 0.84500003 1.3464891e-38
-0.14888096 0.074842855 0.84500003 1.3741477e-38
-0.14727144 0.074842855 0.84500003 1.3649279e-38
-0.14566191 0.074842855 0.84500003 1.3741475e-38
-0.14405239 0.074842855 0.84500003 1.3557449e-38
-0.14244285 0.074842855 0.84500003 1.3649645e-38
-0.14083333 0.074842855 0.84500003 1.3465254e-38
-0.1392238 0.074842855 0.84500003 1.3280862e-38
-0.13761429 0.074842855 0.84500003 1.3373414e-38
-0.13600476 0.074842855 0.84500003 1.3465609e-38
-0.13439524 0.074842855 0.84500003 1.3373777e-38
-0.1331 0.07502 0.84700006 1.3281581e-38
-0.13148667 0.07502 0.84700006 1.318903e-38
-0.12987334 0.07502 0.84700006 1.3096834e-38
-0.12826 0.07502 0.84700006 1.3004641e-38
-0.12694572 0.075197145 0.84900004 1.3004641e-38
-0.12532857 0.075197145 0.84900004 1.2912799e-38
-0.12371143 0.075197145 0.84900004 1.2728407e-38
-0.12238191 0.075374283 0.85100001 1.2636212e-38
-0.12118667 0.07564 0.85400003 1.2820603e-38
-0.11956 0.07564 0.85400003 1.2266723e-38
-0.11820953 0.075817153 0.85600007 1.0146223e-38
-0.11685143 0.07599429 0.85800004 9.1338512e-39
-0.11521715 0.07599429 0.85800004 1.0055807e-38
-0.11384762 0.076171428 0.86000001 1.0514984e-38
-0.11247049 0.07634858 0.86200005 1.0330592e-38
-0.11147143 0.076791435 0.86700004 9.9625258e-39
-0.11032668 0.077145718 0.87100005 9.5015477e-39
-0.10866762 0.077145718 0.87100005 9.5926713e-39
-0.10750001 0.077500008 0.87500006 9.2238888e-39
-0.10619619 0.077765711 0.87800002 1.0142601e-38
-0.10452381 0.077765711 0.87800002 1.1894318e-38
-0.1862143 0.078623809 0.86900002 1.1524807e-38
-0.18413429 0.078442864 0.86700004 1.1250002e-38
-0.18185143 0.078171432 0.86400002 1.0512437e-38
-0.17978859 0.07799048 0.86200005 9.3139264e-39
-0.17814668 0.07799048 0.86200005 7.3778182e-39
-0.17568572 0.077628575 0.85800004 7.8402187e-39
-0.17405143 0.077628575 0.85800004 1.0052914e-38
-0.17201525 0.077447623 0.85600007 1.134186e-38
-0.17038476 0.077447623 0.85600007 1.1895034e-38
-0.16875429 0.077447623 0.85600007 1.1896463e-38
-0.16673334 0.077266671 0.85400003 1.2449637e-38
-0.16452667 0.076995239 0.85100001 1.2265619e-38
-0.16290571 0.076995239 0.85100001 1.2357814e-38
-0.16090572 0.076814294 0.84900004 1.2082669e-38
-0.15928857 0.076814294 0.84900004 1.2543648e-38
-0.15767144 0.076814294 0.84900004 1.2543648e-38
-0.15568668 0.076633334 0.84700006 1.2451452e-38
-0.15407334 0.076633334 0.84700006 1.2451465e-38
-0.15246001 0.076633334 0.84700006 1.2728051e-38
-0.15049048 0.076452382 0.84500003 1.3003915e-38
-0.14888096 0.076452382 0.84500003 1.3372698e-38
-0.14727144 0.076452382 0.84500003 1.3280497e-38
-0.14566191 0.076452382 0.84500003 1.3280497e-38
-0.14405239 0.076452382 0.84500003 1.3372698e-38
-0.14244285 0.076452382 0.84500003 1.3464893e-38
-0.14083333 0.076452382 0.84500003 1.3373061e-38
-0.1392238 0.076452382 0.84500003 1.3280865e-38
-0.13761429 0.076452382 0.84500003 1.3280865e-38
-0.13600476 0.076452382 0.84500003 1.3373061e-38
-0.13439524 0.076452382 0.84500003 1.3281225e-38
-0.1331 0.076633334 0.84700006 1.318903e-38
-0.13148667 0.076633334 0.84700006 1.318903e-38
-0.12987334 0.076633334 0.84700006 1.3096834e-38
-0.12856287 0.076814294 0.84900004 1.309719e-38
-0.12694572 0.076814294 0.84900004 1.3004994e-38
-0.12532857 0.076814294 0.84900004 1.3005347e-38
-0.12371143 0.076814294 0.84900004 1.2820956e-38
-0.12238191 0.076995239 0.85100001 1.272876e-38
-0.12118667 0.077266671 0.85400003 1.2913152e-38
-0.11956 0.077266671 0.85400003 1.2358919e-38
-0.11820953 0.077447623 0.85600007 1.0146223e-38
-0.11685143 0.077628575 0.85800004 1.0422785e-38
-0.11548571 0.077809528 0.86000001 1.1252546e-38
-0.11411238 0.07799048 0.86200005 1.0514984e-38
-0.11273143 0.078171432 0.86400002 1.0238397e-38
-0.11172857 0.078623809 0.86900002 1.0238031e-38
-0.11032668 0.078804761 0.87100005 1.005364e-38
-0.10866762 0.078804761 0.87100005 9.5926741e-39
-0.10725429 0.078985721 0.87300003 9.3160872e-39
-0.10583334 0.079166673 0.87500006 1.0142601e-38
-0.10416667 0.079166673 0.87500006 1.1802122e-38
-0.10250001 0.079166673 0.87500006 1.2077615e-38
-0.18413429 0.080094293 0.86700004 1.1434394e-38
-0.18185143 0.079817139 0.86400002 1.088122e-38
-0.17978859 0.079632387 0.86200005 9.4993897e-39
-0.17814668 0.079632387 0.86200005 7.4710858e-39
-0.17609525 0.07944762 0.86000001 7.1948493e-39
-0.17405143 0.07926286 0.85800004 8.8543706e-39
-0.17241715 0.07926286 0.85800004 1.0144391e-38
-0.17038476 0.079078101 0.85600007 1.078976e-38
-0.16875429 0.079078101 0.85600007 1.1250015e-38
-0.16673334 0.078893334 0.85400003 1.2356363e-38
-0.16510667 0.078893334 0.85400003 1.2265616e-38
-0.16290571 0.078616194 0.85100001 1.2450007e-38
-0.16090572 0.078431435 0.84900004 1.2174865e-38
-0.15928857 0.078431435 0.84900004 1.2451452e-38
-0.15767144 0.078431435 0.84900004 1.2359978e-38
-0.15605429 0.078431435 0.84900004 1.2452174e-38
-0.15407334 0.078246668 0.84700006 1.2451465e-38
-0.15246001 0.078246668 0.84700006 1.2728051e-38
-0.15084668 0.078246668 0.84700006 1.2819887e-38
-0.14923334 0.078246668 0.84700006 1.3004278e-38
-0.14762001 0.078246668 0.84700006 1.3096471e-38
-0.14600667 0.078246668 0.84700006 1.3188667e-38
-0.14439334 0.078246668 0.84700006 1.3280865e-38
-0.14278001 0.078246668 0.84700006 1.3373061e-38
-0.14116667 0.078246668 0.84700006 1.3373061e-38
-0.13955334 0.078246668 0.84700006 1.3373061e-38
-0.13794 0.078246668 0.84700006 1.3189385e-38
-0.13632667 0.078246668 0.84700006 1.3189385e-38
-0.13471334 0.078246668 0.84700006 1.3281225e-38
-0.1331 0.078246668 0.84700006 1.3281225e-38
-0.13148667 0.078246668 0.84700006 1.3189032e-38
-0.12987334 0.078246668 0.84700006 1.3189032e-38
-0.12856287 0.078431435 0.84900004 1.3189385e-38
-0.12694572 0.078431435 0.84900004 1.3004994e-38
-0.12562381 0.078616194 0.85100001 1.2912443e-38
-0.12400286 0.078616194 0.85100001 1.2728051e-38
-0.12281334 0.078893334 0.85400003 1.2728407e-38
-0.12118667 0.078893334 0.85400003 1.2912799e-38
-0.11956 0.078893334 0.85400003 1.2542947e-38
-0.11820953 0.079078101 0.85600007 1.0422447e-38
-0.11685143 0.07926286 0.85800004 1.0607176e-38
-0.11548571 0.07944762 0.86000001 1.0883763e-38
-0.11411238 0.079632387 0.86200005 1.0330955e-38
-0.11273143 0.079817139 0.86400002 1.0054368e-38
-0.11172857 0.080279045 0.86900002 1.0238034e-38
-0.11032668 0.080463812 0.87100005 1.0053642e-38
-0.10866762 0.080463812 0.87100005 9.5926741e-39
-0.10725429 0.080648571 0.87300003 9.3160872e-39
-0.10583334 0.080833338 0.87500006 1.0235147e-38
-0.10416667 0.080833338 0.87500006 1.1802473e-38
-0.10250001 0.080833338 0.87500006 1.1985782e-38
-0.18413429 0.081745721 0.86700004 1.1617706e-38
-0.18248287 0.081745721 0.86700004 1.1156728e-38
-0.17978859 0.081274293 0.86200005 9.4986806e-39
-0.17814668 0.081274293 0.86200005 8.5767243e-39
-0.17650478 0.081274293 0.86200005 7.7484112e-39
-0.17445715 0.081085712 0.86000001 7.5640199e-39
-0.17241715 0.080897145 0.85800004 9.7748695e-39
-0.17078286 0.080897145 0.85800004 9.9592608e-39
-0.16875429 0.080708571 0.85600007 1.0052545e-38
-0.16712382 0.080708571 0.85600007 1.0513523e-38
-0.16510667 0.080520004 0.85400003 1.0974855e-38
-0.16348 0.080520004 0.85400003 1.1343637e-38
-0.16128476 0.080237143 0.85100001 1.2449637e-38
-0.15966381 0.080237143 0.85100001 1.2634028e-38
-0.15767144 0.080048576 0.84900004 1.3095377e-38
-0.15605429 0.080048576 0.84900004 1.3095377e-38
-0.15407334 0.079860002 0.84700006 1.2727328e-38
-0.15246001 0.079860002 0.84700006 1.2727328e-38
-0.15084668 0.079860002 0.84700006 1.2543663e-38
-0.14923334 0.079860002 0.84700006 1.2912445e-38
-0.14762001 0.079860002 0.84700006 1.3096471e-38
-0.14600667 0.079860002 0.84700006 1.3096471e-38
-0.14439334 0.079860002 0.84700006 1.3188313e-38
-0.14278001 0.079860002 0.84700006 1.3372705e-38
-0.14116667 0.079860002 0.84700006 1.3372705e-38
-0.13955334 0.079860002 0.84700006 1.3280509e-38
-0.13794 0.079860002 0.84700006 1.3097543e-38
-0.13632667 0.079860002 0.84700006 1.3189739e-38
-0.13471334 0.079860002 0.84700006 1.318903e-38
-0.1331 0.079860002 0.84700006 1.318903e-38
-0.13148667 0.079860002 0.84700006 1.3281225e-38
-0.13018002 0.080048576 0.84900004 1.3096834e-38
-0.12856287 0.080048576 0.84900004 1.309719e-38
-0.12694572 0.080048576 0.84900004 1.2912799e-38
-0.12562381 0.080237143 0.85100001 1.2728054e-38
-0.12400286 0.080237143 0.85100001 1.2728054e-38
-0.12281334 0.080520004 0.85400003 1.2819884e-38
-0.12118667 0.080520004 0.85400003 1.3096471e-38
-0.11984 0.080708571 0.85600007 1.2634424e-38
-0.11820953 0.080708571 0.85600007 1.0421729e-38
-0.11685143 0.080897145 0.85800004 1.0330952e-38
-0.11575429 0.081274293 0.86200005 1.0515344e-38
-0.11437714 0.08146286 0.86400002 1.0330955e-38
-0.11312287 0.081745721 0.86700004 1.0146564e-38
-0.11198572 0.082122862 0.87100005 1.0330229e-38
-0.11058 0.082311429 0.87300003 1.0514621e-38
-0.10891715 0.082311429 0.87300003 1.0881252e-38
-0.10750001 0.082500003 0.87500006 1.0235883e-38
-0.10583334 0.082500003 0.87500006 1.0144393e-38
-0.10452381 0.082782857 0.87800002 1.1619523e-38
-0.18248287 0.083397143 0.86700004 1.1248573e-38
-0.18020572 0.083108574 0.86400002 9.8681722e-39
-0.17856 0.083108574 0.86400002 8.7618246e-39
-0.17650478 0.082916193 0.86200005 9.0376927e-39
-0.17445715 0.082723811 0.86000001 9.1298883e-39
-0.17241715 0.08253143 0.85800004 9.6823264e-39
-0.17078286 0.08253143 0.85800004 9.9589133e-39
-0.16914858 0.08253143 0.85800004 8.762175e-39
-0.16712382 0.082339056 0.85600007 9.1309575e-39
-0.16549335 0.082339056 0.85600007 8.947655e-39
-0.16348 0.082146674 0.85400003 9.4086332e-39
-0.16185333 0.082146674 0.85400003 1.1065273e-38
-0.15966381 0.081858099 0.85100001 1.1526252e-38
-0.15804286 0.081858099 0.85100001 1.1435858e-38
-0.15605429 0.081665717 0.84900004 1.1528054e-38
-0.15407334 0.081473336 0.84700006 1.2081227e-38
-0.15246001 0.081473336 0.84700006 1.2910988e-38
-0.15084668 0.081473336 0.84700006 1.254366e-38
-0.14958571 0.081665717 0.84900004 1.2912443e-38
-0.14796858 0.081665717 0.84900004 1.3188306e-38
-0.14635143 0.081665717 0.84900004 1.3188306e-38
-0.14473429 0.081665717 0.84900004 1.3188313e-38
-0.14278001 0.081473336 0.84700006 1.3372705e-38
-0.14116667 0.081473336 0.84700006 1.3372705e-38
