# .PCD v0.7 - Point Cloud Data file format
VERSION 0.7
FIELDS x y z rgba
SIZE 4 4 4 4
TYPE F F F U
COUNT 1 1 1 1
WIDTH 1076
HEIGHT 1
VIEWPOINT 0 0 0 1 0 0 0
POINTS 1076
DATA ascii
-0.013713335 0.00242 0.84700006 16055550
-0.012100001 0.00242 0.84700006 15989759
-0.010486667 0.00242 0.84700006 15989759
-0.0088733332 0.00242 0.84700006 16121086
-0.0072600003 0.00242 0.84700006 15594742
-0.0056600003 0.0024257144 0.84900004 15199487
-0.0040428573 0.0024257144 0.84900004 15396863
-0.0024257144 0.0024257144 0.84900004 15659263
-0.00080857147 0.0024257144 0.84900004 16119807
0.00080857147 0.0024257144 0.84900004 16251389
0.0024257144 0.0024257144 0.84900004 16185596
0.0040428573 0.0024257144 0.84900004 15857662
0.0056600003 0.0024257144 0.84900004 15923455
0.0072771432 0.0024257144 0.84900004 16514813
0.0088942861 0.0024257144 0.84900004 16514813
0.010511429 0.0024257144 0.84900004 15065845
0.012128572 0.0024257144 0.84900004 2433589
-0.088134289 0.0040428573 0.84900004 8220241
-0.086517148 0.0040428573 0.84900004 10464458
-0.084900007 0.0040428573 0.84900004 15727871
-0.083282866 0.0040428573 0.84900004 16187390
-0.081665717 0.0040428573 0.84900004 15595253
-0.080048576 0.0040428573 0.84900004 15398138
-0.078431435 0.0040428573 0.84900004 15398138
-0.076814294 0.0040428573 0.84900004 15332090
-0.075197145 0.0040428573 0.84900004 15332090
-0.073580004 0.0040428573 0.84900004 15134968
-0.071962863 0.0040428573 0.84900004 15134968
-0.070345722 0.0040428573 0.84900004 15266297
-0.068728574 0.0040428573 0.84900004 15332090
-0.067111433 0.0040428573 0.84900004 15463163
-0.065494291 0.0040428573 0.84900004 15397370
-0.063877143 0.0040428573 0.84900004 15332090
-0.062260002 0.0040428573 0.84900004 15266297
-0.060642861 0.0040428573 0.84900004 15200250
-0.059025716 0.0040428573 0.84900004 15266043
-0.057408575 0.0040428573 0.84900004 15397370
-0.05579143 0.0040428573 0.84900004 15397370
-0.054174289 0.0040428573 0.84900004 15463163
-0.052557144 0.0040428573 0.84900004 15265784
-0.050820004 0.0040333336 0.84700006 14871287
-0.04920667 0.0040333336 0.84700006 14739701
-0.047593337 0.0040333336 0.84700006 14805494
-0.045980003 0.0040333336 0.84700006 14739701
-0.044261906 0.0040238099 0.84500003 14607602
-0.04265238 0.0040238099 0.84500003 14804981
-0.041042857 0.0040238099 0.84500003 15330548
-0.039433334 0.0040238099 0.84500003 15198962
-0.037823807 0.0040238099 0.84500003 14673136
-0.036214288 0.0040238099 0.84500003 15067894
-0.034604765 0.0040238099 0.84500003 15264755
-0.032995239 0.0040238099 0.84500003 15264755
-0.031385716 0.0040238099 0.84500003 15264755
-0.029776191 0.0040238099 0.84500003 15396341
-0.028166667 0.0040238099 0.84500003 15002612
-0.026557142 0.0040238099 0.84500003 14542061
-0.025006669 0.0040333336 0.84700006 14673395
-0.023448572 0.0040428573 0.84900004 15068153
-0.021831429 0.0040428573 0.84900004 15331838
-0.020166667 0.0040333336 0.84700006 15331838
-0.018553333 0.0040333336 0.84700006 15199998
-0.01694 0.0040333336 0.84700006 15199998
-0.015326667 0.0040333336 0.84700006 15199998
-0.013713335 0.0040333336 0.84700006 15199998
-0.012100001 0.0040333336 0.84700006 15199741
-0.010486667 0.0040333336 0.84700006 15002362
-0.0088942861 0.0040428573 0.84900004 14738427
-0.0072771432 0.0040428573 0.84900004 14870013
-0.0056600003 0.0040428573 0.84900004 15133183
-0.004052381 0.004052381 0.85100001 14738427
-0.0024314285 0.004052381 0.85100001 14277887
-0.00081047619 0.004052381 0.85100001 14212095
0.00080857147 0.0040428573 0.84900004 14342399
0.0024257144 0.0040428573 0.84900004 14210815
0.0040428573 0.0040428573 0.84900004 14145023
0.0056600003 0.0040428573 0.84900004 14145023
0.0072771432 0.0040428573 0.84900004 14538747
0.0088942861 0.0040428573 0.84900004 14999295
0.01053619 0.004052381 0.85100001 12959725
0.012157143 0.004052381 0.85100001 2827603
0.013778095 0.004052381 0.85100001 3348992
-0.088134289 0.0056600003 0.84900004 8745304
-0.086517148 0.0056600003 0.84900004 11972048
-0.084900007 0.0056600003 0.84900004 16775167
-0.083282866 0.0056600003 0.84900004 16646142
-0.081665717 0.0056600003 0.84900004 16382970
-0.080048576 0.0056600003 0.84900004 16251902
-0.078431435 0.0056600003 0.84900004 16317695
-0.076814294 0.0056600003 0.84900004 16185598
-0.075197145 0.0056600003 0.84900004 16054012
-0.073580004 0.0056600003 0.84900004 15922175
-0.071962863 0.0056600003 0.84900004 15724797
-0.070345722 0.0056600003 0.84900004 15461886
-0.068728574 0.0056600003 0.84900004 15396093
-0.067111433 0.0056600003 0.84900004 15395839
-0.065494291 0.0056600003 0.84900004 14869495
-0.063726671 0.005646667 0.84700006 14869245
-0.062113333 0.005646667 0.84700006 14737659
-0.060500003 0.005646667 0.84700006 14671868
-0.059025716 0.0056600003 0.84900004 14342903
-0.057408575 0.0056600003 0.84900004 14145023
-0.05579143 0.0056600003 0.84900004 14013437
-0.054174289 0.0056600003 0.84900004 14013435
-0.052557144 0.0056600003 0.84900004 13684470
-0.050820004 0.005646667 0.84700006 12895973
-0.04920667 0.005646667 0.84700006 13159145
-0.047480956 0.0056333332 0.84500003 13817584
-0.045871429 0.0056333332 0.84500003 15199231
-0.044261906 0.0056333332 0.84500003 15462388
-0.042551432 0.0056200004 0.84300005 15462388
-0.040945716 0.0056200004 0.84300005 15330548
-0.039340001 0.0056200004 0.84300005 15198962
-0.037734289 0.0056200004 0.84300005 14935538
-0.036128573 0.0056200004 0.84300005 15264503
-0.034522858 0.0056200004 0.84300005 15330802
-0.032917146 0.0056200004 0.84300005 15462388
-0.031385716 0.0056333332 0.84500003 15593461
-0.029776191 0.0056333332 0.84500003 16119805
-0.028166667 0.0056333332 0.84500003 15725047
-0.026557142 0.0056333332 0.84500003 13817050
-0.025006669 0.005646667 0.84700006 11711975
-0.023448572 0.0056600003 0.84900004 7369637
-0.021831429 0.0056600003 0.84900004 7826113
-0.020166667 0.005646667 0.84700006 8615629
-0.018553333 0.005646667 0.84700006 9137853
-0.01694 0.005646667 0.84700006 8743095
-0.015326667 0.005646667 0.84700006 8544178
-0.013713335 0.005646667 0.84700006 8215213
-0.012100001 0.005646667 0.84700006 7885237
-0.010486667 0.005646667 0.84700006 7161514
-0.0088733332 0.005646667 0.84700006 6895269
-0.0072771432 0.0056600003 0.84900004 6566304
-0.0056733335 0.0056733335 0.85100001 6826914
-0.004052381 0.0056733335 0.85100001 6497949
-0.0024314285 0.0056733335 0.85100001 6494111
-0.00081047619 0.0056733335 0.85100001 6099353
0.00080857147 0.0056600003 0.84900004 6624927
0.0024257144 0.0056600003 0.84900004 6953892
0.0040428573 0.0056600003 0.84900004 6427025
0.0056600003 0.0056600003 0.84900004 5834888
0.0072771432 0.0056600003 0.84900004 6293129
0.0088942861 0.0056600003 0.84900004 7280024
0.01053619 0.0056733335 0.85100001 6301826
0.012157143 0.0056733335 0.85100001 4328036
0.013778095 0.0056733335 0.85100001 4665382
-0.088134289 0.0072771432 0.84900004 9467477
-0.086517148 0.0072771432 0.84900004 12033975
-0.084900007 0.0072771432 0.84900004 15784176
-0.083282866 0.0072771432 0.84900004 14671353
-0.081665717 0.0072771432 0.84900004 14013423
-0.080048576 0.0072771432 0.84900004 14012912
-0.078431435 0.0072771432 0.84900004 13947119
-0.076814294 0.0072771432 0.84900004 13946608
-0.075197145 0.0072771432 0.84900004 13815022
-0.073580004 0.0072771432 0.84900004 13617394
-0.071962863 0.0072771432 0.84900004 13288429
-0.070345722 0.0072771432 0.84900004 13156075
-0.068728574 0.0072771432 0.84900004 13353454
-0.067111433 0.0072771432 0.84900004 13419247
-0.065494291 0.0072771432 0.84900004 13156075
-0.063726671 0.0072600003 0.84700006 13088749
-0.062113333 0.0072600003 0.84700006 12891370
-0.060500003 0.0072600003 0.84700006 12759527
-0.05888667 0.0072600003 0.84700006 12562148
-0.057273336 0.0072600003 0.84700006 12495842
-0.05579143 0.0072771432 0.84900004 12101084
-0.054174289 0.0072771432 0.84900004 12099779
-0.052557144 0.0072771432 0.84900004 11573435
-0.050820004 0.0072600003 0.84700006 10721208
-0.049090479 0.0072428575 0.84500003 14405616
-0.047480956 0.0072428575 0.84500003 14540021
-0.045871429 0.0072428575 0.84500003 15526911
-0.044157144 0.0072257146 0.84300005 15527157
-0.042349525 0.0071914289 0.83900005 15198192
-0.040168572 0.0070885718 0.82700002 15067378
-0.038593337 0.0070885718 0.82700002 15067378
-0.037018094 0.0070885718 0.82700002 14935538
-0.035442855 0.0070885718 0.82700002 15132917
-0.03386762 0.0070885718 0.82700002 15198705
-0.032292381 0.0070885718 0.82700002 15396084
-0.03079143 0.0071057146 0.82900006 15396595
-0.029212384 0.0071057146 0.82900006 15857146
-0.028166667 0.0072428575 0.84500003 16316923
-0.026557142 0.0072428575 0.84500003 15461614
-0.025006669 0.0072600003 0.84700006 12959734
-0.023448572 0.0072771432 0.84900004 8156845
-0.021831429 0.0072771432 0.84900004 7210391
-0.020214286 0.0072771432 0.84900004 8197286
-0.018553333 0.0072600003 0.84700006 9441431
-0.01694 0.0072600003 0.84700006 9573017
-0.015326667 0.0072600003 0.84700006 9309840
-0.013713335 0.0072600003 0.84700006 9244047
-0.012100001 0.0072600003 0.84700006 9244056
-0.010486667 0.0072600003 0.84700006 9112470
-0.0088733332 0.0072600003 0.84700006 9045651
-0.0072771432 0.0072771432 0.84900004 9111444
-0.0056600003 0.0072771432 0.84900004 8849289
-0.004052381 0.0072942856 0.85100001 8980875
-0.0024314285 0.0072942856 0.85100001 8980362
-0.00080857147 0.0072771432 0.84900004 9046155
0.00080857147 0.0072771432 0.84900004 8980373
0.0024257144 0.0072771432 0.84900004 9111959
0.0040333336 0.0072600003 0.84700006 9111446
0.005646667 0.0072600003 0.84700006 9111446
0.0072600003 0.0072600003 0.84700006 8652437
0.0088733332 0.0072600003 0.84700006 8915609
0.010511429 0.0072771432 0.84900004 6950287
0.012128572 0.0072771432 0.84900004 6226564
0.013745715 0.0072771432 0.84900004 4797981
-0.088341907 0.0089152381 0.85100001 6114596
-0.086517148 0.0088942861 0.84900004 7155774
-0.084900007 0.0088942861 0.84900004 6629430
-0.083282866 0.0088942861 0.84900004 7147659
-0.081665717 0.0088942861 0.84900004 6752901
-0.079860002 0.0088733332 0.84700006 5900672
-0.078246668 0.0088733332 0.84700006 5769086
-0.076633334 0.0088733332 0.84700006 6096504
-0.075197145 0.0088942861 0.84900004 6162297
-0.073580004 0.0088942861 0.84900004 5899134
-0.071962863 0.0088942861 0.84900004 5767548
-0.070345722 0.0088942861 0.84900004 5833845
-0.068728574 0.0088942861 0.84900004 5899638
-0.067111433 0.0088942861 0.84900004 5833836
-0.065340005 0.0088733332 0.84700006 6031215
-0.063726671 0.0088733332 0.84700006 6227068
-0.062113333 0.0088733332 0.84700006 6161275
-0.060500003 0.0088733332 0.84700006 6489456
-0.05888667 0.0088733332 0.84700006 6555249
-0.057273336 0.0088733332 0.84700006 6620531
-0.055660002 0.0088733332 0.84700006 5963881
-0.054046672 0.0088733332 0.84700006 4982079
-0.052433338 0.0088733332 0.84700006 7548006
-0.050820004 0.0088733332 0.84700006 10523326
-0.049090479 0.0088523813 0.84500003 16115711
-0.047368575 0.0088314293 0.84300005 15987708
-0.045762859 0.0088314293 0.84300005 15395571
-0.044157144 0.0088314293 0.84300005 15066865
-0.041743811 0.0086638099 0.82700002 14935279
-0.040071428 0.0086428579 0.82500005 15001074
-0.038500004 0.0086428579 0.82500005 15264246
-0.036928572 0.0086428579 0.82500005 15264496
-0.035357147 0.0086428579 0.82500005 15198703
-0.03386762 0.0086638099 0.82700002 15132912
-0.032292381 0.0086638099 0.82700002 15396084
-0.030717144 0.0086638099 0.82700002 15265009
-0.029141905 0.0086638099 0.82700002 15593974
-0.027566668 0.0086638099 0.82700002 15922167
-0.026054287 0.0086847618 0.82900006 16645887
-0.024534287 0.0087057147 0.83100003 15855871
-0.023338096 0.0088523813 0.84500003 12566222
-0.021728572 0.0088523813 0.84500003 9071056
-0.020166667 0.0088733332 0.84700006 6439336
-0.018553333 0.0088733332 0.84700006 8928413
-0.01694 0.0088733332 0.84700006 9849515
-0.015290476 0.0088523813 0.84500003 9521831
-0.013680953 0.0088523813 0.84500003 10311347
-0.012100001 0.0088733332 0.84700006 9525417
-0.010486667 0.0088733332 0.84700006 9591210
-0.0088733332 0.0088733332 0.84700006 9591215
-0.0072600003 0.0088733332 0.84700006 10051766
-0.005646667 0.0088733332 0.84700006 9525165
-0.0040428573 0.0088942861 0.84900004 9525165
-0.0024257144 0.0088942861 0.84900004 9525163
-0.00080857147 0.0088942861 0.84900004 9590956
0.00080666674 0.0088733332 0.84700006 9459633
0.00242 0.0088733332 0.84700006 9525426
0.0040333336 0.0088733332 0.84700006 9328831
0.005646667 0.0088733332 0.84700006 9328831
0.0072600003 0.0088733332 0.84700006 9725124
0.0088733332 0.0088733332 0.84700006 10251468
0.010511429 0.0088942861 0.84900004 9203875
0.012128572 0.0088942861 0.84900004 4664158
0.013745715 0.0088942861 0.84900004 4534570
-0.088341907 0.01053619 0.85100001 5522987
-0.086517148 0.010511429 0.84900004 6559044
-0.084700003 0.010486667 0.84700006 8664420
-0.083086669 0.010486667 0.84700006 9311915
-0.081473336 0.010486667 0.84700006 9443501
-0.079671435 0.010461905 0.84500003 9112986
-0.078061908 0.010461905 0.84500003 9639330
-0.076452382 0.010461905 0.84500003 9310108
-0.07502 0.010486667 0.84700006 9704866
-0.073406667 0.010486667 0.84700006 9308837
-0.071793333 0.010486667 0.84700006 9374630
-0.070179999 0.010486667 0.84700006 9505964
-0.068566665 0.010486667 0.84700006 9571757
-0.066953339 0.010486667 0.84700006 9308837
-0.065340005 0.010486667 0.84700006 9440423
-0.063576192 0.010461905 0.84500003 9570476
-0.061966669 0.010461905 0.84500003 9702062
-0.060357146 0.010461905 0.84500003 9834929
-0.058747619 0.010461905 0.84500003 9900722
-0.057138097 0.010461905 0.84500003 9703863
-0.05552857 0.010461905 0.84500003 9045933
-0.053919047 0.010461905 0.84500003 7669383
-0.052309528 0.010461905 0.84500003 13261788
-0.050700001 0.010461905 0.84500003 13023462
-0.04897429 0.010437143 0.84300005 16313087
-0.046581909 0.01026381 0.82900006 15922428
-0.044894286 0.010239048 0.82700002 15198705
-0.043319046 0.010239048 0.82700002 14738159
-0.041743811 0.010239048 0.82700002 14803952
-0.040071428 0.010214286 0.82500005 14869745
-0.038500004 0.010214286 0.82500005 15264503
-0.036928572 0.010214286 0.82500005 15592948
-0.035357147 0.010214286 0.82500005 15395569
-0.033785716 0.010214286 0.82500005 15132401
-0.032214288 0.010214286 0.82500005 15395573
-0.03064286 0.010214286 0.82500005 15133169
-0.029000953 0.010189524 0.82300001 15264755
-0.027433334 0.010189524 0.82300001 15396082
-0.025928574 0.010214286 0.82500005 16448767
-0.024357144 0.010214286 0.82500005 16646142
-0.023227619 0.010412381 0.84100002 15790833
-0.021677144 0.010437143 0.84300005 11055103
-0.020119047 0.010461905 0.84500003 5725879
-0.018509526 0.010461905 0.84500003 8211148
-0.016900001 0.010461905 0.84500003 9395422
-0.015290476 0.010461905 0.84500003 8871380
-0.013680953 0.010461905 0.84500003 9200345
-0.012071429 0.010461905 0.84500003 8610518
-0.010486667 0.010486667 0.84700006 8610518
-0.0088733332 0.010486667 0.84700006 8152018
-0.0072600003 0.010486667 0.84700006 8415190
-0.005646667 0.010486667 0.84700006 8282834
-0.0040428573 0.010511429 0.84900004 8414420
-0.00242 0.010486667 0.84700006 8349138
-0.00080666674 0.010486667 0.84700006 8546517
0.00080666674 0.010486667 0.84700006 8482010
0.00242 0.010486667 0.84700006 8876768
0.0040333336 0.010486667 0.84700006 8550883
0.005646667 0.010486667 0.84700006 8945641
0.0072428575 0.010461905 0.84500003 9210605
0.0088523813 0.010461905 0.84500003 9473777
0.010486667 0.010486667 0.84700006 9602787
0.012100001 0.010486667 0.84700006 3944589
0.013713335 0.010486667 0.84700006 3876888
-0.090280004 0.012200001 0.85400003 6444616
-0.088341907 0.012157143 0.85100001 6444616
-0.086517148 0.012128572 0.84900004 6639737
-0.084700003 0.012100001 0.84700006 9995180
-0.083086669 0.012100001 0.84700006 10060517
-0.081473336 0.012100001 0.84700006 10389482
-0.079671435 0.012071429 0.84500003 10324191
-0.078061908 0.012071429 0.84500003 10389984
-0.076452382 0.012071429 0.84500003 10323167
-0.074842855 0.012071429 0.84500003 10388960
-0.073233336 0.012071429 0.84500003 10388199
-0.07162381 0.012071429 0.84500003 10848750
-0.070014283 0.012071429 0.84500003 10717938
-0.068404764 0.012071429 0.84500003 11178489
-0.066795237 0.012071429 0.84500003 10784754
-0.065185711 0.012071429 0.84500003 11047926
-0.06342572 0.012042858 0.84300005 10718197
-0.061820004 0.012042858 0.84300005 10849783
-0.060214289 0.012042858 0.84300005 10783736
-0.058608577 0.012042858 0.84300005 11244287
-0.057138097 0.012071429 0.84500003 10389247
-0.05552857 0.012071429 0.84500003 9139180
-0.053919047 0.012071429 0.84500003 8482031
-0.052185714 0.012042858 0.84300005 14140159
-0.050580002 0.012042858 0.84300005 15658751
-0.048044764 0.011814286 0.82700002 15856127
-0.046469525 0.011814286 0.82700002 15396084
-0.044785716 0.011785715 0.82500005 15132912
-0.043214288 0.011785715 0.82500005 14869745
-0.04164286 0.011785715 0.82500005 15001331
-0.039974283 0.011757143 0.82300001 15067378
-0.038406666 0.011757143 0.82300001 15330550
-0.036839046 0.011757143 0.82300001 15396082
-0.035271429 0.011757143 0.82300001 15132910
-0.033703808 0.011757143 0.82300001 15132399
-0.032136191 0.011757143 0.82300001 15724536
-0.030568572 0.011757143 0.82300001 15396082
-0.029000953 0.011757143 0.82300001 15527668
-0.027433334 0.011757143 0.82300001 15396082
-0.025865715 0.011757143 0.82300001 15659254
-0.024357144 0.011785715 0.82500005 16514302
-0.022896193 0.011842857 0.82900006 16645887
-0.021625714 0.012014287 0.84100002 14409471
-0.020071428 0.012042858 0.84300005 8422311
-0.018465716 0.012042858 0.84300005 7961599
-0.016860001 0.012042858 0.84300005 8882687
-0.015290476 0.012071429 0.84500003 9079039
-0.013680953 0.012071429 0.84500003 9013247
-0.012071429 0.012071429 0.84500003 9014015
-0.010461905 0.012071429 0.84500003 9079807
-0.0088523813 0.012071429 0.84500003 9015039
-0.0072428575 0.012071429 0.84500003 9080831
-0.005646667 0.012100001 0.84700006 9081087
-0.0040333336 0.012100001 0.84700006 9015295
-0.00242 0.012100001 0.84700006 8751871
-0.00080476195 0.012071429 0.84500003 8488700
0.00080476195 0.012071429 0.84500003 8949503
0.0024142857 0.012071429 0.84500003 9344255
0.0040238099 0.012071429 0.84500003 9015807
0.0056333332 0.012071429 0.84500003 8752639
0.0072428575 0.012071429 0.84500003 10921725
0.0088523813 0.012071429 0.84500003 12171775
0.010461905 0.012071429 0.84500003 11708915
0.012071429 0.012071429 0.84500003 3353204
0.013713335 0.012100001 0.84700006 2497806
-0.090280004 0.013826667 0.85400003 6378573
-0.088653341 0.013826667 0.85400003 6575952
-0.086517148 0.013745715 0.84900004 4479628
-0.084700003 0.013713335 0.84700006 6913969
-0.082890481 0.013680953 0.84500003 6392307
-0.081280954 0.013680953 0.84500003 6655479
-0.079482861 0.013648572 0.84300005 6525426
-0.077877149 0.013648572 0.84300005 6591219
-0.076271437 0.013648572 0.84300005 6655477
-0.074665718 0.013648572 0.84300005 6655477
-0.073233336 0.013680953 0.84500003 6195189
-0.07162381 0.013680953 0.84500003 6655740
-0.069848575 0.013648572 0.84300005 5934332
-0.068242863 0.013648572 0.84300005 6592255
-0.066795237 0.013680953 0.84500003 6132735
-0.065031432 0.013648572 0.84300005 6395903
-0.06342572 0.013648572 0.84300005 5672447
-0.061820004 0.013648572 0.84300005 6001407
-0.060214289 0.013648572 0.84300005 5672191
-0.058608577 0.013648572 0.84300005 6330111
-0.057002861 0.013648572 0.84300005 5672447
-0.055397145 0.013648572 0.84300005 3501285
-0.05379143 0.013648572 0.84300005 2910441
-0.052185714 0.013648572 0.84300005 10147583
-0.049620003 0.013389524 0.82700002 15594239
-0.047928575 0.013357143 0.82500005 15594239
-0.046357144 0.013357143 0.82500005 15198451
-0.044677142 0.013324762 0.82300001 15132658
-0.043109521 0.013324762 0.82300001 15001331
-0.041541904 0.013324762 0.82300001 15001331
-0.039974283 0.013324762 0.82300001 15133171
-0.038406666 0.013324762 0.82300001 15330550
-0.036839046 0.013324762 0.82300001 15198962
-0.035271429 0.013324762 0.82300001 15001583
-0.033703808 0.013324762 0.82300001 15001072
-0.032136191 0.013324762 0.82300001 15264244
-0.030568572 0.013324762 0.82300001 15198705
-0.028930476 0.013292382 0.82100004 15396084
-0.027366666 0.013292382 0.82100004 15330289
-0.025865715 0.013324762 0.82300001 15593461
-0.024298096 0.013324762 0.82300001 15987960
-0.022785716 0.013357143 0.82500005 16645887
-0.021317143 0.013421906 0.82900006 14739967
-0.02002381 0.01361619 0.84100002 8094876
-0.018465716 0.013648572 0.84300005 5145599
-0.016860001 0.013648572 0.84300005 6395647
-0.015290476 0.013680953 0.84500003 6853119
-0.013680953 0.013680953 0.84500003 6721535
-0.012071429 0.013680953 0.84500003 6918655
-0.010461905 0.013680953 0.84500003 7247615
-0.0088523813 0.013680953 0.84500003 7444223
-0.0072428575 0.013680953 0.84500003 7838975
-0.0056333332 0.013680953 0.84500003 7970303
-0.0040238099 0.013680953 0.84500003 7838719
-0.0024142857 0.013680953 0.84500003 7576063
-0.00080285716 0.013648572 0.84300005 7444479
0.00080285716 0.013648572 0.84300005 7837183
0.0024085718 0.013648572 0.84300005 8166143
0.0040142857 0.013648572 0.84300005 8428543
0.0056200004 0.013648572 0.84300005 8099583
0.0072257146 0.013648572 0.84300005 10331135
0.0088314293 0.013648572 0.84300005 11712767
0.010412381 0.01361619 0.84100002 11577343
0.012014287 0.01361619 0.84100002 3419020
0.013713335 0.013713335 0.84700006 2038300
-0.088653341 0.015453333 0.85400003 6313550
-0.086313337 0.015326667 0.84700006 4414614
-0.084100001 0.015218095 0.84100002 6783162
-0.082498096 0.015218095 0.84100002 6589175
-0.080896191 0.015218095 0.84100002 6391796
-0.079294287 0.015218095 0.84100002 6655479
-0.077692382 0.015218095 0.84100002 6918651
-0.076090477 0.015218095 0.84100002 7114751
-0.074488573 0.015218095 0.84100002 7641087
-0.072886661 0.015218095 0.84100002 7378943
-0.071284764 0.015218095 0.84100002 7707903
-0.069682859 0.015218095 0.84100002 7444991
-0.068080954 0.015218095 0.84100002 7708159
-0.06647905 0.015218095 0.84100002 7642623
-0.064877145 0.015218095 0.84100002 7576831
-0.06327524 0.015218095 0.84100002 7838975
-0.061673336 0.015218095 0.84100002 7970559
-0.060071427 0.015218095 0.84100002 7708415
-0.058469526 0.015218095 0.84100002 7511039
-0.056867622 0.015218095 0.84100002 6788607
-0.055265717 0.015218095 0.84100002 5143794
-0.053536192 0.015181906 0.83900005 5667569
-0.051319048 0.015000953 0.82900006 11457279
-0.049500003 0.014928573 0.82500005 15462654
-0.04781238 0.014892381 0.82300001 15923199
-0.046244759 0.014892381 0.82300001 15725047
-0.044568572 0.014856191 0.82100004 15527668
-0.043004762 0.014856191 0.82100004 15264755
-0.041440953 0.014856191 0.82100004 15396341
-0.039780006 0.014820001 0.81900007 15330802
-0.038220003 0.014820001 0.81900007 15593974
-0.036660004 0.014820001 0.81900007 15461875
-0.035100002 0.014820001 0.81900007 15396082
-0.033540003 0.014820001 0.81900007 15330802
-0.03198 0.014820001 0.81900007 15265009
-0.030420002 0.014820001 0.81900007 15198962
-0.028860003 0.014820001 0.81900007 15462134
-0.027300002 0.014820001 0.81900007 15396595
-0.025802858 0.014856191 0.82100004 15791353
-0.02423905 0.014856191 0.82100004 16054010
-0.022730477 0.014892381 0.82300001 16317182
-0.021162858 0.014892381 0.82300001 14345211
-0.019738097 0.015000953 0.82900006 9213357
-0.018378096 0.015181906 0.83900005 7905023
-0.01682 0.015218095 0.84100002 8760319
-0.015254286 0.015254286 0.84300005 9284351
-0.013648572 0.015254286 0.84300005 8758015
-0.012042858 0.015254286 0.84300005 8494591
-0.010437143 0.015254286 0.84300005 8363007
-0.0088314293 0.015254286 0.84300005 8691967
-0.0072085718 0.015218095 0.84100002 8955135
-0.0056066667 0.015218095 0.84100002 9086207
-0.0040047616 0.015218095 0.84100002 9349375
-0.0024028572 0.015218095 0.84100002 9414911
-0.00080095237 0.015218095 0.84100002 9480703
0.00080095237 0.015218095 0.84100002 9677311
0.002397143 0.015181906 0.83900005 10006271
0.0039952383 0.015181906 0.83900005 11253759
0.0055933334 0.015181906 0.83900005 11253759
0.0071914289 0.015181906 0.83900005 12107005
0.0087685715 0.015145714 0.83700001 13686015
0.010362858 0.015145714 0.83700001 12829439
0.011957143 0.015145714 0.83700001 3684218
0.013551429 0.015145714 0.83700001 660769
-0.086313337 0.01694 0.84700006 4216731
-0.083899997 0.016780002 0.83900005 6519486
-0.082301915 0.016780002 0.83900005 5800440
-0.080703817 0.016780002 0.83900005 5866233
-0.07910572 0.016780002 0.83900005 5932796
-0.077507623 0.016780002 0.83900005 6195967
-0.075909525 0.016780002 0.83900005 6458367
-0.074311435 0.016780002 0.83900005 7050495
-0.072713338 0.016780002 0.83900005 7182335
-0.07111524 0.016780002 0.83900005 7313919
-0.069517143 0.016780002 0.83900005 7182591
-0.067919046 0.016780002 0.83900005 7445759
-0.066320956 0.016780002 0.83900005 7773439
-0.064722866 0.016780002 0.83900005 7970815
-0.06327524 0.01682 0.84100002 8232959
-0.061673336 0.01682 0.84100002 8298751
-0.060071427 0.01682 0.84100002 7905023
-0.058469526 0.01682 0.84100002 7707647
-0.056732383 0.016780002 0.83900005 6920191
-0.055134289 0.016780002 0.83900005 5472759
-0.053280953 0.0167 0.83500004 6192607
-0.051319048 0.016580001 0.82900006 11587583
-0.049500003 0.0165 0.82500005 14542590
-0.04781238 0.016460001 0.82300001 15726847
-0.046132382 0.016420001 0.82100004 15791353
-0.044568572 0.016420001 0.82100004 15462388
-0.0429 0.016380001 0.81900007 14936306
-0.041340005 0.016380001 0.81900007 15002099
-0.039780006 0.016380001 0.81900007 14936306
-0.038220003 0.016380001 0.81900007 15265271
-0.036570478 0.016340001 0.81700003 15199732
-0.035014287 0.016340001 0.81700003 15068146
-0.033540003 0.016380001 0.81900007 15330802
-0.03198 0.016380001 0.81900007 15265009
-0.030420002 0.016380001 0.81900007 15133169
-0.028860003 0.016380001 0.81900007 15396341
-0.027300002 0.016380001 0.81900007 15199730
-0.025802858 0.016420001 0.82100004 16252415
-0.02423905 0.016420001 0.82100004 16580606
-0.02267524 0.016420001 0.82100004 15659504
-0.021111431 0.016420001 0.82100004 12833788
-0.019595239 0.016460001 0.82300001 9412552
-0.018334284 0.01674 0.83700001 8888319
-0.016780002 0.016780002 0.83900005 9217279
-0.015181906 0.016780002 0.83900005 9283839
-0.01358381 0.016780002 0.83900005 8889087
-0.011985715 0.016780002 0.83900005 8559871
-0.010387619 0.016780002 0.83900005 8559871
-0.0088104764 0.01682 0.84100002 8757503
-0.0072085718 0.01682 0.84100002 8823295
-0.0056066667 0.01682 0.84100002 8822783
-0.0039952383 0.016780002 0.83900005 9217535
-0.002397143 0.016780002 0.83900005 9414143
-0.00079904764 0.016780002 0.83900005 9414143
0.00079904764 0.016780002 0.83900005 9479167
0.002397143 0.016780002 0.83900005 9939711
0.0039857142 0.01674 0.83700001 11842815
0.0055800001 0.01674 0.83700001 12040191
0.0071742856 0.01674 0.83700001 12171774
0.0087685715 0.01674 0.83700001 13356031
0.010362858 0.01674 0.83700001 11911167
0.011957143 0.01674 0.83700001 3489669
0.013551429 0.01674 0.83700001 202302
0.015145714 0.01674 0.83700001 3162987
-0.085294284 0.018334284 0.83700001 3693215
-0.083700001 0.018334284 0.83700001 5732798
-0.082105711 0.018334284 0.83700001 5079032
-0.080511428 0.018334284 0.83700001 5342204
-0.078917138 0.018334284 0.83700001 5735679
-0.077322856 0.018334284 0.83700001 6130431
-0.075728573 0.018334284 0.83700001 6458367
-0.07413429 0.018334284 0.83700001 6918911
-0.07254 0.018334284 0.83700001 6919167
-0.070945717 0.018334284 0.83700001 7050751
-0.069351427 0.018334284 0.83700001 7182079
-0.067757145 0.018334284 0.83700001 7511039
-0.066162854 0.018334284 0.83700001 7839487
-0.064568572 0.018334284 0.83700001 7971071
-0.063124768 0.018378096 0.83900005 8561919
-0.061526671 0.018378096 0.83900005 8693503
-0.059928574 0.018378096 0.83900005 8298751
-0.058330476 0.018378096 0.83900005 7903999
-0.056732383 0.018378096 0.83900005 8167167
-0.055134289 0.018378096 0.83900005 7377663
-0.053280953 0.018290477 0.83500004 6391000
-0.051319048 0.018159049 0.82900006 9417471
-0.049379997 0.01802762 0.82300001 13358064
-0.047696192 0.017983811 0.82100004 15792383
-0.046020001 0.017940002 0.81900007 16054525
-0.044460002 0.017940002 0.81900007 15857146
-0.042795237 0.01789619 0.81700003 15528181
-0.041239049 0.01789619 0.81700003 15462388
-0.039682858 0.01789619 0.81700003 15528181
-0.038126666 0.01789619 0.81700003 15593974
-0.036570478 0.01789619 0.81700003 15199732
-0.035014287 0.01789619 0.81700003 15133939
-0.033458095 0.01789619 0.81700003 15461875
-0.031901907 0.01789619 0.81700003 15856633
-0.030345716 0.01789619 0.81700003 16120055
-0.028860003 0.017940002 0.81900007 16185848
-0.027300002 0.017940002 0.81900007 16317434
-0.025740001 0.017940002 0.81900007 16580606
-0.024180001 0.017940002 0.81900007 16252670
-0.02267524 0.017983811 0.82100004 13686743
-0.021111431 0.017983811 0.82100004 11322359
-0.019595239 0.01802762 0.82300001 10401257
-0.018246669 0.018246669 0.83300006 8627711
-0.01674 0.018334284 0.83700001 7509241
-0.015145714 0.018334284 0.83700001 7444991
-0.013551429 0.018334284 0.83700001 8892415
-0.011957143 0.018334284 0.83700001 10203135
-0.010362858 0.018334284 0.83700001 10203135
-0.0087685715 0.018334284 0.83700001 10597119
-0.0071914289 0.018378096 0.83900005 10728703
-0.0055800001 0.018334284 0.83700001 10399487
-0.0039857142 0.018334284 0.83700001 9938941
-0.0023914287 0.018334284 0.83700001 10135039
-0.00079714286 0.018334284 0.83700001 11121919
0.00079714286 0.018334284 0.83700001 11712504
0.0023857143 0.018290477 0.83500004 11844090
0.0039761905 0.018290477 0.83500004 12434426
0.0055666668 0.018290477 0.83500004 13092351
0.0071571432 0.018290477 0.83500004 13025529
0.0087476196 0.018290477 0.83500004 13617663
0.010338096 0.018290477 0.83500004 12633087
0.011928571 0.018290477 0.83500004 4145791
0.013519048 0.018290477 0.83500004 203090
0.015109524 0.018290477 0.83500004 2242673
-0.086680956 0.019880952 0.83500004 6052679
-0.085090473 0.019880952 0.83500004 3169183
-0.083500005 0.019880952 0.83500004 5208766
-0.08190953 0.019880952 0.83500004 4948220
-0.080319054 0.019880952 0.83500004 5277183
-0.078728572 0.019880952 0.83500004 5473279
-0.077138096 0.019880952 0.83500004 5933823
-0.075547621 0.019880952 0.83500004 6327551
-0.073957145 0.019880952 0.83500004 6459135
-0.07236667 0.019880952 0.83500004 6656255
-0.070776194 0.019880952 0.83500004 6985215
-0.069185719 0.019880952 0.83500004 7116543
-0.067595243 0.019880952 0.83500004 7511295
-0.066004761 0.019880952 0.83500004 7773695
-0.064414285 0.019880952 0.83500004 8168447
-0.06282381 0.019880952 0.83500004 8365311
-0.061233338 0.019880952 0.83500004 8496895
-0.059785716 0.019928573 0.83700001 8561663
-0.05819143 0.019928573 0.83700001 8232703
-0.056461908 0.019880952 0.83500004 8625663
-0.054871429 0.019880952 0.83500004 8230911
-0.053153336 0.019833334 0.83300006 6588631
-0.051319048 0.019738097 0.82900006 8759800
-0.049379997 0.019595239 0.82300001 11648755
-0.047696192 0.019547621 0.82100004 15201535
-0.04590762 0.019452382 0.81700003 15990270
-0.044351429 0.019452382 0.81700003 15924477
-0.042795237 0.019452382 0.81700003 15792119
-0.041138098 0.019404763 0.81500006 15726326
-0.039585717 0.019404763 0.81500006 15791349
-0.038033333 0.019404763 0.81500006 15659763
-0.036480956 0.019404763 0.81500006 15593972
-0.034928575 0.019404763 0.81500006 15593972
-0.033376191 0.019404763 0.81500006 15791092
-0.03182381 0.019404763 0.81500006 15988471
-0.03027143 0.019404763 0.81500006 16251641
-0.028789526 0.019452382 0.81700003 16514813
-0.027233334 0.019452382 0.81700003 16580606
-0.025740001 0.019500002 0.81900007 16514813
-0.024180001 0.019500002 0.81900007 15924477
-0.022620002 0.019500002 0.81900007 12569034
-0.021111431 0.019547621 0.82100004 10336245
-0.019690476 0.019690476 0.82700002 11717887
-0.018246669 0.019833334 0.83300006 11652095
-0.0167 0.019880952 0.83500004 8230865
-0.015109524 0.019880952 0.83500004 6720255
-0.013519048 0.019880952 0.83500004 8957183
-0.011928571 0.019880952 0.83500004 11318527
-0.010338096 0.019880952 0.83500004 11318527
-0.0087476196 0.019880952 0.83500004 11515903
-0.0071571432 0.019880952 0.83500004 11515903
-0.0055666668 0.019880952 0.83500004 11252991
-0.0039761905 0.019880952 0.83500004 10858239
-0.0023857143 0.019880952 0.83500004 11251444
-0.00079523813 0.019880952 0.83500004 12238335
0.00079523813 0.019880952 0.83500004 12894956
0.0023857143 0.019880952 0.83500004 12894956
0.0039666672 0.019833334 0.83300006 13288940
0.0055533336 0.019833334 0.83300006 13749491
0.0071571432 0.019880952 0.83500004 14143980
0.0087266676 0.019833334 0.83300006 14670324
0.010313334 0.019833334 0.83300006 13816831
0.011814286 0.019690476 0.82700002 4408436
0.013389524 0.019690476 0.82700002 396905
0.014856191 0.019547621 0.82100004 2436488
0.016420001 0.019547621 0.82100004 4273715
-0.086680956 0.02147143 0.83500004 6118472
-0.08488667 0.02142 0.83300006 3694498
-0.083300002 0.02142 0.83300006 5734081
-0.08190953 0.02147143 0.83500004 5802495
-0.080126666 0.02142 0.83300006 5605119
-0.078540005 0.02142 0.83300006 5473535
-0.076953337 0.02142 0.83300006 5868287
-0.075366676 0.02142 0.83300006 6130687
-0.073780008 0.02142 0.83300006 6262271
-0.072193339 0.02142 0.83300006 6656511
-0.070606671 0.02142 0.83300006 7051263
-0.069020011 0.02142 0.83300006 7248127
-0.067433342 0.02142 0.83300006 7313919
-0.065846674 0.02142 0.83300006 7379455
-0.064260006 0.02142 0.83300006 7971583
-0.062673338 0.02142 0.83300006 8496383
-0.061086673 0.02142 0.83300006 9088511
-0.059642859 0.02147143 0.83500004 8759295
-0.058052383 0.02147143 0.83500004 8364543
-0.056191429 0.021368571 0.83100003 8561663
-0.054608572 0.021368571 0.83100003 8035327
-0.052770477 0.021265715 0.82700002 7179494
-0.051071431 0.021214288 0.82500005 8626940
-0.049379997 0.021162858 0.82300001 10399742
-0.047580004 0.021060001 0.81900007 13097215
-0.04590762 0.021008572 0.81700003 15134716
-0.044351429 0.021008572 0.81700003 15858431
-0.042690478 0.020957144 0.81500006 15923705
-0.041037142 0.020905714 0.81300002 16252670
-0.039488573 0.020905714 0.81300002 16449020
-0.037940003 0.020905714 0.81300002 16383227
-0.03639143 0.020905714 0.81300002 16448763
-0.03484286 0.020905714 0.81300002 16514556
-0.033376191 0.020957144 0.81500006 16448763
-0.031745713 0.020905714 0.81300002 16514556
-0.030197144 0.020905714 0.81300002 16383227
-0.028719049 0.020957144 0.81500006 16383227
-0.027166668 0.020957144 0.81500006 16186875
-0.025740001 0.021060001 0.81900007 16121082
-0.024180001 0.021060001 0.81900007 15793148
-0.022620002 0.021060001 0.81900007 12108740
-0.021111431 0.021111431 0.82100004 11122936
-0.019642858 0.021214288 0.82500005 14215167
-0.018159049 0.021317143 0.82900006 15265023
-0.016580001 0.021317143 0.82900006 14343921
-0.015109524 0.02147143 0.83500004 13949944
-0.013519048 0.02147143 0.83500004 12831463
-0.0119 0.02142 0.83300006 12896255
-0.010313334 0.02142 0.83300006 12764671
-0.0087476196 0.02147143 0.83500004 12567807
-0.0071571432 0.02147143 0.83500004 12502015
-0.0055666668 0.02147143 0.83500004 12698111
-0.0039761905 0.02147143 0.83500004 14277119
-0.0023857143 0.02147143 0.83500004 15920380
-0.00079523813 0.02147143 0.83500004 16644095
0.0007933334 0.02142 0.83300006 16578814
0.00238 0.02142 0.83300006 16513021
0.0039666672 0.02142 0.83300006 16579325
0.0055533336 0.02142 0.83300006 16710911
0.0071400008 0.02142 0.83300006 16711422
0.0087266676 0.02142 0.83300006 16711422
0.010313334 0.02142 0.83300006 16711422
0.011814286 0.021265715 0.82700002 7895160
0.013324762 0.021162858 0.82300001 198552
0.014856191 0.021111431 0.82100004 2698686
0.016380001 0.021060001 0.81900007 4405301
0.017940002 0.021060001 0.81900007 4997438
-0.087848574 0.02295143 0.83100003 5658187
-0.086265713 0.02295143 0.83100003 5921359
-0.084682859 0.02295143 0.83100003 4089510
-0.083100006 0.02295143 0.83100003 6063300
-0.081517145 0.02295143 0.83100003 5736703
-0.079934284 0.02295143 0.83100003 5605119
-0.078540005 0.023006668 0.83300006 5605631
-0.076953337 0.023006668 0.83300006 5868799
-0.075366676 0.023006668 0.83300006 6131199
-0.073780008 0.023006668 0.83300006 6262783
-0.072193339 0.023006668 0.83300006 6525439
-0.070606671 0.023006668 0.83300006 6920191
-0.069020011 0.023006668 0.83300006 7248895
-0.067433342 0.023006668 0.83300006 7248895
-0.065846674 0.023006668 0.83300006 7379455
-0.063951433 0.022896193 0.82900006 7839999
-0.062372386 0.022896193 0.82900006 8496383
-0.060793336 0.022896193 0.82900006 9154303
-0.059214287 0.022896193 0.82900006 8694015
-0.057635244 0.022896193 0.82900006 8299263
-0.056056194 0.022896193 0.82900006 8495871
-0.054477148 0.022896193 0.82900006 8166911
-0.052770477 0.022840953 0.82700002 7770607
-0.051071431 0.022785716 0.82500005 8165365
-0.049260002 0.02267524 0.82100004 10463986
-0.047580004 0.022620002 0.81900007 13161471
-0.04579524 0.022509526 0.81500006 13098493
-0.044242859 0.022509526 0.81500006 14611711
-0.042585716 0.022454288 0.81300002 15793148
-0.040936191 0.022399049 0.81100005 16056319
-0.039391432 0.022399049 0.81100005 16514813
-0.03784667 0.022399049 0.81100005 16580606
-0.03639143 0.022454288 0.81300002 16646142
-0.03484286 0.022454288 0.81300002 16646142
-0.033294287 0.022454288 0.81300002 16646142
-0.031745713 0.022454288 0.81300002 16580349
-0.030197144 0.022454288 0.81300002 16449020
-0.028648572 0.022454288 0.81300002 16449020
-0.027100001 0.022454288 0.81300002 16121597
-0.025677143 0.022564763 0.81700003 15529460
-0.024180001 0.022620002 0.81900007 14412792
-0.022620002 0.022620002 0.81900007 11452107
-0.021214288 0.022785716 0.82500005 11974645
-0.019642858 0.022785716 0.82500005 15132671
-0.018115237 0.022840953 0.82700002 16117247
-0.016580001 0.022896193 0.82900006 16117247
-0.015000953 0.022896193 0.82900006 15789567
-0.013421906 0.022896193 0.82900006 14473708
-0.011842857 0.022896193 0.82900006 14146302
-0.01026381 0.022896193 0.82900006 13027821
-0.0086847618 0.022896193 0.82900006 12435711
-0.0071057146 0.022896193 0.82900006 12238335
-0.005526667 0.022896193 0.82900006 13025023
-0.0039476193 0.022896193 0.82900006 14340863
-0.0023685717 0.022896193 0.82900006 16642558
-0.00078952388 0.022896193 0.82900006 16774911
0.00078952388 0.022896193 0.82900006 16645629
0.0023685717 0.022896193 0.82900006 16711422
0.0039476193 0.022896193 0.82900006 16711422
0.005526667 0.022896193 0.82900006 16711422
0.0071057146 0.022896193 0.82900006 16711422
0.0086847618 0.022896193 0.82900006 16711422
0.01026381 0.022896193 0.82900006 16711422
0.011814286 0.022840953 0.82700002 9671571
0.013324762 0.022730477 0.82300001 2960020
0.014856191 0.02267524 0.82100004 2367883
0.016380001 0.022620002 0.81900007 4797999
0.017940002 0.022620002 0.81900007 5653308
-0.087848574 0.024534287 0.83100003 5461062
-0.086265713 0.024534287 0.83100003 5724234
-0.084682859 0.024534287 0.83100003 3630247
-0.082900003 0.024475239 0.82900006 5998795
-0.081320956 0.024475239 0.82900006 6000639
-0.07974191 0.024475239 0.82900006 5737471
-0.078162864 0.024475239 0.82900006 5802751
-0.076399051 0.024416192 0.82700002 5934335
-0.074823812 0.024416192 0.82700002 5999615
-0.073425718 0.024475239 0.82900006 6131199
-0.071846671 0.024475239 0.82900006 6197247
-0.070437141 0.024534287 0.83100003 6460415
-0.068854287 0.024534287 0.83100003 7117311
-0.067271426 0.024534287 0.83100003 7248895
-0.065530479 0.024475239 0.82900006 7248383
-0.063797139 0.024416192 0.82700002 7643135
-0.062221903 0.024416192 0.82700002 8233727
-0.060793336 0.024475239 0.82900006 9154815
-0.059214287 0.024475239 0.82900006 8891391
-0.057635244 0.024475239 0.82900006 8101887
-0.056056194 0.024475239 0.82900006 8102655
-0.054345712 0.024416192 0.82700002 8102655
-0.052770477 0.024416192 0.82700002 7837183
-0.051071431 0.024357144 0.82500005 7442431
-0.049260002 0.02423905 0.82100004 8362236
-0.047463812 0.024120953 0.81700003 11586047
-0.045682859 0.024002858 0.81300002 12899839
-0.044134285 0.024002858 0.81300002 14149887
-0.042585716 0.024002858 0.81300002 15398138
-0.040936191 0.02394381 0.81100005 15858687
-0.039391432 0.02394381 0.81100005 16121084
-0.03784667 0.02394381 0.81100005 16186877
-0.03639143 0.024002858 0.81300002 16252154
-0.03484286 0.024002858 0.81300002 16317947
-0.033294287 0.024002858 0.81300002 16121082
-0.031745713 0.024002858 0.81300002 16121082
-0.030197144 0.024002858 0.81300002 15990011
-0.028648572 0.024002858 0.81300002 16055804
-0.027100001 0.024002858 0.81300002 15859195
-0.025677143 0.024120953 0.81700003 14938093
-0.024120953 0.024120953 0.81700003 14084860
-0.022620002 0.024180001 0.81900007 11058382
-0.021214288 0.024357144 0.82500005 11778551
-0.019642858 0.024357144 0.82500005 14739199
-0.018115237 0.024416192 0.82700002 15526396
-0.01654 0.024416192 0.82700002 15460603
-0.014964762 0.024416192 0.82700002 15132921
-0.013389524 0.024416192 0.82700002 13553889
-0.011814286 0.024416192 0.82700002 12568831
-0.010239048 0.024416192 0.82700002 10858215
-0.0086638099 0.024416192 0.82700002 9347327
-0.0070885718 0.024416192 0.82700002 9084159
-0.0055133332 0.024416192 0.82700002 10527999
-0.0039380956 0.024416192 0.82700002 11843839
-0.0023628571 0.024416192 0.82700002 15130355
-0.00078952388 0.024475239 0.82900006 16709375
0.00078761904 0.024416192 0.82700002 16644094
0.0023628571 0.024416192 0.82700002 16446715
0.0039380956 0.024416192 0.82700002 16513019
0.0055133332 0.024416192 0.82700002 16578812
0.0070885718 0.024416192 0.82700002 16711422
0.0086638099 0.024416192 0.82700002 16711422
0.010239048 0.024416192 0.82700002 16711422
0.011785715 0.024357144 0.82500005 12632256
0.013324762 0.024298096 0.82300001 4603333
0.014856191 0.02423905 0.82100004 1576855
0.016380001 0.024180001 0.81900007 3747621
0.017940002 0.024180001 0.81900007 5195067
-0.087637149 0.026054287 0.82900006 5329224
-0.086058103 0.026054287 0.82900006 5789775
-0.084479049 0.026054287 0.82900006 3301807
-0.082900003 0.026054287 0.82900006 5736148
-0.08112476 0.025991429 0.82700002 5804031
-0.079549521 0.025991429 0.82700002 5409279
-0.077974282 0.025991429 0.82700002 5344255
-0.076399051 0.025991429 0.82700002 5607423
-0.074823812 0.025991429 0.82700002 5869311
-0.073248573 0.025991429 0.82700002 5935103
-0.071673334 0.025991429 0.82700002 6131455
-0.070098102 0.025991429 0.82700002 6394623
-0.068522863 0.025991429 0.82700002 6394879
-0.066947617 0.025991429 0.82700002 6526463
-0.065372378 0.025991429 0.82700002 6526207
-0.063797139 0.025991429 0.82700002 6657791
-0.062221903 0.025991429 0.82700002 7642111
-0.060646668 0.025991429 0.82700002 8760575
-0.059071429 0.025991429 0.82700002 8695295
-0.057496194 0.025991429 0.82700002 7774202
-0.055920955 0.025991429 0.82700002 7577599
-0.054345712 0.025991429 0.82700002 7643391
-0.052770477 0.025991429 0.82700002 7576063
-0.051071431 0.025928574 0.82500005 7049727
-0.049379997 0.025865715 0.82300001 8231933
-0.047463812 0.025677143 0.81700003 11324159
-0.045682859 0.025551429 0.81300002 11915263
-0.044134285 0.025551429 0.81300002 13428479
-0.042585716 0.025551429 0.81300002 14544378
-0.040936191 0.025488574 0.81100005 15268095
-0.039391432 0.025488574 0.81100005 15662075
-0.03784667 0.025488574 0.81100005 15596282
-0.03639143 0.025551429 0.81300002 15727609
-0.034928575 0.025614288 0.81500006 15793402
-0.033294287 0.025551429 0.81300002 15727609
-0.031745713 0.025551429 0.81300002 15793402
-0.030197144 0.025551429 0.81300002 15596539
-0.028648572 0.025551429 0.81300002 15464953
-0.027100001 0.025551429 0.81300002 14612474
-0.025677143 0.025677143 0.81700003 14151923
-0.024120953 0.025677143 0.81700003 13297407
-0.022620002 0.025740001 0.81900007 10073553
-0.021162858 0.025865715 0.82300001 10727935
-0.019642858 0.025928574 0.82500005 13293823
-0.018115237 0.025991429 0.82700002 14015743
-0.01654 0.025991429 0.82700002 13620985
-0.014964762 0.025991429 0.82700002 13291519
-0.013389524 0.025991429 0.82700002 12830969
-0.011814286 0.025991429 0.82700002 10599167
-0.010239048 0.025991429 0.82700002 9480693
-0.0086638099 0.025991429 0.82700002 8627711
-0.0070714285 0.025928574 0.82500005 8430335
-0.0055000004 0.025928574 0.82500005 8756991
-0.0039380956 0.025991429 0.82700002 9875455
-0.0023628571 0.025991429 0.82700002 12566012
-0.00078761904 0.025991429 0.82700002 14671359
0.00078761904 0.025991429 0.82700002 15000311
0.0023628571 0.025991429 0.82700002 14868725
0.0039380956 0.025991429 0.82700002 14999798
0.0055133332 0.025991429 0.82700002 15591935
0.0070885718 0.025991429 0.82700002 15921145
0.0086428579 0.025928574 0.82500005 16776447
0.010189524 0.025865715 0.82300001 16711422
0.011757143 0.025865715 0.82300001 13882323
0.013292382 0.025802858 0.82100004 8483509
0.014820001 0.025740001 0.81900007 1312072
0.016380001 0.025740001 0.81900007 3418397
0.017940002 0.025740001 0.81900007 5194808
-0.087425716 0.027566668 0.82700002 5525833
-0.085850477 0.027566668 0.82700002 6052177
-0.084275246 0.027566668 0.82700002 3761847
-0.082699999 0.027566668 0.82700002 6196188
-0.08112476 0.027566668 0.82700002 5869567
-0.079549521 0.027566668 0.82700002 5145855
-0.077974282 0.027566668 0.82700002 5343999
-0.076399051 0.027566668 0.82700002 5475583
-0.074823812 0.027566668 0.82700002 5671935
-0.073248573 0.027566668 0.82700002 5803519
-0.071673334 0.027566668 0.82700002 5737727
-0.070098102 0.027566668 0.82700002 6000895
-0.068522863 0.027566668 0.82700002 6263551
-0.066947617 0.027566668 0.82700002 6263551
-0.065372378 0.027566668 0.82700002 6263551
-0.063642859 0.027500002 0.82500005 6263551
-0.062071431 0.027500002 0.82500005 6526207
-0.060500003 0.027500002 0.82500005 7644671
-0.058928575 0.027500002 0.82500005 7906815
-0.057357144 0.027500002 0.82500005 7380479
-0.055785719 0.027500002 0.82500005 6987519
-0.054214288 0.027500002 0.82500005 6987519
-0.05264286 0.027500002 0.82500005 7052543
-0.050947621 0.027433334 0.82300001 6328831
-0.049260002 0.027366666 0.82100004 7378687
-0.047580004 0.027300002 0.81900007 9812991
-0.04590762 0.027233334 0.81700003 11846911
-0.044242859 0.027166668 0.81500006 13031167
-0.042690478 0.027166668 0.81500006 14345979
-0.040936191 0.027033335 0.81100005 14806527
-0.039391432 0.027033335 0.81100005 15201272
-0.037940003 0.027100001 0.81300002 15398651
-0.03639143 0.027100001 0.81300002 15662075
-0.034928575 0.027166668 0.81500006 15727868
-0.033294287 0.027100001 0.81300002 15530746
-0.031745713 0.027100001 0.81300002 15333367
-0.030197144 0.027100001 0.81300002 15005690
-0.028648572 0.027100001 0.81300002 14939897
-0.027166668 0.027166668 0.81500006 14809083
-0.025677143 0.027233334 0.81700003 13295844
-0.024180001 0.027300002 0.81900007 11917311
-0.022620002 0.027300002 0.81900007 8430286
-0.021162858 0.027433334 0.82300001 8300031
-0.019642858 0.027500002 0.82500005 9681663
-0.018115237 0.027566668 0.82700002 10138111
-0.01654 0.027566668 0.82700002 9480191
-0.014928573 0.027500002 0.82500005 8823807
-0.013357143 0.027500002 0.82500005 8560639
-0.011785715 0.027500002 0.82500005 7905279
-0.010214286 0.027500002 0.82500005 7707903
-0.0086428579 0.027500002 0.82500005 7511807
-0.0070714285 0.027500002 0.82500005 7643391
-0.0055000004 0.027500002 0.82500005 7838719
-0.0039190478 0.027433334 0.82300001 7641343
-0.0023514286 0.027433334 0.82300001 9346047
-0.00078571431 0.027500002 0.82500005 10530303
0.00078571431 0.027500002 0.82500005 11186431
0.002357143 0.027500002 0.82500005 10989055
0.0039285715 0.027500002 0.82500005 10792447
0.0055000004 0.027500002 0.82500005 10660863
0.0070714285 0.027500002 0.82500005 11250170
0.0086428579 0.027500002 0.82500005 13223935
0.010189524 0.027433334 0.82300001 14801407
0.011757143 0.027433334 0.82300001 14209274
0.013292382 0.027366666 0.82100004 8878022
0.014820001 0.027300002 0.81900007 720970
0.016380001 0.027300002 0.81900007 1707009
-0.087425716 0.029141905 0.82700002 5526085
-0.085850477 0.029141905 0.82700002 6184015
-0.084275246 0.029141905 0.82700002 4221628
-0.082699999 0.029141905 0.82700002 6327004
-0.080928579 0.02907143 0.82500005 5739007
-0.079357147 0.02907143 0.82500005 5146879
-0.077785715 0.02907143 0.82500005 5016575
-0.076214284 0.02907143 0.82500005 5148159
-0.074642867 0.02907143 0.82500005 5017087
-0.073071435 0.02907143 0.82500005 5280255
-0.071500003 0.02907143 0.82500005 5476607
-0.069928572 0.02907143 0.82500005 5608191
-0.068357147 0.02907143 0.82500005 5673215
