# .PCD v0.7 - Point Cloud Data file format
VERSION 0.7
FIELDS x y z rgba
SIZE 4 4 4 4
TYPE F F F U
COUNT 1 1 1 1
WIDTH 1130
HEIGHT 1
VIEWPOINT 0 0 0 1 0 0 0
POINTS 1130
DATA ascii
-0.094770476 0.18514763 0.65900004 5981253
-0.093373336 0.18486668 0.65800005 2625810
-0.092120007 0.18486668 0.65800005 3474235
-0.090728574 0.18458572 0.65700001 3540028
-0.089204758 0.18402381 0.65500003 3739455
-0.087957144 0.18402381 0.65500003 6108003
-0.086709529 0.18402381 0.65500003 5326432
-0.085461907 0.18402381 0.65500003 5523811
-0.084214285 0.18402381 0.65500003 4077931
-0.08296667 0.18402381 0.65500003 3748966
-0.081719048 0.18402381 0.65500003 3748444
-0.080471434 0.18402381 0.65500003 3682651
-0.079223812 0.18402381 0.65500003 4205653
-0.077976197 0.18402381 0.65500003 3613516
-0.076728575 0.18402381 0.65500003 4203595
-0.075365715 0.18374287 0.65400004 4729939
-0.07412 0.18374287 0.65400004 4993106
-0.072985716 0.18402381 0.65500003 4466762
-0.071738102 0.18402381 0.65500003 4991573
-0.070490479 0.18402381 0.65500003 5452124
-0.069242857 0.18402381 0.65500003 5519448
-0.068202853 0.18458572 0.65700001 5453655
-0.06705334 0.18486668 0.65800005 5650782
-0.065800004 0.18486668 0.65800005 5913954
-0.064546667 0.18486668 0.65800005 5782627
-0.063389532 0.18514763 0.65900004 5848420
-0.062134288 0.18514763 0.65900004 5913966
-0.060879052 0.18514763 0.65900004 5848173
-0.059623811 0.18514763 0.65900004 5386850
-0.058545712 0.18570954 0.66100001 5452643
-0.057373337 0.1859905 0.66200006 5255515
-0.056197144 0.18627143 0.66300005 5518687
-0.054934289 0.18627143 0.66300005 5583967
-0.053752381 0.18655239 0.66400003 5583967
-0.052487623 0.18655239 0.66400003 5519196
-0.051454291 0.18739524 0.66700006 5387610
-0.050183814 0.18739524 0.66700006 5388632
-0.049206667 0.18851905 0.671 5388632
-0.048142858 0.1893619 0.67400002 4205658
-0.046928573 0.18964286 0.67500001 3679314
-0.045642857 0.18964286 0.67500001 3487582
-0.044357143 0.18964286 0.67500001 4211305
-0.04307143 0.18964286 0.67500001 4542822
-0.041785713 0.18964286 0.67500001 5990268
-0.10927714 0.18979715 0.671 5332072
-0.10799905 0.18979715 0.671 2700352
-0.10656191 0.18951429 0.67000002 2437983
-0.10497144 0.18894859 0.66800004 2766948
-0.10354382 0.18866573 0.66700006 3748444
-0.10181334 0.18781714 0.66400003 3485272
-0.10039715 0.18753429 0.66300005 4333649
-0.098984763 0.18725143 0.66200006 4136270
-0.097576194 0.18696856 0.66100001 4596016
-0.096317142 0.18696856 0.66100001 4859188
-0.094770476 0.18640286 0.65900004 4660555
-0.093373336 0.18612 0.65800005 3476281
-0.092120007 0.18612 0.65800005 4130602
-0.090728574 0.18583713 0.65700001 4262188
-0.089204758 0.18527143 0.65500003 3409709
-0.087957144 0.18527143 0.65500003 5844050
-0.086709529 0.18527143 0.65500003 5322330
-0.085461907 0.18527143 0.65500003 5190744
-0.084214285 0.18527143 0.65500003 5058393
-0.08296667 0.18527143 0.65500003 4926807
-0.081719048 0.18527143 0.65500003 5057625
-0.080471434 0.18527143 0.65500003 5123418
-0.079223812 0.18527143 0.65500003 4991319
-0.077976197 0.18527143 0.65500003 5122905
-0.076728575 0.18527143 0.65500003 5189463
-0.075480953 0.18527143 0.65500003 5189463
-0.074233338 0.18527143 0.65500003 5123670
-0.072985716 0.18527143 0.65500003 5452635
-0.071738102 0.18527143 0.65500003 5453403
-0.070490479 0.18527143 0.65500003 5321817
-0.069242857 0.18527143 0.65500003 5321558
-0.068202853 0.18583713 0.65700001 5650523
-0.06705334 0.18612 0.65800005 5783651
-0.065800004 0.18612 0.65800005 5717858
-0.064546667 0.18612 0.65800005 5650532
-0.063389532 0.18640286 0.65900004 5584739
-0.062134288 0.18640286 0.65900004 5584490
-0.060879052 0.18640286 0.65900004 5452904
-0.059804764 0.18696856 0.66100001 5387353
-0.058545712 0.18696856 0.66100001 5321560
-0.057373337 0.18725143 0.66200006 5321308
-0.056197144 0.18753429 0.66300005 5452894
-0.055017143 0.18781714 0.66400003 5518433
-0.053752381 0.18781714 0.66400003 5518433
-0.052645713 0.18838286 0.66600001 5519198
-0.051454291 0.18866573 0.66700006 5453405
-0.050183814 0.18866573 0.66700006 5388119
-0.049206667 0.18979715 0.671 5388119
-0.048142858 0.19064572 0.67400002 4667991
-0.046928573 0.19092858 0.67500001 4339026
-0.045642857 0.19092858 0.67500001 3224930
-0.044357143 0.19092858 0.67500001 4211825
-0.04300762 0.19064572 0.67400002 4937575
-0.04172381 0.19064572 0.67400002 6121849
-0.040440001 0.19064572 0.67400002 6252384
-0.10927714 0.19107524 0.671 5791340
-0.10799905 0.19107524 0.671 3159620
-0.10656191 0.19079047 0.67000002 2306910
-0.10497144 0.19022097 0.66800004 2899047
-0.10354382 0.18993621 0.66700006 3816021
-0.10181334 0.18908191 0.66400003 2500161
-0.10039715 0.18879716 0.66300005 3020863
-0.098984763 0.1885124 0.66200006 1968175
-0.097576194 0.18822762 0.66100001 3411235
-0.096317142 0.18822762 0.66100001 4529716
-0.094770476 0.1876581 0.65900004 4992836
-0.093515247 0.1876581 0.65900004 5190215
-0.092120007 0.18737336 0.65800005 5387083
-0.090728574 0.18708858 0.65700001 5452876
-0.089204758 0.18651906 0.65500003 5386831
-0.087957144 0.18651906 0.65500003 5518417
-0.086709529 0.18651906 0.65500003 5387353
-0.085461907 0.18651906 0.65500003 5321560
-0.084214285 0.18651906 0.65500003 5387101
-0.08296667 0.18651906 0.65500003 5387101
-0.081719048 0.18651906 0.65500003 5452894
-0.080471434 0.18651906 0.65500003 5518687
-0.079223812 0.18651906 0.65500003 5255515
-0.077976197 0.18651906 0.65500003 5255515
-0.076728575 0.18651906 0.65500003 5386852
-0.075480953 0.18651906 0.65500003 5255266
-0.074233338 0.18651906 0.65500003 5320544
-0.072985716 0.18651906 0.65500003 5386337
-0.071738102 0.18651906 0.65500003 5321560
-0.070490479 0.18651906 0.65500003 5058388
-0.06945429 0.18708858 0.65700001 5188682
-0.068202853 0.18708858 0.65700001 5386061
-0.06705334 0.18737336 0.65800005 5255002
-0.065800004 0.18737336 0.65800005 5123416
-0.064546667 0.18737336 0.65800005 5123165
-0.063389532 0.1876581 0.65900004 5123165
-0.062134288 0.1876581 0.65900004 5123165
-0.060879052 0.1876581 0.65900004 5057372
-0.059804764 0.18822762 0.66100001 4926793
-0.058545712 0.18822762 0.66100001 5058379
-0.057460003 0.18879716 0.66300005 5123165
-0.056197144 0.18879716 0.66300005 5320544
-0.055017143 0.18908191 0.66400003 5452393
-0.053752381 0.18908191 0.66400003 5715565
-0.052645713 0.18965143 0.66600001 5519716
-0.051454291 0.18993621 0.66700006 5453923
-0.05025905 0.19022097 0.66800004 5324120
-0.049280003 0.19136001 0.67200005 5192534
-0.048214287 0.19221428 0.67500001 4404819
-0.046928573 0.19221428 0.67500001 4536405
-0.045642857 0.19221428 0.67500001 3685733
-0.044291429 0.19192952 0.67400002 4343663
-0.04300762 0.19192952 0.67400002 4871782
-0.04172381 0.19192952 0.67400002 6121849
-0.040440001 0.19192952 0.67400002 6382943
-0.10927714 0.19235334 0.671 5792873
-0.10799905 0.19235334 0.671 3226946
-0.10656191 0.19206667 0.67000002 2372955
-0.10528572 0.19206667 0.67000002 2767713
-0.10354382 0.19120668 0.66700006 4144223
-0.10212 0.19092 0.66600001 3223121
-0.10054857 0.19034667 0.66400003 3218499
-0.099134296 0.19006002 0.66300005 2692155
-0.097723819 0.18977335 0.66200006 3412777
-0.096317142 0.18948667 0.66100001 4991809
-0.095058098 0.18948667 0.66100001 5058899
-0.093515247 0.18891335 0.65900004 5322071
-0.092260011 0.18891335 0.65900004 5322326
-0.090728574 0.18834001 0.65700001 5256533
-0.089477144 0.18834001 0.65700001 5321558
-0.088225715 0.18834001 0.65700001 5058386
-0.086709529 0.18776667 0.65500003 5188948
-0.085461907 0.18776667 0.65500003 5188948
-0.084214285 0.18776667 0.65500003 5254491
-0.08296667 0.18776667 0.65500003 5254491
-0.081719048 0.18776667 0.65500003 5254743
-0.080471434 0.18776667 0.65500003 5320536
-0.079223812 0.18776667 0.65500003 5254751
-0.077976197 0.18776667 0.65500003 5254751
-0.076728575 0.18776667 0.65500003 5188958
-0.075480953 0.18776667 0.65500003 5188958
-0.074233338 0.18776667 0.65500003 5320284
-0.072985716 0.18776667 0.65500003 5320284
-0.071738102 0.18776667 0.65500003 5386080
-0.070705712 0.18834001 0.65700001 5320287
-0.06945429 0.18834001 0.65700001 5056083
-0.068202853 0.18834001 0.65700001 5319255
-0.06705334 0.18862668 0.65800005 5057625
-0.065800004 0.18862668 0.65800005 5123418
-0.064546667 0.18862668 0.65800005 5123670
-0.063389532 0.18891335 0.65900004 5057877
-0.062134288 0.18891335 0.65900004 5123418
-0.060879052 0.18891335 0.65900004 5123418
-0.059804764 0.18948667 0.66100001 4926289
-0.058634292 0.18977335 0.66200006 5123668
-0.057460003 0.19006002 0.66300005 5189463
-0.056197144 0.19006002 0.66300005 5584221
-0.055017143 0.19034667 0.66400003 5585260
-0.053752381 0.19034667 0.66400003 5651053
-0.052645713 0.19092 0.66600001 5586790
-0.051454291 0.19120668 0.66700006 5586790
-0.05025905 0.19149333 0.66800004 5521247
-0.049280003 0.19264002 0.67200005 4665938
-0.048214287 0.1935 0.67500001 3812930
-0.046928573 0.1935 0.67500001 4470860
-0.045642857 0.1935 0.67500001 3817571
-0.044291429 0.19321334 0.67400002 4343915
-0.04300762 0.19321334 0.67400002 4739944
-0.04172381 0.19321334 0.67400002 5990011
-0.10927714 0.19363143 0.671 5989223
-0.10799905 0.19363143 0.671 4344398
-0.10656191 0.19334286 0.67000002 1914469
-0.10528572 0.19334286 0.67000002 2177641
-0.10369906 0.19276571 0.66800004 3817050
-0.10212 0.19218858 0.66600001 3751257
-0.10054857 0.19161144 0.66400003 3549784
-0.099134296 0.19132286 0.66300005 3812956
-0.097723819 0.1910343 0.66200006 4862790
-0.096317142 0.19074571 0.66100001 5191755
-0.095058098 0.19074571 0.66100001 5124951
-0.093515247 0.19016859 0.65900004 5124951
-0.092260011 0.19016859 0.65900004 5190751
-0.090866677 0.18988 0.65800005 5124958
-0.089477144 0.18959142 0.65700001 4992602
-0.088225715 0.18959142 0.65700001 4466258
-0.086709529 0.1890143 0.65500003 4727361
-0.085461907 0.1890143 0.65500003 4924740
-0.084471427 0.18959142 0.65700001 4990295
-0.08296667 0.1890143 0.65500003 5056088
-0.081719048 0.1890143 0.65500003 4990544
-0.080471434 0.1890143 0.65500003 5187923
-0.079223812 0.1890143 0.65500003 5057374
-0.077976197 0.1890143 0.65500003 5057374
-0.076962851 0.18959142 0.65700001 4991573
-0.075480953 0.1890143 0.65500003 5057366
-0.074233338 0.1890143 0.65500003 5122391
-0.072985716 0.1890143 0.65500003 5319770
-0.071738102 0.1890143 0.65500003 5255784
-0.070705712 0.18959142 0.65700001 6308472
-0.06945429 0.18959142 0.65700001 5850473
-0.068202853 0.18959142 0.65700001 5258336
-0.06705334 0.18988 0.65800005 5454175
-0.065800004 0.18988 0.65800005 5585761
-0.064644769 0.19016859 0.65900004 5716829
-0.063389532 0.19016859 0.65900004 6045794
-0.062134288 0.19016859 0.65900004 5850982
-0.061063815 0.19074571 0.66100001 5916775
-0.059804764 0.19074571 0.66100001 6048870
-0.058634292 0.1910343 0.66200006 6180456
-0.057460003 0.19132286 0.66300005 6048870
-0.056281909 0.19161144 0.66400003 6443628
-0.055017143 0.19161144 0.66400003 6640507
-0.053914286 0.19218858 0.66600001 6574714
-0.052645713 0.19218858 0.66600001 6116198
-0.051454291 0.19247715 0.66700006 5260889
-0.050409522 0.19334286 0.67000002 5128029
-0.049280003 0.19392002 0.67200005 4141134
-0.048214287 0.19478571 0.67500001 3550544
-0.046998098 0.1950743 0.67600006 4669025
-0.045642857 0.19478571 0.67500001 3819878
-0.044291429 0.19449714 0.67400002 4214636
-0.04300762 0.19449714 0.67400002 4937069
-0.04172381 0.19449714 0.67400002 5989757
-0.10927714 0.19490953 0.671 5923682
-0.10799905 0.19490953 0.671 4805201
-0.10656191 0.19461904 0.67000002 2967392
-0.10528572 0.19461904 0.67000002 1848911
-0.10369906 0.19403809 0.66800004 2767198
-0.10212 0.19345714 0.66600001 2898784
-0.10054857 0.19287619 0.66400003 3418198
-0.099134296 0.19258572 0.66300005 3747163
-0.097723819 0.19229525 0.66200006 4862290
-0.096317142 0.19200477 0.66100001 4993876
-0.095058098 0.19200477 0.66100001 5059163
-0.093515247 0.19142382 0.65900004 5322335
-0.092260011 0.19142382 0.65900004 5453662
-0.090866677 0.19113335 0.65800005 5124697
-0.089477144 0.19084285 0.65700001 5190744
-0.088225715 0.19084285 0.65700001 4861779
-0.086974286 0.19084285 0.65700001 4858445
-0.085722856 0.19084285 0.65700001 4990031
-0.084471427 0.19084285 0.65700001 5055575
-0.083220005 0.19084285 0.65700001 5121368
-0.081968568 0.19084285 0.65700001 5056848
-0.080471434 0.19026192 0.65500003 5188434
-0.079223812 0.19026192 0.65500003 5253977
-0.078214288 0.19084285 0.65700001 5319770
-0.076962851 0.19084285 0.65700001 5319770
-0.075711429 0.19084285 0.65700001 5385563
-0.074233338 0.19026192 0.65500003 5320544
-0.072985716 0.19026192 0.65500003 5254751
-0.071957141 0.19084285 0.65700001 5058918
-0.070705712 0.19084285 0.65700001 7032708
-0.06945429 0.19084285 0.65700001 6315145
-0.068202853 0.19084285 0.65700001 5459836
-0.06705334 0.19113335 0.65800005 5258852
-0.065800004 0.19113335 0.65800005 5390438
-0.064644769 0.19142382 0.65900004 5521758
-0.063389532 0.19142382 0.65900004 6048102
-0.062322859 0.19200477 0.66100001 5721708
-0.061063815 0.19200477 0.66100001 5853294
-0.059804764 0.19200477 0.66100001 5919351
-0.058634292 0.19229525 0.66200006 5787765
-0.057460003 0.19258572 0.66300005 5787747
-0.056281909 0.19287619 0.66400003 6182505
-0.055017143 0.19287619 0.66400003 6116982
-0.053914286 0.19345714 0.66600001 5853810
-0.052724764 0.19374762 0.66700006 5984880
-0.051454291 0.19374762 0.66700006 4997985
-0.050409522 0.19461904 0.67000002 5127520
-0.049280003 0.19520003 0.67200005 4469590
-0.048214287 0.19607143 0.67500001 3682651
-0.046998098 0.19636193 0.67600006 4406374
-0.045710482 0.19636193 0.67600006 3688811
-0.044094287 0.19490953 0.671 4149362
-0.042816192 0.19490953 0.671 4937323
-0.10799905 0.19618762 0.671 5397588
-0.10672095 0.19618762 0.671 3952736
-0.10528572 0.19589524 0.67000002 1913153
-0.10369906 0.19531049 0.66800004 2635616
-0.10227334 0.1950181 0.66700006 2898788
-0.10085143 0.19472572 0.66600001 3485020
-0.099283814 0.19414096 0.66400003 3550813
-0.097871438 0.19384858 0.66300005 4730191
-0.096462868 0.1935562 0.66200006 4927570
-0.095058098 0.19326381 0.66100001 4995169
-0.093515247 0.19267906 0.65900004 6639994
-0.092260011 0.19267906 0.65900004 6181462
-0.091004767 0.19267906 0.65900004 4997188
-0.089613341 0.19238667 0.65800005 5457507
-0.088225715 0.19209428 0.65700001 5918058
-0.086974286 0.19209428 0.65700001 5916775
-0.085722856 0.19209428 0.65700001 5587810
-0.084471427 0.19209428 0.65700001 5849444
-0.083220005 0.19209428 0.65700001 5849444
-0.081968568 0.19209428 0.65700001 5849696
-0.080717139 0.19209428 0.65700001 5981282
-0.079465717 0.19209428 0.65700001 6047591
-0.078214288 0.19209428 0.65700001 6376556
-0.076962851 0.19209428 0.65700001 6179443
-0.075711429 0.19209428 0.65700001 6113650
-0.074233338 0.19150953 0.65500003 5786481
-0.072985716 0.19150953 0.65500003 5391723
-0.071957141 0.19209428 0.65700001 5456511
-0.070705712 0.19209428 0.65700001 7101336
-0.069559999 0.19238667 0.65800005 6972303
-0.06830667 0.19238667 0.65800005 6511752
-0.06705334 0.19238667 0.65800005 6445949
-0.065800004 0.19238667 0.65800005 6511742
-0.064644769 0.19267906 0.65900004 6839671
-0.063389532 0.19267906 0.65900004 6773878
-0.062322859 0.19326381 0.66100001 6248052
-0.061063815 0.19326381 0.66100001 6116466
-0.059804764 0.19326381 0.66100001 6379144
-0.058722861 0.19384858 0.66300005 6181765
-0.057460003 0.19384858 0.66300005 5984612
-0.056281909 0.19414096 0.66400003 6181991
-0.055182859 0.19472572 0.66600001 6050655
-0.053914286 0.19472572 0.66600001 5392725
-0.052724764 0.1950181 0.66700006 5392741
-0.051454291 0.1950181 0.66700006 4669018
-0.050409522 0.19589524 0.67000002 4339048
-0.049280003 0.19648001 0.67200005 4404841
-0.048214287 0.19735715 0.67500001 3685731
-0.046998098 0.19764954 0.67600006 3619938
-0.045710482 0.19764954 0.67600006 2966889
-0.044094287 0.19618762 0.671 3953784
-0.042816192 0.19618762 0.671 4937575
-0.041538097 0.19618762 0.671 5792884
-0.10799905 0.19746572 0.671 5726301
-0.10672095 0.19746572 0.671 4215651
-0.10544286 0.19746572 0.671 2307654
-0.10400952 0.19717142 0.67000002 2569571
-0.10242667 0.19658287 0.66800004 2832743
-0.10100286 0.19628859 0.66700006 3748444
-0.099283814 0.19540572 0.66400003 3616858
-0.097871438 0.19511144 0.66300005 4599611
-0.096462868 0.19481716 0.66200006 4796990
-0.095058098 0.19452286 0.66100001 4798042
-0.093799047 0.19452286 0.66100001 6442867
-0.092260011 0.19393429 0.65900004 5854823
-0.091004767 0.19393429 0.65900004 5394272
-0.08974953 0.19393429 0.65900004 5130346
-0.088360004 0.19364002 0.65800005 5459311
-0.086974286 0.19334571 0.65700001 5590888
-0.085722856 0.19334571 0.65700001 5525095
-0.084600009 0.19364002 0.65800005 5655409
-0.083346672 0.19364002 0.65800005 5392237
-0.081968568 0.19334571 0.65700001 5457507
-0.080717139 0.19334571 0.65700001 5786472
-0.079465717 0.19334571 0.65700001 5590372
-0.078214288 0.19334571 0.65700001 6050923
-0.077080004 0.19364002 0.65800005 5920116
-0.075711429 0.19334571 0.65700001 6051702
-0.07446 0.19334571 0.65700001 6182533
-0.07320857 0.19334571 0.65700001 5985154
-0.071957141 0.19334571 0.65700001 5460083
-0.070705712 0.19334571 0.65700001 6512771
-0.069559999 0.19364002 0.65800005 6710160
-0.06830667 0.19364002 0.65800005 6118023
-0.06705334 0.19364002 0.65800005 6053247
-0.065800004 0.19364002 0.65800005 6053247
-0.064644769 0.19393429 0.65900004 6643580
-0.063581906 0.19452286 0.66100001 6577787
-0.06241715 0.19481716 0.66200006 6051189
-0.061156195 0.19481716 0.66200006 5919603
-0.05998572 0.19511144 0.66300005 6379137
-0.05881143 0.19540572 0.66400003 5655414
-0.057546668 0.19540572 0.66400003 4996182
-0.056281909 0.19540572 0.66400003 5193561
-0.055182859 0.19599429 0.66600001 5785439
-0.053914286 0.19599429 0.66600001 5588060
-0.052724764 0.19628859 0.66700006 5326182
-0.051454291 0.19628859 0.66700006 4668252
-0.050560005 0.19776 0.67200005 3418718
-0.04957334 0.19893716 0.67600006 4274027
-0.048500001 0.19982 0.67900002 3622248
-0.047206666 0.19982 0.67900002 2635353
-0.045913331 0.19982 0.67900002 2177384
-0.04462 0.19982 0.67900002 3953795
-0.043326665 0.19982 0.67900002 5198951
-0.10688 0.19904001 0.67200005 4872534
-0.10560001 0.19904001 0.67200005 2569779
-0.10416476 0.19874381 0.671 2177384
-0.10273334 0.19844763 0.67000002 2440556
-0.10115429 0.19785525 0.66800004 3553624
-0.099732392 0.19755906 0.66700006 2829901
-0.098019049 0.19667049 0.66400003 3482934
-0.096608579 0.1963743 0.66300005 4338243
-0.09520191 0.19607811 0.66200006 4534870
-0.093799047 0.1957819 0.66100001 5521765
-0.092539996 0.1957819 0.66100001 5854294
-0.091280952 0.1957819 0.66100001 6051673
-0.08974953 0.19518952 0.65900004 5788528
-0.088494293 0.19518952 0.65900004 5656942
-0.087239049 0.19518952 0.65900004 5722474
-0.085983813 0.19518952 0.65900004 6380404
-0.084728576 0.19518952 0.65900004 6313845
-0.083346672 0.19489335 0.65800005 5590122
-0.082093336 0.19489335 0.65800005 5985130
-0.080717139 0.19459714 0.65700001 6577267
-0.079465717 0.19459714 0.65700001 6315117
-0.078333341 0.19489335 0.65800005 6183531
-0.077080004 0.19489335 0.65800005 5986677
-0.075826667 0.19489335 0.65800005 6118263
-0.074573338 0.19489335 0.65800005 6512524
-0.073320009 0.19489335 0.65800005 6512524
-0.072066672 0.19489335 0.65800005 6051700
-0.070813335 0.19489335 0.65800005 6249079
-0.069665715 0.19518952 0.65900004 6446211
-0.068410479 0.19518952 0.65900004 5919867
-0.067155235 0.19518952 0.65900004 5788538
-0.065900005 0.19518952 0.65900004 5788538
-0.06484095 0.1957819 0.66100001 6050669
-0.063678101 0.19607811 0.66200006 6248048
-0.06241715 0.19607811 0.66200006 5919333
-0.061248574 0.1963743 0.66300005 5195610
-0.05998572 0.1963743 0.66300005 4864106
-0.05881143 0.19667049 0.66400003 4600934
-0.057546668 0.19667049 0.66400003 4271446
-0.056281909 0.19667049 0.66400003 4337239
-0.055182859 0.19726287 0.66600001 4865622
-0.053914286 0.19726287 0.66600001 5063001
-0.052724764 0.19755906 0.66700006 4605026
-0.051454291 0.19755906 0.66700006 4341854
-0.050710477 0.19963239 0.67400002 3950200
-0.04972 0.20081715 0.67800003 4476544
-0.048500001 0.20111334 0.67900002 3295084
-0.047276188 0.20140952 0.68000001 1452880
-0.045980949 0.20140952 0.68000001 1783155
-0.044685714 0.20140952 0.68000001 3954324
-0.10864286 0.2012143 0.67500001 5726303
-0.10735714 0.2012143 0.67500001 5003868
-0.10591429 0.2009162 0.67400002 2898492
-0.10432001 0.20032001 0.67200005 1981032
-0.10273334 0.19972381 0.67000002 1981032
-0.10115429 0.19912763 0.66800004 3161697
-0.099732392 0.19882953 0.66700006 2898525
-0.098314285 0.19853143 0.66600001 3351117
-0.09675429 0.19793525 0.66400003 3680082
-0.09520191 0.19733907 0.66200006 4993622
-0.093799047 0.19704096 0.66100001 5848931
-0.092539996 0.19704096 0.66100001 4998494
-0.091280952 0.19704096 0.66100001 5722217
-0.090021908 0.19704096 0.66100001 5723255
-0.088494293 0.19644478 0.65900004 5525876
-0.087239049 0.19644478 0.65900004 5722735
-0.085983813 0.19644478 0.65900004 5920114
-0.084728576 0.19644478 0.65900004 6116733
-0.083473332 0.19644478 0.65900004 5721975
-0.082218096 0.19644478 0.65900004 5788267
-0.080839999 0.19614667 0.65800005 6446197
-0.079586677 0.19614667 0.65800005 6315644
-0.078333341 0.19614667 0.65800005 5986679
-0.077080004 0.19614667 0.65800005 5855873
-0.075826667 0.19614667 0.65800005 5855873
-0.074573338 0.19614667 0.65800005 6249599
-0.073320009 0.19614667 0.65800005 6183806
-0.072066672 0.19614667 0.65800005 5657211
-0.070920952 0.19644478 0.65900004 5854590
-0.069665715 0.19644478 0.65900004 6248832
-0.068410479 0.19644478 0.65900004 5854074
-0.067155235 0.19644478 0.65900004 5985147
-0.066100001 0.19704096 0.66100001 5327217
-0.06484095 0.19704096 0.66100001 5193311
-0.063678101 0.19733907 0.66200006 5522276
-0.062511429 0.19763716 0.66300005 5588841
-0.061248574 0.19763716 0.66300005 5391462
-0.060076192 0.19793525 0.66400003 4929628
-0.05881143 0.19793525 0.66400003 4929628
-0.057546668 0.19793525 0.66400003 4600414
-0.056451429 0.19853143 0.66600001 5060965
-0.055182859 0.19853143 0.66600001 4998494
-0.053914286 0.19853143 0.66600001 5459045
-0.052724764 0.19882953 0.66700006 4871031
-0.051685713 0.19972381 0.67000002 4936824
-0.050710477 0.2009162 0.67400002 4873339
-0.049793333 0.20240667 0.67900002 4018030
-0.048571426 0.20270476 0.68000001 2902638
-0.047276188 0.20270476 0.68000001 1323606
-0.045980949 0.20270476 0.68000001 1519972
-0.04488286 0.20359905 0.68300003 3954313
-0.043581907 0.20359905 0.68300003 5396582
-0.10880382 0.20280002 0.67600006 5857628
-0.1075162 0.20280002 0.67600006 5135193
-0.10607143 0.2025 0.67500001 3358782
-0.10463049 0.20220001 0.67400002 2046825
-0.10288666 0.20130001 0.671 2046825
-0.10145715 0.20100001 0.67000002 3029859
-0.09988191 0.20040001 0.66800004 3161445
-0.098461911 0.2001 0.66700006 3616860
-0.097045712 0.1998 0.66600001 3156309
-0.095345721 0.19890001 0.66300005 3678819
-0.093940958 0.19860001 0.66200006 4797300
-0.092680007 0.19860001 0.66200006 4601186
-0.091280952 0.1983 0.66100001 4666979
-0.090021908 0.1983 0.66100001 4733038
-0.088762857 0.1983 0.66100001 5127796
-0.087239049 0.19770001 0.65900004 4931686
-0.085983813 0.19770001 0.65900004 4997479
-0.084728576 0.19770001 0.65900004 5061485
-0.083473332 0.19770001 0.65900004 4732520
-0.082218096 0.19770001 0.65900004 4732770
-0.080839999 0.19740002 0.65800005 5588079
-0.079586677 0.19740002 0.65800005 5063023
-0.078333341 0.19740002 0.65800005 4668265
-0.077197149 0.19770001 0.65900004 4733817
-0.075941913 0.19770001 0.65900004 4404852
-0.074573338 0.19740002 0.65800005 4405342
-0.073320009 0.19740002 0.65800005 4931686
-0.072066672 0.19740002 0.65800005 4799851
-0.070920952 0.19770001 0.65900004 4602472
-0.069665715 0.19770001 0.65900004 4537701
-0.068618096 0.1983 0.66100001 4669287
-0.067359053 0.1983 0.66100001 5129070
-0.066100001 0.1983 0.66100001 4931691
-0.064939052 0.19860001 0.66200006 4931938
-0.063774288 0.19890001 0.66300005 4997731
-0.062511429 0.19890001 0.66300005 5261162
-0.061340958 0.1992 0.66400003 5195369
-0.060076192 0.1992 0.66400003 4933469
-0.05881143 0.1992 0.66400003 6183536
-0.057719998 0.1998 0.66600001 6907263
-0.056451429 0.1998 0.66600001 7433607
-0.055265717 0.2001 0.66700006 6975364
-0.05399524 0.2001 0.66700006 6909571
-0.052961905 0.20100001 0.67000002 6581889
-0.051762857 0.20130001 0.671 5331822
-0.050710477 0.20220001 0.67400002 4938108
-0.049793333 0.20370001 0.67900002 3819627
-0.048571426 0.204 0.68000001 3230320
-0.047276188 0.204 0.68000001 2177632
-0.045980949 0.204 0.68000001 1980512
-0.04488286 0.2049 0.68300003 3888509
-0.043581907 0.2049 0.68300003 4937571
-0.10880382 0.20408764 0.67600006 6053728
-0.1075162 0.20408764 0.67600006 5594715
-0.10607143 0.20378572 0.67500001 3818304
-0.10463049 0.20348381 0.67400002 2111591
-0.10288666 0.2025781 0.671 2111591
-0.10145715 0.20227619 0.67000002 2635616
-0.10018095 0.20227619 0.67000002 2701409
-0.098609529 0.20167239 0.66800004 4144226
-0.097191438 0.20137048 0.66700006 3223124
-0.095777147 0.20106858 0.66600001 3219283
-0.094082862 0.20016287 0.66300005 4535143
-0.092680007 0.19986098 0.66200006 4863583
-0.091419049 0.19986098 0.66200006 4731997
-0.090021908 0.19955905 0.66100001 4534621
-0.088762857 0.19955905 0.66100001 4600414
-0.087503813 0.19955905 0.66100001 4927582
-0.086244762 0.19955905 0.66100001 4861789
-0.084985711 0.19955905 0.66100001 5058146
-0.083473332 0.19895525 0.65900004 5189732
-0.082218096 0.19895525 0.65900004 4928083
-0.080962859 0.19895525 0.65900004 5125462
-0.079707623 0.19895525 0.65900004 5059168
-0.078452386 0.19895525 0.65900004 5322340
-0.077197149 0.19895525 0.65900004 5256045
-0.075941913 0.19895525 0.65900004 5190252
-0.074686669 0.19895525 0.65900004 4798296
-0.073431432 0.19895525 0.65900004 5390433
-0.072176196 0.19895525 0.65900004 5128818
-0.070920952 0.19895525 0.65900004 4734060
-0.069665715 0.19895525 0.65900004 4931691
-0.068618096 0.19955905 0.66100001 5194863
-0.067359053 0.19955905 0.66100001 5195892
-0.066100001 0.19955905 0.66100001 5261685
-0.064939052 0.19986098 0.66200006 4737387
-0.063774288 0.20016287 0.66300005 4540008
-0.062605716 0.20046477 0.66400003 4737390
-0.061340958 0.20046477 0.66400003 4671597
-0.060076192 0.20046477 0.66400003 4212056
-0.05881143 0.20046477 0.66400003 5593709
-0.057719998 0.20106858 0.66600001 6252933
-0.056536198 0.20137048 0.66700006 6845070
-0.055265717 0.20137048 0.66700006 6385803
-0.054076191 0.20167239 0.66800004 6254217
-0.052961905 0.20227619 0.67000002 6253960
-0.051762857 0.2025781 0.671 5332858
-0.050710477 0.20348381 0.67400002 5004155
-0.049793333 0.20499334 0.67900002 3293537
-0.048571426 0.20529523 0.68000001 2703224
-0.047415242 0.20589906 0.68200004 2505845
-0.046116196 0.20589906 0.68200004 2178661
-0.044817146 0.20589906 0.68200004 3494521
-0.0435181 0.20589906 0.68200004 4608867
-0.1075162 0.20537525 0.67600006 5529174
-0.10622858 0.20537525 0.67600006 4081728
-0.10478572 0.20507142 0.67500001 2242671
-0.10334668 0.20476763 0.67400002 2242671
-0.10160857 0.20385619 0.671 2439268
-0.10018095 0.2035524 0.67000002 2570854
-0.098609529 0.20294477 0.66800004 3685731
-0.097191438 0.20264097 0.66700006 4277868
-0.095777147 0.20233715 0.66600001 4407649
-0.094224766 0.20172954 0.66400003 4276063
-0.092820004 0.20142572 0.66300005 5130598
-0.091419049 0.20112193 0.66200006 5262184
-0.090021908 0.20081811 0.66100001 5130852
-0.088762857 0.20081811 0.66100001 5130852
-0.087503813 0.20081811 0.66100001 4670059
-0.086244762 0.20081811 0.66100001 4341094
-0.084985711 0.20081811 0.66100001 5130351
-0.083726667 0.20081811 0.66100001 5722488
-0.082218096 0.20021048 0.65900004 5657192
-0.080962859 0.20021048 0.65900004 5657192
-0.079707623 0.20021048 0.65900004 5788780
-0.078452386 0.20021048 0.65900004 6051952
-0.077197149 0.20021048 0.65900004 6182523
-0.075941913 0.20021048 0.65900004 5590386
-0.074686669 0.20021048 0.65900004 5656944
-0.073431432 0.20021048 0.65900004 6578046
-0.072176196 0.20021048 0.65900004 6446988
-0.070920952 0.20021048 0.65900004 6118023
-0.069665715 0.20021048 0.65900004 5855873
-0.068618096 0.20081811 0.66100001 5855873
-0.067359053 0.20081811 0.66100001 5131905
-0.066100001 0.20081811 0.66100001 5066112
-0.064939052 0.20112193 0.66200006 3556473
-0.063774288 0.20142572 0.66300005 2174820
-0.062605716 0.20172954 0.66400003 3885422
-0.061340958 0.20172954 0.66400003 3753836
-0.060076192 0.20172954 0.66400003 3292741
-0.058988571 0.20233715 0.66600001 5003359
-0.057806671 0.20264097 0.66700006 6055291
-0.056536198 0.20264097 0.66700006 6779014
-0.055348575 0.20294477 0.66800004 6516878
-0.054238096 0.2035524 0.67000002 6253706
-0.053040951 0.20385619 0.671 6254462
-0.051840004 0.20416 0.67200005 5333360
-0.050785713 0.20507142 0.67500001 4543863
-0.049793333 0.20628668 0.67900002 2504280
-0.048571426 0.20659047 0.68000001 1915257
-0.047415242 0.20719811 0.68200004 1849464
-0.046116196 0.20719811 0.68200004 2439791
-0.044817146 0.20719811 0.68200004 4018823
-0.0435181 0.20719811 0.68200004 4805737
-0.10654286 0.2072743 0.67800003 4147521
-0.10478572 0.20635714 0.67500001 2375013
-0.1035 0.20635714 0.67500001 2111841
-0.10160857 0.20513429 0.671 2373475
-0.10018095 0.20482858 0.67000002 2570854
-0.098609529 0.20421715 0.66800004 2833765
-0.097191438 0.20391145 0.66700006 2899558
-0.095777147 0.20360571 0.66600001 4212075
-0.094508573 0.20360571 0.66600001 5001591
-0.09296 0.2029943 0.66400003 4674674
-0.091557153 0.20268857 0.66300005 5135225
-0.090158105 0.20238286 0.66200006 5332342
-0.088897154 0.20238286 0.66200006 5200756
-0.087503813 0.20207714 0.66100001 5461623
-0.086244762 0.20207714 0.66100001 4935279
-0.084985711 0.20207714 0.66100001 4871026
-0.083726667 0.20207714 0.66100001 5265784
-0.082467623 0.20207714 0.66100001 5331318
-0.081208572 0.20207714 0.66100001 5331318
-0.079707623 0.20146573 0.65900004 5923457
-0.078452386 0.20146573 0.65900004 5989250
-0.077197149 0.20146573 0.65900004 6054794
-0.075941913 0.20146573 0.65900004 5067899
-0.074686669 0.20146573 0.65900004 5000559
-0.073431432 0.20146573 0.65900004 5987454
-0.072176196 0.20146573 0.65900004 5857420
-0.071136191 0.20207714 0.66100001 5462662
-0.069877148 0.20207714 0.66100001 5070207
-0.068618096 0.20207714 0.66100001 5004414
-0.067359053 0.20207714 0.66100001 4214151
-0.06620001 0.20238286 0.66200006 3950979
-0.064939052 0.20238286 0.66200006 3098988
-0.063870475 0.2029943 0.66400003 2112093
-0.062605716 0.2029943 0.66400003 3689331
-0.061340958 0.2029943 0.66400003 3426159
-0.060076192 0.2029943 0.66400003 1257291
-0.058988571 0.20360571 0.66600001 3954804
-0.057806671 0.20391145 0.66700006 5528699
-0.056620955 0.20421715 0.66800004 6252422
-0.055514287 0.20482858 0.67000002 6188678
-0.054319046 0.20513429 0.671 6254471
-0.053120002 0.20544001 0.67200005 6451589
-0.051994286 0.20605142 0.67400002 5398901
-0.050860956 0.20666288 0.67600006 4084084
-0.049793333 0.20758 0.67900002 2110294
-0.048571426 0.20788571 0.68000001 1521015
-0.047276188 0.20788571 0.68000001 1323636
-0.045980949 0.20788571 0.68000001 2504048
-0.044817146 0.20849715 0.68200004 4346252
-0.0435181 0.20849715 0.68200004 5067365
-0.1067 0.20887333 0.67900002 4541766
-0.10494096 0.2079505 0.67600006 2833513
-0.10365334 0.2079505 0.67600006 1846618
-0.10206286 0.20733525 0.67400002 1651556
-0.10033047 0.20641237 0.671 1914728
-0.098904766 0.20610477 0.67000002 1979503
-0.097337149 0.20548953 0.66800004 1913710
-0.095920965 0.20518193 0.66700006 3621998
-0.094508573 0.20487428 0.66600001 4806272
-0.09296 0.20425905 0.66400003 5463406
-0.091557153 0.20395145 0.66300005 6384508
-0.090294287 0.20395145 0.66300005 6450310
-0.088897154 0.20364383 0.66200006 6450310
-0.087636195 0.20364383 0.66200006 6449018
-0.086375244 0.20364383 0.66200006 4869986
-0.084985711 0.20333619 0.66100001 4805233
-0.083726667 0.20333619 0.66100001 5134198
-0.082467623 0.20333619 0.66100001 3490428
-0.081208572 0.20333619 0.66100001 3095670
-0.079949521 0.20333619 0.66100001 3622268
-0.078690477 0.20333619 0.66100001 3885440
-0.077431425 0.20333619 0.66100001 4410485
-0.076172382 0.20333619 0.66100001 4344692
-0.074913338 0.20333619 0.66100001 3227240
-0.073654287 0.20333619 0.66100001 3095654
-0.072395235 0.20333619 0.66100001 3096953
-0.071136191 0.20333619 0.66100001 3820676
-0.069877148 0.20333619 0.66100001 4872315
-0.068618096 0.20333619 0.66100001 5135487
-0.067460962 0.20364383 0.66200006 4674954
-0.06620001 0.20364383 0.66200006 3753852
-0.065037146 0.20395145 0.66300005 2901094
-0.063870475 0.20425905 0.66400003 2835301
-0.062605716 0.20425905 0.66400003 3886451
-0.061340958 0.20425905 0.66400003 3952244
-0.060257144 0.20487428 0.66600001 3951464
-0.058988571 0.20487428 0.66600001 4675187
-0.057893336 0.20548953 0.66800004 4609135
-0.056790475 0.20610477 0.67000002 4280170
-0.055597141 0.20641237 0.671 5070445
-0.054400001 0.20672001 0.67200005 6057340
-0.053278096 0.20733525 0.67400002 6451573
-0.052071426 0.20764287 0.67500001 5398885
-0.050860956 0.2079505 0.67600006 3755628
-0.04972 0.20856571 0.67800003 1781838
-0.048571426 0.20918095 0.68000001 1258104
-0.047276188 0.20918095 0.68000001 1060725
-0.045980949 0.20918095 0.68000001 2175342
-0.044817146 0.20979621 0.68200004 4280718
-0.0435181 0.20979621 0.68200004 5397086
-0.1067 0.21016666 0.67900002 4936524
-0.10494096 0.20923811 0.67600006 3622499
-0.10365334 0.20923811 0.67600006 2109260
-0.10221429 0.20892857 0.67500001 1585763
-0.10033047 0.20769048 0.671 1651556
-0.098904766 0.20738095 0.67000002 1716590
-0.097337149 0.20676193 0.66800004 1848176
-0.095920965 0.2064524 0.66700006 3424621
-0.094508573 0.20614286 0.66600001 4872067
-0.09324 0.20614286 0.66600001 5135731
-0.091695242 0.20552382 0.66400003 5925247
-0.090294287 0.20521431 0.66300005 6057092
-0.089031436 0.20521431 0.66300005 6057092
-0.087636195 0.20490478 0.66200006 6448770
-0.086375244 0.20490478 0.66200006 4869738
-0.084985711 0.20459524 0.66100001 4279921
-0.083726667 0.20459524 0.66100001 4477300
-0.082467623 0.20459524 0.66100001 2833763
-0.081208572 0.20459524 0.66100001 2702177
-0.079949521 0.20459524 0.66100001 3030890
-0.078690477 0.20459524 0.66100001 3688820
-0.077431425 0.20459524 0.66100001 4541291
-0.076172382 0.20459524 0.66100001 4607084
-0.074913338 0.20459524 0.66100001 3359327
-0.073654287 0.20459524 0.66100001 2964569
-0.072395235 0.20459524 0.66100001 2900330
-0.071136191 0.20459524 0.66100001 4018811
-0.069877148 0.20459524 0.66100001 5331839
-0.068618096 0.20459524 0.66100001 5595011
-0.067460962 0.20490478 0.66200006 5661077
-0.066300005 0.20521431 0.66300005 4542596
-0.065037146 0.20521431 0.66300005 2966887
-0.063870475 0.20552382 0.66400003 3427438
-0.062605716 0.20552382 0.66400003 4740472
-0.06152571 0.20614286 0.66600001 4214128
-0.060257144 0.20614286 0.66600001 4214377
-0.059077147 0.2064524 0.66700006 4345963
-0.058066666 0.20738095 0.67000002 3689065
-0.05687524 0.20769048 0.671 3952237
-0.055597141 0.20769048 0.671 3887724
-0.054400001 0.208 0.67200005 5203584
-0.053278096 0.20861904 0.67400002 5859970
-0.052071426 0.20892857 0.67500001 5004661
-0.050860956 0.20923811 0.67600006 3165047
-0.04972 0.20985715 0.67800003 1651808
-0.048571426 0.21047619 0.68000001 1521015
-0.047415242 0.21109524 0.68200004 1060464
-0.046116196 0.21109524 0.68200004 1978474
-0.044817146 0.21109524 0.68200004 4215436
-0.10494096 0.21052572 0.67600006 3886173
-0.10365334 0.21052572 0.67600006 2175555
-0.10221429 0.21021429 0.67500001 1651556
-0.10048001 0.20928001 0.67200005 1717349
-0.099052377 0.20896858 0.671 1979503
-0.097628571 0.20865715 0.67000002 2769019
-0.096064761 0.20803431 0.66800004 3360879
-0.094792388 0.20803431 0.66800004 4610946
-0.09324 0.20741142 0.66600001 5004402
-0.091971427 0.20741142 0.66600001 5991297
-0.090430476 0.20678857 0.66400003 5991542
-0.089031436 0.20647715 0.66300005 5399405
-0.087768577 0.20647715 0.66300005 5856881
-0.086505719 0.20647715 0.66300005 4804193
-0.085114293 0.20616573 0.66200006 4476530
-0.083853334 0.20616573 0.66200006 4739702
-0.082467623 0.20585428 0.66100001 4477806
-0.081208572 0.20585428 0.66100001 4609392
-0.079949521 0.20585428 0.66100001 5069170
-0.078690477 0.20585428 0.66100001 5332342
-0.077431425 0.20585428 0.66100001 5594742
-0.076172382 0.20585428 0.66100001 5989500
-0.074913338 0.20585428 0.66100001 5528949
-0.073654287 0.20585428 0.66100001 5265777
-0.072395235 0.20585428 0.66100001 5069183
-0.071136191 0.20585428 0.66100001 5266562
-0.069877148 0.20585428 0.66100001 5660295
-0.068721905 0.20616573 0.66200006 6976155
-0.067460962 0.20616573 0.66200006 6845070
-0.066300005 0.20647715 0.66300005 5463417
-0.065037146 0.20647715 0.66300005 4083830
-0.063870475 0.20678857 0.66400003 4018037
-0.062794283 0.20741142 0.66600001 4608881
-0.06152571 0.20741142 0.66600001 4279916
-0.060347624 0.20772287 0.66700006 4214126
-0.059077147 0.20772287 0.66700006 4279919
-0.058066666 0.20865715 0.67000002 4149105
-0.05687524 0.20896858 0.671 4346484
-0.055680003 0.20928001 0.67200005 4084343
-0.054400001 0.20928001 0.67200005 4150136
-0.053357143 0.21021429 0.67500001 4609152
-0.052071426 0.21021429 0.67500001 3951222
-0.050860956 0.21052572 0.67600006 3361906
-0.04972 0.21114857 0.67800003 2243425
-0.048571426 0.21177143 0.68000001 1652855
-0.047415242 0.2123943 0.68200004 1192304
-0.046116196 0.2123943 0.68200004 1716320
-0.044817146 0.2123943 0.68200004 4084868
-0.10847048 0.21369334 0.68200004 5462368
-0.10717143 0.21369334 0.68200004 5396575
-0.10494096 0.21181335 0.67600006 3885921
-0.10365334 0.21181335 0.67600006 2043717
-0.10221429 0.21149999 0.67500001 1519972
-0.10077905 0.21118666 0.67400002 1717351
-0.099052377 0.21024667 0.671 2111089
-0.097628571 0.20993334 0.67000002 2769019
-0.096352383 0.20993334 0.67000002 3294836
-0.094792388 0.20930669 0.66800004 4281731
-0.093380012 0.20899336 0.66700006 4348273
-0.091971427 0.20867999 0.66600001 5400961
-0.090702854 0.20867999 0.66600001 5793659
-0.089165725 0.20805334 0.66400003 5135729
-0.087900959 0.20805334 0.66400003 4740472
-0.086505719 0.20774001 0.66300005 4214128
-0.085114293 0.20742668 0.66200006 4541545
-0.083853334 0.20742668 0.66200006 4738924
-0.08259239 0.20742668 0.66200006 4412534
-0.081331439 0.20742668 0.66200006 4544120
-0.080070481 0.20742668 0.66200006 4938108
-0.078690477 0.20711334 0.66100001 5069694
-0.077431425 0.20711334 0.66100001 5595514
-0.076172382 0.20711334 0.66100001 5727100
-0.074913338 0.20711334 0.66100001 5529469
-0.073654287 0.20711334 0.66100001 5134711
-0.072395235 0.20711334 0.66100001 4938371
-0.071136191 0.20711334 0.66100001 5069957
-0.069877148 0.20711334 0.66100001 5528455
-0.068721905 0.20742668 0.66200006 6712729
-0.067562856 0.20774001 0.66300005 6516631
-0.066300005 0.20774001 0.66300005 5069185
-0.065037146 0.20774001 0.66300005 4806524
-0.063870475 0.20805334 0.66400003 4674938
-0.062794283 0.20867999 0.66600001 4280948
-0.061618101 0.20899336 0.66700006 4149362
-0.060347624 0.20899336 0.66700006 4345961
-0.059165716 0.20930669 0.66800004 4411754
-0.058153335 0.21024667 0.671 4412018
-0.05687524 0.21024667 0.671 4477811
-0.055680003 0.21056001 0.67200005 4215679
-0.054400001 0.21056001 0.67200005 4215679
-0.053357143 0.21149999 0.67500001 4412293
-0.052071426 0.21149999 0.67500001 3688570
-0.050860956 0.21181335 0.67600006 2770298
-0.04972 0.21244001 0.67800003 2046575
-0.048571426 0.21306667 0.68000001 1915257
-0.047415242 0.21369334 0.68200004 1191534
-0.046116196 0.21369334 0.68200004 1912681
-0.044817146 0.21369334 0.68200004 4149643
-0.10717143 0.2149924 0.68200004 5527659
-0.10587239 0.2149924 0.68200004 4083039
-0.10396 0.21373144 0.67800003 1846077
-0.10221429 0.21278572 0.67500001 1453929
-0.10077905 0.21247049 0.67400002 1717101
-0.099052377 0.21152475 0.671 1979499
-0.097628571 0.21120952 0.67000002 2571636
-0.096352383 0.21120952 0.67000002 3163502
-0.094792388 0.21057907 0.66800004 4018811
-0.093380012 0.21026383 0.66700006 4609903
-0.091971427 0.20994857 0.66600001 5333626
-0.090702854 0.20994857 0.66600001 5464678
-0.089434281 0.20994857 0.66600001 4346197
-0.087900959 0.2093181 0.66400003 3950972
-0.086505719 0.20900287 0.66300005 3753593
-0.08524286 0.20900287 0.66300005 3622502
-0.083980009 0.20900287 0.66300005 3885674
-0.08259239 0.20868763 0.66200006 4083060
-0.081331439 0.20868763 0.66200006 4017267
-0.080070481 0.20868763 0.66200006 3885951
-0.078690477 0.20837238 0.66100001 4214916
-0.077431425 0.20837238 0.66100001 4937081
-0.076172382 0.20837238 0.66100001 5068667
-0.074913338 0.20837238 0.66100001 5068669
-0.073654287 0.20837238 0.66100001 4937083
-0.072395235 0.20837238 0.66100001 4675204
-0.071243815 0.20868763 0.66200006 4740997
-0.069982864 0.20868763 0.66200006 5200517
-0.068721905 0.20868763 0.66200006 5266310
-0.067562856 0.20900287 0.66300005 5266314
-0.066399999 0.2093181 0.66400003 4871556
-0.065135241 0.2093181 0.66400003 4872065
-0.064062856 0.20994857 0.66600001 4872065
-0.062794283 0.20994857 0.66600001 4806265
-0.061618101 0.21026383 0.66700006 4608886
-0.060438097 0.21057907 0.66800004 4935779
-0.059342857 0.21120952 0.67000002 5067365
-0.058153335 0.21152475 0.671 4477806
-0.05687524 0.21152475 0.671 4477806
-0.055680003 0.21184002 0.67200005 4019073
-0.054400001 0.21184002 0.67200005 4150659
-0.053357143 0.21278572 0.67500001 4347274
-0.052148577 0.21310095 0.67600006 3360379
-0.050860956 0.21310095 0.67600006 2835328
-0.04972 0.21373144 0.67800003 1651054
-0.048571426 0.21436191 0.68000001 1258356
-0.047276188 0.21436191 0.68000001 929391
-0.046116196 0.2149924 0.68200004 1912177
-0.044817146 0.2149924 0.68200004 4083346
-0.10717143 0.21629144 0.68200004 5659497
-0.10587239 0.21629144 0.68200004 4214877
-0.10396 0.21502288 0.67800003 1912122
-0.10236572 0.21438858 0.67600006 1323102
-0.10092857 0.21407144 0.67500001 1520481
-0.099052377 0.21280286 0.671 1716842
-0.09777429 0.21280286 0.671 2045807
-0.096352383 0.21248572 0.67000002 2900330
-0.095076188 0.21248572 0.67000002 3558260
-0.093520008 0.21185145 0.66800004 3821421
-0.092109531 0.21153431 0.66700006 4413558
-0.090702854 0.21121714 0.66600001 5069168
-0.089434281 0.21121714 0.66600001 4542824
-0.088165708 0.21121714 0.66600001 4017017
-0.086636193 0.21058287 0.66400003 3885431
-0.08524286 0.21026573 0.66300005 3754606
-0.083980009 0.21026573 0.66300005 3886192
-0.082717143 0.21026573 0.66300005 4410485
-0.081454292 0.21026573 0.66300005 4410485
-0.080191433 0.21026573 0.66300005 4083060
-0.07880953 0.20994858 0.66200006 4477818
-0.077548578 0.20994858 0.66200006 5134458
-0.07628762 0.20994858 0.66200006 5134458
-0.075026676 0.20994858 0.66200006 5068931
-0.073765725 0.20994858 0.66200006 5068931
-0.072504766 0.20994858 0.66200006 4807303
-0.071351431 0.21026573 0.66300005 4873096
-0.070088573 0.21026573 0.66300005 5004171
-0.068825722 0.21026573 0.66300005 4806792
-0.067664765 0.21058287 0.66400003 4872074
-0.066399999 0.21058287 0.66400003 4806281
-0.065135241 0.21058287 0.66400003 5134210
-0.064062856 0.21121714 0.66600001 5265796
-0.062888578 0.21153431 0.66700006 5527416
-0.061710481 0.21185145 0.66800004 5330037
-0.060438097 0.21185145 0.66800004 5133160
-0.059342857 0.21248572 0.67000002 5198953
-0.058240004 0.21312001 0.67200005 4674928
-0.056960005 0.21312001 0.67200005 4543342
-0.055680003 0.21312001 0.67200005 4215938
-0.054561906 0.21375428 0.67400002 4150145
-0.053357143 0.21407144 0.67500001 4019336
-0.052148577 0.21438858 0.67600006 3427199
-0.051011432 0.21502288 0.67800003 2442621
-0.04972 0.21502288 0.67800003 1389933
-0.048571426 0.21565714 0.68000001 1258356
-0.047276188 0.21565714 0.68000001 929391
-0.045980949 0.21565714 0.68000001 1650275
-0.044685714 0.21565714 0.68000001 3953030
-0.10717143 0.2175905 0.68200004 5659997
-0.10587239 0.2175905 0.68200004 4936281
-0.10426667 0.21695238 0.68000001 2304561
-0.10266857 0.21631429 0.67800003 994137
-0.10092857 0.21535714 0.67500001 1388895
-0.099052377 0.21408096 0.671 1388136
-0.09777429 0.21408096 0.671 1453929
-0.096352383 0.21376191 0.67000002 1979503
-0.095076188 0.21376191 0.67000002 2769019
-0.093520008 0.21312381 0.66800004 3296113
-0.092109531 0.21280478 0.66700006 3690871
-0.090839051 0.21280478 0.66700006 4346995
-0.089434281 0.21248572 0.66600001 4215409
-0.088165708 0.21248572 0.66600001 4083839
-0.08689715 0.21248572 0.66600001 4083839
-0.085371435 0.21184763 0.66400003 4149886
-0.084106669 0.21184763 0.66400003 4149886
-0.082841903 0.21184763 0.66400003 4873336
-0.081577145 0.21184763 0.66400003 4939129
-0.080191433 0.21152858 0.66300005 4873600
-0.078928575 0.21152858 0.66300005 5005186
-0.077665716 0.21152858 0.66300005 5070464
-0.076402865 0.21152858 0.66300005 5070464
-0.075139999 0.21152858 0.66300005 5070216
-0.073877148 0.21152858 0.66300005 5004423
-0.07261429 0.21152858 0.66300005 5069964
-0.071351431 0.21152858 0.66300005 5201550
-0.070088573 0.21152858 0.66300005 4939150
-0.068929531 0.21184763 0.66400003 4544392
-0.067664765 0.21184763 0.66400003 4741260
-0.066600002 0.21248572 0.66600001 4675467
-0.065331429 0.21248572 0.66600001 5134724
-0.064062856 0.21248572 0.66600001 5990033
-0.062888578 0.21280478 0.66700006 6054762
-0.061710481 0.21312381 0.66800004 5396832
-0.060619049 0.21376191 0.67000002 5330539
-0.059342857 0.21376191 0.67000002 5198953
-0.058240004 0.21440001 0.67200005 4346995
-0.056960005 0.21440001 0.67200005 4346995
-0.055680003 0.21440001 0.67200005 4215938
-0.054561906 0.21503811 0.67400002 4215938
-0.053436194 0.2156762 0.67600006 4150920
-0.052148577 0.2156762 0.67600006 4019334
-0.051011432 0.21631429 0.67800003 3560055
-0.04972 0.21631429 0.67800003 2507367
-0.048571426 0.21695238 0.68000001 1849468
-0.047415242 0.2175905 0.68200004 1257331
-0.046116196 0.2175905 0.68200004 1650527
-0.10685714 0.21824762 0.68000001 5725790
-0.1055619 0.21824762 0.68000001 5068121
-0.10411333 0.21792668 0.67900002 2502194
-0.10266857 0.21760572 0.67800003 1191770
-0.10092857 0.21664286 0.67500001 1389149
-0.09949524 0.21632192 0.67400002 1519972
-0.09777429 0.21535905 0.671 1454179
-0.096352383 0.21503811 0.67000002 1716590
-0.095076188 0.21503811 0.67000002 2571899
-0.093520008 0.21439619 0.66800004 2967670
-0.092247628 0.21439619 0.66800004 3494014
-0.090839051 0.21407525 0.66700006 3887741
-0.089568578 0.21407525 0.66700006 3887741
-0.088165708 0.21375428 0.66600001 3887487
-0.08689715 0.21375428 0.66600001 3953280
-0.085371435 0.21311238 0.66400003 3822468
-0.084106669 0.21311238 0.66400003 3888261
-0.082841903 0.21311238 0.66400003 4545417
-0.081577145 0.21311238 0.66400003 4479624
-0.080312386 0.21311238 0.66400003 4545932
-0.078928575 0.21279144 0.66300005 4480139
-0.077665716 0.21279144 0.66300005 4808327
-0.076402865 0.21279144 0.66300005 4808327
-0.075139999 0.21279144 0.66300005 4808073
-0.073877148 0.21279144 0.66300005 4676487
-0.07261429 0.21279144 0.66300005 4282765
-0.071459055 0.21311238 0.66400003 4677523
-0.070194289 0.21311238 0.66400003 3824281
-0.068929531 0.21311238 0.66400003 3429523
-0.067868568 0.21375428 0.66600001 4085129
-0.066600002 0.21375428 0.66600001 4282508
-0.065331429 0.21375428 0.66600001 5068931
-0.064159051 0.21407525 0.66700006 5661068
-0.062888578 0.21407525 0.66700006 6120053
-0.061710481 0.21439619 0.66800004 5330537
-0.060619049 0.21503811 0.67000002 5198701
-0.059342857 0.21503811 0.67000002 5067115
-0.058240004 0.21568002 0.67200005 4280948
-0.056960005 0.21568002 0.67200005 4083569
-0.055845715 0.21632192 0.67400002 4019075
-0.054642856 0.21664286 0.67500001 4282247
-0.053436194 0.21696383 0.67600006 4282767
-0.052148577 0.21696383 0.67600006 4085388
-0.051011432 0.21760572 0.67800003 3954306
-0.049793333 0.21792668 0.67900002 2770032
-0.048714288 0.21888953 0.68200004 2310008
-0.047554284 0.21953143 0.68400002 1454699
-0.046251431 0.21953143 0.68400002 1716320
-0.10685714 0.21954286 0.68000001 5725790
-0.1055619 0.21954286 0.68000001 5068373
-0.10411333 0.21922 0.67900002 2831411
-0.10266857 0.21889715 0.67800003 1388386
-0.10092857 0.21792857 0.67500001 1519972
-0.09949524 0.21760572 0.67400002 1454179
-0.09777429 0.21663713 0.671 1454179
-0.096352383 0.21631429 0.67000002 1322609
-0.095076188 0.21631429 0.67000002 1914746
-0.093800001 0.21631429 0.67000002 2573173
-0.092247628 0.21566857 0.66800004 3296896
-0.090975247 0.21566857 0.66800004 3756918
