# .PCD v0.7 - Point Cloud Data file format
VERSION 0.7
FIELDS x y z rgba
SIZE 4 4 4 4
TYPE F F F U
COUNT 1 1 1 1
WIDTH 1123
HEIGHT 1
VIEWPOINT 0 0 0 1 0 0 0
POINTS 1123
DATA ascii
-0.058545712 0.20585428 0.66100001 6642245
-0.057286669 0.20585428 0.66100001 7233595
-0.055858098 0.20523144 0.65900004 7430974
-0.054520003 0.20492001 0.65800005 7364430
-0.053266671 0.20492001 0.65800005 7693395
-0.051934287 0.20460857 0.65700001 7497026
-0.050528575 0.20398572 0.65500003 3681032
-0.049280953 0.20398572 0.65500003 4008704
-0.047960002 0.2036743 0.65400004 8416831
-0.046714287 0.2036743 0.65400004 7826258
-0.045468576 0.2036743 0.65400004 6181433
-0.04415524 0.20336288 0.65300006 5590562
-0.042845711 0.20305143 0.65200001 5327390
-0.041603811 0.20305143 0.65200001 4668466
-0.040361904 0.20305143 0.65200001 3484192
-0.03912 0.20305143 0.65200001 4927784
-0.037878092 0.20305143 0.65200001 8349020
-0.036636192 0.20305143 0.65200001 7760469
-0.035285715 0.20242858 0.65000004 5523507
-0.034047622 0.20242858 0.65000004 4468497
-0.032910477 0.20305143 0.65200001 4929048
-0.03166857 0.20305143 0.65200001 4929085
-0.030473337 0.20336288 0.65300006 5850187
-0.029274289 0.2036743 0.65400004 5327675
-0.028028574 0.2036743 0.65400004 3880229
-0.026823809 0.20398572 0.65500003 4928065
-0.025576191 0.20398572 0.65500003 8086129
-0.024328573 0.20398572 0.65500003 7694407
-0.023151428 0.20460857 0.65700001 7365442
-0.0219 0.20460857 0.65700001 6773044
-0.020648571 0.20460857 0.65700001 6641458
-0.019426668 0.20492001 0.65800005 6772291
-0.018200954 0.20523144 0.65900004 6903877
-0.016997144 0.20585428 0.66100001 6641995
-0.015738094 0.20585428 0.66100001 7628890
-0.014500954 0.20616573 0.66200006 7760978
-0.013240001 0.20616573 0.66200006 7629392
-0.011997144 0.20647715 0.66300005 7892556
-0.010799048 0.20772287 0.66700006 7958349
-0.0095714284 0.20865715 0.67000002 7826512
-0.008295238 0.20865715 0.67000002 7431754
-0.0070295236 0.20896858 0.671 8153929
-0.0057600001 0.20928001 0.67200005 11904130
-0.0044800006 0.20928001 0.67200005 12694162
-0.0032000002 0.20928001 0.67200005 12562576
-0.064543813 0.21024667 0.671 7828061
-0.062888578 0.20899336 0.66700006 6644298
-0.06152571 0.20867999 0.66600001 6710091
-0.05998572 0.20774001 0.66300005 7299914
-0.058634292 0.20742668 0.66200006 7299914
-0.057286669 0.20711334 0.66100001 7496005
-0.055858098 0.20648669 0.65900004 7496005
-0.054520003 0.20617335 0.65800005 7101769
-0.053266671 0.20617335 0.65800005 7759699
-0.051934287 0.20586 0.65700001 7498055
-0.050528575 0.20523334 0.65500003 3813647
-0.049280953 0.20523334 0.65500003 3811840
-0.047960002 0.20492001 0.65400004 7627826
-0.046714287 0.20492001 0.65400004 7694672
-0.045468576 0.20492001 0.65400004 6115640
-0.04415524 0.20460668 0.65300006 4404741
-0.042911433 0.20460668 0.65300006 5523222
-0.041667622 0.20460668 0.65300006 5392418
-0.040361904 0.20429334 0.65200001 4668695
-0.03912 0.20429334 0.65200001 5323314
-0.037878092 0.20429334 0.65200001 8152413
-0.036636192 0.20429334 0.65200001 7891549
-0.035394285 0.20429334 0.65200001 5194036
-0.034152381 0.20429334 0.65200001 4534540
-0.032910477 0.20429334 0.65200001 4666126
-0.031717144 0.20460668 0.65300006 4404741
-0.030473337 0.20460668 0.65300006 5917980
-0.029274289 0.20492001 0.65400004 5788489
-0.028028574 0.20492001 0.65400004 5393731
-0.026823809 0.20523334 0.65500003 5916982
-0.025576191 0.20523334 0.65500003 7824979
-0.024328573 0.20523334 0.65500003 7563086
-0.023151428 0.20586 0.65700001 7299914
-0.0219 0.20586 0.65700001 6641971
-0.020680003 0.20617335 0.65800005 6576178
-0.019456191 0.20648669 0.65900004 6575667
-0.018200954 0.20648669 0.65900004 6970425
-0.016997144 0.20711334 0.66100001 6970433
-0.015738094 0.20711334 0.66100001 7825742
-0.014500954 0.20742668 0.66200006 7695703
-0.013240001 0.20742668 0.66200006 7629910
-0.012015239 0.20805334 0.66400003 7826512
-0.010815239 0.20930669 0.66800004 7958098
-0.0095714284 0.20993334 0.67000002 7958349
-0.008295238 0.20993334 0.67000002 7432005
-0.0070295236 0.21024667 0.671 7956565
-0.0057600001 0.21056001 0.67200005 12035731
-0.0044800006 0.21056001 0.67200005 12825748
-0.0032000002 0.21056001 0.67200005 12694162
-0.062794283 0.20994857 0.66600001 6446917
-0.06152571 0.20994857 0.66600001 6710089
-0.05998572 0.20900287 0.66300005 7169093
-0.058634292 0.20868763 0.66200006 7103300
-0.057286669 0.20837238 0.66100001 7365183
-0.056027621 0.20837238 0.66100001 7365183
-0.054602861 0.20774192 0.65900004 7299652
-0.053266671 0.20742668 0.65800005 7694410
-0.052013338 0.20742668 0.65800005 7300926
-0.050682854 0.20711142 0.65700001 4406034
-0.049280953 0.20648097 0.65500003 3747621
-0.048033334 0.20648097 0.65500003 6510927
-0.046714287 0.20616573 0.65400004 6642737
-0.045468576 0.20616573 0.65400004 5787428
-0.044222858 0.20616573 0.65400004 4731949
-0.042911433 0.2058505 0.65300006 5389879
-0.041667622 0.2058505 0.65300006 5193231
-0.040423814 0.2058505 0.65300006 4864266
-0.03912 0.20553523 0.65200001 5323827
-0.037878092 0.20553523 0.65200001 6968652
-0.036636192 0.20553523 0.65200001 6246964
-0.035394285 0.20553523 0.65200001 4996897
-0.034152381 0.20553523 0.65200001 6313247
-0.032960951 0.2058505 0.65300006 6642212
-0.031717144 0.2058505 0.65300006 6641971
-0.030520001 0.20616573 0.65400004 7299901
-0.029274289 0.20616573 0.65400004 7234382
-0.028028574 0.20616573 0.65400004 7168589
-0.026823809 0.20648097 0.65500003 6180669
-0.025654286 0.20711142 0.65700001 6378048
-0.024402859 0.20711142 0.65700001 6378044
-0.023151428 0.20711142 0.65700001 6180665
-0.0219 0.20711142 0.65700001 6773285
-0.020680003 0.20742668 0.65800005 7299629
-0.019456191 0.20774192 0.65900004 7168063
-0.018200954 0.20774192 0.65900004 7760200
-0.016997144 0.20837238 0.66100001 7694659
-0.015738094 0.20837238 0.66100001 7826245
-0.014500954 0.20868763 0.66200006 7826008
-0.013260001 0.20900287 0.66300005 8352352
-0.012051429 0.20994857 0.66600001 7826763
-0.010847619 0.21120952 0.67000002 7760970
-0.0095714284 0.21120952 0.67000002 7760719
-0.008295238 0.21120952 0.67000002 7431754
-0.0070295236 0.21152475 0.671 8022119
-0.0057600001 0.21184002 0.67200005 12232871
-0.0044800006 0.21184002 0.67200005 12694668
-0.0032000002 0.21184002 0.67200005 12694668
-0.062794283 0.21121714 0.66600001 6904894
-0.06152571 0.21121714 0.66600001 6904894
-0.05998572 0.21026573 0.66300005 7168315
-0.058634292 0.20994858 0.66200006 7365694
-0.057373337 0.20994858 0.66200006 7299914
-0.056027621 0.20963143 0.66100001 7299914
-0.054602861 0.20899715 0.65900004 7365445
-0.053347621 0.20899715 0.65900004 7562824
-0.052013338 0.20868 0.65800005 7300926
-0.050682854 0.20836286 0.65700001 5195550
-0.049431428 0.20836286 0.65700001 4665099
-0.048033334 0.20772858 0.65500003 6770475
-0.046714287 0.20741144 0.65400004 6313770
-0.045468576 0.20741144 0.65400004 5655840
-0.044222858 0.20741144 0.65400004 4731392
-0.042977147 0.20741144 0.65400004 4994564
-0.041731432 0.20741144 0.65400004 5059840
-0.040423814 0.2070943 0.65300006 5586176
-0.039180003 0.2070943 0.65300006 5325349
-0.037936196 0.2070943 0.65300006 5588521
-0.036692385 0.2070943 0.65300006 5324569
-0.035448574 0.2070943 0.65300006 6245671
-0.034204766 0.2070943 0.65300006 6904894
-0.032960951 0.2070943 0.65300006 6970687
-0.031765718 0.20741144 0.65400004 6904894
-0.030520001 0.20741144 0.65400004 6773308
-0.029274289 0.20741144 0.65400004 6707263
-0.028028574 0.20741144 0.65400004 6575677
-0.026823809 0.20772858 0.65500003 5851695
-0.025654286 0.20836286 0.65700001 6246453
-0.024402859 0.20836286 0.65700001 6181168
-0.023151428 0.20836286 0.65700001 6312754
-0.0219 0.20836286 0.65700001 7036207
-0.020680003 0.20868 0.65800005 7167793
-0.019456191 0.20899715 0.65900004 6840125
-0.018256191 0.20963143 0.66100001 7563848
-0.016997144 0.20963143 0.66100001 7825991
-0.015761906 0.20994858 0.66200006 7891784
-0.014500954 0.20994858 0.66200006 7825742
-0.013260001 0.21026573 0.66300005 8088914
-0.012069525 0.21153431 0.66700006 7761477
-0.010847619 0.21248572 0.67000002 7827270
-0.0095714284 0.21248572 0.67000002 7892305
-0.008295238 0.21248572 0.67000002 7431754
-0.0070295236 0.21280286 0.671 7891299
-0.0057600001 0.21312001 0.67200005 12036258
-0.0044800006 0.21312001 0.67200005 12167818
-0.062794283 0.21248572 0.66600001 6577751
-0.06152571 0.21248572 0.66600001 6182993
-0.05998572 0.21152858 0.66300005 6774081
-0.058634292 0.21120954 0.66200006 7168839
-0.057373337 0.21120954 0.66200006 7496016
-0.056027621 0.21089047 0.66100001 7430223
-0.05476857 0.21089047 0.66100001 7365445
-0.053347621 0.21025239 0.65900004 7431238
-0.052092385 0.21025239 0.65900004 7431737
-0.050760005 0.20993336 0.65800005 7365944
-0.049431428 0.20961429 0.65700001 6180940
-0.048033334 0.20897619 0.65500003 5325631
-0.046785716 0.20897619 0.65500003 6247213
-0.045538098 0.20897619 0.65500003 6641971
-0.044222858 0.20865715 0.65400004 6248483
-0.042977147 0.20865715 0.65400004 5985311
-0.041731432 0.20865715 0.65400004 6840075
-0.040485717 0.20865715 0.65400004 7366419
-0.039180003 0.20833811 0.65300006 6773308
-0.037936196 0.20833811 0.65300006 6575929
-0.036692385 0.20833811 0.65300006 6313530
-0.035448574 0.20833811 0.65300006 6774081
-0.034204766 0.20833811 0.65300006 6905141
-0.033011429 0.20865715 0.65400004 7497278
-0.031765718 0.20865715 0.65400004 6773056
-0.030520001 0.20865715 0.65400004 6444091
-0.029274289 0.20865715 0.65400004 6378277
-0.028028574 0.20865715 0.65400004 6378277
-0.026905714 0.20961429 0.65700001 6707764
-0.025654286 0.20961429 0.65700001 6773557
-0.024402859 0.20961429 0.65700001 6773056
-0.023151428 0.20961429 0.65700001 6838849
-0.021933336 0.20993336 0.65800005 7233595
-0.020711429 0.21025239 0.65900004 7233595
-0.019515239 0.21089047 0.66100001 7299647
-0.018256191 0.21089047 0.66100001 8023370
-0.016997144 0.21089047 0.66100001 7891784
-0.015761906 0.21120954 0.66200006 7628612
-0.014522858 0.21152858 0.66300005 7825975
-0.013280001 0.21184763 0.66400003 8154940
-0.012087619 0.21312381 0.66800004 7892538
-0.010863809 0.21408096 0.671 8089917
-0.0095714284 0.21376191 0.67000002 7827028
-0.008295238 0.21376191 0.67000002 7366477
-0.0070295236 0.21408096 0.671 7891549
-0.0057600001 0.21440001 0.67200005 12233887
-0.0044800006 0.21440001 0.67200005 12563341
-0.062888578 0.21407525 0.66700006 7433816
-0.06152571 0.21375428 0.66600001 6249542
-0.060076192 0.21311238 0.66400003 6970433
-0.058722861 0.21279144 0.66300005 7365191
-0.057373337 0.2124705 0.66200006 7496014
-0.056112386 0.2124705 0.66200006 7496014
-0.05476857 0.21214953 0.66100001 7561792
-0.053347621 0.21150762 0.65900004 7561792
-0.052092385 0.21150762 0.65900004 7365942
-0.050760005 0.21118668 0.65800005 7431735
-0.049431428 0.21086571 0.65700001 7364680
-0.048179999 0.21086571 0.65700001 6904129
-0.046785716 0.21022382 0.65500003 6247213
-0.045538098 0.21022382 0.65500003 7036729
-0.044222858 0.20990287 0.65400004 6774845
-0.042977147 0.20990287 0.65400004 6511673
-0.041731432 0.20990287 0.65400004 6774330
-0.040485717 0.20990287 0.65400004 6971709
-0.039240003 0.20990287 0.65400004 6576704
-0.037994288 0.20990287 0.65400004 6379325
-0.036748573 0.20990287 0.65400004 6247737
-0.035448574 0.20958193 0.65300006 6181944
-0.034204766 0.20958193 0.65300006 6049582
-0.033011429 0.20990287 0.65400004 6839098
-0.031765718 0.20990287 0.65400004 6773308
-0.030520001 0.20990287 0.65400004 6510136
-0.029274289 0.20990287 0.65400004 6048029
-0.02807143 0.21022382 0.65500003 6771752
-0.026905714 0.21086571 0.65700001 6970174
-0.025654286 0.21086571 0.65700001 6970174
-0.024402859 0.21086571 0.65700001 6839096
-0.023186669 0.21118668 0.65800005 6970682
-0.021966668 0.21150762 0.65900004 7365183
-0.020711429 0.21150762 0.65900004 7430976
-0.019515239 0.21214953 0.66100001 7759692
-0.018256191 0.21214953 0.66100001 7628106
-0.017022859 0.2124705 0.66200006 7628106
-0.015761906 0.2124705 0.66200006 7430727
-0.014522858 0.21279144 0.66300005 7430725
-0.013280001 0.21311238 0.66400003 7628104
-0.012087619 0.21439619 0.66800004 7629105
-0.010863809 0.21535905 0.671 7958070
-0.0095857149 0.21535905 0.671 7695185
-0.0083076181 0.21535905 0.671 7300427
-0.0070400005 0.21568002 0.67200005 7826008
-0.0057600001 0.21568002 0.67200005 12299932
-0.062888578 0.21534573 0.66700006 7697502
-0.061618101 0.21534573 0.66700006 6842193
-0.060257144 0.21502286 0.66600001 6839624
-0.05881143 0.21437715 0.66400003 7037003
-0.057460003 0.2140543 0.66300005 7364680
-0.056112386 0.21373144 0.66200006 7364680
-0.05476857 0.21340857 0.66100001 7364932
-0.053509526 0.21340857 0.66100001 7364932
-0.052092385 0.21276288 0.65900004 7365433
-0.050760005 0.21244001 0.65800005 7431226
-0.049431428 0.21211715 0.65700001 7299388
-0.048033334 0.21147144 0.65500003 7496767
-0.046785716 0.21147144 0.65500003 7364943
-0.045538098 0.21147144 0.65500003 7299150
-0.044290476 0.21147144 0.65500003 6774845
-0.042977147 0.21114857 0.65400004 6051122
-0.041731432 0.21114857 0.65400004 6116412
-0.040485717 0.21114857 0.65400004 6182205
-0.039240003 0.21114857 0.65400004 6247991
-0.037994288 0.21114857 0.65400004 6182198
-0.036748573 0.21114857 0.65400004 6050352
-0.035502858 0.21114857 0.65400004 6116145
-0.034257144 0.21114857 0.65400004 6312267
-0.033011429 0.21114857 0.65400004 6838611
-0.031765718 0.21114857 0.65400004 6838336
-0.030520001 0.21114857 0.65400004 7101508
-0.029274289 0.21114857 0.65400004 6839101
-0.02807143 0.21147144 0.65500003 6707515
-0.026905714 0.21211715 0.65700001 6838595
-0.025654286 0.21211715 0.65700001 7035974
-0.024440002 0.21244001 0.65800005 7102522
-0.023186669 0.21244001 0.65800005 7299901
-0.021966668 0.21276288 0.65900004 6839096
-0.020774284 0.21340857 0.66100001 6773303
-0.019515239 0.21340857 0.66100001 6377785
-0.018256191 0.21340857 0.66100001 6246199
-0.017022859 0.21373144 0.66200006 6115107
-0.015761906 0.21373144 0.66200006 5983521
-0.014522858 0.2140543 0.66300005 6114104
-0.013280001 0.21437715 0.66400003 6311483
-0.012087619 0.21566857 0.66800004 6246964
-0.010863809 0.21663713 0.671 8023375
-0.0096000005 0.21696001 0.67200005 7695185
-0.008320001 0.21696001 0.67200005 7234634
-0.007060953 0.21760572 0.67400002 7825492
-0.005828571 0.21954286 0.68000001 12431002
-0.0045333337 0.21954286 0.68000001 12628882
-0.063548572 0.21888953 0.67400002 7960158
-0.061710481 0.21694095 0.66800004 6644298
-0.060257144 0.21629143 0.66600001 6774845
-0.05881143 0.21564192 0.66400003 7038017
-0.057546668 0.21564192 0.66400003 7364932
-0.056197144 0.21531716 0.66300005 7430725
-0.054851435 0.2149924 0.66200006 7430473
-0.053509526 0.21466762 0.66100001 7430473
-0.052092385 0.21401811 0.65900004 7365433
-0.050760005 0.21369335 0.65800005 7431226
-0.049431428 0.21336856 0.65700001 7299388
-0.048033334 0.21271905 0.65500003 7759939
-0.046785716 0.21271905 0.65500003 7628883
-0.045538098 0.21271905 0.65500003 7563090
-0.044290476 0.21271905 0.65500003 6774851
-0.043042861 0.21271905 0.65500003 5985335
-0.041731432 0.2123943 0.65400004 5657396
-0.040485717 0.2123943 0.65400004 5788982
-0.039240003 0.2123943 0.65400004 6314043
-0.037994288 0.2123943 0.65400004 6182457
-0.036748573 0.2123943 0.65400004 6115892
-0.035502858 0.2123943 0.65400004 6181685
-0.034257144 0.2123943 0.65400004 6904131
-0.033011429 0.2123943 0.65400004 6969924
-0.031765718 0.2123943 0.65400004 6509354
-0.030566668 0.21271905 0.65500003 7167284
-0.02931905 0.21271905 0.65500003 6970433
-0.02807143 0.21271905 0.65500003 7036226
-0.026905714 0.21336856 0.65700001 7364943
-0.025693335 0.21369335 0.65800005 7496529
-0.024440002 0.21369335 0.65800005 7300674
-0.023186669 0.21369335 0.65800005 6774330
-0.021966668 0.21401811 0.65900004 6708014
-0.020774284 0.21466762 0.66100001 6247463
-0.019515239 0.21466762 0.66100001 6180398
-0.01828381 0.2149924 0.66200006 5259296
-0.017022859 0.2149924 0.66200006 5586451
-0.015761906 0.2149924 0.66200006 5783830
-0.014522858 0.21531716 0.66300005 5653282
-0.013280001 0.21564192 0.66400003 5324317
-0.012087619 0.21694095 0.66800004 6181143
-0.010863809 0.21791524 0.671 7957554
-0.0096000005 0.21824002 0.67200005 7563848
-0.008320001 0.21824002 0.67200005 7234883
-0.007060953 0.21888953 0.67400002 7759188
-0.0058200001 0.22051333 0.67900002 12298905
-0.0045266668 0.22051333 0.67900002 12233110
-0.063360006 0.21952002 0.67200005 8026469
-0.061895236 0.21886668 0.67000002 6184265
-0.060257144 0.21756001 0.66600001 6773809
-0.058988571 0.21756001 0.66600001 7168567
-0.057546668 0.21690668 0.66400003 7168328
-0.056197144 0.21658 0.66300005 7563086
-0.054851435 0.21625336 0.66200006 7628113
-0.053509526 0.21592668 0.66100001 7430734
-0.052250478 0.21592668 0.66100001 7365440
-0.050837144 0.21527335 0.65900004 7365440
-0.049581908 0.21527335 0.65900004 7497021
-0.048253335 0.21494667 0.65800005 7562814
-0.046785716 0.21396667 0.65500003 7562562
-0.045538098 0.21396667 0.65500003 7628355
-0.044290476 0.21396667 0.65500003 7037255
-0.043042861 0.21396667 0.65500003 7037255
-0.041795239 0.21396667 0.65500003 6708810
-0.040485717 0.21364002 0.65400004 6445638
-0.039240003 0.21364002 0.65400004 6576711
-0.037994288 0.21364002 0.65400004 6576711
-0.036748573 0.21364002 0.65400004 6510911
-0.035502858 0.21364002 0.65400004 6576704
-0.034257144 0.21364002 0.65400004 6970682
-0.033011429 0.21364002 0.65400004 7102268
-0.031814288 0.21396667 0.65500003 6905918
-0.030566668 0.21396667 0.65500003 7169090
-0.02931905 0.21396667 0.65500003 7038277
-0.02807143 0.21396667 0.65500003 7038277
-0.026946669 0.21494667 0.65800005 7234652
-0.025693335 0.21494667 0.65800005 7234652
-0.024440002 0.21494667 0.65800005 6971436
-0.023221906 0.21527335 0.65900004 6445092
-0.022033334 0.21592668 0.66100001 6378531
-0.020805717 0.21625336 0.66200006 5589015
-0.019544763 0.21625336 0.66200006 5454387
-0.01828381 0.21625336 0.66200006 5322801
-0.017048571 0.21658 0.66300005 5454882
-0.015785715 0.21658 0.66300005 5783847
-0.014544763 0.21690668 0.66400003 5587489
-0.01332 0.21756001 0.66600001 5126938
-0.012087619 0.21821333 0.66800004 5324329
-0.010847619 0.21886668 0.67000002 7956049
-0.0096000005 0.21952002 0.67200005 7432766
-0.008344762 0.22017334 0.67400002 7498559
-0.0070819054 0.22082669 0.67600006 8088155
-0.0058200001 0.22180666 0.67900002 12167321
-0.0045266668 0.22180666 0.67900002 12167319
-0.063360006 0.22080001 0.67200005 8946281
-0.061987616 0.22047143 0.671 6314561
-0.060438097 0.21948573 0.66800004 6774041
-0.058988571 0.21882857 0.66600001 7234592
-0.057546668 0.21817145 0.66400003 7102019
-0.056197144 0.21784288 0.66300005 7562570
-0.054934289 0.21784288 0.66300005 7366220
-0.05359048 0.21751429 0.66200006 7300427
-0.052250478 0.21718571 0.66100001 7431233
-0.050991427 0.21718571 0.66100001 7497026
-0.049581908 0.21652858 0.65900004 7497278
-0.048326671 0.21652858 0.65900004 7563071
-0.046928573 0.21587144 0.65700001 7431500
-0.04567714 0.21587144 0.65700001 7431500
-0.044290476 0.21521428 0.65500003 7365707
-0.043042861 0.21521428 0.65500003 7431500
-0.041795239 0.21521428 0.65500003 7234641
-0.040547621 0.21521428 0.65500003 6905676
-0.039300002 0.21521428 0.65500003 6576963
-0.038052384 0.21521428 0.65500003 6576963
-0.036804762 0.21521428 0.65500003 6773056
-0.035557143 0.21521428 0.65500003 6904642
-0.034309525 0.21521428 0.65500003 6774081
-0.033061903 0.21521428 0.65500003 7037253
-0.031814288 0.21521428 0.65500003 6644802
-0.030566668 0.21521428 0.65500003 6973767
-0.02931905 0.21521428 0.65500003 7039308
-0.02807143 0.21521428 0.65500003 6841929
-0.026946669 0.21620002 0.65800005 7103316
-0.025693335 0.21620002 0.65800005 6511179
-0.024477145 0.21652858 0.65900004 6313770
-0.023221906 0.21652858 0.65900004 6313770
-0.022033334 0.21718571 0.66100001 5983782
-0.020805717 0.21751429 0.66200006 5523231
-0.019544763 0.21751429 0.66200006 5651491
-0.01828381 0.21751429 0.66200006 5322526
-0.017048571 0.21784288 0.66300005 5322009
-0.015785715 0.21784288 0.66300005 5585181
-0.014544763 0.21817145 0.66400003 5125398
-0.013280001 0.21817145 0.66400003 4664847
-0.012051429 0.21882857 0.66600001 5257738
-0.010782857 0.21882857 0.66600001 7955251
-0.0096285716 0.22145715 0.67400002 7497278
-0.008357143 0.22178571 0.67500001 6970934
-0.0070819054 0.22211429 0.67600006 8416355
-0.0058200001 0.22310001 0.67900002 12363935
-0.0045266668 0.22310001 0.67900002 12102028
-0.063265711 0.22174953 0.671 9538912
-0.061987616 0.22174953 0.671 5920297
-0.060438097 0.22075811 0.66800004 6445576
-0.059077147 0.22042763 0.66700006 7169299
-0.057719998 0.22009714 0.66600001 6971462
-0.056281909 0.2194362 0.66400003 7366220
-0.055017143 0.2194362 0.66400003 7300674
-0.053671431 0.21910574 0.66300005 7169088
-0.052329529 0.21877526 0.66200006 7365440
-0.050991427 0.21844476 0.66100001 7365440
-0.049732383 0.21844476 0.66100001 7431737
-0.048326671 0.21778382 0.65900004 7694909
-0.046928573 0.21712285 0.65700001 7431761
-0.04567714 0.21712285 0.65700001 7234382
-0.044290476 0.21646191 0.65500003 7299914
-0.043042861 0.21646191 0.65500003 7365707
-0.041795239 0.21646191 0.65500003 7234382
-0.040547621 0.21646191 0.65500003 7168589
-0.039300002 0.21646191 0.65500003 6840394
-0.038052384 0.21646191 0.65500003 6906187
-0.036804762 0.21646191 0.65500003 7299148
-0.035557143 0.21646191 0.65500003 7693906
-0.034309525 0.21646191 0.65500003 7234108
-0.033061903 0.21646191 0.65500003 7234108
-0.031814288 0.21646191 0.65500003 6971971
-0.030566668 0.21646191 0.65500003 7300936
-0.02931905 0.21646191 0.65500003 7301691
-0.028157143 0.21712285 0.65700001 7104312
-0.02698762 0.21778382 0.65900004 7168328
-0.025732381 0.21778382 0.65900004 5852468
-0.024477145 0.21778382 0.65900004 5456165
-0.023292381 0.21844476 0.66100001 5653544
-0.022033334 0.21844476 0.66100001 5126425
-0.020805717 0.21877526 0.66200006 4665874
-0.019544763 0.21877526 0.66200006 4731159
-0.01828381 0.21877526 0.66200006 4731159
-0.017048571 0.21910574 0.66300005 5125151
-0.015785715 0.21910574 0.66300005 5322530
-0.014544763 0.2194362 0.66400003 4928787
-0.013280001 0.2194362 0.66400003 4468236
-0.012051429 0.22009714 0.66600001 4928787
-0.010782857 0.22009714 0.66600001 7626300
-0.0096428571 0.22307143 0.67500001 7102270
-0.008369525 0.22340192 0.67600006 6839098
-0.0070819054 0.22340192 0.67600006 8023398
-0.0058200001 0.22439334 0.67900002 12563115
-0.0045266668 0.22439334 0.67900002 12300683
-0.063265711 0.22302762 0.671 9342581
-0.061987616 0.22302762 0.671 5921345
-0.060438097 0.22203049 0.66800004 6511401
-0.059077147 0.22169811 0.66700006 6971952
-0.057719998 0.22136572 0.66600001 6905669
-0.056281909 0.22070096 0.66400003 7168841
-0.055017143 0.22070096 0.66400003 7103300
-0.053671431 0.22036859 0.66300005 7037507
-0.052329529 0.22003621 0.66200006 7037756
-0.050991427 0.21970382 0.66100001 7037756
-0.049732383 0.21970382 0.66100001 7037231
-0.048326671 0.21903905 0.65900004 7234610
-0.047071431 0.21903905 0.65900004 7234634
-0.04567714 0.21837428 0.65700001 7234634
-0.044425715 0.21837428 0.65700001 7496518
-0.043042861 0.21770954 0.65500003 7628104
-0.041795239 0.21770954 0.65500003 7299914
-0.040547621 0.21770954 0.65500003 7168328
-0.039300002 0.21770954 0.65500003 6972232
-0.038052384 0.21770954 0.65500003 6906439
-0.036804762 0.21770954 0.65500003 7103048
-0.035557143 0.21770954 0.65500003 7366220
-0.034309525 0.21770954 0.65500003 7234108
-0.033061903 0.21770954 0.65500003 7036729
-0.031814288 0.21770954 0.65500003 6840125
-0.030566668 0.21770954 0.65500003 7234883
-0.02931905 0.21770954 0.65500003 7300676
-0.028157143 0.21837428 0.65700001 7234883
-0.02698762 0.21903905 0.65900004 6904917
-0.025732381 0.21903905 0.65900004 5260092
-0.024477145 0.21903905 0.65900004 5520908
-0.023292381 0.21970382 0.66100001 5191943
-0.022033334 0.21970382 0.66100001 4469251
-0.020805717 0.22003621 0.66200006 4271872
-0.019544763 0.22003621 0.66200006 4337415
-0.01831143 0.22036859 0.66300005 4797966
-0.017048571 0.22036859 0.66300005 4928787
-0.015809525 0.22070096 0.66400003 4862994
-0.014544763 0.22070096 0.66400003 4928787
-0.013280001 0.22070096 0.66400003 4534029
-0.012051429 0.22136572 0.66600001 4928540
-0.010782857 0.22136572 0.66600001 7494467
-0.0096428571 0.22435714 0.67500001 7036226
-0.008369525 0.22468954 0.67600006 6904640
-0.0071028573 0.2253543 0.67800003 7957342
-0.0058200001 0.22568667 0.67900002 12431266
-0.0045266668 0.22568667 0.67900002 12169356
-0.063265711 0.2243057 0.671 9802103
-0.061987616 0.2243057 0.671 6446660
-0.060347624 0.22296859 0.66700006 6642756
-0.059077147 0.22296859 0.66700006 6971721
-0.057719998 0.22263429 0.66600001 6905417
-0.056281909 0.22196572 0.66400003 6971210
-0.055017143 0.22196572 0.66400003 6971462
-0.053671431 0.22163144 0.66300005 6971462
-0.052408572 0.22163144 0.66300005 7037756
-0.051068578 0.22129716 0.66200006 6906170
-0.049732383 0.22096285 0.66100001 6774827
-0.048326671 0.2202943 0.65900004 6774827
-0.047071431 0.2202943 0.65900004 6971711
-0.04567714 0.21962571 0.65700001 7103297
-0.044425715 0.21962571 0.65700001 7103295
-0.043042861 0.21895716 0.65500003 7103295
-0.041795239 0.21895716 0.65500003 7038277
-0.040547621 0.21895716 0.65500003 7038277
-0.039300002 0.21895716 0.65500003 7037507
-0.038052384 0.21895716 0.65500003 6840128
-0.036804762 0.21895716 0.65500003 7168315
-0.035557143 0.21895716 0.65500003 7299901
-0.034309525 0.21895716 0.65500003 7168817
-0.033061903 0.21895716 0.65500003 6971438
-0.031814288 0.21895716 0.65500003 6709058
-0.03066 0.21962571 0.65700001 6774851
-0.02940857 0.21962571 0.65700001 7036727
-0.028157143 0.21962571 0.65700001 6444590
-0.026946669 0.21996002 0.65800005 6049106
-0.025732381 0.2202943 0.65900004 4930625
-0.024551429 0.22096285 0.66100001 4007447
-0.023292381 0.22096285 0.66100001 4139033
-0.022033334 0.22096285 0.66100001 4138496
-0.020805717 0.22129716 0.66200006 4467461
-0.019544763 0.22129716 0.66200006 4600333
-0.01831143 0.22163144 0.66300005 5192470
-0.017074287 0.22196572 0.66400003 5127179
-0.015809525 0.22196572 0.66400003 4600835
-0.014544763 0.22196572 0.66400003 4731175
-0.01332 0.22263429 0.66600001 4862761
-0.012069525 0.22296859 0.66700006 5060385
-0.010799048 0.22296859 0.66700006 7297347
-0.0096285716 0.22530857 0.67400002 6839374
-0.008344762 0.22530857 0.67400002 6970960
-0.0070819054 0.22597715 0.67600006 8089691
-0.0058114287 0.22664572 0.67800003 12300443
-0.0045200004 0.22664572 0.67800003 12103563
-0.063265711 0.22558381 0.671 10130555
-0.061987616 0.22558381 0.671 6643526
-0.060347624 0.22423907 0.66700006 6315837
-0.059077147 0.22423907 0.66700006 6447423
-0.057719998 0.22390287 0.66600001 6380087
-0.056281909 0.22323048 0.66400003 6906431
-0.055017143 0.22323048 0.66400003 6906431
-0.053752381 0.22323048 0.66400003 6906431
-0.052408572 0.2228943 0.66300005 6906431
-0.051068578 0.22255811 0.66200006 6972224
-0.049732383 0.22222191 0.66100001 6840375
-0.048473332 0.22222191 0.66100001 6642996
-0.047071431 0.22154954 0.65900004 6576956
-0.045816191 0.22154954 0.65900004 6971714
-0.044493336 0.22121334 0.65800005 6381368
-0.043174285 0.22087714 0.65700001 6512954
-0.041922856 0.22087714 0.65700001 6710079
-0.040671431 0.22087714 0.65700001 6381114
-0.039419997 0.22087714 0.65700001 6511160
-0.038168572 0.22087714 0.65700001 6576953
-0.036804762 0.22020477 0.65500003 6642744
-0.035557143 0.22020477 0.65500003 6642744
-0.034309525 0.22020477 0.65500003 6774575
-0.033061903 0.22020477 0.65500003 6840368
-0.031814288 0.22020477 0.65500003 6708799
-0.03066 0.22087714 0.65700001 6708799
-0.02940857 0.22087714 0.65700001 7036477
-0.028200002 0.22121334 0.65800005 5457445
-0.026946669 0.22121334 0.65800005 5586988
-0.025810476 0.22222191 0.66100001 4797472
-0.024551429 0.22222191 0.66100001 4138496
-0.023292381 0.22222191 0.66100001 4270082
-0.022066668 0.22255811 0.66200006 4205056
-0.020805717 0.22255811 0.66200006 4928771
-0.019574286 0.2228943 0.66300005 5061908
-0.018339047 0.22323048 0.66400003 5127701
-0.017125715 0.22390287 0.66600001 5258526
-0.015857141 0.22390287 0.66600001 4271631
-0.014588571 0.22390287 0.66600001 3942657
-0.01332 0.22390287 0.66600001 4403208
-0.012087619 0.22457525 0.66800004 5061404
-0.010863809 0.22558381 0.671 7298366
-0.0096285716 0.22659239 0.67400002 6708292
-0.008344762 0.22659239 0.67400002 6774085
-0.0070819054 0.22726478 0.67600006 8353117
-0.0058114287 0.22793716 0.67800003 12234904
-0.0045200004 0.22793716 0.67800003 11971979
-0.061987616 0.22686191 0.671 6972491
-0.060438097 0.22584763 0.66800004 6446921
-0.059077147 0.22550954 0.66700006 6381128
-0.057719998 0.22517143 0.66600001 6314043
-0.056451429 0.22517143 0.66600001 6774594
-0.055017143 0.22449525 0.66400003 6840634
-0.053752381 0.22449525 0.66400003 7038013
-0.052487623 0.22449525 0.66400003 7037756
-0.051068578 0.22381906 0.66200006 6971963
-0.049732383 0.22348095 0.66100001 6576956
-0.048473332 0.22348095 0.66100001 6379577
-0.047214285 0.22348095 0.66100001 6773308
-0.045816191 0.22280477 0.65900004 7168066
-0.044493336 0.22246668 0.65800005 6840634
-0.043240003 0.22246668 0.65800005 6774841
-0.041922856 0.22212857 0.65700001 6775095
-0.040671431 0.22212857 0.65700001 6380337
-0.039419997 0.22212857 0.65700001 6576704
-0.038168572 0.22212857 0.65700001 6576704
-0.036917143 0.22212857 0.65700001 6576956
-0.035665717 0.22212857 0.65700001 6642749
-0.034414288 0.22212857 0.65700001 6774575
-0.033162855 0.22212857 0.65700001 6906161
-0.031911429 0.22212857 0.65700001 6379582
-0.03066 0.22212857 0.65700001 6182203
-0.029453335 0.22246668 0.65800005 6379574
-0.028200002 0.22246668 0.65800005 5129507
-0.026946669 0.22246668 0.65800005 4336911
-0.025810476 0.22348095 0.66100001 4205325
-0.024551429 0.22348095 0.66100001 4337441
-0.023327621 0.22381906 0.66200006 5455922
-0.022066668 0.22381906 0.66200006 6182400
-0.020837145 0.22415715 0.66300005 6971913
-0.019574286 0.22415715 0.66300005 6708012
-0.018339047 0.22449525 0.66400003 5984289
-0.017125715 0.22517143 0.66600001 5523990
-0.015880954 0.22550954 0.66700006 3418624
-0.014610478 0.22550954 0.66700006 3548419
-0.01336 0.22584763 0.66800004 4140556
-0.01212381 0.22652382 0.67000002 5194790
-0.010863809 0.22686191 0.671 7563338
-0.0096000005 0.22720002 0.67200005 6906439
-0.008344762 0.22787619 0.67400002 6445888
-0.0070714285 0.22821428 0.67500001 8419419
-0.0058114287 0.22922859 0.67800003 12235413
-0.0045200004 0.22922859 0.67800003 12168848
-0.060438097 0.22712001 0.66800004 6841677
-0.059165716 0.22712001 0.66800004 6315333
-0.057806671 0.22678001 0.66700006 6051120
-0.056451429 0.22644001 0.66600001 6774843
-0.055182859 0.22644001 0.66600001 6774845
-0.053752381 0.22576001 0.66400003 6972224
-0.052487623 0.22576001 0.66400003 6906427
-0.051068578 0.22508001 0.66200006 6511669
-0.049807623 0.22508001 0.66200006 6312752
-0.048473332 0.22474 0.66100001 6444338
-0.047214285 0.22474 0.66100001 6509630
-0.045816191 0.22406001 0.65900004 7167560
-0.044560954 0.22406001 0.65900004 6971980
-0.043240003 0.22372001 0.65800005 6840394
-0.041986667 0.22372001 0.65800005 6905667
-0.040733337 0.22372001 0.65800005 6708288
-0.039480001 0.22372001 0.65800005 6773833
-0.038226672 0.22372001 0.65800005 6576454
-0.036917143 0.22338 0.65700001 6444866
-0.035665717 0.22338 0.65700001 6510659
-0.034414288 0.22338 0.65700001 6577205
-0.033162855 0.22338 0.65700001 6577205
-0.031911429 0.22338 0.65700001 5855022
-0.03070667 0.22372001 0.65800005 5986608
-0.029453335 0.22372001 0.65800005 6313779
-0.028200002 0.22372001 0.65800005 4932126
-0.02698762 0.22406001 0.65900004 4402432
-0.025810476 0.22474 0.66100001 4336640
-0.024588574 0.22508001 0.66200006 4009477
-0.023327621 0.22508001 0.66200006 6180646
-0.022066668 0.22508001 0.66200006 6183210
-0.020837145 0.22542001 0.66300005 6709554
-0.019603811 0.22576001 0.66400003 6773833
-0.018339047 0.22576001 0.66400003 6313282
-0.017125715 0.22644001 0.66600001 5262636
-0.015880954 0.22678001 0.66700006 2828295
-0.014632382 0.22712001 0.66800004 2956288
-0.01336 0.22712001 0.66800004 4403728
-0.01212381 0.2278 0.67000002 5721136
-0.010863809 0.22814 0.671 7234375
-0.0096000005 0.22848003 0.67200005 6840638
-0.008344762 0.22916001 0.67400002 6643259
-0.0070714285 0.22950001 0.67500001 8747875
-0.0057857144 0.22950001 0.67500001 12169111
-0.061895236 0.22907619 0.67000002 7564376
-0.060619049 0.22907619 0.67000002 6446669
-0.059342857 0.22907619 0.67000002 6644048
-0.057806671 0.22805049 0.66700006 6182993
-0.056451429 0.22770858 0.66600001 6709337
-0.055182859 0.22770858 0.66600001 6971462
-0.053752381 0.22702476 0.66400003 6971462
-0.052487623 0.22702476 0.66400003 7102772
-0.051068578 0.22634096 0.66200006 6510635
-0.049807623 0.22634096 0.66200006 6116662
-0.048473332 0.22599906 0.66100001 4735009
-0.047214285 0.22599906 0.66100001 5127729
-0.045816191 0.22531524 0.65900004 5325108
-0.044560954 0.22531524 0.65900004 5524018
-0.043305717 0.22531524 0.65900004 5655604
-0.041986667 0.22497335 0.65800005 5590318
-0.040733337 0.22497335 0.65800005 5787697
-0.039480001 0.22497335 0.65800005 5721906
-0.038226672 0.22497335 0.65800005 5590320
-0.036973335 0.22497335 0.65800005 5064246
-0.035720002 0.22497335 0.65800005 4866867
-0.034466669 0.22497335 0.65800005 5261119
-0.033213336 0.22497335 0.65800005 6182221
-0.031960003 0.22497335 0.65800005 6051120
-0.03070667 0.22497335 0.65800005 6051120
-0.029453335 0.22497335 0.65800005 6313774
-0.02824286 0.22531524 0.65900004 5063707
-0.02698762 0.22531524 0.65900004 5325349
-0.025810476 0.22599906 0.66100001 5851693
-0.024588574 0.22634096 0.66200006 5656614
-0.023327621 0.22634096 0.66200006 6248751
-0.022100002 0.22668287 0.66300005 6313770
-0.020868571 0.22702476 0.66400003 6708528
-0.019603811 0.22702476 0.66400003 6576972
-0.018339047 0.22702476 0.66400003 6313800
-0.017151428 0.22805049 0.66700006 5589811
-0.015880954 0.22805049 0.66700006 4142365
-0.014632382 0.22839239 0.66800004 4077832
-0.01336 0.22839239 0.66800004 5920036
-0.01212381 0.22907619 0.67000002 5854282
-0.010863809 0.2294181 0.671 6709591
-0.0096000005 0.22976001 0.67200005 6775095
-0.008369525 0.23112763 0.67600006 7367232
-0.0071133338 0.23215333 0.67900002 8682087
-0.0058200001 0.23215333 0.67900002 12300702
-0.061895236 0.23035239 0.67000002 7498585
-0.060619049 0.23035239 0.67000002 6314043
-0.059342857 0.23035239 0.67000002 6379836
-0.058066666 0.23035239 0.67000002 6313793
-0.056451429 0.22897714 0.66600001 6905930
-0.055182859 0.22897714 0.66600001 6971462
-0.053752381 0.22828953 0.66400003 7037255
-0.052487623 0.22828953 0.66400003 7168063
-0.051145718 0.22794573 0.66300005 6707512
-0.049882859 0.22794573 0.66300005 5986109
-0.048473332 0.2272581 0.66100001 4407077
-0.047214285 0.2272581 0.66100001 4142631
-0.045955241 0.2272581 0.66100001 4537389
-0.044560954 0.22657049 0.65900004 4537891
-0.043305717 0.22657049 0.65900004 4274719
-0.041986667 0.22622669 0.65800005 3880201
-0.040733337 0.22622669 0.65800005 4274959
-0.039480001 0.22622669 0.65800005 4667411
-0.038226672 0.22622669 0.65800005 4535825
-0.036973335 0.22622669 0.65800005 3420170
-0.035720002 0.22622669 0.65800005 3354377
-0.034466669 0.22622669 0.65800005 5128480
-0.033213336 0.22622669 0.65800005 6575926
-0.031960003 0.22622669 0.65800005 6117165
-0.030753333 0.22657049 0.65900004 6182958
-0.029498097 0.22657049 0.65900004 6379586
-0.02824286 0.22657049 0.65900004 5458484
-0.02698762 0.22657049 0.65900004 5457184
-0.025849525 0.22760193 0.66200006 6115114
-0.024588574 0.22760193 0.66200006 6050617
-0.023362858 0.22794573 0.66300005 6247996
-0.022133335 0.22828953 0.66400003 6182706
-0.020868571 0.22828953 0.66400003 6248499
-0.019662857 0.22897714 0.66600001 6247757
-0.018394286 0.22897714 0.66600001 6116171
-0.017151428 0.22932097 0.66700006 6050869
-0.015880954 0.22932097 0.66700006 5392939
-0.014632382 0.22966477 0.66800004 5392931
-0.013400001 0.23035239 0.67000002 6050861
-0.012141905 0.23069619 0.671 6182205
-0.010880001 0.23104002 0.67200005 6971721
-0.0096571436 0.23241526 0.67600006 6512700
-0.008394286 0.23310286 0.67800003 6710079
-0.0071028573 0.23310286 0.67800003 8550753
-0.061987616 0.23197427 0.671 7695192
-0.060709521 0.23197427 0.671 6445379
-0.059431426 0.23197427 0.671 6379586
-0.058066666 0.23162858 0.67000002 6511179
-0.056536198 0.23059145 0.66700006 6708558
-0.055182859 0.23024571 0.66600001 6708288
-0.053914286 0.23024571 0.66600001 6708288
-0.052645713 0.23024571 0.66600001 6970682
-0.051222861 0.2295543 0.66400003 6641717
-0.049882859 0.22920859 0.66300005 5986361
-0.048546668 0.22886287 0.66200006 5394224
-0.047214285 0.22851714 0.66100001 5195330
-0.045955241 0.22851714 0.66100001 5261123
-0.044696189 0.22851714 0.66100001 5260583
-0.043305717 0.22782572 0.65900004 5063204
-0.042050481 0.22782572 0.65900004 4933162
-0.040795241 0.22782572 0.65900004 4998955
-0.03954 0.22782572 0.65900004 4538159
-0.038284764 0.22782572 0.65900004 4209194
-0.036973335 0.22748001 0.65800005 3486759
-0.035720002 0.22748001 0.65800005 2763036
-0.03451905 0.22782572 0.65900004 4735538
-0.03326381 0.22782572 0.65900004 6117191
-0.032008573 0.22782572 0.65900004 6051370
-0.030753333 0.22782572 0.65900004 6117163
-0.029498097 0.22782572 0.65900004 6379343
-0.02824286 0.22782572 0.65900004 6313550
-0.027069524 0.22851714 0.66100001 6050869
-0.025849525 0.22886287 0.66200006 6116662
-0.024625717 0.22920859 0.66300005 6247748
-0.023362858 0.22920859 0.66300005 6181955
-0.022133335 0.2295543 0.66400003 6116410
-0.020931428 0.23024571 0.66600001 6116410
-0.019662857 0.23024571 0.66600001 6116160
-0.018394286 0.23024571 0.66600001 6050367
-0.017151428 0.23059145 0.66700006 6050869
-0.015904762 0.23093715 0.66800004 6050869
-0.014632382 0.23093715 0.66800004 5854784
-0.013400001 0.23162858 0.67000002 5986370
-0.012141905 0.23197427 0.671 6379586
-0.010880001 0.23232001 0.67200005 6971723
-0.0096571436 0.23370287 0.67600006 6578755
-0.008394286 0.2343943 0.67800003 6512962
-0.0071238093 0.23508571 0.68000001 8353883
-0.005828571 0.23508571 0.68000001 11972498
-0.061987616 0.23325239 0.671 8090200
-0.060709521 0.23325239 0.671 7168567
-0.059431426 0.23325239 0.671 6708016
-0.058066666 0.23290476 0.67000002 6773833
-0.056620955 0.23220955 0.66800004 6642247
-0.055182859 0.23151428 0.66600001 6642749
-0.053914286 0.23151428 0.66600001 6708542
-0.052645713 0.23151428 0.66600001 6576956
-0.051222861 0.23081906 0.66400003 6642749
-0.049882859 0.23047143 0.66300005 5722685
-0.048546668 0.23012383 0.66200006 5196341
-0.047285721 0.23012383 0.66200006 5523516
-0.045955241 0.22977619 0.66100001 5457723
-0.044696189 0.22977619 0.66100001 5457186
-0.043305717 0.22908098 0.65900004 5391393
-0.042050481 0.22908098 0.65900004 5262636
-0.040795241 0.22908098 0.65900004 5328429
-0.03954 0.22908098 0.65900004 5262384
-0.038284764 0.22908098 0.65900004 4538661
-0.037029523 0.22908098 0.65900004 3948845
-0.035774291 0.22908098 0.65900004 3356708
-0.03451905 0.22908098 0.65900004 4276527
-0.03326381 0.22908098 0.65900004 5855559
-0.032008573 0.22908098 0.65900004 5921069
-0.030753333 0.22908098 0.65900004 5921069
-0.029498097 0.22908098 0.65900004 5986109
-0.028328571 0.22977619 0.66100001 5986109
-0.027069524 0.22977619 0.66100001 6181936
-0.025888573 0.23047143 0.66300005 6379315
-0.024625717 0.23047143 0.66300005 6247741
-0.023398096 0.23081906 0.66400003 6181948
-0.022133335 0.23081906 0.66400003 6050617
-0.020931428 0.23151428 0.66600001 6050617
-0.019662857 0.23151428 0.66600001 5984824
-0.018421907 0.23186192 0.66700006 5919031
-0.017177144 0.23220955 0.66800004 5985325
-0.015904762 0.23220955 0.66800004 6116911
-0.014676191 0.23290476 0.67000002 5920316
-0.013400001 0.23290476 0.67000002 5986109
-0.012141905 0.23325239 0.671 6511420
-0.010912381 0.23429525 0.67400002 6971971
-0.0096857138 0.23568572 0.67800003 6578755
-0.008419048 0.23638095 0.68000001 6644548
-0.0071238093 0.23638095 0.68000001 8354137
-0.005828571 0.23638095 0.68000001 11906959
-0.06244953 0.23627812 0.67600006 8485463
-0.060709521 0.23453048 0.671 6971702
-0.059431426 0.23453048 0.671 6379565
-0.058066666 0.23418094 0.67000002 6511431
-0.056620955 0.23348193 0.66800004 6182466
-0.055348575 0.23348193 0.66800004 6642749
-0.053914286 0.23278286 0.66600001 6774335
-0.052645713 0.23278286 0.66600001 6576956
-0.051222861 0.23208383 0.66400003 6642749
-0.049882859 0.23173429 0.66300005 5788478
-0.048546668 0.23138478 0.66200006 5262134
-0.047285721 0.23138478 0.66200006 5197104
-0.045955241 0.23103525 0.66100001 4670760
-0.044696189 0.23103525 0.66100001 3814408
-0.043437142 0.23103525 0.66100001 4011787
-0.042178098 0.23103525 0.66100001 4603171
-0.040795241 0.2303362 0.65900004 4932136
-0.03954 0.2303362 0.65900004 4604957
-0.038284764 0.2303362 0.65900004 4604957
-0.037029523 0.2303362 0.65900004 4276527
-0.035774291 0.2303362 0.65900004 4079148
-0.03451905 0.2303362 0.65900004 5065016
-0.03326381 0.2303362 0.65900004 6051911
-0.032008573 0.2303362 0.65900004 6183210
-0.030753333 0.2303362 0.65900004 6183210
-0.029498097 0.2303362 0.65900004 6116913
-0.028328571 0.23103525 0.66100001 5985327
-0.027069524 0.23103525 0.66100001 5985325
-0.025888573 0.23173429 0.66300005 5985325
-0.024662858 0.23208383 0.66400003 6049847
-0.023398096 0.23208383 0.66400003 6049847
-0.0222 0.23278286 0.66600001 6050348
-0.020931428 0.23278286 0.66600001 5787176
-0.019692382 0.23313239 0.66700006 5721906
-0.018421907 0.23313239 0.66700006 5853492
-0.017177144 0.23348193 0.66800004 5853743
-0.01595238 0.23418094 0.67000002 6051122
-0.014676191 0.23418094 0.67000002 5985076
-0.01342 0.23453048 0.671 5919283
-0.01216 0.23488002 0.67200005 6577205
-0.010912381 0.23557904 0.67400002 7037756
-0.0096857138 0.23697716 0.67800003 6579006
-0.008419048 0.23767619 0.68000001 6644799
-0.0071238093 0.23767619 0.68000001 8221519
-0.005828571 0.23767619 0.68000001 12432271
-0.06244953 0.23756573 0.67600006 8617059
-0.06098095 0.23686287 0.67400002 7169590
-0.059431426 0.23580857 0.671 6380074
-0.058153335 0.23580857 0.671 6642247
-0.056790475 0.23545715 0.67000002 6379075
-0.055514287 0.23545715 0.67000002 6642497
-0.053914286 0.23405142 0.66600001 6576704
-0.052645713 0.23405142 0.66600001 6116662
-0.051222861 0.23334858 0.66400003 6116662
-0.049958095 0.23334858 0.66400003 5788991
-0.04862 0.23299716 0.66300005 5262647
-0.047357146 0.23299716 0.66300005 5132340
-0.046024766 0.23264572 0.66200006 4211238
-0.044696189 0.23229429 0.66100001 2830592
-0.043437142 0.23229429 0.66100001 3488514
-0.042178098 0.23229429 0.66100001 3552802
-0.040795241 0.23159145 0.65900004 3223837
-0.03954 0.23159145 0.65900004 3290124
-0.038284764 0.23159145 0.65900004 3553296
-0.037029523 0.23159145 0.65900004 3879457
-0.035774291 0.23159145 0.65900004 4603180
-0.03451905 0.23159145 0.65900004 5591603
-0.03326381 0.23159145 0.65900004 6052154
-0.032008573 0.23159145 0.65900004 6183735
-0.030846667 0.23229429 0.66100001 6052149
-0.029587621 0.23229429 0.66100001 5788980
-0.028328571 0.23229429 0.66100001 5788980
-0.027069524 0.23229429 0.66100001 5788452
-0.025888573 0.23299716 0.66300005 5393694
-0.024662858 0.23334858 0.66400003 5654573
-0.023398096 0.23334858 0.66400003 5851952
-0.0222 0.23405142 0.66600001 5590569
-0.020931428 0.23405142 0.66600001 5393190
-0.019692382 0.23440287 0.66700006 5656362
-0.018421907 0.23440287 0.66700006 5853741
-0.017177144 0.23475431 0.66800004 5854245
-0.01595238 0.23545715 0.67000002 5985831
-0.014698096 0.23580857 0.671 6050352
-0.01342 0.23580857 0.671 6116145
-0.01216 0.23616001 0.67200005 6708288
-0.010912381 0.23686287 0.67400002 7037253
-0.0097142858 0.23897143 0.68000001 6578755
-0.008419048 0.23897143 0.68000001 6644548
-0.0071447622 0.2396743 0.68200004 8088904
-0.0058457148 0.2396743 0.68200004 11904898
-0.06244953 0.23885335 0.67600006 8814177
-0.06098095 0.23814668 0.67400002 7234858
-0.059697144 0.23814668 0.67400002 7169065
-0.058153335 0.23708665 0.671 6577224
-0.05687524 0.23708665 0.671 6445638
-0.055514287 0.23673333 0.67000002 6510911
-0.054076191 0.23602667 0.66800004 6445118
-0.052724764 0.23567335 0.66700006 6247748
-0.05137714 0.23532 0.66600001 5984576
-0.049958095 0.23461334 0.66400003 5788991
-0.048693337 0.23461334 0.66400003 5723198
-0.047428574 0.23461334 0.66400003 5329206
-0.046094287 0.23426002 0.66300005 5263413
-0.044763811 0.23390669 0.66200006 4933932
-0.043502863 0.23390669 0.66200006 4868139
-0.042178098 0.23355334 0.66100001 3881267
-0.040919047 0.23355334 0.66100001 3354923
-0.03954 0.23284668 0.65900004 3748897
-0.038284764 0.23284668 0.65900004 3814690
-0.037141904 0.23355334 0.66100001 3945018
-0.03588286 0.23355334 0.66100001 4997706
-0.03451905 0.23284668 0.65900004 5656614
-0.03326381 0.23284668 0.65900004 5656614
-0.032008573 0.23284668 0.65900004 5787699
-0.030846667 0.23355334 0.66100001 5787699
-0.029587621 0.23355334 0.66100001 5919784
-0.028328571 0.23355334 0.66100001 5722405
-0.027069524 0.23355334 0.66100001 5657105
-0.025888573 0.23426002 0.66300005 5393933
-0.024662858 0.23461334 0.66400003 5524268
-0.023468571 0.23532 0.66600001 5524268
-0.0222 0.23532 0.66600001 5522735
-0.020962859 0.23567335 0.66700006 5325356
-0.019692382 0.23567335 0.66700006 5326625
-0.018449524 0.23602667 0.66800004 5984555
-0.017228572 0.23673333 0.67000002 5985057
-0.015976191 0.23708665 0.671 6116643
-0.014698096 0.23708665 0.671 6115892
-0.01342 0.23708665 0.671 6050099
-0.01216 0.23744 0.67200005 6576692
-0.010928571 0.2385 0.67500001 6905657
-0.0096428571 0.2385 0.67500001 6446921
-0.008456191 0.24132667 0.68300003 6775886
-0.0071552387 0.24132667 0.68300003 7563312
-0.0058542858 0.24132667 0.68300003 11181927
-0.062264767 0.23943049 0.67400002 8879457
-0.06098095 0.23943049 0.67400002 7365946
-0.059697144 0.23943049 0.67400002 6708016
-0.058240004 0.23872001 0.67200005 6838599
-0.05687524 0.23836477 0.671 6575427
-0.055514287 0.23800953 0.67000002 6444590
-0.054076191 0.23729905 0.66800004 6576176
-0.052724764 0.23694383 0.66700006 6379836
-0.05137714 0.23658857 0.66600001 6314043
-0.050108574 0.23658857 0.66600001 6379586
-0.048693337 0.23587811 0.66400003 5984828
-0.047428574 0.23587811 0.66400003 5853743
-0.046094287 0.23552287 0.66300005 5853743
-0.044831429 0.23552287 0.66300005 5722407
-0.043502863 0.23516764 0.66200006 5590821
-0.042241909 0.23516764 0.66200006 5197104
-0.040919047 0.23481239 0.66100001 4802346
-0.039659999 0.23481239 0.66100001 4932660
-0.038400952 0.23481239 0.66100001 4735281
-0.037141904 0.23481239 0.66100001 4603182
-0.03588286 0.23481239 0.66100001 5063733
-0.034623809 0.23481239 0.66100001 5590569
-0.033364762 0.23481239 0.66100001 5590569
-0.032105718 0.23481239 0.66100001 5590569
-0.030846667 0.23481239 0.66100001 5853741
-0.029587621 0.23481239 0.66100001 5657643
-0.028328571 0.23481239 0.66100001 5460264
-0.02711048 0.23516764 0.66200006 5328930
-0.025888573 0.23552287 0.66300005 5263137
-0.024662858 0.23587811 0.66400003 5328429
-0.023468571 0.23658857 0.66600001 5065257
-0.0222 0.23658857 0.66600001 5654052
-0.020962859 0.23694383 0.66700006 4667157
-0.019692382 0.23694383 0.66700006 4798208
-0.018449524 0.23729905 0.66800004 6245651
-0.017228572 0.23800953 0.67000002 5853219
-0.015976191 0.23836477 0.671 5919012
-0.014720001 0.23872001 0.67200005 6115640
-0.013440001 0.23872001 0.67200005 6181433
-0.012196191 0.23943049 0.67400002 6247729
-0.010928571 0.23978572 0.67500001 6510901
-0.0096857138 0.24085143 0.67800003 6314043
-0.008456191 0.24262764 0.68300003 6577215
-0.0071552387 0.24262764 0.68300003 7299633
-0.0058542858 0.24262764 0.68300003 10852455
-0.061071429 0.24107143 0.67500001 6510659
-0.059785716 0.24107143 0.67500001 6313280
-0.058413334 0.2407143 0.67400002 6313798
-0.056960005 0.24000001 0.67200005 6182212
-0.055597141 0.23964286 0.671 6182438
-0.054238096 0.23928571 0.67000002 6248231
-0.052724764 0.2382143 0.66700006 6248751
-0.05137714 0.23785713 0.66600001 6248751
-0.050108574 0.23785713 0.66600001 6248499
-0.048693337 0.23714288 0.66400003 6051120
-0.047428574 0.23714288 0.66400003 6380087
-0.046094287 0.23678572 0.66300005 6840638
-0.044831429 0.23678572 0.66300005 6249003
-0.043502863 0.23642859 0.66200006 6249003
-0.042241909 0.23642859 0.66200006 5789229
-0.040980954 0.23642859 0.66200006 5789229
