# .PCD v0.7 - Point Cloud Data file format
VERSION 0.7
FIELDS x y z rgba
SIZE 4 4 4 4
TYPE F F F U
COUNT 1 1 1 1
WIDTH 1128
HEIGHT 1
VIEWPOINT 0 0 0 1 0 0 0
POINTS 1128
DATA ascii
-0.048458096 0.1732543 0.69700003 5723464
-0.047198098 0.17350286 0.69800001 5592909
-0.045868572 0.17350286 0.69800001 4934979
-0.044666667 0.17400001 0.70000005 4933668
-0.04339524 0.17424858 0.70100003 5920563
-0.042060003 0.17424858 0.70100003 7826243
-0.04084095 0.17474571 0.70300001 8352587
-0.039501905 0.17474571 0.70300001 7958614
-0.038217146 0.1749943 0.70400006 8287579
-0.03687619 0.1749943 0.70400006 8353362
-0.035535242 0.1749943 0.70400006 7958604
-0.034291428 0.17549144 0.70600003 7957855
-0.033040002 0.17598857 0.708 7299925
-0.031780954 0.17648572 0.71000004 6116410
-0.030557144 0.17723145 0.71300006 5261101
-0.029199049 0.17723145 0.71300006 5850148
-0.027880002 0.17748001 0.71400005 7626559
-0.026520003 0.17748001 0.71400005 8153929
-0.025160002 0.17748001 0.71400005 12825232
-0.023800001 0.17748001 0.71400005 13154965
-0.092057146 0.17934094 0.71600002 12563082
-0.09069334 0.17934094 0.71600002 12628875
-0.089329526 0.17934094 0.71600002 12628623
-0.087719999 0.17884001 0.71400005 12891795
-0.085997149 0.17808858 0.71100003 11774339
-0.084642857 0.17808858 0.71100003 7037243
-0.083171427 0.1778381 0.71000004 6643006
-0.081588566 0.17733714 0.708 7300936
-0.080239996 0.17733714 0.708 6904681
-0.078668572 0.17683619 0.70600003 6509923
-0.07710477 0.17633525 0.70400006 6706731
-0.075763814 0.17633525 0.70400006 6575145
-0.074422859 0.17633525 0.70400006 6377516
-0.072978094 0.17608477 0.70300001 6903860
-0.071639046 0.17608477 0.70300001 6837797
-0.070100002 0.17558381 0.70100003 6772004
-0.068666674 0.17533334 0.70000005 6640686
-0.067140952 0.17483239 0.69800001 6838065
-0.065811433 0.17483239 0.69800001 6774582
-0.064481907 0.17483239 0.69800001 5853480
-0.063061908 0.1745819 0.69700003 1449531
-0.061734285 0.1745819 0.69700003 800
-0.060406666 0.1745819 0.69700003 1839940
-0.059079047 0.1745819 0.69700003 6445450
-0.057751432 0.1745819 0.69700003 7760191
-0.056423813 0.1745819 0.69700003 8089156
-0.05509619 0.1745819 0.69700003 7760968
-0.053768571 0.1745819 0.69700003 6116143
-0.052440956 0.1745819 0.69700003 5000226
-0.051113334 0.1745819 0.69700003 3026436
-0.049785715 0.1745819 0.69700003 4471639
-0.048527621 0.17483239 0.69800001 7169152
-0.047198098 0.17483239 0.69800001 7695185
-0.046000004 0.17533334 0.70000005 8024150
-0.044666667 0.17533334 0.70000005 7630661
-0.04339524 0.17558381 0.70100003 6117422
-0.042060003 0.17558381 0.70100003 7431969
-0.04084095 0.17608477 0.70300001 8221485
-0.039501905 0.17608477 0.70300001 8220994
-0.038217146 0.17633525 0.70400006 8418373
-0.03687619 0.17633525 0.70400006 7694911
-0.035535242 0.17633525 0.70400006 5852707
-0.034291428 0.17683619 0.70600003 5983813
-0.033040002 0.17733714 0.708 6115399
-0.031825714 0.17808858 0.71100003 6114874
-0.030557144 0.17858954 0.71300006 5259565
-0.029199049 0.17858954 0.71300006 6180147
-0.027958095 0.17934094 0.71600002 7824972
-0.026594287 0.17934094 0.71600002 8153167
-0.025230477 0.17934094 0.71600002 13087642
-0.023866668 0.17934094 0.71600002 13352344
-0.09069334 0.18070477 0.71600002 12563080
-0.089329526 0.18070477 0.71600002 12628875
-0.087965719 0.18070477 0.71600002 12957840
-0.085997149 0.17944287 0.71100003 11972241
-0.084642857 0.17944287 0.71100003 7235145
-0.083288573 0.17944287 0.71100003 6445858
-0.08181905 0.17919049 0.71000004 7235374
-0.080239996 0.17868571 0.708 7299164
-0.078668572 0.17818096 0.70600003 6641234
-0.077323809 0.17818096 0.70600003 6837815
-0.075763814 0.1776762 0.70400006 6574643
-0.074422859 0.1776762 0.70400006 6377239
-0.072978094 0.1774238 0.70300001 6903583
-0.071639046 0.1774238 0.70300001 6706983
-0.070100002 0.17691906 0.70100003 6706983
-0.068764761 0.17691906 0.70100003 6509093
-0.067333341 0.17666668 0.70000005 7035437
-0.065811433 0.1761619 0.69800001 6708280
-0.064481907 0.1761619 0.69800001 6510901
-0.06315238 0.1761619 0.69800001 4541752
-0.061734285 0.17590952 0.69700003 528384
-0.060406666 0.17590952 0.69700003 854539
-0.059079047 0.17590952 0.69700003 5131084
-0.057751432 0.17590952 0.69700003 6115364
-0.056423813 0.17590952 0.69700003 6839087
-0.05509619 0.17590952 0.69700003 6643017
-0.053768571 0.17590952 0.69700003 5261364
-0.052440956 0.17590952 0.69700003 2043392
-0.051113334 0.17590952 0.69700003 3030284
-0.049785715 0.17590952 0.69700003 6312530
-0.048527621 0.1761619 0.69800001 8023148
-0.047198098 0.1761619 0.69800001 8154207
-0.046000004 0.17666668 0.70000005 8351586
-0.044666667 0.17666668 0.70000005 8024150
-0.04339524 0.17691906 0.70100003 4734500
-0.042060003 0.17691906 0.70100003 5521152
-0.04084095 0.1774238 0.70300001 8876585
-0.039501905 0.1774238 0.70300001 8352863
-0.038217146 0.1776762 0.70400006 8155484
-0.03687619 0.1776762 0.70400006 6644298
-0.035636194 0.17818096 0.70600003 4867887
-0.034291428 0.17818096 0.70600003 4996356
-0.033040002 0.17868571 0.708 6049044
-0.031825714 0.17944287 0.71100003 5982005
-0.030557144 0.17994764 0.71300006 5521454
-0.029199049 0.17994764 0.71300006 6509354
-0.027958095 0.18070477 0.71600002 7891007
-0.026594287 0.18070477 0.71600002 8218195
-0.025230477 0.18070477 0.71600002 13152670
-0.023866668 0.18070477 0.71600002 13352346
-0.089329526 0.18206859 0.71600002 12563073
-0.087965719 0.18206859 0.71600002 13089417
-0.086601906 0.18206859 0.71600002 12103827
-0.084880956 0.18130574 0.71300006 7695696
-0.083288573 0.18079714 0.71100003 6314792
-0.08181905 0.18054286 0.71000004 6775343
-0.080466673 0.18054286 0.71000004 7167564
-0.078780003 0.17977999 0.70700002 6641220
-0.077323809 0.17952573 0.70600003 6837566
-0.075763814 0.17901716 0.70400006 6574394
-0.074422859 0.17901716 0.70400006 6575370
-0.072978094 0.17876285 0.70300001 6838542
-0.071639046 0.17876285 0.70300001 6837799
-0.070100002 0.17825429 0.70100003 7232557
-0.068764761 0.17825429 0.70100003 6903592
-0.067333341 0.178 0.70000005 6969385
-0.065811433 0.17749143 0.69800001 6970162
-0.064481907 0.17749143 0.69800001 7759678
-0.06315238 0.17749143 0.69800001 6381117
-0.061822858 0.17749143 0.69800001 5723187
-0.060493335 0.17749143 0.69800001 4736326
-0.059163809 0.17749143 0.69800001 2959915
-0.057834286 0.17749143 0.69800001 4404992
-0.056504764 0.17749143 0.69800001 4733956
-0.05509619 0.17723715 0.69700003 5328177
-0.053768571 0.17723715 0.69700003 4999212
-0.052440956 0.17723715 0.69700003 6117154
-0.051113334 0.17723715 0.69700003 7696186
-0.049857143 0.17749143 0.69800001 7826276
-0.048527621 0.17749143 0.69800001 8484206
-0.047333337 0.178 0.70000005 8023148
-0.046000004 0.178 0.70000005 7891562
-0.044666667 0.178 0.70000005 7891786
-0.04339524 0.17825429 0.70100003 4470550
-0.042060003 0.17825429 0.70100003 4994057
-0.04084095 0.17876285 0.70300001 7888949
-0.039501905 0.17876285 0.70300001 7364441
-0.038217146 0.17901716 0.70400006 6903890
-0.03687619 0.17901716 0.70400006 6773056
-0.035636194 0.17952573 0.70600003 5588782
-0.034291428 0.17952573 0.70600003 5324288
-0.033040002 0.18003428 0.708 6903315
-0.031825714 0.18079714 0.71100003 5784635
-0.030557144 0.18130574 0.71300006 4929326
-0.029240001 0.18156001 0.71400005 6904112
-0.027958095 0.18206859 0.71600002 7956800
-0.026594287 0.18206859 0.71600002 8349790
-0.025230477 0.18206859 0.71600002 12889507
-0.023866668 0.18206859 0.71600002 13352087
-0.022534285 0.18232284 0.71700001 13417880
-0.089454286 0.18368857 0.71700001 12628866
-0.088088572 0.18368857 0.71700001 13023624
-0.086601906 0.18343239 0.71600002 12038034
-0.084880956 0.18266381 0.71300006 8353626
-0.083522864 0.18266381 0.71300006 6906439
-0.081934288 0.18215142 0.71100003 6774853
-0.080466673 0.18189524 0.71000004 7101519
-0.078780003 0.18112667 0.70700002 6640968
-0.077323809 0.18087047 0.70600003 6641211
-0.075763814 0.18035811 0.70400006 6575418
-0.074422859 0.18035811 0.70400006 6706724
-0.072978094 0.18010192 0.70300001 6772517
-0.071639046 0.18010192 0.70300001 6968620
-0.070100002 0.17958954 0.70100003 7363378
-0.068764761 0.17958954 0.70100003 7034928
-0.067333341 0.17933334 0.70000005 6969135
-0.065811433 0.17882095 0.69800001 7034924
-0.064481907 0.17882095 0.69800001 7561268
-0.06315238 0.17882095 0.69800001 7365445
-0.061822858 0.17882095 0.69800001 7431238
-0.060493335 0.17882095 0.69800001 6315597
-0.059163809 0.17882095 0.69800001 4473393
-0.057834286 0.17882095 0.69800001 3881728
-0.056504764 0.17882095 0.69800001 3881728
-0.055175241 0.17882095 0.69800001 5393181
-0.053845715 0.17882095 0.69800001 6182697
-0.052516192 0.17882095 0.69800001 7365183
-0.05118667 0.17882095 0.69800001 8154699
-0.049857143 0.17882095 0.69800001 7891803
-0.048527621 0.17882095 0.69800001 7760217
-0.047333337 0.17933334 0.70000005 7760215
-0.046000004 0.17933334 0.70000005 7891801
-0.044666667 0.17933334 0.70000005 7957066
-0.04339524 0.17958954 0.70100003 4535830
-0.042060003 0.17958954 0.70100003 4532484
-0.04084095 0.18010192 0.70300001 7032618
-0.039501905 0.18010192 0.70300001 6773331
-0.038217146 0.18035811 0.70400006 6312780
-0.03687619 0.18035811 0.70400006 5588026
-0.035636194 0.18087047 0.70600003 5653819
-0.034291428 0.18087047 0.70600003 5389313
-0.033040002 0.18138285 0.708 6178829
-0.031825714 0.18215142 0.71100003 5587006
-0.030557144 0.18266381 0.71300006 4929076
-0.029199049 0.18266381 0.71300006 7693369
-0.027997142 0.18368857 0.71700001 8088127
-0.026594287 0.18343239 0.71600002 8416346
-0.025230477 0.18343239 0.71600002 13087649
-0.0239 0.18368857 0.71700001 13154708
-0.022534285 0.18368857 0.71700001 13220501
-0.088088572 0.18505429 0.71700001 13154697
-0.086601906 0.1847962 0.71600002 12234900
-0.085000008 0.18428002 0.71400005 9011043
-0.083522864 0.18402192 0.71300006 7038054
-0.081934288 0.18350571 0.71100003 6972261
-0.080580004 0.18350571 0.71100003 7035992
-0.078891426 0.18273142 0.708 6772820
-0.077323809 0.18221524 0.70600003 6968902
-0.075763814 0.18169905 0.70400006 6968902
-0.074422859 0.18169905 0.70400006 6904110
-0.073081911 0.18169905 0.70400006 6838317
-0.071639046 0.18144095 0.70300001 6968883
-0.070299998 0.18144095 0.70300001 7166262
-0.068764761 0.18092477 0.70100003 6969135
-0.067333341 0.18066667 0.70000005 6903342
-0.066 0.18066667 0.70000005 6903090
-0.064666666 0.18066667 0.70000005 7100469
-0.06315238 0.18015048 0.69800001 6970162
-0.061822858 0.18015048 0.69800001 7496506
-0.060493335 0.18015048 0.69800001 6381618
-0.059163809 0.18015048 0.69800001 5460516
-0.057834286 0.18015048 0.69800001 5261632
-0.056504764 0.18015048 0.69800001 6577492
-0.055175241 0.18015048 0.69800001 7431735
-0.053845715 0.18015048 0.69800001 8089665
-0.052516192 0.18015048 0.69800001 8154697
-0.05118667 0.18015048 0.69800001 8483662
-0.049857143 0.18015048 0.69800001 7628879
-0.048527621 0.18015048 0.69800001 7168328
-0.047333337 0.18066667 0.70000005 7496501
-0.046000004 0.18066667 0.70000005 7891259
-0.044666667 0.18066667 0.70000005 7496249
-0.04339524 0.18092477 0.70100003 4469771
-0.042060003 0.18092477 0.70100003 4664880
-0.04084095 0.18144095 0.70300001 4599087
-0.039501905 0.18144095 0.70300001 5258526
-0.038217146 0.18169905 0.70400006 5324319
-0.03687619 0.18169905 0.70400006 5454907
-0.035636194 0.18221524 0.70600003 6244423
-0.034291428 0.18221524 0.70600003 6113071
-0.033040002 0.18273142 0.708 5981485
-0.031825714 0.18350571 0.71100003 5588294
-0.030557144 0.18402192 0.71300006 5851466
-0.029199049 0.18402192 0.71300006 7167795
-0.027997142 0.18505429 0.71700001 8088897
-0.02663143 0.18505429 0.71700001 8745563
-0.025265714 0.18505429 0.71700001 13351073
-0.0239 0.18505429 0.71700001 13418130
-0.022534285 0.18505429 0.71700001 13089165
-0.088088572 0.18641999 0.71700001 13022098
-0.086722851 0.18641999 0.71700001 12366486
-0.085000008 0.18564001 0.71400005 9076836
-0.083640002 0.18564001 0.71400005 7826782
-0.082164772 0.18538001 0.71300006 7168852
-0.080580004 0.18486001 0.71100003 7364943
-0.078891426 0.18407999 0.708 7035978
-0.077323809 0.18356 0.70600003 7034432
-0.075979047 0.18356 0.70600003 7034432
-0.074422859 0.18304001 0.70400006 7100469
-0.073081911 0.18304001 0.70400006 6968883
-0.071639046 0.18278 0.70300001 7100721
-0.070299998 0.18278 0.70300001 7166514
-0.068960957 0.18278 0.70300001 7100721
-0.067333341 0.18200001 0.70000005 6969135
-0.066 0.18200001 0.70000005 6772004
-0.064666666 0.18200001 0.70000005 7100969
-0.06333334 0.18200001 0.70000005 7101739
-0.062000006 0.18200001 0.70000005 6904360
-0.060666669 0.18200001 0.70000005 6447364
-0.059333336 0.18200001 0.70000005 5526272
-0.058000006 0.18200001 0.70000005 5655091
-0.056666669 0.18200001 0.70000005 7563088
-0.055333335 0.18200001 0.70000005 7694158
-0.054000005 0.18200001 0.70000005 8088916
-0.052516192 0.18148001 0.69800001 8220500
-0.05118667 0.18148001 0.69800001 8220500
-0.049857143 0.18148001 0.69800001 7759692
-0.048527621 0.18148001 0.69800001 6838590
-0.047333337 0.18200001 0.70000005 6706479
-0.046000004 0.18200001 0.70000005 7495995
-0.044666667 0.18200001 0.70000005 6839602
-0.04339524 0.18226001 0.70100003 4931605
-0.042180002 0.18278 0.70300001 5257789
-0.04084095 0.18278 0.70300001 5126203
-0.039501905 0.18278 0.70300001 5060632
-0.038217146 0.18304001 0.70400006 4929046
-0.03687619 0.18304001 0.70400006 4862747
-0.035686668 0.18381999 0.70700002 6441779
-0.034339998 0.18381999 0.70700002 6178625
-0.033040002 0.18407999 0.708 5915453
-0.031825714 0.18486001 0.71100003 5719630
-0.030557144 0.18538001 0.71300006 5982802
-0.029321905 0.18616 0.71600002 7101984
-0.028075241 0.18694001 0.71900004 8286258
-0.026705716 0.18694001 0.71900004 8877911
-0.025336191 0.18694001 0.71900004 13286042
-0.023966668 0.18694001 0.71900004 13352857
-0.022597143 0.18694001 0.71900004 13023892
-0.085357144 0.18778571 0.71700001 10326903
-0.083640002 0.18700001 0.71400005 7959138
-0.082164772 0.1867381 0.71300006 7169622
-0.080806673 0.1867381 0.71300006 7298898
-0.079114296 0.1859524 0.71000004 7233105
-0.077433333 0.18516667 0.70700002 7035465
-0.075979047 0.18490477 0.70600003 6903879
-0.074634291 0.18490477 0.70600003 6969404
-0.073081911 0.18438096 0.70400006 6969404
-0.071740955 0.18438096 0.70400006 6969653
-0.070299998 0.18411905 0.70300001 7035446
-0.068960957 0.18411905 0.70300001 7101237
-0.067429528 0.18359524 0.70100003 7101237
-0.066094287 0.18359524 0.70100003 7101743
-0.064759046 0.18359524 0.70100003 7299122
-0.063423812 0.18359524 0.70100003 6774055
-0.062088571 0.18359524 0.70100003 4471300
-0.060666669 0.18333335 0.70000005 4275968
-0.059333336 0.18333335 0.70000005 6710304
-0.058000006 0.18333335 0.70000005 7563587
-0.056666669 0.18333335 0.70000005 7958345
-0.055333335 0.18333335 0.70000005 6641491
-0.053845715 0.18280952 0.69800001 6246733
-0.052516192 0.18280952 0.69800001 7365181
-0.05118667 0.18280952 0.69800001 7628353
-0.049857143 0.18280952 0.69800001 7102216
-0.048527621 0.18280952 0.69800001 5852160
-0.047333337 0.18333335 0.70000005 7298348
-0.046000004 0.18333335 0.70000005 7561520
-0.044730477 0.18359524 0.70100003 6839580
-0.04339524 0.18359524 0.70100003 5392134
-0.042180002 0.18411905 0.70300001 5455933
-0.04084095 0.18411905 0.70300001 5455933
-0.039558098 0.18438096 0.70400006 4994592
-0.038217146 0.18438096 0.70400006 4863006
-0.037033334 0.18516667 0.70700002 5982775
-0.035737146 0.18542856 0.708 7759186
-0.034388572 0.18542856 0.708 6113107
-0.033133335 0.1859524 0.71000004 5389384
-0.03191524 0.1867381 0.71300006 5916003
-0.030557144 0.1867381 0.71300006 8218758
-0.029321905 0.18752381 0.71600002 8286283
-0.028114285 0.18857144 0.72000003 7957318
-0.026742859 0.18857144 0.72000003 8746055
-0.025441907 0.18909526 0.72200006 13351565
-0.024066668 0.18909526 0.72200006 13483921
-0.022691431 0.18909526 0.72200006 13154956
-0.083874285 0.18888761 0.71600002 8352863
-0.082510479 0.18888761 0.71600002 7300175
-0.080920003 0.18836001 0.71400005 7563090
-0.079114296 0.18730478 0.71000004 7563090
-0.077542856 0.18677714 0.708 7036746
-0.076086663 0.18651333 0.70700002 6641988
-0.074634291 0.18624954 0.70600003 6838067
-0.073081911 0.18572192 0.70400006 7035446
-0.071740955 0.18572192 0.70400006 7167030
-0.070400007 0.18572192 0.70400006 7101237
-0.068960957 0.18545809 0.70300001 7036470
-0.067621902 0.18545809 0.70300001 7102263
-0.066282853 0.18545809 0.70300001 7167030
-0.064943813 0.18545809 0.70300001 7298616
-0.063604765 0.18545809 0.70300001 6642712
-0.062088571 0.18493049 0.70100003 4405760
-0.060753338 0.18493049 0.70100003 4206848
-0.059333336 0.18466668 0.70000005 7891248
-0.058000006 0.18466668 0.70000005 7957342
-0.056666669 0.18466668 0.70000005 7694170
-0.055333335 0.18466668 0.70000005 6117454
-0.053845715 0.18413906 0.69800001 4538422
-0.052516192 0.18413906 0.69800001 5457168
-0.05118667 0.18413906 0.69800001 5917719
-0.050000004 0.18466668 0.70000005 6179592
-0.048666667 0.18466668 0.70000005 6574350
-0.047333337 0.18466668 0.70000005 7627089
-0.046065718 0.18493049 0.70100003 7363917
-0.044730477 0.18493049 0.70100003 5984555
-0.04339524 0.18493049 0.70100003 5260832
-0.042180002 0.18545809 0.70300001 5784635
-0.04084095 0.18545809 0.70300001 5587256
-0.039558098 0.18572192 0.70400006 4796685
-0.038325716 0.18624954 0.70600003 5191443
-0.037033334 0.18651333 0.70700002 6705998
-0.035737146 0.18677714 0.708 7758686
-0.034485716 0.18730478 0.71000004 6312530
-0.033180002 0.18756858 0.71100003 5851979
-0.03191524 0.18809621 0.71300006 7034450
-0.030557144 0.18809621 0.71300006 8613482
-0.029321905 0.18888761 0.71600002 8352589
-0.028192384 0.19047049 0.72200006 7892038
-0.026817145 0.19047049 0.72200006 8680260
-0.025441907 0.19047049 0.72200006 13285770
-0.024066668 0.19047049 0.72200006 13417880
-0.022691431 0.19047049 0.72200006 13023122
-0.083874285 0.19025144 0.71600002 8155734
-0.082280003 0.18972 0.71400005 7234632
-0.080920003 0.18972 0.71400005 7628883
-0.079114296 0.18865715 0.71000004 7760469
-0.077761903 0.18865715 0.71000004 7430221
-0.076194286 0.18812571 0.708 6903877
-0.074740008 0.18786 0.70700002 7035197
-0.073289528 0.18759429 0.70600003 7495748
-0.071740955 0.18706287 0.70400006 7232305
-0.070400007 0.18706287 0.70400006 7298098
-0.068960957 0.18679714 0.70300001 7232823
-0.067621902 0.18679714 0.70300001 7232823
-0.066282853 0.18679714 0.70300001 7167550
-0.064943813 0.18679714 0.70300001 6772792
-0.063604765 0.18679714 0.70300001 5919502
-0.062088571 0.18626572 0.70100003 5064193
-0.060753338 0.18626572 0.70100003 5915978
-0.059333336 0.18600002 0.70000005 8152940
-0.058000006 0.18600002 0.70000005 8087901
-0.056666669 0.18600002 0.70000005 7693143
-0.055333335 0.18600002 0.70000005 6576472
-0.054000005 0.18600002 0.70000005 3023650
-0.052666668 0.18600002 0.70000005 4007680
-0.051333338 0.18600002 0.70000005 5191945
-0.050000004 0.18600002 0.70000005 5322770
-0.048666667 0.18600002 0.70000005 6704423
-0.047333337 0.18600002 0.70000005 7430223
-0.046065718 0.18626572 0.70100003 7232844
-0.044730477 0.18626572 0.70100003 6181168
-0.04339524 0.18626572 0.70100003 6115375
-0.042180002 0.18679714 0.70300001 5719344
-0.04084095 0.18679714 0.70300001 5456172
-0.039558098 0.18706287 0.70400006 5258804
-0.038325716 0.18759429 0.70600003 5390390
-0.037033334 0.18786 0.70700002 6114874
-0.035737146 0.18812571 0.708 8549215
-0.034485716 0.18865715 0.71000004 8022621
-0.033180002 0.18892285 0.71100003 7496277
-0.031960003 0.18972 0.71400005 7495764
-0.0306 0.18972 0.71400005 8943210
-0.029321905 0.19025144 0.71600002 8550470
-0.028192384 0.19184573 0.72200006 8155712
-0.026817145 0.19184573 0.72200006 8614478
-0.025441907 0.19184573 0.72200006 13022609
-0.024066668 0.19184573 0.72200006 13219988
-0.022691431 0.19184573 0.72200006 12891023
-0.083874285 0.19161524 0.71600002 8024661
-0.082280003 0.19108002 0.71400005 6971973
-0.080920003 0.19108002 0.71400005 7694676
-0.079225719 0.19027714 0.71100003 7826262
-0.077761903 0.19000953 0.71000004 7759179
-0.076194286 0.18947428 0.708 7101249
-0.074740008 0.18920667 0.70700002 7101249
-0.073289528 0.18893905 0.70600003 7430214
-0.071740955 0.18840383 0.70400006 7429684
-0.070400007 0.18840383 0.70400006 7363891
-0.069059052 0.18840383 0.70400006 7297846
-0.067621902 0.18813619 0.70300001 7363639
-0.066282853 0.18813619 0.70300001 7429955
-0.064943813 0.18813619 0.70300001 5850923
-0.063604765 0.18813619 0.70300001 5258752
-0.062088571 0.18760096 0.70100003 5982465
-0.060753338 0.18760096 0.70100003 7100745
-0.059333336 0.18733335 0.70000005 8087640
-0.058000006 0.18733335 0.70000005 8087129
-0.056666669 0.18733335 0.70000005 7758164
-0.055333335 0.18733335 0.70000005 6838347
-0.054000005 0.18733335 0.70000005 3482904
-0.052666668 0.18733335 0.70000005 4468480
-0.051333338 0.18733335 0.70000005 5521160
-0.050000004 0.18733335 0.70000005 4927020
-0.048736192 0.18760096 0.70100003 5650743
-0.047400955 0.18760096 0.70100003 7166549
-0.046065718 0.18760096 0.70100003 6903377
-0.044730477 0.18760096 0.70100003 5194024
-0.043519046 0.18813619 0.70300001 6115126
-0.042180002 0.18813619 0.70300001 6115124
-0.04084095 0.18813619 0.70300001 5654573
-0.039558098 0.18840383 0.70400006 5259546
-0.038325716 0.18893905 0.70600003 5193753
-0.037033334 0.18920667 0.70700002 5588002
-0.035737146 0.18947428 0.708 8022343
-0.034485716 0.19000953 0.71000004 8153948
-0.033180002 0.19027714 0.71100003 7561811
-0.031960003 0.19108002 0.71400005 7298637
-0.0306 0.19108002 0.71400005 8417118
-0.029321905 0.19161524 0.71600002 8089163
-0.028192384 0.19322097 0.72200006 8220749
-0.026817145 0.19322097 0.72200006 8680792
-0.025477143 0.19348858 0.72300005 12957337
-0.024100002 0.19348858 0.72300005 13153682
-0.083874285 0.19297905 0.71600002 8092514
-0.082510479 0.19297905 0.71600002 4737071
-0.080920003 0.19244 0.71400005 6049365
-0.079225719 0.19163144 0.71100003 7365225
-0.077761903 0.1913619 0.71000004 7562796
-0.076409526 0.1913619 0.71000004 6904866
-0.074845709 0.19082285 0.708 7100990
-0.073393337 0.19055334 0.70700002 7364162
-0.071944758 0.19028381 0.70600003 7298868
-0.070400007 0.18974477 0.70400006 7298868
-0.069059052 0.18974477 0.70400006 7232573
-0.067621902 0.18947524 0.70300001 7824710
-0.066282853 0.18947524 0.70300001 7431228
-0.064943813 0.18947524 0.70300001 5391645
-0.063604765 0.18947524 0.70300001 4865280
-0.062265713 0.18947524 0.70300001 7102234
-0.060753338 0.1889362 0.70100003 7890494
-0.059418097 0.1889362 0.70100003 8153666
-0.05808286 0.1889362 0.70100003 7627343
-0.056747623 0.1889362 0.70100003 5258795
-0.055333335 0.18866667 0.70000005 4996363
-0.054000005 0.18866667 0.70000005 3154176
-0.052741908 0.1889362 0.70100003 5125665
-0.051406667 0.1889362 0.70100003 8612694
-0.050071429 0.1889362 0.70100003 7562283
-0.048736192 0.1889362 0.70100003 4141056
-0.047536191 0.18947524 0.70300001 5125433
-0.046197142 0.18947524 0.70300001 5914949
-0.044858098 0.18947524 0.70300001 5389620
-0.043519046 0.18947524 0.70300001 6179136
-0.042180002 0.18947524 0.70300001 6114874
-0.040899049 0.18974477 0.70400006 7035976
-0.039670479 0.19028381 0.70600003 6642744
-0.038380001 0.19055334 0.70700002 6576951
-0.037085712 0.19082285 0.708 7035969
-0.035838097 0.1913619 0.71000004 7430727
-0.034485716 0.1913619 0.71000004 7495764
-0.033180002 0.19163144 0.71100003 7627350
-0.03191524 0.1921705 0.71300006 7562336
-0.0306 0.19244 0.71400005 8351852
-0.029321905 0.19297905 0.71600002 8221268
-0.028231429 0.19486572 0.72300005 8155475
-0.026854288 0.19486572 0.72300005 9141352
-0.025618097 0.19594382 0.72700006 13352104
-0.024233334 0.19594382 0.72700006 13285522
-0.083874285 0.19434287 0.71600002 8488040
-0.082510479 0.19434287 0.71600002 4737839
-0.080920003 0.19380002 0.71400005 5128745
-0.079560004 0.19380002 0.71400005 5852468
-0.077871427 0.19298573 0.71100003 7100194
-0.076409526 0.19271429 0.71000004 7231780
-0.074845709 0.19217142 0.708 6837815
-0.073393337 0.19190001 0.70700002 7364159
-0.071944758 0.19162858 0.70600003 7364663
-0.070600003 0.19162858 0.70600003 7167284
-0.069059052 0.19108573 0.70400006 7167034
-0.067718096 0.19108573 0.70400006 7824964
-0.066377148 0.19108573 0.70400006 7627593
-0.064943813 0.19081429 0.70300001 3745806
-0.063604765 0.19081429 0.70300001 4203264
-0.062265713 0.19081429 0.70300001 7953457
-0.060753338 0.19027144 0.70100003 8022371
-0.059418097 0.19027144 0.70100003 7824992
-0.05808286 0.19027144 0.70100003 6576178
-0.056747623 0.19027144 0.70100003 5194525
-0.055412382 0.19027144 0.70100003 4865297
-0.054077145 0.19027144 0.70100003 4338953
-0.052741908 0.19027144 0.70100003 4930350
-0.051406667 0.19027144 0.70100003 8351586
-0.050071429 0.19027144 0.70100003 7760996
-0.048875239 0.19081429 0.70300001 3813416
-0.047536191 0.19081429 0.70300001 4271118
-0.046197142 0.19081429 0.70300001 5060634
-0.044858098 0.19081429 0.70300001 5453605
-0.043580953 0.19108573 0.70400006 6637879
-0.042240005 0.19108573 0.70400006 5983782
-0.041015241 0.19162858 0.70600003 7365435
-0.039670479 0.19162858 0.70600003 7629392
-0.038380001 0.19190001 0.70700002 7168841
-0.037085712 0.19217142 0.708 7299388
-0.035838097 0.19271429 0.71000004 7365181
-0.034534287 0.19298573 0.71100003 7101258
-0.033273336 0.19352859 0.71300006 8088153
-0.03191524 0.19352859 0.71300006 8023648
-0.0306 0.19380002 0.71400005 8286820
-0.029321905 0.19434287 0.71600002 8353105
-0.028309524 0.19678572 0.72500002 8089933
-0.026928572 0.19678572 0.72500002 9470310
-0.025653334 0.19760001 0.72800004 13154718
-0.024266668 0.19760001 0.72800004 13351061
-0.083874285 0.19570667 0.71600002 9341291
-0.082510479 0.19570667 0.71600002 5788469
-0.080920003 0.19516002 0.71400005 5194828
-0.079560004 0.19516002 0.71400005 4800070
-0.078090489 0.19488667 0.71300006 6443800
-0.076409526 0.19406667 0.71000004 6838558
-0.074845709 0.19351999 0.708 6969653
-0.073497139 0.19351999 0.708 7561790
-0.072046667 0.19324668 0.70700002 7430456
-0.070600003 0.19297335 0.70600003 7298870
-0.069059052 0.19242668 0.70400006 7364423
-0.067718096 0.19242668 0.70400006 7759181
-0.066377148 0.19242668 0.70400006 7234121
-0.064943813 0.19215333 0.70300001 3220748
-0.063604765 0.19215333 0.70300001 3875861
-0.062265713 0.19215333 0.70300001 7955027
-0.060926665 0.19215333 0.70300001 7956828
-0.059418097 0.19160667 0.70100003 6443589
-0.05808286 0.19160667 0.70100003 5852165
-0.056747623 0.19160667 0.70100003 5983751
-0.055412382 0.19160667 0.70100003 5259831
-0.054077145 0.19160667 0.70100003 4536108
-0.052892383 0.19215333 0.70300001 5718342
-0.051553335 0.19215333 0.70300001 8613234
-0.050214287 0.19215333 0.70300001 7629350
-0.048875239 0.19215333 0.70300001 4405504
-0.047536191 0.19215333 0.70300001 4798494
-0.046197142 0.19215333 0.70300001 5522217
-0.044858098 0.19215333 0.70300001 5850691
-0.043580953 0.19242668 0.70400006 7429723
-0.042240005 0.19242668 0.70400006 7103526
-0.041015241 0.19297335 0.70600003 7235112
-0.039726667 0.19324668 0.70700002 6904388
-0.038380001 0.19324668 0.70700002 6575423
-0.037085712 0.19351999 0.708 6641192
-0.035838097 0.19406667 0.71000004 7496501
-0.034534287 0.19434001 0.71100003 7627602
-0.033273336 0.19488667 0.71300006 8943462
-0.03191524 0.19488667 0.71300006 8417895
-0.0306 0.19516002 0.71400005 8154723
-0.029321905 0.19570667 0.71600002 8418128
-0.028309524 0.19816668 0.72500002 8154956
-0.026928572 0.19816668 0.72500002 9404253
-0.025653334 0.19898668 0.72800004 12957075
-0.085238092 0.19707048 0.71600002 11839883
-0.083874285 0.19707048 0.71600002 9604724
-0.082510479 0.19707048 0.71600002 6183488
-0.080920003 0.19652 0.71400005 6183740
-0.079560004 0.19652 0.71400005 6183740
-0.078090489 0.19624478 0.71300006 6444089
-0.076409526 0.19541906 0.71000004 6773054
-0.075057149 0.19541906 0.71000004 6904373
-0.073497139 0.19486856 0.708 7496510
-0.072046667 0.19459333 0.70700002 7299139
-0.070600003 0.1943181 0.70600003 7364932
-0.06925524 0.1943181 0.70600003 7496005
-0.067718096 0.19376762 0.70400006 7824970
-0.066377148 0.19376762 0.70400006 7430212
-0.065036193 0.19376762 0.70400006 3548425
-0.063604765 0.19349238 0.70300001 4138752
-0.062265713 0.19349238 0.70300001 8283703
-0.060926665 0.19349238 0.70300001 7826026
-0.05958762 0.19349238 0.70300001 5918029
-0.058248568 0.19349238 0.70300001 4996356
-0.056909524 0.19349238 0.70300001 5588493
-0.055570476 0.19349238 0.70300001 6115892
-0.054231428 0.19349238 0.70300001 5194790
-0.052892383 0.19349238 0.70300001 6178625
-0.051553335 0.19349238 0.70300001 7362899
-0.050214287 0.19349238 0.70300001 6904369
-0.048875239 0.19349238 0.70300001 5456923
-0.047603812 0.19376762 0.70400006 5523241
-0.04626286 0.19376762 0.70400006 5523241
-0.044921909 0.19376762 0.70400006 5654573
-0.043580953 0.19376762 0.70400006 7299398
-0.04236 0.1943181 0.70600003 7497021
-0.041073337 0.19459333 0.70700002 6904884
-0.039726667 0.19459333 0.70700002 6969404
-0.038434286 0.19486856 0.708 6837818
-0.037085712 0.19486856 0.708 6640418
-0.035838097 0.19541906 0.71000004 7627313
-0.034534287 0.19569428 0.71100003 7694158
-0.033273336 0.19624478 0.71300006 8286295
-0.031960003 0.19652 0.71400005 8286293
-0.030685715 0.19707048 0.71600002 8220500
-0.029321905 0.19707048 0.71600002 8615507
-0.027958095 0.19707048 0.71600002 8154956
-0.027040001 0.20037334 0.72800004 9470039
-0.025653334 0.20037334 0.72800004 13220240
-0.085238092 0.19843429 0.71600002 11708550
-0.083874285 0.19843429 0.71600002 9735799
-0.082510479 0.19843429 0.71600002 6775114
-0.081146665 0.19843429 0.71600002 6641995
-0.079560004 0.19788001 0.71400005 7694683
-0.078090489 0.19760287 0.71300006 7956565
-0.076409526 0.19677144 0.71000004 7232842
-0.075057149 0.19677144 0.71000004 7035465
-0.073497139 0.19621713 0.708 7364430
-0.072148569 0.19621713 0.708 7430216
-0.070699997 0.19594 0.70700002 7298630
-0.06925524 0.19566287 0.70600003 7430212
-0.067910478 0.19566287 0.70600003 8088142
-0.066565715 0.19566287 0.70600003 7168328
-0.065036193 0.19510858 0.70400006 3747092
-0.063695244 0.19510858 0.70400006 3813414
-0.062265713 0.19483143 0.70300001 7300443
-0.060926665 0.19483143 0.70300001 7497304
-0.05958762 0.19483143 0.70300001 5786686
-0.058248568 0.19483143 0.70300001 4995875
-0.056909524 0.19483143 0.70300001 5127461
-0.055570476 0.19483143 0.70300001 5194257
-0.054231428 0.19483143 0.70300001 5523222
-0.052892383 0.19483143 0.70300001 5784124
-0.051553335 0.19483143 0.70300001 5586745
-0.050214287 0.19483143 0.70300001 6311984
-0.048875239 0.19483143 0.70300001 7364672
-0.047603812 0.19510858 0.70400006 7300177
-0.04626286 0.19510858 0.70400006 7365970
-0.044921909 0.19510858 0.70400006 7036477
-0.043704763 0.19566287 0.70600003 7168063
-0.04236 0.19566287 0.70600003 7035717
-0.041073337 0.19594 0.70700002 6706752
-0.039782856 0.19621713 0.708 7034952
-0.038434286 0.19621713 0.708 7627089
-0.037190478 0.19677144 0.71000004 7561798
-0.035838097 0.19677144 0.71000004 8022349
-0.034534287 0.19704857 0.71100003 7957320
-0.033273336 0.19760287 0.71300006 8286285
-0.031960003 0.19788001 0.71400005 8286274
-0.030685715 0.19843429 0.71600002 8352067
-0.029321905 0.19843429 0.71600002 8220248
-0.028114285 0.19954287 0.72000003 8615006
-0.027040001 0.20176001 0.72800004 9667677
-0.025653334 0.20176001 0.72800004 13417878
-0.085238092 0.19979811 0.71600002 11840142
-0.083874285 0.19979811 0.71600002 9801338
-0.082510479 0.19979811 0.71600002 6445895
-0.081146665 0.19979811 0.71600002 6772543
-0.079782858 0.19979811 0.71600002 7759438
-0.078200005 0.19924001 0.71400005 7956569
-0.076517142 0.19840287 0.71100003 7298639
-0.075057149 0.19812383 0.71000004 7232322
-0.073704764 0.19812383 0.71000004 7495494
-0.072148569 0.19756572 0.708 7430216
-0.070800006 0.19756572 0.708 7364423
-0.069353335 0.19728667 0.70700002 7496518
-0.067910478 0.19700761 0.70600003 7825483
-0.066565715 0.19700761 0.70600003 6644300
-0.065036193 0.19644953 0.70400006 3486236
-0.063695244 0.19644953 0.70400006 4138752
-0.062354293 0.19644953 0.70400006 7099429
-0.060926665 0.19617048 0.70300001 6576956
-0.05958762 0.19617048 0.70300001 5655854
-0.058248568 0.19617048 0.70300001 4534272
-0.056909524 0.19617048 0.70300001 4863232
-0.055570476 0.19617048 0.70300001 4469504
-0.054231428 0.19617048 0.70300001 5851152
-0.052967623 0.19644953 0.70400006 5589298
-0.051626671 0.19644953 0.70400006 5326126
-0.050285716 0.19644953 0.70400006 6311723
-0.048944768 0.19644953 0.70400006 7430204
-0.047603812 0.19644953 0.70400006 7627600
-0.046394285 0.19700761 0.70600003 7496014
-0.045049526 0.19700761 0.70600003 7234108
-0.043766666 0.19728667 0.70700002 7168315
-0.04242 0.19728667 0.70700002 6640947
-0.041131429 0.19756572 0.708 6772533
-0.039782856 0.19756572 0.708 7100997
-0.038434286 0.19756572 0.708 7561548
-0.037190478 0.19812383 0.71000004 7562049
-0.035838097 0.19812383 0.71000004 8022600
-0.034534287 0.19840287 0.71100003 8220238
-0.033273336 0.19896096 0.71300006 8022859
-0.031960003 0.19924001 0.71400005 8087875
-0.030685715 0.19979811 0.71600002 8087875
-0.029362857 0.20007715 0.71700001 7892018
-0.028114285 0.20091429 0.72000003 8286776
-0.02700286 0.20286763 0.72700006 9930859
-0.025653334 0.20314668 0.72800004 13088923
-0.024333334 0.20370476 0.73000002 12891284
-0.022942858 0.20370476 0.73000002 12891284
-0.085238092 0.20116191 0.71600002 12366486
-0.083874285 0.20116191 0.71600002 10590588
-0.082510479 0.20116191 0.71600002 6248250
-0.081259996 0.20144285 0.71700001 6378821
-0.079782858 0.20116191 0.71600002 6905165
-0.078200005 0.20060001 0.71400005 7298637
-0.076517142 0.19975714 0.71100003 7232844
-0.075057149 0.1994762 0.71000004 7101256
-0.073704764 0.1994762 0.71000004 7430221
-0.072148569 0.19891429 0.708 7496009
-0.070800006 0.19891429 0.708 7561802
-0.069353335 0.19863333 0.70700002 7496014
-0.068006672 0.19863333 0.70700002 7693393
-0.066565715 0.19835238 0.70600003 7037523
-0.065220952 0.19835238 0.70600003 6313800
-0.063695244 0.1977905 0.70400006 5195039
-0.062354293 0.1977905 0.70400006 4866074
-0.061013337 0.1977905 0.70400006 6379033
-0.059672385 0.1977905 0.70400006 6839584
-0.058331434 0.1977905 0.70400006 6642221
-0.056990478 0.1977905 0.70400006 6576428
-0.055649526 0.1977905 0.70400006 6904640
-0.054308575 0.1977905 0.70400006 7496777
-0.052967623 0.1977905 0.70400006 6970960
-0.051626671 0.1977905 0.70400006 6773581
-0.050285716 0.1977905 0.70400006 6772806
-0.048944768 0.1977905 0.70400006 6575427
-0.047739051 0.19835238 0.70600003 7101762
-0.046394285 0.19835238 0.70600003 7233348
-0.045049526 0.19835238 0.70600003 7365181
-0.043766666 0.19863333 0.70700002 7430974
-0.04242 0.19863333 0.70700002 7035726
-0.041131429 0.19891429 0.708 6904140
-0.039782856 0.19891429 0.708 7364171
-0.038434286 0.19891429 0.708 8022101
-0.037190478 0.1994762 0.71000004 7628346
-0.035838097 0.1994762 0.71000004 7496760
-0.034534287 0.19975714 0.71100003 6903879
-0.033273336 0.20031907 0.71300006 6706500
-0.031960003 0.20060001 0.71400005 6837799
-0.030728571 0.20144285 0.71700001 6508834
-0.029567622 0.20284763 0.72200006 6378527
-0.028192384 0.20284763 0.72200006 8418110
-0.02700286 0.20425239 0.72700006 9799275
-0.025653334 0.20453334 0.72800004 13088925
-0.024266668 0.20453334 0.72800004 12891546
-0.022880001 0.20453334 0.72800004 12957339
-0.082625717 0.20280857 0.71700001 6313791
-0.081259996 0.20280857 0.71700001 6116412
-0.079782858 0.20252572 0.71600002 6576963
-0.078200005 0.20196001 0.71400005 6905417
-0.076840006 0.20196001 0.71400005 6971210
-0.075162858 0.20111144 0.71100003 7233075
-0.073704764 0.20082858 0.71000004 7627833
-0.07235238 0.20082858 0.71000004 7561800
-0.070800006 0.20026286 0.708 7627593
-0.069451429 0.20026286 0.708 7561809
-0.068006672 0.19998001 0.70700002 7561809
-0.066660002 0.19998001 0.70700002 7562320
-0.065220952 0.19969715 0.70600003 6970183
-0.063876189 0.19969715 0.70600003 6773809
-0.062354293 0.19913144 0.70400006 6115879
-0.061013337 0.19913144 0.70400006 6444572
-0.059672385 0.19913144 0.70400006 7563053
-0.058331434 0.19913144 0.70400006 7562308
-0.056990478 0.19913144 0.70400006 7167550
-0.055649526 0.19913144 0.70400006 7102539
-0.054308575 0.19913144 0.70400006 6970953
-0.052967623 0.19913144 0.70400006 6970682
-0.051626671 0.19913144 0.70400006 6904889
-0.050285716 0.19913144 0.70400006 6773056
-0.048944768 0.19913144 0.70400006 6773056
-0.047739051 0.19969715 0.70600003 6773308
-0.046394285 0.19969715 0.70600003 7168066
-0.045049526 0.19969715 0.70600003 7234121
-0.043766666 0.19998001 0.70700002 7299914
-0.04242 0.19998001 0.70700002 7430998
-0.041131429 0.20026286 0.708 7759963
-0.039782856 0.20026286 0.708 7957577
-0.038542859 0.20082858 0.71000004 7891784
-0.037190478 0.20082858 0.71000004 7759682
-0.035888575 0.20111144 0.71100003 6970166
-0.034534287 0.20111144 0.71100003 6575399
-0.033320002 0.20196001 0.71400005 5851676
-0.031960003 0.20196001 0.71400005 5916947
-0.030728571 0.20280857 0.71700001 5522189
-0.029485716 0.20365715 0.72000003 6575360
-0.028114285 0.20365715 0.72000003 8285972
-0.026854288 0.20450573 0.72300005 9667174
-0.02554762 0.20507143 0.72500002 13088410
-0.024266668 0.20592001 0.72800004 12891284
-0.022880001 0.20592001 0.72800004 12891284
-0.083991431 0.20417428 0.71700001 10985344
-0.082625717 0.20417428 0.71700001 6248248
-0.081259996 0.20417428 0.71700001 6247998
-0.079782858 0.20388952 0.71600002 6840135
-0.078200005 0.20332001 0.71400005 6971462
-0.076840006 0.20332001 0.71400005 6971462
-0.075162858 0.20246571 0.71100003 6970677
-0.073704764 0.20218095 0.71000004 7562814
-0.07235238 0.20218095 0.71000004 7693637
-0.070800006 0.20161143 0.708 7693637
-0.069451429 0.20161143 0.708 7693143
-0.068102859 0.20161143 0.708 7561557
-0.066660002 0.20132667 0.70700002 7430734
-0.065220952 0.20104191 0.70600003 7628113
-0.063876189 0.20104191 0.70600003 7432013
-0.062354293 0.2004724 0.70400006 7760978
-0.061013337 0.2004724 0.70400006 7760968
-0.059672385 0.2004724 0.70400006 8221519
-0.058331434 0.2004724 0.70400006 7497021
-0.056990478 0.2004724 0.70400006 6839091
-0.055649526 0.2004724 0.70400006 6904392
-0.054308575 0.2004724 0.70400006 6246462
-0.052967623 0.2004724 0.70400006 6247454
-0.051626671 0.2004724 0.70400006 6839591
-0.050285716 0.2004724 0.70400006 7102522
-0.04908381 0.20104191 0.70600003 7234108
-0.047739051 0.20104191 0.70600003 7299652
-0.046394285 0.20104191 0.70600003 7299652
-0.045049526 0.20104191 0.70600003 7364943
-0.043766666 0.20132667 0.70700002 7957080
-0.04242 0.20132667 0.70700002 7957342
-0.041131429 0.20161143 0.708 7891549
-0.03989524 0.20218095 0.71000004 7760682
-0.038542859 0.20218095 0.71000004 7234338
-0.037190478 0.20218095 0.71000004 7101212
-0.035888575 0.20246571 0.71100003 6838040
-0.034631431 0.20303525 0.71300006 6246173
-0.033320002 0.20332001 0.71400005 5785622
-0.032049526 0.20388952 0.71600002 5850400
-0.030728571 0.20417428 0.71700001 5324056
-0.029485716 0.20502858 0.72000003 5192983
-0.028114285 0.20502858 0.72000003 8022082
-0.026854288 0.20588288 0.72300005 9864816
-0.02554762 0.20645238 0.72500002 13154466
-0.024166666 0.20645238 0.72500002 12957075
-0.083991431 0.20554 0.71700001 11314560
-0.082625717 0.20554 0.71700001 6314292
-0.081259996 0.20554 0.71700001 6379323
-0.079894282 0.20554 0.71700001 7037253
-0.078419052 0.20525333 0.71600002 7168841
-0.076840006 0.20468001 0.71400005 6905669
-0.075162858 0.20382001 0.71100003 6510624
-0.073808573 0.20382001 0.71100003 7563312
-0.07235238 0.20353334 0.71000004 7694146
-0.071000002 0.20353334 0.71000004 7628353
-0.069451429 0.20296 0.708 7759186
-0.068102859 0.20296 0.708 7561807
-0.066754289 0.20296 0.708 7364932
-0.065313332 0.20267333 0.70700002 7628104
-0.063876189 0.20238668 0.70600003 7366218
-0.062354293 0.20181336 0.70400006 7497804
-0.061013337 0.20181336 0.70400006 7695175
-0.059672385 0.20181336 0.70400006 7826761
-0.058331434 0.20181336 0.70400006 7497026
-0.056990478 0.20181336 0.70400006 6970682
-0.055649526 0.20181336 0.70400006 6905158
-0.054308575 0.20181336 0.70400006 6247228
-0.052967623 0.20181336 0.70400006 6313497
-0.051773336 0.20238668 0.70600003 6905634
-0.050428573 0.20238668 0.70600003 7102263
-0.04908381 0.20238668 0.70600003 7299642
-0.047806669 0.20267333 0.70700002 7299388
-0.046459999 0.20267333 0.70700002 7299388
-0.045113333 0.20267333 0.70700002 7299139
-0.043766666 0.20267333 0.70700002 8088655
-0.042479999 0.20296 0.708 7892825
-0.041131429 0.20296 0.708 7432274
-0.03989524 0.20353334 0.71000004 7431467
-0.038542859 0.20353334 0.71000004 6773537
-0.037242856 0.20382001 0.71100003 6574373
-0.035989527 0.20439336 0.71300006 6245408
-0.034631431 0.20439336 0.71300006 5849859
-0.033320002 0.20468001 0.71400005 6047238
-0.032049526 0.20525333 0.71600002 5850391
-0.030728571 0.20554 0.71700001 5192461
-0.029485716 0.20639999 0.72000003 5061120
-0.028114285 0.20639999 0.72000003 8416556
-0.026854288 0.20726001 0.72300005 10062452
-0.025477143 0.20726001 0.72300005 12957344
-0.083991431 0.20690572 0.71700001 11643266
-0.082625717 0.20690572 0.71700001 6379826
-0.081259996 0.20690572 0.71700001 6511431
-0.079894282 0.20690572 0.71700001 7169361
-0.078419052 0.20661715 0.71600002 7562821
-0.076840006 0.20604001 0.71400005 7365442
-0.075480007 0.20604001 0.71400005 7299388
-0.073808573 0.2051743 0.71100003 8154697
-0.07235238 0.20488572 0.71000004 7694128
-0.071000002 0.20488572 0.71000004 7694128
-0.069451429 0.20430857 0.708 7694407
-0.068102859 0.20430857 0.708 7694407
-0.066754289 0.20430857 0.708 7497798
-0.065313332 0.20402001 0.70700002 7563591
-0.063876189 0.20373145 0.70600003 7432262
-0.062531434 0.20373145 0.70600003 7300676
-0.061013337 0.2031543 0.70400006 7563591
-0.059672385 0.2031543 0.70400006 7563591
-0.058331434 0.2031543 0.70400006 7563591
-0.057152383 0.20373145 0.70600003 7563591
-0.05580762 0.20373145 0.70600003 7564119
-0.054462858 0.20373145 0.70600003 7432533
-0.053118095 0.20373145 0.70600003 7037255
-0.051773336 0.20373145 0.70600003 6971462
-0.050500002 0.20402001 0.70700002 7694911
-0.049153332 0.20402001 0.70700002 7760704
-0.047806669 0.20402001 0.70700002 7629632
-0.046459999 0.20402001 0.70700002 7695425
-0.045113333 0.20402001 0.70700002 7629384
-0.043828573 0.20430857 0.708 7826763
-0.042479999 0.20430857 0.708 7825742
-0.041131429 0.20430857 0.708 6904640
-0.03989524 0.20488572 0.71000004 6378527
-0.038542859 0.20488572 0.71000004 5589011
-0.037242856 0.2051743 0.71100003 5258273
-0.035989527 0.20575145 0.71300006 4468757
-0.034631431 0.20575145 0.71300006 5059330
-0.033320002 0.20604001 0.71400005 6177811
-0.032049526 0.20661715 0.71600002 5784586
-0.030728571 0.20690572 0.71700001 5060864
-0.029444763 0.20748286 0.71900004 5061386
-0.028114285 0.20777144 0.72000003 8482622
-0.02700286 0.20979145 0.72700006 9864816
-0.025618097 0.20979145 0.72700006 12825501
-0.085595243 0.2088524 0.71900004 12694153
-0.084225714 0.2088524 0.71900004 11971977
-0.082856201 0.2088524 0.71900004 7563846
-0.081486672 0.2088524 0.71900004 6971480
-0.079894282 0.20827143 0.71700001 7168859
-0.078419052 0.20798096 0.71600002 7431500
-0.077055238 0.20798096 0.71600002 7036742
-0.075480007 0.20740001 0.71400005 7035448
-0.073808573 0.20652857 0.71100003 7890757
-0.072454289 0.20652857 0.71100003 7628346
-0.071000002 0.20623811 0.71000004 7628346
-0.069647625 0.20623811 0.71000004 7563086
-0.068102859 0.20565714 0.708 7431500
-0.066754289 0.20565714 0.708 7562821
-0.065313332 0.20536667 0.70700002 7628614
-0.063876189 0.20507619 0.70600003 7432013
-0.062531434 0.20507619 0.70600003 7366220
-0.061013337 0.20449525 0.70400006 7432011
-0.059672385 0.20449525 0.70400006 7497804
-0.058331434 0.20449525 0.70400006 7366218
-0.057152383 0.20507619 0.70600003 7497804
-0.05580762 0.20507619 0.70600003 7498324
-0.054462858 0.20507619 0.70600003 7366738
-0.053118095 0.20507619 0.70600003 6972232
-0.051846668 0.20536667 0.70700002 7169611
-0.050500002 0.20536667 0.70700002 7563599
-0.049153332 0.20536667 0.70700002 7563599
-0.047806669 0.20536667 0.70700002 7433032
-0.046459999 0.20536667 0.70700002 7433032
-0.045113333 0.20536667 0.70700002 7563848
-0.043828573 0.20565714 0.708 7695434
-0.042479999 0.20565714 0.708 7759699
-0.041131429 0.20565714 0.708 6641218
-0.03989524 0.20623811 0.71000004 6246423
-0.038542859 0.20623811 0.71000004 5127942
-0.037242856 0.20652857 0.71100003 5061404
-0.035989527 0.20710953 0.71300006 4732439
-0.034680001 0.20740001 0.71400005 5190912
-0.033320002 0.20740001 0.71400005 5717256
-0.032049526 0.20798096 0.71600002 5324047
-0.030728571 0.20827143 0.71700001 4731910
-0.029444763 0.2088524 0.71900004 4995593
-0.028114285 0.20914286 0.72000003 8285243
-0.02700286 0.2111762 0.72700006 9601903
-0.085595243 0.21022192 0.71900004 12562066
-0.084225714 0.21022192 0.71900004 11906186
-0.082625717 0.20963715 0.71700001 8550743
-0.081259996 0.20963715 0.71700001 6512476
-0.079894282 0.20963715 0.71700001 5591374
-0.078419052 0.20934477 0.71600002 6510659
-0.077055238 0.20934477 0.71600002 6576452
-0.075480007 0.20876001 0.71400005 6904129
-0.073808573 0.20788287 0.71100003 7627852
-0.072454289 0.20788287 0.71100003 7431228
-0.071000002 0.20759049 0.71000004 7562814
-0.069647625 0.20759049 0.71000004 7562322
-0.068102859 0.20700571 0.708 7496529
-0.066754289 0.20700571 0.708 7300166
-0.065313332 0.20671335 0.70700002 7431752
-0.063966669 0.20671335 0.70700002 7497556
-0.062531434 0.20642096 0.70600003 7365970
-0.061186668 0.20642096 0.70600003 7431754
-0.059841909 0.20642096 0.70600003 7431754
-0.058497142 0.20642096 0.70600003 7562570
-0.057152383 0.20642096 0.70600003 7759949
-0.05580762 0.20642096 0.70600003 7433032
-0.054540001 0.20671335 0.70700002 7169860
-0.053193334 0.20671335 0.70700002 7432011
-0.051846668 0.20671335 0.70700002 7563597
-0.050571427 0.20700571 0.708 7563599
-0.049222857 0.20700571 0.708 7432013
-0.047874287 0.20700571 0.708 7301449
-0.046525717 0.20700571 0.708 7235656
-0.045177143 0.20700571 0.708 7234632
-0.043828573 0.20700571 0.708 7366218
-0.042479999 0.20700571 0.708 6905158
-0.041247621 0.20759049 0.71000004 5391919
-0.03989524 0.20759049 0.71000004 4995865
-0.038542859 0.20759049 0.71000004 4535314
-0.037242856 0.20788287 0.71100003 4863542
-0.035989527 0.20846763 0.71300006 5258300
-0.034680001 0.20876001 0.71400005 5324579
-0.033320002 0.20876001 0.71400005 5258786
-0.032049526 0.20934477 0.71600002 5192230
-0.030728571 0.20963715 0.71700001 4336921
-0.029444763 0.21022192 0.71900004 5061908
-0.028114285 0.21051429 0.72000003 8088386
-0.02700286 0.21256097 0.72700006 9733489
-0.084225714 0.21159144 0.71900004 11709580
-0.082625717 0.21100286 0.71700001 8354137
-0.081259996 0.21100286 0.71700001 6510931
-0.079894282 0.21100286 0.71700001 6116173
-0.078419052 0.21070857 0.71600002 6839101
-0.077055238 0.21070857 0.71600002 6970687
-0.075480007 0.21012001 0.71400005 6904640
-0.074016191 0.20982572 0.71300006 7365191
-0.072454289 0.20923714 0.71100003 7299647
-0.071100004 0.20923714 0.71100003 7431233
-0.069647625 0.20894288 0.71000004 7365707
-0.06829524 0.20894288 0.71000004 7299914
-0.066754289 0.20835428 0.708 6970682
-0.065405719 0.20835428 0.708 7365440
-0.063966669 0.20806001 0.70700002 7562059
-0.062619999 0.20806001 0.70700002 7496266
-0.061273329 0.20806001 0.70700002 7430725
-0.059926666 0.20806001 0.70700002 7496518
-0.058580004 0.20806001 0.70700002 7299652
-0.057233334 0.20806001 0.70700002 7562824
-0.055886667 0.20806001 0.70700002 7300676
-0.05461714 0.20835428 0.708 7300676
-0.05326857 0.20835428 0.708 7563599
-0.051919997 0.20835428 0.708 7563599
-0.050571427 0.20835428 0.708 7431761
-0.049222857 0.20835428 0.708 7431761
-0.047874287 0.20835428 0.708 7301195
-0.046525717 0.20835428 0.708 7301195
-0.045177143 0.20835428 0.708 7234632
-0.043828573 0.20835428 0.708 7168839
-0.042600002 0.20894288 0.71000004 6246987
-0.041247621 0.20894288 0.71000004 4273197
-0.03989524 0.20894288 0.71000004 4733440
-0.038597144 0.20923714 0.71100003 4733440
-0.037347622 0.20982572 0.71300006 4732682
-0.036040001 0.21012001 0.71400005 6245921
-0.034680001 0.21012001 0.71400005 6444116
-0.033413332 0.21070857 0.71600002 5194049
-0.032049526 0.21070857 0.71600002 5060632
-0.030728571 0.21100286 0.71700001 4600081
-0.029444763 0.21159144 0.71900004 5390612
