# .PCD v0.7 - Point Cloud Data file format
VERSION 0.7
FIELDS x y z rgba
SIZE 4 4 4 4
TYPE F F F U
COUNT 1 1 1 1
WIDTH 1117
HEIGHT 1
VIEWPOINT 0 0 0 1 0 0 0
POINTS 1117
DATA ascii
-0.031164765 0.1790162 0.76100004 8945492
-0.02971524 0.1790162 0.76100004 9274457
-0.028265715 0.1790162 0.76100004 11311980
-0.026851429 0.17925143 0.76200002 14799009
-0.0254 0.17925143 0.76200002 14470053
-0.092165716 0.18070287 0.76200002 13812629
-0.090714283 0.18070287 0.76200002 14141594
-0.08914572 0.18046573 0.76100004 13353122
-0.087465718 0.17999144 0.75900006 10918781
-0.085793331 0.17951715 0.75700003 9732957
-0.084128574 0.17904286 0.75500005 8417097
-0.082690477 0.17904286 0.75500005 8746335
-0.081144765 0.17880571 0.75400001 8351577
-0.079708569 0.17880571 0.75400001 7889482
-0.077857152 0.17785716 0.75000006 7823689
-0.076326661 0.17762001 0.74900001 8151356
-0.074700005 0.17714572 0.74700004 8282942
-0.073277146 0.17714572 0.74700004 8022064
-0.071854293 0.17714572 0.74700004 8022064
-0.070337147 0.17690858 0.74600005 7955778
-0.068916194 0.17690858 0.74600005 8416329
-0.067495242 0.17690858 0.74600005 8088134
-0.065897144 0.17643429 0.74400002 4403726
-0.064479999 0.17643429 0.74400002 4927488
-0.063062862 0.17643429 0.74400002 9335614
-0.061480001 0.17596 0.74200004 8811865
-0.06006667 0.17596 0.74200004 8811865
-0.05881143 0.17643429 0.74400002 8482652
-0.057394285 0.17643429 0.74400002 4535072
-0.055977143 0.17643429 0.74400002 4729600
-0.05470667 0.17690858 0.74600005 5848072
-0.053285718 0.17690858 0.74600005 5715764
-0.051864766 0.17690858 0.74600005 5584178
-0.050511431 0.17714572 0.74700004 8216640
-0.049088575 0.17714572 0.74700004 8545605
-0.047665719 0.17714572 0.74700004 6968370
-0.046242859 0.17714572 0.74700004 6902577
-0.044939999 0.17762001 0.74900001 6771262
-0.043513332 0.17762001 0.74900001 5652781
-0.042086668 0.17762001 0.74900001 5058054
-0.04071429 0.17785716 0.75000006 7097637
-0.039285716 0.17785716 0.75000006 8548944
-0.037958097 0.17833143 0.75200003 8548944
-0.036622856 0.17880571 0.75400001 7957561
-0.035186667 0.17880571 0.75400001 8089147
-0.033795241 0.17904286 0.75500005 8682572
-0.032528572 0.17999144 0.75900006 9208916
-0.031164765 0.18046573 0.76100004 9142871
-0.02971524 0.18046573 0.76100004 9208664
-0.028302858 0.18070287 0.76200002 11575152
-0.026921906 0.18117715 0.76400006 14535837
-0.090595245 0.18191525 0.76100004 14338719
-0.08914572 0.18191525 0.76100004 13550764
-0.087696187 0.18191525 0.76100004 10721665
-0.086020008 0.18143716 0.75900006 9208914
-0.084351428 0.18095905 0.75700003 7300917
-0.082690477 0.18048097 0.75500005 8088403
-0.081144765 0.1802419 0.75400001 8285782
-0.079708569 0.1802419 0.75400001 8086853
-0.077857152 0.17928572 0.75000006 7889474
-0.076326661 0.17904668 0.74900001 8217149
-0.074700005 0.17856857 0.74700004 8217149
-0.073277146 0.17856857 0.74700004 7891241
-0.071854293 0.17856857 0.74700004 8285999
-0.070431434 0.17856857 0.74700004 8219979
-0.069008574 0.17856857 0.74700004 8680530
-0.067495242 0.17832954 0.74600005 7695652
-0.066074289 0.17832954 0.74600005 3484928
-0.064653337 0.17832954 0.74600005 5783883
-0.063232385 0.17832954 0.74600005 9468291
-0.061645716 0.17785142 0.74400002 8877893
-0.060228571 0.17785142 0.74400002 8088377
-0.05881143 0.17785142 0.74400002 7825223
-0.057394285 0.17785142 0.74400002 4140815
-0.056127623 0.17832954 0.74600005 4927488
-0.05470667 0.17832954 0.74600005 7888168
-0.053285718 0.17832954 0.74600005 6837564
-0.051864766 0.17832954 0.74600005 4337430
-0.050511431 0.17856857 0.74700004 6245421
-0.049088575 0.17856857 0.74700004 7298109
-0.047665719 0.17856857 0.74700004 6837038
-0.046242859 0.17856857 0.74700004 6705452
-0.044939999 0.17904668 0.74900001 6640196
-0.043571431 0.17928572 0.75000006 6771782
-0.042142861 0.17928572 0.75000006 6443317
-0.04082286 0.17976382 0.75200003 6114352
-0.039390475 0.17976382 0.75200003 8154931
-0.037958097 0.17976382 0.75200003 9141826
-0.036622856 0.1802419 0.75400001 8286526
-0.035186667 0.1802419 0.75400001 8220733
-0.033795241 0.18048097 0.75500005 8484677
-0.032528572 0.18143716 0.75900006 9274193
-0.031164765 0.18191525 0.76100004 9076830
-0.02971524 0.18191525 0.76100004 9076830
-0.028302858 0.1821543 0.76200002 11508839
-0.026921906 0.18263239 0.76400006 14666903
-0.090595245 0.18336476 0.76100004 13943963
-0.08914572 0.18336476 0.76100004 13550760
-0.087696187 0.18336476 0.76100004 11050626
-0.086246669 0.18336476 0.76100004 9209186
-0.084574297 0.18288288 0.75900006 6709052
-0.083128572 0.18288288 0.75900006 7561809
-0.081252381 0.18191905 0.75500005 7759188
-0.079708569 0.1816781 0.75400001 8217651
-0.078064762 0.1811962 0.75200003 8217651
-0.076326661 0.18047334 0.74900001 8283703
-0.074700005 0.17999144 0.74700004 8349496
-0.073277146 0.17999144 0.74700004 7957300
-0.071854293 0.17999144 0.74700004 8154679
-0.070431434 0.17999144 0.74700004 8220492
-0.069008574 0.17999144 0.74700004 8286285
-0.067495242 0.17975049 0.74600005 6774300
-0.066074289 0.17975049 0.74600005 5195268
-0.064653337 0.17975049 0.74600005 5788235
-0.063232385 0.17975049 0.74600005 8419955
-0.061645716 0.17926858 0.74400002 8550746
-0.060228571 0.17926858 0.74400002 6774335
-0.05881143 0.17926858 0.74400002 6575173
-0.057394285 0.17926858 0.74400002 3877660
-0.056127623 0.17975049 0.74600005 4335872
-0.05470667 0.17975049 0.74600005 8875581
-0.053285718 0.17975049 0.74600005 7957121
-0.051864766 0.17975049 0.74600005 4799057
-0.050511431 0.17999144 0.74700004 4862978
-0.049088575 0.17999144 0.74700004 6376217
-0.047793336 0.18047334 0.74900001 6442276
-0.046366669 0.18047334 0.74900001 6705448
-0.045000002 0.18071429 0.75000006 6443057
-0.043571431 0.18071429 0.75000006 7561538
-0.042255241 0.1811962 0.75200003 7300177
-0.04082286 0.1811962 0.75200003 6905419
-0.039390475 0.1811962 0.75200003 7167282
-0.038059048 0.1816781 0.75400001 8022591
-0.036622856 0.1816781 0.75400001 8219207
-0.035233337 0.18191905 0.75500005 8613965
-0.033884764 0.18240096 0.75700003 8352335
-0.032614287 0.18336476 0.76100004 9207644
-0.031164765 0.18336476 0.76100004 8879451
-0.029754287 0.18360572 0.76200002 9142623
-0.028302858 0.18360572 0.76200002 11640175
-0.026921906 0.18408762 0.76400006 14798239
-0.025466667 0.18408762 0.76400006 14272674
-0.090595245 0.18481429 0.76100004 13877405
-0.08914572 0.18481429 0.76100004 13746845
-0.087696187 0.18481429 0.76100004 12102020
-0.086246669 0.18481429 0.76100004 10195578
-0.084797144 0.18481429 0.76100004 5655861
-0.083128572 0.18432859 0.75900006 6246733
-0.081467621 0.18384285 0.75700003 6246733
-0.079814292 0.18335715 0.75500005 6837295
-0.078272387 0.18311429 0.75400001 7824190
-0.076326661 0.18190001 0.74900001 8219189
-0.074900001 0.18190001 0.74900001 8219189
-0.073473334 0.18190001 0.74900001 8022841
-0.071854293 0.18141431 0.74700004 8088634
-0.070431434 0.18141431 0.74700004 8088652
-0.069008574 0.18141431 0.74700004 8154445
-0.067585714 0.18141431 0.74700004 6510887
-0.066074289 0.18117143 0.74600005 5655578
-0.064653337 0.18117143 0.74600005 6313300
-0.063232385 0.18117143 0.74600005 8813434
-0.061811436 0.18117143 0.74600005 8221270
-0.06039048 0.18117143 0.74600005 5392171
-0.058969527 0.18117143 0.74600005 5589316
-0.057548571 0.18117143 0.74600005 5194558
-0.056127623 0.18117143 0.74600005 5587230
-0.05470667 0.18117143 0.74600005 9403224
-0.053285718 0.18117143 0.74600005 8878698
-0.051934287 0.18141431 0.74700004 5325876
-0.050511431 0.18141431 0.74700004 5257988
-0.049219999 0.18190001 0.74900001 5981711
-0.047793336 0.18190001 0.74900001 5916184
-0.046366669 0.18190001 0.74900001 7297837
-0.045000002 0.18214287 0.75000006 7957059
-0.043571431 0.18214287 0.75000006 8154438
-0.042255241 0.18262857 0.75200003 8089945
-0.04082286 0.18262857 0.75200003 8155738
-0.039390475 0.18262857 0.75200003 7430998
-0.038059048 0.18311429 0.75400001 7496791
-0.03667143 0.18335715 0.75500005 8088657
-0.035233337 0.18335715 0.75500005 9470310
-0.033884764 0.18384285 0.75700003 9208426
-0.032614287 0.18481429 0.76100004 9076840
-0.031164765 0.18481429 0.76100004 9075547
-0.029754287 0.18505715 0.76200002 9470305
-0.028302858 0.18505715 0.76200002 11640695
-0.026921906 0.18554287 0.76400006 15127724
-0.025466667 0.18554287 0.76400006 14601891
-0.090595245 0.18626381 0.76100004 13942949
-0.08914572 0.18626381 0.76100004 13746593
-0.087696187 0.18626381 0.76100004 12562319
-0.086246669 0.18626381 0.76100004 10656131
-0.084797144 0.18626381 0.76100004 6774344
-0.083347626 0.18626381 0.76100004 6379836
-0.081682861 0.1857743 0.75900006 5787699
-0.08002571 0.18528476 0.75700003 6247195
-0.078272387 0.18455048 0.75400001 7563055
-0.076428577 0.18357144 0.75000006 8219961
-0.075000003 0.18357144 0.75000006 8483133
-0.073473334 0.18332666 0.74900001 8286787
-0.072046667 0.18332666 0.74900001 8220994
-0.070431434 0.18283714 0.74700004 7957579
-0.069008574 0.18283714 0.74700004 7760200
-0.067585714 0.18283714 0.74700004 6116098
-0.066074289 0.18259239 0.74600005 6050305
-0.064653337 0.18259239 0.74600005 7562313
-0.063232385 0.18259239 0.74600005 8943966
-0.061811436 0.18259239 0.74600005 7695185
-0.06039048 0.18259239 0.74600005 5524016
-0.058969527 0.18259239 0.74600005 5786695
-0.057548571 0.18259239 0.74600005 4799800
-0.056127623 0.18259239 0.74600005 5782558
-0.05470667 0.18259239 0.74600005 9664345
-0.053285718 0.18259239 0.74600005 9010039
-0.051934287 0.18283714 0.74700004 5720389
-0.050511431 0.18283714 0.74700004 5520649
-0.049088575 0.18283714 0.74700004 6310165
-0.047793336 0.18332666 0.74900001 5785102
-0.046366669 0.18332666 0.74900001 7824685
-0.045000002 0.18357144 0.75000006 7827032
-0.043571431 0.18357144 0.75000006 7761239
-0.042255241 0.18406096 0.75200003 7892825
-0.04082286 0.18406096 0.75200003 7827032
-0.039495237 0.18455048 0.75400001 7496527
-0.038059048 0.18455048 0.75400001 7759699
-0.03667143 0.18479526 0.75500005 8286796
-0.035326667 0.18528476 0.75700003 9339484
-0.03397429 0.1857743 0.75900006 9273956
-0.032614287 0.18626381 0.76100004 8944991
-0.031205716 0.18650857 0.76200002 8746825
-0.029754287 0.18650857 0.76200002 9602134
-0.028302858 0.18650857 0.76200002 11772024
-0.026851429 0.18650857 0.76200002 14666916
-0.0254 0.18650857 0.76200002 14404260
-0.09119048 0.18894668 0.76600003 13614754
-0.089731432 0.18894668 0.76600003 13680549
-0.087811433 0.18796 0.76200002 12562068
-0.08636 0.18796 0.76200002 10721661
-0.084908567 0.18796 0.76200002 7497804
-0.083347626 0.18771334 0.76100004 7234382
-0.081682861 0.18722001 0.75900006 7563347
-0.08002571 0.18672667 0.75700003 7891786
-0.078376196 0.18623334 0.75500005 8023372
-0.076632388 0.18549334 0.75200003 8088636
-0.075000003 0.18500002 0.75000006 8417601
-0.073571436 0.18500002 0.75000006 8286519
-0.072046667 0.18475333 0.74900001 8089140
-0.070431434 0.18426001 0.74700004 7957066
-0.069008574 0.18426001 0.74700004 7299136
-0.067585714 0.18426001 0.74700004 6116370
-0.066162854 0.18426001 0.74700004 5655819
-0.064653337 0.18401335 0.74600005 7365417
-0.063232385 0.18401335 0.74600005 8944449
-0.061811436 0.18401335 0.74600005 7694900
-0.06039048 0.18401335 0.74600005 5918489
-0.058969527 0.18401335 0.74600005 5327175
-0.057548571 0.18401335 0.74600005 3813936
-0.056127623 0.18401335 0.74600005 5257019
-0.05470667 0.18401335 0.74600005 7296602
-0.053285718 0.18401335 0.74600005 6969404
-0.051934287 0.18426001 0.74700004 6574646
-0.050511431 0.18426001 0.74700004 7956532
-0.049088575 0.18426001 0.74700004 8482876
-0.047793336 0.18475333 0.74900001 8220241
-0.046428576 0.18500002 0.75000006 8614999
-0.045000002 0.18500002 0.75000006 7562070
-0.043687619 0.18549334 0.75200003 7364691
-0.042255241 0.18549334 0.75200003 7430998
-0.04093143 0.18598665 0.75400001 7825756
-0.039495237 0.18598665 0.75400001 8022871
-0.038059048 0.18598665 0.75400001 8680801
-0.03667143 0.18623334 0.75500005 8813640
-0.035326667 0.18672667 0.75700003 9274191
-0.03397429 0.18722001 0.75900006 9142871
-0.032614287 0.18771334 0.76100004 9208664
-0.031205716 0.18796 0.76200002 9076040
-0.029754287 0.18796 0.76200002 9931349
-0.028302858 0.18796 0.76200002 11772540
-0.026851429 0.18796 0.76200002 14470053
-0.09119048 0.19040573 0.76600003 13745823
-0.089731432 0.19040573 0.76600003 13615015
-0.088041909 0.18990859 0.76400006 13220257
-0.086586677 0.18990859 0.76400006 10656129
-0.084908567 0.18941143 0.76200002 7103307
-0.08345715 0.18941143 0.76200002 7825993
-0.081898101 0.18916285 0.76100004 8352337
-0.08023715 0.18866573 0.75900006 8286293
-0.078376196 0.18767144 0.75500005 7957328
-0.076632388 0.18692571 0.75200003 7825471
-0.075000003 0.18642858 0.75000006 8286022
-0.073571436 0.18642858 0.75000006 8220733
-0.072046667 0.18618 0.74900001 8089147
-0.07062 0.18618 0.74900001 8022859
-0.069008574 0.18568286 0.74700004 7759687
-0.067585714 0.18568286 0.74700004 6313247
-0.066162854 0.18568286 0.74700004 5523731
-0.064653337 0.1854343 0.74600005 7233829
-0.063232385 0.1854343 0.74600005 8089138
-0.061811436 0.1854343 0.74600005 6511163
-0.06039048 0.1854343 0.74600005 5392682
-0.058969527 0.1854343 0.74600005 5260333
-0.057548571 0.1854343 0.74600005 5391919
-0.056127623 0.1854343 0.74600005 5458225
-0.054780003 0.18568286 0.74700004 5918776
-0.053357143 0.18568286 0.74700004 6378018
-0.051934287 0.18568286 0.74700004 7299120
-0.050511431 0.18568286 0.74700004 8218960
-0.049088575 0.18568286 0.74700004 8547925
-0.047793336 0.18618 0.74900001 8154958
-0.046428576 0.18642858 0.75000006 7825993
-0.045000002 0.18642858 0.75000006 7233094
-0.043687619 0.18692571 0.75200003 7430473
-0.042255241 0.18692571 0.75200003 7561798
-0.04093143 0.18742286 0.75400001 8088142
-0.039495237 0.18742286 0.75400001 7957328
-0.038059048 0.18742286 0.75400001 8681051
-0.036768574 0.18816859 0.75700003 8879699
-0.035326667 0.18816859 0.75700003 8813906
-0.03397429 0.18866573 0.75900006 9010258
-0.032614287 0.18916285 0.76100004 8812879
-0.031205716 0.18941143 0.76200002 9076292
-0.029754287 0.18941143 0.76200002 9997394
-0.028302858 0.18941143 0.76200002 11773053
-0.026851429 0.18941143 0.76200002 14470566
-0.09119048 0.19186477 0.76600003 13812127
-0.089731432 0.19186477 0.76600003 13483940
-0.088272385 0.19186477 0.76600003 13220768
-0.086586677 0.19136383 0.76400006 11313792
-0.084908567 0.19086286 0.76200002 6510903
-0.08345715 0.19086286 0.76200002 7561798
-0.081898101 0.19061239 0.76100004 9009244
-0.08023715 0.19011144 0.75900006 8286036
-0.078583807 0.18961048 0.75700003 8022864
-0.076632388 0.18835811 0.75200003 7957572
-0.075000003 0.18785715 0.75000006 8220744
-0.073571436 0.18785715 0.75000006 8220994
-0.072046667 0.18760666 0.74900001 8352580
-0.07062 0.18760666 0.74900001 8287063
-0.069008574 0.18710573 0.74700004 8550235
-0.067585714 0.18710573 0.74700004 6971210
-0.066162854 0.18710573 0.74700004 5392178
-0.064740002 0.18710573 0.74700004 6509882
-0.063317142 0.18710573 0.74700004 7628363
-0.061811436 0.18685524 0.74600005 6773068
-0.06039048 0.18685524 0.74600005 6444103
-0.058969527 0.18685524 0.74600005 7431228
-0.057548571 0.18685524 0.74600005 7760193
-0.056202862 0.18710573 0.74700004 7825494
-0.054780003 0.18710573 0.74700004 7693908
-0.053357143 0.18710573 0.74700004 7693889
-0.051934287 0.18710573 0.74700004 7759682
-0.050511431 0.18710573 0.74700004 7824710
-0.049088575 0.18710573 0.74700004 8087882
-0.047793336 0.18760666 0.74900001 7957572
-0.046428576 0.18785715 0.75000006 7694400
-0.045000002 0.18785715 0.75000006 7890767
-0.043687619 0.18835811 0.75200003 8153939
-0.042255241 0.18835811 0.75200003 8088657
-0.04093143 0.18885905 0.75400001 8680794
-0.039495237 0.18885905 0.75400001 8484677
-0.038059048 0.18885905 0.75400001 8682056
-0.036768574 0.18961048 0.75700003 8286034
-0.035326667 0.18961048 0.75700003 7825483
-0.03397429 0.19011144 0.75900006 8088123
-0.032614287 0.19061239 0.76100004 8417088
-0.031205716 0.19086286 0.76200002 8285504
-0.029754287 0.19086286 0.76200002 10390880
-0.028302858 0.19086286 0.76200002 11707001
-0.026851429 0.19086286 0.76200002 14667686
-0.089731432 0.19332381 0.76600003 13155241
-0.088272385 0.19332381 0.76600003 13155241
-0.086586677 0.19281907 0.76400006 11248256
-0.084908567 0.1923143 0.76200002 6642746
-0.08345715 0.1923143 0.76200002 7495999
-0.081898101 0.19206192 0.76100004 8088136
-0.08023715 0.19155715 0.75900006 7957320
-0.078583807 0.19105239 0.75700003 7957320
-0.076632388 0.18979049 0.75200003 8023365
-0.075200006 0.18979049 0.75200003 8286537
-0.073571436 0.18928573 0.75000006 8221003
-0.072046667 0.18903333 0.74900001 8221003
-0.07062 0.18903333 0.74900001 8221519
-0.069193333 0.18903333 0.74900001 8418898
-0.067585714 0.18852858 0.74700004 7827783
-0.066162854 0.18852858 0.74700004 5853993
-0.064740002 0.18852858 0.74700004 6575104
-0.063317142 0.18852858 0.74700004 8022550
-0.06189429 0.18852858 0.74700004 7824972
-0.06047143 0.18852858 0.74700004 7824972
-0.058969527 0.1882762 0.74600005 8087631
-0.057548571 0.1882762 0.74600005 8087631
-0.056202862 0.18852858 0.74700004 8021842
-0.054780003 0.18852858 0.74700004 7890256
-0.053357143 0.18852858 0.74700004 7694128
-0.051934287 0.18852858 0.74700004 7562542
-0.050511431 0.18852858 0.74700004 6641703
-0.049088575 0.18852858 0.74700004 7760184
-0.047793336 0.18903333 0.74900001 7891278
-0.046428576 0.18928573 0.75000006 7891278
-0.045000002 0.18928573 0.75000006 8021838
-0.043687619 0.18979049 0.75200003 8219217
-0.042255241 0.18979049 0.75200003 8022610
-0.04093143 0.19029523 0.75400001 8614747
-0.039495237 0.19029523 0.75400001 8550233
-0.038109526 0.19054763 0.75500005 8352854
-0.036768574 0.19105239 0.75700003 8022339
-0.035420001 0.19155715 0.75900006 7364409
-0.034063812 0.19206192 0.76100004 7756564
-0.032614287 0.19206192 0.76100004 7559185
-0.031205716 0.1923143 0.76200002 8414753
-0.029754287 0.1923143 0.76200002 10783301
-0.028302858 0.1923143 0.76200002 11640695
-0.026851429 0.1923143 0.76200002 14404001
-0.089848571 0.19503714 0.76700002 13286829
-0.088272385 0.19478285 0.76600003 13484208
-0.086586677 0.19427431 0.76400006 12104308
-0.085131437 0.19427431 0.76400006 6511903
-0.08345715 0.19376571 0.76200002 7232823
-0.081898101 0.19351144 0.76100004 7167030
-0.08023715 0.19300286 0.75900006 7694128
-0.07879144 0.19300286 0.75900006 7891507
-0.076836191 0.19173144 0.75400001 8023113
-0.075200006 0.19122286 0.75200003 8352078
-0.073571436 0.1907143 0.75000006 8286533
-0.072046667 0.19046 0.74900001 8286533
-0.07062 0.19046 0.74900001 8221767
-0.069193333 0.19046 0.74900001 8155974
-0.067766666 0.19046 0.74900001 8156737
-0.066339999 0.19046 0.74900001 8090944
-0.064740002 0.18995143 0.74700004 8024892
-0.063317142 0.18995143 0.74700004 8551236
-0.06189429 0.18995143 0.74700004 8288314
-0.06047143 0.18995143 0.74700004 7367212
-0.059048574 0.18995143 0.74700004 7627852
-0.057625718 0.18995143 0.74700004 7430473
-0.056202862 0.18995143 0.74700004 7496009
-0.054780003 0.18995143 0.74700004 7364423
-0.053357143 0.18995143 0.74700004 7628067
-0.051934287 0.18995143 0.74700004 7825446
-0.050646666 0.19046 0.74900001 7693637
-0.049219999 0.19046 0.74900001 7759430
-0.047857147 0.1907143 0.75000006 7956308
-0.046428576 0.1907143 0.75000006 8680031
-0.045000002 0.1907143 0.75000006 8549719
-0.043687619 0.19122286 0.75200003 9010270
-0.042255241 0.19122286 0.75200003 8549206
-0.04093143 0.19173144 0.75400001 7891276
-0.039495237 0.19173144 0.75400001 7297624
-0.038109526 0.19198573 0.75500005 7034452
-0.03667143 0.19198573 0.75500005 6770979
-0.035420001 0.19300286 0.75900006 6573600
-0.034063812 0.19351144 0.76100004 6508802
-0.032657143 0.19376571 0.76200002 6706181
-0.031205716 0.19376571 0.76200002 7692329
-0.029832384 0.19427431 0.76400006 10521428
-0.028377144 0.19427431 0.76400006 11772542
-0.026921906 0.19427431 0.76400006 14535848
-0.089848571 0.1964981 0.76700002 13418149
-0.088272385 0.19624192 0.76600003 13747114
-0.086586677 0.19572954 0.76400006 12300935
-0.085131437 0.19572954 0.76400006 6971702
-0.08345715 0.19521715 0.76200002 7102002
-0.081898101 0.19496097 0.76100004 7957311
-0.08023715 0.19444859 0.75900006 7891278
-0.07879144 0.19444859 0.75900006 7759692
-0.076836191 0.19316763 0.75400001 8088906
-0.075200006 0.19265525 0.75200003 8286285
-0.073767617 0.19265525 0.75200003 8286542
-0.072142862 0.19214287 0.75000006 8418128
-0.070714295 0.19214287 0.75000006 8221517
-0.069285721 0.19214287 0.75000006 8221517
-0.067766666 0.19188666 0.74900001 8551238
-0.066339999 0.19188666 0.74900001 8551238
-0.06491334 0.19188666 0.74900001 7893826
-0.063317142 0.19137429 0.74700004 8420170
-0.06189429 0.19137429 0.74700004 8354388
-0.06047143 0.19137429 0.74700004 7696458
-0.059048574 0.19137429 0.74700004 7299647
-0.057625718 0.19137429 0.74700004 7102268
-0.056202862 0.19137429 0.74700004 7167555
-0.054780003 0.19137429 0.74700004 7364934
-0.053357143 0.19137429 0.74700004 8022071
-0.051934287 0.19137429 0.74700004 8087864
-0.050511431 0.19137429 0.74700004 8087875
-0.049219999 0.19188666 0.74900001 8022082
-0.047857147 0.19214287 0.75000006 7759179
-0.046428576 0.19214287 0.75000006 8746074
-0.045000002 0.19214287 0.75000006 8615783
-0.043687619 0.19265525 0.75200003 8549990
-0.042255241 0.19265525 0.75200003 8549457
-0.04093143 0.19316763 0.75400001 7299390
-0.039495237 0.19316763 0.75400001 7493946
-0.038109526 0.19342382 0.75500005 6836016
-0.03667143 0.19342382 0.75500005 6376210
-0.035420001 0.19444859 0.75900006 6310417
-0.034063812 0.19496097 0.76100004 6179592
-0.032657143 0.19521715 0.76200002 5521664
-0.031287622 0.19572954 0.76400006 7231760
-0.029910479 0.19624192 0.76600003 10784582
-0.02845143 0.19624192 0.76600003 11970173
-0.026992382 0.19624192 0.76600003 14338721
-0.089848571 0.19795905 0.76700002 13483678
-0.088387616 0.19795905 0.76700002 13878436
-0.086813338 0.19770096 0.76600003 12301439
-0.085131437 0.19718479 0.76400006 7235378
-0.08345715 0.19666858 0.76200002 7629133
-0.081898101 0.19641048 0.76100004 9010786
-0.08023715 0.1958943 0.75900006 8155234
-0.07879144 0.1958943 0.75900006 7826269
-0.076836191 0.1946038 0.75400001 8088657
-0.075399995 0.1946038 0.75400001 8286036
-0.073767617 0.19408762 0.75200003 8614737
-0.072335243 0.19408762 0.75200003 8746323
-0.070902862 0.19408762 0.75200003 8352839
-0.069285721 0.19357145 0.75000006 8352839
-0.067857146 0.19357145 0.75000006 8485175
-0.066428579 0.19357145 0.75000006 8616761
-0.06491334 0.19331333 0.74900001 8287812
-0.063486665 0.19331333 0.74900001 8682570
-0.062060002 0.19331333 0.74900001 8485459
-0.06047143 0.19279715 0.74700004 8419666
-0.059048574 0.19279715 0.74700004 8155724
-0.057625718 0.19279715 0.74700004 8089931
-0.056202862 0.19279715 0.74700004 8286285
-0.054780003 0.19279715 0.74700004 7891527
-0.053357143 0.19279715 0.74700004 8154450
-0.051934287 0.19279715 0.74700004 8878173
-0.050511431 0.19279715 0.74700004 8616011
-0.049219999 0.19331333 0.74900001 8550218
-0.047857147 0.19357145 0.75000006 8615258
-0.046428576 0.19357145 0.75000006 9273188
-0.045000002 0.19357145 0.75000006 8746871
-0.043687619 0.19408762 0.75200003 7759976
-0.042367619 0.1946038 0.75400001 7431181
-0.04093143 0.1946038 0.75400001 6444288
-0.039495237 0.1946038 0.75400001 5850148
-0.038109526 0.19486192 0.75500005 5850148
-0.036768574 0.19537809 0.75700003 6112295
-0.035420001 0.1958943 0.75900006 6507053
-0.034063812 0.19641048 0.76100004 6114328
-0.032742858 0.19718479 0.76400006 5259019
-0.031287622 0.19718479 0.76400006 6837765
-0.029910479 0.19770096 0.76600003 10785345
-0.02845143 0.19770096 0.76600003 11838585
-0.02702762 0.19795905 0.76700002 14470305
-0.025566667 0.19795905 0.76700002 14141342
-0.090082861 0.19994001 0.76900005 13418149
-0.088387616 0.19942001 0.76700002 13681321
-0.086926669 0.19942001 0.76700002 12432782
-0.085354283 0.19916001 0.76600003 7893065
-0.08345715 0.19812 0.76200002 7497547
-0.081898101 0.19786 0.76100004 7958098
-0.08023715 0.19734001 0.75900006 7957848
-0.07879144 0.19734001 0.75900006 7694676
-0.076836191 0.19603999 0.75400001 7957320
-0.075399995 0.19603999 0.75400001 8220492
-0.073767617 0.19552 0.75200003 8483151
-0.072335243 0.19552 0.75200003 8680530
-0.070902862 0.19552 0.75200003 8155724
-0.069470473 0.19552 0.75200003 7958345
-0.067857146 0.19500001 0.75000006 8154931
-0.066428579 0.19500001 0.75000006 8286517
-0.065000005 0.19500001 0.75000006 8220490
-0.063571438 0.19500001 0.75000006 8417869
-0.062060002 0.19474 0.74900001 8287310
-0.060633335 0.19474 0.74900001 8484689
-0.059048574 0.19422001 0.74700004 8353103
-0.057625718 0.19422001 0.74700004 8353103
-0.056202862 0.19422001 0.74700004 8418133
-0.054780003 0.19422001 0.74700004 8352340
-0.053357143 0.19422001 0.74700004 8155484
-0.051934287 0.19422001 0.74700004 8352863
-0.050511431 0.19422001 0.74700004 8353616
-0.049219999 0.19474 0.74900001 8419409
-0.047857147 0.19500001 0.75000006 8615512
-0.046428576 0.19500001 0.75000006 8812891
-0.045000002 0.19500001 0.75000006 8680290
-0.043687619 0.19552 0.75200003 7364430
-0.042367619 0.19603999 0.75400001 6970407
-0.04093143 0.19603999 0.75400001 5522961
-0.039495237 0.19603999 0.75400001 5325573
-0.038109526 0.19630001 0.75500005 5786124
-0.036768574 0.19682001 0.75700003 5323799
-0.035420001 0.19734001 0.75900006 5915936
-0.034108575 0.19812 0.76200002 5916434
-0.032742858 0.19864002 0.76400006 5258504
-0.031287622 0.19864002 0.76400006 6706204
-0.029910479 0.19916001 0.76600003 10851163
-0.02845143 0.19916001 0.76600003 11707001
-0.02702762 0.19942001 0.76700002 14272928
-0.025566667 0.19942001 0.76700002 14010535
-0.088387616 0.20088096 0.76700002 13550249
-0.086926669 0.20088096 0.76700002 12761503
-0.085354283 0.20061906 0.76600003 8550751
-0.08345715 0.19957143 0.76200002 7037773
-0.081898101 0.19930953 0.76100004 7037773
-0.080448568 0.19930953 0.76100004 7760970
-0.07879144 0.19878574 0.75900006 7826763
-0.0769381 0.19773811 0.75500005 7957320
-0.075399995 0.19747619 0.75400001 8088906
-0.073963813 0.19747619 0.75400001 8352069
-0.072335243 0.19695239 0.75200003 8483655
-0.070902862 0.19695239 0.75200003 8286533
-0.069470473 0.19695239 0.75200003 8154947
-0.068038099 0.19695239 0.75200003 8220474
-0.066605717 0.19695239 0.75200003 8352060
-0.065000005 0.19642858 0.75000006 8220241
-0.063571438 0.19642858 0.75000006 8220241
-0.062142864 0.19642858 0.75000006 8221519
-0.060633335 0.19616666 0.74900001 8353105
-0.059206665 0.19616666 0.74900001 8221517
-0.057780001 0.19616666 0.74900001 8155724
-0.056353334 0.19616666 0.74900001 8352335
-0.054926667 0.19616666 0.74900001 8483921
-0.0535 0.19616666 0.74900001 8155232
-0.052073333 0.19616666 0.74900001 8023646
-0.050646666 0.19616666 0.74900001 8222030
-0.049285717 0.19642858 0.75000006 8287823
-0.047857147 0.19642858 0.75000006 8483921
-0.046428576 0.19642858 0.75000006 8483921
-0.045120001 0.19695239 0.75200003 8155190
-0.043687619 0.19695239 0.75200003 6049814
-0.042367619 0.19747619 0.75400001 5259306
-0.04093143 0.19747619 0.75400001 4403997
-0.039547618 0.19773811 0.75500005 5061386
-0.038109526 0.19773811 0.75500005 5916695
-0.036768574 0.1982619 0.75700003 5851174
-0.035513334 0.19930953 0.76100004 5522209
-0.034198094 0.20009525 0.76400006 5522191
-0.032828573 0.20061906 0.76600003 4995847
-0.031369522 0.20061906 0.76600003 6640690
-0.029949524 0.20088096 0.76700002 10917235
-0.028488571 0.20088096 0.76700002 11773053
-0.027098097 0.20140478 0.76900005 14075808
-0.025633333 0.20140478 0.76900005 14141351
-0.090082861 0.20286953 0.76900005 13023640
-0.0886181 0.20286953 0.76900005 13681570
-0.086926669 0.2023419 0.76700002 13090470
-0.085465722 0.2023419 0.76700002 8616546
-0.083676197 0.2015505 0.76400006 7233357
-0.082005717 0.20102286 0.76200002 7299150
-0.080448568 0.20075905 0.76100004 8023865
-0.07879144 0.20023143 0.75900006 8023865
-0.0769381 0.19917619 0.75500005 7760180
-0.075500011 0.19917619 0.75500005 8154938
-0.073963813 0.19891238 0.75400001 8351819
-0.072527617 0.19891238 0.75400001 8220233
-0.071091428 0.19891238 0.75400001 8088904
-0.069470473 0.19838478 0.75200003 8154697
-0.068038099 0.19838478 0.75200003 8285772
-0.066605717 0.19838478 0.75200003 8351565
-0.065173343 0.19838478 0.75200003 8220233
-0.063571438 0.19785716 0.75000006 8286026
-0.062142864 0.19785716 0.75000006 8154961
-0.06071429 0.19785716 0.75000006 8220754
-0.059206665 0.19759333 0.74900001 8089931
-0.057780001 0.19759333 0.74900001 8155724
-0.056353334 0.19759333 0.74900001 8353103
-0.054926667 0.19759333 0.74900001 8287310
-0.0535 0.19759333 0.74900001 7958098
-0.052073333 0.19759333 0.74900001 7892305
-0.050646666 0.19759333 0.74900001 8023622
-0.049285717 0.19785716 0.75000006 8155208
-0.047857147 0.19785716 0.75000006 8155477
-0.046552382 0.19838478 0.75200003 7892305
-0.045120001 0.19838478 0.75200003 7300153
-0.043803807 0.19891238 0.75400001 4668433
-0.042367619 0.19891238 0.75400001 5191945
-0.04093143 0.19891238 0.75400001 5257738
-0.039547618 0.19917619 0.75500005 5127701
-0.038109526 0.19917619 0.75500005 6509354
-0.036865719 0.20023143 0.75900006 6903627
-0.035560001 0.20102286 0.76200002 5258802
-0.034198094 0.2015505 0.76400006 4731136
-0.032828573 0.2020781 0.76600003 5257472
-0.031410474 0.2023419 0.76700002 6771502
-0.029949524 0.2023419 0.76700002 10982254
-0.028488571 0.2023419 0.76700002 11838848
-0.027098097 0.20286953 0.76900005 14075810
-0.0886181 0.20433429 0.76900005 14076058
-0.087153338 0.20433429 0.76900005 13221795
-0.085465722 0.20380287 0.76700002 10195317
-0.083895244 0.20353715 0.76600003 7103341
-0.082220957 0.20300573 0.76400006 6511204
-0.080554284 0.2024743 0.76200002 7695391
-0.07899905 0.20220858 0.76100004 8090149
-0.077345721 0.20167716 0.75900006 7694146
-0.075500011 0.2006143 0.75500005 8088904
-0.074061908 0.2006143 0.75500005 8089158
-0.072527617 0.20034857 0.75400001 8089158
-0.071091428 0.20034857 0.75400001 8023372
-0.06965524 0.20034857 0.75400001 8089165
-0.068038099 0.19981715 0.75200003 8089432
-0.066605717 0.19981715 0.75200003 7957846
-0.065173343 0.19981715 0.75200003 8088904
-0.063740954 0.19981715 0.75200003 8088904
-0.062308576 0.19981715 0.75200003 8089165
-0.06071429 0.19928573 0.75000006 8023372
-0.059285719 0.19928573 0.75000006 8220994
-0.057857145 0.19928573 0.75000006 8286787
-0.056353334 0.19902001 0.74900001 8090435
-0.054926667 0.19902001 0.74900001 8090435
-0.053571433 0.19928573 0.75000006 7893054
-0.052142859 0.19928573 0.75000006 7893054
-0.050714288 0.19928573 0.75000006 7958599
-0.049417142 0.19981715 0.75200003 8024392
-0.047984764 0.19981715 0.75200003 7958349
-0.046552382 0.19981715 0.75200003 6971454
-0.045120001 0.19981715 0.75200003 6642469
-0.043803807 0.20034857 0.75400001 4471300
-0.042367619 0.20034857 0.75400001 5192246
-0.040985718 0.2006143 0.75500005 6639692
-0.039547618 0.2006143 0.75500005 7234125
-0.038109526 0.2006143 0.75500005 8681571
-0.036865719 0.20167716 0.75900006 8024642
-0.035560001 0.2024743 0.76200002 4669199
-0.034198094 0.20300573 0.76400006 4799232
-0.032828573 0.20353715 0.76600003 6246673
-0.031410474 0.20380287 0.76700002 6708014
-0.029949524 0.20380287 0.76700002 10655594
-0.028488571 0.20380287 0.76700002 11838848
-0.027098097 0.20433429 0.76900005 14141603
-0.0886181 0.20579906 0.76900005 13812886
-0.087153338 0.20579906 0.76900005 13287592
-0.085465722 0.20526381 0.76700002 10590079
-0.083895244 0.20499618 0.76600003 8221538
-0.082220957 0.20446096 0.76400006 6905678
-0.080554284 0.20392571 0.76200002 7694900
-0.07899905 0.20365809 0.76100004 7497521
-0.077549525 0.20365809 0.76100004 7233840
-0.0757 0.20258763 0.75700003 8154942
-0.074061908 0.2020524 0.75500005 8023622
-0.072527617 0.20178477 0.75400001 8023622
-0.071091428 0.20178477 0.75400001 7892806
-0.06965524 0.20178477 0.75400001 7958599
-0.068038099 0.20124954 0.75200003 7893326
-0.066605717 0.20124954 0.75200003 7761740
-0.065173343 0.20124954 0.75200003 7958347
-0.063740954 0.20124954 0.75200003 7958347
-0.062308576 0.20124954 0.75200003 8089165
-0.060876191 0.20124954 0.75200003 8023372
-0.059285719 0.20071431 0.75000006 7891784
-0.057857145 0.20071431 0.75000006 7891784
-0.056428574 0.20071431 0.75000006 7760200
-0.055000003 0.20071431 0.75000006 8154958
-0.053571433 0.20071431 0.75000006 7959119
-0.052142859 0.20071431 0.75000006 7959119
-0.050714288 0.20071431 0.75000006 8024912
-0.049417142 0.20124954 0.75200003 7959119
-0.047984764 0.20124954 0.75200003 7694672
-0.046552382 0.20124954 0.75200003 7102535
-0.04524 0.20178477 0.75400001 6313006
-0.043803807 0.20178477 0.75400001 4405009
-0.042423811 0.2020524 0.75500005 5060632
-0.040985718 0.2020524 0.75500005 7166008
-0.039547618 0.2020524 0.75500005 7430736
-0.038210478 0.20258763 0.75700003 8417631
-0.036962859 0.20365809 0.76100004 7893332
-0.035653338 0.20446096 0.76400006 4406303
-0.03428762 0.20499618 0.76600003 4799488
-0.032871429 0.20526381 0.76700002 6246927
-0.031410474 0.20526381 0.76700002 7036209
-0.029949524 0.20526381 0.76700002 10852203
-0.028488571 0.20526381 0.76700002 11904649
-0.027098097 0.20579906 0.76900005 14141611
-0.025633333 0.20579906 0.76900005 14010284
-0.088848568 0.20780286 0.77100003 13747093
-0.087153338 0.20726383 0.76900005 13418663
-0.085465722 0.20672476 0.76700002 10918529
-0.083895244 0.20645525 0.76600003 8418417
-0.082436197 0.20645525 0.76600003 7036764
-0.080765724 0.20591621 0.76400006 7497547
-0.079102859 0.20537715 0.76200002 7365961
-0.077549525 0.20510763 0.76100004 7365707
-0.075900003 0.20456858 0.75900006 7892051
-0.074454293 0.20456858 0.75900006 7958333
-0.072623812 0.20349048 0.75500005 7892540
-0.071091428 0.20322095 0.75400001 7827261
-0.06965524 0.20322095 0.75400001 7958847
-0.068219043 0.20322095 0.75400001 7696186
-0.066605717 0.20268191 0.75200003 7235635
-0.065173343 0.20268191 0.75200003 7037756
-0.063740954 0.20268191 0.75200003 7103549
-0.062308576 0.20268191 0.75200003 7103295
-0.060876191 0.20268191 0.75200003 7169088
-0.059443813 0.20268191 0.75200003 7103295
-0.058011431 0.20268191 0.75200003 7169088
-0.05657905 0.20268191 0.75200003 6905167
-0.055146668 0.20268191 0.75200003 6839374
-0.053714287 0.20268191 0.75200003 6708288
-0.052281909 0.20268191 0.75200003 6774081
-0.050849527 0.20268191 0.75200003 6839626
-0.049417142 0.20268191 0.75200003 7365970
-0.047984764 0.20268191 0.75200003 7562313
-0.046676192 0.20322095 0.75400001 7364934
-0.04524 0.20322095 0.75400001 6509907
-0.043803807 0.20322095 0.75400001 6246735
-0.042423811 0.20349048 0.75500005 6772806
-0.041094288 0.20402953 0.75700003 8022873
-0.039652381 0.20402953 0.75700003 7957579
-0.038311433 0.20456858 0.75900006 8089165
-0.036962859 0.20510763 0.76100004 7826734
-0.035653338 0.20591621 0.76400006 6445081
-0.03428762 0.20645525 0.76600003 6379586
-0.032871429 0.20672476 0.76700002 6840137
-0.031410474 0.20672476 0.76700002 7365426
-0.029949524 0.20672476 0.76700002 10984041
-0.028562859 0.20726383 0.76900005 11970192
-0.027168572 0.20780286 0.77100003 14207154
-0.025700001 0.20780286 0.77100003 14010025
-0.088848568 0.20927143 0.77100003 13550479
-0.087153338 0.20872858 0.76900005 13483678
-0.085465722 0.20818572 0.76700002 11049337
-0.08400476 0.20818572 0.76700002 9208426
-0.082436197 0.20791429 0.76600003 7300429
-0.080765724 0.20737144 0.76400006 7760719
-0.079310484 0.20737144 0.76400006 7431754
-0.077651434 0.20682858 0.76200002 7627852
-0.076100007 0.20655715 0.76100004 7956817
-0.074454293 0.20601431 0.75900006 7761220
-0.072623812 0.20492859 0.75500005 7827013
-0.071185715 0.20492859 0.75500005 7761227
-0.06965524 0.20465714 0.75400001 7827020
-0.068219043 0.20465714 0.75400001 7629641
-0.066782854 0.20465714 0.75400001 6313781
-0.065173343 0.20411429 0.75200003 6247461
-0.063740954 0.20411429 0.75200003 6510633
-0.062308576 0.20411429 0.75200003 6578505
-0.060876191 0.20411429 0.75200003 6512712
-0.059443813 0.20411429 0.75200003 6512710
-0.058011431 0.20411429 0.75200003 6446917
-0.05657905 0.20411429 0.75200003 6313793
-0.055146668 0.20411429 0.75200003 5392691
-0.053714287 0.20411429 0.75200003 5588500
-0.052281909 0.20411429 0.75200003 5654293
-0.050849527 0.20411429 0.75200003 6970174
-0.049417142 0.20411429 0.75200003 7430725
-0.048112381 0.20465714 0.75400001 7430725
-0.046676192 0.20465714 0.75400001 7364932
-0.04524 0.20465714 0.75400001 7430221
-0.043861907 0.20492859 0.75500005 7496014
-0.042423811 0.20492859 0.75500005 7430725
-0.041094288 0.20547144 0.75700003 7759690
-0.039652381 0.20547144 0.75700003 7628353
-0.038311433 0.20601431 0.75900006 7957318
-0.037011426 0.20682858 0.76200002 7826745
-0.035653338 0.20737144 0.76400006 7366194
-0.03428762 0.20791429 0.76600003 7168839
-0.032871429 0.20818572 0.76700002 6774081
-0.031410474 0.20818572 0.76700002 7562810
-0.029949524 0.20818572 0.76700002 11115632
-0.028562859 0.20872858 0.76900005 12036237
-0.027168572 0.20927143 0.77100003 14075820
-0.025700001 0.20927143 0.77100003 13681311
-0.088848568 0.21074 0.77100003 13549707
-0.087153338 0.21019335 0.76900005 13418130
-0.085465722 0.20964667 0.76700002 10983789
-0.08400476 0.20964667 0.76700002 9339501
-0.082436197 0.20937334 0.76600003 7365711
-0.080977142 0.20937334 0.76600003 7891535
-0.079310484 0.20882669 0.76400006 7825742
-0.077651434 0.20828 0.76200002 7759186
-0.076100007 0.20800668 0.76100004 7956565
-0.074454293 0.20746002 0.75900006 7825991
-0.073008575 0.20746002 0.75900006 7825991
-0.071185715 0.20636667 0.75500005 7695185
-0.069747627 0.20636667 0.75500005 7497806
-0.068219043 0.20609333 0.75400001 7432013
-0.066782854 0.20609333 0.75400001 6181946
-0.065346666 0.20609333 0.75400001 5722157
-0.063910477 0.20609333 0.75400001 4669469
-0.062308576 0.20554666 0.75200003 5131843
-0.060876191 0.20554666 0.75200003 5000257
-0.059443813 0.20554666 0.75200003 5197118
-0.058011431 0.20554666 0.75200003 4999739
-0.05657905 0.20554666 0.75200003 5262123
-0.055146668 0.20554666 0.75200003 4341021
-0.053714287 0.20554666 0.75200003 5128480
-0.052281909 0.20554666 0.75200003 5325859
-0.050849527 0.20554666 0.75200003 5984585
-0.04954857 0.20609333 0.75400001 7037273
-0.048112381 0.20609333 0.75400001 7562814
-0.046676192 0.20609333 0.75400001 7694400
-0.04524 0.20609333 0.75400001 7759188
-0.043861907 0.20636667 0.75500005 7890774
-0.042536192 0.20691334 0.75700003 7759678
-0.041094288 0.20691334 0.75700003 7496506
-0.039757144 0.20746002 0.75900006 7365942
-0.038311433 0.20746002 0.75900006 7300149
-0.037011426 0.20828 0.76200002 7365440
-0.035653338 0.20882669 0.76400006 7431233
-0.03428762 0.20937334 0.76600003 7168839
-0.032871429 0.20964667 0.76700002 6839874
-0.031410474 0.20964667 0.76700002 7628603
-0.030027622 0.21019335 0.76900005 11247218
-0.028562859 0.21019335 0.76900005 11970444
-0.027168572 0.21074 0.77100003 14338992
-0.025700001 0.21074 0.77100003 14010528
-0.088848568 0.21220858 0.77100003 13680780
-0.087379999 0.21220858 0.77100003 13548953
-0.085688576 0.21165811 0.76900005 11311991
-0.08400476 0.21110763 0.76700002 9799786
-0.082543813 0.21110763 0.76700002 7562824
-0.080977142 0.21083239 0.76600003 8023121
-0.079518095 0.21083239 0.76600003 8220500
-0.077855244 0.21028192 0.76400006 7825744
-0.076200001 0.20973143 0.76200002 7825744
-0.074650481 0.20945621 0.76100004 7825991
-0.073008575 0.20890573 0.75900006 7957577
-0.071185715 0.20780478 0.75500005 7694926
-0.069747627 0.20780478 0.75500005 7629133
-0.068219043 0.20752953 0.75400001 7562570
-0.066782854 0.20752953 0.75400001 6904640
-0.065346666 0.20752953 0.75400001 6049847
-0.063910477 0.20752953 0.75400001 5457710
-0.062474284 0.20752953 0.75400001 5789507
-0.060876191 0.20697905 0.75200003 5328956
-0.059443813 0.20697905 0.75200003 5131836
-0.058011431 0.20697905 0.75200003 5197629
-0.05657905 0.20697905 0.75200003 5459520
-0.055146668 0.20697905 0.75200003 5130555
-0.053714287 0.20697905 0.75200003 5130541
-0.052420951 0.20752953 0.75400001 4933162
-0.050984763 0.20752953 0.75400001 5984555
-0.04954857 0.20752953 0.75400001 7366208
-0.048112381 0.20752953 0.75400001 7496769
-0.046738099 0.20780478 0.75500005 7430976
-0.045300003 0.20780478 0.75500005 7693388
-0.043978095 0.20835525 0.75700003 7956560
-0.042536192 0.20835525 0.75700003 7825993
-0.041202862 0.20890573 0.75900006 7365442
-0.039757144 0.20890573 0.75900006 7365692
-0.038412381 0.20945621 0.76100004 7168313
-0.037011426 0.20973143 0.76200002 7168315
-0.035746668 0.21083239 0.76600003 7628866
-0.03433238 0.21110763 0.76700002 7432262
-0.032871429 0.21110763 0.76700002 6971711
-0.031492382 0.21165811 0.76900005 7759682
-0.030027622 0.21165811 0.76900005 11049332
-0.028562859 0.21165811 0.76900005 11773063
-0.027274288 0.2130343 0.77400005 14141611
-0.025800001 0.2130343 0.77400005 13878698
-0.088848568 0.21367715 0.77100003 13746832
-0.087379999 0.21367715 0.77100003 13286553
-0.085688576 0.21312287 0.76900005 11575935
-0.08400476 0.21256858 0.76700002 9932389
-0.082543813 0.21256858 0.76700002 6708532
-0.081082858 0.21256858 0.76700002 7365707
-0.079518095 0.21229143 0.76600003 8418395
-0.077855244 0.21173716 0.76400006 7825744
-0.076200001 0.21118286 0.76200002 7759951
-0.074650481 0.21090572 0.76100004 7629382
-0.073008575 0.21035144 0.75900006 7695175
-0.071374282 0.20979714 0.75700003 7498307
-0.069747627 0.20924287 0.75500005 7498307
-0.068309531 0.20924287 0.75500005 7695157
-0.066782854 0.20896572 0.75400001 7431985
-0.065346666 0.20896572 0.75400001 5984585
-0.063910477 0.20896572 0.75400001 5458241
-0.062474284 0.20896572 0.75400001 5591860
-0.061038099 0.20896572 0.75400001 5591860
-0.059443813 0.20841144 0.75200003 5394481
-0.058011431 0.20841144 0.75200003 5526067
-0.056729525 0.20896572 0.75400001 5656649
-0.055293337 0.20896572 0.75400001 5656649
-0.05385714 0.20896572 0.75400001 5130821
-0.052420951 0.20896572 0.75400001 5722958
-0.050984763 0.20896572 0.75400001 6775095
-0.04954857 0.20896572 0.75400001 7367232
-0.048112381 0.20896572 0.75400001 7431228
-0.046738099 0.20924287 0.75500005 7365435
-0.045300003 0.20924287 0.75500005 7430976
-0.043978095 0.20979714 0.75700003 6970425
-0.042536192 0.20979714 0.75700003 7101757
-0.041202862 0.21035144 0.75900006 7167550
-0.039757144 0.21035144 0.75900006 7102772
-0.038412381 0.21090572 0.76100004 6905393
-0.037011426 0.21118286 0.76200002 7168315
-0.035746668 0.21229143 0.76600003 7826245
-0.03433238 0.21256858 0.76700002 7628363
-0.032957144 0.21312287 0.76900005 7102019
-0.031492382 0.21312287 0.76900005 7693894
-0.030105716 0.21367715 0.77100003 10654579
-0.028711431 0.21423145 0.77300006 11773055
-0.027344763 0.21506286 0.77600002 14404775
-0.025933335 0.21561715 0.77800006 13878446
-0.089079052 0.21570382 0.77300006 13549973
-0.087379999 0.21514572 0.77100003 13089182
-0.085688576 0.21458763 0.76900005 11707529
-0.084223814 0.21458763 0.76900005 10130027
-0.082543813 0.21402952 0.76700002 6906170
-0.081082858 0.21402952 0.76700002 6905391
-0.079518095 0.21375048 0.76600003 7563321
-0.077855244 0.2131924 0.76400006 7563086
-0.076200001 0.2126343 0.76200002 7563086
-0.074650481 0.21235524 0.76100004 7497804
-0.073200949 0.21235524 0.76100004 7300425
-0.071562864 0.21179716 0.75900006 7103808
-0.069932379 0.21123905 0.75700003 7301187
-0.068309531 0.21068096 0.75500005 7433525
-0.066871434 0.21068096 0.75500005 6972974
-0.065346666 0.21040189 0.75400001 5787449
-0.063910477 0.21040189 0.75400001 5392691
-0.062474284 0.21040189 0.75400001 5328429
-0.061038099 0.21040189 0.75400001 5131050
-0.059601903 0.21040189 0.75400001 5065249
-0.058165714 0.21040189 0.75400001 5131042
-0.056729525 0.21040189 0.75400001 5261882
-0.055293337 0.21040189 0.75400001 5196089
-0.05385714 0.21040189 0.75400001 5063740
-0.052420951 0.21040189 0.75400001 6445393
-0.050984763 0.21040189 0.75400001 6973265
-0.04954857 0.21040189 0.75400001 7104851
-0.048112381 0.21040189 0.75400001 7168315
-0.046738099 0.21068096 0.75500005 7365694
-0.045300003 0.21068096 0.75500005 7431233
-0.043978095 0.21123905 0.75700003 6904889
-0.042536192 0.21123905 0.75700003 6970677
-0.041202862 0.21179716 0.75900006 6641712
-0.039757144 0.21179716 0.75900006 6641199
-0.038412381 0.21235524 0.76100004 6575406
-0.037108574 0.2131924 0.76400006 7233595
-0.035746668 0.21375048 0.76600003 7562560
-0.03433238 0.21402952 0.76700002 7366218
-0.032957144 0.21458763 0.76900005 7168839
-0.031574287 0.21514572 0.77100003 7759939
-0.030183813 0.21570382 0.77300006 10128487
-0.028711431 0.21570382 0.77300006 11838343
-0.027344763 0.21654096 0.77600002 14141098
-0.025933335 0.21709906 0.77800006 13679777
-0.024451429 0.21709906 0.77800006 13745570
-0.08919429 0.21745716 0.77400005 13616281
-0.087606676 0.2171762 0.77300006 13024168
-0.08591143 0.21661429 0.77100003 11774101
-0.084223814 0.21605238 0.76900005 10656619
-0.082759053 0.21605238 0.76900005 7366969
-0.081082858 0.21549048 0.76700002 6774325
-0.079518095 0.21520954 0.76600003 7300669
-0.077855244 0.21464764 0.76400006 7497293
-0.076200001 0.21408571 0.76200002 7497293
-0.074650481 0.21380477 0.76100004 7299914
-0.073200949 0.21380477 0.76100004 7102535
-0.071562864 0.21324287 0.75900006 6972224
-0.069932379 0.21268095 0.75700003 7038017
-0.068490475 0.21268095 0.75700003 6972956
-0.067048572 0.21268095 0.75700003 6907163
-0.065433331 0.21211907 0.75500005 5656397
-0.063995242 0.21211907 0.75500005 5524811
-0.062474284 0.2118381 0.75400001 5196089
-0.061038099 0.2118381 0.75400001 4603952
-0.059601903 0.2118381 0.75400001 4801807
-0.058165714 0.2118381 0.75400001 5130772
-0.056729525 0.2118381 0.75400001 5391678
-0.055293337 0.2118381 0.75400001 5654850
-0.05385714 0.2118381 0.75400001 5589064
-0.052420951 0.2118381 0.75400001 6707545
-0.050984763 0.2118381 0.75400001 7103818
-0.04954857 0.2118381 0.75400001 7103818
-0.048112381 0.2118381 0.75400001 6970433
-0.046738099 0.21211907 0.75500005 6904640
-0.045300003 0.21211907 0.75500005 6905141
-0.043978095 0.21268095 0.75700003 6839348
-0.042648572 0.21324287 0.75900006 6970414
-0.041202862 0.21324287 0.75900006 6444070
-0.039757144 0.21324287 0.75900006 6246712
-0.038412381 0.21380477 0.76100004 5983540
-0.037011426 0.21408571 0.76200002 6378550
-0.035746668 0.21520954 0.76600003 7299652
-0.03433238 0.21549048 0.76700002 7234634
-0.032957144 0.21605238 0.76900005 8221529
-0.031574287 0.21661429 0.77100003 8023622
-0.030105716 0.21661429 0.77100003 9602654
-0.028637143 0.21661429 0.77100003 10587787
-0.027344763 0.21801905 0.77600002 14337988
-0.026000001 0.21914285 0.78000003 14075558
-0.08919429 0.21893145 0.77400005 13550234
-0.087606676 0.2186486 0.77300006 12958634
-0.086134292 0.2186486 0.77300006 11708567
-0.084442854 0.21808288 0.77100003 10591350
-0.082759053 0.21751717 0.76900005 7104321
-0.081294291 0.21751717 0.76900005 7366971
-0.079621911 0.21695143 0.76700002 7893315
-0.078059055 0.21666858 0.76600003 7629140
-0.076400004 0.21610287 0.76400006 7102796
-0.074650481 0.21525429 0.76100004 7168328
-0.073200949 0.21525429 0.76100004 7102535
-0.071562864 0.21468858 0.75900006 7037756
-0.069932379 0.21412286 0.75700003 6971963
-0.068490475 0.21412286 0.75700003 6906661
-0.067048572 0.21412286 0.75700003 6906661
-0.065433331 0.21355715 0.75500005 6511420
-0.063995242 0.21355715 0.75500005 6182455
-0.062557146 0.21355715 0.75500005 5986359
-0.06111905 0.21355715 0.75500005 5657394
-0.059680957 0.21355715 0.75500005 5592093
-0.058242857 0.21355715 0.75500005 5657886
-0.056729525 0.21327429 0.75400001 6050352
-0.055293337 0.21327429 0.75400001 5918766
-0.05385714 0.21327429 0.75400001 5655343
-0.052420951 0.21327429 0.75400001 6773824
-0.050984763 0.21327429 0.75400001 6971210
-0.04954857 0.21327429 0.75400001 7037003
-0.048112381 0.21327429 0.75400001 6576692
-0.046738099 0.21355715 0.75500005 6839864
-0.045420002 0.21412286 0.75700003 6708537
-0.043978095 0.21412286 0.75700003 6642744
-0.042648572 0.21468858 0.75900006 6839348
-0.041202862 0.21468858 0.75900006 6510383
-0.039757144 0.21468858 0.75900006 6312236
-0.038412381 0.21525429 0.76100004 5720099
-0.037011426 0.21553715 0.76200002 5852165
-0.035746668 0.21666858 0.76600003 7168025
-0.03433238 0.21695143 0.76700002 6839624
-0.032957144 0.21751717 0.76900005 7826519
-0.031574287 0.21808288 0.77100003 7826745
-0.030105716 0.21808288 0.77100003 8879433
-0.028637143 0.21808288 0.77100003 10521461
