# .PCD v0.7 - Point Cloud Data file format
VERSION 0.7
FIELDS x y z rgba
SIZE 4 4 4 4
TYPE F F F U
COUNT 1 1 1 1
WIDTH 1131
HEIGHT 1
VIEWPOINT 0 0 0 1 0 0 0
POINTS 1131
DATA ascii
-0.042305715 0.13323143 0.66300005 527105
-0.041104764 0.13343239 0.66400003 724484
-0.039840002 0.13343239 0.66400003 855309
-0.038691428 0.13383429 0.66600001 855309
-0.037422854 0.13383429 0.66600001 986895
-0.036262862 0.1342362 0.66800004 1052688
-0.035095241 0.1346381 0.67000002 1313823
-0.033869524 0.13483904 0.671 1774374
-0.032737143 0.13544191 0.67400002 2037546
-0.031500001 0.13564286 0.67500001 2761269
-0.030214285 0.13564286 0.67500001 3223857
-0.02892857 0.13564286 0.67500001 1381653
-0.027765715 0.13624573 0.67800003 3807744
-0.026513334 0.13644667 0.67900002 9071179
-0.02533143 0.13704953 0.68200004 11836027
-0.02406762 0.13725048 0.68300003 14796712
-0.022766666 0.13725048 0.68300003 14271897
-0.080000006 0.13632001 0.67200005 2298624
-0.07860285 0.13611715 0.671 1709839
-0.076979049 0.13550858 0.66800004 1380874
-0.075706668 0.13550858 0.66800004 1248784
-0.074322864 0.13530573 0.66700006 1380370
-0.07294286 0.13510285 0.66600001 1248784
-0.071674287 0.13510285 0.66600001 1051405
-0.070194289 0.13469715 0.66400003 657410
-0.068825722 0.13449429 0.66300005 788996
-0.067562856 0.13449429 0.66300005 788746
-0.06620001 0.13429144 0.66200006 788746
-0.064939052 0.13429144 0.66200006 853783
-0.063581906 0.13408858 0.66100001 787990
-0.062322859 0.13408858 0.66100001 591887
-0.060879052 0.13368286 0.65900004 657680
-0.059623811 0.13368286 0.65900004 657930
-0.058368575 0.13368286 0.65900004 592137
-0.057113335 0.13368286 0.65900004 592137
-0.055858098 0.13368286 0.65900004 657930
-0.054602861 0.13368286 0.65900004 723723
-0.053347621 0.13368286 0.65900004 723723
-0.052092385 0.13368286 0.65900004 723723
-0.050837144 0.13368286 0.65900004 789516
-0.049581908 0.13368286 0.65900004 789516
-0.048473332 0.13408858 0.66100001 789516
-0.047214285 0.13408858 0.66100001 657680
-0.045955241 0.13408858 0.66100001 657680
-0.044696189 0.13408858 0.66100001 723723
-0.043502863 0.13429144 0.66200006 723723
-0.042241909 0.13429144 0.66200006 658691
-0.041104764 0.13469715 0.66400003 724484
-0.039840002 0.13469715 0.66400003 855309
-0.038575239 0.13469715 0.66400003 855309
-0.037422854 0.13510285 0.66600001 986895
-0.036208577 0.13530573 0.66700006 1184274
-0.034990478 0.13550858 0.66800004 1248534
-0.03381905 0.1359143 0.67000002 1511706
-0.032640003 0.13632001 0.67200005 1840167
-0.031453334 0.13672572 0.67400002 2761269
-0.030214285 0.13692857 0.67500001 2960183
-0.02892857 0.13692857 0.67500001 2170667
-0.027683811 0.13713144 0.67600006 2626560
-0.026474288 0.13753714 0.67800003 4863517
-0.025220001 0.13774 0.67900002 10189374
-0.023961904 0.13794285 0.68000001 15123849
-0.022733334 0.13834858 0.68200004 14535076
-0.081642851 0.13821429 0.67500001 5919768
-0.079880953 0.13739523 0.671 2038016
-0.07848572 0.13719048 0.67000002 1577499
-0.076979049 0.13678096 0.66800004 1248534
-0.075706668 0.13678096 0.66800004 1248534
-0.074322864 0.13657621 0.66700006 1314327
-0.07294286 0.13637143 0.66600001 986895
-0.071674287 0.13637143 0.66600001 789516
-0.070194289 0.13596192 0.66400003 723456
-0.068929531 0.13596192 0.66400003 723456
-0.067562856 0.13575715 0.66300005 788746
-0.06620001 0.13555239 0.66200006 788746
-0.06484095 0.13534762 0.66100001 789025
-0.063581906 0.13534762 0.66100001 723232
-0.062134288 0.13493811 0.65900004 657930
-0.060879052 0.13493811 0.65900004 592137
-0.059623811 0.13493811 0.65900004 527105
-0.058368575 0.13493811 0.65900004 527105
-0.057113335 0.13493811 0.65900004 592137
-0.055858098 0.13493811 0.65900004 592137
-0.054602861 0.13493811 0.65900004 722701
-0.053347621 0.13493811 0.65900004 788494
-0.052092385 0.13493811 0.65900004 657680
-0.050837144 0.13493811 0.65900004 657680
-0.049581908 0.13493811 0.65900004 723723
-0.048473332 0.13534762 0.66100001 592137
-0.047214285 0.13534762 0.66100001 526094
-0.045955241 0.13534762 0.66100001 591887
-0.044696189 0.13534762 0.66100001 526344
-0.043437142 0.13534762 0.66100001 592137
-0.042241909 0.13555239 0.66200006 657930
-0.041042857 0.13575715 0.66300005 789516
-0.039840002 0.13596192 0.66400003 855309
-0.038575239 0.13596192 0.66400003 855309
-0.037310477 0.13596192 0.66400003 986645
-0.036154289 0.13637143 0.66600001 1249817
-0.034938097 0.13657621 0.66700006 1381403
-0.033718098 0.13678096 0.66800004 1578782
-0.032591429 0.13739523 0.671 1775407
-0.031313334 0.13739523 0.671 2104372
-0.030169524 0.13800952 0.67400002 2828329
-0.028885717 0.13800952 0.67400002 2565157
-0.027683811 0.13841906 0.67600006 2628136
-0.026474288 0.13882858 0.67800003 1970206
-0.025182858 0.13882858 0.67800003 4788553
-0.023961904 0.13923809 0.68000001 13604815
-0.022666667 0.13923809 0.68000001 14338192
-0.021434287 0.13964762 0.68200004 14140813
-0.083051436 0.13970669 0.67600006 3944976
-0.081642851 0.13950001 0.67500001 4404992
-0.079880953 0.13867332 0.671 3089152
-0.07848572 0.13846667 0.67000002 1842708
-0.076979049 0.13805334 0.66800004 987399
-0.075593337 0.13784668 0.66700006 920861
-0.074211434 0.13764 0.66600001 723482
-0.07294286 0.13764 0.66600001 855309
-0.071459055 0.13722667 0.66400003 789516
-0.070194289 0.13722667 0.66400003 788994
-0.068825722 0.13702002 0.66300005 723201
-0.067562856 0.13702002 0.66300005 723201
-0.066100001 0.13660666 0.66100001 854787
-0.06484095 0.13660666 0.66100001 788994
-0.063581906 0.13660666 0.66100001 788994
-0.062134288 0.13619334 0.65900004 592137
-0.060879052 0.13619334 0.65900004 460551
-0.059623811 0.13619334 0.65900004 461314
-0.058368575 0.13619334 0.65900004 461314
-0.057113335 0.13619334 0.65900004 526344
-0.055858098 0.13619334 0.65900004 526344
-0.054520003 0.13598667 0.65800005 526094
-0.053266671 0.13598667 0.65800005 657680
-0.052092385 0.13619334 0.65900004 461584
-0.050837144 0.13619334 0.65900004 395791
-0.049581908 0.13619334 0.65900004 461584
-0.048326671 0.13619334 0.65900004 395791
-0.047071431 0.13619334 0.65900004 526094
-0.045955241 0.13660666 0.66100001 460301
-0.044696189 0.13660666 0.66100001 460551
-0.043437142 0.13660666 0.66100001 592137
-0.042241909 0.13681334 0.66200006 657930
-0.041042857 0.13702002 0.66300005 723723
-0.039780006 0.13702002 0.66300005 855059
-0.038575239 0.13722667 0.66400003 657680
-0.037310477 0.13722667 0.66400003 986895
-0.036154289 0.13764 0.66600001 1315860
-0.034885716 0.13764 0.66600001 1447196
-0.03366762 0.13784668 0.66700006 1710368
-0.032542858 0.13846667 0.67000002 1907747
-0.031266667 0.13846667 0.67000002 2039333
-0.030080002 0.13888 0.67200005 2432808
-0.028885717 0.13929334 0.67400002 2432808
-0.027683811 0.13970669 0.67600006 2235431
-0.026474288 0.14012 0.67800003 393227
-0.025182858 0.14012 0.67800003 3147520
-0.023926668 0.14032666 0.67900002 12292743
-0.022666667 0.14053333 0.68000001 13023883
-0.021434287 0.14094667 0.68200004 13944985
-0.084339052 0.1409943 0.67600006 11379771
-0.083051436 0.1409943 0.67600006 2497792
-0.081159048 0.13995144 0.671 2106378
-0.079880953 0.13995144 0.671 3093273
-0.07848572 0.13974287 0.67000002 2236712
-0.076863818 0.13911715 0.66700006 986645
-0.075593337 0.13911715 0.66700006 985893
-0.074211434 0.13890858 0.66600001 854307
-0.072723806 0.13849142 0.66400003 855309
-0.071459055 0.13849142 0.66400003 789516
-0.070088573 0.13828287 0.66300005 986116
-0.068721905 0.13807429 0.66200006 854530
-0.067460962 0.13807429 0.66200006 788994
-0.066100001 0.13786572 0.66100001 723201
-0.06484095 0.13786572 0.66100001 526336
-0.063389532 0.13744858 0.65900004 526336
-0.062134288 0.13744858 0.65900004 461314
-0.060879052 0.13744858 0.65900004 395521
-0.059623811 0.13744858 0.65900004 461312
-0.058368575 0.13744858 0.65900004 461312
-0.057113335 0.13744858 0.65900004 526344
-0.055773336 0.13724001 0.65800005 526344
-0.054520003 0.13724001 0.65800005 526094
-0.053266671 0.13724001 0.65800005 591887
-0.052013338 0.13724001 0.65800005 657680
-0.050760005 0.13724001 0.65800005 657680
-0.049581908 0.13744858 0.65900004 657680
-0.048326671 0.13744858 0.65900004 657680
-0.047071431 0.13744858 0.65900004 330262
-0.045816191 0.13744858 0.65900004 264469
-0.044696189 0.13786572 0.66100001 527105
-0.043437142 0.13786572 0.66100001 592898
-0.042178098 0.13786572 0.66100001 788746
-0.040980954 0.13807429 0.66200006 854539
-0.039780006 0.13828287 0.66300005 855309
-0.038517147 0.13828287 0.66300005 723723
-0.037310477 0.13849142 0.66400003 723723
-0.036154289 0.13890858 0.66600001 1250067
-0.034885716 0.13890858 0.66600001 1447446
-0.033617143 0.13890858 0.66600001 1644825
-0.032397144 0.13911715 0.66700006 1907997
-0.031173335 0.13932572 0.66800004 1907997
-0.030035239 0.13995144 0.671 2367265
-0.028800001 0.14016001 0.67200005 2433058
-0.027642857 0.14078571 0.67500001 2300972
-0.026396191 0.1409943 0.67600006 721940
-0.025108574 0.1409943 0.67600006 3081984
-0.023891428 0.14141144 0.67800003 10385007
-0.022633335 0.14162 0.67900002 12628058
-0.021371428 0.14182857 0.68000001 14601848
-0.085626669 0.14228192 0.67600006 10326116
-0.084339052 0.14228192 0.67600006 9075774
-0.082928576 0.14207143 0.67500001 2496512
-0.081159048 0.14122953 0.671 2369309
-0.079761907 0.14101905 0.67000002 3158825
-0.078251429 0.1405981 0.66800004 2567210
-0.076863818 0.14038762 0.66700006 1580315
-0.075479999 0.14017715 0.66600001 1182771
-0.073988572 0.13975619 0.66400003 985392
-0.07261429 0.13954572 0.66300005 789516
-0.071351431 0.13954572 0.66300005 789516
-0.069982864 0.13933526 0.66200006 789516
-0.068618096 0.13912477 0.66100001 723723
-0.067359053 0.13912477 0.66100001 788746
-0.065900005 0.13870381 0.65900004 722953
-0.064644769 0.13870381 0.65900004 723456
-0.063389532 0.13870381 0.65900004 657664
-0.062134288 0.13870381 0.65900004 526344
-0.060879052 0.13870381 0.65900004 592137
-0.059533339 0.13849334 0.65800005 527105
-0.058280002 0.13849334 0.65800005 527105
-0.057026673 0.13849334 0.65800005 592137
-0.055773336 0.13849334 0.65800005 526344
-0.054520003 0.13849334 0.65800005 592137
-0.053266671 0.13849334 0.65800005 592137
-0.052013338 0.13849334 0.65800005 657680
-0.050760005 0.13849334 0.65800005 657680
-0.049581908 0.13870381 0.65900004 657680
-0.048326671 0.13870381 0.65900004 657680
-0.047071431 0.13870381 0.65900004 461584
-0.045816191 0.13870381 0.65900004 461584
-0.044560954 0.13870381 0.65900004 658180
-0.043305717 0.13870381 0.65900004 592387
-0.042178098 0.13912477 0.66100001 788994
-0.040980954 0.13933526 0.66200006 920580
-0.039720006 0.13933526 0.66200006 1051155
-0.038459051 0.13933526 0.66200006 1051155
-0.037254289 0.13954572 0.66300005 921102
-0.036045719 0.13975619 0.66400003 1315860
-0.034780953 0.13975619 0.66400003 1381403
-0.033617143 0.14017715 0.66600001 1644575
-0.032397144 0.14038762 0.66700006 1841450
-0.031126669 0.14038762 0.66700006 1907243
-0.029990477 0.14101905 0.67000002 1841954
-0.028757142 0.14122953 0.671 2039333
-0.027601905 0.14186096 0.67400002 2432808
-0.026396191 0.14228192 0.67600006 1051155
-0.025108574 0.14228192 0.67600006 2688003
-0.023891428 0.14270286 0.67800003 8740959
-0.022600001 0.14270286 0.67800003 11440979
-0.021371428 0.14312381 0.68000001 14401664
-0.085626669 0.14356954 0.67600006 9273419
-0.084214285 0.14335714 0.67500001 6905375
-0.082805723 0.14314476 0.67400002 2628864
-0.081159048 0.14250761 0.671 1775657
-0.079523817 0.14187048 0.66800004 2367794
-0.078134291 0.14165811 0.66700006 2434341
-0.076748572 0.14144571 0.66600001 3026478
-0.075253338 0.14102095 0.66400003 2630968
-0.073988572 0.14102095 0.66400003 1446694
-0.07261429 0.14080858 0.66300005 1315860
-0.071243815 0.1405962 0.66200006 921102
-0.069877148 0.14038381 0.66100001 921102
-0.068618096 0.14038381 0.66100001 789516
-0.067155235 0.13995907 0.65900004 789516
-0.065900005 0.13995907 0.65900004 657930
-0.064644769 0.13995907 0.65900004 592137
-0.063389532 0.13995907 0.65900004 592137
-0.062134288 0.13995907 0.65900004 592137
-0.060879052 0.13995907 0.65900004 657930
-0.059533339 0.13974668 0.65800005 658180
-0.058280002 0.13974668 0.65800005 592387
-0.057026673 0.13974668 0.65800005 592137
-0.055773336 0.13974668 0.65800005 592137
-0.054520003 0.13974668 0.65800005 526094
-0.053266671 0.13974668 0.65800005 657680
-0.052013338 0.13974668 0.65800005 396055
-0.050760005 0.13974668 0.65800005 330262
-0.049506668 0.13974668 0.65800005 461584
-0.048253335 0.13974668 0.65800005 527377
-0.047000002 0.13974668 0.65800005 592137
-0.045816191 0.13995907 0.65900004 592137
-0.044560954 0.13995907 0.65900004 527105
-0.043305717 0.13995907 0.65900004 527105
-0.042050481 0.13995907 0.65900004 657930
-0.040919047 0.14038381 0.66100001 723723
-0.039659999 0.14038381 0.66100001 789516
-0.038459051 0.1405962 0.66200006 921102
-0.037198097 0.1405962 0.66200006 986645
-0.035991434 0.14080858 0.66300005 1315610
-0.034780953 0.14102095 0.66400003 1774878
-0.033516191 0.14102095 0.66400003 1840671
-0.032348569 0.14144571 0.66600001 1775657
-0.031079998 0.14144571 0.66600001 1709864
-0.029856192 0.14165811 0.66700006 1842204
-0.028628573 0.14187048 0.66800004 1842204
-0.027520001 0.14272001 0.67200005 1841954
-0.026318096 0.14314476 0.67400002 920852
-0.025071429 0.14335714 0.67500001 2622226
-0.023820955 0.14356954 0.67600006 7490908
-0.022533335 0.14356954 0.67600006 10454624
-0.08820191 0.14485715 0.67600006 13418139
-0.086785711 0.14464286 0.67500001 13287303
-0.085500002 0.14464286 0.67500001 6642210
-0.084089532 0.14442858 0.67400002 5782542
-0.082437143 0.14378572 0.671 3348224
-0.081038095 0.14357142 0.67000002 1974551
-0.079523817 0.14314286 0.66800004 1842965
-0.078017138 0.14271429 0.66600001 2039052
-0.076518096 0.14228572 0.66400003 2696982
-0.075253338 0.14228572 0.66400003 2894390
-0.073877148 0.14207143 0.66300005 1841702
-0.072504766 0.14185715 0.66200006 1249817
-0.071243815 0.14185715 0.66200006 920852
-0.069877148 0.14164287 0.66100001 1051659
-0.068618096 0.14164287 0.66100001 985866
-0.067155235 0.1412143 0.65900004 789266
-0.065900005 0.1412143 0.65900004 789266
-0.064546667 0.14100002 0.65800005 657930
-0.063293338 0.14100002 0.65800005 657930
-0.062040005 0.14100002 0.65800005 657930
-0.060786668 0.14100002 0.65800005 657930
-0.059533339 0.14100002 0.65800005 788994
-0.058280002 0.14100002 0.65800005 788994
-0.057026673 0.14100002 0.65800005 788746
-0.055688571 0.14078571 0.65700001 788746
-0.054437142 0.14078571 0.65700001 591887
-0.053185716 0.14078571 0.65700001 657680
-0.051934287 0.14078571 0.65700001 593170
-0.050682854 0.14078571 0.65700001 461584
-0.049506668 0.14100002 0.65800005 789266
-0.048253335 0.14100002 0.65800005 855059
-0.047000002 0.14100002 0.65800005 788994
-0.045746669 0.14100002 0.65800005 788994
-0.044493336 0.14100002 0.65800005 658180
-0.043305717 0.1412143 0.65900004 658180
-0.042050481 0.1412143 0.65900004 789766
-0.040795241 0.1412143 0.65900004 789766
-0.039659999 0.14164287 0.66100001 855309
-0.038400952 0.14164287 0.66100001 986895
-0.037198097 0.14185715 0.66200006 1052438
-0.035991434 0.14207143 0.66300005 1381403
-0.034728575 0.14207143 0.66300005 1774374
-0.033516191 0.14228572 0.66400003 2037546
-0.032348569 0.14271429 0.66600001 1775407
-0.031079998 0.14271429 0.66600001 1643821
-0.029856192 0.14292859 0.66700006 1644825
-0.028628573 0.14314286 0.66800004 1776411
-0.027479049 0.14378572 0.671 1710368
-0.026318096 0.14442858 0.67400002 1184024
-0.025034286 0.14442858 0.67400002 2426373
-0.023785714 0.14464286 0.67500001 6834504
-0.022533335 0.14485715 0.67600006 10389070
-0.08820191 0.14614478 0.67600006 13549474
-0.086785711 0.14592858 0.67500001 12958592
-0.085373335 0.14571238 0.67400002 6116120
-0.084089532 0.14571238 0.67400002 3152727
-0.082314283 0.14484762 0.67000002 2955348
-0.080796197 0.14441526 0.66800004 2236962
-0.079404771 0.14419906 0.66700006 1250067
-0.078017138 0.14398286 0.66600001 1382407
-0.076518096 0.14355049 0.66400003 1645579
-0.075139999 0.14333428 0.66300005 1974551
-0.073765725 0.14311811 0.66200006 1514000
-0.072395235 0.1429019 0.66100001 986645
-0.071136191 0.1429019 0.66100001 920852
-0.069665715 0.14246953 0.65900004 722953
-0.068410479 0.14246953 0.65900004 722953
-0.06705334 0.14225334 0.65800005 657680
-0.065800004 0.14225334 0.65800005 657680
-0.064546667 0.14225334 0.65800005 657680
-0.063293338 0.14225334 0.65800005 657680
-0.061945714 0.14203715 0.65700001 461584
-0.060694285 0.14203715 0.65700001 461584
-0.059442859 0.14203715 0.65700001 657930
-0.05819143 0.14203715 0.65700001 592137
-0.056939997 0.14203715 0.65700001 657930
-0.055688571 0.14203715 0.65700001 657930
-0.054271434 0.14160477 0.65500003 723723
-0.053023811 0.14160477 0.65500003 723723
-0.051934287 0.14203715 0.65700001 396041
-0.050682854 0.14203715 0.65700001 396041
-0.049431428 0.14203715 0.65700001 789766
-0.048179999 0.14203715 0.65700001 592387
-0.047000002 0.14225334 0.65800005 657408
-0.045746669 0.14225334 0.65800005 788994
-0.044493336 0.14225334 0.65800005 658691
-0.043240003 0.14225334 0.65800005 658691
-0.042050481 0.14246953 0.65900004 592640
-0.040795241 0.14246953 0.65900004 592640
-0.03954 0.14246953 0.65900004 657930
-0.038400952 0.1429019 0.66100001 855309
-0.037141904 0.1429019 0.66100001 1248030
-0.035937145 0.14311811 0.66200006 1445409
-0.034728575 0.14333428 0.66300005 1708581
-0.033516191 0.14355049 0.66400003 3221820
-0.032348569 0.14398286 0.66600001 2630187
-0.031079998 0.14398286 0.66600001 1643292
-0.029856192 0.14419906 0.66700006 1119242
-0.028585717 0.14419906 0.66700006 1119242
-0.027438097 0.14484762 0.67000002 1381403
-0.026240002 0.14528 0.67200005 3552572
-0.024960002 0.14528 0.67200005 4795966
-0.023750478 0.14571238 0.67400002 6572377
-0.022499999 0.14592858 0.67500001 9534263
-0.088071428 0.14721428 0.67500001 13549212
-0.086657144 0.1469962 0.67400002 12695425
-0.085120007 0.14656001 0.67200005 5787160
-0.083715238 0.1463419 0.671 2497331
-0.082068577 0.14568762 0.66800004 2431538
-0.080675244 0.14546953 0.66700006 2565927
-0.079285711 0.14525144 0.66600001 1776411
-0.077782862 0.14481525 0.66400003 1907218
-0.076402865 0.14459716 0.66300005 2038804
-0.075026676 0.14437905 0.66200006 1842708
-0.073654287 0.14416096 0.66100001 1250571
-0.072395235 0.14416096 0.66100001 986895
-0.070920952 0.14372477 0.65900004 855309
-0.069665715 0.14372477 0.65900004 723723
-0.068410479 0.14372477 0.65900004 657930
-0.066951431 0.14328857 0.65700001 789266
-0.065700002 0.14328857 0.65700001 789266
-0.064546667 0.14350668 0.65800005 657680
-0.063197143 0.14328857 0.65700001 657680
-0.061945714 0.14328857 0.65700001 461584
-0.060694285 0.14328857 0.65700001 395791
-0.059442859 0.14328857 0.65700001 657930
-0.058014289 0.1428524 0.65500003 657930
-0.05676667 0.1428524 0.65500003 657680
-0.055519048 0.1428524 0.65500003 657680
-0.054271434 0.1428524 0.65500003 593170
-0.053023811 0.1428524 0.65500003 461584
-0.051776193 0.1428524 0.65500003 330262
-0.050528575 0.1428524 0.65500003 396055
-0.049280953 0.1428524 0.65500003 789266
-0.048179999 0.14328857 0.65700001 657680
-0.046928573 0.14328857 0.65700001 526344
-0.04567714 0.14328857 0.65700001 789516
-0.044493336 0.14350668 0.65800005 789516
-0.043240003 0.14350668 0.65800005 789516
-0.041986667 0.14350668 0.65800005 264705
-0.040795241 0.14372477 0.65900004 396291
-0.03954 0.14372477 0.65900004 593420
-0.038284764 0.14372477 0.65900004 659213
-0.037029523 0.14372477 0.65900004 1839124
-0.03588286 0.14416096 0.66100001 1839124
-0.034676194 0.14437905 0.66200006 1773331
-0.033465717 0.14459716 0.66300005 4668223
-0.032251429 0.14481525 0.66400003 5065291
-0.031079998 0.14525144 0.66600001 2170399
-0.029811429 0.14525144 0.66600001 1446163
-0.028585717 0.14546953 0.66700006 919819
-0.027356191 0.14568762 0.66800004 789248
-0.026161905 0.14612381 0.67000002 4736828
-0.024922857 0.1463419 0.671 5983288
-0.023680001 0.14656001 0.67200005 5325358
-0.022499999 0.14721428 0.67500001 8743214
-0.088071428 0.1485 0.67500001 13483671
-0.086657144 0.14827999 0.67400002 12432255
-0.085120007 0.14784001 0.67200005 6181920
-0.083715238 0.14762001 0.671 2827614
-0.081945717 0.14674 0.66700006 1445961
-0.080675244 0.14674 0.66700006 1382446
-0.079285711 0.14652 0.66600001 2040376
-0.077782862 0.14608 0.66400003 2433562
-0.076402865 0.14586002 0.66300005 2038804
-0.075026676 0.14564002 0.66200006 1711379
-0.073654287 0.14542001 0.66100001 1185035
-0.072176196 0.14498 0.65900004 921102
-0.070920952 0.14498 0.65900004 789516
-0.069665715 0.14498 0.65900004 657680
-0.068202853 0.14454 0.65700001 657680
-0.066951431 0.14454 0.65700001 789266
-0.065700002 0.14454 0.65700001 789266
-0.064448565 0.14454 0.65700001 789266
-0.063004769 0.14410001 0.65500003 657680
-0.061757144 0.14410001 0.65500003 330262
-0.060509525 0.14410001 0.65500003 330262
-0.059261907 0.14410001 0.65500003 593170
-0.058014289 0.14410001 0.65500003 593170
-0.05676667 0.14410001 0.65500003 593170
-0.055519048 0.14410001 0.65500003 593170
-0.054271434 0.14410001 0.65500003 723480
-0.053023811 0.14410001 0.65500003 591894
-0.051776193 0.14410001 0.65500003 329758
-0.050528575 0.14410001 0.65500003 329758
-0.049280953 0.14410001 0.65500003 591646
-0.048033334 0.14410001 0.65500003 591646
-0.046785716 0.14410001 0.65500003 722190
-0.04567714 0.14454 0.65700001 985362
-0.044425715 0.14454 0.65700001 789266
-0.043174285 0.14454 0.65700001 1315610
-0.041922856 0.14454 0.65700001 1119242
-0.040733337 0.14476001 0.65800005 1119242
-0.039480001 0.14476001 0.65800005 1120028
-0.038226672 0.14476001 0.65800005 1185821
-0.036973335 0.14476001 0.65800005 2367769
-0.03588286 0.14542001 0.66100001 2696734
-0.034676194 0.14564002 0.66200006 2958118
-0.033465717 0.14586002 0.66300005 4471357
-0.032202858 0.14586002 0.66300005 4013072
-0.030986669 0.14608 0.66400003 2499840
-0.029811429 0.14652 0.66600001 2367265
-0.028542858 0.14652 0.66600001 2696230
-0.027356191 0.14696001 0.66800004 4205605
-0.026161905 0.14740001 0.67000002 6376774
-0.024922857 0.14762001 0.671 6244916
-0.023680001 0.14784001 0.67200005 5323814
-0.022466667 0.14827999 0.67400002 8216640
-0.088071428 0.14978573 0.67500001 13286292
-0.08640001 0.14912002 0.67200005 12102527
-0.084993333 0.14889809 0.671 6312743
-0.083590478 0.14867619 0.67000002 4868432
-0.081945717 0.14801048 0.66700006 1710368
-0.080554284 0.14778858 0.66600001 1052688
-0.079047628 0.14734477 0.66400003 2039583
-0.077665716 0.14712286 0.66300005 2564394
-0.07628762 0.14690097 0.66200006 1906464
-0.074913338 0.14667904 0.66100001 1840921
-0.073431432 0.14623524 0.65900004 1182991
-0.072176196 0.14623524 0.65900004 789516
-0.070920952 0.14623524 0.65900004 789516
-0.069559999 0.14601335 0.65800005 789516
-0.068202853 0.14579143 0.65700001 723723
-0.066951431 0.14579143 0.65700001 789266
-0.065700002 0.14579143 0.65700001 657680
-0.064448565 0.14579143 0.65700001 657680
-0.063004769 0.14534763 0.65500003 657680
-0.061757144 0.14534763 0.65500003 657680
-0.060509525 0.14534763 0.65500003 789266
-0.059261907 0.14534763 0.65500003 593170
-0.058014289 0.14534763 0.65500003 790549
-0.05676667 0.14534763 0.65500003 659477
-0.055519048 0.14534763 0.65500003 396305
-0.054271434 0.14534763 0.65500003 460551
-0.053023811 0.14534763 0.65500003 394758
-0.051776193 0.14534763 0.65500003 328965
-0.050528575 0.14534763 0.65500003 328965
-0.049280953 0.14534763 0.65500003 591133
-0.048033334 0.14534763 0.65500003 525340
-0.046785716 0.14534763 0.65500003 722953
-0.045538098 0.14534763 0.65500003 854539
-0.044290476 0.14534763 0.65500003 1117954
-0.043042861 0.14534763 0.65500003 1446919
-0.041922856 0.14579143 0.65700001 1315584
-0.040671431 0.14579143 0.65700001 1776134
-0.039419997 0.14579143 0.65700001 2370849
-0.038168572 0.14579143 0.65700001 2239263
-0.036917143 0.14579143 0.65700001 2370585
-0.035774291 0.14623524 0.65900004 2238999
-0.034623809 0.14667904 0.66100001 2696734
-0.033415239 0.14690097 0.66200006 2565148
-0.032202858 0.14712286 0.66300005 2236937
-0.030986669 0.14734477 0.66400003 1776386
-0.029721906 0.14734477 0.66400003 2564608
-0.028542858 0.14778858 0.66600001 3880464
-0.027356191 0.14823239 0.66800004 6046745
-0.026161905 0.14867619 0.67000002 7033640
-0.024922857 0.14889809 0.671 6441260
-0.023680001 0.14912002 0.67200005 5388572
-0.022400003 0.14912002 0.67200005 7756346
-0.087680012 0.15040001 0.67200005 13220742
-0.086271428 0.15017618 0.671 11906177
-0.084866665 0.14995238 0.67000002 5919014
-0.083340958 0.14950477 0.66800004 4933453
-0.081822857 0.14905713 0.66600001 4999246
-0.080312386 0.14860953 0.66400003 2697540
-0.078928575 0.14838572 0.66300005 1184301
-0.077665716 0.14838572 0.66300005 1447737
-0.076172382 0.1479381 0.66100001 1118772
-0.074913338 0.1479381 0.66100001 920611
-0.073431432 0.14749049 0.65900004 854818
-0.072176196 0.14749049 0.65900004 789516
-0.070813335 0.14726667 0.65800005 789516
-0.06945429 0.14704286 0.65700001 789766
-0.068202853 0.14704286 0.65700001 789766
-0.066951431 0.14704286 0.65700001 789516
-0.065700002 0.14704286 0.65700001 789516
-0.064252384 0.14659524 0.65500003 789266
-0.063004769 0.14659524 0.65500003 789266
-0.061757144 0.14659524 0.65500003 593170
-0.060509525 0.14659524 0.65500003 658963
-0.059261907 0.14659524 0.65500003 725022
-0.058014289 0.14659524 0.65500003 659229
-0.05676667 0.14659524 0.65500003 920852
-0.05543429 0.14637144 0.65400004 1512989
-0.054188572 0.14637144 0.65400004 2302730
-0.052942861 0.14637144 0.65400004 2631695
-0.051697146 0.14637144 0.65400004 3027202
-0.050451431 0.14637144 0.65400004 3487753
-0.049205717 0.14637144 0.65400004 3486259
-0.048033334 0.14659524 0.65500003 1841434
-0.046785716 0.14659524 0.65500003 2696982
-0.045538098 0.14659524 0.65500003 2960154
-0.044290476 0.14659524 0.65500003 3158788
-0.043042861 0.14659524 0.65500003 4014097
-0.041795239 0.14659524 0.65500003 2829571
-0.040671431 0.14704286 0.65700001 2763778
-0.039419997 0.14704286 0.65700001 2632722
-0.038168572 0.14704286 0.65700001 2172171
-0.036917143 0.14704286 0.65700001 1844224
-0.035774291 0.14749049 0.65900004 1712640
-0.034623809 0.1479381 0.66100001 1907466
-0.033364762 0.1479381 0.66100001 1710087
-0.032154288 0.1481619 0.66200006 3550233
-0.030940004 0.14838572 0.66300005 5195058
-0.029721906 0.14860953 0.66400003 5786642
-0.028542858 0.14905713 0.66600001 6312986
-0.027356191 0.14950477 0.66800004 6376460
-0.026161905 0.14995238 0.67000002 6376460
-0.024922857 0.15017618 0.671 6309413
-0.023644762 0.15017618 0.671 5388311
-0.022400003 0.15040001 0.67200005 7690294
-0.021120002 0.15040001 0.67200005 14335387
-0.087680012 0.15168001 0.67200005 13286294
-0.086271428 0.15145428 0.671 11906177
-0.084866665 0.15122858 0.67000002 5853221
-0.083340958 0.15077715 0.66800004 5393470
-0.081822857 0.15032572 0.66600001 5919814
-0.080312386 0.1498743 0.66400003 5263944
-0.078928575 0.14964858 0.66300005 3224361
-0.077548578 0.14942287 0.66200006 926233
-0.076172382 0.14919715 0.66100001 202510
-0.074913338 0.14919715 0.66100001 723723
-0.073431432 0.14874573 0.65900004 592137
-0.072176196 0.14874573 0.65900004 657680
-0.070813335 0.14852001 0.65800005 789266
-0.06945429 0.14829428 0.65700001 986116
-0.068202853 0.14829428 0.65700001 788737
-0.066951431 0.14829428 0.65700001 789266
-0.065499999 0.14784285 0.65500003 789266
-0.064252384 0.14784285 0.65500003 789266
-0.063004769 0.14784285 0.65500003 789266
-0.061757144 0.14784285 0.65500003 593170
-0.060417145 0.14761716 0.65400004 461584
-0.059171431 0.14761716 0.65400004 528395
-0.057925716 0.14761716 0.65400004 528395
-0.056680001 0.14761716 0.65400004 920852
-0.05543429 0.14761716 0.65400004 2236712
-0.054188572 0.14761716 0.65400004 2565396
-0.052942861 0.14761716 0.65400004 3025947
-0.051697146 0.14761716 0.65400004 3946022
-0.050451431 0.14761716 0.65400004 4143401
-0.049205717 0.14761716 0.65400004 4538445
-0.047960002 0.14761716 0.65400004 3090999
-0.046714287 0.14761716 0.65400004 2829880
-0.045468576 0.14761716 0.65400004 2764087
-0.044290476 0.14784285 0.65500003 3356206
-0.043042861 0.14784285 0.65500003 3027241
-0.041795239 0.14784285 0.65500003 2434816
-0.040547621 0.14784285 0.65500003 2500608
-0.039419997 0.14829428 0.65700001 2697488
-0.038168572 0.14829428 0.65700001 1973765
-0.036917143 0.14829428 0.65700001 330752
-0.035774291 0.14874573 0.65900004 988680
-0.034623809 0.14919715 0.66100001 1186304
-0.033364762 0.14919715 0.66100001 1449472
-0.032154288 0.14942287 0.66200006 4995334
-0.030940004 0.14964858 0.66300005 6574366
-0.029677145 0.14964858 0.66300005 6443811
-0.028457144 0.1498743 0.66400003 6180639
-0.027315238 0.15055144 0.66700006 6113280
-0.026161905 0.15122858 0.67000002 5981696
-0.024922857 0.15145428 0.671 5518596
-0.023644762 0.15145428 0.671 5650182
-0.022366667 0.15145428 0.671 7493946
-0.021120002 0.15168001 0.67200005 14270625
-0.01984 0.15168001 0.67200005 13681060
-0.086271428 0.15273239 0.671 12235140
-0.084866665 0.15250477 0.67000002 6379563
-0.083216198 0.15182191 0.66700006 5261882
-0.081822857 0.15159428 0.66600001 5525054
-0.080312386 0.15113907 0.66400003 5394481
-0.07880953 0.15068382 0.66200006 5526067
-0.077548578 0.15068382 0.66200006 4935453
-0.076172382 0.15045619 0.66100001 3619593
-0.074686669 0.15000096 0.65900004 2696230
-0.073431432 0.15000096 0.65900004 1511956
-0.072066672 0.14977334 0.65800005 985893
-0.070705712 0.14954571 0.65700001 788514
-0.06945429 0.14954571 0.65700001 526344
-0.067995243 0.14909048 0.65500003 592137
-0.066747628 0.14909048 0.65500003 591894
-0.065499999 0.14909048 0.65500003 591894
-0.06415429 0.14886287 0.65400004 591637
-0.062908575 0.14886287 0.65400004 591637
-0.06166286 0.14886287 0.65400004 329998
-0.060417145 0.14886287 0.65400004 329998
-0.059171431 0.14886287 0.65400004 461314
-0.057925716 0.14886287 0.65400004 527107
-0.056680001 0.14886287 0.65400004 593170
-0.055349529 0.14863525 0.65300006 1909030
-0.054105718 0.14863525 0.65300006 2040335
-0.05286191 0.14863525 0.65300006 2566679
-0.051618099 0.14863525 0.65300006 2960919
-0.050374292 0.14863525 0.65300006 3092505
-0.049130481 0.14863525 0.65300006 2302755
-0.047886673 0.14863525 0.65300006 1250067
-0.046714287 0.14886287 0.65400004 855603
-0.045468576 0.14886287 0.65400004 789810
-0.044222858 0.14886287 0.65400004 1249065
-0.042977147 0.14886287 0.65400004 788514
-0.041795239 0.14909048 0.65500003 1382400
-0.040547621 0.14909048 0.65500003 1579776
-0.039300002 0.14909048 0.65500003 2827534
-0.038168572 0.14954571 0.65700001 3288085
-0.036917143 0.14954571 0.65700001 4734208
-0.035720002 0.14977334 0.65800005 5852689
-0.03451905 0.15000096 0.65900004 5853739
-0.033364762 0.15045619 0.66100001 5919532
-0.032105718 0.15045619 0.66100001 6181143
-0.030893337 0.15068382 0.66200006 6181143
-0.029677145 0.15091144 0.66300005 6244383
-0.028457144 0.15113907 0.66400003 5849625
-0.027315238 0.15182191 0.66700006 6046976
-0.026161905 0.15250477 0.67000002 6178560
-0.024885716 0.15250477 0.67000002 6111766
-0.023644762 0.15273239 0.671 5914387
-0.022366667 0.15273239 0.671 7757385
-0.02108857 0.15273239 0.671 14139306
-0.01984 0.15296002 0.67200005 13812384
-0.08614286 0.15378095 0.67000002 12760968
-0.084613338 0.15332191 0.66800004 7300149
-0.083216198 0.15309238 0.66700006 5853242
-0.081822857 0.15286285 0.66600001 5392691
-0.080312386 0.15240382 0.66400003 5590569
-0.07880953 0.15194477 0.66200006 5919534
-0.077548578 0.15194477 0.66200006 6445638
-0.076172382 0.15171525 0.66100001 5458743
-0.074686669 0.1512562 0.65900004 4340780
-0.073431432 0.1512562 0.65900004 3222299
-0.072066672 0.15102668 0.65800005 2695185
-0.070490479 0.1503381 0.65500003 1379328
-0.069242857 0.1503381 0.65500003 985600
-0.067995243 0.1503381 0.65500003 985600
-0.066747628 0.1503381 0.65500003 790016
-0.065499999 0.1503381 0.65500003 461056
-0.06415429 0.15010858 0.65400004 197632
-0.062908575 0.15010858 0.65400004 197632
-0.06166286 0.15010858 0.65400004 198400
-0.060417145 0.15010858 0.65400004 264192
-0.059080955 0.14987907 0.65300006 330240
-0.057837147 0.14987907 0.65300006 198656
-0.056593336 0.14987907 0.65300006 133120
-0.055349529 0.14987907 0.65300006 1185807
-0.054105718 0.14987907 0.65300006 1187075
-0.05286191 0.14987907 0.65300006 1055489
-0.051618099 0.14987907 0.65300006 397312
-0.050374292 0.14987907 0.65300006 726274
-0.049130481 0.14987907 0.65300006 855552
-0.047886673 0.14987907 0.65300006 658176
-0.046714287 0.15010858 0.65400004 197632
-0.045468576 0.15010858 0.65400004 592387
-0.044222858 0.15010858 0.65400004 723968
-0.042977147 0.15010858 0.65400004 1184515
-0.041795239 0.1503381 0.65500003 1841664
-0.040547621 0.1503381 0.65500003 2631175
-0.039300002 0.1503381 0.65500003 4404741
-0.038168572 0.15079714 0.65700001 4602120
-0.036917143 0.15079714 0.65700001 5652760
-0.035720002 0.15102668 0.65800005 6837034
-0.034466669 0.15102668 0.65800005 6838067
-0.033364762 0.15171525 0.66100001 6640688
-0.032105718 0.15171525 0.66100001 6443282
-0.030893337 0.15194477 0.66200006 6311696
-0.029632382 0.15194477 0.66200006 6244111
-0.028457144 0.15240382 0.66400003 6112525
-0.027315238 0.15309238 0.66700006 6505728
-0.026083812 0.15332191 0.66800004 6768896
-0.024885716 0.15378095 0.67000002 6309406
-0.023609525 0.15378095 0.67000002 5848855
-0.022333333 0.15378095 0.67000002 8151118
-0.021057144 0.15378095 0.67000002 14269867
-0.08614286 0.15505713 0.67000002 12695175
-0.084613338 0.15459429 0.66800004 7694907
-0.083216198 0.15436286 0.66700006 5788489
-0.081822857 0.15413143 0.66600001 5854282
-0.080312386 0.15366857 0.66400003 5526059
-0.07880953 0.15320572 0.66200006 5262887
-0.077548578 0.15320572 0.66200006 5589535
-0.076172382 0.15297428 0.66100001 5523742
-0.074913338 0.15297428 0.66100001 4864527
-0.073431432 0.15251143 0.65900004 5061906
-0.072066672 0.15228 0.65800005 5193503
-0.070490479 0.15158573 0.65500003 5456675
-0.069242857 0.15158573 0.65500003 5063441
-0.067995243 0.15158573 0.65500003 4668683
-0.066747628 0.15158573 0.65500003 4077830
-0.065400004 0.1513543 0.65400004 3880451
-0.06415429 0.1513543 0.65400004 3288344
-0.062908575 0.1513543 0.65400004 2893586
-0.06166286 0.1513543 0.65400004 3157504
-0.060324769 0.15112287 0.65300006 3552258
-0.059080955 0.15112287 0.65300006 3092480
-0.057837147 0.15112287 0.65300006 2566144
-0.056593336 0.15112287 0.65300006 2630912
-0.055349529 0.15112287 0.65300006 2696704
-0.054105718 0.15112287 0.65300006 2500864
-0.05286191 0.15112287 0.65300006 2632448
-0.051618099 0.15112287 0.65300006 2697985
-0.050374292 0.15112287 0.65300006 2763778
-0.049130481 0.15112287 0.65300006 3684096
-0.047886673 0.15112287 0.65300006 4342017
-0.046714287 0.1513543 0.65400004 5327616
-0.045468576 0.1513543 0.65400004 5788164
-0.044290476 0.15158573 0.65500003 5788160
-0.043042861 0.15158573 0.65500003 5919744
-0.041795239 0.15158573 0.65500003 6116895
-0.040547621 0.15158573 0.65500003 6643239
-0.039300002 0.15158573 0.65500003 6641971
-0.038168572 0.15204857 0.65700001 6510385
-0.036917143 0.15204857 0.65700001 6640189
-0.035720002 0.15228 0.65800005 6508603
-0.034466669 0.15228 0.65800005 6706479
-0.03326381 0.15251143 0.65900004 6903858
-0.032105718 0.15297428 0.66100001 6970646
-0.030846667 0.15297428 0.66100001 7233818
-0.029632382 0.15320572 0.66200006 6837799
-0.028457144 0.15366857 0.66400003 6837799
-0.027315238 0.15436286 0.66700006 7033640
-0.026083812 0.15459429 0.66800004 6902054
-0.024885716 0.15505713 0.67000002 6178353
-0.023609525 0.15505713 0.67000002 6112560
-0.022333333 0.15505713 0.67000002 8152402
-0.021057144 0.15505713 0.67000002 13942186
-0.08614286 0.15633334 0.67000002 12433284
-0.084613338 0.15586667 0.66800004 7696188
-0.083216198 0.15563335 0.66700006 5592126
-0.081822857 0.15539999 0.66600001 5592126
-0.080554284 0.15539999 0.66600001 5986610
-0.078928575 0.15470001 0.66300005 5986610
-0.077548578 0.15446669 0.66200006 5128243
-0.076172382 0.15423334 0.66100001 4865071
-0.074686669 0.15376668 0.65900004 4795395
-0.073431432 0.15376668 0.65900004 5321739
-0.072066672 0.15353334 0.65800005 5718039
-0.070490479 0.15283334 0.65500003 5849625
-0.069242857 0.15283334 0.65500003 5653786
-0.067995243 0.15283334 0.65500003 5522200
-0.066747628 0.15283334 0.65500003 5456389
-0.065400004 0.15260001 0.65400004 5324803
-0.06415429 0.15260001 0.65400004 5063168
-0.062908575 0.15260001 0.65400004 4997376
-0.06166286 0.15260001 0.65400004 4932352
-0.060324769 0.15236668 0.65300006 4866560
-0.059080955 0.15236668 0.65300006 4866048
-0.057837147 0.15236668 0.65300006 4076544
-0.056593336 0.15236668 0.65300006 4010240
-0.055349529 0.15236668 0.65300006 4404992
-0.054105718 0.15236668 0.65300006 4537088
-0.052780952 0.15213333 0.65200001 4931840
-0.051539049 0.15213333 0.65200001 4934406
-0.050297141 0.15213333 0.65200001 4868613
-0.049130481 0.15236668 0.65300006 5721871
-0.047886673 0.15236668 0.65300006 5985043
-0.046714287 0.15260001 0.65400004 6247702
-0.045468576 0.15260001 0.65400004 6905632
-0.044222858 0.15260001 0.65400004 6970666
-0.042977147 0.15260001 0.65400004 6970666
-0.041795239 0.15283334 0.65500003 6838569
-0.040547621 0.15283334 0.65500003 7167534
-0.039300002 0.15283334 0.65500003 7167030
-0.038168572 0.1533 0.65700001 6903858
-0.036917143 0.1533 0.65700001 6640686
-0.035720002 0.15353334 0.65800005 6706479
-0.03451905 0.15376668 0.65900004 7100997
-0.03326381 0.15376668 0.65900004 7035204
-0.032105718 0.15423334 0.66100001 7036207
-0.030846667 0.15423334 0.66100001 6904621
-0.029632382 0.15446669 0.66200006 7035448
-0.028457144 0.15493333 0.66400003 6903862
-0.027315238 0.15563335 0.66700006 7033636
-0.026161905 0.15633334 0.67000002 6902050
-0.024885716 0.15633334 0.67000002 5980180
-0.023644762 0.15656666 0.671 6309145
-0.022366667 0.15656666 0.671 8481367
-0.02108857 0.15656666 0.671 14007979
-0.08614286 0.15760952 0.67000002 12564357
-0.084613338 0.15713906 0.66800004 8287812
-0.083340958 0.15713906 0.66800004 6052154
-0.081945717 0.15690382 0.66700006 5657396
-0.080554284 0.15666857 0.66600001 6051902
-0.07880953 0.15572762 0.66200006 6907211
-0.077431425 0.15549238 0.66100001 6708014
-0.076172382 0.15549238 0.66100001 4668431
-0.074686669 0.15502191 0.65900004 4795665
-0.073320009 0.15478668 0.65800005 5058837
-0.072066672 0.15478668 0.65800005 5255936
-0.070490479 0.15408096 0.65500003 5453314
-0.069242857 0.15408096 0.65500003 5520658
-0.067995243 0.15408096 0.65500003 6047002
-0.066645719 0.15384573 0.65400004 6115840
-0.065400004 0.15384573 0.65400004 6642176
-0.06415429 0.15384573 0.65400004 6642944
-0.062908575 0.15384573 0.65400004 7235074
-0.06166286 0.15384573 0.65400004 6445585
-0.060324769 0.15361048 0.65300006 6511378
-0.059080955 0.15361048 0.65300006 5919264
-0.057837147 0.15361048 0.65300006 5853471
-0.056593336 0.15361048 0.65300006 6642712
-0.055349529 0.15361048 0.65300006 7169056
-0.054105718 0.15361048 0.65300006 7037470
-0.052780952 0.15337524 0.65200001 7563814
-0.051539049 0.15337524 0.65200001 7300896
-0.050297141 0.15337524 0.65200001 7103517
-0.049130481 0.15361048 0.65300006 7036979
-0.047886673 0.15361048 0.65300006 6708014
-0.046714287 0.15384573 0.65400004 6773026
-0.045468576 0.15384573 0.65400004 6773026
-0.044222858 0.15384573 0.65400004 6904373
-0.042977147 0.15384573 0.65400004 7299131
-0.041795239 0.15408096 0.65500003 6969905
-0.040547621 0.15408096 0.65500003 7364663
-0.039300002 0.15408096 0.65500003 7364411
-0.038168572 0.15455143 0.65700001 7561790
-0.036917143 0.15455143 0.65700001 7496249
-0.035720002 0.15478668 0.65800005 7693628
-0.03451905 0.15502191 0.65900004 7693393
-0.03326381 0.15502191 0.65900004 7232842
-0.032105718 0.15549238 0.66100001 5918522
-0.030846667 0.15549238 0.66100001 4668455
-0.029632382 0.15572762 0.66200006 5851214
-0.028457144 0.1561981 0.66400003 7890797
-0.027315238 0.15690382 0.66700006 8087839
-0.026161905 0.15760952 0.67000002 7561495
-0.024885716 0.15760952 0.67000002 7231794
-0.023644762 0.15784477 0.671 6244899
-0.022366667 0.15784477 0.671 8349781
-0.083340958 0.15841144 0.66800004 6970433
-0.081945717 0.15817429 0.66700006 5917745
-0.080554284 0.15793714 0.66600001 5590049
-0.07880953 0.15698858 0.66200006 6905909
-0.077431425 0.15675142 0.66100001 7232842
-0.076172382 0.15675142 0.66100001 4995880
-0.074686669 0.15627715 0.65900004 4860938
-0.073320009 0.15604001 0.65800005 5189903
-0.072066672 0.15604001 0.65800005 5387014
-0.070490479 0.15532857 0.65500003 5781772
-0.069242857 0.15532857 0.65500003 5520649
-0.067995243 0.15532857 0.65500003 6441751
-0.066645719 0.15509143 0.65400004 6115357
-0.065400004 0.15509143 0.65400004 6707494
-0.06415429 0.15509143 0.65400004 7102002
-0.062908575 0.15509143 0.65400004 7036209
-0.061568573 0.1548543 0.65300006 6641971
-0.060324769 0.1548543 0.65300006 6181420
-0.059080955 0.1548543 0.65300006 5128730
-0.057837147 0.1548543 0.65300006 6247211
-0.056593336 0.1548543 0.65300006 6905373
-0.055349529 0.1548543 0.65300006 7102752
-0.054105718 0.1548543 0.65300006 7168277
-0.052780952 0.15461715 0.65200001 7497242
-0.051539049 0.15461715 0.65200001 7431197
-0.050297141 0.15461715 0.65200001 7562783
-0.049130481 0.1548543 0.65300006 7562294
-0.047886673 0.1548543 0.65300006 7364915
-0.046714287 0.15509143 0.65400004 6838569
-0.045468576 0.15509143 0.65400004 6772776
-0.044222858 0.15509143 0.65400004 6773026
-0.043042861 0.15532857 0.65500003 6773026
-0.041795239 0.15532857 0.65500003 6575138
-0.040547621 0.15532857 0.65500003 7430447
-0.039419997 0.15580286 0.65700001 7233357
-0.038168572 0.15580286 0.65700001 7364943
-0.036973335 0.15604001 0.65800005 7496527
-0.035774291 0.15627715 0.65900004 7562320
-0.03451905 0.15627715 0.65900004 7694422
-0.033364762 0.15675142 0.66100001 7365457
-0.032105718 0.15675142 0.66100001 5591598
-0.030893337 0.15698858 0.66200006 3946773
-0.029632382 0.15698858 0.66200006 5523516
-0.028457144 0.15746287 0.66400003 7826271
-0.027315238 0.15817429 0.66700006 8088636
-0.026161905 0.15888572 0.67000002 7299120
-0.024885716 0.15888572 0.67000002 7232303
-0.023644762 0.15912285 0.671 6376994
-0.022366667 0.15912285 0.671 8218958
-0.083340958 0.15968382 0.66800004 6709085
-0.081945717 0.15944476 0.66700006 6051155
-0.080554284 0.15920572 0.66600001 5985076
-0.078928575 0.15848857 0.66300005 6182455
-0.077548578 0.15824954 0.66200006 6443818
-0.076172382 0.15801048 0.66100001 5193751
-0.074686669 0.15753239 0.65900004 5190174
-0.073320009 0.15729335 0.65800005 5321760
-0.072066672 0.15729335 0.65800005 5387042
-0.070490479 0.1565762 0.65500003 6505523
-0.069242857 0.1565762 0.65500003 6510340
-0.067995243 0.1565762 0.65500003 6905098
-0.066645719 0.15633714 0.65400004 5457186
-0.065400004 0.15633714 0.65400004 4865049
-0.06415429 0.15633714 0.65400004 4801063
-0.062908575 0.15633714 0.65400004 4801063
-0.061568573 0.15609811 0.65300006 4472868
-0.060324769 0.15609811 0.65300006 3420180
-0.059080955 0.15609811 0.65300006 4733452
-0.057837147 0.15609811 0.65300006 6180898
-0.056593336 0.15609811 0.65300006 6970628
-0.055349529 0.15609811 0.65300006 7036421
-0.054105718 0.15609811 0.65300006 6970900
-0.05286191 0.15609811 0.65300006 7036693
-0.051618099 0.15609811 0.65300006 7168277
-0.050374292 0.15609811 0.65300006 7365656
-0.049130481 0.15609811 0.65300006 7365417
-0.047886673 0.15609811 0.65300006 7497003
-0.046714287 0.15633714 0.65400004 7495999
-0.045468576 0.15633714 0.65400004 7561792
-0.044290476 0.1565762 0.65500003 7299874
-0.043042861 0.1565762 0.65500003 7299874
-0.041795239 0.1565762 0.65500003 7299388
-0.040547621 0.1565762 0.65500003 7759939
-0.039419997 0.15705428 0.65700001 7628377
-0.038168572 0.15705428 0.65700001 6773068
-0.036973335 0.15729335 0.65800005 5985366
-0.035774291 0.15753239 0.65900004 5787987
-0.03451905 0.15753239 0.65900004 7036979
-0.033364762 0.15801048 0.66100001 7497530
-0.032105718 0.15801048 0.66100001 5985076
-0.030893337 0.15824954 0.66200006 4866595
-0.029677145 0.15848857 0.66300005 5525056
-0.028542858 0.15920572 0.66600001 6709330
-0.027315238 0.15944476 0.66700006 6905623
-0.026161905 0.1601619 0.67000002 6313486
-0.024922857 0.16040096 0.671 6970407
-0.023644762 0.16040096 0.671 6444063
-0.022366667 0.16040096 0.671 8350282
-0.081945717 0.16071524 0.66700006 6314052
-0.080554284 0.16047429 0.66600001 6708280
-0.078928575 0.15975145 0.66300005 7037245
-0.077548578 0.15951048 0.66200006 6181435
-0.076172382 0.15926953 0.66100001 4931368
-0.074686669 0.15878762 0.65900004 5584920
-0.073320009 0.15854667 0.65800005 5255955
-0.072066672 0.15854667 0.65800005 5125149
-0.070490479 0.15782382 0.65500003 6967353
-0.069242857 0.15782382 0.65500003 6510383
-0.067995243 0.15782382 0.65500003 6378797
-0.066747628 0.15782382 0.65500003 4408864
-0.065400004 0.15758286 0.65400004 3421969
-0.06415429 0.15758286 0.65400004 3686163
-0.062908575 0.15758286 0.65400004 3817749
-0.06166286 0.15758286 0.65400004 3291907
-0.060324769 0.15734191 0.65300006 2765568
-0.059080955 0.15734191 0.65300006 3946752
-0.057837147 0.15734191 0.65300006 6052122
-0.056593336 0.15734191 0.65300006 7430438
-0.055349529 0.15734191 0.65300006 7430438
-0.054105718 0.15734191 0.65300006 7298618
-0.05286191 0.15734191 0.65300006 7298618
-0.051618099 0.15734191 0.65300006 7365181
-0.050374292 0.15734191 0.65300006 7299388
-0.049130481 0.15734191 0.65300006 7299412
-0.047886673 0.15734191 0.65300006 7036240
-0.046714287 0.15758286 0.65400004 7035465
-0.045468576 0.15758286 0.65400004 7561809
-0.044290476 0.15782382 0.65500003 7497530
-0.043042861 0.15782382 0.65500003 7431737
-0.041795239 0.15782382 0.65500003 7430976
-0.040547621 0.15782382 0.65500003 7825734
-0.039419997 0.15830572 0.65700001 7628377
-0.038168572 0.15830572 0.65700001 6049345
-0.036973335 0.15854667 0.65800005 4340500
-0.035774291 0.15878762 0.65900004 4274707
-0.03451905 0.15878762 0.65900004 6115892
-0.033364762 0.15926953 0.66100001 6905408
-0.032154288 0.15951048 0.66200006 5328179
-0.030893337 0.15951048 0.66200006 5065007
-0.029677145 0.15975145 0.66300005 6183497
-0.028542858 0.16047429 0.66600001 4933430
-0.027315238 0.16071524 0.66700006 4602112
-0.026161905 0.16143811 0.67000002 6378513
-0.024922857 0.16167904 0.671 6839078
-0.023644762 0.16167904 0.671 6444320
-0.022366667 0.16167904 0.671 8482894
-0.021182857 0.1624019 0.67400002 13877920
-0.082068577 0.16222858 0.66800004 6051661
-0.080554284 0.16174285 0.66600001 6708782
-0.078928575 0.1610143 0.66300005 7432505
-0.077548578 0.16077144 0.66200006 7496520
-0.076172382 0.16052857 0.66100001 5654316
-0.074686669 0.16004287 0.65900004 5191175
-0.073431432 0.16004287 0.65900004 5256968
-0.072066672 0.15980001 0.65800005 5453862
-0.070490479 0.15907143 0.65500003 7098687
-0.069242857 0.15907143 0.65500003 6509593
-0.067995243 0.15907143 0.65500003 5456905
-0.066747628 0.15907143 0.65500003 4538661
-0.065400004 0.15882857 0.65400004 2893836
-0.06415429 0.15882857 0.65400004 3816970
-0.062908575 0.15882857 0.65400004 5198623
-0.06166286 0.15882857 0.65400004 5264141
-0.060324769 0.15858573 0.65300006 5395727
-0.059080955 0.15858573 0.65300006 6116629
-0.057837147 0.15858573 0.65300006 6511387
-0.056593336 0.15858573 0.65300006 6838821
-0.055349529 0.15858573 0.65300006 7036200
-0.054105718 0.15858573 0.65300006 7233343
-0.05286191 0.15858573 0.65300006 6904378
-0.051618099 0.15858573 0.65300006 5064012
-0.050374292 0.15858573 0.65300006 4274496
-0.049130481 0.15858573 0.65300006 4207688
-0.047960002 0.15882857 0.65400004 3747137
-0.046785716 0.15907143 0.65500003 4142872
-0.045538098 0.15907143 0.65500003 4077079
-0.044290476 0.15907143 0.65500003 5194538
-0.043042861 0.15907143 0.65500003 7497293
-0.041795239 0.15907143 0.65500003 7694407
-0.040671431 0.15955715 0.65700001 8549716
-0.039419997 0.15955715 0.65700001 7695185
-0.038168572 0.15955715 0.65700001 5787188
-0.036973335 0.15980001 0.65800005 3750937
-0.035774291 0.16004287 0.65900004 3158800
-0.03451905 0.16004287 0.65900004 5919536
-0.033364762 0.16052857 0.66100001 6774845
-0.032154288 0.16077144 0.66200006 5392682
-0.030893337 0.16077144 0.66200006 5261096
-0.029721906 0.16125715 0.66400003 5262897
-0.028542858 0.16174285 0.66600001 4604967
-0.027315238 0.16198573 0.66700006 4866053
-0.026161905 0.16271429 0.67000002 6642464
-0.024922857 0.16295713 0.671 6970162
