# .PCD v0.7 - Point Cloud Data file format
VERSION 0.7
FIELDS x y z rgba
SIZE 4 4 4 4
TYPE F F F U
COUNT 1 1 1 1
WIDTH 1102
HEIGHT 1
VIEWPOINT 0 0 0 1 0 0 0
POINTS 1102
DATA ascii
-0.033526666 0.17476667 0.74900001 10654302
-0.032100003 0.17476667 0.74900001 10522716
-0.030673334 0.17476667 0.74900001 10129015
-0.029246666 0.17476667 0.74900001 9339499
-0.02782 0.17476667 0.74900001 9406045
-0.026393333 0.17476667 0.74900001 9142873
-0.025000002 0.17500001 0.75000006 9273708
-0.023634287 0.17546667 0.75200003 9010536
-0.022201905 0.17546667 0.75200003 9537389
-0.020769523 0.17546667 0.75200003 9405803
-0.019337144 0.17546667 0.75200003 10984039
-0.017952381 0.17593333 0.75400001 11970934
-0.016538097 0.17616667 0.75500005 11970425
-0.015100001 0.17616667 0.75500005 12299390
-0.013661906 0.17616667 0.75500005 12299386
-0.012256191 0.17663334 0.75700003 12299386
-0.010814286 0.17663334 0.75700003 10787705
-0.0093971435 0.17710002 0.75900006 9471845
-0.0079828566 0.1778 0.76200002 8817257
-0.0065485719 0.17826667 0.76400006 7106639
-0.0051066671 0.17873335 0.76600003 6778978
-0.0036476192 0.17873335 0.76600003 7502701
-0.0021914286 0.17896667 0.76700002 8814447
-0.00073047623 0.17896667 0.76700002 13946301
0.00073047623 0.17896667 0.76700002 16116136
0.0021914286 0.17896667 0.76700002 16774323
0.003652381 0.17896667 0.76700002 16446146
-0.063882858 0.18136857 0.77100003 16184507
-0.062252384 0.1808981 0.76900005 12236927
-0.060629524 0.18042763 0.76700002 9343106
-0.05909143 0.1801924 0.76600003 8290418
-0.057481907 0.17972191 0.76400006 8750929
-0.055880003 0.17925143 0.76200002 9606238
-0.054357145 0.1790162 0.76100004 11050354
-0.052768577 0.17854573 0.75900006 12497800
-0.051052384 0.17760478 0.75500005 12628603
-0.049614292 0.17760478 0.75500005 12497017
-0.048112381 0.17736953 0.75400001 10852444
-0.046676192 0.17736953 0.75400001 10062928
-0.045120001 0.17689905 0.75200003 9800052
-0.043687619 0.17689905 0.75200003 9339501
-0.042255241 0.17689905 0.75200003 9472056
-0.04071429 0.17642859 0.75000006 9801021
-0.039285716 0.17642859 0.75000006 10062158
-0.037806667 0.17619334 0.74900001 9996365
-0.03638 0.17619334 0.74900001 9404757
-0.034953333 0.17619334 0.74900001 9075792
-0.033526666 0.17619334 0.74900001 8880187
-0.032142859 0.17642859 0.75000006 9801289
-0.030714288 0.17642859 0.75000006 9866855
-0.029285716 0.17642859 0.75000006 8222030
-0.027857145 0.17642859 0.75000006 7103566
-0.026428573 0.17642859 0.75000006 7037773
-0.025000002 0.17642859 0.75000006 6710888
-0.023634287 0.17689905 0.75200003 5592407
-0.022201905 0.17689905 0.75200003 6447464
-0.020769523 0.17689905 0.75200003 6118499
-0.019388571 0.17736953 0.75400001 10852433
-0.017952381 0.17736953 0.75400001 12694637
-0.016538097 0.17760478 0.75500005 12561799
-0.015100001 0.17760478 0.75500005 12890764
-0.013661906 0.17760478 0.75500005 12233595
-0.012256191 0.17807524 0.75700003 12036216
-0.010814286 0.17807524 0.75700003 10525044
-0.0094219055 0.1790162 0.76100004 8288082
-0.0079828566 0.17925143 0.76200002 6976359
-0.0065657143 0.1801924 0.76600003 6910566
-0.0051133335 0.18042763 0.76700002 6976607
-0.003652381 0.18042763 0.76700002 7437158
-0.0021914286 0.18042763 0.76700002 8224109
-0.00073047623 0.18042763 0.76700002 13487549
0.00073047623 0.18042763 0.76700002 15788464
0.0021914286 0.18042763 0.76700002 16775616
-0.063882858 0.18283714 0.77100003 16578770
-0.062252384 0.18236287 0.76900005 12565397
-0.060629524 0.18188857 0.76700002 10460534
-0.05909143 0.18165143 0.76600003 8420951
-0.057481907 0.18117715 0.76400006 7306034
-0.055880003 0.18070287 0.76200002 8621894
-0.054357145 0.18046573 0.76100004 10854007
-0.05290762 0.18046573 0.76100004 12235660
-0.051322859 0.17999144 0.75900006 12628623
-0.049745716 0.17951715 0.75700003 12365451
-0.048176192 0.17904286 0.75500005 10393958
-0.046738099 0.17904286 0.75500005 9275477
-0.04524 0.17880571 0.75400001 8683363
-0.043687619 0.17833143 0.75200003 8617570
-0.042255241 0.17833143 0.75200003 7237395
-0.04071429 0.17785716 0.75000006 8026911
-0.039285716 0.17785716 0.75000006 8813122
-0.037857145 0.17785716 0.75000006 9273673
-0.036428574 0.17785716 0.75000006 8681277
-0.035000004 0.17785716 0.75000006 8154933
-0.033571433 0.17785716 0.75000006 7040005
-0.032142859 0.17785716 0.75000006 9540139
-0.030714288 0.17785716 0.75000006 10001018
-0.029285716 0.17785716 0.75000006 8619365
-0.027857145 0.17785716 0.75000006 6251318
-0.026428573 0.17785716 0.75000006 6448697
-0.025066668 0.17833143 0.75200003 7240292
-0.023634287 0.17833143 0.75200003 7108706
-0.022201905 0.17833143 0.75200003 7438695
-0.020824762 0.17880571 0.75400001 7175523
-0.019388571 0.17880571 0.75400001 10326116
-0.017952381 0.17880571 0.75400001 11773562
-0.016538097 0.17904286 0.75500005 11838328
-0.015100001 0.17904286 0.75500005 12298879
-0.013661906 0.17904286 0.75500005 12168070
-0.012256191 0.17951715 0.75700003 11904898
-0.010842858 0.17999144 0.75900006 10262654
-0.0094342856 0.18070287 0.76200002 7894106
-0.0080038095 0.18117715 0.76400006 6910039
-0.0065657143 0.18165143 0.76600003 7107418
-0.0051133335 0.18188857 0.76700002 7634012
-0.003652381 0.18188857 0.76700002 7305047
-0.0021914286 0.18188857 0.76700002 7764326
-0.00073238101 0.18236287 0.76900005 13225145
0.00073238101 0.18236287 0.76900005 15657402
0.0021971429 0.18236287 0.76900005 16578504
-0.064048581 0.18478382 0.77300006 16579034
-0.062414289 0.18430573 0.77100003 13552556
-0.060787622 0.18382762 0.76900005 10198660
-0.059168573 0.18334952 0.76700002 8619628
-0.057632383 0.18311048 0.76600003 7698783
-0.056026667 0.18263239 0.76400006 8685678
-0.054357145 0.18191525 0.76100004 11116395
-0.05290762 0.18191525 0.76100004 12563841
-0.051322859 0.18143716 0.75900006 12497280
-0.049877148 0.18143716 0.75900006 10589283
-0.048303809 0.18095905 0.75700003 9801562
-0.046738099 0.18048097 0.75500005 9538390
-0.04524 0.1802419 0.75400001 9669484
-0.043803807 0.1802419 0.75400001 10130035
-0.042255241 0.17976382 0.75200003 9604185
-0.04082286 0.17976382 0.75200003 9801564
-0.039390475 0.17976382 0.75200003 10063731
-0.037958097 0.17976382 0.75200003 10655868
-0.036525715 0.17976382 0.75200003 9998682
-0.035000004 0.17928572 0.75000006 9274959
-0.033571433 0.17928572 0.75000006 9275731
-0.032142859 0.17928572 0.75000006 9867868
-0.030796193 0.17976382 0.75200003 10656362
-0.029363809 0.17976382 0.75200003 10985327
-0.027931429 0.17976382 0.75200003 9604204
-0.026499048 0.17976382 0.75200003 9341032
-0.025133332 0.1802419 0.75400001 8357989
-0.023697143 0.1802419 0.75400001 7831645
-0.022260953 0.1802419 0.75400001 7896423
-0.020824762 0.1802419 0.75400001 7830630
-0.019388571 0.1802419 0.75400001 9536604
-0.017976193 0.18048097 0.75500005 9536604
-0.016538097 0.18048097 0.75500005 10389592
-0.015100001 0.18048097 0.75500005 11902831
-0.013698095 0.18095905 0.75700003 11707512
-0.012288572 0.18143716 0.75900006 11181168
-0.010871429 0.18191525 0.76100004 10262906
-0.0094590485 0.18263239 0.76400006 8025944
-0.0080247624 0.18311048 0.76600003 6646365
-0.0065657143 0.18311048 0.76600003 6054228
-0.0051133335 0.18334952 0.76700002 6383193
-0.003652381 0.18334952 0.76700002 7304295
-0.0021971429 0.18382762 0.76900005 8223848
-0.00073238101 0.18382762 0.76900005 13618874
0.00073238101 0.18382762 0.76900005 15854009
-0.062414289 0.18577428 0.77100003 13684653
-0.060787622 0.18529238 0.76900005 11251329
-0.059168573 0.18481049 0.76700002 8224851
-0.057632383 0.18456952 0.76600003 7895636
-0.056026667 0.18408762 0.76400006 8356187
-0.054428574 0.18360572 0.76200002 10982508
-0.05290762 0.18336476 0.76100004 12298368
-0.051322859 0.18288288 0.75900006 11708030
-0.049877148 0.18288288 0.75900006 10326377
-0.048303809 0.18240096 0.75700003 8815700
-0.046861906 0.18240096 0.75700003 9276251
-0.045300003 0.18191905 0.75500005 9669465
-0.043803807 0.1816781 0.75400001 9735258
-0.042367619 0.1816781 0.75400001 9930838
-0.04093143 0.1816781 0.75400001 10325596
-0.039390475 0.1811962 0.75200003 9998700
-0.037958097 0.1811962 0.75200003 9932907
-0.036525715 0.1811962 0.75200003 9998698
-0.035093337 0.1811962 0.75200003 9406561
-0.033660952 0.1811962 0.75200003 9931358
-0.03222857 0.1811962 0.75200003 10391909
-0.030878095 0.1816781 0.75400001 10916452
-0.029441904 0.1816781 0.75400001 11113831
-0.028005714 0.1816781 0.75400001 10326118
-0.026569525 0.1816781 0.75400001 10128739
-0.025133332 0.1816781 0.75400001 8750440
-0.023697143 0.1816781 0.75400001 8224096
-0.022260953 0.1816781 0.75400001 7894866
-0.020824762 0.1816781 0.75400001 8289624
-0.019388571 0.1816781 0.75400001 8879457
-0.017976193 0.18191905 0.75500005 9274215
-0.016581906 0.18240096 0.75700003 9732939
-0.01514 0.18240096 0.75700003 11640936
-0.013734287 0.18288288 0.75900006 11183233
-0.012320952 0.18336476 0.76100004 10525303
-0.010885715 0.18360572 0.76200002 9212026
-0.0094590485 0.18408762 0.76400006 7567201
-0.0080247624 0.18456952 0.76600003 6843476
-0.0065742861 0.18481049 0.76700002 6317132
-0.0051133335 0.18481049 0.76700002 6317382
-0.0036619049 0.18529238 0.76900005 6975312
-0.0021971429 0.18529238 0.76900005 8813923
-0.00073619053 0.1862562 0.77300006 14472121
0.00073619053 0.1862562 0.77300006 15787448
-0.064131431 0.18797144 0.77400005 16578502
-0.06257619 0.18772858 0.77300006 14209954
-0.060945716 0.18724287 0.77100003 11842698
-0.05932286 0.18675716 0.76900005 7895118
-0.057707619 0.18627143 0.76700002 7238252
-0.056173336 0.18602857 0.76600003 7369838
-0.054428574 0.18505715 0.76200002 9603933
-0.052977145 0.18505715 0.76200002 10064484
-0.051458098 0.18481429 0.76100004 9998682
-0.049877148 0.18432859 0.75900006 9932889
-0.048303809 0.18384285 0.75700003 9012328
-0.046861906 0.18384285 0.75700003 9275500
-0.045300003 0.18335715 0.75500005 9341002
-0.043803807 0.18311429 0.75400001 9341002
-0.042367619 0.18311429 0.75400001 9668690
-0.04093143 0.18311429 0.75400001 9800276
-0.039390475 0.18262857 0.75200003 9668963
-0.037958097 0.18262857 0.75200003 9603170
-0.036525715 0.18262857 0.75200003 9668963
-0.035093337 0.18262857 0.75200003 9471584
-0.033660952 0.18262857 0.75200003 9997155
-0.03222857 0.18262857 0.75200003 10062948
-0.030878095 0.18311429 0.75400001 10522979
-0.029441904 0.18311429 0.75400001 10654565
-0.028005714 0.18311429 0.75400001 10260829
-0.026569525 0.18311429 0.75400001 10655587
-0.025133332 0.18311429 0.75400001 9472867
-0.023697143 0.18311429 0.75400001 9472867
-0.022260953 0.18311429 0.75400001 9274979
-0.020824762 0.18311429 0.75400001 9538151
-0.019414287 0.18335715 0.75500005 9273958
-0.017976193 0.18335715 0.75500005 9471337
-0.016581906 0.18384285 0.75700003 9536611
-0.01514 0.18384285 0.75700003 9931369
-0.013734287 0.18432859 0.75900006 9472606
-0.012337144 0.18505715 0.76200002 9012055
-0.010914287 0.18554287 0.76400006 8290920
-0.0094838096 0.18602857 0.76600003 7369818
-0.0080352379 0.18627143 0.76700002 6450263
-0.0065742861 0.18627143 0.76700002 5792333
-0.0051266667 0.18675716 0.76900005 6186316
-0.0036619049 0.18675716 0.76900005 6646867
-0.0022085716 0.18772858 0.77300006 8551516
-0.00073714292 0.18797144 0.77400005 14801851
0.00073714292 0.18797144 0.77400005 16445376
-0.064131431 0.18944572 0.77400005 16446407
-0.06257619 0.18920097 0.77300006 14669996
-0.060945716 0.18871143 0.77100003 12434583
-0.059477147 0.18871143 0.77100003 7894866
-0.057707619 0.18773238 0.76700002 6778980
-0.056173336 0.18748763 0.76600003 7042152
-0.054571431 0.18699811 0.76400006 8159329
-0.052977145 0.18650857 0.76200002 8685673
-0.051458098 0.18626381 0.76100004 8817245
-0.050008573 0.18626381 0.76100004 8751452
-0.048431434 0.1857743 0.75900006 8224096
-0.046861906 0.18528476 0.75700003 8553061
-0.045420002 0.18528476 0.75700003 8618060
-0.043861907 0.18479526 0.75500005 9078611
-0.042367619 0.18455048 0.75400001 9669215
-0.04093143 0.18455048 0.75400001 9800801
-0.039495237 0.18455048 0.75400001 9931621
-0.038059048 0.18455048 0.75400001 9931621
-0.036525715 0.18406096 0.75200003 9865826
-0.035093337 0.18406096 0.75200003 9865826
-0.033660952 0.18406096 0.75200003 10458748
-0.03222857 0.18406096 0.75200003 10129783
-0.030878095 0.18455048 0.75400001 10130027
-0.029441904 0.18455048 0.75400001 9866855
-0.028005714 0.18455048 0.75400001 9472345
-0.026569525 0.18455048 0.75400001 10130275
-0.025133332 0.18455048 0.75400001 9538138
-0.023697143 0.18455048 0.75400001 9669724
-0.022290478 0.18479526 0.75500005 9536600
-0.020852383 0.18479526 0.75500005 9536600
-0.019414287 0.18479526 0.75500005 9141340
-0.018023811 0.18528476 0.75700003 9338719
-0.016625715 0.1857743 0.75900006 8813915
-0.015180001 0.1857743 0.75900006 9142880
-0.013770477 0.18626381 0.76100004 8882531
-0.012337144 0.18650857 0.76200002 8553566
-0.010914287 0.18699811 0.76400006 7567969
-0.0094838096 0.18748763 0.76600003 6712660
-0.0080352379 0.18773238 0.76700002 6450776
-0.0065742861 0.18773238 0.76700002 5990225
-0.0051266667 0.18822192 0.76900005 5990225
-0.0036714287 0.18871143 0.77100003 6450776
-0.0022085716 0.18920097 0.77300006 8485478
-0.00073714292 0.18944572 0.77400005 14801606
0.00073714292 0.18944572 0.77400005 16445642
-0.064131431 0.19092001 0.77400005 16381134
-0.06257619 0.19067335 0.77300006 14670516
-0.061103813 0.19067335 0.77300006 12566939
-0.059477147 0.19018 0.77100003 7895636
-0.057858098 0.18968669 0.76900005 6647655
-0.056246668 0.18919334 0.76700002 6910827
-0.054571431 0.18845335 0.76400006 8028002
-0.052977145 0.18796 0.76200002 8422760
-0.051458098 0.18771334 0.76100004 8619108
-0.050008573 0.18771334 0.76100004 8684901
-0.048431434 0.18722001 0.75900006 9341291
-0.046985716 0.18722001 0.75900006 9407084
-0.045420002 0.18672667 0.75700003 9078121
-0.043978095 0.18672667 0.75700003 9143914
-0.042423811 0.18623334 0.75500005 9603691
-0.04093143 0.18598665 0.75400001 9998449
-0.039495237 0.18598665 0.75400001 9800561
-0.038059048 0.18598665 0.75400001 9734768
-0.036622856 0.18598665 0.75400001 9472606
-0.035093337 0.18549334 0.75200003 9472606
-0.033660952 0.18549334 0.75200003 9472114
-0.03222857 0.18549334 0.75200003 9340528
-0.030878095 0.18598665 0.75400001 9274985
-0.029441904 0.18598665 0.75400001 8946020
-0.028005714 0.18598665 0.75400001 9208676
-0.026569525 0.18598665 0.75400001 10524536
-0.025166668 0.18623334 0.75500005 10787169
-0.023728572 0.18623334 0.75500005 10852962
-0.022290478 0.18623334 0.75500005 10522466
-0.020852383 0.18623334 0.75500005 10390880
-0.019465715 0.18672667 0.75700003 10062193
-0.018023811 0.18672667 0.75700003 9996400
-0.016625715 0.18722001 0.75900006 9011815
-0.015180001 0.18722001 0.75900006 8682850
-0.013770477 0.18771334 0.76100004 8552794
-0.012337144 0.18796 0.76200002 8618587
-0.010942858 0.18894668 0.76600003 7568230
-0.0094838096 0.18894668 0.76600003 6383956
-0.0080352379 0.18919334 0.76700002 6122844
-0.006591429 0.18968669 0.76900005 6320223
-0.0051266667 0.18968669 0.76900005 5924959
-0.0036714287 0.19018 0.77100003 6451303
-0.0022085716 0.19067335 0.77300006 8353903
-0.00073619053 0.19067335 0.77300006 14867410
-0.064131431 0.19239429 0.77400005 16249548
-0.06257619 0.19214574 0.77300006 14867895
-0.061103813 0.19214574 0.77300006 12699036
-0.059631433 0.19214574 0.77300006 7764561
-0.05800857 0.19164857 0.77100003 5859679
-0.056246668 0.19065429 0.76700002 6583402
-0.054714285 0.19040573 0.76600003 7436131
-0.053116191 0.18990859 0.76400006 8159854
-0.051525716 0.18941143 0.76200002 8684649
-0.050008573 0.18916285 0.76100004 8882028
-0.048431434 0.18866573 0.75900006 9472884
-0.046985716 0.18866573 0.75900006 9341298
-0.045540005 0.18866573 0.75900006 8619108
-0.043978095 0.18816859 0.75700003 8684901
-0.042536192 0.18816859 0.75700003 9012324
-0.040985718 0.18767144 0.75500005 9012324
-0.039547618 0.18767144 0.75500005 9078111
-0.038109526 0.18767144 0.75500005 8946525
-0.036622856 0.18742286 0.75400001 8552796
-0.035186667 0.18742286 0.75400001 8947554
-0.033750474 0.18742286 0.75400001 8816746
-0.032314286 0.18742286 0.75400001 8882539
-0.030878095 0.18742286 0.75400001 8750692
-0.029480955 0.18767144 0.75500005 7829590
-0.028042858 0.18767144 0.75500005 8616254
-0.026604762 0.18767144 0.75500005 10919009
-0.025166668 0.18767144 0.75500005 11115103
-0.023728572 0.18767144 0.75500005 11049310
-0.022290478 0.18767144 0.75500005 10653282
-0.02090762 0.18816859 0.75700003 10719075
-0.019465715 0.18816859 0.75700003 10127725
-0.01807143 0.18866573 0.75900006 9930346
-0.016669523 0.18916285 0.76100004 9209964
-0.01522 0.18916285 0.76100004 8749413
-0.013788572 0.18941143 0.76200002 8749405
-0.012369525 0.18990859 0.76400006 8815198
-0.010942858 0.19040573 0.76600003 7766125
-0.0094961906 0.19065429 0.76700002 6779230
-0.0080352379 0.19065429 0.76700002 6057301
-0.006591429 0.19115144 0.76900005 5991508
-0.0051266667 0.19115144 0.76900005 6121561
-0.0036714287 0.19164857 0.77100003 6121561
-0.0022085716 0.19214574 0.77300006 8155747
-0.00073619053 0.19214574 0.77300006 14800840
-0.065605715 0.19386858 0.77400005 16512215
-0.064131431 0.19386858 0.77400005 16380621
-0.06265714 0.19386858 0.77400005 15064761
-0.061103813 0.1936181 0.77300006 13092252
-0.059631433 0.1936181 0.77300006 7894605
-0.05800857 0.19311716 0.77100003 6713448
-0.056393337 0.19261619 0.76900005 7108206
-0.054714285 0.19186477 0.76600003 7501674
-0.053116191 0.19136383 0.76400006 7435881
-0.051525716 0.19086286 0.76200002 7961696
-0.050008573 0.19061239 0.76100004 8093282
-0.048431434 0.19011144 0.75900006 7962209
-0.046985716 0.19011144 0.75900006 7699037
-0.045540005 0.19011144 0.75900006 7370324
-0.043978095 0.18961048 0.75700003 7370324
-0.042536192 0.18961048 0.75700003 7501397
-0.041094288 0.18961048 0.75700003 7830362
-0.039652381 0.18961048 0.75700003 8289876
-0.038109526 0.18910953 0.75500005 8553048
-0.03667143 0.18910953 0.75500005 8421475
-0.035186667 0.18885905 0.75400001 8750440
-0.033750474 0.18885905 0.75400001 9473376
-0.032314286 0.18885905 0.75400001 10131306
-0.030919051 0.18910953 0.75500005 9802586
-0.029480955 0.18910953 0.75500005 8091968
-0.028042858 0.18910953 0.75500005 8616275
-0.026604762 0.18910953 0.75500005 10919030
-0.025166668 0.18910953 0.75500005 11376991
-0.023728572 0.18910953 0.75500005 11245405
-0.022349525 0.18961048 0.75700003 10784091
-0.02090762 0.18961048 0.75700003 10915677
-0.019517144 0.19011144 0.75900006 9600870
-0.018119048 0.19061239 0.76100004 9271905
-0.016669523 0.19061239 0.76100004 8749156
-0.015240001 0.19086286 0.76200002 9604465
-0.013788572 0.19086286 0.76200002 9672043
-0.012369525 0.19136383 0.76400006 10001008
-0.010942858 0.19186477 0.76600003 9014393
-0.0094961906 0.19211525 0.76700002 8422256
-0.0080352379 0.19211525 0.76700002 7042906
-0.006591429 0.19261619 0.76900005 6121804
-0.0051266667 0.19261619 0.76900005 6187104
-0.0036714287 0.19311716 0.77100003 6252897
-0.0022085716 0.1936181 0.77300006 8025451
-0.00073619053 0.1936181 0.77300006 14209993
-0.064131431 0.19534287 0.77400005 16380619
-0.06265714 0.19534287 0.77400005 15591103
-0.061103813 0.19509049 0.77300006 13158304
-0.059477147 0.19458571 0.77100003 7763278
-0.057858098 0.19408096 0.76900005 6778978
-0.056246668 0.19357619 0.76700002 7305322
-0.054714285 0.19332381 0.76600003 7632492
-0.053116191 0.19281907 0.76400006 7369320
-0.051525716 0.1923143 0.76200002 6910289
-0.050008573 0.19206192 0.76100004 7041875
-0.048431434 0.19155715 0.75900006 6781274
-0.046985716 0.19155715 0.75900006 6123344
-0.045540005 0.19155715 0.75900006 6056520
-0.043978095 0.19105239 0.75700003 6253899
-0.042536192 0.19105239 0.75700003 6845777
-0.041094288 0.19105239 0.75700003 7437914
-0.039652381 0.19105239 0.75700003 8093785
-0.038210478 0.19105239 0.75700003 8093785
-0.03667143 0.19054763 0.75500005 8026450
-0.035233337 0.19054763 0.75500005 8750173
-0.033750474 0.19029523 0.75400001 9473119
-0.032314286 0.19029523 0.75400001 10065256
-0.030919051 0.19054763 0.75500005 9868134
-0.029480955 0.19054763 0.75500005 8157516
-0.028042858 0.19054763 0.75500005 8681291
-0.026604762 0.19054763 0.75500005 11115632
-0.025166668 0.19054763 0.75500005 11311210
-0.023791429 0.19105239 0.75700003 10916452
-0.022349525 0.19105239 0.75700003 10914903
-0.020962859 0.19155715 0.75900006 10914903
-0.019568572 0.19206192 0.76100004 9403726
-0.018119048 0.19206192 0.76100004 9140554
-0.01669143 0.1923143 0.76200002 8355147
-0.015240001 0.1923143 0.76200002 9736800
-0.013824763 0.19281907 0.76400006 9803641
-0.012401905 0.19332381 0.76600003 10001020
-0.010942858 0.19332381 0.76600003 9079929
-0.0094961906 0.19357619 0.76700002 8093034
-0.0080561908 0.19408096 0.76900005 7764578
-0.006591429 0.19408096 0.76900005 6448718
-0.00514 0.19458571 0.77100003 6055005
-0.0036714287 0.19458571 0.77100003 6383970
-0.0022114285 0.19534287 0.77400005 7960158
-0.00074095244 0.19635239 0.77800006 14144700
0.00074095244 0.19635239 0.77800006 15985854
-0.065605715 0.19681716 0.77400005 16446918
-0.064131431 0.19681716 0.77400005 16446666
-0.06265714 0.19681716 0.77400005 15722943
-0.061103813 0.19656287 0.77300006 13552546
-0.059477147 0.19605429 0.77100003 7894348
-0.057858098 0.19554572 0.76900005 6844771
-0.056246668 0.19503714 0.76700002 7700080
-0.054714285 0.19478285 0.76600003 7567469
-0.053116191 0.19427431 0.76400006 6448988
-0.051525716 0.19376571 0.76200002 6187091
-0.050074287 0.19376571 0.76200002 6976607
-0.048559051 0.19351144 0.76100004 7107668
-0.046985716 0.19300286 0.75900006 6581324
-0.045540005 0.19300286 0.75900006 6253647
-0.044094287 0.19300286 0.75900006 6187854
-0.042536192 0.19249429 0.75700003 7173465
-0.041094288 0.19249429 0.75700003 7831395
-0.039652381 0.19249429 0.75700003 8223580
-0.038210478 0.19249429 0.75700003 8552545
-0.03667143 0.19198573 0.75500005 8487001
-0.035233337 0.19198573 0.75500005 8618587
-0.033795241 0.19198573 0.75500005 9407324
-0.032357145 0.19198573 0.75500005 9670496
-0.030919051 0.19198573 0.75500005 9802334
-0.029480955 0.19198573 0.75500005 9012818
-0.028042858 0.19198573 0.75500005 9734005
-0.026675239 0.19249429 0.75700003 11642002
-0.025233334 0.19249429 0.75700003 11311210
-0.023791429 0.19249429 0.75700003 10521694
-0.022408573 0.19300286 0.75900006 10586964
-0.021018095 0.19351144 0.76100004 10389585
-0.019568572 0.19351144 0.76100004 9338460
-0.018142859 0.19376571 0.76200002 8943702
-0.01669143 0.19376571 0.76200002 8552778
-0.015240001 0.19376571 0.76200002 10000224
-0.013824763 0.19427431 0.76400006 10460532
-0.012401905 0.19478285 0.76600003 10723704
-0.010957143 0.19503714 0.76700002 9079666
-0.0094961906 0.19503714 0.76700002 6842704
-0.0080561908 0.19554572 0.76900005 6777951
-0.0066085714 0.19605429 0.77100003 6383193
-0.0051533333 0.19656287 0.77300006 6252134
-0.0036809526 0.19656287 0.77300006 6383720
-0.0022171428 0.19732571 0.77600002 8026452
-0.00074095244 0.1978343 0.77800006 14145201
0.00074095244 0.1978343 0.77800006 15986106
0.0022228572 0.1978343 0.77800006 16709829
-0.064048581 0.19803524 0.77300006 16578511
-0.06257619 0.19803524 0.77300006 16249546
-0.060945716 0.19752286 0.77100003 13618598
-0.059477147 0.19752286 0.77100003 7960400
-0.057858098 0.19701049 0.76900005 6779730
-0.056246668 0.1964981 0.76700002 7569246
-0.054714285 0.19624192 0.76600003 7437421
-0.053116191 0.19572954 0.76400006 5989975
-0.051525716 0.19521715 0.76200002 6449212
-0.050074287 0.19521715 0.76200002 7765072
-0.048559051 0.19496097 0.76100004 8421210
-0.046985716 0.19444859 0.75900006 7697487
-0.045540005 0.19444859 0.75900006 7238484
-0.044094287 0.19444859 0.75900006 7106898
-0.042536192 0.1939362 0.75700003 7633234
-0.041094288 0.1939362 0.75700003 7896406
-0.039652381 0.1939362 0.75700003 8157768
-0.038210478 0.1939362 0.75700003 8618319
-0.036768574 0.1939362 0.75700003 8750679
-0.035233337 0.19342382 0.75500005 8684886
-0.033795241 0.19342382 0.75500005 9473369
-0.032357145 0.19342382 0.75500005 9736541
-0.031000955 0.1939362 0.75700003 10131308
-0.029559048 0.1939362 0.75700003 9868136
-0.028117143 0.1939362 0.75700003 10194806
-0.026675239 0.1939362 0.75700003 10918529
-0.025233334 0.1939362 0.75700003 11507560
-0.023791429 0.1939362 0.75700003 10718044
-0.022408573 0.19444859 0.75900006 10521428
-0.021018095 0.19496097 0.76100004 10521428
-0.019568572 0.19496097 0.76100004 9866071
-0.018142859 0.19521715 0.76200002 9142348
-0.01669143 0.19521715 0.76200002 8880712
-0.015240001 0.19521715 0.76200002 10393951
-0.013860953 0.19624192 0.76600003 10591348
-0.012401905 0.19624192 0.76600003 10657141
-0.010957143 0.1964981 0.76700002 9079916
-0.0094961906 0.1964981 0.76700002 6777161
-0.0080561908 0.19701049 0.76900005 6843476
-0.0066085714 0.19752286 0.77100003 6646097
-0.0051533333 0.19803524 0.77300006 6514011
-0.0036809526 0.19803524 0.77300006 6645597
-0.0022171428 0.19880381 0.77600002 8158041
-0.00074285717 0.19982858 0.78000003 13750446
0.00074285717 0.19982858 0.78000003 15723193
0.002237143 0.20059715 0.78300005 16710088
0.0037285716 0.20059715 0.78300005 16578504
-0.06257619 0.19950764 0.77300006 16380873
-0.060945716 0.19899143 0.77100003 13881257
-0.05932286 0.19847526 0.76900005 8223059
-0.057707619 0.19795905 0.76700002 6648407
-0.056246668 0.19795905 0.76700002 7635302
-0.054714285 0.19770096 0.76600003 7502951
-0.053116191 0.19718479 0.76400006 6976607
-0.051525716 0.19666858 0.76200002 8815196
-0.050074287 0.19666858 0.76200002 10591607
-0.048559051 0.19641048 0.76100004 10590067
-0.046985716 0.1958943 0.75900006 10392688
-0.045540005 0.1958943 0.75900006 10195566
-0.044094287 0.1958943 0.75900006 9340257
-0.042648572 0.1958943 0.75900006 9668714
-0.041094288 0.19537809 0.75700003 9997679
-0.039652381 0.19537809 0.75700003 10194525
-0.038210478 0.19537809 0.75700003 10260318
-0.036768574 0.19537809 0.75700003 10392170
-0.035233337 0.19486192 0.75500005 10523756
-0.033795241 0.19486192 0.75500005 10523749
-0.032357145 0.19486192 0.75500005 10589542
-0.031000955 0.19537809 0.75700003 10655594
-0.029559048 0.19537809 0.75700003 10655594
-0.028117143 0.19537809 0.75700003 10983287
-0.026675239 0.19537809 0.75700003 10983287
-0.025233334 0.19537809 0.75700003 11244388
-0.023854287 0.1958943 0.75900006 10586458
-0.022467621 0.19641048 0.76100004 10653534
-0.021018095 0.19641048 0.76100004 11245671
-0.019594287 0.19666858 0.76200002 11049060
-0.018142859 0.19666858 0.76200002 10983267
-0.01669143 0.19666858 0.76200002 10787430
-0.015280001 0.19718479 0.76400006 10853223
-0.013860953 0.19770096 0.76600003 10656612
-0.012401905 0.19770096 0.76600003 10393440
-0.010957143 0.19795905 0.76700002 9146212
-0.0094961906 0.19795905 0.76700002 6646078
-0.0080561908 0.19847526 0.76900005 6384722
-0.0066085714 0.19899143 0.77100003 6582101
-0.0051533333 0.19950764 0.77300006 6580322
-0.0036809526 0.19950764 0.77300006 6514529
-0.0022171428 0.2002819 0.77600002 7697485
-0.00074285717 0.20131429 0.78000003 13355683
0.00074285717 0.20131429 0.78000003 15788725
0.002237143 0.20208858 0.78300005 16776648
0.0037285716 0.20208858 0.78300005 16512968
-0.060945716 0.20046 0.77100003 13947563
-0.05932286 0.19994001 0.76900005 8289365
-0.057707619 0.19942001 0.76700002 6253386
-0.056246668 0.19942001 0.76700002 7700832
-0.054714285 0.19916001 0.76600003 8028779
-0.053255241 0.19916001 0.76600003 8357744
-0.051660955 0.19864002 0.76400006 9670235
-0.050074287 0.19812 0.76200002 10854509
-0.048559051 0.19786 0.76100004 11639150
-0.046985716 0.19734001 0.75900006 11441771
-0.045540005 0.19734001 0.75900006 11244651
-0.044094287 0.19734001 0.75900006 10718307
-0.042648572 0.19734001 0.75900006 10652251
-0.041202862 0.19734001 0.75900006 10981216
-0.039652381 0.19682001 0.75700003 11376228
-0.038210478 0.19682001 0.75700003 11310435
-0.036768574 0.19682001 0.75700003 11310181
-0.035233337 0.19630001 0.75500005 11310181
-0.033795241 0.19630001 0.75500005 11244892
-0.032357145 0.19630001 0.75500005 11179099
-0.031000955 0.19682001 0.75700003 11113567
-0.029559048 0.19682001 0.75700003 11376739
-0.028117143 0.19682001 0.75700003 11310960
-0.026675239 0.19682001 0.75700003 11245167
-0.025300002 0.19734001 0.75900006 11113315
-0.023854287 0.19734001 0.75900006 10652764
-0.022467621 0.19786 0.76100004 11047009
-0.021018095 0.19786 0.76100004 11441767
-0.019594287 0.19812 0.76200002 11246178
-0.018142859 0.19812 0.76200002 11246178
-0.016735239 0.19864002 0.76400006 11312223
-0.015280001 0.19864002 0.76400006 11246430
-0.013860953 0.19916001 0.76600003 10917987
-0.012418096 0.19942001 0.76700002 10983780
-0.010957143 0.19942001 0.76700002 9212274
-0.0095209526 0.19994001 0.76900005 7435863
-0.0080771428 0.20046 0.77100003 6648407
-0.0066085714 0.20046 0.77100003 6385235
-0.0051600002 0.20124002 0.77400005 6580572
-0.0036857147 0.20124002 0.77400005 6448986
-0.0022228572 0.20228001 0.77800006 7368271
-0.00074380951 0.20306 0.78100002 13223848
0.00074380951 0.20306 0.78100002 15656630
0.0022428571 0.20410001 0.78500003 16775368
0.0037380953 0.20410001 0.78500003 16446153
-0.059168573 0.20088096 0.76700002 8355669
-0.057707619 0.20088096 0.76700002 7240290
-0.056246668 0.20088096 0.76700002 7635048
-0.054785714 0.20088096 0.76700002 8553070
-0.053255241 0.20061906 0.76600003 10066309
-0.051660955 0.20009525 0.76400006 11049303
-0.050074287 0.19957143 0.76200002 11246682
-0.048559051 0.19930953 0.76100004 11442273
-0.047109526 0.19930953 0.76100004 11771238
-0.045540005 0.19878574 0.75900006 11574886
-0.044094287 0.19878574 0.75900006 11969644
-0.042648572 0.19878574 0.75900006 11640938
-0.041202862 0.19878574 0.75900006 11772524
-0.039652381 0.1982619 0.75700003 11838317
-0.038210478 0.1982619 0.75700003 11575145
-0.036768574 0.1982619 0.75700003 11509093
-0.035326667 0.1982619 0.75700003 11509093
-0.033884764 0.1982619 0.75700003 11443557
-0.03244286 0.1982619 0.75700003 11443557
-0.031082857 0.19878574 0.75900006 11508839
-0.029637145 0.19878574 0.75900006 11706218
-0.02819143 0.19878574 0.75900006 11640163
-0.026745716 0.19878574 0.75900006 11442784
-0.025300002 0.19878574 0.75900006 10849371
-0.023917144 0.19930953 0.76100004 10586199
-0.022467621 0.19930953 0.76100004 10783580
-0.021045715 0.19957143 0.76200002 11178338
-0.019594287 0.19957143 0.76200002 10982231
-0.018190479 0.20009525 0.76400006 10916438
-0.016735239 0.20009525 0.76400006 10982229
-0.01532 0.20061906 0.76600003 11376987
-0.013879048 0.20088096 0.76700002 11114601
-0.012418096 0.20088096 0.76700002 11772531
-0.010957143 0.20088096 0.76700002 10722932
-0.0095209526 0.20140478 0.76900005 9538658
-0.0080771428 0.20192857 0.77100003 8159586
-0.0066257147 0.20245239 0.77300006 6580554
-0.0051733335 0.2032381 0.77600002 6383970
-0.0036952381 0.2032381 0.77600002 6252384
-0.0022228572 0.20376192 0.77800006 6908756
-0.00074571435 0.20507143 0.78300005 12764333
0.00074761908 0.20559524 0.78500003 15525555
0.0022428571 0.20559524 0.78500003 16776136
-0.061103813 0.20392478 0.77300006 13684648
-0.059631433 0.20392478 0.77300006 8355415
-0.057707619 0.2023419 0.76700002 7372382
-0.056246668 0.2023419 0.76700002 7503968
-0.054785714 0.2023419 0.76700002 9208422
-0.053255241 0.2020781 0.76600003 10984833
-0.05179619 0.2020781 0.76600003 11704941
-0.050205719 0.2015505 0.76400006 11573355
-0.048559051 0.20075905 0.76100004 11178847
-0.047109526 0.20075905 0.76100004 11705191
-0.04566 0.20075905 0.76100004 11509352
-0.044094287 0.20023143 0.75900006 11575145
-0.042648572 0.20023143 0.75900006 11443568
-0.041202862 0.20023143 0.75900006 11706740
-0.039757144 0.20023143 0.75900006 11707260
-0.038311433 0.20023143 0.75900006 11641467
-0.036865719 0.20023143 0.75900006 11378027
-0.035326667 0.19970381 0.75700003 11378027
-0.033884764 0.19970381 0.75700003 11444070
-0.03244286 0.19970381 0.75700003 11378277
-0.031082857 0.20023143 0.75900006 11508848
-0.029637145 0.20023143 0.75900006 11574641
-0.02819143 0.20023143 0.75900006 11574382
-0.026745716 0.20023143 0.75900006 10784866
-0.025366668 0.20075905 0.76100004 10520656
-0.023917144 0.20075905 0.76100004 10520656
-0.022467621 0.20075905 0.76100004 10586453
-0.021045715 0.20102286 0.76200002 10849625
-0.019594287 0.20102286 0.76200002 10981218
-0.018190479 0.2015505 0.76400006 11112804
-0.016735239 0.2015505 0.76400006 11048015
-0.01532 0.2020781 0.76600003 11376980
-0.013879048 0.2023419 0.76700002 11311448
-0.012418096 0.2023419 0.76700002 11969378
-0.010985715 0.20286953 0.76900005 11314042
-0.0095209526 0.20286953 0.76900005 10919284
-0.0080771428 0.20339714 0.77100003 8553835
-0.0066257147 0.20392478 0.77300006 6645838
-0.0051733335 0.20471621 0.77600002 6186316
-0.0036952381 0.20471621 0.77600002 5923144
-0.0022228572 0.20524383 0.77800006 6645588
-0.00074095244 0.20524383 0.77800006 13027509
-0.061103813 0.20539716 0.77300006 13750182
-0.059631433 0.20539716 0.77300006 8486742
-0.05800857 0.20486572 0.77100003 7502687
-0.056393337 0.20433429 0.76900005 7765859
-0.054928575 0.20433429 0.76900005 9274469
-0.053324763 0.20380287 0.76700002 11182466
-0.05179619 0.20353715 0.76600003 11508341
-0.050337147 0.20353715 0.76600003 11442548
-0.048622858 0.2024743 0.76200002 11244649
-0.047171429 0.2024743 0.76200002 11639407
-0.04566 0.20220858 0.76100004 11311464
-0.044210479 0.20220858 0.76100004 11114085
-0.042648572 0.20167716 0.75900006 11114090
-0.041202862 0.20167716 0.75900006 11179883
-0.039757144 0.20167716 0.75900006 11772024
-0.038311433 0.20167716 0.75900006 11969403
-0.036865719 0.20167716 0.75900006 11574632
-0.035420001 0.20167716 0.75900006 11574632
-0.03397429 0.20167716 0.75900006 11509091
-0.032528572 0.20167716 0.75900006 11574884
-0.031164765 0.20220858 0.76100004 11377266
-0.02971524 0.20220858 0.76100004 11179887
-0.028265715 0.20220858 0.76100004 10982495
-0.026816191 0.20220858 0.76100004 10192979
-0.025366668 0.20220858 0.76100004 10389072
-0.023917144 0.20220858 0.76100004 10454865
-0.022467621 0.20220858 0.76100004 10651740
-0.021045715 0.2024743 0.76200002 10914912
-0.019594287 0.2024743 0.76200002 10850409
-0.018190479 0.20300573 0.76400006 11574132
-0.016779048 0.20353715 0.76600003 11575395
-0.01532 0.20353715 0.76600003 11970153
-0.013879048 0.20380287 0.76700002 11904353
-0.012418096 0.20380287 0.76700002 12035939
-0.010985715 0.20433429 0.76900005 11575152
-0.0095209526 0.20433429 0.76900005 11706738
-0.0080771428 0.20486572 0.77100003 10525796
-0.0066257147 0.20539716 0.77300006 7038767
-0.0051733335 0.2061943 0.77600002 5923648
-0.0036952381 0.2061943 0.77600002 5726269
-0.0022228572 0.20672572 0.77800006 7629912
-0.00074095244 0.20672572 0.77800006 13946040
-0.061103813 0.20686953 0.77300006 13881257
-0.059631433 0.20686953 0.77300006 8617817
-0.05800857 0.20633428 0.77100003 7699035
-0.056540001 0.20633428 0.77100003 8028000
-0.055071428 0.20633428 0.77100003 9603174
-0.053324763 0.20526381 0.76700002 10984827
-0.051863808 0.20526381 0.76700002 11377266
-0.050337147 0.20499618 0.76600003 11245680
-0.048622858 0.20392571 0.76200002 11047011
-0.047171429 0.20392571 0.76200002 11047011
-0.04566 0.20365809 0.76100004 10916188
-0.044210479 0.20365809 0.76100004 10850395
-0.042760953 0.20365809 0.76100004 10915675
-0.041202862 0.20312287 0.75900006 10981468
-0.039757144 0.20312287 0.75900006 11244131
-0.038311433 0.20312287 0.75900006 11638889
-0.036865719 0.20312287 0.75900006 11640425
-0.035420001 0.20312287 0.75900006 11508839
-0.03397429 0.20312287 0.75900006 11377759
-0.032528572 0.20312287 0.75900006 11443552
-0.031164765 0.20365809 0.76100004 11048560
-0.02971524 0.20365809 0.76100004 10785388
-0.028265715 0.20365809 0.76100004 10719325
-0.026816191 0.20365809 0.76100004 9929809
-0.025366668 0.20365809 0.76100004 9994055
-0.023917144 0.20365809 0.76100004 10651985
-0.022467621 0.20365809 0.76100004 10849630
-0.021045715 0.20392571 0.76200002 11047009
-0.019594287 0.20392571 0.76200002 10850661
-0.018190479 0.20446096 0.76400006 11574384
-0.016779048 0.20499618 0.76600003 11444329
-0.01532 0.20499618 0.76600003 11641708
-0.013879048 0.20526381 0.76700002 11838821
-0.012418096 0.20526381 0.76700002 11970407
-0.010985715 0.20579906 0.76900005 11640184
-0.0095457146 0.20633428 0.77100003 11903356
-0.0080771428 0.20633428 0.77100003 10788214
-0.0066257147 0.20686953 0.77300006 7498564
-0.0051733335 0.20767237 0.77600002 5660207
-0.0036952381 0.20767237 0.77600002 6054965
-0.0022228572 0.20820762 0.77800006 8613734
-0.00074095244 0.20820762 0.77800006 13877174
-0.061103813 0.20834193 0.77300006 13946539
-0.059631433 0.20834193 0.77300006 8814685
-0.058159053 0.20834193 0.77300006 8027232
-0.05668667 0.20834193 0.77300006 8224611
-0.055071428 0.20780286 0.77100003 9536861
-0.053463813 0.20726383 0.76900005 11115893
-0.051863808 0.20672476 0.76700002 11573866
-0.050337147 0.20645525 0.76600003 11376487
-0.048750479 0.20591621 0.76400006 11047524
-0.047171429 0.20537715 0.76200002 10850145
-0.04566 0.20510763 0.76100004 10784866
-0.044210479 0.20510763 0.76100004 10653280
-0.042760953 0.20510763 0.76100004 10521430
-0.041202862 0.20456858 0.75900006 10455637
-0.039757144 0.20456858 0.75900006 10652251
-0.038311433 0.20456858 0.75900006 10915423
-0.036865719 0.20456858 0.75900006 10915938
-0.035420001 0.20456858 0.75900006 11179110
-0.03397429 0.20456858 0.75900006 11180376
-0.032528572 0.20456858 0.75900006 11443548
-0.031164765 0.20510763 0.76100004 11114603
-0.02971524 0.20510763 0.76100004 10654052
-0.028265715 0.20510763 0.76100004 10587998
-0.026816191 0.20510763 0.76100004 9732689
-0.0254 0.20537715 0.76200002 10125920
-0.023948571 0.20537715 0.76200002 11441780
-0.022497144 0.20537715 0.76200002 11376753
-0.021045715 0.20537715 0.76200002 11903097
-0.019594287 0.20537715 0.76200002 11706220
-0.018190479 0.20591621 0.76400006 11706220
-0.016779048 0.20645525 0.76600003 11114603
-0.01532 0.20645525 0.76600003 11048810
-0.013879048 0.20672476 0.76700002 11377757
-0.012450477 0.20726383 0.76900005 12035687
-0.010985715 0.20726383 0.76900005 12035201
-0.0095457146 0.20780286 0.77100003 11903615
-0.0080771428 0.20780286 0.77100003 10590315
-0.0066257147 0.20834193 0.77300006 8221767
-0.0051733335 0.20915048 0.77600002 6448466
-0.0036952381 0.20915048 0.77600002 6382673
-0.0022171428 0.20915048 0.77600002 7892080
-0.00073904765 0.20915048 0.77600002 12366004
-0.06265714 0.21008572 0.77400005 15985341
-0.06118286 0.21008572 0.77400005 14012577
-0.059708573 0.21008572 0.77400005 8946516
-0.058159053 0.20981431 0.77300006 8158041
-0.05668667 0.20981431 0.77300006 8421213
-0.055071428 0.20927143 0.77100003 9470550
-0.053463813 0.20872858 0.76900005 11181168
-0.051863808 0.20818572 0.76700002 11312223
-0.050337147 0.20791429 0.76600003 11378016
-0.048750479 0.20737144 0.76400006 11048290
-0.047295243 0.20737144 0.76400006 10982497
-0.04566 0.20655715 0.76100004 11048299
-0.044210479 0.20655715 0.76100004 10719334
-0.042760953 0.20655715 0.76100004 10259537
-0.041311432 0.20655715 0.76100004 10259537
-0.039861906 0.20655715 0.76100004 10390862
-0.038412381 0.20655715 0.76100004 10456655
-0.036962859 0.20655715 0.76100004 10324303
-0.035513334 0.20655715 0.76100004 10390096
-0.034063812 0.20655715 0.76100004 10719829
-0.032614287 0.20655715 0.76100004 11114587
-0.031205716 0.20682858 0.76200002 11115114
-0.029754287 0.20682858 0.76200002 10588770
-0.028302858 0.20682858 0.76200002 10390869
-0.026851429 0.20682858 0.76200002 10061904
-0.0254 0.20682858 0.76200002 10258781
-0.023948571 0.20682858 0.76200002 11114090
-0.022497144 0.20682858 0.76200002 11114353
-0.021045715 0.20682858 0.76200002 11640697
-0.019645717 0.20737144 0.76400006 11640945
-0.018190479 0.20737144 0.76400006 11246187
-0.016779048 0.20791429 0.76600003 11310694
-0.01534 0.20818572 0.76700002 10981729
-0.013879048 0.20818572 0.76700002 10915925
-0.012450477 0.20872858 0.76900005 12034406
-0.010985715 0.20872858 0.76900005 11773564
-0.0095457146 0.20927143 0.77100003 11576185
-0.0080771428 0.20927143 0.77100003 10196068
-0.0066257147 0.20981431 0.77300006 8222278
-0.0051733335 0.21062857 0.77600002 6711381
-0.0036952381 0.21062857 0.77600002 6250830
-0.0022171428 0.21062857 0.77600002 6907734
-0.00073904765 0.21062857 0.77600002 9868419
-0.06118286 0.21156001 0.77400005 14341022
-0.059708573 0.21156001 0.77400005 9143375
-0.058159053 0.21128668 0.77300006 8748122
-0.05668667 0.21128668 0.77300006 9142880
-0.055071428 0.21074 0.77100003 9797980
-0.053463813 0.21019335 0.76900005 10653289
-0.051863808 0.20964667 0.76700002 11508559
-0.050402857 0.20964667 0.76700002 11640145
-0.048878096 0.20937334 0.76600003 11179608
-0.047295243 0.20882669 0.76400006 11048022
-0.04572 0.20828 0.76200002 11048810
-0.044268575 0.20828 0.76200002 11048810
-0.042760953 0.20800668 0.76100004 10851935
-0.041311432 0.20800668 0.76100004 10983521
-0.039861906 0.20800668 0.76100004 10984019
-0.038412381 0.20800668 0.76100004 10852433
-0.036962859 0.20800668 0.76100004 10588250
-0.035513334 0.20800668 0.76100004 9930320
-0.034063812 0.20800668 0.76100004 10193233
-0.032614287 0.20800668 0.76100004 10324819
-0.031205716 0.20828 0.76200002 10521176
-0.029754287 0.20828 0.76200002 10718555
-0.028302858 0.20828 0.76200002 10391114
-0.026851429 0.20828 0.76200002 11049044
-0.0254 0.20828 0.76200002 11048812
-0.023948571 0.20828 0.76200002 11048812
-0.022497144 0.20828 0.76200002 11049069
-0.021045715 0.20828 0.76200002 11509620
-0.019645717 0.20882669 0.76400006 11509865
-0.018190479 0.20882669 0.76400006 10917728
-0.016779048 0.20937334 0.76600003 10390376
-0.01534 0.20964667 0.76700002 10324583
-0.013879048 0.20964667 0.76700002 10654054
-0.012450477 0.21019335 0.76900005 11706742
-0.010985715 0.21019335 0.76900005 11575899
-0.0095457146 0.21074 0.77100003 11049555
-0.0080980957 0.21128668 0.77300006 10260575
-0.0066342861 0.21156001 0.77400005 8484164
-0.0051733335 0.21210667 0.77600002 6776931
-0.0036952381 0.21210667 0.77600002 5987415
-0.0022171428 0.21210667 0.77600002 6251080
-0.00074095244 0.21265334 0.77800006 9014386
-0.061340958 0.21358477 0.77600002 14669733
-0.05986286 0.21358477 0.77600002 9406293
-0.058234289 0.2130343 0.77400005 9864027
-0.056760002 0.2130343 0.77400005 9798234
-0.05521429 0.21275906 0.77300006 10125148
-0.053463813 0.21165811 0.76900005 10980457
-0.051999051 0.21165811 0.76900005 10719327
-0.050402857 0.21110763 0.76700002 10785120
-0.048878096 0.21083239 0.76600003 10784866
-0.047419049 0.21083239 0.76600003 10784866
-0.045840003 0.21028192 0.76400006 10916202
-0.044268575 0.20973143 0.76200002 10916202
-0.042760953 0.20945621 0.76100004 10785890
-0.041311432 0.20945621 0.76100004 11180648
-0.039861906 0.20945621 0.76100004 11050352
-0.038412381 0.20945621 0.76100004 11050352
-0.036962859 0.20945621 0.76100004 10721389
-0.035513334 0.20945621 0.76100004 9866080
-0.034063812 0.20945621 0.76100004 10061895
-0.032614287 0.20945621 0.76100004 10259274
-0.031205716 0.20973143 0.76200002 10455383
-0.029754287 0.20973143 0.76200002 10389590
-0.028302858 0.20973143 0.76200002 10257986
-0.026851429 0.20973143 0.76200002 11376467
-0.0254 0.20973143 0.76200002 11114603
-0.023948571 0.20973143 0.76200002 10983017
-0.022497144 0.20973143 0.76200002 11049069
-0.021045715 0.20973143 0.76200002 11443827
-0.019645717 0.21028192 0.76400006 11444079
-0.018190479 0.21028192 0.76400006 10720356
-0.016779048 0.21083239 0.76600003 10127708
-0.01534 0.21110763 0.76700002 10061915
-0.013879048 0.21110763 0.76700002 10456671
-0.012450477 0.21165811 0.76900005 11048808
-0.011014286 0.21220858 0.77100003 10785879
-0.0095457146 0.21220858 0.77100003 10917465
-0.0080980957 0.21275906 0.77300006 10063198
-0.0066342861 0.2130343 0.77400005 8615752
-0.0051733335 0.21358477 0.77600002 7170906
-0.0036952381 0.21358477 0.77600002 5657667
-0.0022171428 0.21358477 0.77600002 5461804
-0.00074095244 0.21413524 0.77800006 8422489
0.00074761908 0.21606191 0.78500003 12696456
-0.063223809 0.21644858 0.78100002 16379833
-0.061340958 0.21506286 0.77600002 14538401
-0.05986286 0.21506286 0.77600002 9472340
-0.058234289 0.21450858 0.77400005 9600349
-0.056760002 0.21450858 0.77400005 9797728
-0.05521429 0.21423145 0.77300006 10059105
-0.053463813 0.21312287 0.76900005 10059105
-0.051999051 0.21312287 0.76900005 10387798
-0.050402857 0.21256858 0.76700002 10453591
-0.048878096 0.21229143 0.76600003 10453593
-0.047419049 0.21229143 0.76600003 10387800
-0.045840003 0.21173716 0.76400006 10191713
-0.044268575 0.21118286 0.76200002 11047022
-0.042817142 0.21118286 0.76200002 10851429
-0.041311432 0.21090572 0.76100004 11246187
-0.039861906 0.21090572 0.76100004 11246709
-0.038412381 0.21090572 0.76100004 11246709
-0.036962859 0.21090572 0.76100004 11115123
-0.035513334 0.21090572 0.76100004 10720365
-0.034063812 0.21090572 0.76100004 10785870
-0.032614287 0.21090572 0.76100004 10983249
-0.031205716 0.21118286 0.76200002 11113840
-0.029754287 0.21118286 0.76200002 11113840
-0.028302858 0.21118286 0.76200002 10784866
-0.026851429 0.21118286 0.76200002 11245417
-0.0254 0.21118286 0.76200002 10850911
-0.023948571 0.21118286 0.76200002 10521946
-0.022556191 0.21173716 0.76400006 11180126
-0.021100953 0.21173716 0.76400006 11311712
-0.019697145 0.21229143 0.76600003 11311446
-0.018238096 0.21229143 0.76600003 10785102
-0.016779048 0.21229143 0.76600003 10324315
-0.01534 0.21256858 0.76700002 10324315
-0.013879048 0.21256858 0.76700002 10521944
-0.012450477 0.21312287 0.76900005 11179874
-0.011014286 0.21367715 0.77100003 10654806
-0.0095457146 0.21367715 0.77100003 10260048
-0.0080980957 0.21423145 0.77300006 9997914
-0.0066342861 0.21450858 0.77400005 8945226
-0.0051733335 0.21506286 0.77600002 6711381
-0.0036952381 0.21506286 0.77600002 4671798
-0.0022171428 0.21506286 0.77600002 5330759
-0.00074285717 0.21617144 0.78000003 8159858
0.00074571435 0.21700287 0.78300005 12367237
0.002237143 0.21700287 0.78300005 16776396
-0.063223809 0.2179362 0.78100002 16117440
-0.061340958 0.21654096 0.77600002 14275495
-0.05986286 0.21654096 0.77600002 9406813
-0.058234289 0.21598287 0.77400005 9600349
-0.056760002 0.21598287 0.77400005 9797728
-0.05521429 0.21570382 0.77300006 10124898
-0.053602856 0.21514572 0.77100003 9664347
-0.051999051 0.21458763 0.76900005 10188363
-0.050402857 0.21402952 0.76700002 10385742
-0.048878096 0.21375048 0.76600003 10385231
-0.047419049 0.21375048 0.76600003 10253645
-0.045840003 0.2131924 0.76400006 10124628
-0.044268575 0.2126343 0.76200002 11111523
-0.042817142 0.2126343 0.76200002 10851179
-0.041311432 0.21235524 0.76100004 11245937
-0.039861906 0.21235524 0.76100004 11180657
-0.038462859 0.2126343 0.76200002 11180657
-0.037011426 0.2126343 0.76200002 11377266
-0.035560001 0.2126343 0.76200002 11114094
-0.034108575 0.2126343 0.76200002 11310937
-0.032657143 0.2126343 0.76200002 11508316
-0.031205716 0.2126343 0.76200002 11311219
-0.029754287 0.2126343 0.76200002 10784875
-0.028377144 0.2131924 0.76400006 10719327
-0.026921906 0.2131924 0.76400006 10653534
-0.025466667 0.2131924 0.76400006 10784343
-0.024011429 0.2131924 0.76400006 10784343
-0.022556191 0.2131924 0.76400006 10850659
-0.021100953 0.2131924 0.76400006 10982245
-0.019697145 0.21375048 0.76600003 10653016
-0.018238096 0.21375048 0.76600003 10521430
-0.016779048 0.21375048 0.76600003 10586712
-0.01534 0.21402952 0.76700002 10520919
-0.013879048 0.21402952 0.76700002 10455383
-0.012450477 0.21458763 0.76900005 10586969
-0.011014286 0.21514572 0.77100003 10063450
-0.0095457146 0.21514572 0.77100003 9997657
-0.0080980957 0.21570382 0.77300006 9406302
-0.0066342861 0.21598287 0.77400005 8814165
-0.0051733335 0.21654096 0.77600002 6711631
-0.0036952381 0.21654096 0.77600002 5066806
-0.0022228572 0.21709906 0.77800006 5330487
-0.00074285717 0.21765715 0.78000003 7962207
0.00074571435 0.21849431 0.78300005 12037511
0.002237143 0.21849431 0.78300005 16775121
-0.065208569 0.22110954 0.78700006 16446398
-0.063385718 0.21998572 0.78300005 15459503
-0.061736189 0.21942382 0.78100002 14077859
-0.060017146 0.21858096 0.77800006 9406556
-0.058384761 0.21801905 0.77600002 9273188
-0.056760002 0.21745716 0.77400005 9338981
-0.05521429 0.2171762 0.77300006 9796193
-0.053602856 0.21661429 0.77100003 9598814
-0.051999051 0.21605238 0.76900005 10057038
-0.050402857 0.21549048 0.76700002 10254417
-0.048878096 0.21520954 0.76600003 10253652
-0.047419049 0.21520954 0.76600003 10187859
