# .PCD v0.7 - Point Cloud Data file format
VERSION 0.7
FIELDS x y z rgba
SIZE 4 4 4 4
TYPE F F F U
COUNT 1 1 1 1
WIDTH 1105
HEIGHT 1
VIEWPOINT 0 0 0 1 0 0 0
POINTS 1105
DATA ascii
-0.15974858 0.045737144 0.69600004 8470550
-0.15842286 0.045737144 0.69600004 8208948
-0.15709715 0.045737144 0.69600004 8208948
-0.15577143 0.045737144 0.69600004 8078111
-0.15444572 0.045737144 0.69600004 8012318
-0.15312001 0.045737144 0.69600004 7683073
-0.15201239 0.045802858 0.69700003 8341003
-0.15068477 0.045802858 0.69700003 8077861
-0.14935715 0.045802858 0.69700003 7814689
-0.14802952 0.045802858 0.69700003 8142627
-0.1467019 0.045802858 0.69700003 8537385
-0.14537428 0.045802858 0.69700003 8340783
-0.14384001 0.045737144 0.69600004 7946025
-0.1425143 0.045737144 0.69600004 8075544
-0.14118858 0.045737144 0.69600004 8338716
-0.13986287 0.045737144 0.69600004 8274177
-0.13873619 0.045802858 0.69700003 8339970
-0.13740857 0.045802858 0.69700003 8602908
-0.13608097 0.045802858 0.69700003 8142357
-0.13475335 0.045802858 0.69700003 7878400
-0.12902285 0.044291429 0.67400002 9654806
-0.12717049 0.044094287 0.671 10977536
-0.12589237 0.044094287 0.671 16775014
-0.1248 0.044160005 0.67200005 16646133
-0.12352001 0.044160005 0.67200005 16711670
-0.12260382 0.044291429 0.67400002 16711672
-0.12132 0.044291429 0.67400002 16711672
-0.12003619 0.044291429 0.67400002 16645879
-0.11875238 0.044291429 0.67400002 16645879
-0.11746857 0.044291429 0.67400002 16711420
-0.11618476 0.044291429 0.67400002 16711420
-0.11490095 0.044291429 0.67400002 16711422
-0.11378571 0.044357143 0.67500001 16711422
-0.1125 0.044357143 0.67500001 16711420
-0.11121429 0.044357143 0.67500001 16711420
-0.10992857 0.044357143 0.67500001 16711422
-0.10864286 0.044357143 0.67500001 16711422
-0.10735714 0.044357143 0.67500001 16711422
-0.10607143 0.044357143 0.67500001 16711422
-0.10478572 0.044357143 0.67500001 16711422
-0.1035 0.044357143 0.67500001 16514043
-0.10554572 0.045802858 0.69700003 14207184
-0.1042181 0.045802858 0.69700003 5785680
-0.10274286 0.045737144 0.69600004 8665140
-0.10141715 0.045737144 0.69600004 9191484
-0.10009144 0.045737144 0.69600004 9192726
-0.098765716 0.045737144 0.69600004 8797968
-0.097440004 0.045737144 0.69600004 8864004
-0.096114293 0.045737144 0.69600004 9061383
-0.094788581 0.045737144 0.69600004 8601102
-0.093462862 0.045737144 0.69600004 8666895
-0.092137143 0.045737144 0.69600004 8403498
-0.090811431 0.045737144 0.69600004 8271912
-0.08948572 0.045737144 0.69600004 8403237
-0.088160008 0.045737144 0.69600004 8600616
-0.086834289 0.045737144 0.69600004 8471045
-0.085508578 0.045737144 0.69600004 8536838
-0.084303811 0.045802858 0.69700003 8470272
-0.082857147 0.045737144 0.69600004 8601856
-0.081531428 0.045737144 0.69600004 8600623
-0.080320954 0.045802858 0.69700003 8534830
-0.078653328 0.045605715 0.69400001 8534303
-0.077331424 0.045605715 0.69400001 8863268
-0.076009519 0.045605715 0.69400001 8601655
-0.074687615 0.045605715 0.69400001 8404276
-0.073577143 0.045737144 0.69600004 8734478
-0.072251432 0.045737144 0.69600004 8208134
-0.07092572 0.045737144 0.69600004 8797198
-0.069600001 0.045737144 0.69600004 11099953
-0.068274289 0.045737144 0.69600004 9131159
-0.067044765 0.045802858 0.69700003 10052261
-0.065717146 0.045802858 0.69700003 11966976
-0.064389527 0.045802858 0.69700003 16506670
-0.16649811 0.046724766 0.69100004 16646104
-0.16518191 0.046724766 0.69100004 16646106
-0.16505145 0.047062859 0.69600004 12961954
-0.16372572 0.047062859 0.69600004 12887891
-0.16240001 0.047062859 0.69600004 7098112
-0.1610743 0.047062859 0.69600004 8011816
-0.15974858 0.047062859 0.69600004 8538160
-0.15842286 0.047062859 0.69600004 8341822
-0.15709715 0.047062859 0.69600004 8144443
-0.15577143 0.047062859 0.69600004 8540719
-0.15444572 0.047062859 0.69600004 8672305
-0.15312001 0.047062859 0.69600004 8409874
-0.15179428 0.047062859 0.69600004 8278288
-0.15046857 0.047062859 0.69600004 8211243
-0.14914286 0.047062859 0.69600004 7684899
-0.14781715 0.047062859 0.69600004 8079144
-0.14649144 0.047062859 0.69600004 8276523
-0.14516573 0.047062859 0.69600004 8474437
-0.14384001 0.047062859 0.69600004 8606023
-0.1425143 0.047062859 0.69600004 8406584
-0.14118858 0.047062859 0.69600004 8077619
-0.13986287 0.047062859 0.69600004 8407085
-0.13853714 0.047062859 0.69600004 9065015
-0.13721143 0.047062859 0.69600004 8869930
-0.13608097 0.04713048 0.69700003 7948828
-0.13030668 0.045575239 0.67400002 9462585
-0.12902285 0.045575239 0.67400002 16568229
-0.12736002 0.04544 0.67200005 16645826
-0.12608001 0.04544 0.67200005 16777160
-0.1248 0.04544 0.67200005 16711674
-0.12352001 0.04544 0.67200005 16645881
-0.12260382 0.045575239 0.67400002 16646133
-0.12132 0.045575239 0.67400002 16580340
-0.12003619 0.045575239 0.67400002 16514543
-0.11875238 0.045575239 0.67400002 16646129
-0.11746857 0.045575239 0.67400002 16711420
-0.11618476 0.045575239 0.67400002 16711420
-0.11490095 0.045575239 0.67400002 16711420
-0.11361714 0.045575239 0.67400002 16711420
-0.11233333 0.045575239 0.67400002 16645881
-0.11104953 0.045575239 0.67400002 16711674
-0.10992857 0.045642857 0.67500001 16711422
-0.10864286 0.045642857 0.67500001 16711422
-0.1071981 0.045575239 0.67400002 16711422
-0.10591429 0.045575239 0.67400002 16711422
-0.10463049 0.045575239 0.67400002 16711422
-0.10334668 0.045575239 0.67400002 16711422
-0.10206286 0.045575239 0.67400002 16711422
-0.1042181 0.04713048 0.69700003 9539985
-0.10274286 0.047062859 0.69600004 8082534
-0.10141715 0.047062859 0.69600004 8279913
-0.099803805 0.04692762 0.69400001 9001768
-0.098481901 0.04692762 0.69400001 8738596
-0.097440004 0.047062859 0.69600004 9001516
-0.095838092 0.04692762 0.69400001 9264688
-0.094516195 0.04692762 0.69400001 8673323
-0.093194291 0.04692762 0.69400001 8739116
-0.091872387 0.04692762 0.69400001 8541765
-0.090550475 0.04692762 0.69400001 8278593
-0.08922857 0.04692762 0.69400001 8278579
-0.087906666 0.04692762 0.69400001 8146993
-0.086834289 0.047062859 0.69600004 8279574
-0.085508578 0.047062859 0.69600004 8345367
-0.084182858 0.047062859 0.69600004 8279583
-0.082619049 0.04692762 0.69400001 8411169
-0.081297144 0.04692762 0.69400001 8212298
-0.07997524 0.04692762 0.69400001 7685954
-0.078653328 0.04692762 0.69400001 7750714
-0.077331424 0.04692762 0.69400001 7750714
-0.076009519 0.04692762 0.69400001 7686483
-0.074687615 0.04692762 0.69400001 7752276
-0.073577143 0.047062859 0.69600004 8017966
-0.072251432 0.047062859 0.69600004 7228450
-0.07092572 0.047062859 0.69600004 9590053
-0.069600001 0.047062859 0.69600004 16768686
-0.068274289 0.047062859 0.69600004 14993819
-0.066948578 0.047062859 0.69600004 6572315
-0.065717146 0.04713048 0.69700003 7954944
-0.064389527 0.04713048 0.69700003 10323478
-0.063061908 0.04713048 0.69700003 14009463
-0.16757144 0.047971431 0.69000006 16580567
-0.16625714 0.047971431 0.69000006 16646104
-0.16494288 0.047971431 0.69000006 16646106
-0.16505145 0.048388574 0.69600004 9738097
-0.16372572 0.048388574 0.69600004 12292163
-0.16240001 0.048388574 0.69600004 8541962
-0.1610743 0.048388574 0.69600004 9001801
-0.15974858 0.048388574 0.69600004 8607043
-0.15842286 0.048388574 0.69600004 8738120
-0.15709715 0.048388574 0.69600004 8606534
-0.15577143 0.048388574 0.69600004 8673850
-0.15400191 0.04824952 0.69400001 8608057
-0.15267999 0.04824952 0.69400001 8541987
-0.15179428 0.048388574 0.69600004 8541987
-0.15046857 0.048388574 0.69600004 8738360
-0.14914286 0.048388574 0.69600004 8672567
-0.14781715 0.048388574 0.69600004 8542012
-0.14607048 0.04824952 0.69400001 8607805
-0.14474858 0.04824952 0.69400001 8936782
-0.14342667 0.04824952 0.69400001 9002575
-0.14210476 0.04824952 0.69400001 9134672
-0.14078286 0.04824952 0.69400001 8542535
-0.13946095 0.04824952 0.69400001 8804414
-0.13853714 0.048388574 0.69600004 8607035
-0.13721143 0.048388574 0.69600004 8476480
-0.13588572 0.048388574 0.69600004 7752757
-0.13030668 0.046859052 0.67400002 10517069
-0.12902285 0.046859052 0.67400002 16775371
-0.12736002 0.046720002 0.67200005 16646131
-0.12608001 0.046720002 0.67200005 16711668
-0.1248 0.046720002 0.67200005 16711674
-0.12388762 0.046859052 0.67400002 16645881
-0.12260382 0.046859052 0.67400002 16646133
-0.12132 0.046859052 0.67400002 16646133
-0.12003619 0.046859052 0.67400002 16580336
-0.11875238 0.046859052 0.67400002 16646129
-0.11746857 0.046859052 0.67400002 16711674
-0.11618476 0.046859052 0.67400002 16645881
-0.11490095 0.046859052 0.67400002 16711674
-0.11361714 0.046859052 0.67400002 16711674
-0.11233333 0.046859052 0.67400002 16645881
-0.11104953 0.046859052 0.67400002 16711674
-0.10976572 0.046859052 0.67400002 16711422
-0.10848191 0.046859052 0.67400002 16711422
-0.10688 0.046720002 0.67200005 16711422
-0.10560001 0.046720002 0.67200005 16711422
-0.10463049 0.046859052 0.67400002 16711422
-0.10304001 0.046720002 0.67200005 16711422
-0.10176001 0.046720002 0.67200005 16711422
-0.10406857 0.048388574 0.69600004 10790052
-0.10244761 0.04824952 0.69400001 8019053
-0.10112571 0.04824952 0.69400001 7624295
-0.099660002 0.048179999 0.69300002 8282443
-0.098340005 0.048179999 0.69300002 8085064
-0.097159997 0.04824952 0.69400001 8150857
-0.095700003 0.048179999 0.69300002 8150857
-0.094379999 0.048179999 0.69300002 7756350
-0.093060002 0.048179999 0.69300002 7756350
-0.091740005 0.048179999 0.69300002 7756101
-0.090550475 0.04824952 0.69400001 7427136
-0.08922857 0.04824952 0.69400001 7623479
-0.087906666 0.04824952 0.69400001 7557686
-0.086584762 0.04824952 0.69400001 7822632
-0.085262857 0.04824952 0.69400001 7888425
-0.083940953 0.04824952 0.69400001 7823940
-0.082619049 0.04824952 0.69400001 7231803
-0.081180006 0.048179999 0.69300002 7362629
-0.079860002 0.048179999 0.69300002 7428422
-0.078540005 0.048179999 0.69300002 7824209
-0.07722 0.048179999 0.69300002 7429451
-0.075899996 0.048179999 0.69300002 7101785
-0.074580006 0.048179999 0.69300002 6641234
-0.073365718 0.04824952 0.69400001 6445876
-0.072043814 0.04824952 0.69400001 5458981
-0.070721909 0.04824952 0.69400001 7297589
-0.069400005 0.04824952 0.69400001 16705988
-0.068078093 0.04824952 0.69400001 13946107
-0.066948578 0.048388574 0.69600004 4603501
-0.065622866 0.048388574 0.69600004 1516800
-0.06429714 0.048388574 0.69600004 3622171
-0.063061908 0.048458096 0.69700003 11837723
-0.16757144 0.049285717 0.69000006 16580565
-0.16625714 0.049285717 0.69000006 16646102
-0.16494288 0.049285717 0.69000006 16646089
-0.16386572 0.049357146 0.69100004 8816722
-0.16325523 0.049571428 0.69400001 6968902
-0.16193333 0.049571428 0.69400001 6903109
-0.16061142 0.049571428 0.69400001 7232342
-0.15928952 0.049571428 0.69400001 6508619
-0.15796761 0.049571428 0.69400001 6706498
-0.15664572 0.049571428 0.69400001 6640705
-0.1553238 0.049571428 0.69400001 6641199
-0.15378001 0.049500003 0.69300002 6706992
-0.15246001 0.049500003 0.69300002 6640686
-0.15114 0.049500003 0.69300002 6377514
-0.14982 0.049500003 0.69300002 6706479
-0.14871427 0.049571428 0.69400001 6640686
-0.14739239 0.049571428 0.69400001 6575667
-0.14586 0.049500003 0.69300002 6246702
-0.14454 0.049500003 0.69300002 6575166
-0.14321999 0.049500003 0.69300002 6509373
-0.1419 0.049500003 0.69300002 6640439
-0.14058001 0.049500003 0.69300002 6508853
-0.13926001 0.049500003 0.69300002 6574646
-0.13813905 0.049571428 0.69400001 6179888
-0.13681714 0.049571428 0.69400001 6704183
-0.13549525 0.049571428 0.69400001 10191212
-0.13030668 0.048142858 0.67400002 11311533
-0.12902285 0.048142858 0.67400002 16774911
-0.12773906 0.048142858 0.67400002 16711670
-0.12645523 0.048142858 0.67400002 16646133
-0.12517144 0.048142858 0.67400002 16646133
-0.12388762 0.048142858 0.67400002 16646133
-0.12224001 0.048000004 0.67200005 16646133
-0.12096001 0.048000004 0.67200005 16580340
-0.11968001 0.048000004 0.67200005 16646129
-0.11840001 0.048000004 0.67200005 16646129
-0.11712001 0.048000004 0.67200005 16645881
-0.11584001 0.048000004 0.67200005 16448502
-0.11456001 0.048000004 0.67200005 16580086
-0.11328001 0.048000004 0.67200005 16645879
-0.112 0.048000004 0.67200005 16645881
-0.11072001 0.048000004 0.67200005 16711674
-0.10944001 0.048000004 0.67200005 16711422
-0.10816 0.048000004 0.67200005 16711422
-0.10688 0.048000004 0.67200005 16711422
-0.10560001 0.048000004 0.67200005 16711422
-0.10432001 0.048000004 0.67200005 16711422
-0.10304001 0.048000004 0.67200005 16711422
-0.10176001 0.048000004 0.67200005 16711422
-0.10406857 0.04971429 0.69600004 12895428
-0.10244761 0.049571428 0.69400001 7565441
-0.10112571 0.049571428 0.69400001 4736342
-0.099660002 0.049500003 0.69300002 5394765
-0.098340005 0.049500003 0.69300002 5592144
-0.09702 0.049500003 0.69300002 6115903
-0.095700003 0.049500003 0.69300002 5457973
-0.094379999 0.049500003 0.69300002 5787699
-0.093060002 0.049500003 0.69300002 5985078
-0.091740005 0.049500003 0.69300002 5590318
-0.09042 0.049500003 0.69300002 4866595
-0.089099996 0.049500003 0.69300002 5722155
-0.087779999 0.049500003 0.69300002 5656362
-0.086584762 0.049571428 0.69400001 5459971
-0.085140005 0.049500003 0.69300002 5525764
-0.08382 0.049500003 0.69300002 5131812
-0.082499996 0.049500003 0.69300002 4868640
-0.081180006 0.049500003 0.69300002 5263135
-0.079629533 0.049357146 0.69100004 5263135
-0.078313336 0.049357146 0.69100004 5460525
-0.076997146 0.049357146 0.69100004 5460525
-0.075680956 0.049357146 0.69100004 5263926
-0.074364766 0.049357146 0.69100004 4671789
-0.073260002 0.049500003 0.69300002 5133600
-0.071940005 0.049500003 0.69300002 4344084
-0.07062 0.049500003 0.69300002 7759186
-0.069299996 0.049500003 0.69300002 16775911
-0.067980006 0.049500003 0.69300002 16644832
-0.066660002 0.049500003 0.69300002 3617818
-0.065340005 0.049500003 0.69300002 1584384
-0.06429714 0.04971429 0.69600004 3294996
-0.16913047 0.050673336 0.69100004 16580567
-0.1678143 0.050673336 0.69100004 16646101
-0.16625714 0.050600003 0.69000006 16711638
-0.16494288 0.050600003 0.69000006 16120011
-0.16386572 0.050673336 0.69100004 7435335
-0.16325523 0.050893333 0.69400001 3758377
-0.1617 0.05082 0.69300002 4679479
-0.16038001 0.05082 0.69300002 4939113
-0.15860096 0.050673336 0.69100004 4939113
-0.15728478 0.050673336 0.69100004 5070690
-0.15596858 0.050673336 0.69100004 4675932
-0.15465239 0.050673336 0.69100004 4216653
-0.1533362 0.050673336 0.69100004 4150860
-0.15202002 0.050673336 0.69100004 4019526
-0.15070382 0.050673336 0.69100004 4151112
-0.14938763 0.050673336 0.69100004 4282185
-0.14807144 0.050673336 0.69100004 4216392
-0.14675523 0.050673336 0.69100004 4085319
-0.14543906 0.050673336 0.69100004 4216905
-0.14412287 0.050673336 0.69100004 4414545
-0.14280666 0.050673336 0.69100004 4085580
-0.14149047 0.050673336 0.69100004 3822156
-0.1401743 0.050673336 0.69100004 3822156
-0.13885811 0.050673336 0.69100004 4018754
-0.13754191 0.050673336 0.69100004 3163445
-0.13681714 0.050893333 0.69400001 4540160
-0.13549525 0.050893333 0.69400001 11974768
-0.13030668 0.049426667 0.67400002 14210759
-0.12864001 0.049280003 0.67200005 16777200
-0.12736002 0.049280003 0.67200005 16646133
-0.12608001 0.049280003 0.67200005 16580340
-0.1248 0.049280003 0.67200005 16646133
-0.1233362 0.049206667 0.671 16580340
-0.12205809 0.049206667 0.671 16580590
-0.12078 0.049206667 0.671 16580590
-0.11968001 0.049280003 0.67200005 16580336
-0.11840001 0.049280003 0.67200005 16646129
-0.11694571 0.049206667 0.671 16711674
-0.11566762 0.049206667 0.671 16645881
-0.11438952 0.049206667 0.671 16711674
-0.11311143 0.049206667 0.671 16711674
-0.11183333 0.049206667 0.671 16645881
-0.11055524 0.049206667 0.671 16711674
-0.10927714 0.049206667 0.671 16711422
-0.10799905 0.049206667 0.671 16711422
-0.10672095 0.049206667 0.671 16711422
-0.10544286 0.049206667 0.671 16711422
-0.10416476 0.049206667 0.671 16711422
-0.10288666 0.049206667 0.671 16711422
-0.10160857 0.049206667 0.671 16711422
-0.10376953 0.050893333 0.69400001 12763842
-0.1023 0.05082 0.69300002 7569293
-0.10068858 0.050673336 0.69100004 4148057
-0.099372379 0.050673336 0.69100004 4739915
-0.098056197 0.050673336 0.69100004 4805708
-0.09674 0.050673336 0.69100004 4084045
-0.095423818 0.050673336 0.69100004 3820873
-0.09410762 0.050673336 0.69100004 3559468
-0.092791438 0.050673336 0.69100004 3691054
-0.091475241 0.050673336 0.69100004 3230780
-0.090159051 0.050673336 0.69100004 3625538
-0.089099996 0.05082 0.69300002 4478537
-0.087779999 0.05082 0.69300002 4083779
-0.086460002 0.05082 0.69300002 3362600
-0.084894292 0.050673336 0.69100004 3231014
-0.083578095 0.050673336 0.69100004 2508329
-0.082499996 0.05082 0.69300002 3297845
-0.080945715 0.050673336 0.69100004 3692094
-0.079514287 0.050600003 0.69000006 3297336
-0.078200005 0.050600003 0.69000006 3363138
-0.076885715 0.050600003 0.69000006 3560517
-0.075571433 0.050600003 0.69000006 3756865
-0.074364766 0.050673336 0.69100004 3559486
-0.073048577 0.050673336 0.69100004 3560476
-0.071732387 0.050673336 0.69100004 3823648
-0.070416197 0.050673336 0.69100004 6847603
-0.069100007 0.050673336 0.69100004 15466486
-0.06778381 0.050673336 0.69100004 16646142
-0.066467628 0.050673336 0.69100004 2961198
-0.065151431 0.050673336 0.69100004 200192
-0.16913047 0.051989529 0.69100004 16580572
-0.1678143 0.051989529 0.69100004 16646102
-0.16625714 0.05191429 0.69000006 16646102
-0.16494288 0.05191429 0.69000006 16251313
-0.16386572 0.051989529 0.69100004 6974500
-0.16254954 0.051989529 0.69100004 6124927
-0.16123335 0.051989529 0.69100004 6585478
-0.15968573 0.05191429 0.69000006 6650762
-0.15837143 0.05191429 0.69000006 6519176
-0.15705717 0.05191429 0.69000006 6847630
-0.15574287 0.05191429 0.69000006 6979216
-0.15442857 0.05191429 0.69000006 7176327
-0.1531143 0.05191429 0.69000006 7373706
-0.15136001 0.05176381 0.68800002 7505799
-0.15004952 0.05176381 0.68800002 7703178
-0.14917144 0.05191429 0.69000006 7506062
-0.14785716 0.05191429 0.69000006 7242890
-0.14654286 0.05191429 0.69000006 7440258
-0.14480762 0.05176381 0.68800002 7637637
-0.14349715 0.05176381 0.68800002 7440006
-0.14218667 0.05176381 0.68800002 7111041
-0.14087619 0.05176381 0.68800002 6782339
-0.13956572 0.05176381 0.68800002 6519167
-0.13825524 0.05176381 0.68800002 7177849
-0.13694477 0.05176381 0.68800002 6585712
-0.13602859 0.05191429 0.69000006 8751195
-0.13471429 0.05191429 0.69000006 13883049
-0.12992002 0.050560005 0.67200005 14999759
-0.12844858 0.050484762 0.671 16777198
-0.12717049 0.050484762 0.671 16646133
-0.12589237 0.050484762 0.671 16646133
-0.12461428 0.050484762 0.671 16646133
-0.12315238 0.050409522 0.67000002 16580340
-0.12187619 0.050409522 0.67000002 16514788
-0.1206 0.050409522 0.67000002 16580581
-0.1195019 0.050484762 0.671 16514797
-0.11822381 0.050484762 0.671 16646127
-0.11677143 0.050409522 0.67000002 16711420
-0.11549524 0.050409522 0.67000002 16711420
-0.11421905 0.050409522 0.67000002 16711420
-0.11294286 0.050409522 0.67000002 16711420
-0.11166666 0.050409522 0.67000002 16645881
-0.11039048 0.050409522 0.67000002 16645881
-0.10911428 0.050409522 0.67000002 16711420
-0.10783809 0.050409522 0.67000002 16711420
-0.10656191 0.050409522 0.67000002 16711422
-0.10528572 0.050409522 0.67000002 16711422
-0.10400952 0.050409522 0.67000002 16711422
-0.10273334 0.050409522 0.67000002 16711422
-0.10145715 0.050409522 0.67000002 16711420
-0.10376953 0.052215237 0.69400001 12434875
-0.10185716 0.05191429 0.69000006 8161983
-0.10054287 0.05191429 0.69000006 8030397
-0.098940954 0.05176381 0.68800002 8032404
-0.097630478 0.05176381 0.68800002 8098197
-0.096320003 0.05176381 0.68800002 8096914
-0.095009528 0.05176381 0.68800002 7767949
-0.093699045 0.05176381 0.68800002 7440503
-0.092657149 0.05191429 0.69000006 7308917
-0.091342866 0.05191429 0.69000006 7373956
-0.090028577 0.05191429 0.69000006 7308163
-0.088842861 0.051989529 0.69100004 7176575
-0.087526672 0.051989529 0.69100004 7176575
-0.086210482 0.051989529 0.69100004 7176323
-0.084771439 0.05191429 0.69000006 7110530
-0.08345715 0.05191429 0.69000006 7242879
-0.082261913 0.051989529 0.69100004 7571844
-0.080945715 0.051989529 0.69100004 7374476
-0.079514287 0.05191429 0.69000006 7177097
-0.078200005 0.05191429 0.69000006 8361610
-0.076885715 0.05191429 0.69000006 8427403
-0.075571433 0.05191429 0.69000006 8295569
-0.07425715 0.05191429 0.69000006 8032397
-0.07294286 0.05191429 0.69000006 9479046
-0.071628578 0.05191429 0.69000006 10071183
-0.070314296 0.05191429 0.69000006 10661805
-0.069000006 0.05191429 0.69000006 15596280
-0.067685723 0.05191429 0.69000006 16317679
-0.066467628 0.051989529 0.69100004 987910
-0.065151431 0.051989529 0.69100004 69377
-0.063835248 0.051989529 0.69100004 2437925
-0.16913047 0.053305719 0.69100004 16580581
-0.1678143 0.053305719 0.69100004 16646118
-0.16625714 0.053228576 0.69000006 16646118
-0.16494288 0.053228576 0.69000006 14146219
-0.16291714 0.052997146 0.68700004 7501126
-0.16160858 0.052997146 0.68700004 5994368
-0.16053334 0.053074285 0.68800002 6389126
-0.15922286 0.053074285 0.68800002 6782866
-0.15768285 0.052997146 0.68700004 6980245
-0.15637429 0.052997146 0.68700004 7045779
-0.15529142 0.053074285 0.68800002 6914193
-0.15398096 0.053074285 0.68800002 6979977
-0.15267047 0.053074285 0.68800002 7506321
-0.15114 0.052997146 0.68700004 7573911
-0.14983144 0.052997146 0.68700004 7376532
-0.14873905 0.053074285 0.68800002 7508377
-0.14742857 0.053074285 0.68800002 7310998
-0.14590572 0.052997146 0.68700004 7442066
-0.14459716 0.052997146 0.68700004 7836824
-0.14328857 0.052997146 0.68700004 7967896
-0.14198001 0.052997146 0.68700004 7836310
-0.14067143 0.052997146 0.68700004 7245200
-0.13936286 0.052997146 0.68700004 7376786
-0.13805428 0.052997146 0.68700004 7114902
-0.13654667 0.052920006 0.68600005 6654351
-0.13524002 0.052920006 0.68600005 9540489
-0.13393334 0.052920006 0.68600005 13751241
-0.12992002 0.051840004 0.67200005 15328974
-0.12844858 0.051762857 0.671 16777192
-0.12698095 0.051685713 0.67000002 16646131
-0.12570477 0.051685713 0.67000002 16580338
-0.12442858 0.051685713 0.67000002 16580336
-0.12315238 0.051685713 0.67000002 16580336
-0.12151238 0.05153143 0.66800004 16580329
-0.12024 0.05153143 0.66800004 16646122
-0.11896762 0.05153143 0.66800004 16580336
-0.11769524 0.05153143 0.66800004 16580336
-0.11642287 0.05153143 0.66800004 16711674
-0.11515048 0.05153143 0.66800004 16645881
-0.1138781 0.05153143 0.66800004 16711674
-0.11260572 0.05153143 0.66800004 16645881
-0.11133334 0.05153143 0.66800004 16646133
-0.11006096 0.05153143 0.66800004 16646133
-0.10878857 0.05153143 0.66800004 16711420
-0.10751619 0.05153143 0.66800004 16711420
-0.10656191 0.051685713 0.67000002 16711420
-0.10528572 0.051685713 0.67000002 16711420
-0.10400952 0.051685713 0.67000002 16711422
-0.10227334 0.051454291 0.66700006 16711422
-0.10100286 0.051454291 0.66700006 16646116
-0.099732392 0.051454291 0.66700006 13027757
-0.10141429 0.052997146 0.68700004 11712964
-0.10010572 0.052997146 0.68700004 10397104
-0.098653339 0.052920006 0.68600005 9808038
-0.097346671 0.052920006 0.68600005 9610659
-0.09604001 0.052920006 0.68600005 8494754
-0.094871432 0.052997146 0.68700004 8297375
-0.093562864 0.052997146 0.68700004 7902855
-0.092254288 0.052997146 0.68700004 8429199
-0.090945721 0.052997146 0.68700004 8625824
-0.089637145 0.052997146 0.68700004 8494238
-0.08832857 0.052997146 0.68700004 8099219
-0.087020002 0.052997146 0.68700004 8165012
-0.085711427 0.052997146 0.68700004 8164240
-0.084279999 0.052920006 0.68600005 8295826
-0.082973339 0.052920006 0.68600005 8362391
-0.081666671 0.052920006 0.68600005 8428184
-0.080360003 0.052920006 0.68600005 8297361
-0.07916858 0.052997146 0.68700004 8823705
-0.077746667 0.052920006 0.68600005 8758187
-0.076440006 0.052920006 0.68600005 9087152
-0.075133339 0.052920006 0.68600005 9153197
-0.073826671 0.052920006 0.68600005 8955818
-0.072520003 0.052920006 0.68600005 9414804
-0.071317144 0.052997146 0.68700004 9875355
-0.070008576 0.052997146 0.68700004 10859956
-0.068700001 0.052997146 0.68700004 15202294
-0.067391433 0.052997146 0.68700004 16711422
-0.066371433 0.053228576 0.69000006 1381653
-0.065151431 0.053305719 0.69100004 3072
-0.063835248 0.053305719 0.69100004 3029547
-0.062519051 0.053305719 0.69100004 4610893
-0.061202858 0.053305719 0.69100004 10598056
-0.060060002 0.053460002 0.69300002 14080946
-0.16611429 0.054068573 0.68400002 16711661
-0.16481143 0.054068573 0.68400002 15396057
-0.16350858 0.054068573 0.68400002 14145935
-0.16220573 0.054068573 0.68400002 7961393
-0.16090286 0.054068573 0.68400002 6127498
-0.1596 0.054068573 0.68400002 6522256
-0.15829715 0.054068573 0.68400002 6653081
-0.1569943 0.054068573 0.68400002 6850460
-0.15546381 0.053989526 0.68300003 6915731
-0.15416285 0.053989526 0.68300003 6915731
-0.15308572 0.054068573 0.68400002 6718354
-0.15178287 0.054068573 0.68400002 7047319
-0.15048 0.054068573 0.68400002 7114384
-0.14917715 0.054068573 0.68400002 6982798
-0.1478743 0.054068573 0.68400002 7048850
-0.147 0.05422667 0.68600005 7048850
-0.14526857 0.054068573 0.68400002 7310489
-0.14396572 0.054068573 0.68400002 8034212
-0.14308001 0.05422667 0.68600005 8559770
-0.14177334 0.05422667 0.68600005 8559770
-0.14046668 0.05422667 0.68600005 8429211
-0.13916001 0.05422667 0.68600005 9087141
-0.13745143 0.054068573 0.68400002 7771558
-0.13594954 0.053989526 0.68300003 7376800
-0.13464858 0.053989526 0.68300003 9475237
-0.13334762 0.053989526 0.68300003 12304336
-0.12992002 0.053120002 0.67200005 15195561
-0.12825714 0.052961905 0.67000002 16777164
-0.1266019 0.052803814 0.66800004 16711665
-0.12532952 0.052803814 0.66800004 16645872
-0.12387145 0.052724764 0.66700006 16580331
-0.12260097 0.052724764 0.66700006 16646124
-0.12133048 0.052724764 0.66700006 16645870
-0.12006001 0.052724764 0.66700006 16645870
-0.11861143 0.052645713 0.66600001 16580336
-0.11734285 0.052645713 0.66600001 16580336
-0.11572572 0.052487623 0.66400003 16646133
-0.11446096 0.052487623 0.66400003 16646133
-0.11319619 0.052487623 0.66400003 16645879
-0.11193144 0.052487623 0.66400003 16645879
-0.11066667 0.052487623 0.66400003 16580340
-0.10940191 0.052487623 0.66400003 16646133
-0.10846286 0.052645713 0.66600001 16711674
-0.10719428 0.052645713 0.66600001 16711674
-0.10608477 0.052724764 0.66700006 16711420
-0.10481429 0.052724764 0.66700006 16711420
-0.10354382 0.052724764 0.66700006 16711422
-0.10212 0.052645713 0.66600001 15921906
-0.10085143 0.052645713 0.66600001 16052619
-0.099582858 0.052645713 0.66600001 14407794
-0.10126667 0.05422667 0.68600005 15855843
-0.099960007 0.05422667 0.68600005 15987429
-0.098653339 0.05422667 0.68600005 14015685
-0.097346671 0.05422667 0.68600005 11910309
-0.09604001 0.05422667 0.68600005 10467256
-0.094733343 0.05422667 0.68600005 10401463
-0.093426675 0.05422667 0.68600005 10138282
-0.092120007 0.05422667 0.68600005 9940903
-0.090813339 0.05422667 0.68600005 9875371
-0.089506678 0.05422667 0.68600005 9743785
-0.087942861 0.054068573 0.68400002 9743533
-0.08664 0.054068573 0.68400002 10598842
-0.085337147 0.054068573 0.68400002 10269105
-0.084034286 0.054068573 0.68400002 10137519
-0.082731433 0.054068573 0.68400002 9875632
-0.081428573 0.054068573 0.68400002 9546667
-0.080125719 0.054068573 0.68400002 9612694
-0.078822859 0.054068573 0.68400002 9875866
-0.077520005 0.054068573 0.68400002 9809848
-0.076105714 0.053989526 0.68300003 9744055
-0.074804768 0.053989526 0.68300003 10664628
-0.073503807 0.053989526 0.68300003 10927800
-0.072202861 0.053989526 0.68300003 11518129
-0.071213335 0.05422667 0.68600005 11847094
-0.069906674 0.05422667 0.68600005 12501965
-0.068700001 0.054305717 0.68700004 15725822
-0.067391433 0.054305717 0.68700004 16515049
-0.066371433 0.054542862 0.69000006 1251073
-0.065151431 0.054621909 0.69100004 137219
-0.063835248 0.054621909 0.69100004 6058589
-0.062519051 0.054621909 0.69100004 5993870
-0.061202858 0.054621909 0.69100004 10336208
-0.060060002 0.054779999 0.69300002 14014902
-0.16611429 0.055371426 0.68400002 16646120
-0.16481143 0.055371426 0.68400002 13817021
-0.16326953 0.055290479 0.68300003 12435862
-0.16196857 0.055290479 0.68300003 7698766
-0.16066763 0.055290479 0.68300003 6522504
-0.15936667 0.055290479 0.68300003 6588297
-0.15806572 0.055290479 0.68300003 6456209
-0.15653525 0.055209529 0.68200004 6653588
-0.1552362 0.055209529 0.68200004 6653842
-0.15393715 0.055209529 0.68200004 6522256
-0.15286191 0.055290479 0.68300003 6522256
-0.15156096 0.055290479 0.68300003 6785428
-0.15026 0.055290479 0.68300003 6588817
-0.14895906 0.055290479 0.68300003 6654610
-0.14765809 0.055290479 0.68300003 7378333
-0.14657144 0.055371426 0.68400002 6786196
-0.14526857 0.055371426 0.68400002 7048341
-0.14396572 0.055371426 0.68400002 8166822
-0.14266287 0.055371426 0.68400002 8560806
-0.14136 0.055371426 0.68400002 8297634
-0.14005713 0.055371426 0.68400002 8232352
-0.13875428 0.055371426 0.68400002 8363938
-0.13725048 0.055290479 0.68300003 7377822
-0.13575049 0.055209529 0.68200004 7377822
-0.13386001 0.054966666 0.67900002 9541532
-0.13256668 0.054966666 0.67900002 11449529
-0.12972666 0.054319046 0.671 14405014
-0.12787428 0.054076191 0.66800004 16777160
-0.12641239 0.05399524 0.66700006 16646122
-0.12514192 0.05399524 0.66700006 16711659
-0.12387145 0.05399524 0.66700006 16646122
-0.12241714 0.053914286 0.66600001 16646122
-0.12114857 0.053914286 0.66600001 16580590
-0.11988 0.053914286 0.66600001 16580590
-0.11861143 0.053914286 0.66600001 16580336
-0.11699048 0.053752381 0.66400003 16580336
-0.11572572 0.053752381 0.66400003 16646131
-0.11428858 0.053671431 0.66300005 16580338
-0.11302572 0.053671431 0.66300005 16580340
-0.11176286 0.053671431 0.66300005 16646133
-0.11050001 0.053671431 0.66300005 16580336
-0.10923715 0.053671431 0.66300005 16580336
-0.10813715 0.053752381 0.66400003 16646133
-0.10719428 0.053914286 0.66600001 16711670
-0.10592572 0.053914286 0.66600001 16711674
-0.10465714 0.053914286 0.66600001 16711674
-0.10338857 0.053914286 0.66600001 16711674
-0.10212 0.053914286 0.66600001 13948368
-0.10085143 0.053914286 0.66600001 13286473
-0.099582858 0.053914286 0.66600001 14602333
-0.10126667 0.055533338 0.68600005 16711422
-0.09966857 0.055371426 0.68400002 16250871
-0.098365717 0.055371426 0.68400002 14343392
-0.097062856 0.055371426 0.68400002 11909051
-0.095760003 0.055371426 0.68400002 10205106
-0.094457142 0.055371426 0.68400002 10205106
-0.0930181 0.055290479 0.68300003 10204845
-0.091717146 0.055290479 0.68300003 9612708
-0.090416193 0.055290479 0.68300003 9546926
-0.089115247 0.055290479 0.68300003 9481133
-0.087685719 0.055209529 0.68200004 9087402
-0.086386673 0.055209529 0.68200004 9613746
-0.085212387 0.055290479 0.68300003 9941423
-0.083911426 0.055290479 0.68300003 9941423
-0.08261048 0.055290479 0.68300003 10007218
-0.08130952 0.055290479 0.68300003 9809839
-0.080008574 0.055290479 0.68300003 9810341
-0.078707621 0.055290479 0.68300003 9876134
-0.077406667 0.055290479 0.68300003 9809837
-0.07599429 0.055209529 0.68200004 10007216
-0.074695244 0.055209529 0.68200004 10598835
-0.073396191 0.055209529 0.68200004 11190972
-0.072097145 0.055209529 0.68200004 11715760
-0.070798099 0.055209529 0.68200004 11847346
-0.069906674 0.055533338 0.68600005 13554641
-0.068600006 0.055533338 0.68600005 16515070
-0.067391433 0.055614289 0.68700004 16711665
-0.066371433 0.055857148 0.69000006 1710861
-0.065151431 0.055938099 0.69100004 72704
-0.063835248 0.055938099 0.69100004 6323035
-0.16611429 0.056674287 0.68400002 16646113
-0.16481143 0.056674287 0.68400002 13159084
-0.16326953 0.056591429 0.68300003 10659983
-0.16196857 0.056591429 0.68300003 6843989
-0.16066763 0.056591429 0.68300003 6128007
-0.15936667 0.056591429 0.68300003 6720144
-0.15783429 0.056508575 0.68200004 6784906
-0.15653525 0.056508575 0.68200004 6784906
-0.1552362 0.056508575 0.68200004 6588049
-0.15393715 0.056508575 0.68200004 6324877
-0.15263809 0.056508575 0.68200004 6390931
-0.15133905 0.056508575 0.68200004 6983068
-0.15004 0.056508575 0.68200004 6851730
-0.14874096 0.056508575 0.68200004 6654351
-0.14744191 0.056508575 0.68200004 6851991
-0.14635715 0.056591429 0.68300003 6786198
-0.14505619 0.056591429 0.68300003 7114134
-0.14375524 0.056591429 0.68300003 8232615
-0.1424543 0.056591429 0.68300003 8560033
-0.14115334 0.056591429 0.68300003 8428447
-0.13985237 0.056591429 0.68300003 8363681
-0.13855143 0.056591429 0.68300003 8363681
-0.13725048 0.056591429 0.68300003 8297888
-0.13515334 0.056260001 0.67900002 8166302
-0.13386001 0.056260001 0.67900002 9215133
-0.13159047 0.055845715 0.67400002 9807270
-0.12972666 0.055597141 0.671 13484407
-0.12768286 0.055265717 0.66700006 15984541
-0.12622285 0.055182859 0.66600001 16580024
-0.12457906 0.055017143 0.66400003 16777150
-0.12331429 0.055017143 0.66400003 16711661
-0.12204953 0.055017143 0.66400003 16711661
-0.12078477 0.055017143 0.66400003 16646127
-0.11952001 0.055017143 0.66400003 16580590
-0.11825524 0.055017143 0.66400003 16646131
-0.11681429 0.054934289 0.66300005 16646131
-0.11555143 0.054934289 0.66300005 16580336
-0.1141162 0.054851435 0.66200006 16580336
-0.11285525 0.054851435 0.66200006 16646131
-0.1115943 0.054851435 0.66200006 16646131
-0.11050001 0.054934289 0.66300005 16646129
-0.10923715 0.054934289 0.66300005 16646129
-0.10813715 0.055017143 0.66400003 16646131
-0.10687238 0.055017143 0.66400003 16646131
-0.10560763 0.055017143 0.66400003 16646122
-0.10465714 0.055182859 0.66600001 15330262
-0.10338857 0.055182859 0.66600001 14407326
-0.10212 0.055182859 0.66600001 11183469
-0.10085143 0.055182859 0.66600001 11576649
-0.099582858 0.055182859 0.66600001 13089888
-0.10082381 0.056591429 0.68300003 16183513
-0.099377148 0.056508575 0.68200004 16578271
-0.098078102 0.056508575 0.68200004 15330021
-0.096779048 0.056508575 0.68200004 12040371
-0.095480002 0.056508575 0.68200004 10270127
-0.094180956 0.056508575 0.68200004 10204334
-0.092881911 0.056508575 0.68200004 9810598
-0.091582857 0.056508575 0.68200004 9284254
-0.090283811 0.056508575 0.68200004 9021357
-0.088984765 0.056508575 0.68200004 8955564
-0.08742857 0.056342855 0.68000001 9087141
-0.086133331 0.056342855 0.68000001 9613485
-0.0848381 0.056342855 0.68000001 9744807
-0.083542861 0.056342855 0.68000001 9481635
-0.082489528 0.056508575 0.68200004 9678764
-0.081190482 0.056508575 0.68200004 9678764
-0.079891428 0.056508575 0.68200004 9744555
-0.078361906 0.056342855 0.68000001 9876141
-0.077066667 0.056342855 0.68000001 10336426
-0.075771429 0.056342855 0.68000001 10468012
-0.074476197 0.056342855 0.68000001 10598833
-0.073180959 0.056342855 0.68000001 11125177
-0.07188572 0.056342855 0.68000001 11584170
-0.070590481 0.056342855 0.68000001 12110514
-0.069499053 0.056508575 0.68200004 14211036
-0.068600006 0.056840003 0.68600005 16711167
-0.16457048 0.057892382 0.68300003 10396030
-0.16303048 0.057807621 0.68200004 10196588
-0.16173144 0.057807621 0.68200004 7959626
-0.16043238 0.057807621 0.68200004 6325120
-0.15913334 0.057807621 0.68200004 6588292
-0.15737143 0.057638094 0.68000001 6784906
-0.15607619 0.057638094 0.68000001 6719113
-0.15478095 0.057638094 0.68000001 6522254
-0.15348572 0.057638094 0.68000001 6324875
-0.15219048 0.057638094 0.68000001 6259341
-0.15089524 0.057638094 0.68000001 6719892
-0.1496 0.057638094 0.68000001 6786189
-0.14830476 0.057638094 0.68000001 6786189
-0.14700952 0.057638094 0.68000001 6785939
-0.14614287 0.057807621 0.68200004 6851732
-0.14484382 0.057807621 0.68200004 7771031
-0.14375524 0.057892382 0.68300003 8099996
-0.14224571 0.057807621 0.68200004 8034203
-0.14094667 0.057807621 0.68200004 8297375
-0.13964762 0.057807621 0.68200004 8494504
-0.13834858 0.057807621 0.68200004 8428711
-0.13644667 0.057553336 0.67900002 8166561
-0.13495429 0.057468574 0.67800003 7969182
-0.13366286 0.057468574 0.67800003 9216669
-0.13159047 0.057129528 0.67400002 9414048
-0.12972666 0.05687524 0.671 12168304
-0.12768286 0.056536198 0.66700006 15128989
-0.12622285 0.056451429 0.66600001 15983787
-0.12457906 0.056281909 0.66400003 16776387
-0.12331429 0.056281909 0.66400003 16646116
-0.12204953 0.056281909 0.66400003 16646116
-0.12078477 0.056281909 0.66400003 16646122
-0.11952001 0.056281909 0.66400003 16646122
-0.11825524 0.056281909 0.66400003 16580577
-0.11681429 0.056197144 0.66300005 16646114
-0.11537715 0.056112386 0.66200006 16646124
-0.1141162 0.056112386 0.66200006 16646124
-0.11285525 0.056112386 0.66200006 16646127
-0.1115943 0.056112386 0.66200006 16646127
-0.11033335 0.056112386 0.66200006 16711663
-0.10923715 0.056197144 0.66300005 16711663
-0.10797429 0.056197144 0.66300005 16646133
-0.10687238 0.056281909 0.66400003 16580340
-0.10560763 0.056281909 0.66400003 16316137
-0.10465714 0.056451429 0.66600001 14671312
-0.10338857 0.056451429 0.66600001 12500608
-0.10212 0.056451429 0.66600001 10461025
-0.10085143 0.056451429 0.66600001 11181891
-0.10018095 0.056790475 0.67000002 12102993
-0.099790484 0.057299051 0.67600006 14996931
-0.098502867 0.057299051 0.67600006 16575963
-0.097646669 0.057553336 0.67900002 15461357
-0.096353337 0.057553336 0.67900002 12105914
-0.095060006 0.057553336 0.67900002 10861998
-0.093904756 0.057638094 0.68000001 10335654
-0.092609517 0.057638094 0.68000001 9416871
-0.091314279 0.057638094 0.68000001 8890527
-0.090019047 0.057638094 0.68000001 8889519
-0.088723809 0.057638094 0.68000001 8889519
-0.08742857 0.057638094 0.68000001 9021602
-0.086133331 0.057638094 0.68000001 9416360
-0.0848381 0.057638094 0.68000001 9153699
-0.083542861 0.057638094 0.68000001 9219492
-0.082247622 0.057638094 0.68000001 9547428
-0.080952384 0.057638094 0.68000001 9547428
-0.079540007 0.057553336 0.67900002 9547942
-0.078246668 0.057553336 0.67900002 10140079
-0.076953337 0.057553336 0.67900002 10797227
-0.075659998 0.057553336 0.67900002 10797227
-0.074366666 0.057553336 0.67900002 10664365
-0.073073335 0.057553336 0.67900002 10861744
-0.071780004 0.057553336 0.67900002 11650217
-0.070486665 0.057553336 0.67900002 12176561
-0.069295242 0.057638094 0.68000001 15198183
-0.16514286 0.058933333 0.68000001 16646097
-0.16384763 0.058933333 0.68000001 9738088
-0.16255239 0.058933333 0.68000001 7110523
-0.16125715 0.058933333 0.68000001 7044730
-0.15996191 0.058933333 0.68000001 6194054
-0.15843335 0.058846667 0.67900002 6259847
-0.15714 0.058846667 0.67900002 6522765
-0.15584667 0.058846667 0.67900002 6588558
-0.15455334 0.058846667 0.67900002 6391179
-0.15326001 0.058846667 0.67900002 5996421
-0.15196666 0.058846667 0.67900002 6259852
-0.15089524 0.058933333 0.68000001 6588817
-0.14938 0.058846667 0.67900002 6589062
-0.14808667 0.058846667 0.67900002 6654855
-0.14700952 0.058933333 0.68000001 6654353
-0.14571428 0.058933333 0.68000001 6654353
-0.14441904 0.058933333 0.68000001 7574415
-0.14312381 0.058933333 0.68000001 7771794
-0.14182857 0.058933333 0.68000001 7968408
-0.14053333 0.058933333 0.68000001 8297373
-0.13923809 0.058933333 0.68000001 8494506
-0.13774 0.058846667 0.67900002 7968162
-0.13624573 0.058760002 0.67800003 7837344
-0.13495429 0.058760002 0.67800003 7903137
-0.13326858 0.058586672 0.67600006 9085076
-0.13178571 0.058499999 0.67500001 9150869
-0.12992002 0.058240004 0.67200005 11380335
-0.12768286 0.057806671 0.66700006 11643507
-0.12584381 0.057546668 0.66400003 13679476
-0.12439144 0.057460003 0.66300005 14929543
-0.12312857 0.057460003 0.66300005 15655808
-0.12186572 0.057460003 0.66300005 16774546
-0.12060287 0.057460003 0.66300005 16580556
-0.11934 0.057460003 0.66300005 16646093
-0.11807715 0.057460003 0.66300005 16646095
-0.1166381 0.057373337 0.66200006 16711632
-0.11537715 0.057373337 0.66200006 16646122
-0.11394381 0.057286669 0.66100001 16646122
-0.11268476 0.057286669 0.66100001 16711652
-0.11142571 0.057286669 0.66100001 16382943
-0.11033335 0.057373337 0.66200006 16250055
-0.10907239 0.057373337 0.66200006 15328953
-0.10797429 0.057460003 0.66300005 13156022
-0.10687238 0.057546668 0.66400003 12958643
-0.10560763 0.057546668 0.66400003 12564109
-0.10465714 0.057719998 0.66600001 11511421
-0.10338857 0.057719998 0.66600001 11183458
-0.10212 0.057719998 0.66600001 10788700
-0.10085143 0.057719998 0.66600001 10853739
-0.10018095 0.058066666 0.67000002 11511669
-0.099642858 0.058499999 0.67500001 12630913
-0.098357141 0.058499999 0.67500001 12959878
-0.097502865 0.058760002 0.67800003 11712701
-0.096211433 0.058760002 0.67800003 10791599
-0.094920009 0.058760002 0.67800003 9941916
-0.093628578 0.058760002 0.67800003 9810330
-0.092473336 0.058846667 0.67900002 9613473
-0.091180004 0.058846667 0.67900002 8955543
-0.089886673 0.058846667 0.67900002 8955827
-0.088593334 0.058846667 0.67900002 8758448
-0.087300003 0.058846667 0.67900002 9086623
-0.086006664 0.058846667 0.67900002 9612967
-0.08471334 0.058846667 0.67900002 9415840
-0.083420001 0.058846667 0.67900002 9152668
-0.08212667 0.058846667 0.67900002 9022104
-0.080833331 0.058846667 0.67900002 9153690
-0.079540007 0.058846667 0.67900002 9547680
-0.078246668 0.058846667 0.67900002 10402989
-0.076953337 0.058846667 0.67900002 10928023
-0.075548574 0.058760002 0.67800003 11059609
-0.074257143 0.058760002 0.67800003 10927530
-0.073073335 0.058846667 0.67900002 10730151
-0.071674287 0.058760002 0.67800003 10599083
-0.070382856 0.058760002 0.67800003 11849150
-0.069295242 0.058933333 0.68000001 15591646
-0.16465716 0.060051434 0.67800003 16449237
-0.16336572 0.060051434 0.67800003 8554077
-0.16231333 0.060140003 0.67900002 6520941
-0.16102 0.060140003 0.67900002 6981492
-0.15972666 0.060140003 0.67900002 6654603
-0.15843335 0.060140003 0.67900002 6720396
-0.15714 0.060140003 0.67900002 6917786
-0.15584667 0.060140003 0.67900002 6523028
-0.15455334 0.060140003 0.67900002 6194829
-0.15326001 0.060140003 0.67900002 6129036
-0.15196666 0.060140003 0.67900002 6392206
-0.15067333 0.060140003 0.67900002 6326413
-0.14938 0.060140003 0.67900002 6523521
-0.14808667 0.060140003 0.67900002 6589314
-0.14679334 0.060140003 0.67900002 6588558
-0.1455 0.060140003 0.67900002 7049109
-0.14420667 0.060140003 0.67900002 7508879
-0.14291334 0.060140003 0.67900002 7772051
-0.14141144 0.060051434 0.67800003 7771794
-0.14012 0.060051434 0.67800003 8627103
-0.13882858 0.060051434 0.67800003 8627110
-0.13713144 0.059874289 0.67600006 8034973
-0.13584383 0.059874289 0.67600006 7903387
-0.1345562 0.059874289 0.67600006 7903387
-0.13326858 0.059874289 0.67600006 8362391
-0.13178571 0.059785716 0.67500001 8428184
-0.12972666 0.059431426 0.671 10526309
-0.12710857 0.05881143 0.66400003 11118446
-0.1256543 0.058722861 0.66300005 12101464
-0.12439144 0.058722861 0.66300005 12956773
-0.12294286 0.058634292 0.66200006 14403179
-0.12168191 0.058634292 0.66200006 16179590
-0.12042096 0.058634292 0.66200006 16181688
-0.11916001 0.058634292 0.66200006 16510653
-0.11789906 0.058634292 0.66200006 16511435
-0.11646191 0.058545712 0.66100001 16643021
-0.11520286 0.058545712 0.66100001 16578017
-0.11394381 0.058545712 0.66100001 16446431
-0.11268476 0.058545712 0.66100001 16445913
-0.11142571 0.058545712 0.66100001 16116948
-0.11016667 0.058545712 0.66100001 15656126
-0.10890763 0.058545712 0.66100001 14735024
-0.10781144 0.058634292 0.66200006 13089924
-0.10671143 0.058722861 0.66300005 12234615
-0.10560763 0.05881143 0.66400003 12430724
-0.10434286 0.05881143 0.66400003 11443829
-0.1030781 0.05881143 0.66400003 11116659
-0.10212 0.058988571 0.66600001 10787694
-0.10085143 0.058988571 0.66600001 10722666
-0.10033047 0.059431426 0.671 11446389
-0.099642858 0.059785716 0.67500001 11317902
-0.098357141 0.059785716 0.67500001 11252109
-0.097071432 0.059785716 0.67500001 10269366
-0.095785715 0.059785716 0.67500001 9545643
-0.094499998 0.059785716 0.67500001 8430487
-0.093214288 0.059785716 0.67500001 8562073
-0.092064768 0.059874289 0.67600006 8693157
-0.090642862 0.059785716 0.67500001 8693157
-0.089357145 0.059785716 0.67500001 8889773
-0.088071428 0.059785716 0.67500001 8560808
-0.086914293 0.059874289 0.67600006 8823196
-0.085626669 0.059874289 0.67600006 9349540
-0.084339052 0.059874289 0.67600006 9218463
-0.083051436 0.059874289 0.67600006 9152670
-0.081763811 0.059874289 0.67600006 8628107
-0.080714293 0.060051434 0.67800003 8957072
-0.079422861 0.060051434 0.67800003 9612701
-0.077900954 0.059874289 0.67600006 10204838
-0.076613337 0.059874289 0.67600006 10335382
-0.07532572 0.059874289 0.67600006 11059105
-0.074038103 0.059874289 0.67600006 10863540
-0.072750486 0.059874289 0.67600006 10205610
-0.071462862 0.059874289 0.67600006 10337185
-0.070175245 0.059874289 0.67600006 11324080
-0.068887629 0.059874289 0.67600006 15592169
-0.16392857 0.061071429 0.67500001 16514985
-0.16264287 0.061071429 0.67500001 7501344
-0.16159619 0.061161913 0.67600006 6259066
-0.16030858 0.061161913 0.67600006 6785410
-0.15902096 0.061161913 0.67600006 6654090
-0.15773334 0.061161913 0.67600006 6719883
-0.15690859 0.061342862 0.67800003 6719894
-0.15561715 0.061342862 0.67800003 6325136
-0.15432572 0.061342862 0.67800003 6259852
-0.15303428 0.061342862 0.67800003 6259852
-0.15174286 0.061342862 0.67800003 6062727
-0.15045144 0.061342862 0.67800003 5996934
-0.14916001 0.061342862 0.67800003 6128761
-0.14786857 0.061342862 0.67800003 6589312
-0.14657715 0.061342862 0.67800003 6719883
-0.14528571 0.061342862 0.67800003 7377813
-0.14399429 0.061342862 0.67800003 7508620
-0.14228192 0.061161913 0.67600006 7837585
-0.1409943 0.061161913 0.67600006 8363152
-0.13970669 0.061161913 0.67600006 8889496
-0.13841906 0.061161913 0.67600006 8823437
-0.13713144 0.061161913 0.67600006 8297093
-0.13584383 0.061161913 0.67600006 7968923
-0.13435714 0.061071429 0.67500001 8034716
-0.13307144 0.061071429 0.67500001 8624543
-0.13159047 0.06098095 0.67400002 7506062
-0.12876 0.060257144 0.66600001 9736032
-0.12691715 0.05998572 0.66300005 10854513
-0.1256543 0.05998572 0.66300005 11377507
-0.12439144 0.05998572 0.66300005 11640679
-0.12294286 0.059895243 0.66200006 12232287
-0.12168191 0.059895243 0.66200006 12890217
-0.12042096 0.059895243 0.66200006 12890462
-0.11916001 0.059895243 0.66200006 13153634
-0.11789906 0.059895243 0.66200006 13022350
-0.11646191 0.059804764 0.66100001 13022350
-0.11520286 0.059804764 0.66100001 12825221
-0.11394381 0.059804764 0.66100001 12430463
-0.11268476 0.059804764 0.66100001 12693887
-0.11142571 0.059804764 0.66100001 12891266
-0.11016667 0.059804764 0.66100001 12497269
-0.10890763 0.059804764 0.66100001 12168304
-0.10781144 0.059895243 0.66200006 11971438
-0.10671143 0.05998572 0.66300005 11576680
-0.10560763 0.060076192 0.66400003 11641465
-0.10434286 0.060076192 0.66400003 11180914
-0.1030781 0.060076192 0.66400003 10656381
-0.10212 0.060257144 0.66600001 10524795
-0.10085143 0.060257144 0.66600001 10525553
-0.10033047 0.060709521 0.671 10722932
-0.09949524 0.06098095 0.67400002 10134148
-0.09821143 0.06098095 0.67400002 10002562
-0.09692762 0.06098095 0.67400002 8757660
-0.095643811 0.06098095 0.67400002 8560281
-0.094360001 0.06098095 0.67400002 7903387
-0.093076192 0.06098095 0.67400002 7837594
-0.091928571 0.061071429 0.67500001 7837603
-0.090642862 0.061071429 0.67500001 8429740
-0.089224763 0.06098095 0.67400002 8495769
-0.087940954 0.06098095 0.67400002 8166804
-0.086785711 0.061071429 0.67500001 8625824
-0.085500002 0.061071429 0.67500001 9152168
-0.084214285 0.061071429 0.67500001 9283997
-0.082928576 0.061071429 0.67500001 9349790
-0.081642851 0.061071429 0.67500001 8956295
-0.080357142 0.061071429 0.67500001 9087881
-0.079071432 0.061071429 0.67500001 9678487
-0.077785715 0.061071429 0.67500001 10204831
-0.076500006 0.061071429 0.67500001 10401177
-0.075214282 0.061071429 0.67500001 10664349
-0.073928572 0.061071429 0.67500001 10073254
-0.072642855 0.061071429 0.67500001 9546910
-0.071357146 0.061071429 0.67500001 9218977
-0.070071429 0.061071429 0.67500001 10666423
-0.068683811 0.06098095 0.67400002 15395294
-0.067400001 0.06098095 0.67400002 16711154
-0.1665 0.062357143 0.67500001 16646122
-0.16496952 0.062264767 0.67400002 16646122
-0.16368572 0.062264767 0.67400002 13949603
-0.1624019 0.062264767 0.67400002 7238717
-0.16135715 0.062357143 0.67500001 5864565
-0.15983428 0.062264767 0.67400002 6390909
-0.15855049 0.062264767 0.67400002 6390409
