# .PCD v0.7 - Point Cloud Data file format
VERSION 0.7
FIELDS x y z rgba
SIZE 4 4 4 4
TYPE F F F U
COUNT 1 1 1 1
WIDTH 1129
HEIGHT 1
VIEWPOINT 0 0 0 1 0 0 0
POINTS 1129
DATA ascii
-0.07368286 0.17059906 0.69700003 11981567
-0.072355241 0.17059906 0.69700003 8757715
-0.071129531 0.17084381 0.69800001 5079784
-0.070000008 0.17133334 0.70000005 5869300
-0.069059052 0.17231239 0.70400006 10069489
-0.067910478 0.1728019 0.70600003 10069489
-0.066660002 0.17304666 0.70700002 9344962
-0.065405719 0.17329141 0.708 7963309
-0.064057142 0.17329141 0.708 8026998
-0.062885717 0.17378096 0.71000004 9277065
-0.122 0.17266668 0.70000005 8750496
-0.12066668 0.17266668 0.70000005 7237257
-0.11899238 0.17217334 0.69800001 7302510
-0.11749429 0.17192668 0.69700003 7631475
-0.11600001 0.17168 0.69600004 8155765
-0.11434477 0.17118667 0.69400001 8616316
-0.11286 0.17094 0.69300002 8092017
-0.11154 0.17094 0.69300002 8684154
-0.10990191 0.17044668 0.69100004 9014170
-0.10842858 0.17020002 0.69000006 11645890
-0.10711429 0.17020002 0.69000006 10726908
-0.10580001 0.17020002 0.69000006 8687325
-0.10448572 0.17020002 0.69000006 6326995
-0.10287239 0.16970667 0.68800002 6984925
-0.10156191 0.16970667 0.68800002 9285119
-0.10025143 0.16970667 0.68800002 11522047
-0.09879715 0.16946001 0.68700004 12441599
-0.097488575 0.16946001 0.68700004 11783673
-0.09604001 0.16921334 0.68600005 9285119
-0.094733343 0.16921334 0.68600005 1455762
-0.093426675 0.16921334 0.68600005 265399
-0.092120007 0.16921334 0.68600005 5068287
-0.090945721 0.16946001 0.68700004 8753407
-0.08976762 0.16970667 0.68800002 8227070
-0.088457145 0.16970667 0.68800002 3367859
-0.08714667 0.16970667 0.68800002 5670614
-0.085836194 0.16970667 0.68800002 10333695
-0.084525719 0.16970667 0.68800002 11123199
-0.08345715 0.17020002 0.69000006 8430054
-0.082142867 0.17020002 0.69000006 1390203
-0.080945715 0.17044668 0.69100004 2584049
-0.079629533 0.17044668 0.69100004 9821183
-0.078540005 0.17094 0.69300002 11518975
-0.077331424 0.17118667 0.69400001 1650032
-0.076228574 0.17168 0.69600004 603829
-0.075010478 0.17192668 0.69700003 9091071
-0.07368286 0.17192668 0.69700003 12178431
-0.07245905 0.17217334 0.69800001 12046847
-0.071333334 0.17266668 0.70000005 11585791
-0.070100002 0.17291334 0.70100003 11191039
-0.069059052 0.17365335 0.70400006 11780337
-0.067910478 0.17414667 0.70600003 10793442
-0.066754289 0.17464 0.708 10198738
-0.065405719 0.17464 0.708 8422327
-0.064238101 0.17513335 0.71000004 7698828
-0.062974289 0.17538001 0.71100003 8948895
-0.061620004 0.17538001 0.71100003 9803959
-0.12066668 0.17400001 0.70000005 7236237
-0.11933334 0.17400001 0.70000005 7434096
-0.11766286 0.17350286 0.69800001 7763061
-0.11616667 0.1732543 0.69700003 8024695
-0.11467429 0.17300572 0.69600004 8419453
-0.11302286 0.17250857 0.69400001 8157814
-0.11154 0.17226 0.69300002 9013123
-0.10990191 0.17176287 0.69100004 9802155
-0.10858572 0.17176287 0.69100004 11578566
-0.10711429 0.17151429 0.69000006 10201323
-0.10580001 0.17151429 0.69000006 4608918
-0.10448572 0.17151429 0.69000006 673972
-0.10317144 0.17151429 0.69000006 6726911
-0.10156191 0.17101716 0.68800002 8696063
-0.10025143 0.17101716 0.68800002 10867199
-0.09879715 0.17076857 0.68700004 12440575
-0.097488575 0.17076857 0.68700004 12769535
-0.096180007 0.17076857 0.68700004 11258111
-0.094871432 0.17076857 0.68700004 3099785
-0.093562864 0.17076857 0.68700004 263885
-0.092254288 0.17076857 0.68700004 3553535
-0.090945721 0.17076857 0.68700004 8028410
-0.08976762 0.17101716 0.68800002 6844136
-0.088457145 0.17101716 0.68800002 539537
-0.08714667 0.17101716 0.68800002 6395114
-0.085836194 0.17101716 0.68800002 10532351
-0.084525719 0.17101716 0.68800002 10334975
-0.08345715 0.17151429 0.69000006 6655216
-0.082261913 0.17176287 0.69100004 9352
-0.080945715 0.17176287 0.69100004 5465572
-0.079860002 0.17226 0.69300002 10465791
-0.078653328 0.17250857 0.69400001 9483519
-0.077554293 0.17300572 0.69600004 3891123
-0.076228574 0.17300572 0.69600004 1007834
-0.075010478 0.1732543 0.69700003 7652863
-0.073788576 0.17350286 0.69800001 11652607
-0.07245905 0.17350286 0.69800001 11849983
-0.071333334 0.17400001 0.70000005 12242943
-0.070100002 0.17424858 0.70100003 11453432
-0.068960957 0.17474571 0.70300001 11911166
-0.067910478 0.17549144 0.70600003 10332134
-0.066660002 0.17574 0.70700002 9935566
-0.065590478 0.17648572 0.71000004 8422327
-0.064238101 0.17648572 0.71000004 7765375
-0.062974289 0.17673428 0.71100003 8949649
-0.061620004 0.17673428 0.71100003 9869757
-0.12083905 0.17558381 0.70100003 6841996
-0.11933334 0.17533334 0.70000005 7105140
-0.11766286 0.17483239 0.69800001 7828863
-0.11616667 0.1745819 0.69700003 7959420
-0.11467429 0.17433143 0.69600004 8156799
-0.11302286 0.17383048 0.69400001 8223355
-0.11154 0.17358001 0.69300002 9605008
-0.10990191 0.17307906 0.69100004 9607095
-0.10858572 0.17307906 0.69100004 9409716
-0.10711429 0.17282858 0.69000006 5205464
-0.10580001 0.17282858 0.69000006 336782
-0.10448572 0.17282858 0.69000006 1204688
-0.10317144 0.17282858 0.69000006 8244479
-0.10185716 0.17282858 0.69000006 11652607
-0.10025143 0.17232762 0.68800002 11784191
-0.098940954 0.17232762 0.68800002 12177151
-0.097488575 0.17207715 0.68700004 12769279
-0.096180007 0.17207715 0.68700004 13360127
-0.094871432 0.17207715 0.68700004 8425657
-0.093562864 0.17207715 0.68700004 534271
-0.092254288 0.17207715 0.68700004 797439
-0.090945721 0.17207715 0.68700004 3562990
-0.08976762 0.17232762 0.68800002 2773474
-0.088457145 0.17232762 0.68800002 603059
-0.087400004 0.17282858 0.69000006 6721791
-0.086085722 0.17282858 0.69000006 10400511
-0.084771439 0.17282858 0.69000006 9611003
-0.083578095 0.17307906 0.69100004 5078255
-0.082261913 0.17307906 0.69100004 7311
-0.081180006 0.17358001 0.69300002 872679
-0.079860002 0.17358001 0.69300002 5872895
-0.078653328 0.17383048 0.69400001 10731007
-0.077554293 0.17433143 0.69600004 11652095
-0.076338097 0.1745819 0.69700003 11915519
-0.075010478 0.1745819 0.69700003 12047103
-0.073788576 0.17483239 0.69800001 12046335
-0.07245905 0.17483239 0.69800001 12046335
-0.071333334 0.17533334 0.70000005 12373503
-0.070100002 0.17558381 0.70100003 11781372
-0.068960957 0.17608477 0.70300001 11385068
-0.067910478 0.17683619 0.70600003 7832246
-0.066660002 0.17708668 0.70700002 8554683
-0.065590478 0.1778381 0.71000004 8752062
-0.064238101 0.1778381 0.71000004 8028824
-0.062974289 0.17808858 0.71100003 9147305
-0.061620004 0.17808858 0.71100003 9738430
-0.060265716 0.17808858 0.71100003 10133188
-0.12252286 0.1774238 0.70300001 8881579
-0.12118381 0.1774238 0.70300001 6776203
-0.11933334 0.17666668 0.70000005 7039601
-0.11800001 0.17666668 0.70000005 7960703
-0.11633334 0.1761619 0.69800001 8025983
-0.11483905 0.17590952 0.69700003 8091776
-0.11334857 0.17565715 0.69600004 8289407
-0.11154 0.1749 0.69300002 9802646
-0.10990191 0.17439525 0.69100004 9608650
-0.10858572 0.17439525 0.69100004 8358583
-0.10726953 0.17439525 0.69100004 3300795
-0.10580001 0.17414288 0.69000006 7290
-0.10448572 0.17414288 0.69000006 5599953
-0.10317144 0.17414288 0.69000006 11126527
-0.10185716 0.17414288 0.69000006 12045823
-0.10054287 0.17414288 0.69000006 11980031
-0.098940954 0.17363811 0.68800002 11980031
-0.097630478 0.17363811 0.68800002 12572159
-0.096320003 0.17363811 0.68800002 13490943
-0.095009528 0.17363811 0.68800002 8951229
-0.093699045 0.17363811 0.68800002 2384860
-0.09238857 0.17363811 0.68800002 1858516
-0.091078095 0.17363811 0.68800002 2320634
-0.08976762 0.17363811 0.68800002 873188
-0.088714294 0.17414288 0.69000006 333743
-0.087400004 0.17414288 0.69000006 6255103
-0.086085722 0.17414288 0.69000006 10137087
-0.084771439 0.17414288 0.69000006 9281781
-0.083578095 0.17439525 0.69100004 5079295
-0.082261913 0.17439525 0.69100004 2644954
-0.081180006 0.1749 0.69300002 1006830
-0.079860002 0.1749 0.69300002 5612287
-0.078653328 0.17515238 0.69400001 11451135
-0.077554293 0.17565715 0.69600004 12898559
-0.076338097 0.17590952 0.69700003 12703999
-0.075010478 0.17590952 0.69700003 12309245
-0.073788576 0.1761619 0.69800001 11848703
-0.07245905 0.1761619 0.69800001 11980287
-0.071333334 0.17666668 0.70000005 12701695
-0.070100002 0.17691906 0.70100003 11122668
-0.068960957 0.1774238 0.70300001 9215947
-0.067910478 0.17818096 0.70600003 7505329
-0.066754289 0.17868571 0.708 8751819
-0.065590478 0.17919049 0.71000004 8883405
-0.064328574 0.17944287 0.71100003 8095117
-0.063151434 0.17994764 0.71300006 9016219
-0.061793335 0.17994764 0.71300006 9475517
-0.060435243 0.17994764 0.71300006 9936068
-0.12252286 0.17876285 0.70300001 8750760
-0.12118381 0.17876285 0.70300001 6119040
-0.11950381 0.17825429 0.70100003 6580608
-0.11800001 0.178 0.70000005 7764882
-0.11633334 0.17749143 0.69800001 8223873
-0.11483905 0.17723715 0.69700003 8355459
-0.11334857 0.17698286 0.69600004 8092555
-0.11170095 0.17647429 0.69400001 9605794
-0.11022 0.17622 0.69300002 9674169
-0.10858572 0.17571144 0.69100004 7897758
-0.10726953 0.17571144 0.69100004 3696056
-0.10595334 0.17571144 0.69100004 274820
-0.10448572 0.17545715 0.69000006 4088276
-0.10317144 0.17545715 0.69000006 10930687
-0.10185716 0.17545715 0.69000006 12898815
-0.10054287 0.17545715 0.69000006 12833023
-0.098940954 0.17494857 0.68800002 12636671
-0.097630478 0.17494857 0.68800002 13031423
-0.096320003 0.17494857 0.68800002 12967423
-0.095009528 0.17494857 0.68800002 7769780
-0.093699045 0.17494857 0.68800002 806362
-0.09238857 0.17494857 0.68800002 1661671
-0.091078095 0.17494857 0.68800002 5733887
-0.090028577 0.17545715 0.69000006 5536511
-0.088842861 0.17571144 0.69100004 1397724
-0.087526672 0.17571144 0.69100004 1068759
-0.086210482 0.17571144 0.69100004 7312595
-0.084894292 0.17571144 0.69100004 9681143
-0.083578095 0.17571144 0.69100004 12243455
-0.082499996 0.17622 0.69300002 12177663
-0.081180006 0.17622 0.69300002 12571391
-0.079860002 0.17622 0.69300002 12900351
-0.078653328 0.17647429 0.69400001 12834303
-0.077554293 0.17698286 0.69600004 12768511
-0.076338097 0.17723715 0.69700003 12571391
-0.075010478 0.17723715 0.69700003 12571391
-0.073788576 0.17749143 0.69800001 12439807
-0.07245905 0.17749143 0.69800001 11781883
-0.071333334 0.178 0.70000005 11122938
-0.070100002 0.17825429 0.70100003 7504323
-0.068960957 0.17876285 0.70300001 5925543
-0.067910478 0.17952573 0.70600003 7175610
-0.066754289 0.18003428 0.708 9672655
-0.065590478 0.18054286 0.71000004 9343690
-0.064328574 0.18079714 0.71100003 8094113
-0.063151434 0.18130574 0.71300006 9015215
-0.061793335 0.18130574 0.71300006 9607616
-0.060435243 0.18130574 0.71300006 9739202
-0.059160002 0.18156001 0.71400005 10131897
-0.12118381 0.18010192 0.70300001 6382985
-0.11950381 0.17958954 0.70100003 6317432
-0.11800001 0.17933334 0.70000005 7764878
-0.11633334 0.17882095 0.69800001 8158348
-0.11483905 0.17856477 0.69700003 8355727
-0.11334857 0.17830858 0.69600004 8421772
-0.11170095 0.1777962 0.69400001 9474460
-0.11022 0.17754 0.69300002 9215164
-0.10858572 0.17702763 0.69100004 8754613
-0.10726953 0.17702763 0.69100004 4092371
-0.10595334 0.17702763 0.69100004 12177
-0.10463715 0.17702763 0.69100004 4279712
-0.10317144 0.17677145 0.69000006 11845887
-0.10185716 0.17677145 0.69000006 12177151
-0.10054287 0.17677145 0.69000006 12637695
-0.099228583 0.17677145 0.69000006 12900607
-0.097630478 0.17625906 0.68800002 13032191
-0.096320003 0.17625906 0.68800002 13228031
-0.095009528 0.17625906 0.68800002 5201289
-0.093699045 0.17625906 0.68800002 267198
-0.09238857 0.17625906 0.68800002 7109631
-0.091078095 0.17625906 0.68800002 8627455
-0.090028577 0.17677145 0.69000006 7969535
-0.088842861 0.17702763 0.69100004 6260208
-0.087526672 0.17702763 0.69100004 6326001
-0.086210482 0.17702763 0.69100004 7705085
-0.084894292 0.17702763 0.69100004 9942015
-0.08382 0.17754 0.69300002 13161215
-0.082499996 0.17754 0.69300002 13358591
-0.081180006 0.17754 0.69300002 13294847
-0.07997524 0.1777962 0.69400001 13031679
-0.078880005 0.17830858 0.69600004 12834303
-0.077554293 0.17830858 0.69600004 12505343
-0.076338097 0.17856477 0.69700003 12439807
-0.075010478 0.17856477 0.69700003 12439807
-0.073788576 0.17882095 0.69800001 12307199
-0.072666667 0.17933334 0.70000005 11451896
-0.071333334 0.17933334 0.70000005 9414121
-0.070100002 0.17958954 0.70100003 7045573
-0.068960957 0.18010192 0.70300001 6253209
-0.067910478 0.18087047 0.70600003 8358585
-0.066754289 0.18138285 0.708 10592735
-0.065590478 0.18189524 0.71000004 9671633
-0.064328574 0.18215142 0.71100003 8160147
-0.063151434 0.18266381 0.71300006 9147042
-0.061793335 0.18266381 0.71300006 9935557
-0.060520004 0.18292001 0.71400005 9869764
-0.12118381 0.18144095 0.70300001 7040145
-0.11950381 0.18092477 0.70100003 6449799
-0.11800001 0.18066667 0.70000005 7765659
-0.11633334 0.18015048 0.69800001 8224143
-0.11483905 0.17989239 0.69700003 8618901
-0.11334857 0.1796343 0.69600004 8553106
-0.11170095 0.1791181 0.69400001 9145243
-0.11022 0.17886001 0.69300002 9148084
-0.1089 0.17886001 0.69300002 10595530
-0.10726953 0.17834382 0.69100004 8165608
-0.10595334 0.17834382 0.69100004 1783687
-0.10463715 0.17834382 0.69100004 535965
-0.10317144 0.17808573 0.69000006 5404647
-0.10185716 0.17808573 0.69000006 9478867
-0.10054287 0.17808573 0.69000006 11255278
-0.099228583 0.17808573 0.69000006 10532607
-0.097914286 0.17808573 0.69000006 9414135
-0.096600004 0.17808573 0.69000006 6458350
-0.095285721 0.17808573 0.69000006 142222
-0.093699045 0.17756954 0.68800002 599789
-0.09238857 0.17756954 0.68800002 9547519
-0.091078095 0.17756954 0.68800002 13294847
-0.090028577 0.17808573 0.69000006 13360639
-0.088842861 0.17834382 0.69100004 13163007
-0.087526672 0.17834382 0.69100004 13228799
-0.086210482 0.17834382 0.69100004 13097727
-0.085140005 0.17886001 0.69300002 10926563
-0.08382 0.17886001 0.69300002 11322333
-0.082619049 0.1791181 0.69400001 12572400
-0.081297144 0.1791181 0.69400001 13097215
-0.07997524 0.1791181 0.69400001 12965631
-0.078880005 0.1796343 0.69600004 13228543
-0.077554293 0.1796343 0.69600004 12110065
-0.076338097 0.17989239 0.69700003 10663164
-0.075010478 0.17989239 0.69700003 10334199
-0.073788576 0.18015048 0.69800001 9083348
-0.07245905 0.18015048 0.69800001 7964867
-0.071333334 0.18066667 0.70000005 8160704
-0.070000008 0.18066667 0.70000005 7765946
-0.069059052 0.18169905 0.70400006 7239602
-0.067910478 0.18221524 0.70600003 9081806
-0.066754289 0.18273142 0.708 10396628
-0.065590478 0.18324763 0.71000004 9409733
-0.064328574 0.18350571 0.71100003 8292005
-0.063151434 0.18402192 0.71300006 9081521
-0.061793335 0.18402192 0.71300006 9738689
-0.060520004 0.18428002 0.71400005 9738689
-0.059160002 0.18428002 0.71400005 9935547
-0.057800002 0.18428002 0.71400005 10001340
-0.12118381 0.18278 0.70300001 7170961
-0.11950381 0.18226001 0.70100003 6777199
-0.11816857 0.18226001 0.70100003 8093059
-0.11633334 0.18148001 0.69800001 8224141
-0.11483905 0.18122001 0.69700003 8618899
-0.11351143 0.18122001 0.69700003 8618901
-0.11202286 0.18096001 0.69600004 9079452
-0.11037905 0.18044001 0.69400001 8949926
-0.1089 0.18018001 0.69300002 10660544
-0.10758 0.18018001 0.69300002 9415141
-0.10595334 0.17966001 0.69100004 4612252
-0.10463715 0.17966001 0.69100004 737979
-0.10317144 0.17940001 0.69000006 3369699
-0.10185716 0.17940001 0.69000006 4942542
-0.10054287 0.17940001 0.69000006 6784746
-0.099228583 0.17940001 0.69000006 9149171
-0.097914286 0.17940001 0.69000006 7767518
-0.096600004 0.17940001 0.69000006 875741
-0.095285721 0.17940001 0.69000006 1073120
-0.093699045 0.17888001 0.68800002 7047416
-0.09238857 0.17888001 0.68800002 11192319
-0.091078095 0.17888001 0.68800002 12703743
-0.090028577 0.17940001 0.69000006 12901119
-0.088842861 0.17966001 0.69100004 13098239
-0.087526672 0.17966001 0.69100004 13164031
-0.086210482 0.17966001 0.69100004 13293823
-0.085140005 0.18018001 0.69300002 8688318
-0.08382 0.18018001 0.69300002 7375771
-0.082619049 0.18044001 0.69400001 12507625
-0.081297144 0.18044001 0.69400001 13295359
-0.07997524 0.18044001 0.69400001 13032191
-0.078880005 0.18096001 0.69600004 13425663
-0.077554293 0.18096001 0.69600004 10201811
-0.076338097 0.18122001 0.69700003 9343177
-0.075010478 0.18122001 0.69700003 8093110
-0.073788576 0.18148001 0.69800001 8025261
-0.07245905 0.18148001 0.69800001 8748984
-0.071333334 0.18200001 0.70000005 8684227
-0.070000008 0.18200001 0.70000005 8092090
-0.06925524 0.18356 0.70600003 7502524
-0.068006672 0.18381999 0.70700002 9805279
-0.066754289 0.18407999 0.708 10530533
-0.065590478 0.18460001 0.71000004 9148880
-0.064328574 0.18486001 0.71100003 8292766
-0.063151434 0.18538001 0.71300006 8621731
-0.061793335 0.18538001 0.71300006 9541310
-0.060435243 0.18538001 0.71300006 9804482
-0.059077147 0.18538001 0.71300006 9870267
-0.12187333 0.18516667 0.70700002 7039628
-0.11950381 0.18359524 0.70100003 6646649
-0.11816857 0.18359524 0.70100003 8028302
-0.11633334 0.18280952 0.69800001 8487817
-0.11483905 0.18254761 0.69700003 8685196
-0.11351143 0.18254761 0.69700003 8684701
-0.11202286 0.18228573 0.69600004 9079459
-0.11037905 0.18176191 0.69400001 8818338
-0.1089 0.1815 0.69300002 10002612
-0.10758 0.1815 0.69300002 9675983
-0.10595334 0.1809762 0.69100004 10597085
-0.10463715 0.1809762 0.69100004 9940724
-0.10332096 0.1809762 0.69100004 7769555
-0.10200477 0.1809762 0.69100004 6323695
-0.10054287 0.18071429 0.69000006 5994730
-0.099228583 0.18071429 0.69000006 7312075
-0.097914286 0.18071429 0.69000006 7312075
-0.096600004 0.18071429 0.69000006 10468842
-0.095285721 0.18071429 0.69000006 11587323
-0.093971431 0.18071429 0.69000006 12374783
-0.09238857 0.18019049 0.68800002 12506367
-0.091078095 0.18019049 0.68800002 12506367
-0.090028577 0.18071429 0.69000006 12572159
-0.088842861 0.1809762 0.69100004 12834815
-0.087526672 0.1809762 0.69100004 12834815
-0.086210482 0.1809762 0.69100004 12174847
-0.085140005 0.1815 0.69300002 2832248
-0.08382 0.1815 0.69300002 4085187
-0.082619049 0.18176191 0.69400001 11848703
-0.081297144 0.18176191 0.69400001 14015231
-0.07997524 0.18176191 0.69400001 13488890
-0.078880005 0.18228573 0.69600004 12371941
-0.077554293 0.18228573 0.69600004 7305880
-0.076338097 0.18254761 0.69700003 5726372
-0.075010478 0.18254761 0.69700003 4278926
-0.073788576 0.18280952 0.69800001 7501223
-0.072666667 0.18333335 0.70000005 9014462
-0.071333334 0.18333335 0.70000005 8751308
-0.070299998 0.18411905 0.70300001 7040690
-0.06925524 0.18490477 0.70600003 7437528
-0.068006672 0.18516667 0.70700002 9806076
-0.066942856 0.1859524 0.71000004 10660563
-0.065590478 0.1859524 0.71000004 9542082
-0.064328574 0.1862143 0.71100003 8095913
-0.063151434 0.1867381 0.71300006 8161706
-0.061793335 0.1867381 0.71300006 9344449
-0.060435243 0.1867381 0.71300006 9870793
-0.059077147 0.1867381 0.71300006 9870267
-0.12187333 0.18651333 0.70700002 7040648
-0.11950381 0.18493049 0.70100003 6646397
-0.11816857 0.18493049 0.70100003 8093843
-0.11633334 0.18413906 0.69800001 8422035
-0.11483905 0.18387523 0.69700003 8882586
-0.11351143 0.18387523 0.69700003 8817309
-0.11202286 0.18361144 0.69600004 8948895
-0.11037905 0.18308382 0.69400001 8949665
-0.10905714 0.18308382 0.69400001 9870767
-0.10758 0.18281999 0.69300002 9740236
-0.10626 0.18281999 0.69300002 11253475
-0.10463715 0.18229239 0.69100004 11910143
-0.10332096 0.18229239 0.69100004 9475810
-0.10200477 0.18229239 0.69100004 8165076
-0.10068858 0.18229239 0.69100004 8625627
-0.099372379 0.18229239 0.69100004 8166637
-0.097914286 0.18202859 0.69000006 9943039
-0.096600004 0.18202859 0.69000006 11257599
-0.095285721 0.18202859 0.69000006 12310271
-0.093971431 0.18202859 0.69000006 12375551
-0.092657149 0.18202859 0.69000006 12309759
-0.091342866 0.18202859 0.69000006 12244223
-0.090159051 0.18229239 0.69100004 12244223
-0.088842861 0.18229239 0.69100004 13097727
-0.087526672 0.18229239 0.69100004 12966143
-0.086210482 0.18229239 0.69100004 11451642
-0.085140005 0.18281999 0.69300002 4477584
-0.08382 0.18281999 0.69300002 6314648
-0.082619049 0.18308382 0.69400001 12104432
-0.081297144 0.18308382 0.69400001 12436733
-0.07997524 0.18308382 0.69400001 11976182
-0.078880005 0.18361144 0.69600004 10003928
-0.077554293 0.18361144 0.69600004 7832759
-0.076338097 0.18387523 0.69700003 7761844
-0.075118095 0.18413906 0.69800001 7301293
-0.074000001 0.18466668 0.70000005 8354226
-0.072770476 0.18493049 0.70100003 9472707
-0.071435243 0.18493049 0.70100003 8687055
-0.070299998 0.18545809 0.70300001 7371195
-0.069451429 0.18677714 0.708 8357842
-0.068102859 0.18677714 0.708 10265839
-0.067037143 0.18756858 0.71100003 10463457
-0.065682858 0.18756858 0.71100003 9410769
-0.064509533 0.18809621 0.71300006 8161706
-0.063151434 0.18809621 0.71300006 8293292
-0.061793335 0.18809621 0.71300006 9344701
-0.060520004 0.18836001 0.71400005 9871045
-0.059160002 0.18836001 0.71400005 9936060
-0.12187333 0.18786 0.70700002 7895185
-0.11950381 0.18626572 0.70100003 7501979
-0.11816857 0.18626572 0.70100003 8028323
-0.11633334 0.18546857 0.69800001 8422551
-0.11483905 0.18520287 0.69700003 8883102
-0.11351143 0.18520287 0.69700003 8882848
-0.11202286 0.18493715 0.69600004 9014434
-0.11069715 0.18493715 0.69600004 8949415
-0.10905714 0.18440571 0.69400001 9541552
-0.10758 0.18414 0.69300002 10003134
-0.10626 0.18414 0.69300002 10924236
-0.10494 0.18414 0.69300002 9872099
-0.10332096 0.18360859 0.69100004 5990312
-0.10200477 0.18360859 0.69100004 4744381
-0.10068858 0.18360859 0.69100004 9218303
-0.099372379 0.18360859 0.69100004 11649023
-0.098056197 0.18360859 0.69100004 12767487
-0.096600004 0.18334286 0.69000006 12965119
-0.095285721 0.18334286 0.69000006 12965119
-0.093971431 0.18334286 0.69000006 13031935
-0.092657149 0.18334286 0.69000006 12966143
-0.091342866 0.18334286 0.69000006 12309759
-0.090159051 0.18360859 0.69100004 11520249
-0.088842861 0.18360859 0.69100004 12242175
-0.087526672 0.18360859 0.69100004 12505343
-0.086210482 0.18360859 0.69100004 11320007
-0.085140005 0.18414 0.69300002 2503745
-0.08382 0.18414 0.69300002 3620009
-0.082619049 0.18440571 0.69400001 4738490
-0.081297144 0.18440571 0.69400001 6510262
-0.080205716 0.18493715 0.69600004 9010396
-0.078880005 0.18493715 0.69600004 8554655
-0.077665716 0.18520287 0.69700003 8949413
-0.076447621 0.18546857 0.69800001 8421584
-0.075118095 0.18546857 0.69800001 7368896
-0.074000001 0.18600002 0.70000005 8092862
-0.072978094 0.18679714 0.70300001 8684999
-0.071639046 0.18679714 0.70300001 8094409
-0.070400007 0.18706287 0.70400006 7239100
-0.069451429 0.18812571 0.708 8161242
-0.068102859 0.18812571 0.708 10661375
-0.067037143 0.18892285 0.71100003 10989785
-0.065682858 0.18892285 0.71100003 9542339
-0.064328574 0.18892285 0.71100003 8423860
-0.063151434 0.1894543 0.71300006 8489653
-0.061793335 0.1894543 0.71300006 9476026
-0.060520004 0.18972 0.71400005 9870784
-0.059160002 0.18972 0.71400005 9935799
-0.12204571 0.18947428 0.708 7960978
-0.12035619 0.18893905 0.70600003 7698324
-0.11816857 0.18760096 0.70100003 8290461
-0.11633334 0.1867981 0.69800001 8291485
-0.11483905 0.18653049 0.69700003 8752036
-0.11351143 0.18653049 0.69700003 8686500
-0.11202286 0.18626286 0.69600004 9015465
-0.11069715 0.18626286 0.69600004 9147816
-0.10905714 0.18572763 0.69400001 10068918
-0.10773524 0.18572763 0.69400001 10594014
-0.10626 0.18546 0.69300002 9672912
-0.10494 0.18546 0.69300002 8227510
-0.10362 0.18546 0.69300002 6187927
-0.10200477 0.18492477 0.69100004 5532107
-0.10068858 0.18492477 0.69100004 10006015
-0.099372379 0.18492477 0.69100004 11779839
-0.098056197 0.18492477 0.69100004 12569343
-0.09674 0.18492477 0.69100004 12440575
-0.095285721 0.18465716 0.69000006 12506367
-0.093971431 0.18465716 0.69000006 13097727
-0.092657149 0.18465716 0.69000006 12374009
-0.091342866 0.18465716 0.69000006 11126009
-0.090159051 0.18492477 0.69100004 11126009
-0.088842861 0.18492477 0.69100004 11058687
-0.087526672 0.18492477 0.69100004 11190271
-0.086460002 0.18546 0.69300002 8428487
-0.085262857 0.18572763 0.69400001 6125732
-0.083940953 0.18572763 0.69400001 7960291
-0.082619049 0.18572763 0.69400001 6183880
-0.081297144 0.18572763 0.69400001 6705576
-0.080205716 0.18626286 0.69600004 7363506
-0.078993335 0.18653049 0.69700003 6841494
-0.077665716 0.18653049 0.69700003 9539007
-0.076447621 0.1867981 0.69800001 9868543
-0.075333342 0.18733335 0.70000005 8552685
-0.074105717 0.18760096 0.70100003 7764395
-0.072978094 0.18813619 0.70300001 8224946
-0.071639046 0.18813619 0.70300001 7962298
-0.070400007 0.18840383 0.70400006 8159677
-0.069451429 0.18947428 0.708 9016292
-0.06829524 0.19000953 0.71000004 10661117
-0.067037143 0.19027714 0.71100003 10661858
-0.065682858 0.19027714 0.71100003 9214412
-0.064328574 0.19027714 0.71100003 8488881
-0.063151434 0.19081239 0.71300006 8817846
-0.061793335 0.19081239 0.71300006 9934520
-0.060435243 0.19081239 0.71300006 10131899
-0.12204571 0.19082285 0.708 8157328
-0.12035619 0.19028381 0.70600003 7960995
-0.11816857 0.1889362 0.70100003 8487339
-0.11633334 0.18812761 0.69800001 8291235
-0.11500382 0.18812761 0.69800001 8751786
-0.11351143 0.1878581 0.69700003 8752303
-0.11218382 0.1878581 0.69700003 9081268
-0.11069715 0.18758859 0.69600004 9213609
-0.10905714 0.18704952 0.69400001 10858434
-0.10773524 0.18704952 0.69400001 10398697
-0.10641333 0.18704952 0.69400001 5595808
-0.10494 0.18678001 0.69300002 4482499
-0.10362 0.18678001 0.69300002 9087999
-0.1023 0.18678001 0.69300002 12240639
-0.10098 0.18678001 0.69300002 12832767
-0.099660002 0.18678001 0.69300002 11451135
-0.098056197 0.18624096 0.69100004 9477352
-0.09674 0.18624096 0.69100004 10136527
-0.095423818 0.18624096 0.69100004 11715559
-0.09410762 0.18624096 0.69100004 11779839
-0.092657149 0.18597144 0.69000006 7634887
-0.091342866 0.18597144 0.69000006 5993914
-0.09042 0.18678001 0.69300002 9086185
-0.089099996 0.18678001 0.69300002 12370940
-0.087779999 0.18678001 0.69300002 10528736
-0.086460002 0.18678001 0.69300002 8360386
-0.085262857 0.18704952 0.69400001 9478867
-0.083940953 0.18704952 0.69400001 10789887
-0.082619049 0.18704952 0.69400001 7302867
-0.081297144 0.18704952 0.69400001 6708681
-0.080205716 0.18758859 0.69600004 5721786
-0.078993335 0.1878581 0.69700003 5264056
-0.077665716 0.1878581 0.69700003 10330111
-0.076447621 0.18812761 0.69800001 10922751
-0.075333342 0.18866667 0.70000005 8817385
-0.074105717 0.1889362 0.70100003 5727894
-0.072978094 0.18947524 0.70300001 6583203
-0.071740955 0.18974477 0.70400006 6845857
-0.070699997 0.19055334 0.70700002 10003921
-0.069451429 0.19082285 0.708 11253243
-0.06829524 0.1913619 0.71000004 10924278
-0.067037143 0.19163144 0.71100003 10464479
-0.065682858 0.19163144 0.71100003 9280205
-0.064328574 0.19163144 0.71100003 8489655
-0.063151434 0.1921705 0.71300006 8423862
-0.061793335 0.1921705 0.71300006 9476020
-0.060435243 0.1921705 0.71300006 9607606
-0.12204571 0.19217142 0.708 8552084
-0.12052666 0.19190001 0.70700002 8355738
-0.11901143 0.19162858 0.70600003 8487324
-0.11716667 0.19081429 0.70300001 8291744
-0.11533334 0.19000001 0.70000005 9015467
-0.11367428 0.18945715 0.69800001 8818866
-0.11218382 0.18918572 0.69700003 9016245
-0.11085619 0.18918572 0.69700003 9148601
-0.10937143 0.1889143 0.69600004 10793426
-0.10773524 0.18837143 0.69400001 10661088
-0.10641333 0.18837143 0.69400001 5463441
-0.10509143 0.18837143 0.69400001 4940974
-0.10362 0.1881 0.69300002 11191295
-0.1023 0.1881 0.69300002 12111359
-0.10098 0.1881 0.69300002 12177151
-0.099660002 0.1881 0.69300002 11320319
-0.098056197 0.18755715 0.69100004 6846402
-0.09674 0.18755715 0.69100004 7039871
-0.095423818 0.18755715 0.69100004 10197935
-0.09410762 0.18755715 0.69100004 11447038
-0.092791438 0.18755715 0.69100004 7236286
-0.091475241 0.18755715 0.69100004 6513047
-0.09042 0.1881 0.69300002 11710694
-0.089099996 0.1881 0.69300002 14079743
-0.087779999 0.1881 0.69300002 10724303
-0.086460002 0.1881 0.69300002 5863813
-0.085262857 0.18837143 0.69400001 10337737
-0.083940953 0.18837143 0.69400001 11581439
-0.082619049 0.18837143 0.69400001 7765453
-0.081297144 0.18837143 0.69400001 7894479
-0.080320954 0.18918572 0.69700003 5262759
-0.078993335 0.18918572 0.69700003 3160503
-0.077665716 0.18918572 0.69700003 11318783
-0.076447621 0.18945715 0.69800001 12374783
-0.075440958 0.19027144 0.70100003 8493001
-0.07431715 0.19081429 0.70300001 3165567
-0.072978094 0.19081429 0.70300001 6257838
-0.071740955 0.19108573 0.70400006 7568594
-0.070699997 0.19190001 0.70700002 11121407
-0.069451429 0.19217142 0.708 11714815
-0.06829524 0.19271429 0.71000004 10859514
-0.066942856 0.19271429 0.71000004 10070752
-0.065682858 0.19298573 0.71100003 9018064
-0.064328574 0.19298573 0.71100003 8621237
-0.063151434 0.19352859 0.71300006 8423858
-0.061880007 0.19380002 0.71400005 9343672
-0.060520004 0.19380002 0.71400005 9804223
-0.12204571 0.19351999 0.708 8683670
-0.12052666 0.19324668 0.70700002 8289943
-0.11850572 0.19215333 0.70300001 8355736
-0.11683334 0.19160667 0.70100003 8159906
-0.11533334 0.19133334 0.70000005 9146801
-0.114 0.19133334 0.70000005 9082040
-0.11218382 0.19051333 0.69700003 9279419
-0.11085619 0.19051333 0.69700003 9542334
-0.10937143 0.19024001 0.69600004 11121366
-0.10804572 0.19024001 0.69600004 10267319
-0.10641333 0.18969335 0.69400001 3359054
-0.10509143 0.18969335 0.69400001 6190273
-0.10376953 0.18969335 0.69400001 11716863
-0.1023 0.18942 0.69300002 13028863
-0.10098 0.18942 0.69300002 13160447
-0.099660002 0.18942 0.69300002 11977215
-0.098340005 0.18942 0.69300002 6450611
-0.09674 0.18887335 0.69100004 4151893
-0.095423818 0.18887335 0.69100004 6323062
-0.09410762 0.18887335 0.69100004 7700664
-0.092791438 0.18887335 0.69100004 6121632
-0.091475241 0.18887335 0.69100004 6645164
-0.09042 0.18942 0.69300002 11711225
-0.089099996 0.18942 0.69300002 14473454
-0.087906666 0.18969335 0.69400001 9407393
-0.086584762 0.18969335 0.69400001 6122624
-0.085508578 0.19024001 0.69600004 11188685
-0.084182858 0.19024001 0.69600004 11317235
-0.082857147 0.19024001 0.69600004 7435448
-0.081531428 0.19024001 0.69600004 6386887
-0.080320954 0.19051333 0.69700003 3755167
-0.079106666 0.19078667 0.69800001 4675545
-0.07777714 0.19078667 0.69800001 11254783
-0.076666676 0.19133334 0.70000005 12898047
-0.075656191 0.19215333 0.70300001 10397918
-0.07431715 0.19215333 0.70300001 9215936
-0.073081911 0.19242668 0.70400006 10202831
-0.071944758 0.19297335 0.70600003 11515391
-0.070699997 0.19324668 0.70700002 12568063
-0.069451429 0.19351999 0.708 12174591
-0.06829524 0.19406667 0.71000004 10924530
-0.066942856 0.19406667 0.71000004 10136032
-0.065682858 0.19434001 0.71100003 9083344
-0.064328574 0.19434001 0.71100003 8621237
-0.063240007 0.19516002 0.71400005 8358065
-0.06205333 0.19570667 0.71600002 9344444
-0.060689528 0.19570667 0.71600002 9673409
-0.12052666 0.19459333 0.70700002 8027025
-0.11850572 0.19349238 0.70300001 8224404
-0.11683334 0.1929419 0.70100003 7962527
-0.1154981 0.1929419 0.70100003 8949422
-0.114 0.19266668 0.70000005 9147576
-0.11234476 0.19211619 0.69800001 9476541
-0.11085619 0.19184096 0.69700003 9673409
-0.10952857 0.19184096 0.69700003 10199753
-0.10804572 0.19156572 0.69600004 8425892
-0.10672001 0.19156572 0.69600004 5859965
-0.10509143 0.19101523 0.69400001 6914001
-0.10376953 0.19101523 0.69400001 11651071
-0.10244761 0.19101523 0.69400001 12570111
-0.10098 0.19074 0.69300002 11977979
-0.099660002 0.19074 0.69300002 12106746
-0.098340005 0.19074 0.69300002 6382755
-0.09702 0.19074 0.69300002 3423571
-0.095423818 0.19018954 0.69100004 8160667
-0.09410762 0.19018954 0.69100004 8424445
-0.093060002 0.19074 0.69300002 6121690
-0.091740005 0.19074 0.69300002 6116744
-0.090550475 0.19101523 0.69400001 12301286
-0.08922857 0.19101523 0.69400001 14670591
-0.087906666 0.19101523 0.69400001 7959709
-0.086584762 0.19101523 0.69400001 5131854
-0.085508578 0.19156572 0.69600004 11382189
-0.084182858 0.19156572 0.69600004 10135523
-0.082857147 0.19156572 0.69600004 8161733
-0.081531428 0.19156572 0.69600004 7834100
-0.080320954 0.19184096 0.69700003 5597138
-0.079106666 0.19211619 0.69800001 5467052
-0.07777714 0.19211619 0.69800001 11191039
-0.076666676 0.19266668 0.70000005 13620479
-0.075656191 0.19349238 0.70300001 11120349
-0.07431715 0.19349238 0.70300001 10331607
-0.073081911 0.19376762 0.70400006 10792158
-0.071944758 0.1943181 0.70600003 11385087
-0.070800006 0.19486856 0.708 12108799
-0.069451429 0.19486856 0.708 11452671
-0.06829524 0.19541906 0.71000004 10531576
-0.067037143 0.19569428 0.71100003 10136547
-0.065867618 0.19624478 0.71300006 9018066
-0.064599998 0.19652 0.71400005 8752566
-0.063417144 0.19707048 0.71600002 8949945
-0.06205333 0.19707048 0.71600002 9541308
-0.12052666 0.19594 0.70700002 8224922
-0.11850572 0.19483143 0.70300001 8290715
-0.11683334 0.19427715 0.70100003 8094113
-0.1154981 0.19427715 0.70100003 8883629
-0.11416285 0.19427715 0.70100003 8950195
-0.11266667 0.19400001 0.70000005 9673918
-0.11101524 0.19344573 0.69800001 10200002
-0.10952857 0.19316858 0.69700003 10002623
-0.10820096 0.19316858 0.69700003 7372710
-0.10672001 0.19289143 0.69600004 6254229
-0.1053943 0.19289143 0.69600004 8095467
-0.10376953 0.19233714 0.69400001 12437759
-0.10244761 0.19233714 0.69400001 12700415
-0.10112571 0.19233714 0.69400001 8555462
-0.099803805 0.19233714 0.69400001 6318016
-0.098340005 0.19206001 0.69300002 4146847
-0.09702 0.19206001 0.69300002 3228282
-0.095700003 0.19206001 0.69300002 10004961
-0.094379999 0.19206001 0.69300002 11186687
-0.093060002 0.19206001 0.69300002 9344492
-0.091740005 0.19206001 0.69300002 6319513
-0.090550475 0.19233714 0.69400001 8490682
-0.08922857 0.19233714 0.69400001 10590463
-0.088160008 0.19289143 0.69600004 6906060
-0.086834289 0.19289143 0.69600004 5397396
-0.085508578 0.19289143 0.69600004 10463457
-0.084182858 0.19289143 0.69600004 9280716
-0.082857147 0.19289143 0.69600004 8951751
-0.081648573 0.19316858 0.69700003 8952831
-0.080436192 0.19344573 0.69800001 7176433
-0.079333335 0.19400001 0.70000005 6191795
-0.078000009 0.19400001 0.70000005 10402547
-0.076776192 0.19427715 0.70100003 12436991
-0.075656191 0.19483143 0.70300001 11384309
-0.07431715 0.19483143 0.70300001 9478647
-0.073081911 0.19510858 0.70400006 9676026
-0.071944758 0.19566287 0.70600003 10728959
-0.070800006 0.19621713 0.708 11650047
-0.069451429 0.19621713 0.708 11649791
-0.06829524 0.19677144 0.71000004 10662900
-0.067037143 0.19704857 0.71100003 10267620
-0.065867618 0.19760287 0.71300006 9280725
-0.064780958 0.19843429 0.71600002 8621755
-0.063505717 0.19871143 0.71700001 8884927
-0.062139999 0.19871143 0.71700001 9476028
-0.12035619 0.19700761 0.70600003 8356506
-0.11850572 0.19617048 0.70300001 8356506
-0.11683334 0.19561239 0.70100003 8225699
-0.1154981 0.19561239 0.70100003 8883629
-0.11416285 0.19561239 0.70100003 8753075
-0.11282763 0.19561239 0.70100003 9608384
-0.11101524 0.19477524 0.69800001 10134226
-0.10968572 0.19477524 0.69800001 9739468
-0.10820096 0.1944962 0.69700003 6518415
-0.10672001 0.19421715 0.69600004 6715794
-0.1053943 0.19421715 0.69600004 9608677
-0.10376953 0.19365904 0.69400001 12371967
-0.10244761 0.19365904 0.69400001 12568315
-0.10112571 0.19365904 0.69400001 6186394
-0.099803805 0.19365904 0.69400001 6640569
-0.098340005 0.19338001 0.69300002 6114225
-0.09702 0.19338001 0.69300002 3953742
-0.095700003 0.19338001 0.69300002 11388351
-0.094379999 0.19338001 0.69300002 12768511
-0.093194291 0.19365904 0.69400001 11452655
-0.091872387 0.19365904 0.69400001 5603022
-0.090811431 0.19421715 0.69600004 6063573
-0.08948572 0.19421715 0.69600004 9474027
-0.088286668 0.1944962 0.69700003 6250170
-0.086959057 0.1944962 0.69700003 5988011
-0.08563143 0.1944962 0.69700003 9738212
-0.084303811 0.1944962 0.69700003 8161994
-0.082976192 0.1944962 0.69700003 10201577
-0.081765719 0.19477524 0.69800001 11123967
-0.080436192 0.19477524 0.69800001 10531837
-0.079333335 0.19533335 0.70000005 8822509
-0.078000009 0.19533335 0.70000005 10269951
-0.076776192 0.19561239 0.70100003 11714047
-0.075656191 0.19617048 0.70300001 10858744
-0.074422859 0.19644953 0.70400006 8362737
-0.073081911 0.19644953 0.70400006 9612799
-0.072046667 0.19728667 0.70700002 11189503
-0.070800006 0.19756572 0.708 11518463
-0.069647625 0.19812383 0.71000004 11387391
-0.068391435 0.19840287 0.71100003 10597882
-0.067037143 0.19840287 0.71100003 10267881
-0.065960005 0.19924001 0.71400005 9215193
-0.064780958 0.19979811 0.71600002 8490428
-0.063505717 0.20007715 0.71700001 8753600
-0.062400002 0.20091429 0.72000003 9410237
-0.061028574 0.20091429 0.72000003 9739202
-0.12035619 0.19835238 0.70600003 8159129
-0.11867429 0.1977905 0.70400006 8422301
-0.11716667 0.19750953 0.70300001 8225961
-0.11582762 0.19750953 0.70300001 8818098
-0.11448857 0.19750953 0.70300001 8556464
-0.11314952 0.19750953 0.70300001 9280187
-0.11149239 0.19694763 0.70100003 9806031
-0.11000001 0.19666667 0.70000005 8950722
-0.10835619 0.19610476 0.69800001 6518180
-0.10702667 0.19610476 0.69800001 6912938
-0.1053943 0.19554286 0.69600004 10068199
-0.10406857 0.19554286 0.69600004 12568319
-0.10244761 0.19498095 0.69400001 12041925
-0.10112571 0.19498095 0.69400001 5923176
-0.099660002 0.19470002 0.69300002 7764186
-0.098340005 0.19470002 0.69300002 7632600
-0.09702 0.19470002 0.69300002 5529719
-0.095700003 0.19470002 0.69300002 11911640
-0.094379999 0.19470002 0.69300002 13357567
-0.093194291 0.19498095 0.69400001 12304884
-0.091872387 0.19498095 0.69400001 7635960
-0.090941906 0.19582382 0.69700003 6188514
-0.089614287 0.19582382 0.69700003 6057684
-0.088286668 0.19582382 0.69700003 3820722
-0.086959057 0.19582382 0.69700003 5266923
-0.085754283 0.19610476 0.69800001 10332927
-0.084424764 0.19610476 0.69800001 11187691
-0.083095238 0.19610476 0.69800001 11779828
-0.081765719 0.19610476 0.69800001 12175103
-0.080666669 0.19666667 0.70000005 12569855
-0.079333335 0.19666667 0.70000005 10399231
-0.078000009 0.19666667 0.70000005 9478138
-0.076776192 0.19694763 0.70100003 9938423
-0.075656191 0.19750953 0.70300001 10070009
-0.074422859 0.1977905 0.70400006 10662911
-0.073289528 0.19835238 0.70600003 12110335
-0.072046667 0.19863333 0.70700002 11913727
-0.070800006 0.19891429 0.708 11518975
-0.069647625 0.1994762 0.71000004 11124223
-0.068391435 0.19975714 0.71100003 10532091
-0.067225717 0.20031907 0.71300006 10465010
-0.065960005 0.20060001 0.71400005 9346529
-0.064780958 0.20116191 0.71600002 8555964
-0.063505717 0.20144285 0.71700001 8555964
-0.062400002 0.20228572 0.72000003 9409724
-0.061028574 0.20228572 0.72000003 9870275
-0.059657145 0.20228572 0.72000003 9870267
-0.12069714 0.20026286 0.708 8224150
-0.11867429 0.19913144 0.70400006 8289943
-0.11716667 0.19884858 0.70300001 8291746
-0.11582762 0.19884858 0.70300001 8883883
-0.11448857 0.19884858 0.70300001 8556725
-0.11314952 0.19884858 0.70300001 9083069
-0.11149239 0.19828287 0.70100003 9280714
-0.11000001 0.19800001 0.70000005 8885956
-0.10835619 0.19743428 0.69800001 6583725
-0.10702667 0.19743428 0.69800001 6846897
-0.1053943 0.19686857 0.69600004 10067136
-0.10406857 0.19686857 0.69600004 11711961
-0.10244761 0.19630285 0.69400001 10067933
-0.10112571 0.19630285 0.69400001 7238834
-0.099660002 0.19601999 0.69300002 9934040
-0.098340005 0.19601999 0.69300002 6249632
-0.09702 0.19601999 0.69300002 4999283
-0.095700003 0.19601999 0.69300002 12499685
-0.094379999 0.19601999 0.69300002 13620991
-0.093194291 0.19630285 0.69400001 11515620
-0.091872387 0.19630285 0.69400001 6259423
-0.090941906 0.19715142 0.69700003 7180525
-0.089614287 0.19715142 0.69700003 8294641
-0.088286668 0.19715142 0.69700003 7702504
-0.087083809 0.19743428 0.69800001 8952055
-0.085754283 0.19743428 0.69800001 11057407
-0.084424764 0.19743428 0.69800001 11844863
-0.083095238 0.19743428 0.69800001 11647487
-0.081765719 0.19743428 0.69800001 11780095
-0.080666669 0.19800001 0.70000005 11582719
-0.079333335 0.19800001 0.70000005 9809407
-0.078000009 0.19800001 0.70000005 9151487
-0.076995239 0.19884858 0.70300001 9413358
-0.075763814 0.19913144 0.70400006 10531839
-0.074422859 0.19913144 0.70400006 11583231
-0.073289528 0.19969715 0.70600003 12043775
-0.072046667 0.19998001 0.70700002 11388415
-0.070800006 0.20026286 0.708 11125247
-0.069647625 0.20082858 0.71000004 10992639
-0.06829524 0.20082858 0.71000004 10729471
-0.067037143 0.20111144 0.71100003 10465519
-0.065960005 0.20196001 0.71400005 8952280
-0.064780958 0.20252572 0.71600002 8620726
-0.064214289 0.20507143 0.72500002 9015484
-0.062833332 0.20507143 0.72500002 9475256
-0.061452381 0.20507143 0.72500002 9870014
-0.12339428 0.20161143 0.708 8487317
-0.12204571 0.20161143 0.708 8487317
-0.12069714 0.20161143 0.708 8224150
-0.11918 0.20132667 0.70700002 8224150
-0.11766667 0.20104191 0.70600003 8225949
-0.11599239 0.2004724 0.70400006 8949672
-0.11448857 0.20018762 0.70300001 8753341
-0.11314952 0.20018762 0.70300001 8884927
-0.11149239 0.1996181 0.70100003 9477566
-0.11000001 0.19933335 0.70000005 9740738
-0.10835619 0.19876382 0.69800001 7965901
-0.10702667 0.19876382 0.69800001 6255283
-0.1053943 0.1981943 0.69600004 7833746
-0.10406857 0.1981943 0.69600004 10399673
-0.10274286 0.1981943 0.69600004 9739207
-0.10112571 0.19762476 0.69400001 6252178
-0.099803805 0.19762476 0.69400001 5727412
-0.098340005 0.19734 0.69300002 3424657
-0.09702 0.19734 0.69300002 3423911
-0.095838092 0.19762476 0.69400001 9279487
-0.094516195 0.19762476 0.69400001 9146843
-0.093194291 0.19762476 0.69400001 7173053
-0.092137143 0.1981943 0.69600004 9214912
-0.090941906 0.19847906 0.69700003 12701941
-0.089614287 0.19847906 0.69700003 13095423
-0.088413335 0.19876382 0.69800001 12503290
-0.087083809 0.19876382 0.69800001 12175103
-0.085754283 0.19876382 0.69800001 12043519
-0.084424764 0.19876382 0.69800001 10332415
-0.083095238 0.19876382 0.69800001 9674495
-0.081765719 0.19876382 0.69800001 9347304
-0.080666669 0.19933335 0.70000005 9413097
-0.079446673 0.1996181 0.70100003 10597103
-0.078334287 0.20018762 0.70300001 10860275
-0.076995239 0.20018762 0.70300001 10794482
-0.075763814 0.2004724 0.70400006 11715583
-0.074422859 0.2004724 0.70400006 12241407
-0.073289528 0.20104191 0.70600003 12109823
-0.072046667 0.20132667 0.70700002 11585279
-0.070800006 0.20161143 0.708 11453695
-0.069647625 0.20218095 0.71000004 11782143
-0.06829524 0.20218095 0.71000004 11190012
-0.067037143 0.20246571 0.71100003 10662637
-0.066144764 0.20388952 0.71600002 8886226
-0.065142855 0.20502858 0.72000003 8490678
-0.064214289 0.20645238 0.72500002 8819643
-0.062833332 0.20645238 0.72500002 9343923
-0.061452381 0.20645238 0.72500002 9936060
-0.12339428 0.20296 0.708 8486811
-0.12204571 0.20296 0.708 8355225
-0.12069714 0.20296 0.708 7829394
-0.11918 0.20267333 0.70700002 8092566
-0.11766667 0.20238668 0.70600003 8357535
-0.11599239 0.20181336 0.70400006 8883879
-0.11465143 0.20181336 0.70400006 8950454
-0.11314952 0.20152666 0.70300001 9279419
-0.11149239 0.20095333 0.70100003 9542855
-0.11015715 0.20095333 0.70100003 9806027
-0.10866667 0.20066668 0.70000005 8756180
-0.10733334 0.20066668 0.70000005 6256046
-0.10554572 0.19980668 0.69700003 5598359
-0.1042181 0.19980668 0.69700003 8427458
-0.10274286 0.19952002 0.69600004 9146077
-0.10141715 0.19952002 0.69600004 6448564
-0.10009144 0.19952002 0.69600004 5594543
-0.098765716 0.19952002 0.69600004 6120887
-0.097440004 0.19952002 0.69600004 7173573
-0.096114293 0.19952002 0.69600004 8949984
-0.094788581 0.19952002 0.69600004 8159459
-0.093462862 0.19952002 0.69600004 8159459
-0.092137143 0.19952002 0.69600004 11316458
-0.090941906 0.19980668 0.69700003 13092863
-0.089614287 0.19980668 0.69700003 13095935
-0.088413335 0.20009334 0.69800001 12372217
-0.087083809 0.20009334 0.69800001 11846143
-0.085754283 0.20009334 0.69800001 11319804
-0.084424764 0.20009334 0.69800001 9544703
-0.083095238 0.20009334 0.69800001 9413119
-0.081765719 0.20009334 0.69800001 9675501
-0.080666669 0.20066668 0.70000005 9938673
-0.079673328 0.20152666 0.70300001 11318777
-0.078334287 0.20152666 0.70300001 11450363
-0.076995239 0.20152666 0.70300001 11122943
-0.075656191 0.20152666 0.70300001 11649279
-0.074422859 0.20181336 0.70400006 12176383
-0.073289528 0.20238668 0.70600003 11847423
-0.072046667 0.20267333 0.70700002 11323120
-0.071000002 0.20353334 0.71000004 11454706
-0.069647625 0.20353334 0.71000004 11847935
-0.068391435 0.20382001 0.71100003 11124217
-0.067225717 0.20439336 0.71300006 10597875
-0.066144764 0.20525333 0.71600002 8492499
-0.065142855 0.20639999 0.72000003 8425398
-0.064214289 0.20783333 0.72500002 8754363
-0.062833332 0.20783333 0.72500002 9277877
-0.061452381 0.20783333 0.72500002 9672635
-0.12339428 0.20430857 0.708 8487326
-0.12204571 0.20430857 0.708 8355740
-0.12069714 0.20430857 0.708 7895454
-0.11934857 0.20430857 0.708 7895454
-0.11766667 0.20373145 0.70600003 7897509
-0.11599239 0.2031543 0.70400006 8884404
-0.11465143 0.2031543 0.70400006 8819117
-0.11314952 0.20286572 0.70300001 9411254
-0.11181048 0.20286572 0.70300001 9477577
-0.11015715 0.20228858 0.70100003 10003921
-0.10866667 0.20200002 0.70000005 9609697
-0.10733334 0.20200002 0.70000005 9149146
-0.10554572 0.20113429 0.69700003 8690126
-0.1042181 0.20113429 0.69700003 9282263
-0.10289048 0.20113429 0.69700003 10727671
-0.10141715 0.20084573 0.69600004 10596085
-0.10009144 0.20084573 0.69600004 10794477
-0.098765716 0.20084573 0.69600004 11518200
-0.097440004 0.20084573 0.69600004 11976447
-0.096114293 0.20084573 0.69600004 12239615
-0.094788581 0.20084573 0.69600004 11647231
-0.093462862 0.20084573 0.69600004 11449855
-0.092137143 0.20084573 0.69600004 10595839
-0.090941906 0.20113429 0.69700003 10859007
-0.089614287 0.20113429 0.69700003 11845887
-0.088413335 0.20142286 0.69800001 11582719
-0.087083809 0.20142286 0.69800001 10531814
-0.085754283 0.20142286 0.69800001 10334435
-0.084424764 0.20142286 0.69800001 11385338
-0.083095238 0.20142286 0.69800001 11582717
-0.081765719 0.20142286 0.69800001 11451391
-0.080781907 0.20228858 0.70100003 11385599
-0.079673328 0.20286572 0.70300001 12044281
-0.078334287 0.20286572 0.70300001 12504831
-0.076995239 0.20286572 0.70300001 12307199
-0.075656191 0.20286572 0.70300001 11912447
-0.074422859 0.2031543 0.70400006 10794223
-0.073289528 0.20373145 0.70600003 9675742
-0.072046667 0.20402001 0.70700002 9151659
-0.070800006 0.20430857 0.708 10335933
-0.069647625 0.20488572 0.71000004 10859755
-0.068391435 0.2051743 0.71100003 10925548
-0.067320004 0.20604001 0.71400005 10925539
-0.065960005 0.20604001 0.71400005 8885956
-0.065776192 0.20979145 0.72700006 8556984
-0.064391434 0.20979145 0.72700006 8951742
-0.063006669 0.20979145 0.72700006 9409722
-0.061621908 0.20979145 0.72700006 9607101
-0.12204571 0.20565714 0.708 8487324
-0.12069714 0.20565714 0.708 7896473
-0.11934857 0.20565714 0.708 7567508
-0.11766667 0.20507619 0.70600003 7634836
-0.11599239 0.20449525 0.70400006 8950696
-0.11465143 0.20449525 0.70400006 8754104
-0.11314952 0.20420477 0.70300001 9280448
-0.11181048 0.20420477 0.70300001 9149643
-0.11015715 0.20362382 0.70100003 9675987
-0.10882191 0.20362382 0.70100003 10136543
-0.10733334 0.20333335 0.70000005 10268129
-0.10554572 0.20246191 0.69700003 9874148
-0.1042181 0.20246191 0.69700003 10729457
-0.10289048 0.20246191 0.69700003 10861055
-0.10156287 0.20246191 0.69700003 10861055
-0.10009144 0.20217144 0.69600004 10993663
-0.098765716 0.20217144 0.69600004 10862078
-0.097440004 0.20217144 0.69600004 10927103
-0.096114293 0.20217144 0.69600004 10795519
-0.094788581 0.20217144 0.69600004 10991103
-0.093462862 0.20217144 0.69600004 10793727
-0.092137143 0.20217144 0.69600004 9413113
-0.090941906 0.20246191 0.69700003 10268415
-0.089614287 0.20246191 0.69700003 10992383
-0.088413335 0.20275238 0.69800001 10860799
-0.087083809 0.20275238 0.69800001 10268644
-0.085754283 0.20275238 0.69800001 10860781
-0.084424764 0.20275238 0.69800001 11845375
-0.083095238 0.20275238 0.69800001 11976959
-0.081765719 0.20275238 0.69800001 11780863
-0.080781907 0.20362382 0.70100003 11846655
-0.079673328 0.20420477 0.70300001 12504319
-0.078334287 0.20420477 0.70300001 12175358
