# .PCD v0.7 - Point Cloud Data file format
VERSION 0.7
FIELDS x y z rgba
SIZE 4 4 4 4
TYPE F F F U
COUNT 1 1 1 1
WIDTH 1125
HEIGHT 1
VIEWPOINT 0 0 0 1 0 0 0
POINTS 1125
DATA ascii
-0.10301905 0.16838287 0.74600005 12365431
-0.10173429 0.16860859 0.74700004 12563582
-0.10031143 0.16860859 0.74700004 12497789
-0.098888576 0.16860859 0.74700004 12628103
-0.097726665 0.16905999 0.74900001 12693896
-0.096428581 0.16928573 0.75000006 12891264
-0.095253341 0.16973716 0.75200003 12759678
-0.094070479 0.17018856 0.75400001 12891264
-0.092757143 0.1704143 0.75500005 12825471
-0.091560952 0.17086573 0.75700003 12825219
-0.090357147 0.17131715 0.75900006 12759426
-0.08914572 0.17176858 0.76100004 12891246
-0.087811433 0.1719943 0.76200002 13549176
-0.086586677 0.17244571 0.76400006 12827013
-0.085354283 0.17289715 0.76600003 12234876
-0.08400476 0.17312287 0.76700002 12497519
-0.082543813 0.17312287 0.76700002 15787169
-0.081294291 0.17357428 0.76900005 15985845
-0.079829529 0.17357428 0.76900005 16776903
-0.16017239 0.1732181 0.76100004 16316111
-0.15830572 0.17276287 0.75900006 15787696
-0.15644668 0.17230763 0.75700003 11774323
-0.15459524 0.17185238 0.75500005 11644529
-0.1529543 0.17162476 0.75400001 10526048
-0.15111621 0.17116953 0.75200003 10000222
-0.14928573 0.1707143 0.75000006 9539671
-0.14766 0.17048667 0.74900001 9867866
-0.14623334 0.17048667 0.74900001 9670487
-0.14422667 0.16980381 0.74600005 9932887
-0.14280573 0.16980381 0.74600005 9998680
-0.14138477 0.16980381 0.74600005 9867607
-0.13958858 0.16934858 0.74400002 10064986
-0.13817143 0.16934858 0.74400002 10394464
-0.13638668 0.16889334 0.74200004 10591843
-0.13497335 0.16889334 0.74200004 10657112
-0.13338001 0.16866572 0.74100006 10722905
-0.13196859 0.16866572 0.74100006 11051106
-0.13055715 0.16866572 0.74100006 11248485
-0.12914573 0.16866572 0.74100006 11642719
-0.1277343 0.16866572 0.74100006 12103270
-0.12598191 0.16821048 0.73900002 11642469
-0.1245743 0.16821048 0.73900002 11576676
-0.12316667 0.16821048 0.73900002 11642469
-0.12175905 0.16821048 0.73900002 11576676
-0.12067715 0.16866572 0.74100006 11709009
-0.11926573 0.16866572 0.74100006 12235353
-0.11801334 0.16889334 0.74200004 12168315
-0.11660001 0.16889334 0.74200004 12168315
-0.11518667 0.16889334 0.74200004 11839348
-0.11377334 0.16889334 0.74200004 11839348
-0.11236 0.16889334 0.74200004 11773798
-0.11094667 0.16889334 0.74200004 11379040
-0.10953334 0.16889334 0.74200004 11378788
-0.10841143 0.16934858 0.74400002 10852444
-0.10699429 0.16934858 0.74400002 10524010
-0.10586096 0.16980381 0.74600005 10392424
-0.10444001 0.16980381 0.74600005 9537361
-0.10315715 0.17003143 0.74700004 9405775
-0.10173429 0.17003143 0.74700004 9538644
-0.10031143 0.17003143 0.74700004 9801816
-0.098888576 0.17003143 0.74700004 9603420
-0.097726665 0.17048667 0.74900001 9274455
-0.096685715 0.17116953 0.75200003 9865817
-0.095253341 0.17116953 0.75200003 10655333
-0.094070479 0.17162476 0.75400001 11246448
-0.092757143 0.17185238 0.75500005 12891273
-0.091560952 0.17230763 0.75700003 12825721
-0.090357147 0.17276287 0.75900006 12759928
-0.08914572 0.1732181 0.76100004 12825721
-0.087811433 0.17344572 0.76200002 13417858
-0.086586677 0.17390096 0.76400006 13090167
-0.085354283 0.17435619 0.76600003 12366444
-0.08400476 0.17458381 0.76700002 12497530
-0.082759053 0.17503907 0.76900005 15655594
-0.081294291 0.17503907 0.76900005 15919802
-0.079829529 0.17503907 0.76900005 16777167
-0.16038287 0.17489713 0.76200002 16185049
-0.15872286 0.17466763 0.76100004 15459508
-0.15686001 0.1742086 0.75900006 11972479
-0.15459524 0.17329049 0.75500005 11512943
-0.1529543 0.17306095 0.75400001 10460255
-0.15111621 0.17260191 0.75200003 10000206
-0.14928573 0.17214286 0.75000006 9868620
-0.14785716 0.17214286 0.75000006 9868107
-0.14623334 0.17191334 0.74900001 9999693
-0.14442 0.1714543 0.74700004 10327885
-0.14280573 0.17122477 0.74600005 10327885
-0.14138477 0.17122477 0.74600005 10393172
-0.13958858 0.17076571 0.74400002 10524758
-0.13817143 0.17076571 0.74400002 11312993
-0.13675429 0.17076571 0.74400002 11641958
-0.13497335 0.17030667 0.74200004 11708012
-0.13356 0.17030667 0.74200004 11905391
-0.13214667 0.17030667 0.74200004 12167282
-0.13073334 0.17030667 0.74200004 12298868
-0.12914573 0.17007715 0.74100006 12364904
-0.1277343 0.17007715 0.74100006 12299111
-0.12598191 0.1696181 0.73900002 11839078
-0.1245743 0.1696181 0.73900002 11970664
-0.12316667 0.1696181 0.73900002 11970927
-0.12175905 0.1696181 0.73900002 11905134
-0.12067715 0.17007715 0.74100006 12299118
-0.11926573 0.17007715 0.74100006 12364911
-0.11801334 0.17030667 0.74200004 11838828
-0.11660001 0.17030667 0.74200004 11641449
-0.11518667 0.17030667 0.74200004 11509883
-0.11377334 0.17030667 0.74200004 11378297
-0.11236 0.17030667 0.74200004 11116127
-0.11094667 0.17030667 0.74200004 11116127
-0.10982857 0.17076571 0.74400002 10853489
-0.10841143 0.17076571 0.74400002 10458731
-0.10728192 0.17122477 0.74600005 8684886
-0.10586096 0.17122477 0.74600005 7566405
-0.10444001 0.17122477 0.74600005 7172138
-0.10315715 0.1714543 0.74700004 7303724
-0.10173429 0.1714543 0.74700004 7304251
-0.10031143 0.1714543 0.74700004 7435837
-0.099153332 0.17191334 0.74900001 7370062
-0.097726665 0.17191334 0.74900001 6646339
-0.096685715 0.17260191 0.75200003 7236400
-0.095253341 0.17260191 0.75200003 7302193
-0.094070479 0.17306095 0.75400001 10455367
-0.093002863 0.17374954 0.75700003 13152880
-0.091560952 0.17374954 0.75700003 13088893
-0.090357147 0.1742086 0.75900006 13088893
-0.08914572 0.17466763 0.76100004 13089399
-0.087811433 0.17489713 0.76200002 13418364
-0.086586677 0.17535619 0.76400006 13221244
-0.085465722 0.17604476 0.76700002 12563314
-0.08400476 0.17604476 0.76700002 12430963
-0.082759053 0.17650382 0.76900005 15654820
-0.081505716 0.17696285 0.77100003 15919802
-0.1618343 0.17634857 0.76200002 16447184
-0.16038287 0.17634857 0.76200002 16512977
-0.15872286 0.17611715 0.76100004 15525310
-0.15686001 0.17565429 0.75900006 12367246
-0.15500477 0.17519143 0.75700003 11644020
-0.1529543 0.17449714 0.75400001 11512434
-0.15111621 0.1740343 0.75200003 11775604
-0.14928573 0.17357144 0.75000006 11972983
-0.14785716 0.17357144 0.75000006 12104562
-0.14623334 0.17334001 0.74900001 12170355
-0.14442 0.17287715 0.74700004 12366455
-0.14280573 0.17264573 0.74600005 12366455
-0.14138477 0.17264573 0.74600005 12300158
-0.13958858 0.17218286 0.74400002 12365951
-0.13817143 0.17218286 0.74400002 12168306
-0.13675429 0.17218286 0.74400002 12234099
-0.13533714 0.17218286 0.74400002 12299377
-0.13356 0.17172001 0.74200004 12430963
-0.13214667 0.17172001 0.74200004 12298868
-0.13073334 0.17172001 0.74200004 12233075
-0.12932001 0.17172001 0.74200004 12298582
-0.1277343 0.17148858 0.74100006 11706445
-0.12632287 0.17148858 0.74100006 11640425
-0.12491144 0.17148858 0.74100006 12561527
-0.12316667 0.17102572 0.73900002 12234338
-0.12175905 0.17102572 0.73900002 11444822
-0.12084001 0.17172001 0.74200004 10917996
-0.11942668 0.17172001 0.74200004 10720617
-0.11801334 0.17172001 0.74200004 10130245
-0.11660001 0.17172001 0.74200004 9801280
-0.11518667 0.17172001 0.74200004 9406565
-0.11377334 0.17172001 0.74200004 8946014
-0.11236 0.17172001 0.74200004 8025898
-0.11124572 0.17218286 0.74400002 6907417
-0.10982857 0.17218286 0.74400002 6711587
-0.10841143 0.17218286 0.74400002 6645794
-0.10728192 0.17264573 0.74600005 5792034
-0.10586096 0.17264573 0.74600005 5002518
-0.10458001 0.17287715 0.74700004 5068570
-0.10315715 0.17287715 0.74700004 4279054
-0.10173429 0.17287715 0.74700004 5003806
-0.10058 0.17334001 0.74900001 5135392
-0.099153332 0.17334001 0.74900001 4938039
-0.097857147 0.17357144 0.75000006 4477488
-0.096685715 0.1740343 0.75200003 5067317
-0.095506661 0.17449714 0.75400001 4738352
-0.094070479 0.17449714 0.75400001 6049626
-0.093002863 0.17519143 0.75700003 11839410
-0.091802858 0.17565429 0.75900006 13023354
-0.090595245 0.17611715 0.76100004 13154940
-0.089262858 0.17634857 0.76200002 13089397
-0.088041909 0.17681144 0.76400006 13549948
-0.086813338 0.17727429 0.76600003 13024113
-0.085465722 0.17750572 0.76700002 12497769
-0.08400476 0.17750572 0.76700002 12562812
-0.082759053 0.17796859 0.76900005 15589290
-0.081505716 0.17843144 0.77100003 15920063
-0.16225906 0.17826667 0.76400006 16446933
-0.16080381 0.17826667 0.76400006 16512726
-0.15872286 0.17756668 0.76100004 15460023
-0.15686001 0.17710002 0.75900006 12433545
-0.15500477 0.17663334 0.75700003 12365935
-0.1529543 0.17593333 0.75400001 12431728
-0.15111621 0.17546667 0.75200003 12497528
-0.14968382 0.17546667 0.75200003 12826493
-0.14785716 0.17500001 0.75000006 12826752
-0.14642859 0.17500001 0.75000006 12629373
-0.14442 0.17430001 0.74700004 12760198
-0.14280573 0.17406668 0.74600005 12497026
-0.14138477 0.17406668 0.74600005 12627835
-0.13996382 0.17406668 0.74600005 12562042
-0.13854288 0.17406668 0.74600005 12364913
-0.13675429 0.1736 0.74400002 12233327
-0.13533714 0.1736 0.74400002 12233075
-0.13392 0.1736 0.74400002 11969903
-0.13214667 0.17313334 0.74200004 11968876
-0.13073334 0.17313334 0.74200004 12034669
-0.12932001 0.17313334 0.74200004 12231767
-0.1277343 0.17290001 0.74100006 11837009
-0.12632287 0.17290001 0.74100006 11378007
-0.12491144 0.17290001 0.74100006 12233316
-0.1235 0.17290001 0.74100006 12103022
-0.12208858 0.17290001 0.74100006 10655576
-0.12084001 0.17313334 0.74200004 10524240
-0.11942668 0.17313334 0.74200004 10392654
-0.11801334 0.17313334 0.74200004 9671750
-0.11691429 0.1736 0.74400002 8816441
-0.11549714 0.1736 0.74400002 8553550
-0.11408 0.1736 0.74400002 7961413
-0.11266286 0.1736 0.74400002 7437065
-0.11154477 0.17406668 0.74600005 5858048
-0.11012381 0.17406668 0.74600005 5268232
-0.10870286 0.17406668 0.74600005 4741888
-0.10728192 0.17406668 0.74600005 4872211
-0.10586096 0.17406668 0.74600005 4740625
-0.10458001 0.17430001 0.74700004 4544286
-0.10315715 0.17430001 0.74700004 4083735
-0.10200667 0.17476667 0.74900001 4282411
-0.10058 0.17476667 0.74900001 4216618
-0.099285722 0.17500001 0.75000006 4282185
-0.098118097 0.17546667 0.75200003 3887427
-0.096942857 0.17593333 0.75400001 4083261
-0.095506661 0.17593333 0.75400001 3425331
-0.094195247 0.17616667 0.75500005 5132062
-0.093002863 0.17663334 0.75700003 11316604
-0.091802858 0.17710002 0.75900006 12563839
-0.090595245 0.17756668 0.76100004 12958597
-0.089262858 0.1778 0.76200002 12760945
-0.088041909 0.17826667 0.76400006 13287289
-0.086813338 0.17873335 0.76600003 12629623
-0.085465722 0.17896667 0.76700002 12366451
-0.08400476 0.17896667 0.76700002 12365683
-0.082759053 0.17943335 0.76900005 15523747
-0.081505716 0.17990001 0.77100003 16051649
-0.1616219 0.1790162 0.76100004 16446935
-0.16017239 0.1790162 0.76100004 16776157
-0.15872286 0.1790162 0.76100004 16512698
-0.15686001 0.17854573 0.75900006 13420427
-0.15500477 0.17807524 0.75700003 13089928
-0.15315716 0.17760478 0.75500005 13287307
-0.15151809 0.17736953 0.75400001 13089919
-0.14968382 0.17689905 0.75200003 12760954
-0.14825143 0.17689905 0.75200003 12957561
-0.14642859 0.17642859 0.75000006 12760182
-0.14442 0.17572285 0.74700004 12693113
-0.14299715 0.17572285 0.74700004 11706218
-0.14138477 0.17548762 0.74600005 11902554
-0.13996382 0.17548762 0.74600005 11705175
-0.13854288 0.17548762 0.74600005 11705166
-0.13675429 0.17501715 0.74400002 11441994
-0.13533714 0.17501715 0.74400002 10848585
-0.13392 0.17501715 0.74400002 10519620
-0.13250287 0.17501715 0.74400002 10519879
-0.13073334 0.17454667 0.74200004 11243602
-0.12932001 0.17454667 0.74200004 11113027
-0.12790667 0.17454667 0.74200004 11441992
-0.12632287 0.17431143 0.74100006 11443268
-0.12491144 0.17431143 0.74100006 12364370
-0.1235 0.17431143 0.74100006 11840075
-0.12208858 0.17431143 0.74100006 10392629
-0.12116572 0.17501715 0.74400002 9735485
-0.11974857 0.17501715 0.74400002 9801278
-0.11833142 0.17501715 0.74400002 9276733
-0.11691429 0.17501715 0.74400002 8881975
-0.11549714 0.17501715 0.74400002 7962942
-0.11408 0.17501715 0.74400002 7568184
-0.11266286 0.17501715 0.74400002 6122764
-0.11154477 0.17548762 0.74600005 5333248
-0.11012381 0.17548762 0.74600005 5137152
-0.10870286 0.17548762 0.74600005 4610816
-0.10728192 0.17548762 0.74600005 4282906
-0.10586096 0.17548762 0.74600005 3953941
-0.10458001 0.17572285 0.74700004 3822862
-0.10315715 0.17572285 0.74700004 3757069
-0.10200667 0.17619334 0.74900001 3823149
-0.10058 0.17619334 0.74900001 3954735
-0.099285722 0.17642859 0.75000006 3953999
-0.098118097 0.17689905 0.75200003 3822413
-0.096942857 0.17736953 0.75400001 3756111
-0.095506661 0.17736953 0.75400001 3229767
-0.094195247 0.17760478 0.75500005 5460810
-0.093002863 0.17807524 0.75700003 11119008
-0.091802858 0.17854573 0.75900006 12760448
-0.090595245 0.1790162 0.76100004 13549964
-0.089262858 0.17925143 0.76200002 13418360
-0.088041909 0.17972191 0.76400006 13681532
-0.086813338 0.1801924 0.76600003 13023872
-0.085465722 0.18042763 0.76700002 12826493
-0.08400476 0.18042763 0.76700002 12891264
-0.082759053 0.1808981 0.76900005 15588777
-0.081717148 0.18183906 0.77300006 16050618
-0.080244765 0.18183906 0.77300006 16776911
-0.16017239 0.18046573 0.76100004 16644316
-0.15872286 0.18046573 0.76100004 16512457
-0.15686001 0.17999144 0.75900006 13814944
-0.15500477 0.17951715 0.75700003 13813642
-0.15356287 0.17951715 0.75700003 13353091
-0.15171905 0.17904286 0.75500005 13155208
-0.1500819 0.17880571 0.75400001 12628864
-0.14825143 0.17833143 0.75200003 12759176
-0.14642859 0.17785716 0.75000006 12627590
-0.14480667 0.17762001 0.74900001 11574132
-0.14299715 0.17714572 0.74700004 11508339
-0.14138477 0.17690858 0.74600005 11176026
-0.13996382 0.17690858 0.74600005 10386510
-0.13854288 0.17690858 0.74600005 10451751
-0.13712192 0.17690858 0.74600005 10649130
-0.13533714 0.17643429 0.74400002 10648885
-0.13392 0.17643429 0.74400002 10780471
-0.13250287 0.17643429 0.74400002 10715709
-0.13108571 0.17643429 0.74400002 11373639
-0.12932001 0.17596 0.74200004 10850100
-0.12790667 0.17596 0.74200004 11310651
-0.12649333 0.17596 0.74200004 11180607
-0.12508002 0.17596 0.74200004 12233295
-0.12366667 0.17596 0.74200004 11248195
-0.12225334 0.17596 0.74200004 10261300
-0.12116572 0.17643429 0.74400002 9670187
-0.11974857 0.17643429 0.74400002 9801773
-0.11833142 0.17643429 0.74400002 8948524
-0.11691429 0.17643429 0.74400002 8685352
-0.11549714 0.17643429 0.74400002 7832097
-0.11408 0.17643429 0.74400002 7437339
-0.11266286 0.17643429 0.74400002 5860096
-0.11154477 0.17690858 0.74600005 5399552
-0.11012381 0.17690858 0.74600005 4547072
-0.10870286 0.17690858 0.74600005 4415488
-0.10728192 0.17690858 0.74600005 4151568
-0.10586096 0.17690858 0.74600005 3888396
-0.10458001 0.17714572 0.74700004 3363585
-0.10315715 0.17714572 0.74700004 3495171
-0.10200667 0.17762001 0.74900001 3363601
-0.10058 0.17762001 0.74900001 3626773
-0.099285722 0.17785716 0.75000006 3494988
-0.098118097 0.17833143 0.75200003 3166023
-0.096942857 0.17880571 0.75400001 1589778
-0.095506661 0.17880571 0.75400001 2379294
-0.094195247 0.17904286 0.75500005 5986109
-0.093002863 0.17951715 0.75700003 11512721
-0.092044763 0.18046573 0.76100004 12431226
-0.090714283 0.18070287 0.76200002 13220742
-0.089262858 0.18070287 0.76200002 12891514
-0.088041909 0.18117715 0.76400006 13352065
-0.086813338 0.18165143 0.76600003 12958338
-0.085465722 0.18188857 0.76700002 12760959
-0.08400476 0.18188857 0.76700002 12759412
-0.082543813 0.18188857 0.76700002 15259546
-0.081294291 0.18236287 0.76900005 15852980
-0.079829529 0.18236287 0.76900005 16775881
-0.16017239 0.18191525 0.76100004 16446942
-0.15872286 0.18191525 0.76100004 16578493
-0.15686001 0.18143716 0.75900006 14012566
-0.15500477 0.18095905 0.75700003 13616261
-0.15356287 0.18095905 0.75700003 13287296
-0.15171905 0.18048097 0.75500005 12891264
-0.1500819 0.1802419 0.75400001 11378025
-0.14825143 0.17976382 0.75200003 10124143
-0.14642859 0.17928572 0.75000006 9400420
-0.14480667 0.17904668 0.74900001 9594932
-0.14299715 0.17856857 0.74700004 9265967
-0.14138477 0.17832954 0.74600005 9987911
-0.13996382 0.17832954 0.74600005 10185290
-0.13854288 0.17832954 0.74600005 10121017
-0.13712192 0.17832954 0.74600005 10515775
-0.13533714 0.17785142 0.74400002 10384968
-0.13392 0.17785142 0.74400002 10779726
-0.13250287 0.17785142 0.74400002 10781511
-0.13108571 0.17785142 0.74400002 11505234
-0.12932001 0.17737333 0.74200004 10981704
-0.12790667 0.17737333 0.74200004 11179083
-0.12649333 0.17737333 0.74200004 11311948
-0.12508002 0.17737333 0.74200004 12298843
-0.12366667 0.17737333 0.74200004 11446337
-0.12225334 0.17737333 0.74200004 10459442
-0.12116572 0.17785142 0.74400002 9802820
-0.11974857 0.17785142 0.74400002 9868613
-0.11833142 0.17785142 0.74400002 9671225
-0.11691429 0.17785142 0.74400002 9605432
-0.11549714 0.17785142 0.74400002 9145397
-0.11438668 0.17832954 0.74600005 9211190
-0.11296572 0.17832954 0.74600005 8816693
-0.11154477 0.17832954 0.74600005 8619314
-0.11012381 0.17832954 0.74600005 8290124
-0.10870286 0.17832954 0.74600005 8290124
-0.10728192 0.17832954 0.74600005 8487001
-0.10600287 0.17856857 0.74700004 8618587
-0.10458001 0.17856857 0.74700004 8553814
-0.10315715 0.17856857 0.74700004 8619607
-0.10200667 0.17904668 0.74900001 8226125
-0.10058 0.17904668 0.74900001 7831367
-0.099550486 0.17976382 0.75200003 5924709
-0.098118097 0.17976382 0.75200003 3819333
-0.096942857 0.1802419 0.75400001 3821636
-0.095506661 0.1802419 0.75400001 6190184
-0.094195247 0.18048097 0.75500005 8221306
-0.093002863 0.18095905 0.75700003 11708335
-0.092044763 0.18191525 0.76100004 12562553
-0.090714283 0.1821543 0.76200002 13286276
-0.089497149 0.18263239 0.76400006 13088645
-0.088272385 0.18311048 0.76600003 13351817
-0.086813338 0.18311048 0.76600003 13155712
-0.085465722 0.18334952 0.76700002 12826747
-0.08400476 0.18334952 0.76700002 12759928
-0.082543813 0.18334952 0.76700002 14470546
-0.081294291 0.18382762 0.76900005 15524274
-0.079829529 0.18382762 0.76900005 16776140
-0.16017239 0.18336476 0.76100004 16578000
-0.15727334 0.18336476 0.76100004 14078618
-0.1554143 0.18288288 0.75900006 13550468
-0.15356287 0.18240096 0.75700003 12760952
-0.15171905 0.18191905 0.75500005 13152891
-0.1500819 0.1816781 0.75400001 9731655
-0.14825143 0.1811962 0.75200003 10778683
-0.14681906 0.1811962 0.75200003 9791788
-0.14480667 0.18047334 0.74900001 9724451
-0.14338 0.18047334 0.74900001 9790244
-0.14157429 0.17999144 0.74700004 9856046
-0.13996382 0.17975049 0.74600005 10513976
-0.13854288 0.17975049 0.74600005 10318364
-0.13712192 0.17975049 0.74600005 10713122
-0.13570096 0.17975049 0.74600005 10319913
-0.13392 0.17926858 0.74400002 10912050
-0.13250287 0.17926858 0.74400002 10716474
-0.13108571 0.17926858 0.74400002 11505990
-0.12932001 0.17878668 0.74200004 11311180
-0.12790667 0.17878668 0.74200004 11311180
-0.12649333 0.17878668 0.74200004 11904101
-0.12508002 0.17878668 0.74200004 12035687
-0.12366667 0.17878668 0.74200004 11183969
-0.12225334 0.17878668 0.74200004 10262867
-0.12116572 0.17926858 0.74400002 10262860
-0.11974857 0.17926858 0.74400002 10328653
-0.11833142 0.17926858 0.74400002 10459469
-0.11722858 0.17975049 0.74600005 10393676
-0.11580762 0.17975049 0.74600005 10393165
-0.11438668 0.17975049 0.74600005 10261579
-0.11296572 0.17975049 0.74600005 9998409
-0.11154477 0.17975049 0.74600005 10590546
-0.11012381 0.17975049 0.74600005 10459231
-0.10870286 0.17975049 0.74600005 10459231
-0.10728192 0.17975049 0.74600005 10524006
-0.10600287 0.17999144 0.74700004 10721385
-0.10458001 0.17999144 0.74700004 10656871
-0.10343333 0.18047334 0.74900001 10525285
-0.10200667 0.18047334 0.74900001 9934172
-0.10071429 0.18071429 0.75000006 9934172
-0.099550486 0.1811962 0.75200003 8555125
-0.098118097 0.1811962 0.75200003 5199682
-0.096942857 0.1816781 0.75400001 5198336
-0.095506661 0.1816781 0.75400001 8487978
-0.094195247 0.18191905 0.75500005 10917746
-0.093002863 0.18240096 0.75700003 12036227
-0.092044763 0.18336476 0.76100004 12693626
-0.090952389 0.18408762 0.76400006 13417349
-0.089497149 0.18408762 0.76400006 12891264
-0.088272385 0.18456952 0.76600003 13286022
-0.086926669 0.18481049 0.76700002 13155210
-0.085465722 0.18481049 0.76700002 12497280
-0.08400476 0.18481049 0.76700002 12759160
-0.082759053 0.18529238 0.76900005 14930329
-0.081294291 0.18529238 0.76900005 15524274
-0.079829529 0.18529238 0.76900005 16776140
-0.15727334 0.18481429 0.76100004 14407065
-0.1554143 0.18432859 0.75900006 13813390
-0.15356287 0.18384285 0.75700003 12694909
-0.15171905 0.18335715 0.75500005 11968372
-0.1500819 0.18311429 0.75400001 8218171
-0.14825143 0.18262857 0.75200003 9463096
-0.14681906 0.18262857 0.75200003 9857854
-0.14500001 0.18214287 0.75000006 10779969
-0.14338 0.18190001 0.74900001 10845762
-0.14157429 0.18141431 0.74700004 11042380
-0.13996382 0.18117143 0.74600005 11634517
-0.13854288 0.18117143 0.74600005 12229704
-0.13712192 0.18117143 0.74600005 12163911
-0.13570096 0.18117143 0.74600005 11902043
-0.13392 0.18068571 0.74400002 11967836
-0.13250287 0.18068571 0.74400002 11903585
-0.13108571 0.18068571 0.74400002 12166757
-0.12966858 0.18068571 0.74400002 11838826
-0.12790667 0.18020001 0.74200004 11707240
-0.12649333 0.18020001 0.74200004 11773051
-0.12508002 0.18020001 0.74200004 11773051
-0.12366667 0.18020001 0.74200004 11642487
-0.12225334 0.18020001 0.74200004 11576694
-0.12116572 0.18068571 0.74400002 11642989
-0.12007048 0.18117143 0.74600005 11708782
-0.11864953 0.18117143 0.74600005 11839346
-0.11722858 0.18117143 0.74600005 12036725
-0.11580762 0.18117143 0.74600005 11839348
-0.11438668 0.18117143 0.74600005 12036727
-0.11296572 0.18117143 0.74600005 12037236
-0.11154477 0.18117143 0.74600005 12103029
-0.11012381 0.18117143 0.74600005 12036725
-0.10870286 0.18117143 0.74600005 12299897
-0.10728192 0.18117143 0.74600005 12300412
-0.10600287 0.18141431 0.74700004 12695170
-0.10458001 0.18141431 0.74700004 12234869
-0.10343333 0.18190001 0.74900001 12366455
-0.10200667 0.18190001 0.74900001 12234617
-0.10071429 0.18214287 0.75000006 12431996
-0.099550486 0.18262857 0.75200003 11973501
-0.098118097 0.18262857 0.75200003 10131297
-0.096942857 0.18311429 0.75400001 10197596
-0.095633343 0.18335715 0.75500005 10394975
-0.094444767 0.18384285 0.75700003 10590053
-0.093002863 0.18384285 0.75700003 11445362
-0.092044763 0.18481429 0.76100004 12430706
-0.090714283 0.18505715 0.76200002 13680773
-0.089497149 0.18554287 0.76400006 13286015
-0.088272385 0.18602857 0.76600003 13286015
-0.086926669 0.18627143 0.76700002 13089163
-0.085465722 0.18627143 0.76700002 12562819
-0.08400476 0.18627143 0.76700002 12891266
-0.082759053 0.18675716 0.76900005 15259814
-0.081294291 0.18675716 0.76900005 15261618
-0.15872286 0.18626381 0.76100004 16511925
-0.15727334 0.18626381 0.76100004 14603928
-0.1554143 0.1857743 0.75900006 14141844
-0.15396857 0.1857743 0.75900006 12628605
-0.15212096 0.18528476 0.75700003 11572565
-0.15028097 0.18479526 0.75500005 8480294
-0.14864571 0.18455048 0.75400001 9723681
-0.14681906 0.18406096 0.75200003 10644783
-0.14500001 0.18357144 0.75000006 11174234
-0.14338 0.18332666 0.74900001 10911062
-0.14157429 0.18283714 0.74700004 11108934
-0.13996382 0.18259239 0.74600005 11701071
-0.13854288 0.18259239 0.74600005 12427633
-0.13712192 0.18259239 0.74600005 12690805
-0.13570096 0.18259239 0.74600005 12035957
-0.13392 0.18210286 0.74400002 11904371
-0.13250287 0.18210286 0.74400002 11773303
-0.13108571 0.18210286 0.74400002 12102268
-0.12966858 0.18210286 0.74400002 11906415
-0.12825143 0.18210286 0.74400002 12038001
-0.12649333 0.18161334 0.74200004 11971718
-0.12508002 0.18161334 0.74200004 11905925
-0.12366667 0.18161334 0.74200004 12102270
-0.12225334 0.18161334 0.74200004 11904891
-0.12116572 0.18210286 0.74400002 12101489
-0.12007048 0.18259239 0.74600005 12101489
-0.11864953 0.18259239 0.74600005 11773046
-0.11722858 0.18259239 0.74600005 12036218
-0.11580762 0.18259239 0.74600005 11773553
-0.11438668 0.18259239 0.74600005 12036725
-0.11296572 0.18259239 0.74600005 12299901
-0.11154477 0.18259239 0.74600005 12168315
-0.11012381 0.18259239 0.74600005 11839341
-0.10870286 0.18259239 0.74600005 12299892
-0.10742572 0.18283714 0.74700004 12365942
-0.10600287 0.18283714 0.74700004 12365942
-0.10458001 0.18283714 0.74700004 12365433
-0.10343333 0.18332666 0.74900001 12562812
-0.10200667 0.18332666 0.74900001 12628103
-0.10071429 0.18357144 0.75000006 12825482
-0.099550486 0.18406096 0.75200003 12891544
-0.098118097 0.18406096 0.75200003 11246719
-0.096942857 0.18455048 0.75400001 10984827
-0.095633343 0.18479526 0.75500005 10261104
-0.094444767 0.18528476 0.75700003 9866328
-0.093002863 0.18528476 0.75700003 11642739
-0.092044763 0.18626381 0.76100004 12101739
-0.090714283 0.18650857 0.76200002 13088634
-0.089497149 0.18699811 0.76400006 13022589
-0.088387616 0.18773238 0.76700002 13285761
-0.086926669 0.18773238 0.76700002 13023113
-0.085688576 0.18822192 0.76900005 12825734
-0.084223814 0.18822192 0.76900005 12892029
-0.082974285 0.18871143 0.77100003 14405268
-0.081505716 0.18871143 0.77100003 14998952
-0.16080381 0.18845335 0.76400006 16643525
-0.15872286 0.18771334 0.76100004 16577212
-0.15727334 0.18771334 0.76100004 14537629
-0.15582381 0.18771334 0.76100004 14076310
-0.15396857 0.18722001 0.75900006 12563071
-0.15252288 0.18722001 0.75900006 11179351
-0.15067905 0.18672667 0.75700003 9797698
-0.14884287 0.18623334 0.75500005 11046493
-0.14720953 0.18598665 0.75400001 12559732
-0.14500001 0.18500002 0.75000006 10060893
-0.14338 0.18475333 0.74900001 8152896
-0.14195333 0.18475333 0.74900001 8481557
-0.13996382 0.18401335 0.74600005 8613143
-0.13854288 0.18401335 0.74600005 10125146
-0.13712192 0.18401335 0.74600005 13020038
-0.13570096 0.18401335 0.74600005 12364672
-0.13428 0.18401335 0.74600005 12101500
-0.13250287 0.18352 0.74400002 12036484
-0.13108571 0.18352 0.74400002 12102277
-0.12966858 0.18352 0.74400002 12037468
-0.12825143 0.18352 0.74400002 12169054
-0.12649333 0.18302667 0.74200004 12037511
-0.12508002 0.18302667 0.74200004 12169097
-0.12366667 0.18302667 0.74200004 12233847
-0.12225334 0.18302667 0.74200004 11773296
-0.12116572 0.18352 0.74400002 11838835
-0.12007048 0.18401335 0.74600005 11838835
-0.11864953 0.18401335 0.74600005 11773051
-0.11722858 0.18401335 0.74600005 12102016
-0.11580762 0.18401335 0.74600005 12036466
-0.11438668 0.18401335 0.74600005 11773294
-0.11296572 0.18401335 0.74600005 12365685
-0.11154477 0.18401335 0.74600005 11970927
-0.11012381 0.18401335 0.74600005 11970675
-0.10870286 0.18401335 0.74600005 12365433
-0.10742572 0.18426001 0.74700004 12300401
-0.10600287 0.18426001 0.74700004 12366194
-0.10458001 0.18426001 0.74700004 11971438
-0.10343333 0.18475333 0.74900001 11181922
-0.10200667 0.18475333 0.74900001 10129267
-0.10071429 0.18500002 0.75000006 9668716
-0.099550486 0.18549334 0.75200003 7761489
-0.098118097 0.18549334 0.75200003 7432524
-0.096942857 0.18598665 0.75400001 6446669
-0.095633343 0.18623334 0.75500005 3617570
-0.094444767 0.18672667 0.75700003 6509907
-0.093002863 0.18672667 0.75700003 12497070
-0.092044763 0.18771334 0.76100004 13023606
-0.090714283 0.18796 0.76200002 12957813
-0.089497149 0.18845335 0.76400006 13088382
-0.088387616 0.18919334 0.76700002 13483140
-0.086926669 0.18919334 0.76700002 13286785
-0.085688576 0.18968669 0.76900005 12892027
-0.084223814 0.18968669 0.76900005 12826236
-0.082974285 0.19018 0.77100003 14010510
-0.081717148 0.19067335 0.77300006 15327147
-0.080244765 0.19067335 0.77300006 16776135
-0.16080381 0.18990859 0.76400006 16512716
-0.15934858 0.18990859 0.76400006 16446403
-0.15748 0.18941143 0.76200002 14538406
-0.15582381 0.18916285 0.76100004 13945244
-0.15437429 0.18916285 0.76100004 12563591
-0.15252288 0.18866573 0.75900006 11246691
-0.15067905 0.18816859 0.75700003 11115105
-0.14884287 0.18767144 0.75500005 11180405
-0.14720953 0.18742286 0.75400001 11048819
-0.14538667 0.18692571 0.75200003 9077314
-0.14357144 0.18642858 0.75000006 7169317
-0.14195333 0.18618 0.74900001 6778416
-0.14015144 0.18568286 0.74700004 6515244
-0.13872857 0.18568286 0.74700004 8219929
-0.13730572 0.18568286 0.74700004 12562267
-0.13570096 0.1854343 0.74600005 12168070
-0.13428 0.1854343 0.74600005 11970691
-0.13285907 0.1854343 0.74600005 12036736
-0.13108571 0.18493715 0.74400002 12102529
-0.12966858 0.18493715 0.74400002 11971695
-0.12825143 0.18493715 0.74400002 11971695
-0.12649333 0.18444002 0.74200004 11840132
-0.12508002 0.18444002 0.74200004 11905925
-0.12366667 0.18444002 0.74200004 12036232
-0.12225334 0.18444002 0.74200004 11509888
-0.12116572 0.18493715 0.74400002 10656110
-0.12007048 0.1854343 0.74600005 10590317
-0.11864953 0.1854343 0.74600005 11181418
-0.11722858 0.1854343 0.74600005 12234106
-0.11580762 0.1854343 0.74600005 12168070
-0.11438668 0.1854343 0.74600005 11970691
-0.11296572 0.1854343 0.74600005 12562571
-0.11154477 0.1854343 0.74600005 12102020
-0.11012381 0.1854343 0.74600005 12102020
-0.10870286 0.1854343 0.74600005 12299399
-0.10742572 0.18568286 0.74700004 12103568
-0.10600287 0.18568286 0.74700004 11774603
-0.10458001 0.18568286 0.74700004 10262635
-0.10343333 0.18618 0.74900001 10328428
-0.10214286 0.18642858 0.75000006 8750677
-0.10098286 0.18692571 0.75200003 6974266
-0.099550486 0.18692571 0.75200003 4346112
-0.098379053 0.18742286 0.75400001 4872452
-0.097071439 0.18767144 0.75500005 5198401
-0.095633343 0.18767144 0.75500005 3290404
-0.094444767 0.18816859 0.75700003 6445067
-0.093002863 0.18816859 0.75700003 13024367
-0.092044763 0.18916285 0.76100004 13155712
-0.090714283 0.18941143 0.76200002 12892540
-0.089731432 0.19040573 0.76600003 13023100
-0.088387616 0.19065429 0.76700002 13352065
-0.087153338 0.19115144 0.76900005 13549964
-0.085688576 0.19115144 0.76900005 12826241
-0.084442854 0.19164857 0.77100003 12562794
-0.083189532 0.19214574 0.77300006 14141826
-0.081717148 0.19214574 0.77300006 15590062
-0.080244765 0.19214574 0.77300006 16775621
-0.078772388 0.19214574 0.77300006 16579022
-0.15934858 0.19136383 0.76400006 16512457
-0.15789334 0.19136383 0.76400006 14736046
-0.1564381 0.19136383 0.76400006 14010787
-0.15457714 0.19086286 0.76200002 13221271
-0.15292478 0.19061239 0.76100004 11443335
-0.15107715 0.19011144 0.75900006 11443335
-0.14923714 0.18961048 0.75700003 11378815
-0.14720953 0.18885905 0.75400001 9865576
-0.14538667 0.18835811 0.75200003 7760693
-0.14357144 0.18785715 0.75000006 7826486
-0.14214288 0.18785715 0.75000006 9801305
-0.14015144 0.18710573 0.74700004 10327649
-0.13872857 0.18710573 0.74700004 10326872
-0.13730572 0.18710573 0.74700004 9800528
-0.13588285 0.18710573 0.74700004 10194775
-0.13428 0.18685524 0.74600005 10194775
-0.13285907 0.18685524 0.74600005 11510606
-0.13143811 0.18685524 0.74600005 11905364
-0.13001715 0.18685524 0.74600005 11642210
-0.12825143 0.18635428 0.74400002 10655315
-0.12683429 0.18635428 0.74400002 11379558
-0.12541714 0.18635428 0.74400002 11642730
-0.124 0.18635428 0.74400002 11707760
-0.12258286 0.18635428 0.74400002 9668177
-0.12149144 0.18685524 0.74600005 7034713
-0.12007048 0.18685524 0.74600005 6113611
-0.11864953 0.18685524 0.74600005 8614964
-0.11722858 0.18685524 0.74600005 11641442
-0.11580762 0.18685524 0.74600005 11378027
-0.11438668 0.18685524 0.74600005 10062167
-0.11296572 0.18685524 0.74600005 8747612
-0.11154477 0.18685524 0.74600005 8616026
-0.11012381 0.18685524 0.74600005 9075542
-0.10870286 0.18685524 0.74600005 9404507
-0.10742572 0.18710573 0.74700004 8946001
-0.10628667 0.18760666 0.74900001 6051109
-0.10486 0.18760666 0.74900001 6773760
-0.10357144 0.18785715 0.75000006 7234311
-0.10214286 0.18785715 0.75000006 6971393
-0.10098286 0.18835811 0.75200003 7037186
-0.099550486 0.18835811 0.75200003 6382647
-0.098379053 0.18885905 0.75400001 6711612
-0.097071439 0.18910953 0.75500005 5396573
-0.09588667 0.18961048 0.75700003 3554369
-0.094444767 0.18961048 0.75700003 7498576
-0.093248583 0.19011144 0.75900006 12564637
-0.092044763 0.19061239 0.76100004 13089395
-0.090952389 0.19136383 0.76400006 13023602
-0.089731432 0.19186477 0.76600003 13022841
-0.088387616 0.19211525 0.76700002 13088634
-0.087153338 0.19261619 0.76900005 13155960
-0.08591143 0.19311716 0.77100003 13024374
-0.084442854 0.19311716 0.77100003 12431483
-0.083189532 0.1936181 0.77300006 14076308
-0.081717148 0.1936181 0.77300006 15063977
-0.080244765 0.1936181 0.77300006 16775366
-0.078772388 0.1936181 0.77300006 16645585
-0.15934858 0.19281907 0.76400006 16512718
-0.15789334 0.19281907 0.76400006 14670514
-0.1564381 0.19281907 0.76400006 13944992
-0.15498286 0.19281907 0.76400006 13089683
-0.1531257 0.1923143 0.76200002 12365703
-0.15107715 0.19155715 0.75900006 12168324
-0.14923714 0.19105239 0.75700003 11774343
-0.14720953 0.19029523 0.75400001 8550486
-0.14538667 0.18979049 0.75200003 7826432
-0.14357144 0.18928573 0.75000006 8944898
-0.14214288 0.18928573 0.75000006 11639944
-0.14052667 0.18903333 0.74900001 11705737
-0.1391 0.18903333 0.74900001 10722675
-0.13767333 0.18903333 0.74900001 6972474
-0.13588285 0.18852858 0.74700004 7431478
-0.13446002 0.18852858 0.74700004 8155201
-0.13285907 0.1882762 0.74600005 10126409
-0.13143811 0.1882762 0.74600005 11047511
-0.13001715 0.1882762 0.74600005 10391904
-0.1285962 0.1882762 0.74600005 9733974
-0.12683429 0.18777142 0.74400002 9207637
-0.12541714 0.18777142 0.74400002 10457704
-0.124 0.18777142 0.74400002 10655860
-0.12258286 0.18777142 0.74400002 9142621
-0.12149144 0.1882762 0.74600005 5790474
-0.12007048 0.1882762 0.74600005 5461509
-0.11864953 0.1882762 0.74600005 7495186
-0.11722858 0.1882762 0.74600005 9337390
-0.11580762 0.1882762 0.74600005 9864529
-0.11454 0.18852858 0.74700004 7101223
-0.11311714 0.18852858 0.74700004 6838569
-0.11169429 0.18852858 0.74700004 7101741
-0.11027143 0.18852858 0.74700004 6971904
-0.10884858 0.18852858 0.74700004 9340450
-0.10742572 0.18852858 0.74700004 8487279
-0.10628667 0.18903333 0.74900001 4013355
-0.10486 0.18903333 0.74900001 5652224
-0.10357144 0.18928573 0.75000006 6441733
-0.10214286 0.18928573 0.75000006 6244608
-0.10098286 0.18979049 0.75200003 8678938
-0.099550486 0.18979049 0.75200003 7959619
-0.098379053 0.19029523 0.75400001 8091205
-0.097071439 0.19054763 0.75500005 7237975
-0.09588667 0.19105239 0.75700003 5658943
-0.094444767 0.19105239 0.75700003 8551516
-0.093248583 0.19155715 0.75900006 12564889
-0.092044763 0.19206192 0.76100004 12891768
-0.090952389 0.19281907 0.76400006 12957561
-0.089731432 0.19332381 0.76600003 12957302
-0.0886181 0.19408096 0.76900005 13154681
-0.087379999 0.19458571 0.77100003 13089917
-0.08591143 0.19458571 0.77100003 12695159
-0.084661908 0.19509049 0.77300006 12300658
-0.083189532 0.19509049 0.77300006 13879690
-0.081717148 0.19509049 0.77300006 14998171
-0.080244765 0.19509049 0.77300006 16776381
-0.078772388 0.19509049 0.77300006 16646105
-0.15976572 0.19478285 0.76600003 16512718
-0.15830666 0.19478285 0.76600003 14604721
-0.15684763 0.19478285 0.76600003 13944994
-0.15498286 0.19427431 0.76400006 13155478
-0.1531257 0.19376571 0.76200002 12430985
-0.15107715 0.19300286 0.75900006 12233606
-0.14923714 0.19249429 0.75700003 11840382
-0.14720953 0.19173144 0.75400001 8484939
-0.14538667 0.19122286 0.75200003 7760414
-0.14395429 0.19122286 0.75200003 10392134
-0.14214288 0.1907143 0.75000006 11443575
-0.1407143 0.1907143 0.75000006 10522473
-0.13928573 0.1907143 0.75000006 9076814
-0.13785715 0.1907143 0.75000006 6313508
-0.13588285 0.18995143 0.74700004 6052177
-0.13446002 0.18995143 0.74700004 5262661
-0.13285907 0.18969715 0.74600005 6312216
-0.13143811 0.18969715 0.74600005 7891248
-0.13001715 0.18969715 0.74600005 6179104
-0.1285962 0.18969715 0.74600005 6047518
-0.12683429 0.18918858 0.74400002 5853223
-0.12541714 0.18918858 0.74400002 3747847
-0.124 0.18918858 0.74400002 6840343
-0.12258286 0.18918858 0.74400002 7629859
-0.12149144 0.18969715 0.74600005 6641152
-0.12007048 0.18969715 0.74600005 6575360
-0.11864953 0.18969715 0.74600005 7561802
-0.11738572 0.18995143 0.74700004 7430216
-0.11596286 0.18995143 0.74700004 7035178
-0.11454 0.18995143 0.74700004 6772006
-0.11311714 0.18995143 0.74700004 7497026
-0.11169429 0.18995143 0.74700004 7431233
-0.11027143 0.18995143 0.74700004 7235328
-0.10884858 0.18995143 0.74700004 8945932
-0.10771333 0.19046 0.74900001 8222810
-0.10628667 0.19046 0.74900001 4077851
-0.10486 0.19046 0.74900001 5654321
-0.10357144 0.1907143 0.75000006 6509630
-0.10214286 0.1907143 0.75000006 6443032
-0.10098286 0.19122286 0.75200003 8416822
-0.099815235 0.19173144 0.75400001 8155953
-0.098379053 0.19173144 0.75400001 8090160
-0.097071439 0.19198573 0.75500005 7171647
-0.09588667 0.19249429 0.75700003 5658408
-0.094694294 0.19300286 0.75900006 8485965
-0.093248583 0.19300286 0.75900006 12630924
-0.092044763 0.19351144 0.76100004 12957568
-0.090952389 0.19427431 0.76400006 13023361
-0.089731432 0.19478285 0.76600003 13088893
-0.088387616 0.19503714 0.76700002 13352065
-0.087379999 0.19605429 0.77100003 13089665
-0.08591143 0.19605429 0.77100003 12760700
-0.084661908 0.19656287 0.77300006 12563580
-0.083189532 0.19656287 0.77300006 13879440
-0.081717148 0.19656287 0.77300006 15129757
-0.080348574 0.19681716 0.77400005 16776895
-0.07887429 0.19681716 0.77400005 16646103
-0.15976572 0.19624192 0.76600003 16578511
-0.15830666 0.19624192 0.76600003 14867893
-0.15684763 0.19624192 0.76600003 14273957
-0.15498286 0.19572954 0.76400006 13155476
-0.1531257 0.19521715 0.76200002 12760191
-0.15107715 0.19444859 0.75900006 12825984
-0.14923714 0.1939362 0.75700003 11906681
-0.14740478 0.19342382 0.75500005 8353859
-0.14538667 0.19265525 0.75200003 7168256
-0.14395429 0.19265525 0.75200003 10655271
-0.14252192 0.19265525 0.75200003 11773340
-0.1407143 0.19214287 0.75000006 9865343
-0.13928573 0.19214287 0.75000006 8222005
-0.13785715 0.19214287 0.75000006 6577180
-0.13588285 0.19137429 0.74700004 7235152
-0.13446002 0.19137429 0.74700004 5458741
-0.13303715 0.19137429 0.74700004 5195777
-0.1316143 0.19137429 0.74700004 5327363
-0.13001715 0.19111811 0.74600005 5520384
-0.1285962 0.19111811 0.74600005 7033613
-0.12683429 0.19060571 0.74400002 5920339
-0.12541714 0.19060571 0.74400002 3025447
-0.12433334 0.19111811 0.74600005 6247945
-0.12291239 0.19111811 0.74600005 6511117
-0.12165429 0.19137429 0.74700004 4993536
-0.12023143 0.19137429 0.74700004 8809522
-0.11880857 0.19137429 0.74700004 9011056
-0.11738572 0.19137429 0.74700004 6774094
-0.11596286 0.19137429 0.74700004 6050560
-0.11454 0.19137429 0.74700004 7892752
-0.11311714 0.19137429 0.74700004 9799807
-0.11169429 0.19137429 0.74700004 7365466
-0.11027143 0.19137429 0.74700004 5522944
-0.10914 0.19188666 0.74900001 8812584
-0.10785715 0.19214287 0.75000006 8025433
-0.10642858 0.19214287 0.75000006 5064748
-0.105 0.19214287 0.75000006 5656890
-0.10384762 0.19265525 0.75200003 5525304
-0.10241524 0.19265525 0.75200003 6180378
-0.10125143 0.19316763 0.75400001 8088375
-0.099815235 0.19316763 0.75400001 7694603
-0.098379053 0.19316763 0.75400001 8023568
-0.097071439 0.19342382 0.75500005 7236632
-0.09588667 0.1939362 0.75700003 6841874
-0.094694294 0.19444859 0.75900006 8879426
-0.093494289 0.19496097 0.76100004 12892799
-0.092165716 0.19521715 0.76200002 12826493
-0.090952389 0.19572954 0.76400006 12892286
-0.089731432 0.19624192 0.76600003 13023100
-0.088387616 0.1964981 0.76700002 13220479
-0.087379999 0.19752286 0.77100003 13155201
-0.086134292 0.19803524 0.77300006 12957822
-0.084661908 0.19803524 0.77300006 12365681
-0.083189532 0.19803524 0.77300006 13878920
-0.081822865 0.19829144 0.77400005 15261345
-0.080348574 0.19829144 0.77400005 16776897
-0.07887429 0.19829144 0.77400005 16580310
-0.16122477 0.19770096 0.76600003 16578754
-0.15976572 0.19770096 0.76600003 16446918
-0.15830666 0.19770096 0.76600003 15196851
-0.15684763 0.19770096 0.76600003 14274211
-0.15498286 0.19718479 0.76400006 13287316
-0.1531257 0.19666858 0.76200002 12957829
-0.15107715 0.1958943 0.75900006 13221001
-0.14923714 0.19537809 0.75700003 12039294
-0.14740478 0.19486192 0.75500005 8091714
-0.14538667 0.19408762 0.75200003 6973728
-0.14395429 0.19408762 0.75200003 8947518
-0.14252192 0.19408762 0.75200003 9273724
-0.1407143 0.19357145 0.75000006 8615794
-0.13928573 0.19357145 0.75000006 7234356
-0.13785715 0.19357145 0.75000006 6313254
-0.13642858 0.19357145 0.75000006 6708549
-0.13482 0.19331333 0.74900001 6247998
-0.13339333 0.19331333 0.74900001 6314043
-0.13214287 0.19357145 0.75000006 5985078
-0.1307143 0.19357145 0.75000006 6246144
-0.1285962 0.19253907 0.74600005 10259514
-0.12717524 0.19253907 0.74600005 8551252
-0.1257543 0.19253907 0.74600005 3419398
-0.12433334 0.19253907 0.74600005 5658908
-0.12291239 0.19253907 0.74600005 5724701
-0.12165429 0.19279715 0.74700004 4796685
-0.12023143 0.19279715 0.74700004 9336402
-0.11880857 0.19279715 0.74700004 9077085
-0.11738572 0.19279715 0.74700004 7103295
-0.11596286 0.19279715 0.74700004 6313216
-0.11454 0.19279715 0.74700004 9866035
-0.11311714 0.19279715 0.74700004 10128247
-0.11199334 0.19331333 0.74900001 7496527
-0.11056667 0.19331333 0.74900001 5587480
-0.10928572 0.19357145 0.75000006 9008716
-0.10785715 0.19357145 0.75000006 7499859
-0.10642858 0.19357145 0.75000006 4341795
-0.10528 0.19408762 0.75200003 4541500
-0.10384762 0.19408762 0.75200003 4080949
-0.10241524 0.19408762 0.75200003 6050352
-0.10125143 0.1946038 0.75400001 8682072
-0.099815235 0.1946038 0.75400001 8616727
-0.098379053 0.1946038 0.75400001 9406243
-0.097071439 0.19486192 0.75500005 10262342
-0.096140005 0.1958943 0.75900006 10328135
-0.094694294 0.1958943 0.75900006 10654855
-0.093494289 0.19641048 0.76100004 12957610
-0.092165716 0.19666858 0.76200002 12958070
-0.090952389 0.19718479 0.76400006 12958070
-0.089731432 0.19770096 0.76600003 13023100
-0.088387616 0.19795905 0.76700002 13088893
-0.087379999 0.19899143 0.77100003 13089665
-0.08591143 0.19899143 0.77100003 12958079
-0.084661908 0.19950764 0.77300006 12957568
-0.083189532 0.19950764 0.77300006 13812877
-0.081822865 0.19976573 0.77400005 15064209
-0.080556192 0.2002819 0.77600002 16777141
-0.079078101 0.2002819 0.77600002 16580059
-0.15976572 0.19916001 0.76600003 16446153
-0.15830666 0.19916001 0.76600003 15196086
-0.15684763 0.19916001 0.76600003 14471066
-0.15498286 0.19864002 0.76400006 13286792
-0.1531257 0.19812 0.76200002 13024131
-0.15147525 0.19786 0.76100004 12958338
-0.14923714 0.19682001 0.75700003 12105868
-0.14740478 0.19630001 0.75500005 8684632
-0.14538667 0.19552 0.75200003 6842923
-0.14395429 0.19552 0.75200003 7961404
-0.14214288 0.19500001 0.75000006 8158818
-0.1407143 0.19500001 0.75000006 7106130
-0.13928573 0.19500001 0.75000006 6248483
-0.13785715 0.19500001 0.75000006 6182690
-0.13624667 0.19474 0.74900001 7300926
-0.13482 0.19474 0.74900001 8485200
-0.13357145 0.19500001 0.75000006 8157301
-0.13214287 0.19500001 0.75000006 4670272
-0.13019143 0.19422001 0.74700004 5520384
-0.1285962 0.19396001 0.74600005 10125884
-0.12683429 0.19343999 0.74400002 8419685
-0.12541714 0.19343999 0.74400002 5130035
-0.12433334 0.19396001 0.74600005 5659687
-0.12291239 0.19396001 0.74600005 3356932
-0.12165429 0.19422001 0.74700004 3154176
-0.12023143 0.19422001 0.74700004 8746573
-0.11880857 0.19422001 0.74700004 8618352
-0.1177 0.19474 0.74900001 6578769
-0.11627334 0.19474 0.74900001 4668416
-0.11484667 0.19474 0.74900001 10655569
-0.11342 0.19474 0.74900001 11182750
-0.11199334 0.19474 0.74900001 6971998
-0.11056667 0.19474 0.74900001 4729088
-0.10928572 0.19500001 0.75000006 7295007
-0.10785715 0.19500001 0.75000006 7300903
-0.10642858 0.19500001 0.75000006 6445594
-0.10528 0.19552 0.75200003 5070906
-0.10384762 0.19552 0.75200003 4412976
-0.10241524 0.19552 0.75200003 5723931
-0.10125143 0.19603999 0.75400001 8421444
-0.099815235 0.19603999 0.75400001 8616747
-0.098379053 0.19603999 0.75400001 9998400
-0.097071439 0.19630001 0.75500005 11313245
-0.09588667 0.19682001 0.75700003 11971175
-0.094694294 0.19734001 0.75900006 12365692
-0.093494289 0.19786 0.76100004 12957829
-0.092165716 0.19812 0.76200002 12629364
-0.09119048 0.19916001 0.76600003 12760950
-0.089731432 0.19916001 0.76600003 12825975
-0.088387616 0.19942001 0.76700002 13352319
-0.087379999 0.20046 0.77100003 13352846
-0.08591143 0.20046 0.77100003 12958088
-0.084442854 0.20046 0.77100003 12891775
-0.082974285 0.20046 0.77100003 13154947
-0.081822865 0.20124002 0.77400005 15062669
-0.080556192 0.20176001 0.77600002 16775600
-0.079078101 0.20176001 0.77600002 16578511
-0.15976572 0.20061906 0.76600003 16380621
-0.15830666 0.20061906 0.76600003 15327933
-0.15684763 0.20061906 0.76600003 14734490
-0.15498286 0.20009525 0.76400006 13221251
-0.1531257 0.19957143 0.76200002 13024124
-0.15147525 0.19930953 0.76100004 12629366
-0.14963144 0.19878574 0.75900006 12367741
-0.14740478 0.19773811 0.75500005 11709811
-0.14538667 0.19695239 0.75200003 8881040
-0.14395429 0.19695239 0.75200003 7433594
-0.14214288 0.19642858 0.75000006 7631692
-0.1407143 0.19642858 0.75000006 7039555
-0.13928573 0.19642858 0.75000006 5789523
-0.13785715 0.19642858 0.75000006 5328972
-0.13624667 0.19616666 0.74900001 6119742
-0.13482 0.19616666 0.74900001 8488290
-0.13357145 0.19642858 0.75000006 7829356
-0.13214287 0.19642858 0.75000006 3947569
-0.13019143 0.19564286 0.74700004 5259546
-0.1285962 0.19538096 0.74600005 9338712
-0.12683429 0.19485715 0.74400002 8091205
-0.12541714 0.19485715 0.74400002 4867348
-0.124 0.19485715 0.74400002 4673828
-0.12291239 0.19538096 0.74600005 2371073
-0.12165429 0.19564286 0.74700004 2829853
-0.12023143 0.19564286 0.74700004 7632742
-0.11880857 0.19564286 0.74700004 8091744
-0.1177 0.19616666 0.74900001 6512712
-0.11627334 0.19616666 0.74900001 5325589
-0.11484667 0.19616666 0.74900001 10523236
-0.11342 0.19616666 0.74900001 10591332
-0.11214286 0.19642858 0.75000006 6512166
-0.11071429 0.19642858 0.75000006 5786394
-0.10928572 0.19642858 0.75000006 5852187
-0.10785715 0.19642858 0.75000006 6906638
-0.10642858 0.19642858 0.75000006 8814635
-0.10528 0.19695239 0.75200003 9341776
-0.10384762 0.19695239 0.75200003 9341776
-0.10241524 0.19695239 0.75200003 11510876
-0.10125143 0.19747619 0.75400001 12037220
-0.099815235 0.19747619 0.75400001 12168320
-0.098379053 0.19747619 0.75400001 12299906
-0.097328581 0.1982619 0.75700003 12234606
-0.09588667 0.1982619 0.75700003 12892536
-0.094694294 0.19878574 0.75900006 12892029
-0.093248583 0.19878574 0.75900006 13220994
-0.092165716 0.19957143 0.76200002 13023604
-0.090952389 0.20009525 0.76400006 13089397
-0.089497149 0.20009525 0.76400006 13088895
-0.088387616 0.20088096 0.76700002 13417860
-0.087379999 0.20192857 0.77100003 13286792
-0.086134292 0.20245239 0.77300006 12957827
-0.084442854 0.20192857 0.77100003 12891523
-0.082974285 0.20192857 0.77100003 13023109
-0.081822865 0.20271429 0.77400005 14668429
-0.080556192 0.2032381 0.77600002 16775861
-0.079078101 0.2032381 0.77600002 16645076
-0.15976572 0.2020781 0.76600003 16380362
-0.15830666 0.2020781 0.76600003 15722432
-0.15684763 0.2020781 0.76600003 14998166
-0.15457714 0.20102286 0.76200002 13353341
-0.15292478 0.20075905 0.76100004 13089656
-0.15107715 0.20023143 0.75900006 12563312
-0.14963144 0.20023143 0.75900006 12299899
-0.14740478 0.19917619 0.75500005 12431485
-0.14538667 0.19838478 0.75200003 11906707
-0.14395429 0.19838478 0.75200003 10525054
-0.14252192 0.19838478 0.75200003 9276249
-0.1407143 0.19785716 0.75000006 8684112
-0.13928573 0.19785716 0.75000006 8355921
-0.13785715 0.19785716 0.75000006 5592615
-0.13642858 0.19785716 0.75000006 5659399
-0.13500002 0.19785716 0.75000006 7830568
-0.13357145 0.19785716 0.75000006 7173461
-0.13214287 0.19785716 0.75000006 3620639
-0.13054 0.19759333 0.74900001 5457152
-0.1285962 0.19680192 0.74600005 8417826
-0.12683429 0.19627428 0.74400002 7498032
-0.12541714 0.19627428 0.74400002 6905895
-0.124 0.19627428 0.74400002 6121274
-0.12291239 0.19680192 0.74600005 3094796
-0.12165429 0.19706571 0.74700004 3812608
-0.12023143 0.19706571 0.74700004 7694387
-0.11912666 0.19759333 0.74900001 7171395
