# .PCD v0.7 - Point Cloud Data file format
VERSION 0.7
FIELDS x y z rgba
SIZE 4 4 4 4
TYPE F F F U
COUNT 1 1 1 1
WIDTH 1100
HEIGHT 1
VIEWPOINT 0 0 0 1 0 0 0
POINTS 1100
DATA ascii
-0.059048574 0.19279715 0.74700004 7697756
-0.057625718 0.19279715 0.74700004 9671546
-0.056202862 0.19279715 0.74700004 9605466
-0.05470667 0.19253907 0.74600005 5921058
-0.053285718 0.19253907 0.74600005 4076329
-0.051864766 0.19253907 0.74600005 9537148
-0.050308574 0.19202286 0.74400002 8356937
-0.048891429 0.19202286 0.74400002 1909248
-0.047601905 0.19253907 0.74600005 4607013
-0.046180952 0.19253907 0.74600005 5922873
-0.044819999 0.19279715 0.74700004 5259546
-0.043397143 0.19279715 0.74700004 7167543
-0.042142861 0.19357145 0.75000006 7562334
-0.04071429 0.19357145 0.75000006 6575439
-0.039285716 0.19357145 0.75000006 7102976
-0.037857145 0.19357145 0.75000006 11445313
-0.036428574 0.19357145 0.75000006 10461571
-0.035000004 0.19357145 0.75000006 9277297
-0.033660952 0.19408762 0.75200003 9540177
-0.03222857 0.19408762 0.75200003 9605970
-0.030878095 0.1946038 0.75400001 11709247
-0.029441904 0.1946038 0.75400001 12827728
-0.028005714 0.1946038 0.75400001 11906690
-0.026675239 0.19537809 0.75700003 11643518
-0.025233334 0.19537809 0.75700003 11577964
-0.023791429 0.19537809 0.75700003 11446378
-0.022615239 0.19770096 0.76600003 11773805
-0.021183809 0.19795905 0.76700002 13681802
-0.019722857 0.19795905 0.76700002 13616002
-0.018309526 0.19847526 0.76900005 13944967
-0.016844762 0.19847526 0.76900005 13615752
-0.015380002 0.19847526 0.76900005 14076303
-0.013915239 0.19847526 0.76900005 14209956
-0.012450477 0.19847526 0.76900005 16777170
-0.010985715 0.19847526 0.76900005 16646111
-0.091547623 0.19994001 0.76900005 16645861
-0.090082861 0.19994001 0.76900005 16645065
-0.0886181 0.19994001 0.76900005 13881759
-0.086926669 0.19942001 0.76700002 14142344
-0.085465722 0.19942001 0.76700002 14208137
-0.083895244 0.19916001 0.76600003 13880205
-0.082220957 0.19864002 0.76400006 13288068
-0.080448568 0.19786 0.76100004 12958333
-0.07879144 0.19734001 0.75900006 13287298
-0.0769381 0.19630001 0.75500005 13352074
-0.075399995 0.19603999 0.75400001 13023109
-0.073963813 0.19603999 0.75400001 12957568
-0.072335243 0.19552 0.75200003 12694396
-0.070902862 0.19552 0.75200003 10068084
-0.069470473 0.19552 0.75200003 4673058
-0.067857146 0.19500001 0.75000006 4804608
-0.066339999 0.19474 0.74900001 5462528
-0.06491334 0.19474 0.74900001 6051865
-0.063486665 0.19474 0.74900001 6183451
-0.062060002 0.19474 0.74900001 3487488
-0.060633335 0.19474 0.74900001 7040302
-0.059048574 0.19422001 0.74700004 7894346
-0.057625718 0.19422001 0.74700004 9670757
-0.056202862 0.19422001 0.74700004 9475196
-0.05470667 0.19396001 0.74600005 5132858
-0.053285718 0.19396001 0.74600005 3616000
-0.051864766 0.19396001 0.74600005 9208398
-0.050443813 0.19396001 0.74600005 7568961
-0.049022861 0.19396001 0.74600005 5266206
-0.047665719 0.19422001 0.74700004 5859383
-0.046242859 0.19422001 0.74700004 5596211
-0.044819999 0.19422001 0.74700004 3621888
-0.043513332 0.19474 0.74900001 5266703
-0.042142861 0.19500001 0.75000006 6645794
-0.04071429 0.19500001 0.75000006 6514208
-0.039390475 0.19552 0.75200003 7497216
-0.037857145 0.19500001 0.75000006 12168512
-0.036428574 0.19500001 0.75000006 11972488
-0.035000004 0.19500001 0.75000006 11709316
-0.033660952 0.19552 0.75200003 12102529
-0.032314286 0.19603999 0.75400001 12234115
-0.030878095 0.19603999 0.75400001 12365442
-0.029441904 0.19603999 0.75400001 12431235
-0.028005714 0.19603999 0.75400001 12037513
-0.026675239 0.19682001 0.75700003 11050618
-0.025233334 0.19682001 0.75700003 8816677
-0.023854287 0.19734001 0.75900006 9606193
-0.022556191 0.19864002 0.76400006 11379029
-0.021183809 0.19942001 0.76700002 13484405
-0.019722857 0.19942001 0.76700002 13155458
-0.018309526 0.19994001 0.76900005 13418630
-0.016844762 0.19994001 0.76900005 13812105
-0.015380002 0.19994001 0.76900005 14272656
-0.013915239 0.19994001 0.76900005 14603942
-0.012450477 0.19994001 0.76900005 16777167
-0.010985715 0.19994001 0.76900005 16646111
-0.094342858 0.20428573 0.78000003 16579818
-0.091547623 0.20140478 0.76900005 16645611
-0.090082861 0.20140478 0.76900005 16579265
-0.0886181 0.20140478 0.76900005 13881752
-0.087153338 0.20140478 0.76900005 14208139
-0.085465722 0.20088096 0.76700002 14339725
-0.083895244 0.20061906 0.76600003 13682320
-0.082220957 0.20009525 0.76400006 13024390
-0.080554284 0.19957143 0.76200002 13221251
-0.07879144 0.19878574 0.75900006 13287044
-0.0769381 0.19773811 0.75500005 13220740
-0.075399995 0.19747619 0.75400001 12891775
-0.073963813 0.19747619 0.75400001 13023615
-0.072527617 0.19747619 0.75400001 13155201
-0.070902862 0.19695239 0.75200003 11775883
-0.069470473 0.19695239 0.75200003 11381125
-0.067857146 0.19642858 0.75000006 10528610
-0.066428579 0.19642858 0.75000006 10133852
-0.065000005 0.19642858 0.75000006 10328685
-0.063571438 0.19642858 0.75000006 10065513
-0.062142864 0.19642858 0.75000006 9341002
-0.060633335 0.19616666 0.74900001 8288314
-0.059206665 0.19616666 0.74900001 8419909
-0.057780001 0.19616666 0.74900001 9406804
-0.056353334 0.19616666 0.74900001 9605216
-0.054926667 0.19616666 0.74900001 8091977
-0.053357143 0.19564286 0.74700004 8880712
-0.051934287 0.19564286 0.74700004 11315053
-0.050511431 0.19564286 0.74700004 10724188
-0.049088575 0.19564286 0.74700004 8750398
-0.047793336 0.19616666 0.74900001 10658143
-0.046366669 0.19616666 0.74900001 10921315
-0.044939999 0.19616666 0.74900001 10854491
-0.043571431 0.19642858 0.75000006 10722905
-0.042142861 0.19642858 0.75000006 11051608
-0.04071429 0.19642858 0.75000006 11380573
-0.039390475 0.19695239 0.75200003 11774075
-0.037958097 0.19695239 0.75200003 12695177
-0.036525715 0.19695239 0.75200003 11972985
-0.035093337 0.19695239 0.75200003 12038778
-0.033660952 0.19695239 0.75200003 11578223
-0.032314286 0.19747619 0.75400001 10393949
-0.030878095 0.19747619 0.75400001 8418165
-0.029480955 0.19773811 0.75500005 8023407
-0.028117143 0.1982619 0.75700003 7170857
-0.026675239 0.1982619 0.75700003 5986583
-0.025300002 0.19878574 0.75900006 6249989
-0.023917144 0.19930953 0.76100004 9868604
-0.022556191 0.20009525 0.76400006 11905891
-0.021183809 0.20088096 0.76700002 13616509
-0.019722857 0.20088096 0.76700002 13549707
-0.018261906 0.20088096 0.76700002 13418121
-0.016844762 0.20140478 0.76900005 13549707
-0.01542 0.20192857 0.77100003 14141844
-0.013951428 0.20192857 0.77100003 14341018
-0.012482857 0.20192857 0.77100003 16777159
-0.094342858 0.20577143 0.78000003 16514527
-0.092857152 0.20577143 0.78000003 16646113
-0.090317145 0.20339714 0.77100003 16579020
-0.088848568 0.20339714 0.77100003 14013093
-0.087153338 0.20286953 0.76900005 14602638
-0.085465722 0.2023419 0.76700002 14076294
-0.083895244 0.2020781 0.76600003 13550216
-0.082220957 0.2015505 0.76400006 13287044
-0.080554284 0.20102286 0.76200002 13221510
-0.07899905 0.20075905 0.76100004 13221510
-0.0769381 0.19917619 0.75500005 13089665
-0.075500011 0.19917619 0.75500005 12826493
-0.073963813 0.19891238 0.75400001 13155201
-0.072527617 0.19891238 0.75400001 13155201
-0.070902862 0.19838478 0.75200003 12563841
-0.069470473 0.19838478 0.75200003 12629634
-0.068038099 0.19838478 0.75200003 12170880
-0.066605717 0.19838478 0.75200003 12105087
-0.065173343 0.19838478 0.75200003 11841156
-0.063571438 0.19785716 0.75000006 11775363
-0.062142864 0.19785716 0.75000006 11117161
-0.06071429 0.19785716 0.75000006 10985575
-0.059206665 0.19759333 0.74900001 10393944
-0.057780001 0.19759333 0.74900001 10591323
-0.056353334 0.19759333 0.74900001 10722673
-0.054926667 0.19759333 0.74900001 10393708
-0.053357143 0.19706571 0.74700004 10525024
-0.051934287 0.19706571 0.74700004 11511919
-0.050511431 0.19706571 0.74700004 11642737
-0.049088575 0.19706571 0.74700004 11445358
-0.047793336 0.19759333 0.74900001 11773051
-0.046366669 0.19759333 0.74900001 11773051
-0.044939999 0.19759333 0.74900001 12562299
-0.043571431 0.19785716 0.75000006 12430713
-0.042142861 0.19785716 0.75000006 12037511
-0.04071429 0.19785716 0.75000006 11905925
-0.039390475 0.19838478 0.75200003 12168859
-0.037958097 0.19838478 0.75200003 11708308
-0.036525715 0.19838478 0.75200003 11248508
-0.035093337 0.19838478 0.75200003 11116922
-0.033750474 0.19891238 0.75400001 9211763
-0.032314286 0.19891238 0.75400001 8224868
-0.030919051 0.19917619 0.75500005 6253625
-0.029480955 0.19917619 0.75500005 5727281
-0.028117143 0.19970381 0.75700003 5266197
-0.026675239 0.19970381 0.75700003 5003025
-0.025366668 0.20075905 0.76100004 5921536
-0.023917144 0.20075905 0.76100004 10000690
-0.022556191 0.2015505 0.76400006 12103283
-0.021156192 0.2020781 0.76600003 13550729
-0.019722857 0.2023419 0.76700002 13483912
-0.018261906 0.2023419 0.76700002 13483912
-0.016844762 0.20286953 0.76900005 13484425
-0.01542 0.20339714 0.77100003 14142355
-0.013951428 0.20339714 0.77100003 14340245
-0.012482857 0.20339714 0.77100003 16776899
-0.094342858 0.20725715 0.78000003 16580569
-0.092857152 0.20725715 0.78000003 16711643
-0.090551436 0.20539716 0.77300006 16644827
-0.089079052 0.20539716 0.77300006 14144693
-0.087379999 0.20486572 0.77100003 14076301
-0.085465722 0.20380287 0.76700002 13813129
-0.083895244 0.20353715 0.76600003 13615757
-0.082220957 0.20300573 0.76400006 13484171
-0.080554284 0.2024743 0.76200002 13155721
-0.07899905 0.20220858 0.76100004 13155721
-0.0769381 0.2006143 0.75500005 13155712
-0.075500011 0.2006143 0.75500005 12826747
-0.073963813 0.20034857 0.75400001 13089147
-0.072527617 0.20034857 0.75400001 13154940
-0.071091428 0.20034857 0.75400001 12892279
-0.069470473 0.19981715 0.75200003 12892279
-0.068038099 0.19981715 0.75200003 12628873
-0.066605717 0.19981715 0.75200003 12628873
-0.065173343 0.19981715 0.75200003 12694909
-0.063740954 0.19981715 0.75200003 13023874
-0.062308576 0.19981715 0.75200003 12365944
-0.06071429 0.19928573 0.75000006 12365944
-0.059285719 0.19928573 0.75000006 12366194
-0.057780001 0.19902001 0.74900001 12760952
-0.056353334 0.19902001 0.74900001 11972208
-0.054926667 0.19902001 0.74900001 11248485
-0.053357143 0.19848858 0.74700004 11248749
-0.051934287 0.19848858 0.74700004 11446128
-0.050511431 0.19848858 0.74700004 11314528
-0.049219999 0.19902001 0.74900001 11380321
-0.047793336 0.19902001 0.74900001 11379817
-0.046428576 0.19928573 0.75000006 11116645
-0.045000002 0.19928573 0.75000006 10129241
-0.043571431 0.19928573 0.75000006 9471311
-0.042142861 0.19928573 0.75000006 9143142
-0.04071429 0.19928573 0.75000006 9143142
-0.039390475 0.19981715 0.75200003 8551030
-0.037958097 0.19981715 0.75200003 7827307
-0.036525715 0.19981715 0.75200003 6908490
-0.035093337 0.19981715 0.75200003 5658423
-0.033750474 0.20034857 0.75400001 4608581
-0.032314286 0.20034857 0.75400001 3621686
-0.030919051 0.2006143 0.75500005 5463837
-0.029559048 0.20114571 0.75700003 6187560
-0.028117143 0.20114571 0.75700003 6252592
-0.026745716 0.20167716 0.75900006 5857834
-0.025366668 0.20220858 0.76100004 5923109
-0.023948571 0.2024743 0.76200002 9541724
-0.022556191 0.20300573 0.76400006 12433532
-0.021156192 0.20353715 0.76600003 13354634
-0.019722857 0.20380287 0.76700002 13550218
-0.018261906 0.20380287 0.76700002 13747597
-0.016844762 0.20433429 0.76900005 13550475
-0.01542 0.20486572 0.77100003 14537370
-0.013951428 0.20486572 0.77100003 14209434
-0.012515238 0.20539716 0.77300006 16776903
-0.011042858 0.20539716 0.77300006 16646106
-0.09446381 0.20901047 0.78100002 16580312
-0.09297619 0.20901047 0.78100002 16711642
-0.090902865 0.20767237 0.77600002 16645086
-0.089079052 0.20686953 0.77300006 14144952
-0.087153338 0.20579906 0.76900005 14010769
-0.085465722 0.20526381 0.76700002 13813390
-0.083895244 0.20499618 0.76600003 13879183
-0.082220957 0.20446096 0.76400006 13287046
-0.080554284 0.20392571 0.76200002 13155210
-0.07899905 0.20365809 0.76100004 13155210
-0.077345721 0.20312287 0.75900006 13287035
-0.0757 0.20258763 0.75700003 12958070
-0.074061908 0.2020524 0.75500005 13023354
-0.072527617 0.20178477 0.75400001 13023354
-0.071091428 0.20178477 0.75400001 12760182
-0.069470473 0.20124954 0.75200003 12825975
-0.068038099 0.20124954 0.75200003 12759419
-0.066605717 0.20124954 0.75200003 12693626
-0.065173343 0.20124954 0.75200003 12692581
-0.063740954 0.20124954 0.75200003 12626788
-0.062308576 0.20124954 0.75200003 12430431
-0.06071429 0.20071431 0.75000006 12364638
-0.059285719 0.20071431 0.75000006 12167773
-0.057857145 0.20071431 0.75000006 12365152
-0.056428574 0.20071431 0.75000006 12103274
-0.054926667 0.20044668 0.74900001 11182172
-0.0535 0.20044668 0.74900001 10591582
-0.052073333 0.20044668 0.74900001 10591582
-0.050646666 0.20044668 0.74900001 10526039
-0.049285717 0.20071431 0.75000006 10394453
-0.047857147 0.20071431 0.75000006 9998932
-0.046428576 0.20071431 0.75000006 9143623
-0.045000002 0.20071431 0.75000006 8552247
-0.043571431 0.20071431 0.75000006 6775836
-0.042255241 0.20124954 0.75200003 6579523
-0.04082286 0.20124954 0.75200003 6842695
-0.039390475 0.20124954 0.75200003 6712660
-0.037958097 0.20124954 0.75200003 6317902
-0.036525715 0.20124954 0.75200003 5597002
-0.035093337 0.20124954 0.75200003 4544314
-0.033750474 0.20178477 0.75400001 3164994
-0.032314286 0.20178477 0.75400001 3099201
-0.030919051 0.2020524 0.75500005 5530123
-0.029559048 0.20258763 0.75700003 6385432
-0.028117143 0.20258763 0.75700003 6449990
-0.026745716 0.20312287 0.75900006 5726267
-0.025366668 0.20365809 0.76100004 5791762
-0.023948571 0.20392571 0.76200002 10989409
-0.022556191 0.20446096 0.76400006 12105861
-0.021156192 0.20499618 0.76600003 12961170
-0.019722857 0.20526381 0.76700002 13418891
-0.018261906 0.20526381 0.76700002 13616270
-0.016844762 0.20579906 0.76900005 13419402
-0.01542 0.20633428 0.77100003 14208918
-0.013915239 0.20579906 0.76900005 14078366
-0.012450477 0.20579906 0.76900005 16776650
-0.010985715 0.20579906 0.76900005 16646111
-0.092380948 0.20915048 0.77600002 16711642
-0.090902865 0.20915048 0.77600002 16644832
-0.088848568 0.20780286 0.77100003 14342077
-0.087153338 0.20726383 0.76900005 13945259
-0.085465722 0.20672476 0.76700002 13813673
-0.083895244 0.20645525 0.76600003 13879435
-0.082220957 0.20591621 0.76400006 13287298
-0.080554284 0.20537715 0.76200002 13220751
-0.079102859 0.20537715 0.76200002 13089165
-0.077549525 0.20510763 0.76100004 13089649
-0.0757 0.20402953 0.75700003 13023856
-0.074061908 0.20349048 0.75500005 12957307
-0.072527617 0.20322095 0.75400001 12957307
-0.071091428 0.20322095 0.75400001 12694646
-0.06965524 0.20322095 0.75400001 12694646
-0.068038099 0.20268191 0.75200003 12826225
-0.066605717 0.20268191 0.75200003 12365674
-0.065173343 0.20268191 0.75200003 11969610
-0.063740954 0.20268191 0.75200003 11903817
-0.062308576 0.20268191 0.75200003 12034873
-0.060876191 0.20268191 0.75200003 12166459
-0.059443813 0.20268191 0.75200003 11904318
-0.057857145 0.20214286 0.75000006 11970111
-0.056428574 0.20214286 0.75000006 11051571
-0.055000003 0.20214286 0.75000006 9472539
-0.053571433 0.20214286 0.75000006 9079093
-0.052142859 0.20214286 0.75000006 9013300
-0.050714288 0.20214286 0.75000006 9473340
-0.049285717 0.20214286 0.75000006 9473340
-0.047857147 0.20214286 0.75000006 8486463
-0.046428576 0.20214286 0.75000006 7894326
-0.045000002 0.20214286 0.75000006 6384162
-0.043687619 0.20268191 0.75200003 5660439
-0.042255241 0.20268191 0.75200003 5596750
-0.04082286 0.20268191 0.75200003 5991508
-0.039390475 0.20268191 0.75200003 6056772
-0.037958097 0.20268191 0.75200003 6188358
-0.036525715 0.20268191 0.75200003 6057551
-0.035186667 0.20322095 0.75400001 5202242
-0.033750474 0.20322095 0.75400001 3625295
-0.032314286 0.20322095 0.75400001 3427916
-0.030919051 0.20349048 0.75500005 5003520
-0.029559048 0.20402953 0.75700003 5990413
-0.028117143 0.20402953 0.75700003 5923396
-0.026745716 0.20456858 0.75900006 5133880
-0.025366668 0.20510763 0.76100004 6514197
-0.023948571 0.20537715 0.76200002 11646051
-0.022556191 0.20591621 0.76400006 12762238
-0.021156192 0.20645525 0.76600003 13156996
-0.019722857 0.20672476 0.76700002 13418891
-0.018261906 0.20672476 0.76700002 13813649
-0.016844762 0.20726383 0.76900005 13616268
-0.01542 0.20780286 0.77100003 14208405
-0.013915239 0.20726383 0.76900005 14275238
-0.012450477 0.20726383 0.76900005 16776143
-0.010985715 0.20726383 0.76900005 16646104
-0.091371432 0.21171428 0.78000003 16514014
-0.088848568 0.20927143 0.77100003 14211259
-0.087153338 0.20872858 0.76900005 14405797
-0.085465722 0.20818572 0.76700002 13879453
-0.083895244 0.20791429 0.76600003 13944722
-0.082220957 0.20737144 0.76400006 13352585
-0.080554284 0.20682858 0.76200002 13220231
-0.079102859 0.20682858 0.76200002 13220231
-0.077549525 0.20655715 0.76100004 13089395
-0.075900003 0.20601431 0.75900006 13023602
-0.074061908 0.20492859 0.75500005 12892027
-0.072527617 0.20465714 0.75400001 12892027
-0.071091428 0.20465714 0.75400001 12629373
-0.06965524 0.20465714 0.75400001 12629373
-0.068219043 0.20465714 0.75400001 12892790
-0.066605717 0.20411429 0.75200003 12103274
-0.065173343 0.20411429 0.75200003 11904326
-0.063740954 0.20411429 0.75200003 11838533
-0.062308576 0.20411429 0.75200003 11441698
-0.060876191 0.20411429 0.75200003 11770663
-0.059443813 0.20411429 0.75200003 11377202
-0.058011431 0.20411429 0.75200003 11706167
-0.05657905 0.20411429 0.75200003 10263084
-0.055146668 0.20411429 0.75200003 9078810
-0.053571433 0.20357144 0.75000006 8882225
-0.052142859 0.20357144 0.75000006 9013811
-0.050714288 0.20357144 0.75000006 9473360
-0.049285717 0.20357144 0.75000006 9407567
-0.047984764 0.20411429 0.75200003 7765811
-0.046552382 0.20411429 0.75200003 6186779
-0.045120001 0.20411429 0.75200003 6056496
-0.043687619 0.20411429 0.75200003 5924910
-0.042255241 0.20411429 0.75200003 5531477
-0.04082286 0.20411429 0.75200003 5202512
-0.039390475 0.20411429 0.75200003 3561498
-0.037958097 0.20411429 0.75200003 5666874
-0.036525715 0.20411429 0.75200003 6387288
-0.035186667 0.20465714 0.75400001 4610877
-0.033750474 0.20465714 0.75400001 2969144
-0.032314286 0.20465714 0.75400001 3034937
-0.030919051 0.20492859 0.75500005 4478976
-0.029559048 0.20547144 0.75700003 5663242
-0.028117143 0.20547144 0.75700003 5660968
-0.026745716 0.20601431 0.75900006 5134624
-0.0254 0.20682858 0.76200002 7695659
-0.023948571 0.20682858 0.76200002 12630134
-0.022556191 0.20737144 0.76400006 13089928
-0.021156192 0.20791429 0.76600003 13353100
-0.019722857 0.20818572 0.76700002 13221764
-0.018261906 0.20818572 0.76700002 13550729
-0.016844762 0.20872858 0.76900005 13616011
-0.01542 0.20927143 0.77100003 13879183
-0.013951428 0.20927143 0.77100003 14603176
-0.012482857 0.20927143 0.77100003 16776144
-0.091371432 0.21320002 0.78000003 16645084
-0.088848568 0.21074 0.77100003 15000259
-0.087153338 0.21019335 0.76900005 14340250
-0.085465722 0.20964667 0.76700002 13748113
-0.083895244 0.20937334 0.76600003 13879190
-0.082436197 0.20937334 0.76600003 13221260
-0.080765724 0.20882669 0.76400006 13154947
-0.079102859 0.20828 0.76200002 13220740
-0.077549525 0.20800668 0.76100004 13090169
-0.075900003 0.20746002 0.75900006 12892790
-0.074454293 0.20746002 0.75900006 12892027
-0.072623812 0.20636667 0.75500005 13023613
-0.071091428 0.20609333 0.75400001 12695170
-0.06965524 0.20609333 0.75400001 12629377
-0.068219043 0.20609333 0.75400001 12761193
-0.066782854 0.20609333 0.75400001 12169056
-0.065173343 0.20554666 0.75200003 11904076
-0.063740954 0.20554666 0.75200003 11772490
-0.062308576 0.20554666 0.75200003 11902795
-0.060876191 0.20554666 0.75200003 11968588
-0.059443813 0.20554666 0.75200003 11509329
-0.058011431 0.20554666 0.75200003 11575122
-0.05657905 0.20554666 0.75200003 9999413
-0.055146668 0.20554666 0.75200003 8880932
-0.053714287 0.20554666 0.75200003 8553512
-0.052142859 0.20500001 0.75000006 8750891
-0.050714288 0.20500001 0.75000006 9144136
-0.049417142 0.20554666 0.75200003 9012550
-0.047984764 0.20554666 0.75200003 8159810
-0.046552382 0.20554666 0.75200003 6449192
-0.045120001 0.20554666 0.75200003 5990477
-0.043687619 0.20554666 0.75200003 6122063
-0.042255241 0.20554666 0.75200003 5925211
-0.04082286 0.20554666 0.75200003 5596246
-0.039390475 0.20554666 0.75200003 5465664
-0.037958097 0.20554666 0.75200003 6781524
-0.036525715 0.20554666 0.75200003 6189907
-0.035186667 0.20609333 0.75400001 4084531
-0.033750474 0.20609333 0.75400001 3428652
-0.032314286 0.20609333 0.75400001 3494445
-0.030919051 0.20636667 0.75500005 4936489
-0.029559048 0.20691334 0.75700003 7107658
-0.02819143 0.20746002 0.75900006 8357164
-0.026745716 0.20746002 0.75900006 8554543
-0.0254 0.20828 0.76200002 9208690
-0.023948571 0.20828 0.76200002 12761512
-0.022615239 0.20937334 0.76600003 13023881
-0.021156192 0.20937334 0.76600003 13550225
-0.019722857 0.20964667 0.76700002 13221510
-0.018261906 0.20964667 0.76700002 13550475
-0.016844762 0.21019335 0.76900005 13616011
-0.01542 0.21074 0.77100003 13747597
-0.01398762 0.21128668 0.77300006 14208932
-0.01256381 0.21210667 0.77600002 16776401
-0.011085714 0.21210667 0.77600002 16646122
-0.091371432 0.21468572 0.78000003 16645086
-0.088848568 0.21220858 0.77100003 14868675
-0.087379999 0.21220858 0.77100003 14274975
-0.085465722 0.21110763 0.76700002 13682838
-0.08400476 0.21110763 0.76700002 13681550
-0.082436197 0.21083239 0.76600003 13352585
-0.080765724 0.21028192 0.76400006 13418630
-0.079102859 0.20973143 0.76200002 13155458
-0.077549525 0.20945621 0.76100004 13155712
-0.076100007 0.20945621 0.76100004 13024126
-0.074454293 0.20890573 0.75900006 12431726
-0.072623812 0.20780478 0.75500005 12760691
-0.071185715 0.20780478 0.75500005 12694916
-0.06965524 0.20752953 0.75400001 12629123
-0.068219043 0.20752953 0.75400001 12826727
-0.066782854 0.20752953 0.75400001 12300383
-0.065346666 0.20752953 0.75400001 11903565
-0.063910477 0.20752953 0.75400001 11837772
-0.062474284 0.20752953 0.75400001 11772233
-0.060876191 0.20697905 0.75200003 11838026
-0.059443813 0.20697905 0.75200003 11312466
-0.058011431 0.20697905 0.75200003 11180880
-0.05657905 0.20697905 0.75200003 9801262
-0.055146668 0.20697905 0.75200003 9077539
-0.053714287 0.20697905 0.75200003 8552499
-0.052281909 0.20697905 0.75200003 8947257
-0.050849527 0.20697905 0.75200003 9144395
-0.049417142 0.20697905 0.75200003 9210188
-0.047984764 0.20697905 0.75200003 8225351
-0.046552382 0.20697905 0.75200003 6448940
-0.045120001 0.20697905 0.75200003 5398338
-0.043687619 0.20697905 0.75200003 5990475
-0.042255241 0.20697905 0.75200003 6779480
-0.04082286 0.20697905 0.75200003 6187343
-0.039390475 0.20697905 0.75200003 6252340
-0.037958097 0.20697905 0.75200003 7041856
-0.036622856 0.20752953 0.75400001 5926966
-0.035186667 0.20752953 0.75400001 4347934
-0.033750474 0.20752953 0.75400001 5135144
-0.032357145 0.20780478 0.75500005 5529902
-0.031000955 0.20835525 0.75700003 6186027
-0.029637145 0.20890573 0.75900006 7699266
-0.02819143 0.20890573 0.75900006 8815439
-0.026816191 0.20945621 0.76100004 9670748
-0.0254 0.20973143 0.76200002 10721901
-0.024011429 0.21028192 0.76400006 12893070
-0.022615239 0.21083239 0.76600003 12892295
-0.021156192 0.21083239 0.76600003 13287053
-0.019722857 0.21110763 0.76700002 13023881
-0.018261906 0.21110763 0.76700002 13550225
-0.016844762 0.21165811 0.76900005 13615498
-0.015460001 0.21275906 0.77300006 13944463
-0.014005715 0.2130343 0.77400005 14208166
-0.01256381 0.21358477 0.77600002 16776149
-0.011085714 0.21358477 0.77600002 16646122
-0.090317145 0.21367715 0.77100003 16645604
-0.088848568 0.21367715 0.77100003 14540228
-0.087379999 0.21367715 0.77100003 14340518
-0.085465722 0.21256858 0.76700002 13945760
-0.08400476 0.21256858 0.76700002 13813381
-0.082436197 0.21229143 0.76600003 13352830
-0.080977142 0.21229143 0.76600003 13352837
-0.079310484 0.21173716 0.76400006 13155458
-0.077651434 0.21118286 0.76200002 13089919
-0.076100007 0.21090572 0.76100004 13089919
-0.074454293 0.21035144 0.75900006 12760950
-0.073008575 0.21035144 0.75900006 12760950
-0.071185715 0.20924287 0.75500005 12761222
-0.06965524 0.20896572 0.75400001 12892808
-0.068219043 0.20896572 0.75400001 12826718
-0.066782854 0.20896572 0.75400001 12300374
-0.065346666 0.20896572 0.75400001 12035421
-0.063910477 0.20896572 0.75400001 11969628
-0.062474284 0.20896572 0.75400001 12035664
-0.060876191 0.20841144 0.75200003 12167250
-0.059443813 0.20841144 0.75200003 11708244
-0.058011431 0.20841144 0.75200003 10787142
-0.05657905 0.20841144 0.75200003 9211185
-0.055146668 0.20841144 0.75200003 8750634
-0.053714287 0.20841144 0.75200003 8881736
-0.052281909 0.20841144 0.75200003 9144908
-0.050849527 0.20841144 0.75200003 9144395
-0.049417142 0.20841144 0.75200003 9144395
-0.047984764 0.20841144 0.75200003 8225603
-0.046552382 0.20841144 0.75200003 6383399
-0.045120001 0.20841144 0.75200003 5989964
-0.043687619 0.20841144 0.75200003 5989964
-0.042255241 0.20841144 0.75200003 7304269
-0.04082286 0.20841144 0.75200003 8093785
-0.039390475 0.20841144 0.75200003 8421978
-0.037958097 0.20841144 0.75200003 8816736
-0.036622856 0.20896572 0.75400001 8555086
-0.035186667 0.20896572 0.75400001 8686672
-0.033750474 0.20896572 0.75400001 8488541
-0.032357145 0.20924287 0.75500005 8159576
-0.031000955 0.20979714 0.75700003 8355934
-0.029637145 0.21035144 0.75900006 8355934
-0.02819143 0.21035144 0.75900006 9012305
-0.026816191 0.21090572 0.76100004 10986095
-0.0254 0.21118286 0.76200002 11313788
-0.024011429 0.21173716 0.76400006 12958613
-0.022615239 0.21229143 0.76600003 13023633
-0.021183809 0.21256858 0.76700002 13681563
-0.019722857 0.21256858 0.76700002 13352603
-0.018309526 0.21312287 0.76900005 13813154
-0.016888572 0.21367715 0.77100003 13681552
-0.015460001 0.21423145 0.77300006 14142103
-0.014005715 0.21450858 0.77400005 14011822
-0.01256381 0.21506286 0.77600002 16776156
-0.011085714 0.21506286 0.77600002 16646120
-0.089079052 0.21570382 0.77300006 14540748
-0.087379999 0.21514572 0.77100003 14471590
-0.085688576 0.21458763 0.76900005 13747867
-0.08400476 0.21402952 0.76700002 13944715
-0.082543813 0.21402952 0.76700002 13352578
-0.080977142 0.21375048 0.76600003 13287298
-0.079310484 0.2131924 0.76400006 13089919
-0.077651434 0.2126343 0.76200002 12958588
-0.076100007 0.21235524 0.76100004 12958588
-0.074650481 0.21235524 0.76100004 12761209
-0.073008575 0.21179716 0.75900006 12629623
-0.071374282 0.21123905 0.75700003 12366462
-0.069747627 0.21068096 0.75500005 12629634
-0.068309531 0.21068096 0.75500005 12431976
-0.066782854 0.21040189 0.75400001 12037218
-0.065346666 0.21040189 0.75400001 12166757
-0.063910477 0.21040189 0.75400001 12100964
-0.062474284 0.21040189 0.75400001 12101730
-0.061038099 0.21040189 0.75400001 12167523
-0.059443813 0.20984381 0.75200003 11577964
-0.058011431 0.20984381 0.75200003 10788448
-0.05657905 0.20984381 0.75200003 8686152
-0.055146668 0.20984381 0.75200003 8422980
-0.053714287 0.20984381 0.75200003 9144136
-0.052281909 0.20984381 0.75200003 9407308
-0.050849527 0.20984381 0.75200003 9078602
-0.049417142 0.20984381 0.75200003 9012809
-0.047984764 0.20984381 0.75200003 8226121
-0.046552382 0.20984381 0.75200003 6910261
-0.045120001 0.20984381 0.75200003 7106116
-0.043687619 0.20984381 0.75200003 7303495
-0.042255241 0.20984381 0.75200003 7829573
-0.04082286 0.20984381 0.75200003 8487503
-0.039495237 0.21040189 0.75400001 9078613
-0.038059048 0.21040189 0.75400001 9473371
-0.036622856 0.21040189 0.75400001 9604696
-0.035186667 0.21040189 0.75400001 9802075
-0.033795241 0.21068096 0.75500005 9801562
-0.032357145 0.21068096 0.75500005 8683081
-0.031000955 0.21123905 0.75700003 8748347
-0.029637145 0.21179716 0.75900006 9143105
-0.02819143 0.21179716 0.75900006 9406806
-0.026816191 0.21235524 0.76100004 11183217
-0.0254 0.2126343 0.76200002 12168306
-0.024011429 0.2131924 0.76400006 13220994
-0.022644762 0.21402952 0.76700002 13023370
-0.021183809 0.21402952 0.76700002 13418128
-0.019722857 0.21402952 0.76700002 13089417
-0.018309526 0.21458763 0.76900005 13418382
-0.016888572 0.21514572 0.77100003 13287037
-0.015460001 0.21570382 0.77300006 14010760
-0.014005715 0.21598287 0.77400005 14011814
-0.01256381 0.21654096 0.77600002 16776405
-0.011085714 0.21654096 0.77600002 16646122
-0.0096076196 0.21654096 0.77600002 16646122
-0.089079052 0.2171762 0.77300006 14672334
-0.087379999 0.21661429 0.77100003 14536870
-0.085688576 0.21605238 0.76900005 13681561
-0.08400476 0.21549048 0.76700002 13682061
-0.082543813 0.21549048 0.76700002 12563580
-0.080977142 0.21520954 0.76600003 12760950
-0.079310484 0.21464764 0.76400006 13089915
-0.077651434 0.21408571 0.76200002 13089910
-0.076100007 0.21380477 0.76100004 12892531
-0.074650481 0.21380477 0.76100004 12826738
-0.073008575 0.21324287 0.75900006 12563566
-0.071374282 0.21268095 0.75700003 12366203
-0.069747627 0.21211907 0.75500005 12695168
-0.068309531 0.21211907 0.75500005 12103283
-0.066782854 0.2118381 0.75400001 11576939
-0.065346666 0.2118381 0.75400001 11378536
-0.063910477 0.2118381 0.75400001 11378536
-0.062474284 0.2118381 0.75400001 11575649
-0.061038099 0.2118381 0.75400001 12101993
-0.059443813 0.2112762 0.75200003 11577950
-0.058011431 0.2112762 0.75200003 11051606
-0.05657905 0.2112762 0.75200003 9540961
-0.055146668 0.2112762 0.75200003 9343582
-0.053714287 0.2112762 0.75200003 9605207
-0.052281909 0.2112762 0.75200003 9736793
-0.050849527 0.2112762 0.75200003 9736282
-0.049417142 0.2112762 0.75200003 10131040
-0.047984764 0.2112762 0.75200003 9736800
-0.046552382 0.2112762 0.75200003 9671007
-0.04524 0.2118381 0.75400001 9145951
-0.043803807 0.2118381 0.75400001 9145951
-0.042367619 0.2118381 0.75400001 9407837
-0.04093143 0.2118381 0.75400001 9407837
-0.039495237 0.2118381 0.75400001 9604442
-0.038059048 0.2118381 0.75400001 9604442
-0.03667143 0.21211907 0.75500005 9932646
-0.035233337 0.21211907 0.75500005 10919541
-0.033795241 0.21211907 0.75500005 10722914
-0.03244286 0.21268095 0.75700003 10525535
-0.031082857 0.21324287 0.75900006 11381339
-0.029637145 0.21324287 0.75900006 11578718
-0.028265715 0.21380477 0.76100004 12300942
-0.026816191 0.21380477 0.76100004 13024665
-0.0254 0.21408571 0.76200002 13221251
-0.024011429 0.21464764 0.76400006 13484423
-0.022644762 0.21549048 0.76700002 13287305
-0.021183809 0.21549048 0.76700002 13616270
-0.019722857 0.21549048 0.76700002 13418893
-0.018309526 0.21605238 0.76900005 13747858
-0.016888572 0.21661429 0.77100003 13747588
-0.015460001 0.2171762 0.77300006 13944967
-0.014041905 0.21801905 0.77600002 14143141
-0.01256381 0.21801905 0.77600002 16776146
-0.011085714 0.21801905 0.77600002 16711661
-0.089079052 0.2186486 0.77300006 14935502
-0.087379999 0.21808288 0.77100003 14602402
-0.08591143 0.21808288 0.77100003 13944472
-0.084223814 0.21751717 0.76900005 13550734
-0.082759053 0.21751717 0.76900005 12169081
-0.081082858 0.21695143 0.76700002 11971429
-0.079518095 0.21666858 0.76600003 12103015
-0.077855244 0.21610287 0.76400006 12693867
-0.076200001 0.21553715 0.76200002 12957039
-0.074650481 0.21525429 0.76100004 13089397
-0.073008575 0.21468858 0.75900006 12694639
-0.071374282 0.21412286 0.75700003 12103283
-0.069747627 0.21355715 0.75500005 12563834
-0.068309531 0.21355715 0.75500005 11577721
-0.066782854 0.21327429 0.75400001 11248756
-0.065346666 0.21327429 0.75400001 10919516
-0.063910477 0.21327429 0.75400001 11051102
-0.062474284 0.21327429 0.75400001 10918219
-0.061038099 0.21327429 0.75400001 12036700
-0.059443813 0.21270858 0.75200003 11578475
-0.058011431 0.21270858 0.75200003 10854752
-0.05657905 0.21270858 0.75200003 9672013
-0.055146668 0.21270858 0.75200003 9606220
-0.053714287 0.21270858 0.75200003 9539664
-0.052281909 0.21270858 0.75200003 9605457
-0.050849527 0.21270858 0.75200003 9670739
-0.049417142 0.21270858 0.75200003 9868118
-0.047984764 0.21270858 0.75200003 9737036
-0.046676192 0.21327429 0.75400001 9737036
-0.04524 0.21327429 0.75400001 9473360
-0.043803807 0.21327429 0.75400001 9473360
-0.042367619 0.21327429 0.75400001 9342546
-0.04093143 0.21327429 0.75400001 9210960
-0.039495237 0.21327429 0.75400001 9670221
-0.038059048 0.21327429 0.75400001 10064979
-0.03667143 0.21355715 0.75500005 10524510
-0.035233337 0.21355715 0.75500005 11314026
-0.033795241 0.21355715 0.75500005 11249773
-0.03244286 0.21412286 0.75700003 11907703
-0.031082857 0.21468858 0.75900006 11973503
-0.029637145 0.21468858 0.75900006 12434054
-0.028265715 0.21525429 0.76100004 12826511
-0.026816191 0.21525429 0.76100004 13155476
-0.025466667 0.21610287 0.76400006 13220994
-0.024011429 0.21610287 0.76400006 13220994
-0.022644762 0.21695143 0.76700002 12958592
-0.021183809 0.21695143 0.76700002 13287557
-0.019722857 0.21695143 0.76700002 13221764
-0.018309526 0.21751717 0.76900005 13682315
-0.016888572 0.21808288 0.77100003 13878661
-0.015460001 0.2186486 0.77300006 14010247
-0.014041905 0.21949714 0.77600002 14405534
-0.012596191 0.22006287 0.77800006 16775881
-0.011114286 0.22006287 0.77800006 16711661
-0.089079052 0.22012097 0.77300006 15132876
-0.087606676 0.22012097 0.77300006 14537383
-0.08591143 0.21955143 0.77100003 13945246
-0.084223814 0.21898192 0.76900005 13617299
-0.082759053 0.21898192 0.76900005 12038267
-0.081082858 0.21841238 0.76700002 11050602
-0.079518095 0.21812762 0.76600003 10590051
-0.077855244 0.21755812 0.76400006 11377775
-0.076200001 0.21698858 0.76200002 12693635
-0.074650481 0.21670382 0.76100004 12826727
-0.073008575 0.21613431 0.75900006 12892520
-0.071374282 0.21556476 0.75700003 12695416
-0.069747627 0.21499525 0.75500005 12892795
-0.068309531 0.21499525 0.75500005 12038022
-0.066871434 0.21499525 0.75500005 11577471
-0.065346666 0.21471047 0.75400001 11971186
-0.063910477 0.21471047 0.75400001 12036979
-0.062474284 0.21471047 0.75400001 11839339
-0.061038099 0.21471047 0.75400001 11641960
-0.059601903 0.21471047 0.75400001 11643759
-0.058165714 0.21471047 0.75400001 10920036
-0.056729525 0.21471047 0.75400001 10329421
-0.055146668 0.21414095 0.75200003 10395214
-0.053714287 0.21414095 0.75200003 10131290
-0.052281909 0.21414095 0.75200003 10131290
-0.050849527 0.21414095 0.75200003 10656862
-0.049417142 0.21414095 0.75200003 10920034
-0.047984764 0.21414095 0.75200003 11117399
-0.046676192 0.21471047 0.75400001 11248985
-0.04524 0.21471047 0.75400001 11380067
-0.043803807 0.21471047 0.75400001 11643239
-0.042367619 0.21471047 0.75400001 11446126
-0.04093143 0.21471047 0.75400001 11643505
-0.039495237 0.21471047 0.75400001 11709300
-0.038059048 0.21471047 0.75400001 11972472
-0.03667143 0.21499525 0.75500005 12037490
-0.035233337 0.21499525 0.75500005 12498041
-0.033884764 0.21556476 0.75700003 12235642
-0.03244286 0.21556476 0.75700003 12169849
-0.031082857 0.21613431 0.75900006 12365951
-0.029637145 0.21613431 0.75900006 12760709
-0.028265715 0.21670382 0.76100004 12760448
-0.026816191 0.21670382 0.76100004 13089413
-0.025466667 0.21755812 0.76400006 13089404
-0.024011429 0.21755812 0.76400006 13023611
-0.022644762 0.21841238 0.76700002 13155699
-0.021183809 0.21841238 0.76700002 13418871
-0.019774286 0.21898192 0.76900005 13287044
-0.018357145 0.21955143 0.77100003 13747595
-0.016888572 0.21955143 0.77100003 13813120
-0.015460001 0.22012097 0.77300006 14273671
-0.014005715 0.22040573 0.77400005 14536859
-0.012628571 0.22211429 0.78000003 16775363
-0.011142857 0.22211429 0.78000003 16646122
-0.08919429 0.22188 0.77400005 15198667
-0.087606676 0.22159335 0.77300006 14800551
-0.08591143 0.22102001 0.77100003 13879449
-0.084223814 0.22044668 0.76900005 13683351
-0.082759053 0.22044668 0.76900005 12170112
-0.081082858 0.21987334 0.76700002 11116143
-0.079621911 0.21987334 0.76700002 10655592
-0.078059055 0.21958667 0.76600003 10983499
-0.076200001 0.21844001 0.76200002 12299359
-0.074650481 0.21815334 0.76100004 12037488
-0.073008575 0.21758001 0.75900006 12366453
-0.071374282 0.21700667 0.75700003 12497537
-0.069747627 0.21643335 0.75500005 12497537
-0.068309531 0.21643335 0.75500005 12300685
-0.066871434 0.21643335 0.75500005 12103306
-0.065346666 0.21614668 0.75400001 12365951
-0.063910477 0.21614668 0.75400001 12168572
-0.062474284 0.21614668 0.75400001 11970934
-0.061038099 0.21614668 0.75400001 12168313
-0.059601903 0.21614668 0.75400001 11775093
-0.058165714 0.21614668 0.75400001 11051370
-0.056729525 0.21614668 0.75400001 10920284
-0.055293337 0.21614668 0.75400001 10920284
-0.053714287 0.21557334 0.75200003 10985059
-0.052281909 0.21557334 0.75200003 10985059
-0.050849527 0.21557334 0.75200003 11445085
-0.049417142 0.21557334 0.75200003 11510878
-0.047984764 0.21557334 0.75200003 11510887
-0.046552382 0.21557334 0.75200003 11576680
-0.045120001 0.21557334 0.75200003 11642219
-0.043803807 0.21614668 0.75400001 11839598
-0.042367619 0.21614668 0.75400001 11708014
-0.04093143 0.21614668 0.75400001 11971186
-0.039495237 0.21614668 0.75400001 12036475
-0.038059048 0.21614668 0.75400001 12299647
-0.03667143 0.21643335 0.75500005 12102770
-0.035233337 0.21643335 0.75500005 12629114
-0.033884764 0.21700667 0.75700003 12629377
-0.03244286 0.21700667 0.75700003 12629377
-0.031082857 0.21758001 0.75900006 12431483
-0.029637145 0.21758001 0.75900006 12760448
-0.028265715 0.21815334 0.76100004 12628855
-0.026816191 0.21815334 0.76100004 13089406
-0.025466667 0.21901335 0.76400006 13089406
-0.024011429 0.21901335 0.76400006 13089406
-0.022644762 0.21987334 0.76700002 13484414
-0.021183809 0.21987334 0.76700002 13484414
-0.019774286 0.22044668 0.76900005 12958333
-0.018357145 0.22102001 0.77100003 13484677
-0.016888572 0.22102001 0.77100003 14009475
-0.015460001 0.22159335 0.77300006 14206854
-0.014005715 0.22188 0.77400005 14799520
-0.012628571 0.22360002 0.78000003 16775366
-0.011157143 0.22388667 0.78100002 16646109
-0.08919429 0.22335429 0.77400005 15330253
-0.087606676 0.22306573 0.77300006 14735276
-0.08591143 0.22248858 0.77100003 13748381
-0.084223814 0.22191145 0.76900005 13813910
-0.082759053 0.22191145 0.76900005 13024394
-0.081082858 0.22133428 0.76700002 11444886
-0.079621911 0.22133428 0.76700002 11181714
-0.078059055 0.22104572 0.76600003 11313495
-0.076200001 0.21989143 0.76200002 11445081
-0.074650481 0.21960287 0.76100004 10919532
-0.073200949 0.21960287 0.76100004 10524774
-0.071374282 0.21844856 0.75700003 10656108
-0.069932379 0.21844856 0.75700003 10853487
-0.068309531 0.21787144 0.75500005 10853489
-0.066871434 0.21787144 0.75500005 10853489
-0.065433331 0.21787144 0.75500005 11181434
-0.063910477 0.21758287 0.75400001 12168329
-0.062474284 0.21758287 0.75400001 12299649
-0.061038099 0.21758287 0.75400001 12562821
-0.059601903 0.21758287 0.75400001 11971443
-0.058165714 0.21758287 0.75400001 11839857
-0.056729525 0.21758287 0.75400001 11775095
-0.055293337 0.21758287 0.75400001 11906681
-0.053714287 0.21700571 0.75200003 11906177
-0.052281909 0.21700571 0.75200003 11971970
-0.050849527 0.21700571 0.75200003 12037477
-0.049417142 0.21700571 0.75200003 12366442
-0.047984764 0.21700571 0.75200003 12299908
-0.046552382 0.21700571 0.75200003 12563080
-0.045120001 0.21700571 0.75200003 12366460
-0.043803807 0.21758287 0.75400001 12432253
-0.042367619 0.21758287 0.75400001 11905411
-0.04093143 0.21758287 0.75400001 11905411
-0.039495237 0.21758287 0.75400001 12431242
-0.038059048 0.21758287 0.75400001 12760207
-0.03667143 0.21787144 0.75500005 12563321
-0.035233337 0.21787144 0.75500005 12563321
-0.033884764 0.21844856 0.75700003 12629123
-0.032528572 0.21902573 0.75900006 12694916
-0.031082857 0.21902573 0.75900006 12826234
-0.029637145 0.21902573 0.75900006 13155199
-0.028265715 0.21960287 0.76100004 12825723
-0.026816191 0.21960287 0.76100004 13220481
-0.025466667 0.22046858 0.76400006 13154947
-0.024011429 0.22046858 0.76400006 13154947
-0.022644762 0.22133428 0.76700002 13418621
-0.021183809 0.22133428 0.76700002 13550207
-0.019774286 0.22191145 0.76900005 13286794
-0.018357145 0.22248858 0.77100003 13352587
-0.016932381 0.22306573 0.77300006 13878400
-0.015480001 0.22335429 0.77400005 14009986
-0.014114286 0.22508572 0.78000003 14470807
-0.012628571 0.22508572 0.78000003 16775361
-0.011157143 0.22537428 0.78100002 16580552
-0.08919429 0.22482857 0.77400005 15396053
-0.087606676 0.2245381 0.77300006 14932653
-0.08591143 0.22395715 0.77100003 13748379
-0.084223814 0.2233762 0.76900005 13879192
-0.082759053 0.2233762 0.76900005 13023883
-0.081082858 0.22279525 0.76700002 12432007
-0.079621911 0.22279525 0.76700002 11708284
-0.078059055 0.22250476 0.76600003 11839600
-0.076200001 0.22134286 0.76200002 11839600
-0.074650481 0.22105239 0.76100004 10656880
-0.073200949 0.22105239 0.76100004 10130536
-0.071374282 0.21989049 0.75700003 9933402
-0.069932379 0.21989049 0.75700003 10130781
-0.068309531 0.21930952 0.75500005 10457693
-0.066871434 0.21930952 0.75500005 10589279
-0.065433331 0.21930952 0.75500005 10918237
-0.063910477 0.21901904 0.75400001 12299890
-0.062474284 0.21901904 0.75400001 12234358
-0.061038099 0.21901904 0.75400001 12168565
-0.059601903 0.21901904 0.75400001 11707751
-0.058165714 0.21901904 0.75400001 12102509
-0.056729525 0.21901904 0.75400001 12037236
-0.055293337 0.21901904 0.75400001 12037236
-0.05385714 0.21901904 0.75400001 12103033
-0.052281909 0.2184381 0.75200003 12168826
-0.050849527 0.2184381 0.75200003 11839589
-0.049417142 0.2184381 0.75200003 12431726
-0.047984764 0.2184381 0.75200003 12299899
-0.046552382 0.2184381 0.75200003 12497278
-0.045120001 0.2184381 0.75200003 12170110
-0.043803807 0.21901904 0.75400001 12104317
-0.042367619 0.21901904 0.75400001 11840382
-0.04093143 0.21901904 0.75400001 11840382
-0.039495237 0.21901904 0.75400001 12562567
-0.038059048 0.21901904 0.75400001 12694153
-0.03667143 0.21930952 0.75500005 12563321
-0.035326667 0.21989049 0.75700003 12563321
-0.033884764 0.21989049 0.75700003 12431485
-0.032528572 0.22047146 0.75900006 12694657
-0.031082857 0.22047146 0.75900006 12629114
-0.02971524 0.22105239 0.76100004 12629114
-0.028265715 0.22105239 0.76100004 12430947
-0.026816191 0.22105239 0.76100004 13220463
-0.0254 0.22134286 0.76200002 13154947
-0.024011429 0.22192383 0.76400006 13154947
-0.022644762 0.22279525 0.76700002 13155188
-0.021183809 0.22279525 0.76700002 13484153
-0.019774286 0.2233762 0.76900005 13286792
-0.018404763 0.2245381 0.77300006 13549964
-0.016932381 0.2245381 0.77300006 13944197
-0.015480001 0.22482857 0.77400005 14141576
-0.014005715 0.22482857 0.77400005 14273673
-0.012628571 0.22657144 0.78000003 16775863
-0.011157143 0.22686191 0.78100002 16646101
-0.08919429 0.22630286 0.77400005 15527641
-0.087606676 0.22601049 0.77300006 14932653
-0.08591143 0.22542572 0.77100003 13748379
-0.084223814 0.22484097 0.76900005 13616279
-0.082759053 0.22484097 0.76900005 12300419
-0.081082858 0.2242562 0.76700002 11839852
-0.079621911 0.2242562 0.76700002 11905645
-0.078059055 0.22396381 0.76600003 12036727
-0.076400004 0.22337906 0.76400006 12826243
-0.074748568 0.22279429 0.76200002 12300669
-0.073200949 0.22250192 0.76100004 11511153
-0.071562864 0.22191715 0.75900006 10985586
-0.069932379 0.22133239 0.75700003 10788207
-0.068490475 0.22133239 0.75700003 10590567
-0.067048572 0.22133239 0.75700003 10393188
-0.065606669 0.22133239 0.75700003 10721651
-0.063995242 0.22074763 0.75500005 12366476
-0.062557146 0.22074763 0.75500005 12234349
-0.06111905 0.22074763 0.75500005 12234349
-0.059601903 0.22045523 0.75400001 12102511
-0.058165714 0.22045523 0.75400001 12168304
-0.056729525 0.22045523 0.75400001 12102770
-0.055293337 0.22045523 0.75400001 12036977
-0.05385714 0.22045523 0.75400001 12036979
-0.052281909 0.21987049 0.75200003 12300151
-0.050849527 0.21987049 0.75200003 12168302
-0.049417142 0.21987049 0.75200003 12299888
-0.047984764 0.21987049 0.75200003 12234356
-0.046552382 0.21987049 0.75200003 12234356
-0.045120001 0.21987049 0.75200003 12234104
-0.043803807 0.22045523 0.75400001 12102518
-0.042367619 0.22045523 0.75400001 12102518
-0.04093143 0.22045523 0.75400001 12036725
-0.039495237 0.22045523 0.75400001 12497271
-0.038109526 0.22074763 0.75500005 12563064
-0.03667143 0.22074763 0.75500005 12563062
-0.035326667 0.22133239 0.75700003 12628855
-0.03397429 0.22191715 0.75900006 12497276
-0.032528572 0.22191715 0.75900006 12694655
-0.031082857 0.22191715 0.75900006 12694648
-0.02971524 0.22250192 0.76100004 12694648
-0.028265715 0.22250192 0.76100004 12694632
-0.026816191 0.22250192 0.76100004 12957804
-0.0254 0.22279429 0.76200002 13023361
-0.024011429 0.22337906 0.76400006 13418119
-0.022644762 0.2242562 0.76700002 13024115
-0.021183809 0.2242562 0.76700002 13484666
-0.019774286 0.22484097 0.76900005 13484171
-0.018404763 0.22601049 0.77300006 13813136
-0.016932381 0.22601049 0.77300006 13944456
-0.015480001 0.22630286 0.77400005 14733972
-0.014005715 0.22630286 0.77400005 14274184
-0.012628571 0.22805715 0.78000003 16775860
-0.08919429 0.22777715 0.77400005 15987940
-0.087606676 0.22748289 0.77300006 15064493
-0.086134292 0.22748289 0.77300006 13617047
-0.084442854 0.22689429 0.77100003 13157268
-0.082759053 0.22630572 0.76900005 11972994
-0.081294291 0.22630572 0.76900005 11643239
-0.079621911 0.22571714 0.76700002 11643239
-0.078059055 0.22542287 0.76600003 11838830
-0.076400004 0.22483431 0.76400006 12628346
-0.074748568 0.22424571 0.76200002 12562567
-0.073200949 0.22395144 0.76100004 12102016
-0.071562864 0.22336288 0.75900006 11905904
-0.070117153 0.22336288 0.75900006 11905904
-0.068671428 0.22336288 0.75900006 11577725
-0.067048572 0.2227743 0.75700003 10985588
-0.065606669 0.2227743 0.75700003 10459233
-0.063995242 0.22218573 0.75500005 11577714
-0.062557146 0.22218573 0.75500005 11905382
-0.06111905 0.22218573 0.75500005 11971175
-0.059680957 0.22218573 0.75500005 12234099
-0.058242857 0.22218573 0.75500005 12168306
-0.056804765 0.22218573 0.75500005 12299892
-0.055293337 0.22189143 0.75400001 12299892
-0.05385714 0.22189143 0.75400001 12102259
-0.052420951 0.22189143 0.75400001 11904880
-0.050984763 0.22189143 0.75400001 11970412
-0.049417142 0.22130287 0.75200003 12036205
-0.047984764 0.22130287 0.75200003 12036209
-0.046676192 0.22189143 0.75400001 12036209
-0.04524 0.22189143 0.75400001 11970673
-0.043803807 0.22189143 0.75400001 12233845
-0.042367619 0.22189143 0.75400001 12234104
-0.04093143 0.22189143 0.75400001 11970932
-0.039495237 0.22189143 0.75400001 12102002
-0.038109526 0.22218573 0.75500005 12365174
-0.036768574 0.2227743 0.75700003 12365170
-0.035326667 0.2227743 0.75700003 12365170
-0.03397429 0.22336288 0.75900006 12233838
-0.032528572 0.22336288 0.75900006 12694389
-0.031082857 0.22336288 0.75900006 12694650
-0.02971524 0.22395144 0.76100004 12694650
-0.028265715 0.22395144 0.76100004 12825716
-0.026851429 0.22424571 0.76200002 12957302
-0.025466667 0.22483431 0.76400006 12760443
-0.024074288 0.22542287 0.76600003 13089408
-0.022644762 0.22571714 0.76700002 12695409
-0.02123905 0.22630572 0.76900005 13221753
-0.019825716 0.22689429 0.77100003 13221251
-0.018428572 0.22777715 0.77400005 13681802
-0.016954288 0.22777715 0.77400005 13681545
-0.015520001 0.22836572 0.77600002 13418373
-0.014078096 0.2289543 0.77800006 13681536
-0.012628571 0.22954285 0.78000003 16775606
-0.089424767 0.22984383 0.77600002 15988201
-0.087719999 0.22925144 0.77400005 14998700
-0.086245723 0.22925144 0.77400005 13485461
-0.084661908 0.22895525 0.77300006 13484691
-0.082759053 0.22777049 0.76900005 12629382
-0.081294291 0.22777049 0.76900005 11709298
-0.079621911 0.2271781 0.76700002 9998680
-0.078059055 0.22688192 0.76600003 10524260
-0.0766 0.22688192 0.76600003 10590053
-0.074944772 0.22628954 0.76400006 11049823
-0.07329715 0.22569714 0.76200002 11247202
-0.071751431 0.22540095 0.76100004 11576662
-0.070117153 0.22480859 0.75900006 12103006
-0.068671428 0.22480859 0.75900006 11774589
-0.067225717 0.22480859 0.75900006 11643003
-0.065780006 0.22480859 0.75900006 10919532
-0.064164765 0.22421619 0.75700003 11445876
-0.062722854 0.22421619 0.75700003 11708266
-0.06111905 0.22362383 0.75500005 11708266
-0.059680957 0.22362383 0.75500005 12037488
-0.058242857 0.22362383 0.75500005 12037488
-0.056804765 0.22362383 0.75500005 12103283
-0.055366673 0.22362383 0.75500005 12300662
