# .PCD v0.7 - Point Cloud Data file format
VERSION 0.7
FIELDS x y z rgb
SIZE 4 4 4 4
TYPE F F F F
COUNT 1 1 1 1
WIDTH 1021
HEIGHT 1
VIEWPOINT 0 0 0 1 0 0 0
POINTS 1021
DATA ascii
-0.042120002 -0.1242 1.1340001 1.751574e-38
-0.039819047 -0.1237619 1.13 1.7700132e-38
-0.037666667 -0.1237619 1.13 1.788452e-38
-0.035514288 -0.1237619 1.13 1.7976716e-38
-0.033361904 -0.1237619 1.13 1.8253656e-38
-0.031209525 -0.1237619 1.13 1.7884873e-38
-0.027951429 -0.11905239 1.087 1.7608646e-38
-0.025880953 -0.11905239 1.087 1.5764734e-38
-0.023810476 -0.11905239 1.087 1.4475755e-38
-0.10402096 -0.12117905 1.126 1.7791942e-38
-0.10187619 -0.12117905 1.126 1.7883782e-38
-0.09973143 -0.12117905 1.126 1.8713542e-38
-0.098280005 -0.12204001 1.1340001 1.8437681e-38
-0.09612 -0.12204001 1.1340001 1.825329e-38
-0.094291434 -0.12247047 1.138 1.816146e-38
-0.092123814 -0.12247047 1.138 1.8622438e-38
-0.090193339 -0.12279333 1.141 1.8530596e-38
-0.088020004 -0.12279333 1.141 1.8622791e-38
-0.086147629 -0.12322382 1.1450001 1.8806461e-38
-0.083966672 -0.12322382 1.1450001 1.8990852e-38
-0.081785724 -0.12322382 1.1450001 1.8990502e-38
-0.079604767 -0.12322382 1.1450001 1.8898306e-38
-0.077423811 -0.12322382 1.1450001 1.9175249e-38
-0.075505719 -0.12365429 1.149 1.9267445e-38
-0.07331714 -0.12365429 1.149 1.9175249e-38
-0.071128577 -0.12365429 1.149 1.9083053e-38
-0.068939999 -0.12365429 1.149 1.9175609e-38
-0.066751435 -0.12365429 1.149 1.9267805e-38
-0.064562857 -0.12365429 1.149 1.9544392e-38
-0.06237429 -0.12365429 1.149 1.9544392e-38
-0.059976194 -0.12322382 1.1450001 1.9545108e-38
-0.057795241 -0.12322382 1.1450001 1.9637303e-38
-0.055614289 -0.12322382 1.1450001 1.9360354e-38
-0.053246666 -0.12279333 1.141 1.9360354e-38
-0.047581907 -0.11439905 1.0630001 1.9544395e-38
-0.045557145 -0.11439905 1.0630001 1.9544395e-38
-0.043532383 -0.11439905 1.0630001 1.9453275e-38
-0.041507624 -0.11439905 1.0630001 1.9545471e-38
-0.042120002 -0.12204001 1.1340001 1.9268536e-38
-0.037810478 -0.11547524 1.0730001 1.9176341e-38
-0.035766669 -0.11547524 1.0730001 1.7885599e-38
-0.033722863 -0.11547524 1.0730001 1.724023e-38
-0.031797145 -0.11590572 1.077 1.6595236e-38
-0.029828573 -0.11622858 1.08 1.4935714e-38
-0.027874289 -0.11665906 1.0840001 1.2909208e-38
-0.025809526 -0.11665906 1.0840001 1.0051144e-38
-0.023744764 -0.11665906 1.0840001 1.1893577e-38
-0.10182858 -0.11417143 1.08 1.4380338e-38
-0.099771433 -0.11417143 1.08 1.686962e-38
-0.1022381 -0.11945714 1.13 1.7515349e-38
-0.10008571 -0.11945714 1.13 1.7976328e-38
-0.098280005 -0.11988001 1.1340001 1.8344044e-38
-0.09612 -0.11988001 1.1340001 1.8528435e-38
-0.094291434 -0.12030286 1.138 1.8437328e-38
-0.092123814 -0.12030286 1.138 1.8621719e-38
-0.090193339 -0.12062 1.141 1.8898657e-38
-0.088020004 -0.12062 1.141 1.9083048e-38
-0.086147629 -0.12104286 1.1450001 1.9267089e-38
-0.083966672 -0.12104286 1.1450001 1.9174893e-38
-0.081785724 -0.12104286 1.1450001 1.9358559e-38
-0.079604767 -0.12104286 1.1450001 1.954295e-38
-0.077423811 -0.12104286 1.1450001 1.9727344e-38
-0.075505719 -0.12146572 1.149 1.9911735e-38
-0.07331714 -0.12146572 1.149 2.0281241e-38
-0.071128577 -0.12146572 1.149 2.0004654e-38
-0.068939999 -0.12146572 1.149 2.0189764e-38
-0.066751435 -0.12146572 1.149 2.028196e-38
-0.064562857 -0.12146572 1.149 2.0651105e-38
-0.06237429 -0.12146572 1.149 2.0466714e-38
-0.059976194 -0.12104286 1.1450001 2.0374515e-38
-0.057795241 -0.12104286 1.1450001 1.9913537e-38
-0.051631432 -0.1123743 1.0630001 1.991353e-38
-0.04960667 -0.1123743 1.0630001 1.991353e-38
-0.047581907 -0.1123743 1.0630001 2.0004301e-38
-0.045557145 -0.1123743 1.0630001 1.9727714e-38
-0.043532383 -0.1123743 1.0630001 1.9269237e-38
-0.041507624 -0.1123743 1.0630001 1.9177041e-38
-0.039482862 -0.1123743 1.0630001 1.8440946e-38
-0.037704762 -0.11311429 1.0700001 1.8348751e-38
-0.035666667 -0.11311429 1.0700001 1.5861967e-38
-0.033722863 -0.11343143 1.0730001 1.5216598e-38
-0.031797145 -0.11385429 1.077 1.4114566e-38
-0.029828573 -0.11417143 1.08 1.3561392e-38
-0.027874289 -0.1145943 1.0840001 1.1715723e-38
-0.025809526 -0.1145943 1.0840001 9.3186362e-39
-0.023744764 -0.1145943 1.0840001 1.2721831e-38
-0.021680001 -0.1145943 1.0840001 1.6870634e-38
-0.10427048 -0.11252954 1.0840001 1.1523735e-38
-0.10182858 -0.11211429 1.08 1.3185379e-38
-0.099494286 -0.11180286 1.077 1.3646357e-38
-0.097442858 -0.11180286 1.077 1.2910943e-38
-0.09539143 -0.11180286 1.077 1.2726552e-38
-0.092993334 -0.11138763 1.0730001 1.346095e-38
-0.090949535 -0.11138763 1.0730001 1.5765841e-38
-0.088657148 -0.11107619 1.0700001 1.5214447e-38
-0.086619049 -0.11107619 1.0700001 1.4845664e-38
-0.084580958 -0.11107619 1.0700001 1.5951289e-38
-0.082311429 -0.11076476 1.067 1.7887397e-38
-0.080279045 -0.11076476 1.067 1.8345861e-38
-0.078246668 -0.11076476 1.067 1.7792687e-38
-0.081785724 -0.11886191 1.1450001 1.8990833e-38
-0.079604767 -0.11886191 1.1450001 1.9820593e-38
-0.077423811 -0.11886191 1.1450001 1.9728423e-38
-0.075505719 -0.11927715 1.149 1.9636227e-38
-0.07331714 -0.11927715 1.149 1.8807908e-38
-0.071128577 -0.11927715 1.149 1.7609365e-38
-0.068939999 -0.11927715 1.149 1.7793766e-38
-0.066751435 -0.11927715 1.149 1.9084505e-38
-0.064562857 -0.11927715 1.149 2.009865e-38
-0.06237429 -0.11927715 1.149 2.009865e-38
-0.059976194 -0.11886191 1.1450001 1.9270331e-38
-0.053656194 -0.11034954 1.0630001 1.8163984e-38
-0.051631432 -0.11034954 1.0630001 1.8347649e-38
-0.04960667 -0.11034954 1.0630001 1.8808627e-38
-0.047581907 -0.11034954 1.0630001 1.7517908e-38
-0.045557145 -0.11034954 1.0630001 1.4383257e-38
-0.043532383 -0.11034954 1.0630001 1.3649622e-38
-0.041507624 -0.11034954 1.0630001 1.5032557e-38
-0.039482862 -0.11034954 1.0630001 1.678175e-38
-0.037704762 -0.11107619 1.0700001 1.4569055e-38
-0.035666667 -0.11107619 1.0700001 9.3229494e-39
-0.033722863 -0.11138763 1.0730001 7.7556237e-39
-0.031797145 -0.11180286 1.077 1.1163249e-38
-0.029745713 -0.11180286 1.077 1.5404248e-38
-0.027874289 -0.11252954 1.0840001 1.5305566e-38
-0.025809526 -0.11252954 1.0840001 1.0695785e-38
-0.023744764 -0.11252954 1.0840001 1.2261631e-38
-0.021680001 -0.11252954 1.0840001 1.650263e-38
-0.01961524 -0.11252954 1.0840001 1.6868541e-38
-0.10427048 -0.11046477 1.0840001 1.3459483e-38
-0.10154571 -0.10975143 1.077 1.3371594e-38
-0.099494286 -0.10975143 1.077 1.1158898e-38
-0.097442858 -0.10975143 1.077 8.9533779e-39
-0.09539143 -0.10975143 1.077 8.676791e-39
-0.092993334 -0.10934381 1.0730001 1.2359574e-38
-0.090949535 -0.10934381 1.0730001 1.4387878e-38
-0.088657148 -0.1090381 1.0700001 1.2636935e-38
-0.086619049 -0.1090381 1.0700001 1.2544739e-38
-0.084580958 -0.1090381 1.0700001 1.3467046e-38
-0.082311429 -0.10873239 1.067 1.6509502e-38
-0.080279045 -0.10873239 1.067 1.770229e-38
-0.078246668 -0.10873239 1.067 1.5397399e-38
-0.075928576 -0.10832477 1.0630001 1.6132016e-38
-0.073903814 -0.10832477 1.0630001 1.7883733e-38
-0.071879052 -0.10832477 1.0630001 1.8899741e-38
-0.069854289 -0.10832477 1.0630001 1.8991937e-38
-0.067638099 -0.10801905 1.0600001 1.6138576e-38
-0.065619051 -0.10801905 1.0600001 1.4294664e-38
-0.063600004 -0.10801905 1.0600001 1.4479002e-38
-0.061580956 -0.10801905 1.0600001 1.8166827e-38
-0.059561908 -0.10801905 1.0600001 1.8809729e-38
-0.057542857 -0.10801905 1.0600001 1.7979968e-38
-0.055523813 -0.10801905 1.0600001 1.7151634e-38
-0.053504765 -0.10801905 1.0600001 1.5215526e-38
-0.051631432 -0.10832477 1.0630001 1.5952362e-38
-0.04960667 -0.10832477 1.0630001 1.7796275e-38
-0.047581907 -0.10832477 1.0630001 1.6415161e-38
-0.045557145 -0.10832477 1.0630001 1.2911727e-38
-0.043532383 -0.10832477 1.0630001 9.7795961e-39
-0.041780956 -0.1090381 1.0700001 1.5495725e-38
-0.039742861 -0.1090381 1.0700001 1.7978867e-38
-0.037704762 -0.1090381 1.0700001 1.2170542e-38
-0.035666667 -0.1090381 1.0700001 8.3127057e-39
-0.033722863 -0.10934381 1.0730001 5.5468368e-39
-0.031797145 -0.10975143 1.077 9.5069048e-39
-0.029745713 -0.10975143 1.077 1.5038643e-38
-0.027874289 -0.11046477 1.0840001 1.6318273e-38
-0.025809526 -0.11046477 1.0840001 1.1431905e-38
-0.023744764 -0.11046477 1.0840001 1.2443864e-38
-0.021680001 -0.11046477 1.0840001 1.6777058e-38
-0.01961524 -0.11046477 1.0840001 1.6775982e-38
-0.10427048 -0.10840001 1.0840001 1.2909203e-38
-0.10154571 -0.1077 1.077 1.1161817e-38
-0.099494286 -0.1077 1.077 8.1193615e-39
-0.097442858 -0.1077 1.077 5.5522416e-39
-0.09539143 -0.1077 1.077 4.8146766e-39
-0.092993334 -0.10730001 1.0730001 7.8485003e-39
-0.090949535 -0.10730001 1.0730001 1.4302194e-38
-0.088905722 -0.10730001 1.0730001 1.6228599e-38
-0.086619049 -0.10700001 1.0700001 1.6781772e-38
-0.084580958 -0.10700001 1.0700001 1.724381e-38
-0.082311429 -0.1067 1.067 1.7796984e-38
-0.080279045 -0.1067 1.067 1.6227525e-38
-0.078246668 -0.1067 1.067 1.1248961e-38
-0.075928576 -0.1063 1.0630001 1.0972334e-38
-0.073903814 -0.1063 1.0630001 1.4936746e-38
-0.071879052 -0.1063 1.0630001 1.6963295e-38
-0.069854289 -0.1063 1.0630001 2.0190142e-38
-0.067638099 -0.106 1.0600001 1.8624609e-38
-0.065619051 -0.106 1.0600001 1.438361e-38
-0.063600004 -0.106 1.0600001 1.4480099e-38
-0.061580956 -0.106 1.0600001 1.9274272e-38
-0.059561908 -0.106 1.0600001 1.9364332e-38
-0.057542857 -0.106 1.0600001 1.7243832e-38
-0.055523813 -0.106 1.0600001 1.3931649e-38
-0.053504765 -0.106 1.0600001 1.3009693e-38
-0.051631432 -0.1063 1.0630001 1.4022393e-38
-0.04960667 -0.1063 1.0630001 1.6511675e-38
-0.047581907 -0.1063 1.0630001 1.7889205e-38
-0.045557145 -0.1063 1.0630001 1.7797009e-38
-0.043532383 -0.1063 1.0630001 1.7979965e-38
-0.041780956 -0.10700001 1.0700001 1.8440943e-38
-0.039742861 -0.10700001 1.0700001 1.6232532e-38
-0.037704762 -0.10700001 1.0700001 9.6866424e-39
-0.035766669 -0.10730001 1.0730001 4.1772455e-39
-0.033722863 -0.10730001 1.0730001 3.0708979e-39
-0.031797145 -0.1077 1.077 7.757734e-39
-0.029745713 -0.1077 1.077 1.1998733e-38
-0.02777143 -0.108 1.08 1.3922234e-38
-0.025714288 -0.108 1.08 9.9578217e-39
-0.023744764 -0.10840001 1.0840001 1.2076883e-38
-0.021680001 -0.10840001 1.0840001 1.6225687e-38
-0.01961524 -0.10840001 1.0840001 1.6683787e-38
-0.10154571 -0.10564857 1.077 9.966839e-39
-0.099494286 -0.10564857 1.077 6.6477963e-39
-0.097442858 -0.10564857 1.077 3.621541e-39
-0.09539143 -0.10564857 1.077 3.3449541e-39
-0.092993334 -0.10525619 1.0730001 7.204535e-39
-0.090949535 -0.10525619 1.0730001 1.2183099e-38
-0.088905722 -0.10525619 1.0730001 1.6597362e-38
-0.086619049 -0.10496191 1.0700001 1.8349079e-38
-0.084580958 -0.10496191 1.0700001 1.8624249e-38
-0.082542859 -0.10496191 1.0700001 1.6872532e-38
-0.080279045 -0.10466762 1.067 1.3281934e-38
-0.078246668 -0.10466762 1.067 1.0516065e-38
-0.076214284 -0.10466762 1.067 1.0054318e-38
-0.074181899 -0.10466762 1.067 1.2174817e-38
-0.07214953 -0.10466762 1.067 1.5855099e-38
-0.070117146 -0.10466762 1.067 1.9266338e-38
-0.067829534 -0.10427524 1.0630001 2.0191562e-38
-0.065804772 -0.10427524 1.0630001 1.8716432e-38
-0.063780002 -0.10427524 1.0630001 1.6785741e-38
-0.06175524 -0.10427524 1.0630001 1.8998436e-38
-0.059561908 -0.10398096 1.0600001 1.8904796e-38
-0.057542857 -0.10398096 1.0600001 1.5954536e-38
-0.055680957 -0.10427524 1.0630001 1.2646651e-38
-0.053656194 -0.10427524 1.0630001 1.2277869e-38
-0.051631432 -0.10427524 1.0630001 1.2920724e-38
-0.04960667 -0.10427524 1.0630001 1.3934876e-38
-0.047581907 -0.10427524 1.0630001 1.724383e-38
-0.045557145 -0.10427524 1.0630001 1.9364329e-38
-0.043819048 -0.10496191 1.0700001 2.0190865e-38
-0.041780956 -0.10496191 1.0700001 1.6871823e-38
-0.039742861 -0.10496191 1.0700001 1.1814352e-38
-0.037704762 -0.10496191 1.0700001 6.7435919e-39
-0.035766669 -0.10525619 1.0730001 5.0059202e-39
-0.033848573 -0.10564857 1.077 4.6371376e-39
-0.031797145 -0.10564857 1.077 6.9312132e-39
-0.029745713 -0.10564857 1.077 1.0434647e-38
-0.02777143 -0.10594286 1.08 1.1345107e-38
-0.025714288 -0.10594286 1.08 1.023876e-38
-0.023744764 -0.10633525 1.0840001 1.2261631e-38
-0.021739999 -0.10662952 1.087 1.585726e-38
-0.019669523 -0.10662952 1.087 1.6221727e-38
-0.10154571 -0.10359714 1.077 8.9559143e-39
-0.099494286 -0.10359714 1.077 5.3602847e-39
-0.097442858 -0.10359714 1.077 2.5202381e-39
-0.09539143 -0.10359714 1.077 3.4421944e-39
-0.093340002 -0.10359714 1.077 5.0930739e-39
-0.090949535 -0.10321239 1.0730001 6.1072258e-39
-0.088905722 -0.10321239 1.0730001 1.4200939e-38
-0.086861916 -0.10321239 1.0730001 1.8810721e-38
-0.084580958 -0.10292382 1.0700001 1.8714602e-38
-0.082542859 -0.10292382 1.0700001 1.1615538e-38
-0.080504768 -0.10292382 1.0700001 1.0697564e-38
-0.078466676 -0.10292382 1.0700001 1.1896108e-38
-0.076428577 -0.10292382 1.0700001 1.1803564e-38
-0.074181899 -0.10263524 1.067 1.1434782e-38
-0.07214953 -0.10263524 1.067 1.3185696e-38
-0.070117146 -0.10263524 1.067 1.4937413e-38
-0.067829534 -0.10225048 1.0630001 1.7332778e-38
-0.065804772 -0.10225048 1.0630001 2.1665973e-38
-0.063780002 -0.10225048 1.0630001 2.0469954e-38
-0.06175524 -0.10225048 1.0630001 1.7611889e-38
-0.059730481 -0.10225048 1.0630001 1.439298e-38
-0.057705715 -0.10225048 1.0630001 1.3839807e-38
-0.055680957 -0.10225048 1.0630001 1.2647014e-38
-0.053656194 -0.10225048 1.0630001 1.2554819e-38
-0.051631432 -0.10225048 1.0630001 1.2830336e-38
-0.049793333 -0.10263524 1.067 1.2369358e-38
-0.047760952 -0.10263524 1.067 1.4758501e-38
-0.045728575 -0.10263524 1.067 1.7893152e-38
-0.043819048 -0.10292382 1.0700001 1.8627133e-38
-0.041780956 -0.10292382 1.0700001 1.318759e-38
-0.039742861 -0.10292382 1.0700001 5.0055909e-39
-0.037810478 -0.10321239 1.0730001 3.8992433e-39
-0.035766669 -0.10321239 1.0730001 4.8229834e-39
-0.033848573 -0.10359714 1.077 3.9932228e-39
-0.031797145 -0.10359714 1.077 7.9428638e-39
-0.029745713 -0.10359714 1.077 1.2368254e-38
-0.027874289 -0.10427048 1.0840001 1.3277985e-38
-0.025809526 -0.10427048 1.0840001 1.0880899e-38
-0.023744764 -0.10427048 1.0840001 1.2627567e-38
-0.021739999 -0.10455905 1.087 1.6499784e-38
-0.019669523 -0.10455905 1.087 1.7235506e-38
-0.10182858 -0.10182858 1.08 8.6800687e-39
-0.099494286 -0.10154571 1.077 5.6376129e-39
-0.097442858 -0.10154571 1.077 1.7833891e-39
-0.09539143 -0.10154571 1.077 3.1663236e-39
-0.093340002 -0.10154571 1.077 2.3376517e-39
-0.091288574 -0.10154571 1.077 1.6000867e-39
-0.088905722 -0.10116857 1.0730001 9.5983942e-39
-0.086861916 -0.10116857 1.0730001 1.7158436e-38
-0.084818102 -0.10116857 1.0730001 1.6228261e-38
-0.082542859 -0.10088572 1.0700001 1.0327741e-38
-0.080504768 -0.10088572 1.0700001 9.5919356e-39
-0.078466676 -0.10088572 1.0700001 1.1712435e-38
-0.076428577 -0.10088572 1.0700001 1.2355656e-38
-0.074390478 -0.10088572 1.0700001 1.2171265e-38
-0.07235238 -0.10088572 1.0700001 1.1528735e-38
-0.070117146 -0.10060286 1.067 1.079117e-38
-0.068084762 -0.10060286 1.067 1.5028581e-38
-0.065804772 -0.10022572 1.0630001 2.1666667e-38
-0.063780002 -0.10022572 1.0630001 2.0378862e-38
-0.06175524 -0.10022572 1.0630001 1.5400298e-38
-0.059955239 -0.10060286 1.067 1.2369709e-38
-0.057922855 -0.10060286 1.067 1.2830687e-38
-0.055890478 -0.10060286 1.067 1.2555898e-38
-0.053858098 -0.10060286 1.067 1.2648093e-38
-0.051825713 -0.10060286 1.067 1.2738857e-38
-0.049933337 -0.10088572 1.0700001 1.1909096e-38
-0.047895238 -0.10088572 1.0700001 1.2001985e-38
-0.045985717 -0.10116857 1.0730001 1.5966398e-38
-0.043941908 -0.10116857 1.0730001 1.6790798e-38
-0.041898098 -0.10116857 1.0730001 1.0890278e-38
-0.039854288 -0.10116857 1.0730001 2.984463e-39
-0.037810478 -0.10116857 1.0730001 2.6156805e-39
-0.0359 -0.10154571 1.077 3.3518008e-39
-0.033848573 -0.10154571 1.077 2.8908227e-39
-0.031797145 -0.10154571 1.077 8.2187248e-39
-0.029828573 -0.10182858 1.08 1.2920702e-38
-0.027874289 -0.10220572 1.0840001 1.5028238e-38
-0.025809526 -0.10220572 1.0840001 1.3460912e-38
-0.023744764 -0.10220572 1.0840001 1.4562568e-38
-0.10248857 -0.1004181 1.087 1.0424628e-38
-0.10014096 -0.10014096 1.0840001 1.0240237e-38
-0.098076202 -0.10014096 1.0840001 5.5529927e-39
-0.095657147 -0.099771433 1.08 4.1700582e-39
-0.093340002 -0.099494286 1.077 1.6933907e-39
-0.091288574 -0.099494286 1.077 1.3246082e-39
-0.089237146 -0.099494286 1.077 9.9664789e-39
-0.086861916 -0.099124767 1.0730001 1.7157738e-38
-0.084818102 -0.099124767 1.0730001 1.7334561e-38
-0.082774296 -0.099124767 1.0730001 1.0235497e-38
-0.080730483 -0.099124767 1.0730001 9.133854e-39
-0.078466676 -0.098847628 1.0700001 1.0977767e-38
-0.076428577 -0.098847628 1.0700001 1.2079072e-38
-0.074390478 -0.098847628 1.0700001 1.2355659e-38
-0.07235238 -0.098847628 1.0700001 1.1435858e-38
-0.070314288 -0.098847628 1.0700001 9.8685323e-39
-0.068276189 -0.098847628 1.0700001 1.2726922e-38
-0.066052385 -0.098570473 1.067 2.0194768e-38
-0.06402 -0.098570473 1.067 1.9734193e-38
-0.061987624 -0.098570473 1.067 1.4663434e-38
-0.060123812 -0.098847628 1.0700001 1.1268408e-38
-0.058085714 -0.098847628 1.0700001 1.2190365e-38
-0.056047622 -0.098847628 1.0700001 1.2832848e-38
-0.054009527 -0.098847628 1.0700001 1.3017239e-38
-0.051971432 -0.098847628 1.0700001 1.273922e-38
-0.049933337 -0.098847628 1.0700001 1.1909459e-38
-0.048029527 -0.099124767 1.0730001 1.3380614e-38
-0.045985717 -0.099124767 1.0730001 1.7068439e-38
-0.043941908 -0.099124767 1.0730001 1.844418e-38
-0.041898098 -0.099124767 1.0730001 1.4848551e-38
-0.039854288 -0.099124767 1.0730001 5.0992691e-39
-0.037951428 -0.099494286 1.077 3.1631608e-39
-0.0359 -0.099494286 1.077 1.6973382e-39
-0.033848573 -0.099494286 1.077 4.2788158e-39
-0.031885713 -0.099771433 1.08 1.1166118e-38
-0.02993905 -0.10014096 1.0840001 1.4024182e-38
-0.028028572 -0.10069524 1.09 1.5674651e-38
-0.02595238 -0.10069524 1.09 1.5398064e-38
-0.023876192 -0.10069524 1.09 1.6498677e-38
-0.10014096 -0.098076202 1.0840001 1.282055e-38
-0.098076202 -0.098076202 1.0840001 8.8652082e-39
-0.095657147 -0.09771429 1.08 4.5320136e-39
-0.093340002 -0.097442858 1.077 1.1394462e-39
-0.091288574 -0.097442858 1.077 2.8911632e-39
-0.089237146 -0.097442858 1.077 1.1622407e-38
-0.087185711 -0.097442858 1.077 1.7338536e-38
-0.084818102 -0.097080953 1.0730001 1.6967255e-38
-0.082774296 -0.097080953 1.0730001 1.1712104e-38
-0.080730483 -0.097080953 1.0730001 9.4097178e-39
-0.078686669 -0.097080953 1.0730001 1.0792652e-38
-0.076642863 -0.097080953 1.0730001 1.207763e-38
-0.07459905 -0.097080953 1.0730001 1.2446413e-38
-0.07235238 -0.096809521 1.0700001 1.1251817e-38
-0.070314288 -0.096809521 1.0700001 1.0606448e-38
-0.068276189 -0.096809521 1.0700001 1.3461641e-38
-0.066238098 -0.096809521 1.0700001 2.0468509e-38
-0.064200006 -0.096809521 1.0700001 1.9458688e-38
-0.062161908 -0.096809521 1.0700001 1.5494276e-38
-0.060123812 -0.096809521 1.0700001 1.1082952e-38
-0.058085714 -0.096809521 1.0700001 1.1820517e-38
-0.056047622 -0.096809521 1.0700001 1.2373308e-38
-0.054009527 -0.096809521 1.0700001 1.2465504e-38
-0.052117147 -0.097080953 1.0730001 1.2464065e-38
-0.050073337 -0.097080953 1.0730001 1.2279674e-38
-0.048029527 -0.097080953 1.0730001 1.4942567e-38
-0.045985717 -0.097080953 1.0730001 1.7892827e-38
-0.043941908 -0.097080953 1.0730001 1.9640896e-38
-0.041898098 -0.097080953 1.0730001 1.8165766e-38
-0.039854288 -0.097080953 1.0730001 1.1358845e-38
-0.037951428 -0.097442858 1.077 4.6285645e-39
-0.0359 -0.097442858 1.077 2.1553736e-39
-0.033848573 -0.097442858 1.077 6.3963726e-39
-0.032003812 -0.098076202 1.0840001 1.4202446e-38
-0.02993905 -0.098076202 1.0840001 1.3464881e-38
-0.027951429 -0.098347619 1.087 1.4015119e-38
-0.02595238 -0.098619051 1.09 1.5490249e-38
-0.023876192 -0.098619051 1.09 1.6499039e-38
-0.10277143 -0.096542858 1.09 9.686222e-39
-0.10069524 -0.096542858 1.09 1.4296003e-38
-0.098347619 -0.096277148 1.087 1.171646e-38
-0.096277148 -0.096277148 1.087 7.4754607e-39
-0.093600005 -0.095657147 1.08 6.6564157e-39
-0.091288574 -0.09539143 1.077 1.2188154e-38
-0.089237146 -0.09539143 1.077 1.604599e-38
-0.087185711 -0.09539143 1.077 1.752112e-38
-0.085134283 -0.09539143 1.077 1.7242047e-38
-0.083082855 -0.09539143 1.077 1.6504482e-38
-0.080730483 -0.095037147 1.0730001 1.3188313e-38
-0.078686669 -0.095037147 1.0730001 1.0145858e-38
-0.076642863 -0.095037147 1.0730001 9.9618224e-39
-0.07459905 -0.095037147 1.0730001 1.0146214e-38
-0.072555244 -0.095037147 1.0730001 1.1802826e-38
-0.070314288 -0.09477143 1.0700001 1.6596999e-38
-0.068276189 -0.09477143 1.0700001 1.7886328e-38
-0.066238098 -0.09477143 1.0700001 2.0191218e-38
-0.064200006 -0.09477143 1.0700001 1.9640553e-38
-0.062161908 -0.09477143 1.0700001 1.9087379e-38
-0.060123812 -0.09477143 1.0700001 1.5959593e-38
-0.058085714 -0.09477143 1.0700001 1.3654702e-38
-0.056204766 -0.095037147 1.0730001 1.2280037e-38
-0.054160956 -0.095037147 1.0730001 1.200345e-38
-0.052117147 -0.095037147 1.0730001 1.3382058e-38
-0.050073337 -0.095037147 1.0730001 1.6055732e-38
-0.048029527 -0.095037147 1.0730001 1.8442378e-38
-0.045985717 -0.095037147 1.0730001 1.7428226e-38
-0.044105716 -0.09539143 1.077 1.8626332e-38
-0.042054288 -0.09539143 1.077 2.0193658e-38
-0.04000286 -0.09539143 1.077 1.7889953e-38
-0.037951428 -0.09539143 1.077 1.374115e-38
-0.0359 -0.09539143 1.077 1.273517e-38
-0.03394286 -0.095657147 1.08 1.4763474e-38
-0.032003812 -0.096011437 1.0840001 1.5125841e-38
-0.030021906 -0.096277148 1.087 1.1069234e-38
-0.027951429 -0.096277148 1.087 1.1529107e-38
-0.02595238 -0.096542858 1.09 1.4571563e-38
-0.023876192 -0.096542858 1.09 1.6406491e-38
-0.10761047 -0.095073335 1.097 1.7608649e-38
-0.10523239 -0.094813339 1.0940001 1.0693977e-38
-0.10277143 -0.094466671 1.09 7.836892e-39
-0.10069524 -0.094466671 1.09 1.272326e-38
-0.098347619 -0.094206668 1.087 1.5028969e-38
-0.096277148 -0.094206668 1.087 1.1341144e-38
-0.09394668 -0.09394668 1.0840001 1.0884479e-38
-0.091542862 -0.093600005 1.08 1.5863043e-38
-0.08948572 -0.093600005 1.08 1.6874321e-38
-0.087185711 -0.093340002 1.077 1.5952365e-38
-0.085134283 -0.093340002 1.077 1.6872882e-38
-0.083082855 -0.093340002 1.077 1.7794838e-38
-0.080730483 -0.092993334 1.0730001 1.6689226e-38
-0.078686669 -0.092993334 1.0730001 1.1618467e-38
-0.076642863 -0.092993334 1.0730001 9.8695735e-39
-0.07459905 -0.092993334 1.0730001 1.1160312e-38
-0.072555244 -0.092993334 1.0730001 1.3184714e-38
-0.070511431 -0.092993334 1.0730001 1.8716451e-38
-0.068467624 -0.092993334 1.0730001 1.908631e-38
-0.066423811 -0.092993334 1.0730001 1.7887767e-38
-0.064380005 -0.092993334 1.0730001 1.8625643e-38
-0.062336192 -0.092993334 1.0730001 2.0100773e-38
-0.060292382 -0.092993334 1.0730001 1.9272499e-38
-0.058248572 -0.092993334 1.0730001 1.6414435e-38
-0.056204766 -0.092993334 1.0730001 1.2647027e-38
-0.054160956 -0.092993334 1.0730001 1.2001658e-38
-0.052117147 -0.092993334 1.0730001 1.4667762e-38
-0.050073337 -0.092993334 1.0730001 1.7986805e-38
-0.048029527 -0.092993334 1.0730001 1.9547997e-38
-0.046157144 -0.093340002 1.077 1.4569433e-38
-0.044105716 -0.093340002 1.077 1.5394095e-38
-0.042054288 -0.093340002 1.077 1.8897529e-38
-0.04000286 -0.093340002 1.077 2.0190846e-38
-0.038057145 -0.093600005 1.08 1.8439129e-38
-0.036000002 -0.093600005 1.08 1.4850709e-38
-0.03394286 -0.093600005 1.08 1.568047e-38
-0.032003812 -0.09394668 1.0840001 1.503293e-38
-0.030021906 -0.094206668 1.087 1.0238757e-38
-0.027951429 -0.094206668 1.087 9.8735055e-39
-0.026047621 -0.094813339 1.0940001 1.3837918e-38
-0.023963811 -0.094813339 1.0940001 1.6314661e-38
-0.11010001 -0.093322858 1.1010001 1.9266369e-38
-0.10761047 -0.092983812 1.097 1.8345132e-38
-0.10523239 -0.092729531 1.0940001 1.1983634e-38
-0.10314858 -0.092729531 1.0940001 7.467846e-39
-0.10069524 -0.092390478 1.09 8.3898023e-39
-0.098347619 -0.092136197 1.087 1.1432999e-38
-0.096277148 -0.092136197 1.087 1.6042781e-38
-0.094466671 -0.092390478 1.09 1.5953797e-38
-0.091881916 -0.091881916 1.0840001 1.5953797e-38
-0.08948572 -0.091542862 1.08 1.3467787e-38
-0.08742857 -0.091542862 1.08 1.2177048e-38
-0.085134283 -0.091288574 1.077 1.300608e-38
-0.083082855 -0.091288574 1.077 1.6878297e-38
-0.081031427 -0.091288574 1.077 1.7703028e-38
-0.078979999 -0.091288574 1.077 1.6504485e-38
-0.076928571 -0.091288574 1.077 1.6044862e-38
-0.07459905 -0.090949535 1.0730001 1.6874622e-38
-0.072555244 -0.090949535 1.0730001 1.8717142e-38
-0.070511431 -0.090949535 1.0730001 2.0007881e-38
-0.068467624 -0.090949535 1.0730001 1.6140757e-38
-0.066423811 -0.090949535 1.0730001 1.0516823e-38
-0.064380005 -0.090949535 1.0730001 1.1260424e-38
-0.062336192 -0.090949535 1.0730001 1.6423379e-38
-0.060292382 -0.090949535 1.0730001 1.8903357e-38
-0.058248572 -0.090949535 1.0730001 2.0194095e-38
-0.056204766 -0.090949535 1.0730001 1.9457581e-38
-0.054160956 -0.090949535 1.0730001 1.7521473e-38
-0.052117147 -0.090949535 1.0730001 1.8074322e-38
-0.050073337 -0.090949535 1.0730001 1.8627496e-38
-0.048208572 -0.091288574 1.077 1.7059776e-38
-0.046157144 -0.091288574 1.077 1.0882669e-38
-0.044105716 -0.091288574 1.077 1.0973078e-38
-0.042054288 -0.091288574 1.077 1.3277969e-38
-0.04000286 -0.091288574 1.077 1.6319317e-38
-0.038057145 -0.091542862 1.08 1.9822751e-38
-0.036000002 -0.091542862 1.08 1.9086644e-38
-0.034068573 -0.091881916 1.0840001 1.5767601e-38
-0.032092378 -0.092136197 1.087 1.3009648e-38
-0.030021906 -0.092136197 1.087 9.7828009e-39
-0.028028572 -0.092390478 1.09 1.033417e-38
-0.026047621 -0.092729531 1.0940001 1.328443e-38
-0.024029525 -0.092983812 1.097 1.6406856e-38
-0.02194 -0.092983812 1.097 1.7697595e-38
-0.11010001 -0.091225713 1.1010001 1.8990852e-38
-0.10761047 -0.090894289 1.097 1.8898306e-38
-0.10552095 -0.090894289 1.097 1.2629003e-38
-0.10314858 -0.090645723 1.0940001 7.6511681e-39
-0.10069524 -0.090314284 1.09 7.0057987e-39
-0.098619051 -0.090314284 1.09 1.1061622e-38
-0.096542858 -0.090314284 1.09 1.7791903e-38
-0.094466671 -0.090314284 1.09 1.6782135e-38
-0.091881916 -0.089817151 1.0840001 1.521481e-38
-0.08948572 -0.08948572 1.08 1.1538486e-38
-0.08742857 -0.08948572 1.08 1.0708726e-38
-0.085134283 -0.089237146 1.077 1.1445572e-38
-0.083082855 -0.089237146 1.077 1.3658267e-38
-0.081031427 -0.089237146 1.077 1.7426422e-38
-0.078979999 -0.089237146 1.077 1.7703008e-38
-0.076928571 -0.089237146 1.077 1.7608646e-38
-0.07459905 -0.088905722 1.0730001 1.9544755e-38
-0.072555244 -0.088905722 1.0730001 1.8996981e-38
-0.070511431 -0.088905722 1.0730001 1.7706243e-38
-0.068467624 -0.088905722 1.0730001 1.2647014e-38
-0.066423811 -0.088905722 1.0730001 6.1011246e-39
-0.064380005 -0.088905722 1.0730001 5.4672136e-39
-0.062336192 -0.088905722 1.0730001 9.5238213e-39
-0.060292382 -0.088905722 1.0730001 1.7978486e-38
-0.058248572 -0.088905722 1.0730001 2.083655e-38
-0.056204766 -0.088905722 1.0730001 2.1205358e-38
-0.054160956 -0.088905722 1.0730001 2.0375597e-38
-0.052117147 -0.088905722 1.0730001 1.9180304e-38
-0.050073337 -0.088905722 1.0730001 1.6045652e-38
-0.048208572 -0.089237146 1.077 1.4385036e-38
-0.046157144 -0.089237146 1.077 1.1711363e-38
-0.044105716 -0.089237146 1.077 1.0514618e-38
-0.042054288 -0.089237146 1.077 1.0238031e-38
-0.04000286 -0.089237146 1.077 1.3643476e-38
-0.038057145 -0.08948572 1.08 2.0189366e-38
-0.036000002 -0.08948572 1.08 1.8903382e-38
-0.034068573 -0.089817151 1.0840001 1.3924818e-38
-0.032092378 -0.09006571 1.087 1.1169348e-38
-0.030104762 -0.090314284 1.09 9.4176309e-39
-0.028028572 -0.090314284 1.09 1.014906e-38
-0.026047621 -0.090645723 1.0940001 1.3836885e-38
-0.024029525 -0.090894289 1.097 1.6406856e-38
-0.02194 -0.090894289 1.097 1.7513204e-38
-0.10761047 -0.088804767 1.097 1.8253293e-38
-0.10523239 -0.088561907 1.0940001 1.4012294e-38
-0.10314858 -0.088561907 1.0940001 7.4697125e-39
-0.10069524 -0.088238098 1.09 5.3492131e-39
-0.098619051 -0.088238098 1.09 7.931666e-39
-0.096542858 -0.088238098 1.09 1.4477556e-38
-0.094466671 -0.088238098 1.09 1.5032206e-38
-0.092136197 -0.087995239 1.087 1.2542924e-38
-0.089817151 -0.087752387 1.0840001 1.0432872e-38
-0.08742857 -0.08742857 1.08 1.1262632e-38
-0.085371435 -0.08742857 1.08 1.1355184e-38
-0.083314285 -0.08742857 1.08 1.1539575e-38
-0.081031427 -0.087185711 1.077 1.3560333e-38
-0.078979999 -0.087185711 1.077 1.7340354e-38
-0.076928571 -0.087185711 1.077 1.8901919e-38
-0.074877143 -0.087185711 1.077 1.9362897e-38
-0.072825715 -0.087185711 1.077 1.6693896e-38
-0.070511431 -0.086861916 1.0730001 1.0793375e-38
-0.068467624 -0.086861916 1.0730001 5.9293282e-39
-0.066423811 -0.086861916 1.0730001 6.0215238e-39
-0.064380005 -0.086861916 1.0730001 6.5743473e-39
-0.062336192 -0.086861916 1.0730001 5.652391e-39
-0.060292382 -0.086861916 1.0730001 1.08016e-38
-0.058248572 -0.086861916 1.0730001 1.5411381e-38
-0.056204766 -0.086861916 1.0730001 2.000859e-38
-0.054160956 -0.086861916 1.0730001 2.0561764e-38
-0.052117147 -0.086861916 1.0730001 1.9362865e-38
-0.050073337 -0.086861916 1.0730001 1.1895019e-38
-0.048208572 -0.087185711 1.077 1.1251464e-38
-0.046157144 -0.087185711 1.077 1.2450007e-38
-0.044105716 -0.087185711 1.077 1.2079092e-38
-0.042054288 -0.087185711 1.077 1.106494e-38
-0.040114287 -0.08742857 1.08 1.0972006e-38
-0.038057145 -0.08742857 1.08 1.6780331e-38
-0.036133334 -0.087752387 1.0840001 1.724563e-38
-0.034068573 -0.087752387 1.0840001 1.2728044e-38
-0.032092378 -0.087995239 1.087 9.6956822e-39
-0.030104762 -0.088238098 1.09 9.234704e-39
-0.028028572 -0.088238098 1.09 1.1805357e-38
-0.026047621 -0.088561907 1.0940001 1.4940008e-38
-0.024029525 -0.088804767 1.097 1.7605737e-38
-0.02194 -0.088804767 1.097 1.8066715e-38
-0.10761047 -0.086715236 1.097 1.7516451e-38
-0.10455905 -0.08592476 1.087 1.4381799e-38
-0.10248857 -0.08592476 1.087 1.0878734e-38
-0.10069524 -0.086161904 1.09 5.90017e-39
-0.098619051 -0.086161904 1.09 6.1831118e-39
-0.096542858 -0.086161904 1.09 1.4665094e-38
-0.094466671 -0.086161904 1.09 1.4205708e-38
-0.092136197 -0.08592476 1.087 1.162423e-38
-0.09006571 -0.08592476 1.087 1.0066237e-38
-0.087752387 -0.085687622 1.0840001 1.1172585e-38
-0.085371435 -0.085371435 1.08 1.1080405e-38
-0.083314285 -0.085371435 1.08 1.0711622e-38
-0.081031427 -0.085134283 1.077 1.1262632e-38
-0.078979999 -0.085134283 1.077 1.5503631e-38
-0.076928571 -0.085134283 1.077 1.770807e-38
-0.074877143 -0.085134283 1.077 1.7339287e-38
-0.072825715 -0.085134283 1.077 1.2555885e-38
-0.070774287 -0.085134283 1.077 6.5631691e-39
-0.068722859 -0.085134283 1.077 3.8163985e-39
-0.066671431 -0.085134283 1.077 5.6603111e-39
-0.064619996 -0.085134283 1.077 6.6683408e-39
-0.062336192 -0.084818102 1.0730001 5.1932107e-39
-0.060292382 -0.084818102 1.0730001 3.6333946e-39
-0.058248572 -0.084818102 1.0730001 8.5197629e-39
-0.056204766 -0.084818102 1.0730001 1.7522205e-38
-0.054160956 -0.084818102 1.0730001 1.8812943e-38
-0.052117147 -0.084818102 1.0730001 1.7793759e-38
-0.050073337 -0.084818102 1.0730001 1.1985435e-38
-0.048208572 -0.085134283 1.077 1.1342583e-38
-0.046157144 -0.085134283 1.077 1.2633322e-38
-0.044105716 -0.085134283 1.077 1.2539347e-38
-0.042054288 -0.085134283 1.077 1.1340804e-38
-0.040114287 -0.085371435 1.08 9.5940838e-39
-0.038198099 -0.085687622 1.0840001 1.641656e-38
-0.036133334 -0.085687622 1.0840001 1.641806e-38
-0.03416286 -0.08592476 1.087 1.2269256e-38
-0.032092378 -0.08592476 1.087 9.3276087e-39
-0.030104762 -0.086161904 1.09 9.0510218e-39
-0.028028572 -0.086161904 1.09 1.1989357e-38
-0.026047621 -0.086478107 1.0940001 1.5031813e-38
-0.023963811 -0.086478107 1.0940001 1.7605753e-38
-0.021880003 -0.086478107 1.0940001 1.8066731e-38
-0.10455905 -0.083854288 1.087 1.6500497e-38
-0.10248857 -0.083854288 1.087 1.1527378e-38
-0.10069524 -0.084085718 1.09 4.4283147e-39
-0.098347619 -0.083854288 1.087 6.0006193e-39
-0.096277148 -0.083854288 1.087 1.4113835e-38
-0.094466671 -0.084085718 1.09 1.5216257e-38
-0.092136197 -0.083854288 1.087 1.3648932e-38
-0.09006571 -0.083854288 1.087 1.1629247e-38
-0.087752387 -0.083622865 1.0840001 1.1813638e-38
-0.085687622 -0.083622865 1.0840001 1.1263001e-38
-0.083314285 -0.083314285 1.08 1.1355196e-38
-0.081257142 -0.083314285 1.08 1.1446676e-38
-0.0792 -0.083314285 1.08 1.4304741e-38
-0.076928571 -0.083082855 1.077 1.6786101e-38
-0.074877143 -0.083082855 1.077 1.5310971e-38
-0.072825715 -0.083082855 1.077 1.1634269e-38
-0.070774287 -0.083082855 1.077 6.5635096e-39
-0.068722859 -0.083082855 1.077 5.0124194e-39
-0.066671431 -0.083082855 1.077 6.0265713e-39
-0.064619996 -0.083082855 1.077 6.6679849e-39
-0.062568568 -0.083082855 1.077 6.2992023e-39
-0.060517143 -0.083082855 1.077 5.1953659e-39
-0.058248572 -0.082774296 1.0730001 7.5002567e-39
-0.056204766 -0.082774296 1.0730001 1.6602018e-38
-0.054160956 -0.082774296 1.0730001 1.7892757e-38
-0.052117147 -0.082774296 1.0730001 1.7056905e-38
-0.050073337 -0.082774296 1.0730001 1.1617363e-38
-0.048208572 -0.083082855 1.077 1.1067088e-38
-0.046157144 -0.083082855 1.077 1.1896849e-38
-0.044105716 -0.083082855 1.077 1.2446435e-38
-0.042054288 -0.083082855 1.077 1.1893261e-38
-0.040114287 -0.083314285 1.08 1.1986896e-38
-0.038198099 -0.083622865 1.0840001 1.8256199e-38
-0.036133334 -0.083622865 1.0840001 1.8257982e-38
-0.03416286 -0.083854288 1.087 1.5584308e-38
-0.032092378 -0.083854288 1.087 1.2362872e-38
-0.030104762 -0.084085718 1.09 1.1533111e-38
-0.028028572 -0.084085718 1.09 1.1896463e-38
-0.026047621 -0.084394291 1.0940001 1.4201354e-38
-0.023963811 -0.084394291 1.0940001 1.7605737e-38
-0.10277143 -0.082009524 1.09 1.4293932e-38
-0.10069524 -0.082009524 1.09 7.4714558e-39
-0.098347619 -0.081783809 1.087 8.8514839e-39
-0.096277148 -0.081783809 1.087 1.5858352e-38
-0.094466671 -0.082009524 1.09 1.668956e-38
-0.092390478 -0.082009524 1.09 1.5398821e-38
-0.09006571 -0.081783809 1.087 1.2088803e-38
-0.087995239 -0.081783809 1.087 1.1812216e-38
-0.085687622 -0.081558101 1.0840001 1.0802736e-38
-0.083622865 -0.081558101 1.0840001 1.1079323e-38
-0.081257142 -0.081257142 1.08 1.1446673e-38
-0.0792 -0.081257142 1.08 1.467352e-38
-0.076928571 -0.081031427 1.077 1.6234375e-38
-0.074877143 -0.081031427 1.077 1.5681201e-38
-0.072825715 -0.081031427 1.077 1.144956e-38
-0.070774287 -0.081031427 1.077 6.6553872e-39
-0.068722859 -0.081031427 1.077 4.6429054e-39
-0.066671431 -0.081031427 1.077 5.6570573e-39
-0.064619996 -0.081031427 1.077 6.0236846e-39
-0.062568568 -0.081031427 1.077 5.5627065e-39
-0.060517143 -0.081031427 1.077 3.8163943e-39
-0.058248572 -0.080730483 1.0730001 7.873002e-39
-0.056204766 -0.080730483 1.0730001 1.623111e-38
-0.054160956 -0.080730483 1.0730001 1.7982827e-38
-0.052117147 -0.080730483 1.0730001 1.7149126e-38
-0.050073337 -0.080730483 1.0730001 1.1525192e-38
-0.048208572 -0.081031427 1.077 1.1248596e-38
-0.046157144 -0.081031427 1.077 1.1801769e-38
-0.044105716 -0.081031427 1.077 1.2078334e-38
-0.042054288 -0.081031427 1.077 1.3184681e-38
-0.040114287 -0.081257142 1.08 1.5852651e-38
-0.038198099 -0.081558101 1.0840001 1.8895107e-38
-0.036233336 -0.081783809 1.087 1.8166117e-38
-0.03416286 -0.081783809 1.087 1.6598791e-38
-0.032092378 -0.081783809 1.087 1.5307021e-38
-0.030104762 -0.082009524 1.09 1.2817739e-38
-0.028028572 -0.082009524 1.09 1.2171194e-38
-0.026047621 -0.082310483 1.0940001 1.4844867e-38
-0.023963811 -0.082310483 1.0940001 1.7328434e-38
-0.10277143 -0.07993333 1.09 1.4752743e-38
-0.10069524 -0.07993333 1.09 1.1525896e-38
-0.098347619 -0.07971333 1.087 1.2263461e-38
-0.096277148 -0.07971333 1.087 1.5305916e-38
-0.094466671 -0.07993333 1.09 1.5860461e-38
-0.092390478 -0.07993333 1.09 1.6229243e-38
-0.090314284 -0.07993333 1.09 1.4297901e-38
-0.087995239 -0.07971333 1.087 1.2822771e-38
-0.08592476 -0.07971333 1.087 1.1078607e-38
-0.083622865 -0.079493344 1.0840001 1.1447389e-38
-0.081558101 -0.079493344 1.0840001 1.3560348e-38
-0.0792 -0.0792 1.08 1.7616956e-38
-0.077142857 -0.0792 1.08 1.899447e-38
-0.075085714 -0.0792 1.08 1.9916427e-38
-0.072825715 -0.078979999 1.077 1.7524738e-38
-0.070774287 -0.078979999 1.077 1.2269587e-38
-0.068722859 -0.078979999 1.077 5.19501e-39
-0.066671431 -0.078979999 1.077 4.2730537e-39
-0.064619996 -0.078979999 1.077 2.8966128e-39
-0.062568568 -0.078979999 1.077 3.7263735e-39
-0.060517143 -0.078979999 1.077 8.5933143e-39
-0.058465712 -0.078979999 1.077 1.5507987e-38
-0.056414288 -0.078979999 1.077 2.0378461e-38
-0.054160956 -0.078686669 1.0730001 2.0747244e-38
-0.052117147 -0.078686669 1.0730001 2.0007178e-38
-0.050073337 -0.078686669 1.0730001 1.5581787e-38
-0.048208572 -0.078979999 1.077 1.1160049e-38
-0.046157144 -0.078979999 1.077 1.0238093e-38
-0.044105716 -0.078979999 1.077 1.2080499e-38
-0.042054288 -0.078979999 1.077 1.7888823e-38
-0.040114287 -0.0792 1.08 1.8439852e-38
-0.038198099 -0.079493344 1.0840001 1.4567635e-38
-0.036233336 -0.07971333 1.087 1.5033902e-38
-0.03416286 -0.07971333 1.087 1.6785619e-38
-0.032092378 -0.07971333 1.087 1.7148753e-38
-0.030104762 -0.07993333 1.09 1.3460928e-38
-0.028028572 -0.07993333 1.09 1.2170138e-38
-0.026047621 -0.080226675 1.0940001 1.5120399e-38
-0.023963811 -0.080226675 1.0940001 1.7328434e-38
-0.10277143 -0.077857144 1.09 1.4750585e-38
-0.10069524 -0.077857144 1.09 1.336765e-38
-0.098619051 -0.077857144 1.09 1.3829695e-38
-0.096542858 -0.077857144 1.09 1.309213e-38
-0.094466671 -0.077857144 1.09 1.2633251e-38
-0.092390478 -0.077857144 1.09 1.4569359e-38
-0.090314284 -0.077857144 1.09 1.5861599e-38
-0.087995239 -0.077642858 1.087 1.392549e-38
-0.08592476 -0.077642858 1.087 1.172109e-38
-0.083622865 -0.077428579 1.0840001 1.2458655e-38
-0.081558101 -0.077428579 1.0840001 1.6779277e-38
-0.079493344 -0.077428579 1.0840001 1.9268559e-38
-0.077428579 -0.077428579 1.0840001 1.9268534e-38
-0.075085714 -0.077142857 1.08 1.9637316e-38
-0.073028572 -0.077142857 1.08 1.8261581e-38
-0.070971429 -0.077142857 1.08 1.5311321e-38
-0.068914287 -0.077142857 1.08 7.7722165e-39
-0.066857144 -0.077142857 1.08 3.8078044e-39
-0.064619996 -0.076928571 1.077 1.7016051e-39
-0.062568568 -0.076928571 1.077 5.6660172e-39
-0.060517143 -0.076928571 1.077 1.3470311e-38
-0.058465712 -0.076928571 1.077 1.854107e-38
-0.056414288 -0.076928571 1.077 2.0562149e-38
-0.05436286 -0.076928571 1.077 1.9640193e-38
-0.052311432 -0.076928571 1.077 1.9640556e-38
-0.050260004 -0.076928571 1.077 1.7704448e-38
-0.048208572 -0.076928571 1.077 1.5215907e-38
-0.046157144 -0.076928571 1.077 1.1712473e-38
-0.044105716 -0.076928571 1.077 1.3461288e-38
-0.042054288 -0.076928571 1.077 1.8993026e-38
-0.040114287 -0.077142857 1.08 1.8717881e-38
-0.038198099 -0.077428579 1.0840001 1.051247e-38
-0.036233336 -0.077642858 1.087 9.2284865e-39
-0.03416286 -0.077642858 1.087 1.3838268e-38
-0.032092378 -0.077642858 1.087 1.7424271e-38
-0.030104762 -0.077857144 1.09 1.3828641e-38
-0.028028572 -0.077857144 1.09 1.1431808e-38
-0.026047621 -0.078142866 1.0940001 1.5765003e-38
-0.023963811 -0.078142866 1.0940001 1.7236958e-38
-0.10106477 -0.076059051 1.0940001 1.3366931e-38
-0.098980956 -0.076059051 1.0940001 1.171389e-38
-0.096897155 -0.076059051 1.0940001 9.4089989e-39
-0.094813339 -0.076059051 1.0940001 7.7570054e-39
-0.092390478 -0.07578095 1.09 8.4945704e-39
-0.090314284 -0.07578095 1.09 1.1808957e-38
-0.087995239 -0.075572379 1.087 1.5865564e-38
-0.08592476 -0.075572379 1.087 1.6968302e-38
-0.083854288 -0.075572379 1.087 1.8259041e-38
-0.081558101 -0.075363822 1.0840001 1.8992315e-38
-0.079493344 -0.075363822 1.0840001 1.6871816e-38
-0.077428579 -0.075363822 1.0840001 1.4659483e-38
-0.075363822 -0.075363822 1.0840001 1.4290701e-38
-0.073028572 -0.075085714 1.08 1.5400996e-38
-0.070971429 -0.075085714 1.08 2.037956e-38
-0.068914287 -0.075085714 1.08 1.7157084e-38
-0.066857144 -0.075085714 1.08 1.1717541e-38
-0.064619996 -0.074877143 1.077 1.0712698e-38
-0.062568568 -0.074877143 1.077 1.6336632e-38
-0.060517143 -0.074877143 1.077 1.9365414e-38
-0.058465712 -0.074877143 1.077 1.9181022e-38
-0.056414288 -0.074877143 1.077 1.6602441e-38
-0.05436286 -0.074877143 1.077 1.5035116e-38
-0.052311432 -0.074877143 1.077 1.6693173e-38
-0.050260004 -0.074877143 1.077 1.9551237e-38
-0.048208572 -0.074877143 1.077 2.0192288e-38
-0.046285715 -0.075085714 1.08 1.8532766e-38
-0.044228572 -0.075085714 1.08 1.788812e-38
-0.04217143 -0.075085714 1.08 1.7795924e-38
-0.040114287 -0.075085714 1.08 1.5129762e-38
-0.038198099 -0.075363822 1.0840001 7.5697204e-39
-0.036233336 -0.075572379 1.087 5.369658e-39
-0.03416286 -0.075572379 1.087 7.4901575e-39
-0.032092378 -0.075572379 1.087 1.3004628e-38
-0.030104762 -0.07578095 1.09 1.171389e-38
-0.028028572 -0.07578095 1.09 1.1521892e-38
-0.026047621 -0.076059051 1.0940001 1.6131674e-38
-0.023963811 -0.076059051 1.0940001 1.7329153e-38
-0.1013419 -0.074178092 1.097 1.318254e-38
-0.09925238 -0.074178092 1.097 1.0335977e-38
-0.097162858 -0.074178092 1.097 6.6481523e-39
-0.094813339 -0.073975243 1.0940001 2.6102603e-39
-0.092390478 -0.073704764 1.09 2.5180647e-39
-0.090314284 -0.073704764 1.09 1.0335224e-38
-0.087995239 -0.073501907 1.087 1.5866961e-38
-0.08592476 -0.073501907 1.087 1.8439123e-38
-0.083854288 -0.073501907 1.087 1.9637666e-38
-0.081558101 -0.07329905 1.0840001 1.8992312e-38
-0.079493344 -0.07329905 1.0840001 1.3737161e-38
-0.077428579 -0.07329905 1.0840001 1.2170902e-38
-0.075363822 -0.07329905 1.0840001 1.180212e-38
-0.07329905 -0.07329905 1.0840001 1.5394111e-38
-0.070971429 -0.073028572 1.08 1.9819502e-38
-0.068914287 -0.073028572 1.08 2.0744745e-38
-0.066857144 -0.073028572 1.08 1.7425703e-38
-0.064800002 -0.073028572 1.08 1.5219504e-38
-0.062568568 -0.072825715 1.077 1.9460503e-38
-0.060517143 -0.072825715 1.077 2.0655071e-38
-0.058465712 -0.072825715 1.077 1.7704811e-38
-0.056571428 -0.073028572 1.08 1.4304735e-38
-0.054514285 -0.073028572 1.08 1.2737409e-38
-0.052457143 -0.073028572 1.08 1.4392595e-38
-0.0504 -0.073028572 1.08 1.6881877e-38
-0.048342858 -0.073028572 1.08 2.0467793e-38
-0.046457149 -0.07329905 1.0840001 2.1113162e-38
-0.044392385 -0.07329905 1.0840001 1.8904436e-38
-0.042327624 -0.07329905 1.0840001 1.3833676e-38
-0.040262863 -0.07329905 1.0840001 1.0984584e-38
-0.038303811 -0.073501907 1.087 7.1123674e-39
-0.036233336 -0.073501907 1.087 1.9717432e-39
-0.03416286 -0.073501907 1.087 3.9078515e-39
-0.032092378 -0.073501907 1.087 1.1994808e-38
-0.030104762 -0.073704764 1.09 1.0704069e-38
-0.028028572 -0.073704764 1.09 9.6793304e-39
-0.026047621 -0.073975243 1.0940001 1.6594003e-38
-0.024204763 -0.074719049 1.105 1.7329153e-38
-0.0221 -0.074719049 1.105 1.6960371e-38
-0.1013419 -0.072088569 1.097 1.2815177e-38
-0.09925238 -0.072088569 1.097 9.5087349e-39
-0.097162858 -0.072088569 1.097 5.8209097e-39
-0.094813339 -0.071891434 1.0940001 2.4291439e-39
-0.092390478 -0.071628571 1.09 2.2447526e-39
-0.090314284 -0.071628571 1.09 5.3675e-39
-0.087995239 -0.071431428 1.087 1.0714847e-38
-0.08592476 -0.071431428 1.087 1.7334173e-38
-0.083854288 -0.071431428 1.087 1.7887346e-38
-0.081783809 -0.071431428 1.087 1.6871385e-38
-0.07971333 -0.071431428 1.087 1.170843e-38
-0.077642858 -0.071431428 1.087 1.0790852e-38
-0.075363822 -0.071234293 1.0840001 1.0975243e-38
-0.07329905 -0.071234293 1.0840001 1.2354915e-38
-0.071234293 -0.071234293 1.0840001 1.4291023e-38
-0.068914287 -0.070971429 1.08 1.6043134e-38
-0.066857144 -0.070971429 1.08 2.1298285e-38
-0.064800002 -0.070971429 1.08 2.0746547e-38
-0.062742859 -0.070971429 1.08 1.96402e-38
-0.060685717 -0.070971429 1.08 1.7248514e-38
-0.05862857 -0.070971429 1.08 1.5035819e-38
-0.056571428 -0.070971429 1.08 1.3200911e-38
-0.054514285 -0.070971429 1.08 1.301652e-38
-0.052457143 -0.070971429 1.08 1.3658289e-38
-0.0504 -0.070971429 1.08 1.3658289e-38
-0.04852191 -0.071234293 1.0840001 1.8165391e-38
-0.046457149 -0.071234293 1.0840001 2.1207847e-38
-0.044392385 -0.071234293 1.0840001 1.8350533e-38
-0.042327624 -0.071234293 1.0840001 9.8685351e-39
-0.040262863 -0.071234293 1.0840001 3.0773944e-39
-0.038303811 -0.071431428 1.087 3.2617856e-39
-0.036233336 -0.071431428 1.087 4.0861471e-39
-0.034257144 -0.071628571 1.09 6.1144509e-39
-0.032180954 -0.071628571 1.09 1.2638351e-38
-0.030215241 -0.071891434 1.0940001 1.1255417e-38
-0.028131431 -0.071891434 1.0940001 1.1613014e-38
-0.026214287 -0.072351426 1.1010001 1.6222796e-38
-0.024117144 -0.072351426 1.1010001 1.7420623e-38
-0.022020001 -0.072351426 1.1010001 1.705184e-38
-0.10908192 -0.070956193 1.1120001 1.751427e-38
-0.10657905 -0.070700951 1.108 1.8067444e-38
-0.10446857 -0.070700951 1.108 1.6687762e-38
-0.10171143 -0.070254289 1.1010001 1.2907741e-38
-0.09925238 -0.069999047 1.097 9.5083818e-39
-0.097162858 -0.069999047 1.097 6.7425129e-39
-0.09542001 -0.070254289 1.1010001 3.4393175e-39
-0.092983812 -0.069999047 1.097 3.1627306e-39
-0.090645723 -0.069807619 1.0940001 2.6127742e-39
-0.088238098 -0.069552377 1.09 7.2225557e-39
-0.086161904 -0.069552377 1.09 1.466485e-38
-0.083854288 -0.069360957 1.087 1.5863394e-38
-0.081783809 -0.069360957 1.087 1.4382871e-38
-0.07971333 -0.069360957 1.087 1.124822e-38
-0.077642858 -0.069360957 1.087 1.1341144e-38
-0.075572379 -0.069360957 1.087 1.2631883e-38
-0.07329905 -0.069169529 1.0840001 1.152876e-38
-0.071234293 -0.069169529 1.0840001 1.0606804e-38
-0.069169529 -0.069169529 1.0840001 1.4750187e-38
-0.067104764 -0.069169529 1.0840001 2.2586815e-38
-0.065040007 -0.069169529 1.0840001 2.1576677e-38
-0.062742859 -0.068914287 1.08 1.8442025e-38
-0.060685717 -0.068914287 1.08 1.4030665e-38
-0.05862857 -0.068914287 1.08 1.3200904e-38
-0.056571428 -0.068914287 1.08 1.3294545e-38
-0.054716196 -0.069169529 1.0840001 1.3294545e-38
-0.052651431 -0.069169529 1.0840001 1.3016886e-38
-0.050586671 -0.069169529 1.0840001 1.2002734e-38
-0.04852191 -0.069169529 1.0840001 1.5036167e-38
-0.046457149 -0.069169529 1.0840001 2.0014731e-38
-0.044392385 -0.069169529 1.0840001 1.6605673e-38
-0.042444762 -0.069360957 1.087 7.2939141e-39
-0.040374286 -0.069360957 1.087 1.5158098e-39
-0.038303811 -0.069360957 1.087 1.9767879e-39
-0.036333334 -0.069552377 1.09 4.6371376e-39
-0.034257144 -0.069552377 1.09 8.3249628e-39
-0.032299049 -0.069807619 1.0940001 1.3558888e-38
-0.030215241 -0.069807619 1.0940001 1.1807171e-38
-0.028208571 -0.069999047 1.097 1.2717543e-38
-0.026214287 -0.070254289 1.1010001 1.6958542e-38
-0.024117144 -0.070254289 1.1010001 1.7235153e-38
-0.022020001 -0.070254289 1.1010001 1.7050761e-38
-0.019922858 -0.070254289 1.1010001 1.6775604e-38
-0.10696382 -0.068838097 1.1120001 1.7974532e-38
-0.10446857 -0.068590477 1.108 1.7239491e-38
-0.10171143 -0.068157144 1.1010001 1.4658014e-38
-0.099614292 -0.068157144 1.1010001 1.1161802e-38
-0.097517148 -0.068157144 1.1010001 1.0793019e-38
-0.09542001 -0.068157144 1.1010001 5.9224913e-39
-0.092983812 -0.067909524 1.097 4.2629699e-39
-0.090645723 -0.067723818 1.0940001 2.1532703e-39
-0.088238098 -0.067476191 1.09 5.4723129e-39
-0.086161904 -0.067476191 1.09 1.4296411e-38
-0.084085718 -0.067476191 1.09 1.5679346e-38
-0.081783809 -0.067290477 1.087 1.4474717e-38
-0.07971333 -0.067290477 1.087 1.1155674e-38
-0.077642858 -0.067290477 1.087 1.1434073e-38
-0.075572379 -0.067290477 1.087 1.2632616e-38
-0.073501907 -0.067290477 1.087 1.2356029e-38
-0.071234293 -0.067104764 1.0840001 1.0973095e-38
-0.069169529 -0.067104764 1.0840001 1.1712773e-38
-0.067104764 -0.067104764 1.0840001 1.8535249e-38
-0.065040007 -0.067104764 1.0840001 2.0378474e-38
-0.062975243 -0.067104764 1.0840001 1.6782844e-38
-0.060685717 -0.066857144 1.08 1.292469e-38
-0.05862857 -0.066857144 1.08 1.3109081e-38
-0.056780957 -0.067104764 1.0840001 1.3477864e-38
-0.054716196 -0.067104764 1.0840001 1.3662255e-38
-0.052651431 -0.067104764 1.0840001 1.320128e-38
-0.050726667 -0.067290477 1.087 1.2279323e-38
-0.048656192 -0.067290477 1.087 1.5679391e-38
-0.046585716 -0.067290477 1.087 2.0104781e-38
-0.044515237 -0.067290477 1.087 1.8169739e-38
-0.042444762 -0.067290477 1.087 8.3970022e-39
-0.040374286 -0.067290477 1.087 1.4229121e-39
-0.038409524 -0.067476191 1.09 1.2385208e-39
-0.036333334 -0.067476191 1.09 6.3841757e-39
-0.034382861 -0.067723818 1.0940001 1.1823718e-38
-0.032505713 -0.068157144 1.1010001 1.5492476e-38
-0.030408574 -0.068157144 1.1010001 1.4109541e-38
-0.02831143 -0.068157144 1.1010001 1.5118256e-38
-0.026214287 -0.068157144 1.1010001 1.6408995e-38
-0.024117144 -0.068157144 1.1010001 1.6958553e-38
-0.022020001 -0.068157144 1.1010001 1.6958553e-38
-0.019922858 -0.068157144 1.1010001 1.6775604e-38
-0.10696382 -0.066720009 1.1120001 1.8066365e-38
-0.10484572 -0.066720009 1.1120001 1.7883421e-38
