# .PCD v0.7 - Point Cloud Data file format
VERSION 0.7
FIELDS x y z rgb
SIZE 4 4 4 4
TYPE F F F F
COUNT 1 1 1 1
WIDTH 964
HEIGHT 1
VIEWPOINT 0 0 0 1 0 0 0
POINTS 964
DATA ascii
0.068734288 -0.012728572 0.89100003 9.5022357e-39
0.070431434 -0.012728572 0.89100003 8.672475e-39
0.072128572 -0.012728572 0.89100003 8.4873803e-39
0.073825717 -0.012728572 0.89100003 8.3951847e-39
0.075522862 -0.012728572 0.89100003 7.3817643e-39
0.07722 -0.012728572 0.89100003 8.4881118e-39
0.078917146 -0.012728572 0.89100003 9.7770275e-39
0.080614291 -0.012728572 0.89100003 8.3940931e-39
0.082588576 -0.012771429 0.89400005 7.7455119e-39
0.084291428 -0.012771429 0.89400005 9.4050332e-39
0.086379051 -0.012828573 0.89800006 1.0327317e-38
0.088383809 -0.012871428 0.90100002 9.9585349e-39
0.090300001 -0.0129 0.90300006 8.8558097e-39
0.092020005 -0.0129 0.90300006 8.8558097e-39
0.094051436 -0.012942857 0.90600002 8.854365e-39
0.095777147 -0.012942857 0.90600002 8.5777781e-39
0.097502857 -0.012942857 0.90600002 8.4852223e-39
0.099447623 -0.012971429 0.90800005 7.7476573e-39
0.1014 -0.013 0.91000003 8.3898051e-39
0.10483334 -0.013214286 0.92500007 1.0786891e-38
0.10659525 -0.013214286 0.92500007 1.1338571e-38
0.10870858 -0.013257143 0.92800003 1.1430767e-38
0.1104762 -0.013257143 0.92800003 1.1246753e-38
0.11248572 -0.013285715 0.93000007 1.1246753e-38
0.13239715 -0.013328572 0.93300003 9.4982827e-39
0.13417429 -0.013328572 0.93300003 7.7465657e-39
0.13595143 -0.013328572 0.93300003 7.6551113e-39
0.13772857 -0.013328572 0.93300003 8.9458502e-39
0.13950571 -0.013328572 0.93300003 9.4982827e-39
0.14128286 -0.013328572 0.93300003 1.060463e-38
0.14306 -0.013328572 0.93300003 1.1063435e-38
0.14483716 -0.013328572 0.93300003 1.0879044e-38
0.1466143 -0.013328572 0.93300003 1.0695381e-38
0.014814286 -0.011328571 0.91500002 1.0693599e-38
0.016520953 -0.011303809 0.91300005 8.0199254e-39
0.01826 -0.011303809 0.91300005 7.6540197e-39
0.019999048 -0.011303809 0.91300005 8.0228022e-39
0.021666666 -0.011266666 0.91000003 8.1149979e-39
0.023400001 -0.011266666 0.91000003 8.3915848e-39
0.025078095 -0.011241905 0.90800005 7.2856226e-39
0.026660001 -0.01118 0.90300006 6.7324488e-39
0.028380001 -0.01118 0.90300006 6.6409244e-39
0.030033333 -0.011155238 0.90100002 5.9033593e-39
0.031749524 -0.011155238 0.90100002 6.5494798e-39
0.03335429 -0.011118095 0.89800006 6.3650886e-39
0.034986667 -0.011093334 0.89600003 7.1948493e-39
0.036693335 -0.011093334 0.89600003 8.1168056e-39
0.03831429 -0.011068572 0.89400005 9.2220489e-39
0.040017143 -0.011068572 0.89400005 9.2220489e-39
0.041720003 -0.011068572 0.89400005 9.0391122e-39
0.043422859 -0.011068572 0.89400005 1.0329851e-38
0.04497429 -0.011031428 0.89100003 1.0237302e-38
0.046671428 -0.011031428 0.89100003 3.5070213e-39
0.048368573 -0.011031428 0.89100003 2.4056623e-39
0.050065715 -0.011031428 0.89100003 1.00579e-38
0.051937148 -0.011068572 0.89400005 1.1342211e-38
0.053460002 -0.011031428 0.89100003 1.0789037e-38
0.055157144 -0.011031428 0.89100003 1.0330577e-38
0.056854289 -0.011031428 0.89100003 9.8695987e-39
0.058551431 -0.011031428 0.89100003 7.3803545e-39
0.060248572 -0.011031428 0.89100003 3.3237468e-39
0.061945714 -0.011031428 0.89100003 3.4220185e-39
0.063642859 -0.011031428 0.89100003 6.8332568e-39
0.065340005 -0.011031428 0.89100003 8.7646735e-39
0.067037143 -0.011031428 0.89100003 9.0412604e-39
0.068734288 -0.011031428 0.89100003 9.5004308e-39
0.070431434 -0.011031428 0.89100003 9.5926265e-39
0.072128572 -0.011031428 0.89100003 9.0398156e-39
0.073825717 -0.011031428 0.89100003 9.1320113e-39
0.075522862 -0.011031428 0.89100003 6.1843351e-39
0.07722 -0.011031428 0.89100003 4.4326181e-39
0.078917146 -0.011031428 0.89100003 6.1843071e-39
0.080885723 -0.011068572 0.89400005 8.3048066e-39
0.082588576 -0.011068572 0.89400005 7.7476727e-39
0.084291428 -0.011068572 0.89400005 7.1944989e-39
0.086379051 -0.011118095 0.89800006 7.1040984e-39
0.088383809 -0.011155238 0.90100002 8.5792284e-39
0.090300001 -0.01118 0.90300006 9.1313078e-39
0.092020005 -0.01118 0.90300006 8.9469165e-39
0.094051436 -0.011217142 0.90600002 8.9462005e-39
0.095777147 -0.011217142 0.90600002 8.6696136e-39
0.097718097 -0.011241905 0.90800005 8.2082823e-39
0.099447623 -0.011241905 0.90800005 7.6551085e-39
0.1014 -0.011266666 0.91000003 8.4816476e-39
0.10426667 -0.011390476 0.92000002 1.0878734e-38
0.10659525 -0.011452381 0.92500007 1.1246376e-38
0.10870858 -0.011489524 0.92800003 1.1246376e-38
0.13268095 -0.011576191 0.93500006 9.035878e-39
0.13446191 -0.011576191 0.93500006 8.3905086e-39
0.13624287 -0.011576191 0.93500006 8.2090012e-39
0.13802381 -0.011576191 0.93500006 9.2231531e-39
0.14025334 -0.011613334 0.93800002 9.6826739e-39
0.14158572 -0.011576191 0.93500006 1.060463e-38
0.14336666 -0.011576191 0.93500006 1.0971239e-38
0.14514764 -0.011576191 0.93500006 1.0879044e-38
0.014814286 -0.0095857149 0.91500002 1.087799e-38
0.016520953 -0.009564762 0.91300005 8.2043166e-39
0.01826 -0.009564762 0.91300005 7.9295276e-39
0.019999048 -0.009564762 0.91300005 8.2983101e-39
0.021666666 -0.0095333336 0.91000003 8.2071935e-39
0.023400001 -0.0095333336 0.91000003 8.575976e-39
0.025078095 -0.0095123816 0.90800005 8.3926736e-39
0.026660001 -0.0094600003 0.90300006 8.1160867e-39
0.028380001 -0.0094600003 0.90300006 8.2997395e-39
0.030033333 -0.0094390474 0.90100002 8.3919351e-39
0.031749524 -0.0094390474 0.90100002 8.2993891e-39
0.03335429 -0.009407619 0.89800006 8.4837804e-39
0.035064761 -0.009407619 0.89800006 8.577418e-39
0.036693335 -0.0093866661 0.89600003 9.4071786e-39
0.038399998 -0.0093866661 0.89600003 9.0416331e-39
0.040017143 -0.0093657151 0.89400005 9.31822e-39
0.041720003 -0.0093657151 0.89400005 9.31822e-39
0.043422859 -0.0093657151 0.89400005 9.8713938e-39
0.04497429 -0.0093342857 0.89100003 1.0054353e-38
0.046671428 -0.0093342857 0.89100003 3.8772457e-39
0.048368573 -0.0093342857 0.89100003 2.309878e-39
0.050065715 -0.0093342857 0.89100003 1.0146497e-38
0.051937148 -0.0093657151 0.89400005 1.1065994e-38
0.053460002 -0.0093342857 0.89100003 1.0789407e-38
0.055157144 -0.0093342857 0.89100003 1.078976e-38
0.056854289 -0.0093342857 0.89100003 1.078976e-38
0.058551431 -0.0093342857 0.89100003 9.5004785e-39
0.060248572 -0.0093342857 0.89100003 6.0892402e-39
0.061945714 -0.0093342857 0.89100003 4.3392832e-39
0.063642859 -0.0093342857 0.89100003 6.2753915e-39
0.065340005 -0.0093342857 0.89100003 6.9186099e-39
0.067037143 -0.0093342857 0.89100003 7.1951968e-39
0.068734288 -0.0093342857 0.89100003 7.378872e-39
0.070431434 -0.0093342857 0.89100003 7.7476545e-39
0.072128572 -0.0093342857 0.89100003 7.6568784e-39
0.073825717 -0.0093342857 0.89100003 7.749074e-39
0.075522862 -0.0093342857 0.89100003 5.5407327e-39
0.07722 -0.0093342857 0.89100003 4.4343852e-39
0.079182863 -0.0093657151 0.89400005 4.7120258e-39
0.080885723 -0.0093657151 0.89400005 6.924721e-39
0.082773335 -0.0093866661 0.89600003 7.472525e-39
0.084480003 -0.0093866661 0.89600003 5.9051992e-39
0.08666762 -0.0094390474 0.90100002 2.0444762e-39
0.088580005 -0.0094600003 0.90300006 6.6542577e-39
0.090600006 -0.0094914287 0.90600002 8.8561629e-39
0.092325717 -0.0094914287 0.90600002 8.7639672e-39
0.094051436 -0.0094914287 0.90600002 8.7621694e-39
0.095988572 -0.0095123816 0.90800005 8.5777781e-39
0.097718097 -0.0095123816 0.90800005 8.3930267e-39
0.09966667 -0.0095333336 0.91000003 7.6554617e-39
0.10173429 -0.009564762 0.91300005 8.3898051e-39
0.10426667 -0.0096380953 0.92000002 1.0879087e-38
0.13310668 -0.0098266667 0.93800002 8.4819573e-39
0.13489333 -0.0098266667 0.93800002 8.4819573e-39
0.13668001 -0.0098266667 0.93800002 8.3011912e-39
0.13846667 -0.0098266667 0.93800002 9.4075388e-39
0.14025334 -0.0098266667 0.93800002 9.9596139e-39
0.14204 -0.0098266667 0.93800002 1.0420592e-38
0.14382666 -0.0098266667 0.93800002 1.0786854e-38
0.016520953 -0.0078257145 0.91300005 8.2968626e-39
0.01826 -0.0078257145 0.91300005 7.9295276e-39
0.019999048 -0.0078257145 0.91300005 8.3905058e-39
0.021666666 -0.0078000003 0.91000003 8.3905086e-39
0.023400001 -0.0078000003 0.91000003 8.5748998e-39
0.025133334 -0.0078000003 0.91000003 8.4834301e-39
0.026807619 -0.0077828579 0.90800005 9.3131907e-39
0.028474286 -0.0077657145 0.90600002 9.4057367e-39
0.030100001 -0.0077400007 0.90300006 9.8667148e-39
0.031820003 -0.0077400007 0.90300006 9.4990211e-39
0.033465713 -0.0077228574 0.90100002 9.4990211e-39
0.035064761 -0.0076971436 0.89800006 9.3149928e-39
0.036775239 -0.0076971436 0.89800006 9.5915797e-39
0.038399998 -0.0076800003 0.89600003 9.2249454e-39
0.040106665 -0.0076800003 0.89600003 9.317141e-39
0.041813336 -0.0076800003 0.89600003 9.3167879e-39
0.043520004 -0.0076800003 0.89600003 9.777766e-39
0.045125719 -0.0076628574 0.89400005 1.0054003e-38
0.046828572 -0.0076628574 0.89400005 7.0115468e-39
0.048531432 -0.0076628574 0.89400005 3.0525101e-39
0.050234288 -0.0076628574 0.89400005 6.2793571e-39
0.051937148 -0.0076628574 0.89400005 1.0606069e-38
0.053640001 -0.0076628574 0.89400005 1.0790461e-38
0.055157144 -0.0076371427 0.89100003 1.0422047e-38
0.056854289 -0.0076371427 0.89100003 1.0606438e-38
0.058748577 -0.0076628574 0.89400005 1.0606816e-38
0.060248572 -0.0076371427 0.89100003 1.0699012e-38
0.061945714 -0.0076371427 0.89100003 9.8696267e-39
0.063642859 -0.0076371427 0.89100003 8.8554748e-39
0.065340005 -0.0076371427 0.89100003 7.5650765e-39
0.067037143 -0.0076371427 0.89100003 6.9197071e-39
0.068965718 -0.0076628574 0.89400005 7.2866946e-39
0.070668571 -0.0076628574 0.89400005 6.7335208e-39
0.072371431 -0.0076628574 0.89400005 7.3792055e-39
0.074074291 -0.0076628574 0.89400005 7.747988e-39
0.075777143 -0.0076628574 0.89400005 8.3040485e-39
0.077480003 -0.0076628574 0.89400005 8.672831e-39
0.079182863 -0.0076628574 0.89400005 8.4877363e-39
0.080885723 -0.0076628574 0.89400005 8.3955406e-39
0.082958095 -0.0076971436 0.89800006 8.0256987e-39
0.084668577 -0.0076971436 0.89800006 7.5647206e-39
0.086860001 -0.0077400007 0.90300006 7.9338534e-39
0.088874288 -0.0077657145 0.90600002 8.8558097e-39
0.090600006 -0.0077657145 0.90600002 9.2235034e-39
0.092529528 -0.0077828579 0.90800005 8.9469165e-39
0.094259053 -0.0077828579 0.90800005 8.5777837e-39
0.096200004 -0.0078000003 0.91000003 8.4855881e-39
0.097933337 -0.0078000003 0.91000003 7.8398655e-39
0.09966667 -0.0078000003 0.91000003 7.5632786e-39
0.10173429 -0.0078257145 0.91300005 8.8507805e-39
0.10404 -0.0078685712 0.91800004 1.0879084e-38
0.13160001 -0.0080571435 0.94000006 8.2054012e-39
0.13310668 -0.0080400007 0.93800002 7.4710354e-39
0.13489333 -0.0080400007 0.93800002 8.6695786e-39
0.13668001 -0.0080400007 0.93800002 8.8540049e-39
0.13846667 -0.0080400007 0.93800002 9.9603524e-39
0.14055239 -0.0080571435 0.94000006 1.0511706e-38
0.14234287 -0.0080571435 0.94000006 1.041951e-38
0.016520953 -0.0060866671 0.91300005 8.3890582e-39
0.01826 -0.0060866671 0.91300005 7.7451364e-39
0.019999048 -0.0060866671 0.91300005 8.3905058e-39
0.021666666 -0.0060666669 0.91000003 8.5748998e-39
0.023400001 -0.0060666669 0.91000003 8.5748998e-39
0.025133334 -0.0060666669 0.91000003 8.3915876e-39
0.026807619 -0.0060533336 0.90800005 9.1291526e-39
0.028537145 -0.0060533336 0.90800005 8.8536517e-39
0.030200001 -0.0060399999 0.90600002 8.8536517e-39
0.031820003 -0.0060200007 0.90300006 9.1316483e-39
0.033540003 -0.0060200007 0.90300006 9.4082352e-39
0.035181906 -0.0060066669 0.90100002 9.3167879e-39
0.036775239 -0.0059866668 0.89800006 9.5011791e-39
0.038485717 -0.0059866668 0.89800006 9.2249454e-39
0.040196192 -0.0059866668 0.89800006 9.4093366e-39
0.04190667 -0.0059866668 0.89800006 9.7763213e-39
0.043520004 -0.0059733335 0.89600003 9.9607125e-39
0.045226667 -0.0059733335 0.89600003 1.0329501e-38
0.046828572 -0.0059600002 0.89400005 9.0387619e-39
0.048531432 -0.0059600002 0.89400005 4.3411133e-39
0.050234288 -0.0059600002 0.89400005 3.7879396e-39
0.051937148 -0.0059600002 0.89400005 9.1312363e-39
0.053640001 -0.0059600002 0.89400005 1.115954e-38
0.055342861 -0.0059600002 0.89400005 1.0422772e-38
0.057045717 -0.0059600002 0.89400005 1.0238381e-38
0.058748577 -0.0059600002 0.89400005 1.0330227e-38
0.060451429 -0.0059600002 0.89400005 1.0514618e-38
0.062154286 -0.0059600002 0.89400005 1.0606816e-38
0.063857146 -0.0059600002 0.89400005 1.0422425e-38
0.065560006 -0.0059600002 0.89400005 9.22603e-39
0.067262866 -0.0059600002 0.89400005 9.1338343e-39
0.069120005 -0.0059733335 0.89600003 9.4086332e-39
0.070826672 -0.0059733335 0.89600003 9.2242419e-39
0.072371431 -0.0059600002 0.89400005 8.9465606e-39
0.074074291 -0.0059600002 0.89400005 9.3153431e-39
0.075946666 -0.0059733335 0.89600003 9.8681568e-39
0.077653334 -0.0059733335 0.89600003 9.9603524e-39
0.079360001 -0.0059733335 0.89600003 9.7763213e-39
0.081066668 -0.0059733335 0.89600003 9.4075388e-39
0.082958095 -0.0059866668 0.89800006 9.2231531e-39
0.084951431 -0.0060066669 0.90100002 9.3153487e-39
0.086860001 -0.0060200007 0.90300006 9.4075388e-39
0.088874288 -0.0060399999 0.90600002 9.3153431e-39
0.090800002 -0.0060533336 0.90800005 9.2231475e-39
0.092529528 -0.0060533336 0.90800005 9.0387562e-39
0.094466671 -0.0060666669 0.91000003 8.7618092e-39
0.096200004 -0.0060666669 0.91000003 8.3008311e-39
0.097933337 -0.0060666669 0.91000003 8.2086354e-39
0.09966667 -0.0060666669 0.91000003 8.0242442e-39
0.10173429 -0.0060866671 0.91300005 9.1273674e-39
0.10404 -0.00612 0.91800004 1.0879084e-38
0.12980953 -0.006266667 0.94000006 1.189429e-38
0.13160001 -0.006266667 0.94000006 8.2986605e-39
0.13310668 -0.0062533333 0.93800002 7.6536442e-39
0.13489333 -0.0062533333 0.93800002 9.2209699e-39
0.13668001 -0.0062533333 0.93800002 9.2213454e-39
0.13846667 -0.0062533333 0.93800002 1.0327693e-38
0.14055239 -0.006266667 0.94000006 1.0603904e-38
0.14234287 -0.006266667 0.94000006 1.0603904e-38
0.016557142 -0.0043571433 0.91500002 8.6656451e-39
0.018300001 -0.0043571433 0.91500002 7.8373348e-39
0.020042857 -0.0043571433 0.91500002 8.2061173e-39
0.021738095 -0.0043476191 0.91300005 8.5748998e-39
0.023477143 -0.0043476191 0.91300005 8.5748998e-39
0.025216192 -0.0043476191 0.91300005 8.4837832e-39
0.026866667 -0.0043333336 0.91000003 8.8525657e-39
0.028537145 -0.0043238099 0.90800005 5.1683951e-39
0.030200001 -0.0043142857 0.90600002 1.6649612e-39
0.031925712 -0.0043142857 0.90600002 1.6706967e-39
0.033540003 -0.0043000001 0.90300006 7.2024345e-39
0.035181906 -0.0042904764 0.90100002 8.8554594e-39
0.036898095 -0.0042904764 0.90100002 9.3164376e-39
0.038485717 -0.0042761909 0.89800006 9.3167879e-39
0.040196192 -0.0042761909 0.89800006 9.4089835e-39
0.04190667 -0.0042761909 0.89800006 9.7763213e-39
0.043520004 -0.0042666667 0.89600003 9.8685169e-39
0.045226667 -0.0042666667 0.89600003 1.0053264e-38
0.046933334 -0.0042666667 0.89600003 1.0514242e-38
0.048640002 -0.0042666667 0.89600003 8.1179224e-39
0.050234288 -0.004257143 0.89400005 1.9408152e-39
0.051937148 -0.004257143 0.89400005 3.2382943e-39
0.053640001 -0.004257143 0.89400005 9.4154015e-39
0.055342861 -0.004257143 0.89400005 1.0974507e-38
0.057045717 -0.004257143 0.89400005 1.0329138e-38
0.058880001 -0.0042666667 0.89600003 9.9621629e-39
0.060451429 -0.004257143 0.89400005 9.9621629e-39
0.062154286 -0.004257143 0.89400005 1.0054353e-38
0.063857146 -0.004257143 0.89400005 1.0238744e-38
0.06570667 -0.0042666667 0.89600003 1.0330227e-38
0.067413338 -0.0042666667 0.89600003 1.0422422e-38
0.069120005 -0.0042666667 0.89600003 1.0330227e-38
0.070826672 -0.0042666667 0.89600003 1.0422422e-38
0.072533339 -0.0042666667 0.89600003 1.0605018e-38
0.074239999 -0.0042666667 0.89600003 1.0605018e-38
0.075946666 -0.0042666667 0.89600003 1.0329148e-38
0.077653334 -0.0042666667 0.89600003 1.0052561e-38
0.079360001 -0.0042666667 0.89600003 9.8685169e-39
0.08124762 -0.0042761909 0.89800006 9.6841257e-39
0.083235241 -0.0042904764 0.90100002 9.59193e-39
0.084951431 -0.0042904764 0.90100002 9.3153431e-39
0.086860001 -0.0043000001 0.90300006 9.2231531e-39
0.088874288 -0.0043142857 0.90600002 9.1309575e-39
0.090800002 -0.0043238099 0.90800005 9.1309575e-39
0.092529528 -0.0043238099 0.90800005 8.8543706e-39
0.094466671 -0.0043333336 0.91000003 8.6699793e-39
0.096200004 -0.0043333336 0.91000003 8.3933924e-39
0.097933337 -0.0043333336 0.91000003 8.0246099e-39
0.09966667 -0.0043333336 0.91000003 8.2090012e-39
0.10173429 -0.0043476191 0.91300005 8.9444082e-39
0.12801906 -0.0044761905 0.94000006 1.2076549e-38
0.12980953 -0.0044761905 0.94000006 1.0697859e-38
0.13160001 -0.0044761905 0.94000006 8.2085766e-39
0.13310668 -0.0044666668 0.93800002 8.484872e-39
0.13489333 -0.0044666668 0.93800002 9.5912196e-39
0.13668001 -0.0044666668 0.93800002 9.9581818e-39
0.13846667 -0.0044666668 0.93800002 1.0880138e-38
0.14100096 -0.0044904761 0.94300002 1.0880128e-38
0.14279714 -0.0044904761 0.94300002 1.0695737e-38
0.018300001 -0.0026142858 0.91500002 7.837332e-39
0.020042857 -0.0026142858 0.91500002 8.2061145e-39
0.021785714 -0.0026142858 0.91500002 8.4827042e-39
0.02352857 -0.0026142858 0.91500002 8.6670955e-39
0.025216192 -0.0026085714 0.91300005 8.574897e-39
0.026866667 -0.0026 0.91000003 8.3905058e-39
0.028537145 -0.0025942859 0.90800005 4.3422022e-39
0.030266669 -0.0025942859 0.90800005 5.6218133e-40
0.031996191 -0.0025942859 0.90800005 4.7280931e-40
0.033540003 -0.0025800001 0.90300006 7.018692e-39
0.035260003 -0.0025800001 0.90300006 8.9465606e-39
0.036898095 -0.0025742857 0.90100002 9.59193e-39
0.038485717 -0.0025657145 0.89800006 9.4089835e-39
0.040196192 -0.0025657145 0.89800006 9.5011791e-39
0.04190667 -0.0025657145 0.89800006 9.5933748e-39
0.043617148 -0.0025657145 0.89800006 9.5933748e-39
0.045226667 -0.0025600002 0.89600003 9.6855704e-39
0.046933334 -0.0025600002 0.89600003 1.0238744e-38
0.048640002 -0.0025600002 0.89600003 9.7767122e-39
0.050346669 -0.0025600002 0.89600003 2.2166706e-39
0.052053336 -0.0025600002 0.89600003 1.9084564e-40
0.05376 -0.0025600002 0.89600003 9.0416233e-39
0.055466667 -0.0025600002 0.89600003 1.1158189e-38
0.057173334 -0.0025600002 0.89600003 1.0420624e-38
0.058880001 -0.0025600002 0.89600003 9.8706805e-39
0.060586669 -0.0025600002 0.89600003 1.0055072e-38
0.062293336 -0.0025600002 0.89600003 1.0054353e-38
0.064000003 -0.0025600002 0.89600003 1.0054353e-38
0.06570667 -0.0025600002 0.89600003 1.0054719e-38
0.067413338 -0.0025600002 0.89600003 1.0054719e-38
0.069274291 -0.0025657145 0.89800006 9.962523e-39
0.070826672 -0.0025600002 0.89600003 9.962523e-39
0.072533339 -0.0025600002 0.89600003 9.8706805e-39
0.074405722 -0.0025657145 0.89800006 9.8706805e-39
0.076116197 -0.0025657145 0.89800006 9.7777716e-39
0.077826671 -0.0025657145 0.89800006 9.7777716e-39
0.079537146 -0.0025657145 0.89800006 9.5933748e-39
0.08124762 -0.0025657145 0.89800006 9.5933748e-39
0.083235241 -0.0025742857 0.90100002 9.3167879e-39
0.085140005 -0.0025800001 0.90300006 9.3167879e-39
0.087148577 -0.0025885713 0.90600002 8.8558153e-39
0.088874288 -0.0025885713 0.90600002 8.8558153e-39
0.090800002 -0.0025942859 0.90800005 8.7636141e-39
0.092529528 -0.0025942859 0.90800005 8.6714185e-39
0.094466671 -0.0026 0.91000003 8.6699793e-39
0.096517146 -0.0026085714 0.91300005 8.1168056e-39
0.098256193 -0.0026085714 0.91300005 7.8398529e-39
0.099995241 -0.0026085714 0.91300005 8.3008311e-39
0.10173429 -0.0026085714 0.91300005 9.1280736e-39
0.10460667 -0.0026371428 0.92300004 1.0603204e-38
0.12801906 -0.0026857145 0.94000006 1.0509583e-38
0.12980953 -0.0026857145 0.94000006 8.5755851e-39
0.13160001 -0.0026857145 0.94000006 9.0365632e-39
0.13310668 -0.0026800002 0.93800002 9.0387562e-39
0.13489333 -0.0026800002 0.93800002 9.4075388e-39
0.13697143 -0.0026857145 0.94000006 1.0050012e-38
0.13876191 -0.0026857145 0.94000006 1.0879772e-38
0.14055239 -0.0026857145 0.94000006 1.1063085e-38
0.018360002 -0.00087428576 0.91800004 7.9306094e-39
0.020108571 -0.00087428576 0.91800004 8.0228051e-39
0.021785714 -0.00087142858 0.91500002 8.3905086e-39
0.02352857 -0.00087142858 0.91500002 8.4827042e-39
0.025271429 -0.00087142858 0.91500002 8.1149979e-39
0.026955239 -0.00086952385 0.91300005 7.7462154e-39
0.0286 -0.00086666667 0.91000003 5.4453351e-39
0.030266669 -0.00086476194 0.90800005 4.2467919e-39
0.031996191 -0.00086476194 0.90800005 5.2584229e-39
0.033651426 -0.00086285715 0.90600002 7.4711181e-39
0.035260003 -0.00086000003 0.90300006 8.7614267e-39
0.036898095 -0.00085809524 0.90100002 1.0236557e-38
0.038614288 -0.00085809524 0.90100002 9.8685225e-39
0.040196192 -0.00085523812 0.89800006 9.5919356e-39
0.04190667 -0.00085523812 0.89800006 9.8685225e-39
0.043617148 -0.00085523812 0.89800006 9.8685225e-39
0.045327619 -0.00085523812 0.89800006 9.6852201e-39
0.046933334 -0.00085333333 0.89600003 1.0146198e-38
0.048640002 -0.00085333333 0.89600003 1.051282e-38
0.050346669 -0.00085333333 0.89600003 4.0591258e-39
0.052053336 -0.00085333333 0.89600003 4.6635213e-40
0.05376 -0.00085333333 0.89600003 7.8419983e-39
0.055466667 -0.00085333333 0.89600003 1.1434391e-38
0.057173334 -0.00085333333 0.89600003 1.0973413e-38
0.058880001 -0.00085333333 0.89600003 1.0055062e-38
0.060586669 -0.00085333333 0.89600003 1.0147258e-38
0.062293336 -0.00085333333 0.89600003 1.0421693e-38
0.064000003 -0.00085333333 0.89600003 1.0329498e-38
0.065853335 -0.00085523812 0.89800006 1.0513892e-38
0.067563809 -0.00085523812 0.89800006 1.0513892e-38
0.069274291 -0.00085523812 0.89800006 1.0238028e-38
0.070984766 -0.00085523812 0.89800006 1.0145832e-38
0.07269524 -0.00085523812 0.89800006 9.9624978e-39
0.074405722 -0.00085523812 0.89800006 9.8703022e-39
0.076116197 -0.00085523812 0.89800006 9.777766e-39
0.077826671 -0.00085523812 0.89800006 9.777766e-39
0.079537146 -0.00085523812 0.89800006 9.5011791e-39
0.081519045 -0.00085809524 0.90100002 9.4089835e-39
0.083420001 -0.00086000003 0.90300006 9.4093366e-39
0.085140005 -0.00086000003 0.90300006 9.5015323e-39
0.087148577 -0.00086285715 0.90600002 8.8558153e-39
0.088874288 -0.00086285715 0.90600002 8.7636197e-39
0.090800002 -0.00086476194 0.90800005 9.0387562e-39
0.092733338 -0.00086666667 0.91000003 8.854365e-39
0.094466671 -0.00086666667 0.91000003 8.5777781e-39
0.096517146 -0.00086952385 0.91300005 8.1167999e-39
0.098256193 -0.00086952385 0.91300005 8.2064901e-39
0.099995241 -0.00086952385 0.91300005 8.7596638e-39
0.10229144 -0.00087428576 0.91800004 9.2202692e-39
0.10460667 -0.00087904767 0.92300004 1.0511008e-38
0.10636476 -0.00087904767 0.92300004 1.0786848e-38
0.12663142 -0.00089809526 0.94300002 1.2446382e-38
0.12801906 -0.00089523813 0.94000006 8.2975787e-39
0.12980953 -0.00089523813 0.94000006 8.2071935e-39
0.13160001 -0.00089523813 0.94000006 9.3135411e-39
0.13339049 -0.00089523813 0.94000006 9.2227874e-39
0.13518095 -0.00089523813 0.94000006 9.9603524e-39
0.13697143 -0.00089523813 0.94000006 1.0511346e-38
0.13876191 -0.00089523813 0.94000006 1.0695737e-38
0.0185 0.00088095246 0.92500007 8.1135686e-39
0.020152381 0.00087619049 0.92000002 8.2057642e-39
0.021857142 0.00087428576 0.91800004 8.2071963e-39
0.023605715 0.00087428576 0.91800004 8.2071963e-39
0.025271429 0.00087142858 0.91500002 8.0228022e-39
0.027014285 0.00087142858 0.91500002 8.0228022e-39
0.028694287 0.00086952385 0.91300005 7.2849219e-39
0.030333333 0.00086666667 0.91000003 7.4693132e-39
0.031996191 0.00086476194 0.90800005 8.3905086e-39
0.033651426 0.00086285715 0.90600002 7.8373348e-39
0.035377141 0.00086285715 0.90600002 7.4699297e-39
0.036980003 0.00086000003 0.90300006 9.7748205e-39
0.038614288 0.00085809524 0.90100002 1.0144391e-38
0.040330477 0.00085809524 0.90100002 9.9599993e-39
0.04190667 0.00085523812 0.89800006 9.6841313e-39
0.043617148 0.00085523812 0.89800006 9.7763269e-39
0.045327619 0.00085523812 0.89800006 9.7759766e-39
0.047038097 0.00085523812 0.89800006 1.0421346e-38
0.048748575 0.00085523812 0.89800006 1.1064557e-38
0.050346669 0.00085333333 0.89600003 4.426472e-39
0.052053336 0.00085333333 0.89600003 1.0761972e-42
0.053880006 0.00085523812 0.89800006 5.9019552e-39
0.055590477 0.00085523812 0.89800006 9.9585321e-39
0.057300955 0.00085523812 0.89800006 1.1249271e-38
0.058880001 0.00085333333 0.89600003 1.0697564e-38
0.060586669 0.00085333333 0.89600003 1.0513173e-38
0.062293336 0.00085333333 0.89600003 1.0329501e-38
0.06414286 0.00085523812 0.89800006 1.0237305e-38
0.065853335 0.00085523812 0.89800006 1.0421696e-38
0.067563809 0.00085523812 0.89800006 1.0606088e-38
0.069274291 0.00085523812 0.89800006 1.0605725e-38
0.070984766 0.00085523812 0.89800006 1.0421333e-38
0.07269524 0.00085523812 0.89800006 1.0054353e-38
0.074405722 0.00085523812 0.89800006 9.9621573e-39
0.076116197 0.00085523812 0.89800006 9.6852201e-39
0.078086674 0.00085809524 0.90100002 9.5930244e-39
0.079802856 0.00085809524 0.90100002 9.5011791e-39
0.081519045 0.00085809524 0.90100002 9.4089835e-39
0.083697148 0.00086285715 0.90600002 9.3167879e-39
0.085422859 0.00086285715 0.90600002 9.3167879e-39
0.087148577 0.00086285715 0.90600002 8.8558153e-39
0.089070477 0.00086476194 0.90800005 8.8558153e-39
0.090800002 0.00086476194 0.90800005 8.6714185e-39
0.092733338 0.00086666667 0.91000003 8.5792228e-39
0.094466671 0.00086666667 0.91000003 8.7618092e-39
0.096517146 0.00086952385 0.91300005 8.1164398e-39
0.098256193 0.00086952385 0.91300005 8.3897869e-39
0.099995241 0.00086952385 0.91300005 9.3117432e-39
0.10229144 0.00087428576 0.91800004 9.3124621e-39
0.10426667 0.00087619049 0.92000002 1.0603201e-38
0.10601905 0.00087619049 0.92000002 1.0787933e-38
0.12622857 0.00089523813 0.94000006 1.1245323e-38
0.12801906 0.00089523813 0.94000006 8.8482371e-39
0.12980953 0.00089523813 0.94000006 8.4841307e-39
0.13160001 0.00089523813 0.94000006 9.4982827e-39
0.13339049 0.00089523813 0.94000006 9.4982827e-39
0.13489333 0.00089333334 0.93800002 1.0235848e-38
0.13668001 0.00089333334 0.93800002 1.0695737e-38
0.13846667 0.00089333334 0.93800002 1.0695737e-38
0.016792381 0.0026514288 0.92800003 9.5893895e-39
0.0185 0.0026428571 0.92500007 8.2976095e-39
0.020218095 0.0026371428 0.92300004 8.2054139e-39
0.021904761 0.0026285714 0.92000002 8.2983129e-39
0.023657143 0.0026285714 0.92000002 8.2983129e-39
0.025354287 0.0026228572 0.91800004 8.1149979e-39
0.027014285 0.0026142858 0.91500002 8.6681717e-39
0.028757144 0.0026142858 0.91500002 8.8518623e-39
0.030333333 0.0026 0.91000003 8.1142972e-39
0.032066669 0.0026 0.91000003 7.2848869e-39
0.033725716 0.0025942859 0.90800005 3.8736486e-39
0.035377141 0.0025885713 0.90600002 2.2205858e-39
0.036980003 0.0025800001 0.90300006 7.1991498e-39
0.038700003 0.0025800001 0.90300006 9.7759612e-39
0.040330477 0.0025742857 0.90100002 1.0144744e-38
0.04204667 0.0025742857 0.90100002 9.7759584e-39
0.043617148 0.0025657145 0.89800006 9.7759584e-39
0.045327619 0.0025657145 0.89800006 1.0144037e-38
0.047038097 0.0025657145 0.89800006 1.0881602e-38
0.048748575 0.0025657145 0.89800006 1.087981e-38
0.05045905 0.0025657145 0.89800006 4.0573336e-39
0.052169528 0.0025657145 0.89800006 2.3996045e-39
0.053880006 0.0025657145 0.89800006 2.2152133e-39
0.055590477 0.0025657145 0.89800006 6.1820398e-39
0.057300955 0.0025657145 0.89800006 1.1344995e-38
0.059011433 0.0025657145 0.89800006 1.1342213e-38
0.060721908 0.0025657145 0.89800006 1.0512453e-38
0.062432382 0.0025657145 0.89800006 9.9621629e-39
0.06414286 0.0025657145 0.89800006 9.9621629e-39
0.065853335 0.0025657145 0.89800006 9.9621629e-39
0.067563809 0.0025657145 0.89800006 8.4870328e-39
0.069274291 0.0025657145 0.89800006 7.4739599e-39
0.070984766 0.0025657145 0.89800006 7.5661555e-39
0.07269524 0.0025657145 0.89800006 8.6703675e-39
0.074654289 0.0025742857 0.90100002 1.0422084e-38
0.076370478 0.0025742857 0.90100002 1.0513539e-38
0.078086674 0.0025742857 0.90100002 9.8681694e-39
0.079980001 0.0025800001 0.90300006 9.4093366e-39
0.081700005 0.0025800001 0.90300006 9.317141e-39
0.083697148 0.0025885713 0.90600002 9.317141e-39
0.085422859 0.0025885713 0.90600002 9.0405541e-39
0.087340958 0.0025942859 0.90800005 9.0384059e-39
0.089070477 0.0025942859 0.90800005 9.0384059e-39
0.090800002 0.0025942859 0.90800005 8.9465662e-39
0.092733338 0.0026 0.91000003 8.6699793e-39
0.094466671 0.0026 0.91000003 8.6696108e-39
0.096517146 0.0026085714 0.91300005 8.116437e-39
0.098256193 0.0026085714 0.91300005 8.2075438e-39
0.099995241 0.0026085714 0.91300005 9.2216958e-39
0.10229144 0.0026228572 0.91800004 9.7737905e-39
0.10426667 0.0026285714 0.92000002 1.0787942e-38
0.10601905 0.0026285714 0.92000002 1.0878693e-38
0.12264763 0.0026857145 0.94000006 1.3552392e-38
0.1244381 0.0026857145 0.94000006 9.2191972e-39
0.12622857 0.0026857145 0.94000006 8.7610707e-39
0.12801906 0.0026857145 0.94000006 9.4064401e-39
0.12980953 0.0026857145 0.94000006 9.7748695e-39
0.13160001 0.0026857145 0.94000006 1.0328043e-38
0.13339049 0.0026857145 0.94000006 1.041951e-38
0.13489333 0.0026800002 0.93800002 1.0511706e-38
0.13668001 0.0026800002 0.93800002 1.0695737e-38
0.015057144 0.004428572 0.93000007 1.0142563e-38
0.016792381 0.0044190479 0.92800003 9.7737807e-39
0.0185 0.0044047623 0.92500007 8.8514867e-39
0.020218095 0.0043952381 0.92300004 8.2061173e-39
0.021976192 0.0043952381 0.92300004 8.2983129e-39
0.023657143 0.0043809521 0.92000002 7.5607479e-39
0.025354287 0.0043714289 0.91800004 7.3763566e-39
0.027014285 0.0043571433 0.91500002 8.4827042e-39
0.028757144 0.0043571433 0.91500002 8.4845189e-39
0.030433334 0.0043476191 0.91300005 8.1157364e-39
0.032066669 0.0043333336 0.91000003 7.5611206e-39
0.033725716 0.0043238099 0.90800005 1.752796e-39
0.035377141 0.0043142857 0.90600002 3.2285917e-42
0.037102856 0.0043142857 0.90600002 6.5491169e-39
0.038700003 0.0043000001 0.90300006 9.4983177e-39
0.04042 0.0043000001 0.90300006 1.0328078e-38
0.04204667 0.0042904764 0.90100002 1.0235848e-38
0.043617148 0.0042761909 0.89800006 1.0512435e-38
0.045327619 0.0042761909 0.89800006 1.1156047e-38
0.047038097 0.0042761909 0.89800006 1.1063851e-38
0.048748575 0.0042761909 0.89800006 9.5912168e-39
0.05045905 0.0042761909 0.89800006 4.5204571e-39
0.052169528 0.0042761909 0.89800006 3.8768982e-39
0.053880006 0.0042761909 0.89800006 1.8485943e-39
0.055590477 0.0042761909 0.89800006 2.3984849e-39
0.057300955 0.0042761909 0.89800006 9.7741283e-39
0.059011433 0.0042761909 0.89800006 1.1157797e-38
0.060721908 0.0042761909 0.89800006 1.088121e-38
0.062432382 0.0042761909 0.89800006 1.0238757e-38
0.06414286 0.0042761909 0.89800006 1.0330952e-38
0.065853335 0.0042761909 0.89800006 9.7777716e-39
0.067563809 0.0042761909 0.89800006 6.3665333e-39
0.069505714 0.0042904764 0.90100002 5.9966788e-39
0.07122191 0.0042904764 0.90100002 6.3654613e-39
0.072938092 0.0042904764 0.90100002 8.4837832e-39
0.074654289 0.0042904764 0.90100002 1.0696478e-38
0.076370478 0.0042904764 0.90100002 1.0605725e-38
0.078260005 0.0043000001 0.90300006 9.9603552e-39
0.079980001 0.0043000001 0.90300006 9.5018882e-39
0.081971429 0.0043142857 0.90600002 9.4096926e-39
0.083881907 0.0043238099 0.90800005 9.2245922e-39
0.085611433 0.0043238099 0.90800005 9.2245922e-39
0.087340958 0.0043238099 0.90800005 8.9480054e-39
0.089070477 0.0043238099 0.90800005 8.8558097e-39
0.091000006 0.0043333336 0.91000003 9.0383961e-39
0.092733338 0.0043333336 0.91000003 8.4852223e-39
0.094778098 0.0043476191 0.91300005 8.9436824e-39
0.096728571 0.0043571433 0.91500002 8.4827042e-39
0.098471433 0.0043571433 0.91500002 8.2061173e-39
0.10021429 0.0043571433 0.91500002 9.5890518e-39
0.10229144 0.0043714289 0.91800004 9.9585349e-39
0.12264763 0.0044761905 0.94000006 1.2723703e-38
0.1244381 0.0044761905 0.94000006 8.8514867e-39
0.12622857 0.0044761905 0.94000006 7.5643296e-39
0.12801906 0.0044761905 0.94000006 9.223851e-39
0.12980953 0.0044761905 0.94000006 9.7748695e-39
0.13160001 0.0044761905 0.94000006 1.0420239e-38
0.13339049 0.0044761905 0.94000006 1.0511709e-38
0.13518095 0.0044761905 0.94000006 1.0511709e-38
0.13697143 0.0044761905 0.94000006 1.0786854e-38
0.015057144 0.0062000002 0.93000007 1.0602462e-38
0.016792381 0.0061866669 0.92800003 1.0049289e-38
0.0185 0.0061666667 0.92500007 9.035878e-39
0.020261906 0.0061666667 0.92500007 8.0217261e-39
0.022023812 0.0061666667 0.92500007 7.8384138e-39
0.023734286 0.0061533335 0.92300004 7.0086531e-39
0.025409523 0.0061333333 0.92000002 7.0083e-39
0.02710286 0.00612 0.91800004 6.4551262e-39
0.028757144 0.0061000003 0.91500002 6.2703566e-39
0.030433334 0.0060866671 0.91300005 6.915726e-39
0.032066669 0.0060666669 0.91000003 6.915754e-39
0.033725716 0.0060533336 0.90800005 2.3981682e-39
0.035455238 0.0060533336 0.90800005 1.9084564e-40
0.037102856 0.0060399999 0.90600002 5.5381866e-39
0.038700003 0.0060200007 0.90300006 9.4993743e-39
0.04042 0.0060200007 0.90300006 1.0236939e-38
0.04204667 0.0060066669 0.90100002 1.0144005e-38
0.043762855 0.0060066669 0.90100002 1.0697179e-38
0.045327619 0.0059866668 0.89800006 1.087981e-38
0.047038097 0.0059866668 0.89800006 7.7451588e-39
0.048748575 0.0059866668 0.89800006 5.5374509e-39
0.05045905 0.0059866668 0.89800006 4.3389077e-39
0.052169528 0.0059866668 0.89800006 4.8899711e-39
0.054060001 0.0060066669 0.90100002 4.3367973e-39
0.055590477 0.0059866668 0.89800006 4.1520558e-39
0.057300955 0.0059866668 0.89800006 4.7974252e-39
0.059011433 0.0059866668 0.89800006 8.1177823e-39
0.060721908 0.0059866668 0.89800006 1.1344629e-38
0.062432382 0.0059866668 0.89800006 1.171029e-38
0.06414286 0.0059866668 0.89800006 1.171029e-38
0.066073328 0.0060066669 0.90100002 9.9607182e-39
0.067789525 0.0060066669 0.90100002 5.6275235e-39
0.069505714 0.0060066669 0.90100002 5.4464141e-39
0.07122191 0.0060066669 0.90100002 5.5386098e-39
0.072938092 0.0060066669 0.90100002 7.2866763e-39
0.074654289 0.0060066669 0.90100002 8.3930239e-39
0.076540001 0.0060200007 0.90300006 8.668522e-39
0.078260005 0.0060200007 0.90300006 9.2216958e-39
0.079980001 0.0060200007 0.90300006 8.7636141e-39
0.081971429 0.0060399999 0.90600002 9.5011791e-39
0.083881907 0.0060533336 0.90800005 9.592286e-39
0.085611433 0.0060533336 0.90800005 9.2235034e-39
0.087340958 0.0060533336 0.90800005 9.2231475e-39
0.089070477 0.0060533336 0.90800005 9.0387562e-39
0.091000006 0.0060666669 0.91000003 9.0383961e-39
0.093039051 0.0060866671 0.91300005 8.3008311e-39
0.094778098 0.0060866671 0.91300005 8.3004779e-39
0.096728571 0.0061000003 0.91500002 8.0238911e-39
0.098794289 0.00612 0.91800004 8.2064901e-39
0.10054287 0.00612 0.91800004 9.6816201e-39
0.10229144 0.00612 0.91800004 1.0050368e-38
0.12008001 0.0063200006 0.94800007 1.3735016e-38
0.12162858 0.0063066669 0.94600004 9.1252346e-39
0.12303905 0.0062866667 0.94300002 8.1174936e-39
0.12483523 0.0062866667 0.94300002 8.9472543e-39
0.12663142 0.0062866667 0.94300002 9.2231349e-39
0.12801906 0.006266667 0.94000006 9.4997218e-39
0.12980953 0.006266667 0.94000006 1.0050027e-38
0.13160001 0.006266667 0.94000006 1.0787592e-38
0.13339049 0.006266667 0.94000006 1.0695387e-38
0.13518095 0.006266667 0.94000006 1.0603191e-38
0.015105714 0.0079971431 0.93300003 1.0693949e-38
0.016828572 0.0079714293 0.93000007 1.0417362e-38
0.01856 0.0079542855 0.92800003 9.2202664e-39
0.020261906 0.0079285717 0.92500007 7.9295276e-39
0.022023812 0.0079285717 0.92500007 7.9306094e-39
0.023734286 0.0079114288 0.92300004 7.7462182e-39
0.025409523 0.0078857141 0.92000002 7.1919626e-39
0.02710286 0.0078685712 0.91800004 5.34805e-39
0.028757144 0.0078428574 0.91500002 4.978536e-39
0.0305 0.0078428574 0.91500002 5.8082967e-39
0.032172382 0.0078257145 0.91300005 6.0867094e-39
0.033800002 0.0078000003 0.91000003 3.5974274e-39
0.035455238 0.0077828579 0.90800005 3.1313892e-39
0.037184764 0.0077828579 0.90800005 5.9894537e-39
0.03882857 0.0077657145 0.90600002 7.7451392e-39
0.040554285 0.0077657145 0.90600002 8.3905086e-39
0.04214 0.0077400007 0.90300006 7.8405536e-39
0.043762855 0.0077228574 0.90100002 8.3015317e-39
0.045479048 0.0077228574 0.90100002 8.8543706e-39
0.047195237 0.0077228574 0.90100002 6.6416755e-39
0.04891143 0.0077228574 0.90100002 2.1316202e-39
0.05045905 0.0076971436 0.89800006 3.6989459e-39
0.052169528 0.0076971436 0.89800006 5.7182772e-39
0.054060001 0.0077228574 0.90100002 6.6402335e-39
0.055776194 0.0077228574 0.90100002 6.4583982e-39
0.057492379 0.0077228574 0.90100002 5.4442463e-39
0.059011433 0.0076971436 0.89800006 6.1788644e-39
0.060721908 0.0076971436 0.89800006 9.6822984e-39
0.062640958 0.0077228574 0.90100002 1.1432258e-38
0.064357147 0.0077228574 0.90100002 1.1432258e-38
0.066073328 0.0077228574 0.90100002 9.6837809e-39
0.067789525 0.0077228574 0.90100002 6.4569339e-39
0.069505714 0.0077228574 0.90100002 7.1019348e-39
0.07122191 0.0077228574 0.90100002 6.6409566e-39
0.072938092 0.0077228574 0.90100002 6.6402335e-39
0.074820004 0.0077400007 0.90300006 6.9168204e-39
0.076540001 0.0077400007 0.90300006 6.8231773e-39
0.07852 0.0077657145 0.90600002 8.390503e-39
0.080245718 0.0077657145 0.90600002 8.6696136e-39
0.082152382 0.0077828579 0.90800005 9.9603524e-39
0.083881907 0.0077828579 0.90800005 9.5929894e-39
0.085611433 0.0077828579 0.90800005 9.4085981e-39
0.087533332 0.0078000003 0.91000003 8.8561629e-39
0.089266665 0.0078000003 0.91000003 8.8561629e-39
0.091000006 0.0078000003 0.91000003 9.0387562e-39
0.093039051 0.0078257145 0.91300005 8.5777781e-39
0.094985716 0.0078428574 0.91500002 8.2082823e-39
0.097045712 0.0078685712 0.91800004 7.8394998e-39
0.099009521 0.0078857141 0.92000002 7.9302563e-39
0.10076191 0.0078857141 0.92000002 9.7741689e-39
0.10251428 0.0078857141 0.92000002 1.0234403e-38
0.10460667 0.0079114288 0.92300004 1.0234403e-38
0.11827429 0.008125715 0.94800007 1.5481698e-38
0.12008001 0.008125715 0.94800007 1.2814474e-38
0.12162858 0.0081085712 0.94600004 8.8500616e-39
0.12303905 0.0080828574 0.94300002 7.5646827e-39
0.12483523 0.0080828574 0.94300002 9.3163997e-39
0.12663142 0.0080828574 0.94300002 1.0051456e-38
0.12842761 0.0080828574 0.94300002 9.9592608e-39
0.12980953 0.0080571435 0.94000006 1.0326599e-38
0.13160001 0.0080571435 0.94000006 1.0695381e-38
0.13339049 0.0080571435 0.94000006 1.0878693e-38
0.13518095 0.0080571435 0.94000006 1.0878693e-38
0.015105714 0.0097742863 0.93300003 1.0785794e-38
0.016882857 0.0097742863 0.93300003 1.0601403e-38
0.01856 0.009721905 0.92800003 9.4968435e-39
0.020327618 0.009721905 0.92800003 7.8373222e-39
0.022023812 0.0096904775 0.92500007 7.7473042e-39
0.023734286 0.0096695246 0.92300004 8.0238911e-39
0.025409523 0.0096380953 0.92000002 7.4696313e-39
0.02710286 0.0096171433 0.91800004 4.3349799e-39
0.028851429 0.0096171433 0.91800004 4.1513019e-39
0.0305 0.0095857149 0.91500002 5.0732582e-39
0.032242857 0.0095857149 0.91500002 7.5617877e-39
0.033800002 0.0095333336 0.91000003 8.2071571e-39
0.035533335 0.0095333336 0.91000003 6.6377322e-39
0.037184764 0.0095123816 0.90800005 3.1342983e-39
0.038914286 0.0095123816 0.90800005 5.8122287e-39
0.040554285 0.0094914287 0.90600002 6.8263806e-39
0.04214 0.0094600003 0.90300006 6.6416236e-39
0.04386 0.0094600003 0.90300006 5.9962542e-39
0.045479048 0.0094390474 0.90100002 7.9323526e-39
0.047195237 0.0094390474 0.90100002 9.1308958e-39
0.04891143 0.0094390474 0.90100002 6.9178966e-39
0.050627619 0.0094390474 0.90100002 6.6413097e-39
0.052343812 0.0094390474 0.90100002 6.089931e-39
0.054060001 0.0094390474 0.90100002 6.9196917e-39
0.055776194 0.0094390474 0.90100002 1.0237287e-38
0.057492379 0.0094390474 0.90100002 1.0606069e-38
0.059208572 0.0094390474 0.90100002 7.4685775e-39
0.060924761 0.0094390474 0.90100002 6.1778387e-39
0.062640958 0.0094390474 0.90100002 7.7462182e-39
0.064357147 0.0094390474 0.90100002 8.4837832e-39
0.066073328 0.0094390474 0.90100002 8.0246099e-39
0.067789525 0.0094390474 0.90100002 5.4431323e-39
0.069505714 0.0094390474 0.90100002 4.154892e-39
0.07122191 0.0094390474 0.90100002 4.8002614e-39
0.073100001 0.0094600003 0.90300006 6.7328019e-39
0.074820004 0.0094600003 0.90300006 7.7469538e-39
0.076540001 0.0094600003 0.90300006 8.0224519e-39
0.07852 0.0094914287 0.90600002 8.2990388e-39
0.080245718 0.0094914287 0.90600002 8.760017e-39
0.082152382 0.0095123816 0.90800005 1.0419538e-38
0.083881907 0.0095123816 0.90800005 9.7770121e-39
0.0858 0.0095333336 0.91000003 9.5004252e-39
0.087533332 0.0095333336 0.91000003 9.3156837e-39
0.089266665 0.0095333336 0.91000003 9.0390968e-39
0.091300003 0.009564762 0.91300005 9.1305889e-39
0.093039051 0.009564762 0.91300005 8.7618064e-39
0.094985716 0.0095857149 0.91500002 8.3004779e-39
0.097045712 0.0096171433 0.91800004 7.7473042e-39
0.099009521 0.0096380953 0.92000002 8.2983129e-39
0.10076191 0.0096380953 0.92000002 1.0142226e-38
0.10284857 0.0096695246 0.92300004 1.032552e-38
0.11646858 0.0099314293 0.94800007 1.4283545e-38
0.11827429 0.0099314293 0.94800007 9.8581543e-39
0.12008001 0.0099314293 0.94800007 8.6688751e-39
0.12162858 0.0099104764 0.94600004 9.5908314e-39
0.12303905 0.009879048 0.94300002 9.5922705e-39
0.12483523 0.009879048 0.94300002 9.6844662e-39
0.12663142 0.009879048 0.94300002 1.0327317e-38
0.12842761 0.009879048 0.94300002 1.0327317e-38
0.13022381 0.009879048 0.94300002 1.0418794e-38
0.13160001 0.0098476186 0.94000006 1.0418794e-38
0.13339049 0.0098476186 0.94000006 1.0694658e-38
0.015105714 0.01155143 0.93300003 1.0785424e-38
0.016882857 0.01155143 0.93300003 1.087762e-38
0.0186 0.011514287 0.93000007 9.7734248e-39
0.020327618 0.011489524 0.92800003 8.2060991e-39
0.022095239 0.011489524 0.92800003 7.7473042e-39
0.023785716 0.011452381 0.92500007 7.9316954e-39
0.025492381 0.011427619 0.92300004 7.8398529e-39
0.027161906 0.011390476 0.92000002 5.8115491e-39
0.028851429 0.011365715 0.91800004 6.1767289e-39
0.0305 0.011328571 0.91500002 7.0064895e-39
0.032242857 0.011328571 0.91500002 8.6645913e-39
0.033911429 0.011303809 0.91300005 8.4802001e-39
0.035650477 0.011303809 0.91300005 7.929906e-39
0.037266668 0.011266666 0.91000003 6.4547759e-39
0.038914286 0.011241905 0.90800005 3.877952e-39
0.040643811 0.011241905 0.90800005 5.9984515e-39
0.04228 0.011217142 0.90600002 7.0100698e-39
0.044005714 0.011217142 0.90600002 6.3647004e-39
0.045731429 0.011217142 0.90600002 8.1135307e-39
0.047300003 0.01118 0.90300006 9.3120739e-39
0.049020004 0.01118 0.90300006 8.3887079e-39
0.050627619 0.011155238 0.90100002 7.2823603e-39
0.052343812 0.011155238 0.90100002 5.2637605e-39
0.054060001 0.011155238 0.90100002 7.1076731e-39
0.055776194 0.011155238 0.90100002 9.9614692e-39
0.057492379 0.011155238 0.90100002 9.9614692e-39
0.059208572 0.011155238 0.90100002 7.5629283e-39
0.060924761 0.011155238 0.90100002 6.8253633e-39
0.062640958 0.011155238 0.90100002 7.1026536e-39
0.064357147 0.011155238 0.90100002 7.3792405e-39
0.066073328 0.011155238 0.90100002 7.6533191e-39
0.067789525 0.011155238 0.90100002 3.688907e-39
0.069505714 0.011155238 0.90100002 3.5033807e-39
0.07122191 0.011155238 0.90100002 6.7302193e-39
0.073100001 0.01118 0.90300006 7.0097545e-39
0.074820004 0.01118 0.90300006 8.1161021e-39
0.076794289 0.011217142 0.90600002 8.6681745e-39
0.07852 0.011217142 0.90600002 8.6681745e-39
0.080245718 0.011217142 0.90600002 7.6533163e-39
0.082152382 0.011241905 0.90800005 9.958207e-39
0.083881907 0.011241905 0.90800005 9.4100429e-39
0.0858 0.011266666 0.91000003 8.6724778e-39
0.087533332 0.011266666 0.91000003 7.6586987e-39
0.089266665 0.011266666 0.91000003 8.4884593e-39
0.091500007 0.011328571 0.91500002 8.762175e-39
0.093242854 0.011328571 0.91500002 8.6699793e-39
0.095297143 0.011365715 0.91800004 8.3926736e-39
0.097257145 0.011390476 0.92000002 7.8394998e-39
0.099009521 0.011390476 0.92000002 8.6660235e-39
0.10076191 0.011390476 0.92000002 1.0141154e-38
0.10284857 0.011427619 0.92300004 9.956716e-39
0.11285715 0.011737144 0.94800007 1.5852613e-38
0.11466286 0.011737144 0.94800007 1.5391635e-38
0.11646858 0.011737144 0.94800007 1.1801063e-38
0.11827429 0.011737144 0.94800007 8.2054335e-39
0.12008001 0.011737144 0.94800007 7.2895434e-39
0.12162858 0.011712381 0.94600004 9.0412604e-39
0.12343048 0.011712381 0.94600004 9.8688574e-39
0.12523238 0.011712381 0.94600004 9.8688574e-39
0.12703429 0.011712381 0.94600004 1.0327317e-38
0.12842761 0.011675238 0.94300002 1.0327317e-38
0.13022381 0.011675238 0.94300002 1.0511346e-38
0.13202 0.011675238 0.94300002 1.0511346e-38
0.016882857 0.013328572 0.93300003 1.0693582e-38
0.0186 0.013285715 0.93000007 9.6815851e-39
0.020327618 0.013257143 0.92800003 8.206455e-39
0.022095239 0.013257143 0.92800003 7.6547554e-39
0.023785716 0.013214286 0.92500007 7.8391467e-39
0.025492381 0.013185714 0.92300004 8.0242442e-39
0.027161906 0.013142857 0.92000002 8.3008311e-39
0.028851429 0.013114286 0.91800004 8.4845161e-39
0.0306 0.013114286 0.91800004 9.0376899e-39
0.032242857 0.013071429 0.91500002 9.1291526e-39
0.033911429 0.013042858 0.91300005 7.5618269e-39
0.035650477 0.013042858 0.91300005 7.3781685e-39
0.037266668 0.013 0.91000003 7.3781685e-39
0.038914286 0.012971429 0.90800005 7.1926534e-39
0.040643811 0.012971429 0.90800005 4.9799583e-39
0.042373337 0.012971429 0.90800005 4.9800088e-39
0.044005714 0.012942857 0.90600002 5.7175738e-39
0.045731429 0.012942857 0.90600002 7.1919626e-39
0.047300003 0.0129 0.90300006 8.0217232e-39
0.049020004 0.0129 0.90300006 7.3759881e-39
0.050740004 0.0129 0.90300006 6.7306187e-39
0.052460004 0.0129 0.90300006 5.3541386e-39
0.054180004 0.0129 0.90300006 7.9356163e-39
0.055776194 0.012871428 0.90100002 1.0236602e-38
0.057492379 0.012871428 0.90100002 9.3146453e-39
0.059208572 0.012871428 0.90100002 7.2856226e-39
0.060924761 0.012871428 0.90100002 7.3778182e-39
0.062640958 0.012871428 0.90100002 7.6558274e-39
0.064357147 0.012871428 0.90100002 7.8402187e-39
0.066073328 0.012871428 0.90100002 6.9171932e-39
0.067789525 0.012871428 0.90100002 1.4405348e-42
0.069505714 0.012871428 0.90100002 7.1886611e-43
0.071380004 0.0129 0.90300006 7.0079469e-39
0.073100001 0.0129 0.90300006 7.1930794e-39
0.074820004 0.0129 0.90300006 8.1150357e-39
0.076794289 0.012942857 0.90600002 8.5759788e-39
0.07852 0.012942857 0.90600002 9.774522e-39
0.080245718 0.012942857 0.90600002 8.4852223e-39
0.082152382 0.012971429 0.90800005 7.9320486e-39
0.083881907 0.012971429 0.90800005 7.5632786e-39
0.0858 0.013 0.91000003 5.1661923e-39
0.087533332 0.013 0.91000003 7.1941458e-39
0.089266665 0.013 0.91000003 9.130254e-39
0.091500007 0.013071429 0.91500002 8.9462131e-39
0.093548574 0.013114286 0.91800004 8.3930393e-39
0.095297143 0.013114286 0.91800004 8.3004779e-39
0.097257145 0.013142857 0.92000002 8.0238911e-39
0.099332385 0.013185714 0.92300004 8.8500616e-39
0.10109048 0.013185714 0.92300004 1.0417387e-38
0.10284857 0.013185714 0.92300004 1.2537765e-38
0.10744001 0.013542858 0.94800007 1.4566069e-38
0.10924572 0.013542858 0.94800007 1.5762219e-38
0.11105144 0.013542858 0.94800007 1.5854414e-38
0.11285715 0.013542858 0.94800007 1.1983296e-38
0.11466286 0.013542858 0.94800007 8.8486449e-39
0.11646858 0.013542858 0.94800007 9.0373045e-39
0.11827429 0.013542858 0.94800007 1.0051456e-38
0.12008001 0.013542858 0.94800007 9.4078947e-39
0.12162858 0.013514286 0.94600004 9.5000903e-39
0.12343048 0.013514286 0.94600004 1.0144005e-38
0.12523238 0.013514286 0.94600004 1.0236201e-38
0.12703429 0.013514286 0.94600004 1.0511346e-38
0.12883618 0.013514286 0.94600004 1.0511346e-38
0.016882857 0.015105714 0.93300003 1.0970169e-38
0.0186 0.015057144 0.93000007 9.958172e-39
0.02037143 0.015057144 0.93000007 8.3908463e-39
0.022095239 0.015024763 0.92800003 7.8377075e-39
0.023862859 0.015024763 0.92800003 8.1142944e-39
0.025547622 0.014976191 0.92500007 8.2993919e-39
0.027250476 0.01494381 0.92300004 8.6681745e-39
0.028914286 0.014895238 0.92000002 8.3930393e-39
0.0306 0.014862858 0.91800004 8.5774306e-39
0.032242857 0.014814286 0.91500002 8.6692759e-39
0.033911429 0.014781905 0.91300005 8.2082977e-39
0.035650477 0.014781905 0.91300005 6.7353257e-39
0.037266668 0.014733333 0.91000003 6.2743475e-39
0.038914286 0.014700953 0.90800005 7.6525904e-39
0.040643811 0.014700953 0.90800005 4.8867215e-39
0.042373337 0.014700953 0.90800005 3.8725416e-39
0.044005714 0.014668572 0.90600002 4.2413241e-39
0.045731429 0.014668572 0.90600002 5.8090253e-39
0.047457144 0.014668572 0.90600002 6.4543947e-39
0.049182858 0.014668572 0.90600002 5.2580025e-39
0.050908573 0.014668572 0.90600002 6.2721545e-39
0.052634288 0.014668572 0.90600002 5.4430973e-39
0.054180004 0.01462 0.90300006 7.8401836e-39
0.055900004 0.01462 0.90300006 1.0236599e-38
0.057620004 0.01462 0.90300006 9.7756206e-39
