# .PCD v0.7 - Point Cloud Data file format
VERSION 0.7
FIELDS x y z rgb
SIZE 4 4 4 4
TYPE F F F F
COUNT 1 1 1 1
WIDTH 958
HEIGHT 1
VIEWPOINT 0 0 0 1 0 0 0
POINTS 958
DATA ascii
0.0028685716 -0.065977141 1.0040001 7.744786e-39
0.0047809528 -0.065977141 1.0040001 7.6525904e-39
0.0066733337 -0.065779999 1.001 7.4681991e-39
0.0085800011 -0.065779999 1.001 7.3749315e-39
0.010486667 -0.065779999 1.001 7.2827359e-39
0.012393334 -0.065779999 1.001 7.0983446e-39
0.0143 -0.065779999 1.001 7.006149e-39
0.016158095 -0.065582857 0.99800003 6.8210445e-39
0.018004762 -0.065385722 0.99500006 6.6366532e-39
0.01984 -0.065188579 0.99200004 6.6348484e-39
0.021663809 -0.064991429 0.98900002 6.3582615e-39
0.02354762 -0.064991429 0.98900002 7.281975e-39
0.025302857 -0.064662859 0.98400003 1.0047844e-38
0.027177144 -0.064662859 0.98400003 1.0781138e-38
0.028313335 -0.063020006 0.95900005 1.0043573e-38
0.030140001 -0.063020006 0.95900005 9.0326017e-39
0.031966668 -0.063020006 0.95900005 9.7701668e-39
0.033793334 -0.063020006 0.95900005 1.0787582e-38
0.03562 -0.063020006 0.95900005 1.1986126e-38
-0.05936667 -0.06119334 0.95900005 9.2188343e-39
-0.057360001 -0.061001904 0.95600003 8.0217331e-39
-0.055074289 -0.060491435 0.94800007 8.5749068e-39
-0.053156193 -0.060363814 0.94600004 8.8507679e-39
-0.051191427 -0.060172379 0.94300002 7.9288116e-39
-0.049395241 -0.060172379 0.94300002 7.466051e-39
-0.04992095 -0.063107617 0.98900002 7.5582466e-39
-0.048037145 -0.063107617 0.98900002 7.6504422e-39
-0.046293333 -0.063299052 0.99200004 7.7426378e-39
-0.04440381 -0.063299052 0.99200004 7.5596759e-39
-0.042642858 -0.063490473 0.99500006 7.7440672e-39
-0.040870477 -0.063681908 0.99800003 7.7440672e-39
-0.039086666 -0.063873336 1.001 7.8362628e-39
-0.037180003 -0.063873336 1.001 7.8366313e-39
-0.035273336 -0.063873336 1.001 7.7444357e-39
-0.033466671 -0.064064763 1.0040001 7.8366313e-39
-0.031648573 -0.064256199 1.0070001 7.8366313e-39
-0.029730478 -0.064256199 1.0070001 7.8366285e-39
-0.027812384 -0.064256199 1.0070001 7.9288242e-39
-0.025971429 -0.064447619 1.01 7.9288242e-39
-0.024047619 -0.064447619 1.01 7.9288242e-39
-0.022123808 -0.064447619 1.01 8.0210198e-39
-0.020199999 -0.064447619 1.01 8.0210198e-39
-0.01827619 -0.064447619 1.01 8.0210198e-39
-0.016400954 -0.064639047 1.013 7.9288242e-39
-0.014471428 -0.064639047 1.013 7.9288242e-39
-0.012541905 -0.064639047 1.013 7.9288242e-39
-0.010580952 -0.064447619 1.01 8.0203009e-39
-0.0086571425 -0.064447619 1.01 8.0203009e-39
-0.0067333328 -0.064447619 1.01 7.928827e-39
-0.0048095239 -0.064447619 1.01 7.8366313e-39
-0.0028771432 -0.064256199 1.0070001 7.7444329e-39
-0.0009590477 -0.064256199 1.0070001 7.6522373e-39
0.0009590477 -0.064256199 1.0070001 7.743714e-39
0.0028685716 -0.064064763 1.0040001 7.6515184e-39
0.0047809528 -0.064064763 1.0040001 7.3756532e-39
0.0066733337 -0.063873336 1.001 7.3756532e-39
0.0085800011 -0.063873336 1.001 7.1905403e-39
0.010518095 -0.064064763 1.0040001 7.1905403e-39
0.012393334 -0.063873336 1.001 7.1912493e-39
0.0143 -0.063873336 1.001 6.9146624e-39
0.016158095 -0.063681908 0.99800003 6.5455114e-39
0.018004762 -0.063490473 0.99500006 6.1767289e-39
0.01984 -0.063299052 0.99200004 6.2664162e-39
0.021729525 -0.063299052 0.99200004 7.3727637e-39
0.02354762 -0.063107617 0.98900002 8.5691517e-39
0.02543143 -0.063107617 0.98900002 1.0413064e-38
0.027315238 -0.063107617 0.98900002 9.8656204e-39
0.028165715 -0.060874287 0.95400006 6.8231646e-39
0.029982859 -0.060874287 0.95400006 5.9922759e-39
0.03186667 -0.061001904 0.95600003 9.956688e-39
0.033687621 -0.061001904 0.95600003 1.106345e-38
-0.059180956 -0.059180956 0.95600003 9.034806e-39
-0.05706 -0.058871429 0.95100003 7.6522373e-39
-0.055074289 -0.05868572 0.94800007 8.2054111e-39
-0.053156193 -0.058561906 0.94600004 8.574181e-39
-0.051191427 -0.058376193 0.94300002 9.1273547e-39
-0.049395241 -0.058376193 0.94300002 9.0340773e-39
-0.047599047 -0.058376193 0.94300002 8.4809035e-39
-0.04818286 -0.061409526 0.99200004 7.927755e-39
-0.046293333 -0.061409526 0.99200004 7.5589725e-39
-0.04440381 -0.061409526 0.99200004 7.283089e-39
-0.042771429 -0.061780956 0.99800003 7.283089e-39
-0.040993337 -0.061966669 1.001 7.0994166e-39
-0.039086666 -0.061966669 1.001 7.2838079e-39
-0.03729143 -0.062152382 1.0040001 7.4674957e-39
-0.035379048 -0.062152382 1.0040001 7.3753001e-39
-0.033466671 -0.062152382 1.0040001 7.4674957e-39
-0.031648573 -0.062338103 1.0070001 7.5596913e-39
-0.029730478 -0.062338103 1.0070001 7.467846e-39
-0.027812384 -0.062338103 1.0070001 7.5600416e-39
-0.025971429 -0.062523812 1.01 7.7444329e-39
-0.024119047 -0.062709525 1.013 7.6522373e-39
-0.022189524 -0.062709525 1.013 7.6522401e-39
-0.020260001 -0.062709525 1.013 7.7444357e-39
-0.018330475 -0.062709525 1.013 7.7444329e-39
-0.016400954 -0.062709525 1.013 7.6522373e-39
-0.014471428 -0.062709525 1.013 7.6522373e-39
-0.012541905 -0.062709525 1.013 7.7444329e-39
-0.010612381 -0.062709525 1.013 7.5600445e-39
-0.0086828573 -0.062709525 1.013 7.4678488e-39
-0.0067333328 -0.062523812 1.01 7.4678488e-39
-0.0048095239 -0.062523812 1.01 7.4678488e-39
-0.0028771432 -0.062338103 1.0070001 7.3749343e-39
-0.0009590477 -0.062338103 1.0070001 7.3749343e-39
0.0009590477 -0.062338103 1.0070001 7.1905431e-39
0.0028685716 -0.062152382 1.0040001 7.1905431e-39
0.0047809528 -0.062152382 1.0040001 6.9128898e-39
0.0066933334 -0.062152382 1.0040001 6.8206942e-39
0.0086057149 -0.062152382 1.0040001 6.729202e-39
0.010486667 -0.061966669 1.001 6.729202e-39
0.012393334 -0.061966669 1.001 7.0047001e-39
0.013257143 -0.057447623 0.92800003 7.281287e-39
0.015024763 -0.057447623 0.92800003 7.5593004e-39
0.016882857 -0.057757143 0.93300003 8.4812567e-39
0.01866 -0.057757143 0.93300003 9.9570874e-39
0.020546667 -0.058066666 0.93800002 1.0786848e-38
0.022333333 -0.058066666 0.93800002 9.589049e-39
0.024248572 -0.058376193 0.94300002 6.3622019e-39
0.02612762 -0.058561906 0.94600004 5.7185911e-39
0.028077144 -0.058871429 0.95100003 6.7327431e-39
0.029888572 -0.058871429 0.95100003 7.0086279e-39
0.031800002 -0.059057143 0.95400006 9.8666924e-39
0.033617143 -0.059057143 0.95400006 1.1155296e-38
-0.059180956 -0.057360001 0.95600003 9.034806e-39
-0.05706 -0.05706 0.95100003 7.6525904e-39
-0.055074289 -0.056880001 0.94800007 8.2057642e-39
-0.053156193 -0.056760002 0.94600004 8.6663738e-39
-0.051191427 -0.05658 0.94300002 9.0351563e-39
-0.049395241 -0.05658 0.94300002 9.2195504e-39
-0.047447622 -0.056400005 0.94000006 8.3897897e-39
-0.045560002 -0.056280002 0.93800002 8.2961619e-39
-0.043633334 -0.056100003 0.93500006 8.2039663e-39
-0.041852385 -0.056100003 0.93500006 7.7444203e-39
-0.040071432 -0.056100003 0.93500006 7.4678334e-39
-0.038290478 -0.056100003 0.93500006 7.0994138e-39
-0.039203811 -0.06024 1.0040001 7.0994138e-39
-0.037402861 -0.060420007 1.0070001 7.0068679e-39
-0.035484765 -0.060420007 1.0070001 7.0990635e-39
-0.033566669 -0.060420007 1.0070001 7.2827359e-39
-0.031648573 -0.060420007 1.0070001 7.5593228e-39
-0.029730478 -0.060420007 1.0070001 7.1916123e-39
-0.027895236 -0.060600001 1.01 7.3760035e-39
-0.026048571 -0.06078 1.013 7.6522373e-39
-0.024119047 -0.06078 1.013 7.5600416e-39
-0.022189524 -0.06078 1.013 7.6515184e-39
-0.020260001 -0.06078 1.013 7.743714e-39
-0.018330475 -0.06078 1.013 7.467846e-39
-0.016400954 -0.06078 1.013 7.3756504e-39
-0.014471428 -0.06078 1.013 7.467846e-39
-0.012541905 -0.06078 1.013 7.5600416e-39
-0.010612381 -0.06078 1.013 7.2845338e-39
-0.0086828573 -0.06078 1.013 7.1001425e-39
-0.0067333328 -0.060600001 1.01 7.3756504e-39
-0.0047952384 -0.060420007 1.0070001 7.3756504e-39
-0.0028771432 -0.060420007 1.0070001 7.1898116e-39
-0.0009590477 -0.060420007 1.0070001 7.2820072e-39
0.0009590477 -0.060420007 1.0070001 7.2816401e-39
0.0028685716 -0.06024 1.0040001 7.0972488e-39
0.0047809528 -0.06024 1.0040001 6.3611201e-39
0.0066933334 -0.06024 1.0040001 6.3611201e-39
0.0079971431 -0.055980001 0.93300003 6.3614732e-39
0.0097428579 -0.055800002 0.93000007 6.8224514e-39
0.011514287 -0.055800002 0.93000007 7.374556e-39
0.013257143 -0.055679999 0.92800003 7.8355341e-39
0.015024763 -0.055679999 0.92800003 8.2043166e-39
0.016882857 -0.055980001 0.93300003 9.2184686e-39
0.01866 -0.055980001 0.93300003 9.7745192e-39
0.020480953 -0.056100003 0.93500006 9.6823236e-39
0.022333333 -0.056280002 0.93800002 8.5785222e-39
0.024248572 -0.05658 0.94300002 4.9828926e-39
0.026044762 -0.05658 0.94300002 2.4060183e-39
0.027988574 -0.056880001 0.94800007 6.1860335e-39
0.029794287 -0.056880001 0.94800007 7.5617989e-39
0.0317 -0.05706 0.95100003 9.8666896e-39
0.03351143 -0.05706 0.95100003 1.10631e-38
-0.058871429 -0.055248573 0.95100003 9.4032256e-39
-0.056760002 -0.054958098 0.94600004 7.4692781e-39
-0.054958098 -0.054958098 0.94600004 7.9302563e-39
-0.053156193 -0.054958098 0.94600004 8.0228022e-39
-0.051191427 -0.05478381 0.94300002 8.4837804e-39
-0.049238101 -0.054609526 0.94000006 8.6681745e-39
-0.047346666 -0.054493334 0.93800002 8.7603701e-39
-0.045414288 -0.05431905 0.93500006 9.036957e-39
-0.043633334 -0.05431905 0.93500006 9.6823264e-39
-0.041762859 -0.054202858 0.93300003 9.774522e-39
-0.039985713 -0.054202858 0.93300003 9.774522e-39
-0.03820857 -0.054202858 0.93300003 9.6823264e-39
-0.036431432 -0.054202858 0.93300003 8.7603701e-39
-0.034654286 -0.054202858 0.93300003 8.6670955e-39
-0.035484765 -0.05850191 1.0070001 8.2983129e-39
-0.033566669 -0.05850191 1.0070001 8.2972409e-39
-0.031742856 -0.058676191 1.01 8.2050453e-39
-0.029819047 -0.058676191 1.01 7.6522373e-39
-0.027895236 -0.058676191 1.01 7.5600416e-39
-0.026048571 -0.058850475 1.013 7.2834576e-39
-0.024119047 -0.058850475 1.013 7.1912619e-39
-0.022189524 -0.058850475 1.013 7.1912591e-39
-0.020199999 -0.058676191 1.01 7.1912591e-39
-0.01827619 -0.058676191 1.01 6.9157512e-39
-0.016400954 -0.058850475 1.013 6.6391643e-39
-0.014471428 -0.058850475 1.013 6.6398832e-39
-0.012541905 -0.058850475 1.013 6.7320788e-39
-0.010580952 -0.058676191 1.01 6.8235556e-39
-0.0086571425 -0.058676191 1.01 6.9157512e-39
-0.0067333328 -0.058676191 1.01 7.0079469e-39
-0.0047952384 -0.05850191 1.0070001 6.9157512e-39
-0.0028771432 -0.05850191 1.0070001 7.2838079e-39
-0.0009590477 -0.05850191 1.0070001 7.744786e-39
0.0009590477 -0.05850191 1.0070001 8.112121e-39
0.0026714287 -0.05431905 0.93500006 8.4809035e-39
0.0044523813 -0.05431905 0.93500006 8.7592729e-39
0.0062199999 -0.054202858 0.93300003 9.220251e-39
0.0079971431 -0.054202858 0.93300003 9.4046479e-39
0.0097428579 -0.054028574 0.93000007 9.6812348e-39
0.011514287 -0.054028574 0.93000007 9.9589133e-39
0.013257143 -0.053912383 0.92800003 1.02355e-38
0.015024763 -0.053912383 0.92800003 1.0144741e-38
0.016882857 -0.054202858 0.93300003 1.0144741e-38
0.018700002 -0.05431905 0.93500006 8.7618064e-39
0.020480953 -0.05431905 0.93500006 7.4710676e-39
0.022333333 -0.054493334 0.93800002 7.5632815e-39
0.024171429 -0.054609526 0.94000006 6.2725426e-39
0.026044762 -0.05478381 0.94300002 6.2736188e-39
0.027929526 -0.054958098 0.94600004 7.5643576e-39
0.029794287 -0.055074289 0.94800007 7.6550595e-39
0.031600002 -0.055074289 0.94800007 9.775559e-39
0.033405717 -0.055074289 0.94800007 1.10631e-38
0.035211433 -0.055074289 0.94800007 1.2077252e-38
-0.058561906 -0.053156193 0.94600004 9.8642037e-39
-0.056760002 -0.053156193 0.94600004 7.9288242e-39
-0.054958098 -0.053156193 0.94600004 7.9288242e-39
-0.053156193 -0.053156193 0.94600004 7.9320486e-39
-0.051191427 -0.05298762 0.94300002 8.3008311e-39
-0.049238101 -0.052819051 0.94000006 8.3926736e-39
-0.047346666 -0.05270667 0.93800002 8.7614561e-39
-0.045414288 -0.052538101 0.93500006 8.4870272e-39
-0.043633334 -0.052538101 0.93500006 8.9480054e-39
-0.041762859 -0.052425716 0.93300003 9.040201e-39
-0.039857145 -0.052257147 0.93000007 9.3167879e-39
-0.038085714 -0.052257147 0.93000007 9.7759766e-39
-0.036314286 -0.052257147 0.93000007 9.6837809e-39
-0.034542862 -0.052257147 0.93000007 9.7738158e-39
-0.032771431 -0.052257147 0.93000007 9.4972289e-39
-0.031100003 -0.052425716 0.93300003 9.4035885e-39
-0.029322859 -0.052425716 0.93300003 9.034806e-39
-0.029819047 -0.05675238 1.01 8.7585722e-39
-0.027895236 -0.05675238 1.01 8.574181e-39
-0.026048571 -0.056920953 1.013 8.2972409e-39
-0.024119047 -0.056920953 1.013 8.2050453e-39
-0.022189524 -0.056920953 1.013 8.1132154e-39
-0.020199999 -0.05675238 1.01 8.2054111e-39
-0.01827619 -0.05675238 1.01 8.2064901e-39
-0.016352382 -0.05675238 1.01 8.1142944e-39
-0.014428571 -0.05675238 1.01 7.8394998e-39
-0.011489524 -0.052144762 0.92800003 7.8394998e-39
-0.009721905 -0.052144762 0.92800003 8.1142944e-39
-0.0079542855 -0.052144762 0.92800003 8.3908813e-39
-0.0061866669 -0.052144762 0.92800003 8.4830769e-39
-0.0044190479 -0.052144762 0.92800003 8.2986857e-39
-0.0026514288 -0.052144762 0.92800003 8.5748998e-39
-0.00088571431 -0.052257147 0.93000007 8.8514867e-39
0.00088571431 -0.052257147 0.93000007 9.0351563e-39
0.0026571429 -0.052257147 0.93000007 9.4039388e-39
0.004428572 -0.052257147 0.93000007 9.7727214e-39
0.0062199999 -0.052425716 0.93300003 1.0049308e-38
0.0079971431 -0.052425716 0.93300003 9.9589133e-39
0.0097428579 -0.052257147 0.93000007 1.0327696e-38
0.011514287 -0.052257147 0.93000007 9.5940936e-39
0.013257143 -0.052144762 0.92800003 9.4097024e-39
0.015024763 -0.052144762 0.92800003 9.1345546e-39
0.016919049 -0.052538101 0.93500006 8.8579677e-39
0.018700002 -0.052538101 0.93500006 7.8441815e-39
0.020480953 -0.052538101 0.93500006 6.9222252e-39
0.022333333 -0.05270667 0.93800002 7.7476573e-39
0.024171429 -0.052819051 0.94000006 7.1944835e-39
0.026044762 -0.05298762 0.94300002 7.1019348e-39
0.027929526 -0.053156193 0.94600004 7.286326e-39
0.029794287 -0.053268574 0.94800007 7.4710354e-39
0.031600002 -0.053268574 0.94800007 9.7759261e-39
0.033405717 -0.053268574 0.94800007 1.10631e-38
0.035211433 -0.053268574 0.94800007 1.1985056e-38
-0.063545719 -0.052494287 0.96700007 1.3273634e-38
-0.058561906 -0.051354285 0.94600004 1.078616e-38
-0.056760002 -0.051354285 0.94600004 7.4703642e-39
-0.054958098 -0.051354285 0.94600004 7.009386e-39
-0.05298762 -0.051191427 0.94300002 7.5622095e-39
-0.051191427 -0.051191427 0.94300002 8.2075789e-39
-0.049238101 -0.051028572 0.94000006 8.207932e-39
-0.047346666 -0.050919998 0.93800002 8.6689101e-39
-0.045414288 -0.050757144 0.93500006 8.5774306e-39
-0.043540001 -0.05064857 0.93300003 8.8540175e-39
-0.041628573 -0.050485715 0.93000007 8.6710681e-39
-0.039857145 -0.050485715 0.93000007 9.0398507e-39
-0.038085714 -0.050485715 0.93000007 9.49974e-39
-0.036314286 -0.050485715 0.93000007 9.5919356e-39
-0.034542862 -0.050485715 0.93000007 9.867103e-39
-0.032771431 -0.050485715 0.93000007 1.014369e-38
-0.031100003 -0.05064857 0.93300003 1.0236236e-38
-0.029228574 -0.050485715 0.93000007 1.0328431e-38
-0.027457144 -0.050485715 0.93000007 1.0420624e-38
-0.025768572 -0.05064857 0.93300003 1.0789407e-38
-0.026048571 -0.054991428 1.013 1.1064908e-38
-0.024119047 -0.054991428 1.013 1.1157103e-38
-0.022189524 -0.054991428 1.013 1.1157469e-38
-0.020199999 -0.054828569 1.01 1.1157469e-38
-0.01827619 -0.054828569 1.01 1.0973801e-38
-0.014976191 -0.050214287 0.92500007 1.1158192e-38
-0.013214286 -0.050214287 0.92500007 1.1066347e-38
-0.011489524 -0.050377145 0.92800003 1.1342934e-38
-0.009721905 -0.050377145 0.92800003 1.1065994e-38
-0.0079285717 -0.050214287 0.92500007 1.1065994e-38
-0.0061666667 -0.050214287 0.92500007 1.1065994e-38
-0.0044190479 -0.050377145 0.92800003 1.1158189e-38
-0.0026514288 -0.050377145 0.92800003 1.0974151e-38
-0.00088380952 -0.050377145 0.92800003 1.0974151e-38
0.00088571431 -0.050485715 0.93000007 1.0788687e-38
0.0026571429 -0.050485715 0.93000007 1.0880882e-38
0.004428572 -0.050485715 0.93000007 1.0881235e-38
0.0062199999 -0.05064857 0.93300003 1.0696844e-38
0.0079971431 -0.05064857 0.93300003 1.0329148e-38
0.0097428579 -0.050485715 0.93000007 1.0329148e-38
0.011514287 -0.050485715 0.93000007 9.778122e-39
0.013285715 -0.050485715 0.93000007 8.8561657e-39
0.015057144 -0.050485715 0.93000007 7.6576449e-39
0.016919049 -0.050757144 0.93500006 6.2747104e-39
0.018700002 -0.050757144 0.93500006 7.1030418e-39
0.020480953 -0.050757144 0.93500006 7.8406068e-39
0.022333333 -0.050919998 0.93800002 7.7487139e-39
0.024171429 -0.051028572 0.94000006 8.0253008e-39
0.026044762 -0.051191427 0.94300002 7.2866791e-39
0.027929526 -0.051354285 0.94600004 6.7335054e-39
0.029794287 -0.051462859 0.94800007 7.1937324e-39
0.031600002 -0.051462859 0.94800007 9.7752101e-39
0.03351143 -0.051625714 0.95100003 1.1340037e-38
0.035322856 -0.051625714 0.95100003 1.1893211e-38
-0.065387622 -0.050652385 0.96700007 1.2906297e-38
-0.063545719 -0.050652385 0.96700007 1.3182883e-38
-0.061703809 -0.050652385 0.96700007 1.2999574e-38
-0.058561906 -0.049552381 0.94600004 1.0602488e-38
-0.056760002 -0.049552381 0.94600004 7.8377075e-39
-0.054958098 -0.049552381 0.94600004 7.468925e-39
-0.05298762 -0.049395241 0.94300002 7.9306094e-39
-0.051191427 -0.049395241 0.94300002 8.3915876e-39
-0.049238101 -0.049238101 0.94000006 8.2079292e-39
-0.047346666 -0.049133334 0.93800002 8.6689073e-39
-0.045414288 -0.048976194 0.93500006 8.7614561e-39
-0.043540001 -0.048871431 0.93300003 9.1302386e-39
-0.041628573 -0.048714291 0.93000007 9.1306044e-39
-0.039857145 -0.048714291 0.93000007 9.3149956e-39
-0.038085714 -0.048714291 0.93000007 9.4071884e-39
-0.036314286 -0.048714291 0.93000007 9.4993841e-39
-0.034542862 -0.048714291 0.93000007 9.5912322e-39
-0.032771431 -0.048714291 0.93000007 9.9600147e-39
-0.031000003 -0.048714291 0.93000007 9.5019078e-39
-0.029228574 -0.048714291 0.93000007 9.7784947e-39
-0.027457144 -0.048714291 0.93000007 9.5951796e-39
-0.025685715 -0.048714291 0.93000007 9.8717665e-39
-0.023862859 -0.048609525 0.92800003 1.023911e-38
-0.022023812 -0.048452385 0.92500007 1.0331306e-38
-0.020261906 -0.048452385 0.92500007 1.0514621e-38
-0.01856 -0.048609525 0.92800003 1.0606816e-38
-0.016792381 -0.048609525 0.92800003 1.0606816e-38
-0.014976191 -0.048452385 0.92500007 1.0699012e-38
-0.013214286 -0.048452385 0.92500007 1.0607532e-38
-0.011452381 -0.048452385 0.92500007 1.0607532e-38
-0.0096904775 -0.048452385 0.92500007 1.0239473e-38
-0.0079285717 -0.048452385 0.92500007 1.0147277e-38
-0.0061666667 -0.048452385 0.92500007 1.0147277e-38
-0.0044047623 -0.048452385 0.92500007 1.0239473e-38
-0.0026428571 -0.048452385 0.92500007 1.0147633e-38
-0.00088380952 -0.048609525 0.92800003 9.9632419e-39
0.00088571431 -0.048714291 0.93000007 9.6873753e-39
0.0026571429 -0.048714291 0.93000007 9.6873753e-39
0.004428572 -0.048714291 0.93000007 9.5955356e-39
0.0062000002 -0.048714291 0.93000007 9.6877312e-39
0.0079714293 -0.048714291 0.93000007 9.5951824e-39
0.0097428579 -0.048714291 0.93000007 9.2263999e-39
0.011514287 -0.048714291 0.93000007 9.5025916e-39
0.013285715 -0.048714291 0.93000007 8.3962441e-39
0.015057144 -0.048714291 0.93000007 8.2086453e-39
0.016919049 -0.048976194 0.93500006 7.3788846e-39
0.018700002 -0.048976194 0.93500006 7.7455147e-39
0.020480953 -0.048976194 0.93500006 7.2845366e-39
0.022333333 -0.049133334 0.93800002 7.2862798e-39
0.024171429 -0.049238101 0.94000006 7.7472579e-39
0.026044762 -0.049395241 0.94300002 7.5618241e-39
0.027988574 -0.049657144 0.94800007 6.8242591e-39
0.029794287 -0.049657144 0.94800007 6.5487259e-39
0.031600002 -0.049657144 0.94800007 9.775573e-39
0.03351143 -0.049814284 0.95100003 1.1339331e-38
0.035322856 -0.049814284 0.95100003 1.1892505e-38
-0.065387622 -0.048810478 0.96700007 1.2997053e-38
-0.063545719 -0.048810478 0.96700007 1.3365836e-38
-0.061512385 -0.048659049 0.96400005 1.3091048e-38
-0.059180956 -0.048255239 0.95600003 1.0786157e-38
-0.056760002 -0.047750477 0.94600004 8.1146476e-39
-0.054958098 -0.047750477 0.94600004 7.4692781e-39
-0.05298762 -0.047599047 0.94300002 7.3788748e-39
-0.051191427 -0.047599047 0.94300002 8.0242442e-39
-0.049238101 -0.047447622 0.94000006 8.2079292e-39
-0.047346666 -0.047346666 0.93800002 8.4845161e-39
-0.045414288 -0.047195241 0.93500006 8.9458474e-39
-0.043633334 -0.047195241 0.93500006 9.038043e-39
-0.041762859 -0.047094285 0.93300003 9.1306072e-39
-0.039857145 -0.04694286 0.93000007 9.3149984e-39
-0.038085714 -0.04694286 0.93000007 9.5915797e-39
-0.036314286 -0.04694286 0.93000007 9.5915797e-39
-0.034542862 -0.04694286 0.93000007 9.7759766e-39
-0.032771431 -0.04694286 0.93000007 9.8681722e-39
-0.031000003 -0.04694286 0.93000007 9.5926713e-39
-0.029165715 -0.046841905 0.92800003 9.9614538e-39
-0.027398096 -0.046841905 0.92800003 9.8703274e-39
-0.025685715 -0.04694286 0.93000007 9.8703274e-39
-0.023862859 -0.046841905 0.92800003 9.9625258e-39
-0.022023812 -0.046690479 0.92500007 1.0054721e-38
-0.020261906 -0.046690479 0.92500007 1.0238034e-38
-0.0185 -0.046690479 0.92500007 1.0238034e-38
-0.016738096 -0.046690479 0.92500007 1.0238034e-38
-0.014976191 -0.046690479 0.92500007 1.0330229e-38
-0.013214286 -0.046690479 0.92500007 1.0330229e-38
-0.011452381 -0.046690479 0.92500007 1.0330229e-38
-0.0096904775 -0.046690479 0.92500007 1.0146561e-38
-0.0079285717 -0.046690479 0.92500007 1.0054366e-38
-0.0061666667 -0.046690479 0.92500007 9.7795765e-39
-0.0044047623 -0.046690479 0.92500007 9.7795765e-39
-0.0026428571 -0.046690479 0.92500007 9.9625258e-39
-0.00088380952 -0.046841905 0.92800003 9.8703302e-39
0.00088571431 -0.04694286 0.93000007 9.6877312e-39
0.0026571429 -0.04694286 0.93000007 9.5955356e-39
0.004428572 -0.04694286 0.93000007 9.9625132e-39
0.0062000002 -0.04694286 0.93000007 1.0146904e-38
0.0079714293 -0.04694286 0.93000007 9.3171662e-39
0.0097428579 -0.04694286 0.93000007 7.6576449e-39
0.011514287 -0.04694286 0.93000007 6.5534273e-39
0.013285715 -0.04694286 0.93000007 7.1066011e-39
0.015057144 -0.04694286 0.93000007 8.303345e-39
0.016919049 -0.047195241 0.93500006 8.5799319e-39
0.018700002 -0.047195241 0.93500006 8.1185978e-39
0.020480953 -0.047195241 0.93500006 6.3668808e-39
0.022333333 -0.047346666 0.93800002 6.3664787e-39
0.024248572 -0.047599047 0.94300002 7.0118481e-39
0.02612762 -0.047750477 0.94600004 7.4703319e-39
0.027988574 -0.047851432 0.94800007 6.5483756e-39
0.029794287 -0.047851432 0.94800007 6.8253156e-39
0.031600002 -0.047851432 0.94800007 1.0052163e-38
0.033405717 -0.047851432 0.94800007 1.1524426e-38
-0.065387622 -0.046968576 0.96700007 1.2722258e-38
-0.063348576 -0.046822857 0.96400005 1.2998845e-38
-0.061384764 -0.046725716 0.96200007 1.3182883e-38
-0.05936667 -0.046580002 0.95900005 1.1062384e-38
-0.056880001 -0.046045717 0.94800007 8.6670955e-39
-0.054958098 -0.045948572 0.94600004 7.5607479e-39
-0.053156193 -0.045948572 0.94600004 7.286326e-39
-0.051191427 -0.045802858 0.94300002 8.1160867e-39
-0.049395241 -0.045802858 0.94300002 8.2079292e-39
-0.047346666 -0.045560002 0.93800002 8.761103e-39
-0.045414288 -0.045414288 0.93500006 8.8543706e-39
-0.043633334 -0.045414288 0.93500006 9.2231531e-39
-0.041762859 -0.045317143 0.93300003 9.2228e-39
-0.039857145 -0.045171432 0.93000007 9.4071912e-39
-0.038085714 -0.045171432 0.93000007 9.4993897e-39
-0.036314286 -0.045171432 0.93000007 9.7759766e-39
-0.034542862 -0.045171432 0.93000007 9.5004757e-39
-0.032771431 -0.045171432 0.93000007 9.5926713e-39
-0.031000003 -0.045171432 0.93000007 9.5019078e-39
-0.029165715 -0.045074288 0.92800003 9.7784947e-39
-0.027398096 -0.045074288 0.92800003 9.9621629e-39
-0.025685715 -0.045171432 0.93000007 9.9621629e-39
-0.023862859 -0.045074288 0.92800003 1.0145838e-38
-0.022095239 -0.045074288 0.92800003 1.0238034e-38
-0.020327618 -0.045074288 0.92800003 1.0329873e-38
-0.0185 -0.044928573 0.92500007 1.0422069e-38
-0.016738096 -0.044928573 0.92500007 1.0422425e-38
-0.014976191 -0.044928573 0.92500007 1.0514621e-38
-0.013214286 -0.044928573 0.92500007 1.0697214e-38
-0.011452381 -0.044928573 0.92500007 1.0697214e-38
-0.0096904775 -0.044928573 0.92500007 1.0146561e-38
-0.0079542855 -0.045074288 0.92800003 1.0146561e-38
-0.0061866669 -0.045074288 0.92800003 1.0238757e-38
-0.0044190479 -0.045074288 0.92800003 1.0146561e-38
-0.0026514288 -0.045074288 0.92800003 9.9625258e-39
-0.00088380952 -0.045074288 0.92800003 9.9625258e-39
0.00088571431 -0.045171432 0.93000007 9.8706805e-39
0.0026571429 -0.045171432 0.93000007 9.8706805e-39
0.004428572 -0.045171432 0.93000007 1.0238028e-38
0.0062000002 -0.045171432 0.93000007 9.8692456e-39
0.0079714293 -0.045171432 0.93000007 8.4888153e-39
0.0097428579 -0.045171432 0.93000007 7.6590546e-39
0.011514287 -0.045171432 0.93000007 5.3574135e-39
0.013285715 -0.045171432 0.93000007 7.2935217e-39
0.015057144 -0.045171432 0.93000007 8.8572419e-39
0.016919049 -0.045414288 0.93500006 8.6728506e-39
0.018700002 -0.045414288 0.93500006 7.8434655e-39
0.020546667 -0.045560002 0.93800002 4.8010097e-39
0.022333333 -0.045560002 0.93800002 4.0608508e-39
0.024248572 -0.045802858 0.94300002 7.1955009e-39
0.02612762 -0.045948572 0.94600004 7.4696285e-39
0.027929526 -0.045948572 0.94600004 6.9164547e-39
0.029794287 -0.046045717 0.94800007 7.2848589e-39
0.031600002 -0.046045717 0.94800007 1.041951e-38
0.033405717 -0.046045717 0.94800007 1.1524431e-38
-0.065184765 -0.044986669 0.96400005 1.2997047e-38
-0.063348576 -0.044986669 0.96400005 1.3181439e-38
-0.061384764 -0.044893336 0.96200007 1.2998492e-38
-0.05936667 -0.044753335 0.95900005 1.115458e-38
-0.056880001 -0.044240002 0.94800007 8.6667423e-39
-0.055074289 -0.044240002 0.94800007 7.6525904e-39
-0.053156193 -0.044146664 0.94600004 7.8377103e-39
-0.051191427 -0.044006668 0.94300002 8.4830797e-39
-0.049395241 -0.044006668 0.94300002 8.4830769e-39
-0.047599047 -0.044006668 0.94300002 8.9440551e-39
-0.045560002 -0.043773334 0.93800002 8.9458474e-39
-0.043633334 -0.043633334 0.93500006 9.1302386e-39
-0.041762859 -0.043540001 0.93300003 9.2220839e-39
-0.039985713 -0.043540001 0.93300003 9.4064752e-39
-0.038085714 -0.043400005 0.93000007 9.4068409e-39
-0.036314286 -0.043400005 0.93000007 9.6834278e-39
-0.034542862 -0.043400005 0.93000007 9.5930244e-39
-0.032771431 -0.043400005 0.93000007 9.6852201e-39
-0.031000003 -0.043400005 0.93000007 9.6848669e-39
-0.029228574 -0.043400005 0.93000007 9.8692582e-39
-0.027457144 -0.043400005 0.93000007 9.961807e-39
-0.025685715 -0.043400005 0.93000007 9.961807e-39
-0.023914289 -0.043400005 0.93000007 9.9618098e-39
-0.022095239 -0.043306667 0.92800003 1.0054005e-38
-0.020327618 -0.043306667 0.92800003 1.0330229e-38
-0.01856 -0.043306667 0.92800003 1.0422425e-38
-0.016738096 -0.043166671 0.92500007 1.0422425e-38
-0.014976191 -0.043166671 0.92500007 1.0514621e-38
-0.013214286 -0.043166671 0.92500007 1.0422425e-38
-0.011452381 -0.043166671 0.92500007 1.0422425e-38
-0.0096904775 -0.043166671 0.92500007 1.0238757e-38
-0.0079542855 -0.043306667 0.92800003 1.0238757e-38
-0.0061866669 -0.043306667 0.92800003 1.0513917e-38
-0.0044190479 -0.043306667 0.92800003 1.0421722e-38
-0.0026514288 -0.043306667 0.92800003 1.0238034e-38
-0.00088380952 -0.043306667 0.92800003 1.0145838e-38
0.00088571431 -0.043400005 0.93000007 9.9628733e-39
0.0026571429 -0.043400005 0.93000007 9.9628733e-39
0.004428572 -0.043400005 0.93000007 8.2118977e-39
0.0062000002 -0.043400005 0.93000007 5.4460288e-39
0.0079714293 -0.043400005 0.93000007 5.0804734e-39
0.0097428579 -0.043400005 0.93000007 7.7541467e-39
0.011514287 -0.043400005 0.93000007 9.7791855e-39
0.013328572 -0.043540001 0.93300003 9.9635768e-39
0.015105714 -0.043540001 0.93300003 8.6739268e-39
0.016919049 -0.043633334 0.93500006 8.6739268e-39
0.018700002 -0.043633334 0.93500006 8.1193293e-39
0.020546667 -0.043773334 0.93800002 4.708091e-39
0.022333333 -0.043773334 0.93800002 4.2445961e-39
0.024248572 -0.044006668 0.94300002 6.9182694e-39
0.02612762 -0.044146664 0.94600004 7.4696285e-39
0.027929526 -0.044146664 0.94600004 7.0086503e-39
0.029794287 -0.044240002 0.94800007 6.9175113e-39
0.031600002 -0.044240002 0.94800007 1.032875e-38
-0.065184765 -0.043150477 0.96400005 1.3089596e-38
-0.063348576 -0.043150477 0.96400005 1.3273987e-38
-0.061384764 -0.043060955 0.96200007 1.2814461e-38
-0.05936667 -0.042926669 0.95900005 1.1062744e-38
-0.05706 -0.042568572 0.95100003 9.5883301e-39
-0.055074289 -0.04243429 0.94800007 7.8366131e-39
-0.053156193 -0.042344764 0.94600004 7.9302563e-39
-0.051191427 -0.042210475 0.94300002 8.3912344e-39
-0.049395241 -0.042210475 0.94300002 8.2082823e-39
-0.047599047 -0.042210475 0.94300002 8.6692605e-39
-0.045657143 -0.042076193 0.94000006 8.8543706e-39
-0.043773334 -0.041986667 0.93800002 9.0387619e-39
-0.041852385 -0.041852385 0.93500006 9.1306016e-39
-0.039985713 -0.041762859 0.93300003 9.3149928e-39
-0.03820857 -0.041762859 0.93300003 9.3149984e-39
-0.036314286 -0.041628573 0.93000007 9.8681722e-39
-0.034542862 -0.041628573 0.93000007 9.5930244e-39
-0.032771431 -0.041628573 0.93000007 9.7774157e-39
-0.031000003 -0.041628573 0.93000007 9.7777716e-39
-0.029228574 -0.041628573 0.93000007 9.9621629e-39
-0.027457144 -0.041628573 0.93000007 9.9621629e-39
-0.025685715 -0.041628573 0.93000007 1.0146554e-38
-0.023914289 -0.041628573 0.93000007 1.0145838e-38
-0.022095239 -0.041539047 0.92800003 1.0238034e-38
-0.020327618 -0.041539047 0.92800003 1.0329873e-38
-0.01856 -0.041539047 0.92800003 1.0514265e-38
-0.016792381 -0.041539047 0.92800003 1.0422785e-38
-0.015024763 -0.041539047 0.92800003 1.0422785e-38
-0.013257143 -0.041539047 0.92800003 1.0514618e-38
-0.011489524 -0.041539047 0.92800003 1.0606813e-38
-0.009721905 -0.041539047 0.92800003 1.0422785e-38
-0.0079542855 -0.041539047 0.92800003 1.0422785e-38
-0.0061866669 -0.041539047 0.92800003 1.0514267e-38
-0.0044190479 -0.041539047 0.92800003 1.0606463e-38
-0.0026514288 -0.041539047 0.92800003 1.0054719e-38
-0.00088380952 -0.041539047 0.92800003 9.962523e-39
0.00088380952 -0.041539047 0.92800003 1.0238028e-38
0.0026571429 -0.041628573 0.93000007 9.5004631e-39
0.004428572 -0.041628573 0.93000007 7.3835565e-39
0.0062000002 -0.041628573 0.93000007 5.4474483e-39
0.0079714293 -0.041628573 0.93000007 5.6325556e-39
0.0097428579 -0.041628573 0.93000007 9.0437939e-39
0.01155143 -0.041762859 0.93300003 9.5958985e-39
0.013328572 -0.041762859 0.93300003 8.8583335e-39
0.015105714 -0.041762859 0.93300003 8.2136773e-39
0.016919049 -0.041852385 0.93500006 8.3058729e-39
0.018759999 -0.041986667 0.93800002 8.6703297e-39
0.020546667 -0.041986667 0.93800002 5.5356782e-39
0.022380954 -0.042076193 0.94000006 5.5317126e-39
0.024325715 -0.042344764 0.94600004 7.9287989e-39
0.02612762 -0.042344764 0.94600004 7.6525904e-39
0.027988574 -0.04243429 0.94800007 6.5462428e-39
0.029794287 -0.04243429 0.94800007 7.0997445e-39
0.031600002 -0.04243429 0.94800007 1.1156352e-38
-0.063348576 -0.041314285 0.96400005 1.3181792e-38
-0.061512385 -0.041314285 0.96400005 1.2721905e-38
-0.05936667 -0.041100003 0.95900005 1.1338971e-38
-0.05706 -0.040757146 0.95100003 9.6812474e-39
-0.055074289 -0.040628575 0.94800007 7.6529435e-39
-0.053156193 -0.04054286 0.94600004 7.5614738e-39
-0.051354285 -0.04054286 0.94600004 8.2068432e-39
-0.049395241 -0.040414285 0.94300002 8.1160867e-39
-0.047599047 -0.040414285 0.94300002 8.7614561e-39
-0.045657143 -0.040285718 0.94000006 8.762175e-39
-0.043866668 -0.040285718 0.94000006 8.9465662e-39
-0.042076193 -0.040285718 0.94000006 9.3153431e-39
-0.040071432 -0.040071432 0.93500006 9.3153431e-39
-0.03820857 -0.039985713 0.93300003 9.3146453e-39
-0.036431432 -0.039985713 0.93300003 9.7756234e-39
-0.034542862 -0.039857145 0.93000007 9.5008288e-39
-0.032771431 -0.039857145 0.93000007 9.6852201e-39
-0.031000003 -0.039857145 0.93000007 9.7777716e-39
-0.029228574 -0.039857145 0.93000007 9.9621629e-39
-0.027457144 -0.039857145 0.93000007 9.961807e-39
-0.025685715 -0.039857145 0.93000007 1.0146198e-38
-0.023914289 -0.039857145 0.93000007 1.0237678e-38
-0.022095239 -0.03977143 0.92800003 1.0329873e-38
-0.020327618 -0.03977143 0.92800003 1.0329873e-38
-0.01856 -0.03977143 0.92800003 1.0422069e-38
-0.016792381 -0.03977143 0.92800003 1.0238757e-38
-0.015024763 -0.03977143 0.92800003 1.0330952e-38
-0.013257143 -0.03977143 0.92800003 1.0514618e-38
-0.011489524 -0.03977143 0.92800003 1.0791205e-38
-0.009721905 -0.03977143 0.92800003 1.0606813e-38
-0.0079542855 -0.03977143 0.92800003 1.0422422e-38
-0.0061866669 -0.03977143 0.92800003 1.0146561e-38
-0.0044190479 -0.03977143 0.92800003 1.0238757e-38
-0.0026514288 -0.03977143 0.92800003 9.9632391e-39
-0.00088380952 -0.03977143 0.92800003 9.0412828e-39
0.00088380952 -0.03977143 0.92800003 7.1959899e-39
0.0026571429 -0.039857145 0.93000007 6.5506205e-39
0.004428572 -0.039857145 0.93000007 8.1196572e-39
0.0062000002 -0.039857145 0.93000007 9.0416135e-39
0.0079714293 -0.039857145 0.93000007 9.4111415e-39
0.0097742863 -0.039985713 0.93300003 9.779924e-39
0.01155143 -0.039985713 0.93300003 8.8579677e-39
0.013357143 -0.040071432 0.93500006 7.7516202e-39
0.015138096 -0.040071432 0.93500006 7.8434627e-39
0.016919049 -0.040071432 0.93500006 8.2122452e-39
0.018759999 -0.040200002 0.93800002 7.9352659e-39
0.020546667 -0.040200002 0.93800002 4.5240276e-39
0.022380954 -0.040285718 0.94000006 5.9037727e-39
0.024325715 -0.04054286 0.94600004 8.6696416e-39
0.02618286 -0.040628575 0.94800007 8.1160517e-39
0.027988574 -0.040628575 0.94800007 5.0735959e-39
0.029794287 -0.040628575 0.94800007 5.7197262e-39
0.031600002 -0.040628575 0.94800007 1.069829e-38
-0.060682859 -0.038945716 0.95100003 1.2630073e-38
-0.058871429 -0.038945716 0.95100003 1.1892508e-38
-0.05706 -0.038945716 0.95100003 9.6819733e-39
-0.055074289 -0.03882286 0.94800007 7.4692781e-39
-0.053156193 -0.038740952 0.94600004 7.7462154e-39
-0.051354285 -0.038740952 0.94600004 8.2993891e-39
-0.049395241 -0.038618095 0.94300002 8.1160867e-39
-0.047599047 -0.038618095 0.94300002 8.6692605e-39
-0.045657143 -0.038495239 0.94000006 8.6699793e-39
-0.043866668 -0.038495239 0.94000006 9.0387619e-39
-0.042076193 -0.038495239 0.94000006 9.2228e-39
-0.040071432 -0.038290478 0.93500006 9.3149956e-39
-0.03820857 -0.03820857 0.93300003 9.407194e-39
-0.036431432 -0.03820857 0.93300003 9.7759766e-39
-0.034654286 -0.03820857 0.93300003 9.5011847e-39
-0.032771431 -0.038085714 0.93000007 9.8699673e-39
-0.031000003 -0.038085714 0.93000007 9.8699673e-39
-0.029228574 -0.038085714 0.93000007 9.9621629e-39
-0.027457144 -0.038085714 0.93000007 9.9621629e-39
-0.025768572 -0.03820857 0.93300003 1.0146554e-38
-0.023914289 -0.038085714 0.93000007 1.0238034e-38
-0.022142859 -0.038085714 0.93000007 1.0330229e-38
-0.020327618 -0.038003813 0.92800003 1.0238757e-38
-0.01856 -0.038003813 0.92800003 1.0238757e-38
-0.016792381 -0.038003813 0.92800003 1.0422785e-38
-0.015024763 -0.038003813 0.92800003 1.0330589e-38
-0.013257143 -0.038003813 0.92800003 1.0514618e-38
-0.011489524 -0.038003813 0.92800003 1.0791205e-38
-0.009721905 -0.038003813 0.92800003 1.0514981e-38
-0.0079542855 -0.038003813 0.92800003 1.0422785e-38
-0.0061866669 -0.038003813 0.92800003 1.0055084e-38
-0.0044190479 -0.038003813 0.92800003 1.0239476e-38
-0.0026571429 -0.038085714 0.93000007 1.0606813e-38
-0.00088571431 -0.038085714 0.93000007 7.6565533e-39
0.00088571431 -0.038085714 0.93000007 7.929515e-39
0.0026571429 -0.038085714 0.93000007 9.1280582e-39
0.0044428571 -0.03820857 0.93300003 9.3153431e-39
0.0062199999 -0.03820857 0.93300003 1.0421691e-38
0.0079971431 -0.03820857 0.93300003 9.8728385e-39
0.0097742863 -0.03820857 0.93300003 9.3196647e-39
0.011576191 -0.038290478 0.93500006 8.6735765e-39
0.013357143 -0.038290478 0.93500006 8.0282071e-39
0.015138096 -0.038290478 0.93500006 8.3011968e-39
0.016919049 -0.038290478 0.93500006 8.4855881e-39
0.018759999 -0.038413331 0.93800002 7.8423669e-39
0.020546667 -0.038413331 0.93800002 5.2608892e-39
0.022380954 -0.038495239 0.94000006 5.0783253e-39
0.024325715 -0.038740952 0.94600004 7.5676073e-39
0.02618286 -0.03882286 0.94800007 7.6576197e-39
0.027988574 -0.03882286 0.94800007 4.338577e-39
0.029794287 -0.03882286 0.94800007 5.0732582e-39
0.031600002 -0.03882286 0.94800007 1.0973778e-38
-0.058871429 -0.037134286 0.95100003 1.2260571e-38
-0.05706 -0.037134286 0.95100003 1.041881e-38
-0.055074289 -0.037017144 0.94800007 7.5607451e-39
-0.053268574 -0.037017144 0.94800007 7.5618241e-39
-0.051354285 -0.036939051 0.94600004 8.2993891e-39
-0.049395241 -0.036821906 0.94300002 8.3908813e-39
-0.047599047 -0.036821906 0.94300002 8.7596638e-39
-0.045802858 -0.036821906 0.94300002 8.6689101e-39
-0.044006668 -0.036821906 0.94300002 9.0376927e-39
-0.042076193 -0.036704764 0.94000006 9.1306044e-39
-0.040200002 -0.036626667 0.93800002 9.3149956e-39
-0.038290478 -0.036509525 0.93500006 9.1320463e-39
-0.036431432 -0.036431432 0.93300003 9.5008288e-39
-0.034654286 -0.036431432 0.93300003 9.5008288e-39
-0.032877143 -0.036431432 0.93300003 9.961807e-39
-0.031100003 -0.036431432 0.93300003 9.9621629e-39
-0.029228574 -0.036314286 0.93000007 9.9621629e-39
-0.027457144 -0.036314286 0.93000007 1.0054359e-38
-0.025768572 -0.036431432 0.93300003 1.0054359e-38
-0.023914289 -0.036314286 0.93000007 1.0146201e-38
-0.022142859 -0.036314286 0.93000007 1.0146201e-38
-0.02037143 -0.036314286 0.93000007 1.0239113e-38
-0.01856 -0.036236189 0.92800003 1.0331308e-38
-0.016792381 -0.036236189 0.92800003 1.0330952e-38
-0.015024763 -0.036236189 0.92800003 1.0330952e-38
-0.013257143 -0.036236189 0.92800003 1.0422785e-38
-0.011489524 -0.036236189 0.92800003 1.0422785e-38
-0.009721905 -0.036236189 0.92800003 1.0422069e-38
-0.0079542855 -0.036236189 0.92800003 1.0422069e-38
-0.0061866669 -0.036236189 0.92800003 1.0146561e-38
-0.0044190479 -0.036236189 0.92800003 1.0423148e-38
-0.0026571429 -0.036314286 0.93000007 1.0330577e-38
-0.00088571431 -0.036314286 0.93000007 5.5364041e-39
0.00088571431 -0.036314286 0.93000007 7.1040577e-39
0.0026571429 -0.036314286 0.93000007 1.0976274e-38
0.0044428571 -0.036431432 0.93300003 1.1250738e-38
0.0062199999 -0.036431432 0.93300003 1.0881956e-38
0.0079971431 -0.036431432 0.93300003 9.8717371e-39
0.0097952392 -0.036509525 0.93500006 9.1341721e-39
0.011576191 -0.036509525 0.93500006 8.6742953e-39
0.013357143 -0.036509525 0.93500006 8.4899041e-39
0.015138096 -0.036509525 0.93500006 8.5802822e-39
0.016973333 -0.036626667 0.93800002 7.8427172e-39
0.018759999 -0.036626667 0.93800002 7.3792349e-39
0.020590477 -0.036704764 0.94000006 6.4572786e-39
0.022452381 -0.036821906 0.94300002 6.5487764e-39
0.024325715 -0.036939051 0.94600004 8.3004934e-39
0.02618286 -0.037017144 0.94800007 8.1178593e-39
0.027988574 -0.037017144 0.94800007 6.3661424e-39
0.029794287 -0.037017144 0.94800007 6.918247e-39
0.03186667 -0.037329525 0.95600003 1.0790463e-38
0.033687621 -0.037329525 0.95600003 1.180065e-38
-0.058871429 -0.035322856 0.95100003 1.226129e-38
-0.05706 -0.035322856 0.95100003 1.0510289e-38
-0.055074289 -0.035211433 0.94800007 7.7444203e-39
-0.053268574 -0.035211433 0.94800007 7.7462154e-39
-0.051354285 -0.035137143 0.94600004 8.2993891e-39
-0.049552381 -0.035137143 0.94600004 8.1157336e-39
-0.047599047 -0.035025716 0.94300002 8.6689073e-39
-0.045802858 -0.035025716 0.94300002 8.7614561e-39
-0.044006668 -0.035025716 0.94300002 9.038043e-39
-0.042076193 -0.034914289 0.94000006 9.1306044e-39
-0.040200002 -0.034839999 0.93800002 9.4993869e-39
-0.038290478 -0.034728575 0.93500006 9.2245979e-39
-0.036431432 -0.034654286 0.93300003 9.5011847e-39
-0.034654286 -0.034654286 0.93300003 9.3175166e-39
-0.032877143 -0.034654286 0.93300003 9.6862991e-39
-0.031100003 -0.034654286 0.93300003 9.8699673e-39
-0.029228574 -0.034542862 0.93000007 9.9621629e-39
-0.027457144 -0.034542862 0.93000007 1.0054003e-38
-0.025768572 -0.034654286 0.93300003 1.0146198e-38
-0.023914289 -0.034542862 0.93000007 1.0054366e-38
-0.022142859 -0.034542862 0.93000007 1.0054366e-38
-0.02037143 -0.034542862 0.93000007 1.0238757e-38
-0.0186 -0.034542862 0.93000007 1.0515344e-38
-0.016792381 -0.034468573 0.92800003 1.060646e-38
-0.015024763 -0.034468573 0.92800003 1.0514265e-38
-0.013257143 -0.034468573 0.92800003 1.0423141e-38
-0.011489524 -0.034468573 0.92800003 1.0423141e-38
-0.009721905 -0.034468573 0.92800003 1.0239113e-38
-0.0079542855 -0.034468573 0.92800003 1.0331308e-38
-0.0061866669 -0.034468573 0.92800003 1.0698659e-38
-0.0044190479 -0.034468573 0.92800003 9.8688981e-39
-0.0026571429 -0.034542862 0.93000007 8.7653769e-39
-0.00088571431 -0.034542862 0.93000007 7.5668337e-39
0.00088571431 -0.034542862 0.93000007 8.0246043e-39
0.0026657144 -0.034654286 0.93300003 1.0513886e-38
0.0044428571 -0.034654286 0.93300003 1.0515337e-38
0.0062333336 -0.034728575 0.93500006 9.7777716e-39
0.0080142869 -0.034728575 0.93500006 8.767207e-39
0.0097952392 -0.034728575 0.93500006 8.767207e-39
0.011576191 -0.034728575 0.93500006 8.4899041e-39
0.013400001 -0.034839999 0.93800002 8.6742953e-39
0.015186667 -0.034839999 0.93800002 9.0405541e-39
0.016973333 -0.034839999 0.93800002 6.2746852e-39
0.018800002 -0.034914289 0.94000006 7.3741706e-39
0.020656191 -0.035025716 0.94300002 7.9273444e-39
0.022523811 -0.035137143 0.94600004 7.2834421e-39
0.024377145 -0.035211433 0.94800007 8.8507679e-39
0.02618286 -0.035211433 0.94800007 8.4855699e-39
0.027988574 -0.035211433 0.94800007 7.2870267e-39
0.029888572 -0.035322856 0.95100003 7.6540197e-39
0.031800002 -0.035434287 0.95400006 1.1249649e-38
0.033617143 -0.035434287 0.95400006 1.180065e-38
0.035434287 -0.035434287 0.95400006 1.1524063e-38
-0.059057143 -0.033617143 0.95400006 1.2537514e-38
-0.057240006 -0.033617143 0.95400006 1.069468e-38
-0.055248573 -0.03351143 0.95100003 7.560029e-39
-0.053268574 -0.033405717 0.94800007 7.5614738e-39
-0.051462859 -0.033405717 0.94800007 8.2068432e-39
-0.049552381 -0.033335239 0.94600004 8.0235379e-39
-0.047750477 -0.033335239 0.94600004 8.761103e-39
-0.045948572 -0.033335239 0.94600004 8.6692605e-39
-0.044146664 -0.033335239 0.94600004 8.9458474e-39
-0.042210475 -0.033229522 0.94300002 9.0384087e-39
-0.040285718 -0.03312381 0.94000006 9.4993869e-39
-0.038413331 -0.033053335 0.93800002 9.2245979e-39
-0.036626667 -0.033053335 0.93800002 9.2245979e-39
-0.034728575 -0.032947619 0.93500006 9.3160872e-39
-0.032877143 -0.032877143 0.93300003 9.5926741e-39
-0.031100003 -0.032877143 0.93300003 9.7770626e-39
-0.029322859 -0.032877143 0.93300003 9.8692582e-39
-0.027545715 -0.032877143 0.93300003 9.8696141e-39
-0.025768572 -0.032877143 0.93300003 1.0054005e-38
-0.023991428 -0.032877143 0.93300003 1.0145129e-38
-0.022214286 -0.032877143 0.93300003 1.0237325e-38
-0.02037143 -0.032771431 0.93000007 1.0238757e-38
-0.0186 -0.032771431 0.93000007 1.0423148e-38
-0.016828572 -0.032771431 0.93000007 1.0698659e-38
-0.015057144 -0.032771431 0.93000007 1.0514267e-38
-0.013257143 -0.032700956 0.92800003 1.0514615e-38
-0.011489524 -0.032700956 0.92800003 1.0514615e-38
-0.009721905 -0.032700956 0.92800003 1.0422785e-38
-0.0079542855 -0.032700956 0.92800003 1.0975959e-38
-0.0061866669 -0.032700956 0.92800003 1.0699024e-38
-0.0044190479 -0.032700956 0.92800003 6.1814386e-39
-0.0026571429 -0.032771431 0.93000007 4.4383382e-39
-0.00088571431 -0.032771431 0.93000007 8.3105547e-39
0.00088571431 -0.032771431 0.93000007 9.5033371e-39
0.0026657144 -0.032877143 0.93300003 9.3189459e-39
0.0044523813 -0.032947619 0.93500006 8.6717968e-39
0.0062333336 -0.032947619 0.93500006 8.3030143e-39
0.0080142869 -0.032947619 0.93500006 8.7646987e-39
0.0097952392 -0.032947619 0.93500006 9.1334812e-39
0.011613334 -0.033053335 0.93800002 9.134535e-39
0.013400001 -0.033053335 0.93800002 9.0423394e-39
0.015186667 -0.033053335 0.93800002 7.9363646e-39
0.016973333 -0.033053335 0.93800002 3.5109743e-39
0.018800002 -0.03312381 0.94000006 5.5378264e-39
0.020656191 -0.033229522 0.94300002 7.7505216e-39
0.022523811 -0.033335239 0.94600004 7.2845366e-39
0.024377145 -0.033405717 0.94800007 8.2986885e-39
0.02618286 -0.033405717 0.94800007 8.3011786e-39
0.027988574 -0.033405717 0.94800007 7.5636136e-39
0.029888572 -0.03351143 0.95100003 7.9306094e-39
0.031800002 -0.033617143 0.95400006 1.1434043e-38
0.033617143 -0.033617143 0.95400006 1.180065e-38
-0.055422861 -0.031800002 0.95400006 7.7440672e-39
-0.053605717 -0.031800002 0.95400006 7.6540225e-39
-0.051625714 -0.0317 0.95100003 8.2071963e-39
-0.049657144 -0.031600002 0.94800007 8.3912344e-39
-0.047750477 -0.031533334 0.94600004 8.8522126e-39
-0.045948572 -0.031533334 0.94600004 8.6692605e-39
-0.044146664 -0.031533334 0.94600004 9.038043e-39
-0.042210475 -0.031433333 0.94300002 8.8543706e-39
-0.040285718 -0.031333335 0.94000006 9.4075444e-39
-0.038413331 -0.031266667 0.93800002 9.4071884e-39
-0.036626667 -0.031266667 0.93800002 9.775971e-39
-0.034728575 -0.031166669 0.93500006 9.5004757e-39
-0.032877143 -0.031100003 0.93300003 9.7770626e-39
-0.031100003 -0.031100003 0.93300003 9.8696113e-39
-0.029322859 -0.031100003 0.93300003 9.961807e-39
-0.027545715 -0.031100003 0.93300003 9.961807e-39
-0.025768572 -0.031100003 0.93300003 1.0054003e-38
-0.023991428 -0.031100003 0.93300003 1.0237678e-38
-0.022214286 -0.031100003 0.93300003 1.0422069e-38
-0.020437144 -0.031100003 0.93300003 1.0239113e-38
-0.01866 -0.031100003 0.93300003 1.0331308e-38
-0.016882857 -0.031100003 0.93300003 1.0330955e-38
-0.015057144 -0.031000003 0.93000007 1.0330955e-38
-0.013285715 -0.031000003 0.93000007 1.0331306e-38
-0.011514287 -0.031000003 0.93000007 1.0331306e-38
-0.0097428579 -0.031000003 0.93000007 1.0606813e-38
-0.0079714293 -0.031000003 0.93000007 1.08834e-38
-0.0062000002 -0.031000003 0.93000007 1.0514981e-38
-0.004428572 -0.031000003 0.93000007 6.1817861e-39
-0.0026571429 -0.031000003 0.93000007 2.5057683e-39
-0.00088571431 -0.031000003 0.93000007 7.9453104e-39
0.00088857143 -0.031100003 0.93300003 9.5958957e-39
0.0026657144 -0.031100003 0.93300003 9.1349176e-39
0.0044523813 -0.031166669 0.93500006 8.4884649e-39
0.0062333336 -0.031166669 0.93500006 8.7650518e-39
0.0080142869 -0.031166669 0.93500006 9.2238888e-39
0.0097952392 -0.031166669 0.93500006 9.2238888e-39
0.011613334 -0.031266667 0.93800002 9.4103932e-39
0.013400001 -0.031266667 0.93800002 9.0416107e-39
0.015186667 -0.031266667 0.93800002 7.0162187e-39
0.017009525 -0.031333335 0.94000006 5.1723061e-39
0.018859999 -0.031433333 0.94300002 6.4601611e-39
0.020721905 -0.031533334 0.94600004 7.5665086e-39
0.022523811 -0.031533334 0.94600004 6.2725398e-39
0.024377145 -0.031600002 0.94800007 7.1023005e-39
0.02618286 -0.031600002 0.94800007 8.4841307e-39
0.028077144 -0.0317 0.95100003 7.8387613e-39
0.029888572 -0.0317 0.95100003 7.9306094e-39
0.031800002 -0.031800002 0.95400006 1.1341848e-38
0.033617143 -0.031800002 0.95400006 1.1800297e-38
-0.055539049 -0.030045714 0.95600003 7.9280983e-39
-0.053605717 -0.029982859 0.95400006 7.5618269e-39
-0.051625714 -0.029888572 0.95100003 8.1150007e-39
-0.049657144 -0.029794287 0.94800007 8.2068432e-39
-0.047851432 -0.029794287 0.94800007 8.6678213e-39
-0.045948572 -0.029731428 0.94600004 8.5770676e-39
-0.044146664 -0.029731428 0.94600004 9.0380458e-39
-0.042210475 -0.029637143 0.94300002 8.8543706e-39
-0.040285718 -0.02954286 0.94000006 9.4075444e-39
-0.038495239 -0.02954286 0.94000006 9.1320463e-39
-0.036626667 -0.029480001 0.93800002 9.5008288e-39
-0.034728575 -0.029385716 0.93500006 9.5004757e-39
-0.032947619 -0.029385716 0.93500006 9.8692582e-39
-0.031100003 -0.029322859 0.93300003 9.8696141e-39
-0.029322859 -0.029322859 0.93300003 9.9618098e-39
-0.027545715 -0.029322859 0.93300003 1.0054003e-38
-0.025823811 -0.029385716 0.93500006 1.0146198e-38
-0.024042858 -0.029385716 0.93500006 1.0054005e-38
-0.022261906 -0.029385716 0.93500006 1.0238397e-38
-0.020437144 -0.029322859 0.93300003 1.0146561e-38
-0.01866 -0.029322859 0.93300003 1.0146561e-38
-0.016882857 -0.029322859 0.93300003 1.023876e-38
-0.015105714 -0.029322859 0.93300003 1.0330955e-38
-0.013328572 -0.029322859 0.93300003 1.0331308e-38
-0.011514287 -0.029228574 0.93000007 1.0239113e-38
-0.0097428579 -0.029228574 0.93000007 1.0514615e-38
-0.0079714293 -0.029228574 0.93000007 9.77705e-39
-0.0062000002 -0.029228574 0.93000007 9.5011791e-39
-0.004428572 -0.029228574 0.93000007 8.7636141e-39
-0.0026657144 -0.029322859 0.93300003 8.767207e-39
-0.00088857143 -0.029322859 0.93300003 9.5969677e-39
0.00088857143 -0.029322859 0.93300003 1.0055435e-38
0.0026714287 -0.029385716 0.93500006 1.0055435e-38
0.0044523813 -0.029385716 0.93500006 1.0238737e-38
0.0062333336 -0.029385716 0.93500006 1.0515324e-38
0.0080400007 -0.029480001 0.93800002 8.6732514e-39
0.0098266667 -0.029480001 0.93800002 7.2903169e-39
