# .PCD v0.7 - Point Cloud Data file format
VERSION 0.7
FIELDS x y z rgb
SIZE 4 4 4 4
TYPE F F F F
COUNT 1 1 1 1
WIDTH 936
HEIGHT 1
VIEWPOINT 0 0 0 1 0 0 0
POINTS 936
DATA ascii
-0.0026657144 -0.015105714 0.93300003 9.4068409e-39
-0.00089047622 -0.015138096 0.93500006 9.3146453e-39
0.00089047622 -0.015138096 0.93500006 9.3153487e-39
0.0026800002 -0.015186667 0.93800002 8.8543706e-39
0.0044666668 -0.015186667 0.93800002 8.5767117e-39
0.0062533333 -0.015186667 0.93800002 8.0235379e-39
0.0080400007 -0.015186667 0.93800002 8.2071935e-39
0.0098266667 -0.015186667 0.93800002 1.0696476e-38
0.011613334 -0.015186667 0.93800002 1.1432586e-38
0.013400001 -0.015186667 0.93800002 1.134039e-38
0.015186667 -0.015186667 0.93800002 1.1248192e-38
-0.11563048 -0.013657142 0.95600003 1.2354555e-38
-0.11357144 -0.013628571 0.95400006 1.1893577e-38
-0.1117543 -0.013628571 0.95400006 1.0051842e-38
-0.10993715 -0.013628571 0.95400006 9.0376899e-39
-0.10812001 -0.013628571 0.95400006 8.9462159e-39
-0.10630286 -0.013628571 0.95400006 8.3008465e-39
-0.10470476 -0.013657142 0.95600003 9.8652477e-39
-0.10288381 -0.013657142 0.95600003 1.2631117e-38
-0.078134283 -0.013471429 0.94300002 1.1432245e-38
-0.07633809 -0.013471429 0.94300002 9.1273547e-39
-0.074304767 -0.013428572 0.94000006 7.9302563e-39
-0.072360002 -0.013400001 0.93800002 7.745865e-39
-0.070573337 -0.013400001 0.93800002 7.4703642e-39
-0.068786673 -0.013400001 0.93800002 8.2079292e-39
-0.066785723 -0.013357143 0.93500006 8.207932e-39
-0.064865716 -0.013328572 0.93300003 8.8533014e-39
-0.063088574 -0.013328572 0.93300003 8.9465662e-39
-0.061114289 -0.013285715 0.93000007 9.0387619e-39
-0.05921524 -0.013257143 0.92800003 9.1306044e-39
-0.057261907 -0.013214286 0.92500007 9.4993869e-39
-0.055500004 -0.013214286 0.92500007 9.2242419e-39
-0.053738099 -0.013214286 0.92500007 9.6852201e-39
-0.051863808 -0.013185714 0.92300004 9.7777786e-39
-0.050105717 -0.013185714 0.92300004 9.3168005e-39
-0.048347622 -0.013185714 0.92300004 6.7353257e-39
-0.046589527 -0.013185714 0.92300004 6.7353257e-39
-0.044831429 -0.013185714 0.92300004 8.8536671e-39
-0.043073334 -0.013185714 0.92300004 8.5770803e-39
-0.041315239 -0.013185714 0.92300004 6.2736539e-39
-0.039557144 -0.013185714 0.92300004 7.4721971e-39
-0.037799049 -0.013185714 0.92300004 7.9320486e-39
-0.036040954 -0.013185714 0.92300004 4.7973971e-39
-0.034282859 -0.013185714 0.92300004 4.9800088e-39
-0.032524761 -0.013185714 0.92300004 5.9941607e-39
-0.030766666 -0.013185714 0.92300004 5.4438484e-39
-0.029008573 -0.013185714 0.92300004 7.5643478e-39
-0.027250476 -0.013185714 0.92300004 7.2892127e-39
-0.025492381 -0.013185714 0.92300004 6.1828651e-39
-0.023734286 -0.013185714 0.92300004 5.7254393e-39
-0.021976192 -0.013185714 0.92300004 9.5976557e-39
-0.020261906 -0.013214286 0.92500007 1.0514265e-38
-0.0185 -0.013214286 0.92500007 1.0145482e-38
-0.016738096 -0.013214286 0.92500007 9.8699743e-39
-0.014976191 -0.013214286 0.92500007 9.8699743e-39
-0.013214286 -0.013214286 0.92500007 9.7777842e-39
-0.011489524 -0.013257143 0.92800003 9.6855886e-39
-0.0097428579 -0.013285715 0.93000007 9.5019134e-39
-0.0079714293 -0.013285715 0.93000007 9.4097178e-39
-0.0062199999 -0.013328572 0.93300003 9.5008288e-39
-0.0044428571 -0.013328572 0.93300003 9.5008288e-39
-0.0026714287 -0.013357143 0.93500006 9.1320463e-39
-0.00089047622 -0.013357143 0.93500006 8.947655e-39
0.00089333334 -0.013400001 0.93800002 9.1306044e-39
0.0026800002 -0.013400001 0.93800002 8.8540175e-39
0.0044666668 -0.013400001 0.93800002 8.6692605e-39
0.006266667 -0.013428572 0.94000006 7.8394998e-39
0.0080571435 -0.013428572 0.94000006 8.4819825e-39
0.0098476186 -0.013428572 0.94000006 1.106346e-38
0.011638097 -0.013428572 0.94000006 1.143187e-38
-0.11538857 -0.011811429 0.95400006 1.2262359e-38
-0.11357144 -0.011811429 0.95400006 1.2631142e-38
-0.1117543 -0.011811429 0.95400006 1.1248946e-38
-0.11016762 -0.011836191 0.95600003 9.0362507e-39
-0.10812001 -0.011811429 0.95400006 8.7618218e-39
-0.10630286 -0.011811429 0.95400006 7.8398655e-39
-0.10470476 -0.011836191 0.95600003 8.6663738e-39
-0.10288381 -0.011836191 0.95600003 1.1893221e-38
-0.10106286 -0.011836191 0.95600003 1.2997035e-38
-0.078382857 -0.011712381 0.94600004 1.1708114e-38
-0.076580957 -0.011712381 0.94600004 9.8642009e-39
-0.074541911 -0.011675238 0.94300002 7.7469538e-39
-0.072360002 -0.011613334 0.93800002 7.470367e-39
-0.070573337 -0.011613334 0.93800002 7.6547582e-39
-0.068786673 -0.011613334 0.93800002 8.207932e-39
-0.066785723 -0.011576191 0.93500006 8.207932e-39
-0.064865716 -0.01155143 0.93300003 8.945497e-39
-0.063088574 -0.01155143 0.93300003 9.0387562e-39
-0.061114289 -0.011514287 0.93000007 9.1309519e-39
-0.05921524 -0.011489524 0.92800003 9.1306072e-39
-0.057447623 -0.011489524 0.92800003 9.3149984e-39
-0.055500004 -0.011452381 0.92500007 9.4068409e-39
-0.053738099 -0.011452381 0.92500007 9.5912322e-39
-0.051976193 -0.011452381 0.92500007 9.7777716e-39
-0.050214287 -0.011452381 0.92500007 9.7777716e-39
-0.048452385 -0.011452381 0.92500007 8.8536671e-39
-0.046589527 -0.011427619 0.92300004 7.2863414e-39
-0.044831429 -0.011427619 0.92300004 9.036957e-39
-0.043073334 -0.011427619 0.92300004 1.02355e-38
-0.041315239 -0.011427619 0.92300004 8.8529511e-39
-0.039557144 -0.011427619 0.92300004 6.2714734e-39
-0.037799049 -0.011427619 0.92300004 3.7532098e-40
-0.036040954 -0.011427619 0.92300004 2.9371216e-42
-0.034282859 -0.011427619 0.92300004 3.8743646e-39
-0.032524761 -0.011427619 0.92300004 9.4982981e-39
-0.030766666 -0.011427619 0.92300004 9.5883483e-39
-0.029008573 -0.011427619 0.92300004 8.9429789e-39
-0.027309526 -0.011452381 0.92500007 8.1175412e-39
-0.025547622 -0.011452381 0.92500007 7.3799762e-39
-0.023785716 -0.011452381 0.92500007 6.2768558e-39
-0.022023812 -0.011452381 0.92500007 9.5037029e-39
-0.020261906 -0.011452381 0.92500007 1.0422425e-38
-0.0185 -0.011452381 0.92500007 1.0053642e-38
-0.016738096 -0.011452381 0.92500007 9.961807e-39
-0.014976191 -0.011452381 0.92500007 9.7774157e-39
-0.013257143 -0.011489524 0.92800003 9.7774157e-39
-0.011489524 -0.011489524 0.92800003 9.7774157e-39
-0.0097742863 -0.01155143 0.93300003 9.5926713e-39
-0.0079971431 -0.01155143 0.93300003 9.5004757e-39
-0.0062199999 -0.01155143 0.93300003 9.5933804e-39
-0.0044523813 -0.011576191 0.93500006 9.4089891e-39
-0.0026714287 -0.011576191 0.93500006 9.407194e-39
-0.00089333334 -0.011613334 0.93800002 9.2228028e-39
0.00089333334 -0.011613334 0.93800002 9.1306044e-39
0.0026800002 -0.011613334 0.93800002 8.7618218e-39
0.0044761905 -0.011638097 0.94000006 8.6692605e-39
0.006266667 -0.011638097 0.94000006 8.0238911e-39
0.0080571435 -0.011638097 0.94000006 8.4827042e-39
0.0098476186 -0.011638097 0.94000006 1.1064182e-38
-0.11563048 -0.010015239 0.95600003 1.2170164e-38
-0.11380953 -0.010015239 0.95600003 1.2446751e-38
-0.11198857 -0.010015239 0.95600003 1.1710643e-38
-0.11016762 -0.010015239 0.95600003 9.4057521e-39
-0.10812001 -0.0099942861 0.95400006 9.2209951e-39
-0.10630286 -0.0099942861 0.95400006 8.760017e-39
-0.10470476 -0.010015239 0.95600003 8.6649249e-39
-0.10288381 -0.010015239 0.95600003 1.0785424e-38
-0.10106286 -0.010015239 0.95600003 1.2167264e-38
-0.099553339 -0.010046667 0.95900005 1.225946e-38
-0.076580957 -0.0099104764 0.94600004 1.0140778e-38
-0.074541911 -0.009879048 0.94300002 8.5748998e-39
-0.072514288 -0.0098476186 0.94000006 8.0217261e-39
-0.070573337 -0.0098266667 0.93800002 8.2071963e-39
-0.068786673 -0.0098266667 0.93800002 8.4837832e-39
-0.066999994 -0.0098266667 0.93800002 8.207932e-39
-0.065004766 -0.0097952392 0.93500006 8.8533014e-39
-0.063088574 -0.0097742863 0.93300003 8.9465662e-39
-0.061311428 -0.0097742863 0.93300003 9.1309575e-39
-0.059342861 -0.0097428579 0.93000007 9.2228028e-39
-0.057447623 -0.009721905 0.92800003 9.407194e-39
-0.055500004 -0.0096904775 0.92500007 9.4993897e-39
-0.053738099 -0.0096904775 0.92500007 9.7759766e-39
-0.051976193 -0.0096904775 0.92500007 9.9600147e-39
-0.050214287 -0.0096904775 0.92500007 1.0236602e-38
-0.048452385 -0.0096904775 0.92500007 1.0236599e-38
-0.046690479 -0.0096904775 0.92500007 7.3785343e-39
-0.044831429 -0.0096695246 0.92300004 7.7455147e-39
-0.043073334 -0.0096695246 0.92300004 9.3128404e-39
-0.041315239 -0.0096695246 0.92300004 8.9447964e-39
-0.039557144 -0.0096695246 0.92300004 2.8598848e-39
-0.037799049 -0.0096695246 0.92300004 9.6140285e-41
-0.036040954 -0.0096695246 0.92300004 1.8833451e-40
-0.034282859 -0.0096695246 0.92300004 4.8852375e-39
-0.032524761 -0.0096695246 0.92300004 1.0416975e-38
-0.030766666 -0.0096695246 0.92300004 9.8656611e-39
-0.029008573 -0.0096695246 0.92300004 8.9437048e-39
-0.027309526 -0.0096904775 0.92500007 8.668557e-39
-0.025547622 -0.0096904775 0.92500007 7.4700138e-39
-0.023785716 -0.0096904775 0.92500007 6.6416853e-39
-0.022023812 -0.0096904775 0.92500007 1.0052924e-38
-0.020261906 -0.0096904775 0.92500007 1.0146561e-38
-0.0185 -0.0096904775 0.92500007 9.9621699e-39
-0.016792381 -0.009721905 0.92800003 9.8696113e-39
-0.015024763 -0.009721905 0.92800003 9.7774157e-39
-0.013257143 -0.009721905 0.92800003 9.7770626e-39
-0.011489524 -0.009721905 0.92800003 9.7770626e-39
-0.0097742863 -0.0097742863 0.93300003 9.5930244e-39
-0.0080142869 -0.0097952392 0.93500006 9.5930244e-39
-0.0062333336 -0.0097952392 0.93500006 9.5008288e-39
-0.0044523813 -0.0097952392 0.93500006 9.3164376e-39
-0.0026800002 -0.0098266667 0.93800002 9.1320463e-39
-0.00089333334 -0.0098266667 0.93800002 8.947655e-39
0.00089523813 -0.0098476186 0.94000006 9.0384087e-39
0.0026857145 -0.0098476186 0.94000006 8.7618218e-39
0.0044904761 -0.009879048 0.94300002 8.7618092e-39
0.0062866667 -0.009879048 0.94300002 7.8398529e-39
0.0080828574 -0.009879048 0.94300002 8.4823511e-39
0.009879048 -0.009879048 0.94300002 1.1156024e-38
-0.11198857 -0.0081942854 0.95600003 1.2077978e-38
-0.11016762 -0.0081942854 0.95600003 1.1156022e-38
-0.10834666 -0.0081942854 0.95600003 9.9585602e-39
-0.10652572 -0.0081942854 0.95600003 9.497582e-39
-0.10503334 -0.0082200002 0.95900005 8.9440579e-39
-0.10288381 -0.0081942854 0.95600003 8.0221016e-39
-0.10106286 -0.0081942854 0.95600003 9.6794271e-39
-0.099553339 -0.0082200002 0.95900005 1.1892122e-38
-0.097726673 -0.0082200002 0.95900005 1.2443879e-38
-0.074779049 -0.0081085712 0.94600004 8.9436824e-39
-0.072745718 -0.0080828574 0.94300002 7.9295304e-39
-0.070949525 -0.0080828574 0.94300002 7.9306094e-39
-0.068933338 -0.0080571435 0.94000006 8.3915876e-39
-0.066999994 -0.0080400007 0.93800002 8.207932e-39
-0.06521333 -0.0080400007 0.93800002 8.8533014e-39
-0.063223809 -0.0080142869 0.93500006 8.9465662e-39
-0.061311428 -0.0079971431 0.93300003 9.0387619e-39
-0.059342861 -0.0079714293 0.93000007 9.130254e-39
-0.057571433 -0.0079714293 0.93000007 9.3146453e-39
-0.055679999 -0.0079542855 0.92800003 9.2220937e-39
-0.053912383 -0.0079542855 0.92800003 9.4986806e-39
-0.051976193 -0.0079285717 0.92500007 9.7767122e-39
-0.050214287 -0.0079285717 0.92500007 9.7767122e-39
-0.048452385 -0.0079285717 0.92500007 8.5792284e-39
-0.046690479 -0.0079285717 0.92500007 7.1040984e-39
-0.044928573 -0.0079285717 0.92500007 6.7349725e-39
-0.043166671 -0.0079285717 0.92500007 6.1817987e-39
-0.041404765 -0.0079285717 0.92500007 4.7048764e-39
-0.039642859 -0.0079285717 0.92500007 9.5094916e-41
-0.037880953 -0.0079285717 0.92500007 3.7309572e-40
-0.036040954 -0.0079114288 0.92300004 3.046769e-39
-0.034282859 -0.0079114288 0.92300004 4.0584056e-39
-0.032524761 -0.0079114288 0.92300004 7.2852526e-39
-0.030766666 -0.0079114288 0.92300004 8.5752726e-39
-0.029008573 -0.0079114288 0.92300004 8.7596638e-39
-0.027309526 -0.0079285717 0.92500007 8.2997773e-39
-0.025547622 -0.0079285717 0.92500007 7.2856254e-39
-0.023785716 -0.0079285717 0.92500007 7.2849317e-39
-0.022023812 -0.0079285717 0.92500007 1.0603974e-38
-0.020327618 -0.0079542855 0.92800003 1.060646e-38
-0.01856 -0.0079542855 0.92800003 1.0329873e-38
-0.016792381 -0.0079542855 0.92800003 1.0145838e-38
-0.015024763 -0.0079542855 0.92800003 9.9614468e-39
-0.013257143 -0.0079542855 0.92800003 9.7774157e-39
-0.011514287 -0.0079714293 0.93000007 9.5930244e-39
-0.0097742863 -0.0079971431 0.93300003 9.8681722e-39
-0.0080142869 -0.0080142869 0.93500006 9.8681722e-39
-0.0062333336 -0.0080142869 0.93500006 9.775971e-39
-0.0044523813 -0.0080142869 0.93500006 9.5915797e-39
-0.0026800002 -0.0080400007 0.93800002 9.1320463e-39
-0.00089333334 -0.0080400007 0.93800002 8.947655e-39
0.00089523813 -0.0080571435 0.94000006 9.0387619e-39
0.0026942857 -0.0080828574 0.94300002 8.8543706e-39
0.0044904761 -0.0080828574 0.94300002 8.3930393e-39
0.0062866667 -0.0080828574 0.94300002 7.7476699e-39
0.0080828574 -0.0080828574 0.94300002 8.7596666e-39
0.009879048 -0.0080828574 0.94300002 1.1156753e-38
-0.11051334 -0.0063933334 0.95900005 1.2168732e-38
-0.10834666 -0.0063733337 0.95600003 1.0879788e-38
-0.10652572 -0.0063733337 0.95600003 9.6812446e-39
-0.10503334 -0.0063933334 0.95900005 9.0394975e-39
-0.10320667 -0.0063933334 0.95900005 7.8409543e-39
-0.10138001 -0.0063933334 0.95900005 8.2061019e-39
-0.099553339 -0.0063933334 0.95900005 1.0510993e-38
-0.097726673 -0.0063933334 0.95900005 1.2350942e-38
-0.07493715 -0.0063200006 0.94800007 9.7734402e-39
-0.072977141 -0.0063066669 0.94600004 7.9295276e-39
-0.07117524 -0.0063066669 0.94600004 7.8380607e-39
-0.069373332 -0.0063066669 0.94600004 8.2990388e-39
-0.067357138 -0.0062866667 0.94300002 8.207932e-39
-0.06535238 -0.006266667 0.94000006 8.7611058e-39
-0.063426666 -0.0062533333 0.93800002 8.8540147e-39
-0.061442863 -0.0062333336 0.93500006 9.0384059e-39
-0.059534285 -0.0062199999 0.93300003 9.0384115e-39
-0.057757143 -0.0062199999 0.93300003 9.3149984e-39
-0.055800002 -0.0062000002 0.93000007 9.3146453e-39
-0.054028574 -0.0062000002 0.93000007 9.5912322e-39
-0.052144762 -0.0061866669 0.92800003 9.7770626e-39
-0.050377145 -0.0061866669 0.92800003 9.7770626e-39
-0.048609525 -0.0061866669 0.92800003 6.9200799e-39
-0.046841905 -0.0061866669 0.92800003 5.9059279e-39
-0.045074288 -0.0061866669 0.92800003 5.999941e-39
-0.043166671 -0.0061666667 0.92500007 5.262376e-39
-0.041404765 -0.0061666667 0.92500007 1.8529328e-39
-0.039642859 -0.0061666667 0.92500007 6.5438957e-40
-0.037880953 -0.0061666667 0.92500007 2.6736733e-39
-0.036119051 -0.0061666667 0.92500007 4.7019771e-39
-0.034357145 -0.0061666667 0.92500007 6.0866842e-39
-0.03259524 -0.0061666667 0.92500007 7.1008361e-39
-0.030833337 -0.0061666667 0.92500007 6.917912e-39
-0.02907143 -0.0061666667 0.92500007 8.1164552e-39
-0.027309526 -0.0061666667 0.92500007 7.9324493e-39
-0.025547622 -0.0061666667 0.92500007 8.3012318e-39
-0.023862859 -0.0061866669 0.92800003 8.9451439e-39
-0.022095239 -0.0061866669 0.92800003 1.051247e-38
-0.020327618 -0.0061866669 0.92800003 1.0239478e-38
-0.01856 -0.0061866669 0.92800003 1.0055087e-38
-0.016792381 -0.0061866669 0.92800003 1.0054359e-38
-0.015024763 -0.0061866669 0.92800003 9.7777716e-39
-0.013285715 -0.0062000002 0.93000007 9.685576e-39
-0.011514287 -0.0062000002 0.93000007 9.685576e-39
-0.0097952392 -0.0062333336 0.93500006 9.9603678e-39
-0.0080142869 -0.0062333336 0.93500006 1.0052563e-38
-0.0062333336 -0.0062333336 0.93500006 9.775971e-39
-0.0044523813 -0.0062333336 0.93500006 9.5915797e-39
-0.0026800002 -0.0062533333 0.93800002 9.1324022e-39
-0.00089523813 -0.006266667 0.94000006 9.0402066e-39
0.00089809526 -0.0062866667 0.94300002 8.7636197e-39
0.0026942857 -0.0062866667 0.94300002 8.4870328e-39
0.0045047617 -0.0063066669 0.94600004 8.3933924e-39
0.0063066669 -0.0063066669 0.94600004 7.8402187e-39
0.0081085712 -0.0063066669 0.94600004 9.1284464e-39
0.0099104764 -0.0063066669 0.94600004 1.1064555e-38
-0.11051334 -0.0045666667 0.95900005 1.2169445e-38
-0.10834666 -0.0045523811 0.95600003 1.1709533e-38
-0.10652572 -0.0045523811 0.95600003 9.9578161e-39
-0.10503334 -0.0045666667 0.95900005 9.4061249e-39
-0.10320667 -0.0045666667 0.95900005 9.3139292e-39
-0.10138001 -0.0045666667 0.95900005 9.0348214e-39
-0.099553339 -0.0045666667 0.95900005 8.6660389e-39
-0.097726673 -0.0045666667 0.95900005 1.0508096e-38
-0.095900007 -0.0045666667 0.95900005 1.2167617e-38
-0.07493715 -0.0045142858 0.94800007 1.0142207e-38
-0.073131435 -0.0045142858 0.94800007 7.9295122e-39
-0.071325719 -0.0045142858 0.94800007 7.9295556e-39
-0.069373332 -0.0045047617 0.94600004 8.3905338e-39
-0.067357138 -0.0044904761 0.94300002 8.1157364e-39
-0.065560959 -0.0044904761 0.94300002 8.6689101e-39
-0.063561909 -0.0044761905 0.94000006 8.5774334e-39
-0.061442863 -0.0044523813 0.93500006 8.9462159e-39
-0.059534285 -0.0044428571 0.93300003 9.0384115e-39
-0.057757143 -0.0044428571 0.93300003 9.3149984e-39
-0.055980001 -0.0044428571 0.93300003 9.0394975e-39
-0.054028574 -0.004428572 0.93000007 9.5004757e-39
-0.052257147 -0.004428572 0.93000007 9.685576e-39
-0.050377145 -0.0044190479 0.92800003 1.0146554e-38
-0.048609525 -0.0044190479 0.92800003 7.7498657e-39
-0.04694286 -0.004428572 0.93000007 5.1683881e-39
-0.045074288 -0.0044190479 0.92800003 6.4591269e-39
-0.043306667 -0.0044190479 0.92800003 7.0123007e-39
-0.041404765 -0.0044047623 0.92500007 3.6036226e-39
-0.039642859 -0.0044047623 0.92500007 2.6816663e-39
-0.037880953 -0.0044047623 0.92500007 4.3379352e-39
-0.036119051 -0.0044047623 0.92500007 7.1959997e-39
-0.034357145 -0.0044047623 0.92500007 8.0228022e-39
-0.03259524 -0.0044047623 0.92500007 7.838411e-39
-0.030833337 -0.0044047623 0.92500007 7.3785371e-39
-0.02907143 -0.0044047623 0.92500007 8.392689e-39
-0.027398096 -0.0044190479 0.92800003 1.0237305e-38
-0.025630476 -0.0044190479 0.92800003 1.0882674e-38
-0.023862859 -0.0044190479 0.92800003 9.0377025e-39
-0.022095239 -0.0044190479 0.92800003 8.5767243e-39
-0.02037143 -0.004428572 0.93000007 8.3941309e-39
-0.0186 -0.004428572 0.93000007 8.117544e-39
-0.016828572 -0.004428572 0.93000007 7.9335031e-39
-0.015057144 -0.004428572 0.93000007 8.6710681e-39
-0.013285715 -0.004428572 0.93000007 9.2242419e-39
-0.01155143 -0.0044428571 0.93300003 9.6852201e-39
-0.0097952392 -0.0044523813 0.93500006 9.8681722e-39
-0.0080142869 -0.0044523813 0.93500006 9.7759766e-39
-0.0062333336 -0.0044523813 0.93500006 9.7759738e-39
-0.0044666668 -0.0044666668 0.93800002 9.4993869e-39
-0.0026800002 -0.0044666668 0.93800002 9.4071912e-39
-0.00089523813 -0.0044761905 0.94000006 9.2228e-39
0.00089809526 -0.0044904761 0.94300002 8.8540147e-39
0.0026942857 -0.0044904761 0.94300002 8.6696234e-39
0.0045047617 -0.0045047617 0.94600004 8.3930393e-39
0.0063066669 -0.0045047617 0.94600004 8.2086481e-39
0.0081085712 -0.0045047617 0.94600004 9.1287995e-39
0.0099104764 -0.0045047617 0.94600004 1.0880516e-38
-0.10834666 -0.0027314285 0.95600003 1.189393e-38
-0.10652572 -0.0027314285 0.95600003 1.0879778e-38
-0.10503334 -0.0027400001 0.95900005 9.8649352e-39
-0.10320667 -0.0027400001 0.95900005 9.9571308e-39
-0.10138001 -0.0027400001 0.95900005 9.1295352e-39
-0.099553339 -0.0027400001 0.95900005 8.2075789e-39
-0.097726673 -0.0027400001 0.95900005 9.400692e-39
-0.095900007 -0.0027400001 0.95900005 1.1428996e-38
-0.07493715 -0.0027085717 0.94800007 1.0233702e-38
-0.073131435 -0.0027085717 0.94800007 8.0210072e-39
-0.071325719 -0.0027085717 0.94800007 8.0224519e-39
-0.069520004 -0.0027085717 0.94800007 8.3912344e-39
-0.067571431 -0.0027028571 0.94600004 8.0235407e-39
-0.065560959 -0.0026942857 0.94300002 8.6689101e-39
-0.063561909 -0.0026857145 0.94000006 8.7618218e-39
-0.061639998 -0.0026800002 0.93800002 9.0384087e-39
-0.05966191 -0.0026714287 0.93500006 9.1306044e-39
-0.057757143 -0.0026657144 0.93300003 9.3149956e-39
-0.055980001 -0.0026657144 0.93300003 9.1316932e-39
-0.054202858 -0.0026657144 0.93300003 9.5926713e-39
-0.052257147 -0.0026571429 0.93000007 9.4100681e-39
-0.050485715 -0.0026571429 0.93000007 9.7788506e-39
-0.048714291 -0.0026571429 0.93000007 8.7650714e-39
-0.04694286 -0.0026571429 0.93000007 6.0913982e-39
-0.045171432 -0.0026571429 0.93000007 7.3774707e-39
-0.043306667 -0.0026514288 0.92800003 8.7604051e-39
-0.041539047 -0.0026514288 0.92800003 7.7501964e-39
-0.03977143 -0.0026514288 0.92800003 5.2609144e-39
-0.037880953 -0.0026428571 0.92500007 5.7236947e-39
-0.036119051 -0.0026428571 0.92500007 7.383216e-39
-0.034357145 -0.0026428571 0.92500007 8.5738433e-39
-0.03259524 -0.0026428571 0.92500007 8.5738433e-39
-0.030833337 -0.0026428571 0.92500007 7.9313549e-39
-0.02907143 -0.0026428571 0.92500007 8.4845287e-39
-0.027398096 -0.0026514288 0.92800003 9.8696267e-39
-0.025630476 -0.0026514288 0.92800003 9.1320617e-39
-0.023862859 -0.0026514288 0.92800003 5.8201488e-39
-0.022095239 -0.0026514288 0.92800003 6.4655182e-39
-0.02037143 -0.0026571429 0.93000007 8.3923331e-39
-0.0186 -0.0026571429 0.93000007 8.0235505e-39
-0.016828572 -0.0026571429 0.93000007 6.3661676e-39
-0.015057144 -0.0026571429 0.93000007 7.749102e-39
-0.013328572 -0.0026657144 0.93300003 1.0142951e-38
-0.01155143 -0.0026657144 0.93300003 1.0327343e-38
-0.0097952392 -0.0026714287 0.93500006 9.5926713e-39
-0.0080142869 -0.0026714287 0.93500006 9.5004757e-39
-0.0062333336 -0.0026714287 0.93500006 9.4089891e-39
-0.0044666668 -0.0026800002 0.93800002 9.2245979e-39
-0.0026857145 -0.0026857145 0.94000006 9.0402066e-39
-0.00089809526 -0.0026942857 0.94300002 8.948011e-39
0.00089809526 -0.0026942857 0.94300002 9.0387619e-39
0.0027028571 -0.0027028571 0.94600004 8.5777837e-39
0.0045047617 -0.0027028571 0.94600004 8.3011968e-39
0.0063066669 -0.0027028571 0.94600004 8.2090012e-39
0.0081085712 -0.0027028571 0.94600004 9.4043074e-39
0.0099104764 -0.0027028571 0.94600004 1.1156024e-38
-0.10834666 -0.0009104762 0.95600003 1.1893211e-38
-0.10652572 -0.0009104762 0.95600003 1.1985407e-38
-0.10470476 -0.0009104762 0.95600003 1.0694693e-38
-0.10320667 -0.00091333338 0.95900005 9.8649324e-39
-0.10138001 -0.00091333338 0.95900005 9.2217336e-39
-0.099553339 -0.00091333338 0.95900005 9.2217336e-39
-0.098032385 -0.00091619056 0.96200007 9.4032354e-39
-0.0964 -0.00091809529 0.96400005 9.1266485e-39
-0.075174294 -0.00090571429 0.95100003 1.0602485e-38
-0.073362865 -0.00090571429 0.95100003 8.1132028e-39
-0.071551435 -0.00090571429 0.95100003 7.8384138e-39
-0.069520004 -0.00090285722 0.94800007 8.2071963e-39
-0.067571431 -0.00090095244 0.94600004 8.0235407e-39
-0.065769531 -0.00090095244 0.94600004 8.6689101e-39
-0.063764766 -0.00089809526 0.94300002 8.6699793e-39
-0.061639998 -0.00089333334 0.93800002 8.9465662e-39
-0.05966191 -0.00089047622 0.93500006 8.9462159e-39
-0.057880957 -0.00089047622 0.93500006 9.3149984e-39
-0.055980001 -0.00088857143 0.93300003 9.1316932e-39
-0.054202858 -0.00088857143 0.93300003 9.5004757e-39
-0.052425716 -0.00088857143 0.93300003 9.5933804e-39
-0.05064857 -0.00088857143 0.93300003 9.685576e-39
-0.048871431 -0.00088857143 0.93300003 9.2245979e-39
-0.047094285 -0.00088857143 0.93300003 7.7494678e-39
-0.045317143 -0.00088857143 0.93300003 7.8391593e-39
-0.043400005 -0.00088571431 0.93000007 8.1157462e-39
-0.041539047 -0.00088380952 0.92800003 7.8402187e-39
-0.03977143 -0.00088380952 0.92800003 7.010458e-39
-0.037880953 -0.00088095246 0.92500007 7.1944989e-39
-0.036119051 -0.00088095246 0.92500007 9.1306072e-39
-0.034357145 -0.00088095246 0.92500007 9.8649548e-39
-0.03259524 -0.00088095246 0.92500007 1.0418129e-38
-0.030833337 -0.00088095246 0.92500007 8.299434e-39
-0.029165715 -0.00088380952 0.92800003 5.9023476e-39
-0.027398096 -0.00088380952 0.92800003 2.3150263e-39
-0.025630476 -0.00088380952 0.92800003 3.6531851e-42
-0.023914289 -0.00088571431 0.93000007 1.7950633e-42
-0.022142859 -0.00088571431 0.93000007 7.5618367e-39
-0.02037143 -0.00088571431 0.93000007 9.3135439e-39
-0.0186 -0.00088571431 0.93000007 9.036957e-39
-0.016828572 -0.00088571431 0.93000007 7.0090357e-39
-0.015057144 -0.00088571431 0.93000007 7.6544051e-39
-0.013328572 -0.00088857143 0.93300003 9.7752577e-39
-0.011576191 -0.00089047622 0.93500006 1.0236236e-38
-0.0097952392 -0.00089047622 0.93500006 9.6848669e-39
-0.0080142869 -0.00089047622 0.93500006 9.5004757e-39
-0.0062533333 -0.00089333334 0.93800002 9.4089891e-39
-0.0044666668 -0.00089333334 0.93800002 9.2245979e-39
-0.0026857145 -0.00089523813 0.94000006 9.4075444e-39
-0.00089809526 -0.00089809526 0.94300002 9.1309575e-39
0.00090095244 -0.00090095244 0.94600004 8.9465662e-39
0.0027028571 -0.00090095244 0.94600004 8.5777837e-39
0.0045142858 -0.00090285722 0.94800007 8.3008437e-39
0.0063066669 -0.00090095244 0.94600004 8.5774306e-39
0.0081085712 -0.00090095244 0.94600004 9.5890518e-39
0.0099104764 -0.00090095244 0.94600004 1.1156377e-38
-0.10652572 0.0009104762 0.95600003 1.2261277e-38
-0.10470476 0.0009104762 0.95600003 1.1617e-38
-0.10320667 0.00091333338 0.95900005 1.0695043e-38
-0.10138001 0.00091333338 0.95900005 9.3142767e-39
-0.099553339 0.00091333338 0.95900005 9.3142767e-39
-0.098032385 0.00091619056 0.96200007 8.945497e-39
-0.0964 0.00091809529 0.96400005 8.3923233e-39
-0.094563812 0.00091809529 0.96400005 8.5748998e-39
-0.075411431 0.00090857147 0.95400006 1.0786876e-38
-0.073594287 0.00090857147 0.95400006 8.4819853e-39
-0.071551435 0.00090571429 0.95100003 7.9302563e-39
-0.069740005 0.00090571429 0.95100003 8.2990388e-39
-0.067714289 0.00090285722 0.94800007 8.2079292e-39
-0.065769531 0.00090095244 0.94600004 8.6689073e-39
-0.063764766 0.00089809526 0.94300002 8.6699793e-39
-0.06177143 0.00089523813 0.94000006 8.9465662e-39
-0.05966191 0.00089047622 0.93500006 9.0384059e-39
-0.057880957 0.00089047622 0.93500006 9.3149928e-39
-0.056100003 0.00089047622 0.93500006 9.4993897e-39
-0.05431905 0.00089047622 0.93500006 9.6837809e-39
-0.052425716 0.00088857143 0.93300003 9.4086332e-39
-0.05064857 0.00088857143 0.93300003 9.5930244e-39
-0.048871431 0.00088857143 0.93300003 9.960365e-39
-0.047094285 0.00088857143 0.93300003 8.8540175e-39
-0.045317143 0.00088857143 0.93300003 8.9440551e-39
-0.043400005 0.00088571431 0.93000007 8.4830769e-39
-0.041539047 0.00088380952 0.92800003 8.0235407e-39
-0.03977143 0.00088380952 0.92800003 7.6547582e-39
-0.038003813 0.00088380952 0.92800003 7.6529435e-39
-0.036119051 0.00088095246 0.92500007 8.8514867e-39
-0.034357145 0.00088095246 0.92500007 8.8529511e-39
-0.03259524 0.00088095246 0.92500007 8.8529511e-39
-0.030933332 0.00088380952 0.92800003 7.6565631e-39
-0.029165715 0.00088380952 0.92800003 6.3658243e-39
-0.027398096 0.00088380952 0.92800003 1.8543845e-39
-0.025630476 0.00088380952 0.92800003 2.9090956e-42
-0.023914289 0.00088571431 0.93000007 2.1523944e-42
-0.022142859 0.00088571431 0.93000007 7.6543883e-39
-0.02037143 0.00088571431 0.93000007 9.0351745e-39
-0.0186 0.00088571431 0.93000007 8.1132182e-39
-0.016828572 0.00088571431 0.93000007 7.2855931e-39
-0.015057144 0.00088571431 0.93000007 9.0373101e-39
-0.013328572 0.00088857143 0.93300003 9.9600119e-39
-0.011576191 0.00089047622 0.93500006 1.0144403e-38
-0.0097952392 0.00089047622 0.93500006 9.5004757e-39
-0.0080142869 0.00089047622 0.93500006 9.4082801e-39
-0.0062533333 0.00089333334 0.93800002 9.5915797e-39
-0.0044666668 0.00089333334 0.93800002 9.4993841e-39
-0.0026857145 0.00089523813 0.94000006 9.0402066e-39
-0.00089809526 0.00089809526 0.94300002 8.7636197e-39
0.00090095244 0.00090095244 0.94600004 9.038043e-39
0.0027028571 0.00090095244 0.94600004 8.4848692e-39
0.0045142858 0.00090285722 0.94800007 8.4848692e-39
0.0063200006 0.00090285722 0.94800007 8.6692605e-39
0.008125715 0.00090285722 0.94800007 9.6812446e-39
0.0099314293 0.00090285722 0.94800007 1.1156375e-38
-0.10352953 0.0027485716 0.96200007 1.1432596e-38
-0.10169715 0.0027485716 0.96200007 1.0512087e-38
-0.099864773 0.0027485716 0.96200007 9.8667176e-39
-0.098236188 0.0027542859 0.96400005 9.6812698e-39
-0.0964 0.0027542859 0.96400005 9.5890742e-39
-0.094563812 0.0027542859 0.96400005 9.403957e-39
-0.0930162 0.0027628574 0.96700007 8.9429789e-39
-0.091174297 0.0027628574 0.96700007 9.4950555e-39
-0.090348572 0.0027942858 0.97800004 1.0417012e-38
-0.088485718 0.0027942858 0.97800004 1.1245674e-38
-0.086622857 0.0027942858 0.97800004 1.1891043e-38
-0.080122858 0.0027628574 0.96700007 1.1339674e-38
-0.078280956 0.0027628574 0.96700007 1.1616261e-38
-0.075569525 0.0027314285 0.95600003 1.106346e-38
-0.073748574 0.0027314285 0.95600003 8.7585694e-39
-0.07177715 0.0027257146 0.95400006 7.6547554e-39
-0.069740005 0.0027171429 0.95100003 7.9313423e-39
-0.067714289 0.0027085717 0.94800007 8.0235407e-39
-0.065769531 0.0027028571 0.94600004 8.3001276e-39
-0.063764766 0.0026942857 0.94300002 8.3930421e-39
-0.06177143 0.0026857145 0.94000006 8.8540203e-39
-0.059853334 0.0026800002 0.93800002 8.8540203e-39
-0.058066666 0.0026800002 0.93800002 9.2228028e-39
-0.056100003 0.0026714287 0.93500006 8.9473019e-39
-0.05431905 0.0026714287 0.93500006 9.1316932e-39
-0.052425716 0.0026657144 0.93300003 9.2238888e-39
-0.05064857 0.0026657144 0.93300003 9.4082801e-39
-0.048871431 0.0026657144 0.93300003 9.5933804e-39
-0.047094285 0.0026657144 0.93300003 9.7777716e-39
-0.045317143 0.0026657144 0.93300003 9.6855704e-39
-0.043540001 0.0026657144 0.93300003 9.8699617e-39
-0.041628573 0.0026571429 0.93000007 1.0421346e-38
-0.039857145 0.0026571429 0.93000007 9.1306072e-39
-0.038003813 0.0026514288 0.92800003 7.0090385e-39
-0.036236189 0.0026514288 0.92800003 7.2856254e-39
-0.034468573 0.0026514288 0.92800003 7.7459001e-39
-0.032700956 0.0026514288 0.92800003 7.2849219e-39
-0.030933332 0.0026514288 0.92800003 8.3940931e-39
-0.029228574 0.0026571429 0.93000007 9.0394625e-39
-0.027457144 0.0026571429 0.93000007 4.8024923e-39
-0.025685715 0.0026571429 0.93000007 3.9979045e-42
-0.023991428 0.0026657144 0.93300003 2.2056438e-42
-0.022214286 0.0026657144 0.93300003 7.1934648e-39
-0.020437144 0.0026657144 0.93300003 8.4830769e-39
-0.0186 0.0026571429 0.93000007 7.1923381e-39
-0.016828572 0.0026571429 0.93000007 6.27466e-39
-0.015105714 0.0026657144 0.93300003 9.5937027e-39
-0.013357143 0.0026714287 0.93500006 1.0144403e-38
-0.011576191 0.0026714287 0.93500006 9.8678163e-39
-0.0097952392 0.0026714287 0.93500006 9.5008288e-39
-0.0080400007 0.0026800002 0.93800002 9.3164376e-39
-0.0062533333 0.0026800002 0.93800002 9.3167935e-39
-0.0044761905 0.0026857145 0.94000006 9.1324022e-39
-0.0026942857 0.0026942857 0.94300002 9.1306072e-39
-0.00090095244 0.0027028571 0.94600004 9.0384115e-39
0.00090095244 0.0027028571 0.94600004 8.761819e-39
0.0027085717 0.0027085717 0.94800007 8.3930365e-39
0.0045142858 0.0027085717 0.94800007 8.3926764e-39
0.0063200006 0.0027085717 0.94800007 8.8536545e-39
0.008125715 0.0027085717 0.94800007 9.9578315e-39
0.0099314293 0.0027085717 0.94800007 1.1156375e-38
-0.10169715 0.0045809527 0.96200007 1.1432964e-38
-0.099864773 0.0045809527 0.96200007 1.0695399e-38
-0.098236188 0.0045904764 0.96400005 9.6816229e-39
-0.0964 0.0045904764 0.96400005 9.6816229e-39
-0.094563812 0.0045904764 0.96400005 9.9582098e-39
-0.0930162 0.0046047624 0.96700007 9.405036e-39
-0.091457151 0.004619048 0.97000003 9.2184686e-39
-0.090348572 0.0046571433 0.97800004 9.9560336e-39
-0.088485718 0.0046571433 0.97800004 1.0967667e-38
-0.086622857 0.0046571433 0.97800004 1.1520841e-38
-0.084760003 0.0046571433 0.97800004 1.170558e-38
-0.082642861 0.0046428572 0.97500002 1.1613384e-38
-0.080122858 0.0046047624 0.96700007 1.1246756e-38
-0.078280956 0.0046047624 0.96700007 1.1799929e-38
-0.076439053 0.0046047624 0.96700007 1.1155656e-38
-0.073748574 0.0045523811 0.95600003 9.0351563e-39
-0.07177715 0.0045428574 0.95400006 8.1142944e-39
-0.069740005 0.0045285714 0.95100003 8.0220988e-39
-0.067714289 0.0045142858 0.94800007 8.2082851e-39
-0.065769531 0.0045047617 0.94600004 8.3926764e-39
-0.063967615 0.0045047617 0.94600004 8.3923205e-39
-0.061968572 0.0044904761 0.94300002 8.8532986e-39
-0.059980955 0.0044761905 0.94000006 8.8540203e-39
-0.058066666 0.0044666668 0.93800002 9.2228028e-39
-0.056280002 0.0044666668 0.93800002 9.3149984e-39
-0.05431905 0.0044523813 0.93500006 9.4993897e-39
-0.052538101 0.0044523813 0.93500006 9.3164376e-39
-0.050757144 0.0044523813 0.93500006 9.5008288e-39
-0.048871431 0.0044428571 0.93300003 9.5930244e-39
-0.047094285 0.0044428571 0.93300003 9.7774157e-39
-0.045317143 0.0044428571 0.93300003 9.6859389e-39
-0.043540001 0.0044428571 0.93300003 9.7781346e-39
-0.041762859 0.0044428571 0.93300003 9.9621853e-39
-0.039857145 0.004428572 0.93000007 9.4090115e-39
-0.038085714 0.004428572 0.93000007 6.7335306e-39
-0.036314286 0.004428572 0.93000007 7.2867044e-39
-0.034542862 0.004428572 0.93000007 9.7720305e-39
-0.032771431 0.004428572 0.93000007 1.0140813e-38
-0.031000003 0.004428572 0.93000007 9.5933748e-39
-0.029228574 0.004428572 0.93000007 9.9621573e-39
-0.027545715 0.0044428571 0.93300003 7.014809e-39
-0.025768572 0.0044428571 0.93300003 1.5752669e-39
-0.023991428 0.0044428571 0.93300003 2.3110214e-39
-0.022261906 0.0044523813 0.93500006 6.644216e-39
-0.020437144 0.0044428571 0.93300003 8.6674682e-39
-0.01866 0.0044428571 0.93300003 7.0079469e-39
-0.016882857 0.0044428571 0.93300003 4.7105993e-39
-0.015105714 0.0044428571 0.93300003 8.9515983e-39
-0.013357143 0.0044523813 0.93500006 9.7774157e-39
-0.011576191 0.0044523813 0.93500006 9.5008288e-39
-0.0098266667 0.0044666668 0.93800002 9.5004757e-39
-0.0080400007 0.0044666668 0.93800002 9.5004757e-39
-0.006266667 0.0044761905 0.94000006 9.3164376e-39
-0.0044761905 0.0044761905 0.94000006 9.1320463e-39
-0.0026942857 0.0044904761 0.94300002 9.1306044e-39
-0.00090095244 0.0045047617 0.94600004 8.9462131e-39
0.00090285722 0.0045142858 0.94800007 8.762175e-39
0.0027085717 0.0045142858 0.94800007 7.9324143e-39
0.0045285714 0.0045285714 0.95100003 8.1149979e-39
0.0063399998 0.0045285714 0.95100003 9.8667148e-39
0.0081514288 0.0045285714 0.95100003 1.0236201e-38
-0.10169715 0.006413334 0.96200007 1.1340753e-38
-0.099864773 0.006413334 0.96200007 1.1340753e-38
-0.098236188 0.0064266669 0.96400005 1.0419185e-38
-0.096700005 0.006446667 0.96700007 9.7738158e-39
-0.094858103 0.006446667 0.96700007 1.0141522e-38
-0.0930162 0.006446667 0.96700007 1.0233718e-38
-0.091457151 0.0064666667 0.97000003 9.8652855e-39
-0.090071432 0.0065000001 0.97500002 9.496503e-39
-0.088214286 0.0065000001 0.97500002 9.7720179e-39
-0.086622857 0.0065200003 0.97800004 9.8642135e-39
-0.084760003 0.0065200003 0.97800004 1.0600683e-38
-0.082642861 0.0065000001 0.97500002 1.1061661e-38
-0.080785714 0.0065000001 0.97500002 1.1246753e-38
-0.078280956 0.006446667 0.96700007 1.152334e-38
-0.076439053 0.006446667 0.96700007 1.106452e-38
-0.073980004 0.0063933334 0.95900005 1.0142563e-38
-0.071927622 0.0063733337 0.95600003 8.2075817e-39
-0.069960006 0.0063600005 0.95400006 8.0231904e-39
-0.067928575 0.0063399998 0.95100003 8.0242596e-39
-0.065908574 0.0063200006 0.94800007 8.3930421e-39
-0.063967615 0.0063066669 0.94600004 8.4845161e-39
-0.061968572 0.0062866667 0.94300002 8.761103e-39
-0.059980955 0.006266667 0.94000006 8.7618246e-39
-0.058190476 0.006266667 0.94000006 9.3149984e-39
-0.056280002 0.0062533333 0.93800002 9.3149984e-39
-0.054493334 0.0062533333 0.93800002 9.4993897e-39
-0.052538101 0.0062333336 0.93500006 9.4086332e-39
-0.050757144 0.0062333336 0.93500006 9.5008288e-39
-0.048976194 0.0062333336 0.93500006 9.5004757e-39
-0.047195241 0.0062333336 0.93500006 9.5926713e-39
-0.045414288 0.0062333336 0.93500006 9.5926713e-39
-0.043540001 0.0062199999 0.93300003 9.7770626e-39
-0.041762859 0.0062199999 0.93300003 1.0054018e-38
-0.039857145 0.0062000002 0.93000007 9.6852355e-39
-0.038085714 0.0062000002 0.93000007 6.9190107e-39
-0.036314286 0.0062000002 0.93000007 6.7346194e-39
-0.034542862 0.0062000002 0.93000007 8.8526078e-39
-0.032771431 0.0062000002 0.93000007 1.1249694e-38
-0.031000003 0.0062000002 0.93000007 1.1157456e-38
-0.029322859 0.0062199999 0.93300003 1.1065261e-38
-0.027545715 0.0062199999 0.93300003 9.4090115e-39
-0.025768572 0.0062199999 0.93300003 8.5792509e-39
-0.023991428 0.0062199999 0.93300003 8.7629106e-39
-0.022261906 0.0062333336 0.93500006 7.5643675e-39
-0.020480953 0.0062333336 0.93500006 7.8402187e-39
-0.018700002 0.0062333336 0.93500006 7.748023e-39
-0.016919049 0.0062333336 0.93500006 7.6565911e-39
-0.015138096 0.0062333336 0.93500006 9.8692862e-39
-0.013400001 0.0062533333 0.93800002 9.777766e-39
-0.011613334 0.0062533333 0.93800002 9.5011791e-39
-0.0098266667 0.0062533333 0.93800002 9.5008288e-39
-0.0080571435 0.006266667 0.94000006 9.3164376e-39
-0.006266667 0.006266667 0.94000006 9.2242419e-39
-0.0044904761 0.0062866667 0.94300002 9.0398507e-39
-0.0027028571 0.0063066669 0.94600004 9.3153487e-39
-0.00090285722 0.0063200006 0.94800007 9.0387619e-39
0.00090285722 0.0063200006 0.94800007 8.854365e-39
0.0027085717 0.0063200006 0.94800007 8.2089956e-39
0.0045285714 0.0063399998 0.95100003 8.0242414e-39
0.0063399998 0.0063399998 0.95100003 9.7759584e-39
0.0081514288 0.0063399998 0.95100003 1.0604255e-38
-0.10007238 0.0082628578 0.96400005 1.1432949e-38
-0.098236188 0.0082628578 0.96400005 1.1432608e-38
-0.096700005 0.0082885725 0.96700007 1.0879435e-38
-0.094858103 0.0082885725 0.96700007 9.9585602e-39
-0.093304761 0.0083142864 0.97000003 9.9585602e-39
-0.091457151 0.0083142864 0.97000003 9.6819733e-39
-0.090071432 0.008357143 0.97500002 9.4053864e-39
-0.088214286 0.008357143 0.97500002 9.3131907e-39
-0.086357147 0.008357143 0.97500002 9.3131907e-39
-0.0845 0.008357143 0.97500002 9.6801754e-39
-0.082642861 0.008357143 0.97500002 9.9567623e-39
-0.080785714 0.008357143 0.97500002 1.0417715e-38
-0.078523815 0.0083142864 0.97000003 1.115528e-38
-0.07667619 0.0083142864 0.97000003 1.1156022e-38
-0.073980004 0.0082200002 0.95900005 1.0510652e-38
-0.071927622 0.0081942854 0.95600003 8.6692633e-39
-0.070106663 0.0081942854 0.95600003 7.9316982e-39
-0.068142861 0.0081771435 0.95400006 8.2079292e-39
-0.066117145 0.0081514288 0.95100003 8.4845161e-39
-0.064102866 0.008125715 0.94800007 8.5767117e-39
-0.061968572 0.0080828574 0.94300002 8.761103e-39
-0.060172379 0.0080828574 0.94300002 8.7618246e-39
-0.058190476 0.0080571435 0.94000006 9.2228028e-39
-0.056280002 0.0080400007 0.93800002 9.0398507e-39
-0.054493334 0.0080400007 0.93800002 9.2242419e-39
-0.052538101 0.0080142869 0.93500006 9.3160844e-39
-0.050757144 0.0080142869 0.93500006 9.5004757e-39
-0.048976194 0.0080142869 0.93500006 9.5004757e-39
-0.047195241 0.0080142869 0.93500006 9.5926713e-39
-0.045414288 0.0080142869 0.93500006 9.5926713e-39
-0.043540001 0.0079971431 0.93300003 9.8692582e-39
-0.041762859 0.0079971431 0.93300003 1.0145129e-38
-0.039985713 0.0079971431 0.93300003 9.7763465e-39
-0.03820857 0.0079971431 0.93300003 5.9102467e-39
-0.036431432 0.0079971431 0.93300003 4.6195079e-39
-0.034654286 0.0079971431 0.93300003 6.734625e-39
-0.032877143 0.0079971431 0.93300003 9.1317114e-39
-0.031100003 0.0079971431 0.93300003 1.1064908e-38
-0.029322859 0.0079971431 0.93300003 1.0880516e-38
-0.027604764 0.0080142869 0.93500006 1.0146201e-38
-0.025823811 0.0080142869 0.93500006 1.0146201e-38
-0.024042858 0.0080142869 0.93500006 9.6855886e-39
-0.022261906 0.0080142869 0.93500006 9.1324148e-39
-0.020480953 0.0080142869 0.93500006 8.5774306e-39
-0.018700002 0.0080142869 0.93500006 9.1306044e-39
-0.016919049 0.0080142869 0.93500006 9.6837809e-39
-0.015138096 0.0080142869 0.93500006 1.0144759e-38
-0.013400001 0.0080400007 0.93800002 9.7774157e-39
-0.011613334 0.0080400007 0.93800002 9.7774157e-39
-0.0098266667 0.0080400007 0.93800002 9.5008288e-39
-0.0080571435 0.0080571435 0.94000006 9.5008288e-39
-0.0062866667 0.0080828574 0.94300002 9.2242419e-39
-0.0044904761 0.0080828574 0.94300002 9.1320463e-39
-0.0027028571 0.0081085712 0.94600004 8.8558153e-39
-0.00090285722 0.008125715 0.94800007 8.5792284e-39
0.00090285722 0.008125715 0.94800007 9.1291526e-39
0.0027085717 0.008125715 0.94800007 8.4837832e-39
0.0045428574 0.0081771435 0.95400006 8.2993919e-39
0.0063600005 0.0081771435 0.95400006 1.02355e-38
0.0081771435 0.0081771435 0.95400006 1.0513138e-38
-0.095152386 0.010161905 0.97000003 1.0971265e-38
-0.093304761 0.010161905 0.97000003 1.0694678e-38
-0.091457151 0.010161905 0.97000003 1.0327343e-38
-0.090071432 0.010214286 0.97500002 1.0419538e-38
-0.088214286 0.010214286 0.97500002 1.0143305e-38
-0.086357147 0.010214286 0.97500002 9.6823264e-39
-0.0845 0.010214286 0.97500002 9.2217308e-39
-0.082642861 0.010214286 0.97500002 9.0373395e-39
-0.080785714 0.010214286 0.97500002 9.1291526e-39
-0.078766666 0.010193334 0.97300005 9.6823264e-39
-0.07667619 0.010161905 0.97000003 1.0419538e-38
-0.07436572 0.010099048 0.96400005 1.0050756e-38
-0.072153337 0.010046667 0.95900005 8.1157336e-39
-0.070106663 0.010015239 0.95600003 7.8391467e-39
-0.068142861 0.0099942861 0.95400006 8.0238939e-39
-0.066117145 0.0099628577 0.95100003 8.3926764e-39
-0.064102866 0.0099314293 0.94800007 8.3923205e-39
-0.062165715 0.0099104764 0.94600004 8.6689073e-39
-0.060172379 0.009879048 0.94300002 8.5770803e-39
-0.058376193 0.009879048 0.94300002 9.0380584e-39
-0.056280002 0.0098266667 0.93800002 8.8554594e-39
-0.054493334 0.0098266667 0.93800002 9.2242419e-39
-0.052538101 0.0097952392 0.93500006 9.2238888e-39
-0.050757144 0.0097952392 0.93500006 9.4082801e-39
-0.048976194 0.0097952392 0.93500006 9.4082829e-39
-0.047195241 0.0097952392 0.93500006 9.5926741e-39
-0.045414288 0.0097952392 0.93500006 9.6848669e-39
-0.043540001 0.0097742863 0.93300003 9.8692582e-39
-0.041762859 0.0097742863 0.93300003 9.9621755e-39
-0.039985713 0.0097742863 0.93300003 9.2246105e-39
-0.03820857 0.0097742863 0.93300003 5.2663193e-39
-0.036431432 0.0097742863 0.93300003 4.6209498e-39
-0.034654286 0.0097742863 0.93300003 4.9886632e-39
-0.032877143 0.0097742863 0.93300003 5.4496413e-39
-0.031100003 0.0097742863 0.93300003 8.5781719e-39
-0.029322859 0.0097742863 0.93300003 1.0422084e-38
-0.027604764 0.0097952392 0.93500006 1.0238381e-38
-0.025823811 0.0097952392 0.93500006 9.8695987e-39
-0.024042858 0.0097952392 0.93500006 9.7777716e-39
-0.022261906 0.0097952392 0.93500006 9.7777716e-39
-0.020480953 0.0097952392 0.93500006 1.0144403e-38
-0.018700002 0.0097952392 0.93500006 1.0052208e-38
-0.016973333 0.0098266667 0.93800002 9.5011847e-39
-0.015186667 0.0098266667 0.93800002 9.685576e-39
-0.013400001 0.0098266667 0.93800002 9.7770626e-39
-0.011613334 0.0098266667 0.93800002 9.5926713e-39
-0.0098476186 0.0098476186 0.94000006 9.5008288e-39
-0.0080828574 0.009879048 0.94300002 9.4086332e-39
-0.0062866667 0.009879048 0.94300002 9.2242419e-39
-0.0045047617 0.0099104764 0.94600004 9.0398507e-39
-0.0027085717 0.0099314293 0.94800007 9.0384115e-39
-0.00090285722 0.0099314293 0.94800007 8.8540203e-39
0.00090285722 0.0099314293 0.94800007 8.7618092e-39
0.0027171429 0.0099628577 0.95100003 8.3008311e-39
0.0045428574 0.0099942861 0.95400006 8.6674682e-39
0.0063733337 0.010015239 0.95600003 1.0695772e-38
0.0081942854 0.010015239 0.95600003 1.0788283e-38
-0.093593337 0.012046667 0.97300005 1.0971265e-38
-0.091740005 0.012046667 0.97300005 1.0327693e-38
-0.090071432 0.012071429 0.97500002 1.0327693e-38
-0.088214286 0.012071429 0.97500002 9.9599993e-39
-0.086357147 0.012071429 0.97500002 9.4990211e-39
-0.0845 0.012071429 0.97500002 9.1306044e-39
-0.082642861 0.012071429 0.97500002 8.9462131e-39
-0.080785714 0.012071429 0.97500002 8.8543706e-39
-0.078766666 0.012046667 0.97300005 9.3153487e-39
-0.07667619 0.012009524 0.97000003 9.6834278e-39
-0.074597143 0.011972382 0.96700007 9.2224497e-39
-0.072379053 0.011910477 0.96200007 7.8398627e-39
-0.070326671 0.011873334 0.95900005 7.8398627e-39
-0.068142861 0.011811429 0.95400006 8.3004808e-39
-0.066325717 0.011811429 0.95400006 8.484872e-39
-0.064102866 0.011737144 0.94800007 8.3933924e-39
-0.062165715 0.011712381 0.94600004 8.5777837e-39
-0.060172379 0.011675238 0.94300002 8.7618246e-39
-0.058376193 0.011675238 0.94300002 9.0384115e-39
-0.056400005 0.011638097 0.94000006 8.7632638e-39
-0.054609526 0.011638097 0.94000006 9.1320463e-39
-0.05270667 0.011613334 0.93800002 9.5915853e-39
-0.050919998 0.011613334 0.93800002 9.8681722e-39
-0.049133334 0.011613334 0.93800002 9.5004757e-39
-0.047346666 0.011613334 0.93800002 9.6848669e-39
-0.045414288 0.011576191 0.93500006 9.2260468e-39
-0.043633334 0.011576191 0.93500006 9.3182424e-39
-0.041852385 0.011576191 0.93500006 9.6870277e-39
-0.040071432 0.011576191 0.93500006 9.2260496e-39
-0.038290478 0.011576191 0.93500006 4.6216855e-39
-0.036509525 0.011576191 0.93500006 3.7919249e-39
-0.034728575 0.011576191 0.93500006 1.6782651e-39
-0.032877143 0.01155143 0.93300003 3.3377864e-39
-0.031100003 0.01155143 0.93300003 7.0140705e-39
-0.029322859 0.01155143 0.93300003 9.7799394e-39
-0.027604764 0.011576191 0.93500006 1.0146561e-38
-0.025823811 0.011576191 0.93500006 9.685583e-39
-0.024042858 0.011576191 0.93500006 9.5019134e-39
-0.022333333 0.011613334 0.93800002 9.4097178e-39
-0.020546667 0.011613334 0.93800002 9.6848669e-39
-0.018759999 0.011613334 0.93800002 9.5926713e-39
-0.017009525 0.011638097 0.94000006 9.5008288e-39
-0.015219049 0.011638097 0.94000006 9.5930244e-39
-0.013428572 0.011638097 0.94000006 9.5019134e-39
-0.011638097 0.011638097 0.94000006 9.4097178e-39
-0.009879048 0.011675238 0.94300002 9.3175166e-39
-0.0081085712 0.011712381 0.94600004 9.2253209e-39
-0.0063066669 0.011712381 0.94600004 9.2245979e-39
-0.0045047617 0.011712381 0.94600004 9.0402066e-39
-0.0027085717 0.011737144 0.94800007 8.9462131e-39
-0.00090285722 0.011737144 0.94800007 8.5774306e-39
0.00090571429 0.011774287 0.95100003 8.3933924e-39
0.0027171429 0.011774287 0.95100003 7.8402187e-39
0.0045523811 0.011836191 0.95600003 8.4830769e-39
0.0063733337 0.011836191 0.95600003 1.0880163e-38
-0.091928571 0.013928572 0.97500002 1.0879069e-38
-0.090071432 0.013928572 0.97500002 1.0510286e-38
-0.088214286 0.013928572 0.97500002 1.0235147e-38
-0.086357147 0.013928572 0.97500002 1.0327343e-38
-0.0845 0.013928572 0.97500002 9.9607125e-39
-0.082642861 0.013928572 0.97500002 1.0052908e-38
-0.080785714 0.013928572 0.97500002 9.5933804e-39
-0.078766666 0.013900001 0.97300005 9.3167935e-39
-0.076913334 0.013900001 0.97300005 9.5912322e-39
-0.074597143 0.013814286 0.96700007 8.9458628e-39
-0.072529532 0.01377143 0.96400005 7.9313549e-39
-0.070326671 0.013700001 0.95900005 7.9313549e-39
-0.068285719 0.013657142 0.95600003 8.1157364e-39
-0.066325717 0.013628571 0.95400006 8.3923233e-39
-0.064305715 0.013585715 0.95100003 8.3923205e-39
-0.062165715 0.013514286 0.94600004 8.5767117e-39
-0.060363814 0.013514286 0.94600004 8.4848846e-39
-0.058376193 0.013471429 0.94300002 9.0380584e-39
-0.05658 0.013471429 0.94300002 8.6710681e-39
-0.05478381 0.013471429 0.94300002 8.947655e-39
-0.052819051 0.013428572 0.94000006 9.5915853e-39
-0.051028572 0.013428572 0.94000006 9.6837809e-39
-0.049133334 0.013400001 0.93800002 9.5004757e-39
-0.047346666 0.013400001 0.93800002 9.5004757e-39
-0.045560002 0.013400001 0.93800002 9.4097178e-39
-0.043633334 0.013357143 0.93500006 9.5019134e-39
-0.041852385 0.013357143 0.93500006 9.9621755e-39
-0.040071432 0.013357143 0.93500006 9.6855886e-39
-0.038290478 0.013357143 0.93500006 6.0935842e-39
-0.036509525 0.013357143 0.93500006 5.3560192e-39
-0.034728575 0.013357143 0.93500006 6.1854043e-39
-0.032947619 0.013357143 0.93500006 6.0932087e-39
-0.031166669 0.013357143 0.93500006 6.7371305e-39
-0.029385716 0.013357143 0.93500006 9.9639776e-39
-0.027693333 0.013400001 0.93800002 1.0330952e-38
-0.025906667 0.013400001 0.93800002 9.685583e-39
-0.024119999 0.013400001 0.93800002 9.6848697e-39
-0.022333333 0.013400001 0.93800002 9.5926741e-39
-0.020546667 0.013400001 0.93800002 9.5930244e-39
-0.018759999 0.013400001 0.93800002 9.5930244e-39
-0.017009525 0.013428572 0.94000006 9.5008288e-39
-0.015219049 0.013428572 0.94000006 9.5008288e-39
-0.013428572 0.013428572 0.94000006 9.5008288e-39
-0.011638097 0.013428572 0.94000006 9.5008288e-39
-0.0099104764 0.013514286 0.94600004 9.4089891e-39
-0.0081085712 0.013514286 0.94600004 9.3167935e-39
-0.0063200006 0.013542858 0.94800007 9.2245922e-39
-0.0045142858 0.013542858 0.94800007 8.9480054e-39
-0.0027171429 0.013585715 0.95100003 9.0387619e-39
-0.00090571429 0.013585715 0.95100003 8.6699793e-39
0.00090571429 0.013585715 0.95100003 8.3933924e-39
0.0027171429 0.013585715 0.95100003 8.1168056e-39
0.0045523811 0.013657142 0.95600003 8.8518595e-39
0.0063733337 0.013657142 0.95600003 1.0880163e-38
-0.092211433 0.015834287 0.97800004 1.124856e-38
