# .PCD v0.7 - Point Cloud Data file format
VERSION 0.7
FIELDS x y z rgb
SIZE 4 4 4 4
TYPE F F F F
COUNT 1 1 1 1
WIDTH 937
HEIGHT 1
VIEWPOINT 0 0 0 1 0 0 0
POINTS 937
DATA ascii
-0.0079114288 -0.025492381 0.92300004 8.5784844e-39
-0.0061666667 -0.025547622 0.92500007 8.6696136e-39
-0.0044047623 -0.025547622 0.92500007 7.7476573e-39
-0.0026428571 -0.025547622 0.92500007 8.0228022e-39
-0.00088095246 -0.025547622 0.92500007 1.1434041e-38
0.00088095246 -0.025547622 0.92500007 1.1892492e-38
-0.095586672 -0.024119999 0.93800002 1.2630789e-38
-0.093800001 -0.024119999 0.93800002 1.2538593e-38
-0.091719054 -0.024042858 0.93500006 1.078974e-38
-0.089745715 -0.023991428 0.93300003 7.6550889e-39
-0.087685719 -0.023914289 0.93000007 7.1919906e-39
-0.085452385 -0.023785716 0.92500007 7.4685775e-39
-0.082785718 -0.02352857 0.91500002 7.6518715e-39
-0.080865718 -0.023477143 0.91300005 7.5596759e-39
-0.079126671 -0.023477143 0.91300005 7.28524e-39
-0.077133335 -0.023400001 0.91000003 8.2071963e-39
-0.075234286 -0.023348572 0.90800005 8.0238911e-39
-0.07334286 -0.023297142 0.90600002 9.4068255e-39
-0.071617141 -0.023297142 0.90600002 9.775971e-39
-0.06989143 -0.023297142 0.90600002 1.0329145e-38
-0.06816572 -0.023297142 0.90600002 9.9618098e-39
-0.066440001 -0.023297142 0.90600002 9.7774185e-39
-0.06471429 -0.023297142 0.90600002 9.7774157e-39
-0.062988572 -0.023297142 0.90600002 9.6852201e-39
-0.061262861 -0.023297142 0.90600002 9.7774157e-39
-0.059340004 -0.023220003 0.90300006 9.7774157e-39
-0.057620004 -0.023220003 0.90300006 9.5930244e-39
-0.055900004 -0.023220003 0.90300006 1.0054003e-38
-0.054180004 -0.023220003 0.90300006 1.0238034e-38
-0.052460004 -0.023220003 0.90300006 1.0330229e-38
-0.050740004 -0.023220003 0.90300006 1.0329873e-38
-0.049020004 -0.023220003 0.90300006 1.0329873e-38
-0.047300003 -0.023220003 0.90300006 1.0422069e-38
-0.04558 -0.023220003 0.90300006 1.0422069e-38
-0.04386 -0.023220003 0.90300006 1.0422069e-38
-0.04214 -0.023220003 0.90300006 1.0422069e-38
-0.04042 -0.023220003 0.90300006 1.0238034e-38
-0.038700003 -0.023220003 0.90300006 1.0422425e-38
-0.036980003 -0.023220003 0.90300006 1.0514621e-38
-0.035260003 -0.023220003 0.90300006 1.0699012e-38
-0.033540003 -0.023220003 0.90300006 1.0514984e-38
-0.031925712 -0.023297142 0.90600002 1.0422788e-38
-0.030100001 -0.023220003 0.90300006 1.0146561e-38
-0.028380001 -0.023220003 0.90300006 1.0330952e-38
-0.026807619 -0.023348572 0.90800005 1.0054366e-38
-0.025078095 -0.023348572 0.90800005 8.2104529e-39
-0.023348572 -0.023348572 0.90800005 7.5640199e-39
-0.021619048 -0.023348572 0.90800005 6.9186505e-39
-0.019933334 -0.023400001 0.91000003 4.620947e-39
-0.01826 -0.023477143 0.91300005 2.8692301e-39
-0.016520953 -0.023477143 0.91300005 1.8455101e-42
-0.014814286 -0.02352857 0.91500002 6.4555396e-39
-0.013114286 -0.023605715 0.91800004 9.2224342e-39
-0.011390476 -0.023657143 0.92000002 8.4848692e-39
-0.0096695246 -0.023734286 0.92300004 8.3015471e-39
-0.0079285717 -0.023785716 0.92500007 8.3937428e-39
-0.0061666667 -0.023785716 0.92500007 8.3930267e-39
-0.0044047623 -0.023785716 0.92500007 7.7476573e-39
-0.0026428571 -0.023785716 0.92500007 8.2993891e-39
-0.00088095246 -0.023785716 0.92500007 1.1526236e-38
0.00088095246 -0.023785716 0.92500007 1.1984688e-38
-0.093220957 -0.021380953 0.89800006 1.2630063e-38
-0.091510482 -0.021380953 0.89800006 1.3091048e-38
-0.089800008 -0.021380953 0.89800006 1.5303743e-38
-0.088580005 -0.021500001 0.90300006 1.4108405e-38
-0.086860001 -0.021500001 0.90300006 1.4108405e-38
-0.085140005 -0.021500001 0.90300006 9.7756585e-39
-0.083420001 -0.021500001 0.90300006 7.8395502e-39
-0.081971429 -0.021571428 0.90600002 8.6674682e-39
-0.080245718 -0.021571428 0.90600002 8.9440551e-39
-0.078693338 -0.021619048 0.90800005 9.036957e-39
-0.076963812 -0.021619048 0.90800005 9.1291526e-39
-0.075068571 -0.021571428 0.90600002 8.762175e-39
-0.07334286 -0.021571428 0.90600002 9.1309575e-39
-0.071617141 -0.021571428 0.90600002 9.1324022e-39
-0.06989143 -0.021571428 0.90600002 1.0146554e-38
-0.06816572 -0.021571428 0.90600002 1.0329876e-38
-0.066440001 -0.021571428 0.90600002 1.0053289e-38
-0.06471429 -0.021571428 0.90600002 9.7774157e-39
-0.062988572 -0.021571428 0.90600002 9.7774157e-39
-0.061262861 -0.021571428 0.90600002 9.6852201e-39
-0.059537143 -0.021571428 0.90600002 9.8696113e-39
-0.057811428 -0.021571428 0.90600002 9.7770626e-39
-0.055900004 -0.021500001 0.90300006 1.0053649e-38
-0.054180004 -0.021500001 0.90300006 1.0145838e-38
-0.052460004 -0.021500001 0.90300006 1.0238034e-38
-0.050740004 -0.021500001 0.90300006 1.0145129e-38
-0.049020004 -0.021500001 0.90300006 1.032952e-38
-0.047300003 -0.021500001 0.90300006 1.0329876e-38
-0.04558 -0.021500001 0.90300006 1.0329876e-38
-0.04386 -0.021500001 0.90300006 1.0238757e-38
-0.04228 -0.021571428 0.90600002 1.0330952e-38
-0.040554285 -0.021571428 0.90600002 1.0514618e-38
-0.03882857 -0.021571428 0.90600002 1.0514618e-38
-0.037102856 -0.021571428 0.90600002 1.0422425e-38
-0.035377141 -0.021571428 0.90600002 1.0514621e-38
-0.033651426 -0.021571428 0.90600002 1.0422069e-38
-0.031925712 -0.021571428 0.90600002 1.0329873e-38
-0.030200001 -0.021571428 0.90600002 1.0146561e-38
-0.028474286 -0.021571428 0.90600002 1.0054366e-38
-0.026807619 -0.021619048 0.90800005 9.8706903e-39
-0.025078095 -0.021619048 0.90800005 9.962886e-39
-0.023348572 -0.021619048 0.90800005 9.2249902e-39
-0.021619048 -0.021619048 0.90800005 7.6576645e-39
-0.019933334 -0.021666666 0.91000003 6.6449251e-39
-0.01826 -0.021738095 0.91300005 6.2761426e-39
-0.016557142 -0.021785714 0.91500002 5.8144554e-39
-0.014814286 -0.021785714 0.91500002 5.906651e-39
-0.013114286 -0.021857142 0.91800004 7.0090357e-39
-0.011390476 -0.021904761 0.92000002 6.8246444e-39
-0.0096695246 -0.021976192 0.92300004 7.5629129e-39
-0.0079285717 -0.022023812 0.92500007 8.6692605e-39
-0.0061666667 -0.022023812 0.92500007 8.668522e-39
-0.0044047623 -0.022023812 0.92500007 7.9309569e-39
-0.0026428571 -0.022023812 0.92500007 8.5759788e-39
-0.00088095246 -0.022023812 0.92500007 1.1618435e-38
0.00088095246 -0.022023812 0.92500007 1.225947e-38
-0.095460005 -0.019780001 0.90300006 1.2814101e-38
-0.093220957 -0.019670477 0.89800006 1.2814101e-38
-0.091510482 -0.019670477 0.89800006 1.2998492e-38
-0.089800008 -0.019670477 0.89800006 1.345947e-38
-0.088383809 -0.019736189 0.90100002 1.3093565e-38
-0.08666762 -0.019736189 0.90100002 1.2724782e-38
-0.084951431 -0.019736189 0.90100002 9.4104633e-39
-0.083235241 -0.019736189 0.90100002 7.8431376e-39
-0.081700005 -0.019780001 0.90300006 8.7614589e-39
-0.079980001 -0.019780001 0.90300006 9.0380458e-39
-0.07852 -0.019845715 0.90600002 8.854365e-39
-0.076794289 -0.019845715 0.90600002 8.854365e-39
-0.075068571 -0.019845715 0.90600002 9.0387562e-39
-0.07334286 -0.019845715 0.90600002 9.2231475e-39
-0.071617141 -0.019845715 0.90600002 8.8558153e-39
-0.06989143 -0.019845715 0.90600002 9.7777716e-39
-0.06816572 -0.019845715 0.90600002 9.5948293e-39
-0.066440001 -0.019845715 0.90600002 9.4104381e-39
-0.06471429 -0.019845715 0.90600002 9.6852201e-39
-0.062988572 -0.019845715 0.90600002 9.7774157e-39
-0.061262861 -0.019845715 0.90600002 9.9603678e-39
-0.059537143 -0.019845715 0.90600002 1.0236955e-38
-0.057811428 -0.019845715 0.90600002 9.9618098e-39
-0.056085713 -0.019845715 0.90600002 1.0146201e-38
-0.054180004 -0.019780001 0.90300006 1.0238034e-38
-0.052460004 -0.019780001 0.90300006 1.0238034e-38
-0.050740004 -0.019780001 0.90300006 1.0330229e-38
-0.049020004 -0.019780001 0.90300006 1.0422425e-38
-0.047300003 -0.019780001 0.90300006 1.0514265e-38
-0.04558 -0.019780001 0.90300006 1.0514265e-38
-0.04386 -0.019780001 0.90300006 1.0330952e-38
-0.04228 -0.019845715 0.90600002 1.0330952e-38
-0.040554285 -0.019845715 0.90600002 1.0422785e-38
-0.03882857 -0.019845715 0.90600002 1.0422785e-38
-0.037102856 -0.019845715 0.90600002 1.0239113e-38
-0.035377141 -0.019845715 0.90600002 1.0239113e-38
-0.033651426 -0.019845715 0.90600002 1.0238757e-38
-0.031925712 -0.019845715 0.90600002 1.0146561e-38
-0.030200001 -0.019845715 0.90600002 1.0146561e-38
-0.028474286 -0.019845715 0.90600002 1.0146561e-38
-0.026807619 -0.019889524 0.90800005 9.5955482e-39
-0.025078095 -0.019889524 0.90800005 9.7799394e-39
-0.023348572 -0.019889524 0.90800005 1.0146214e-38
-0.021666666 -0.019933334 0.91000003 8.4866923e-39
-0.019933334 -0.019933334 0.91000003 9.1284492e-39
-0.01826 -0.019999048 0.91300005 9.7738186e-39
-0.016557142 -0.020042857 0.91500002 9.7738186e-39
-0.014814286 -0.020042857 0.91500002 7.929906e-39
-0.013114286 -0.020108571 0.91800004 5.905202e-39
-0.011390476 -0.020152381 0.92000002 6.2739846e-39
-0.0096695246 -0.020218095 0.92300004 8.3887079e-39
-0.0079285717 -0.020261906 0.92500007 9.4950555e-39
-0.0061666667 -0.020261906 0.92500007 9.0373045e-39
-0.0044047623 -0.020261906 0.92500007 8.2997395e-39
-0.0026428571 -0.020261906 0.92500007 8.9436795e-39
-0.00088095246 -0.020261906 0.92500007 1.1525157e-38
0.00088095246 -0.020261906 0.92500007 1.2167274e-38
-0.094931439 -0.017960001 0.89800006 1.2353849e-38
-0.093013331 -0.01792 0.89600003 1.0694327e-38
-0.091306664 -0.01792 0.89600003 8.4827294e-39
-0.089600004 -0.01792 0.89600003 8.5749251e-39
-0.087893337 -0.01792 0.89600003 8.6689101e-39
-0.086379051 -0.017960001 0.89800006 9.0376927e-39
-0.084668577 -0.017960001 0.89800006 9.2224497e-39
-0.082958095 -0.017960001 0.89800006 9.3146453e-39
-0.081519045 -0.01802 0.90100002 9.5915797e-39
-0.079802856 -0.01802 0.90100002 9.775971e-39
-0.07852 -0.01812 0.90600002 9.6848319e-39
-0.076794289 -0.01812 0.90600002 9.2238538e-39
-0.075068571 -0.01812 0.90600002 9.0387619e-39
-0.07334286 -0.01812 0.90600002 9.1309575e-39
-0.071775243 -0.01816 0.90800005 9.3153487e-39
-0.070045717 -0.01816 0.90800005 9.4075444e-39
-0.068316191 -0.01816 0.90800005 9.3164376e-39
-0.066586666 -0.01816 0.90800005 9.5930244e-39
-0.064857148 -0.01816 0.90800005 9.5930244e-39
-0.063127622 -0.01816 0.90800005 9.5930244e-39
-0.061398096 -0.01816 0.90800005 9.6848669e-39
-0.059537143 -0.01812 0.90600002 9.8692582e-39
-0.057811428 -0.01812 0.90600002 9.8696141e-39
-0.056085713 -0.01812 0.90600002 1.0054005e-38
-0.054180004 -0.018060001 0.90300006 1.0146201e-38
-0.052460004 -0.018060001 0.90300006 1.0238397e-38
-0.050740004 -0.018060001 0.90300006 1.0514621e-38
-0.049020004 -0.018060001 0.90300006 1.0606816e-38
-0.047457144 -0.01812 0.90600002 1.0330952e-38
-0.045731429 -0.01812 0.90600002 1.0330952e-38
-0.044005714 -0.01812 0.90600002 1.0330952e-38
-0.04228 -0.01812 0.90600002 1.0330952e-38
-0.040554285 -0.01812 0.90600002 1.0330952e-38
-0.03882857 -0.01812 0.90600002 1.0330952e-38
-0.037102856 -0.01812 0.90600002 1.0422069e-38
-0.035377141 -0.01812 0.90600002 1.0514265e-38
-0.033651426 -0.01812 0.90600002 1.0238757e-38
-0.031925712 -0.01812 0.90600002 1.0146561e-38
-0.030200001 -0.01812 0.90600002 1.0239113e-38
-0.028474286 -0.01812 0.90600002 1.0054721e-38
-0.026807619 -0.01816 0.90800005 9.5951824e-39
-0.025078095 -0.01816 0.90800005 9.5951824e-39
-0.023400001 -0.018200001 0.91000003 9.8706805e-39
-0.021666666 -0.018200001 0.91000003 8.5799417e-39
-0.019933334 -0.018200001 0.91000003 8.7607526e-39
-0.01826 -0.01826 0.91300005 8.9451439e-39
-0.016557142 -0.018300001 0.91500002 9.3135411e-39
-0.014862858 -0.018360002 0.91800004 8.2071935e-39
-0.013114286 -0.018360002 0.91800004 6.6380854e-39
-0.011390476 -0.0184 0.92000002 6.1771072e-39
-0.0096904775 -0.0185 0.92500007 7.1901899e-39
-0.0079285717 -0.0185 0.92500007 8.2965375e-39
-0.0061666667 -0.0185 0.92500007 8.1150007e-39
-0.0044190479 -0.01856 0.92800003 8.5759788e-39
-0.0026514288 -0.01856 0.92800003 9.1284211e-39
-0.00088380952 -0.01856 0.92800003 1.1525508e-38
-0.096426666 -0.016213333 0.89600003 1.2722256e-38
-0.094719999 -0.016213333 0.89600003 1.1618788e-38
-0.093013331 -0.016213333 0.89600003 8.4841363e-39
-0.091306664 -0.016213333 0.89600003 8.4830517e-39
-0.089600004 -0.016213333 0.89600003 8.8518342e-39
-0.087893337 -0.016213333 0.89600003 8.7596666e-39
-0.08618667 -0.016213333 0.89600003 9.6816229e-39
-0.084668577 -0.016249524 0.89800006 9.6830621e-39
-0.082958095 -0.016249524 0.89800006 9.6830621e-39
-0.08124762 -0.016249524 0.89800006 9.3175166e-39
-0.079802856 -0.016303809 0.90100002 9.2253209e-39
-0.078260005 -0.016340001 0.90300006 9.2249454e-39
-0.076794289 -0.016394285 0.90600002 8.6717716e-39
-0.075068571 -0.016394285 0.90600002 8.7618218e-39
-0.07334286 -0.016394285 0.90600002 9.0384087e-39
-0.071775243 -0.016430477 0.90800005 9.1306044e-39
-0.070045717 -0.016430477 0.90800005 9.2228e-39
-0.068316191 -0.016430477 0.90800005 9.3149984e-39
-0.066586666 -0.016430477 0.90800005 9.6837809e-39
-0.064999998 -0.016466668 0.91000003 9.8681722e-39
-0.063266665 -0.016466668 0.91000003 1.0052563e-38
-0.061398096 -0.016430477 0.90800005 9.7770626e-39
-0.059668574 -0.016430477 0.90800005 9.7770626e-39
-0.057939049 -0.016430477 0.90800005 9.8696141e-39
-0.056085713 -0.016394285 0.90600002 1.0054005e-38
-0.054360002 -0.016394285 0.90600002 1.0054366e-38
-0.052634288 -0.016394285 0.90600002 1.0146561e-38
-0.050908573 -0.016394285 0.90600002 1.023876e-38
-0.049182858 -0.016394285 0.90600002 1.0330955e-38
-0.047457144 -0.016394285 0.90600002 1.0330952e-38
-0.045731429 -0.016394285 0.90600002 1.0330952e-38
-0.044005714 -0.016394285 0.90600002 1.0422082e-38
-0.04228 -0.016394285 0.90600002 1.0422082e-38
-0.040554285 -0.016394285 0.90600002 1.0422788e-38
-0.03882857 -0.016394285 0.90600002 1.0422788e-38
-0.037102856 -0.016394285 0.90600002 1.0606463e-38
-0.035377141 -0.016394285 0.90600002 1.0514267e-38
-0.033725716 -0.016430477 0.90800005 1.0238757e-38
-0.031996191 -0.016430477 0.90800005 1.0146561e-38
-0.030266669 -0.016430477 0.90800005 1.0055084e-38
-0.028537145 -0.016430477 0.90800005 9.9628888e-39
-0.026866667 -0.016466668 0.91000003 9.5948293e-39
-0.025133334 -0.016466668 0.91000003 9.5948293e-39
-0.023400001 -0.016466668 0.91000003 9.8706805e-39
-0.021666666 -0.016466668 0.91000003 7.6579854e-39
-0.019999048 -0.016520953 0.91300005 7.8377075e-39
-0.01826 -0.016520953 0.91300005 8.4830769e-39
-0.016557142 -0.016557142 0.91500002 8.7603701e-39
-0.014862858 -0.016611429 0.91800004 7.9306094e-39
-0.013114286 -0.016611429 0.91800004 6.363997e-39
-0.011390476 -0.016647618 0.92000002 6.0874101e-39
-0.009721905 -0.016792381 0.92800003 6.6380854e-39
-0.0079542855 -0.016792381 0.92800003 7.7444329e-39
-0.0061866669 -0.016792381 0.92800003 7.0104454e-39
-0.0044190479 -0.016792381 0.92800003 8.0245973e-39
-0.0026514288 -0.016792381 0.92800003 9.4968561e-39
-0.00088380952 -0.016792381 0.92800003 1.1617356e-38
0.00089047622 -0.016919049 0.93500006 1.1708807e-38
-0.096426666 -0.014506667 0.89600003 1.1800297e-38
-0.094719999 -0.014506667 0.89600003 1.0513494e-38
-0.093013331 -0.014506667 0.89600003 7.3788425e-39
-0.091306664 -0.014506667 0.89600003 7.9320612e-39
-0.089600004 -0.014506667 0.89600003 9.0384087e-39
-0.087893337 -0.014506667 0.89600003 9.2217308e-39
-0.08618667 -0.014506667 0.89600003 9.9592958e-39
-0.084480003 -0.014506667 0.89600003 1.0052563e-38
-0.082773335 -0.014506667 0.89600003 1.0236955e-38
-0.08124762 -0.014539048 0.89800006 1.0421696e-38
-0.079537146 -0.014539048 0.89800006 9.0387619e-39
-0.078086674 -0.014587619 0.90100002 7.4710858e-39
-0.076540001 -0.01462 0.90300006 7.3788902e-39
-0.074820004 -0.01462 0.90300006 7.7466035e-39
-0.07334286 -0.014668572 0.90600002 8.6685598e-39
-0.071775243 -0.014700953 0.90800005 8.5774306e-39
-0.070045717 -0.014700953 0.90800005 8.9462131e-39
-0.068316191 -0.014700953 0.90800005 8.7629134e-39
-0.066586666 -0.014700953 0.90800005 9.4082829e-39
-0.064999998 -0.014733333 0.91000003 9.5933804e-39
-0.063266665 -0.014733333 0.91000003 9.685576e-39
-0.061398096 -0.014700953 0.90800005 9.7770626e-39
-0.059668574 -0.014700953 0.90800005 9.8692582e-39
-0.057939049 -0.014700953 0.90800005 9.6855858e-39
-0.056085713 -0.014668572 0.90600002 9.8699771e-39
-0.054360002 -0.014668572 0.90600002 1.0146917e-38
-0.052634288 -0.014668572 0.90600002 1.0146917e-38
-0.050908573 -0.014668572 0.90600002 1.0146214e-38
-0.049182858 -0.014668572 0.90600002 1.0238409e-38
-0.047457144 -0.014668572 0.90600002 1.023876e-38
-0.045731429 -0.014668572 0.90600002 1.0330955e-38
-0.044005714 -0.014668572 0.90600002 1.0330249e-38
-0.04228 -0.014668572 0.90600002 1.0330249e-38
-0.040554285 -0.014668572 0.90600002 1.0514267e-38
-0.03882857 -0.014668572 0.90600002 1.0514267e-38
-0.037102856 -0.014668572 0.90600002 1.0330249e-38
-0.035377141 -0.014668572 0.90600002 1.0238053e-38
-0.033725716 -0.014700953 0.90800005 1.0146564e-38
-0.031996191 -0.014700953 0.90800005 1.0146564e-38
-0.030266669 -0.014700953 0.90800005 9.9625356e-39
-0.028537145 -0.014700953 0.90800005 9.87034e-39
-0.026866667 -0.014733333 0.91000003 9.8706903e-39
-0.025133334 -0.014733333 0.91000003 9.8706903e-39
-0.023477143 -0.014781905 0.91300005 9.8699673e-39
-0.021738095 -0.014781905 0.91300005 7.3806853e-39
-0.019999048 -0.014781905 0.91300005 6.54984e-39
-0.018300001 -0.014814286 0.91500002 7.287405e-39
-0.016611429 -0.014862858 0.91800004 7.6561651e-39
-0.014895238 -0.014895238 0.92000002 6.4576219e-39
-0.013142857 -0.014895238 0.92000002 5.5363943e-39
-0.011390476 -0.014895238 0.92000002 5.8129812e-39
-0.009721905 -0.015024763 0.92800003 7.1912591e-39
-0.0079714293 -0.015057144 0.93000007 7.8366285e-39
-0.0062000002 -0.015057144 0.93000007 7.3770825e-39
-0.0044428571 -0.015105714 0.93300003 8.2990388e-39
-0.0026657144 -0.015105714 0.93300003 9.7730899e-39
-0.00089047622 -0.015138096 0.93500006 1.1617002e-38
0.00089047622 -0.015138096 0.93500006 1.1708084e-38
0.0026714287 -0.015138096 0.93500006 1.1615888e-38
-0.097914286 -0.012771429 0.89400005 1.2169798e-38
-0.096211433 -0.012771429 0.89400005 1.0786863e-38
-0.094508581 -0.012771429 0.89400005 1.023368e-38
-0.093013331 -0.012800001 0.89600003 8.5741585e-39
-0.091306664 -0.012800001 0.89600003 8.2086481e-39
-0.089600004 -0.012800001 0.89600003 9.1306044e-39
-0.087893337 -0.012800001 0.89600003 9.130254e-39
-0.08618667 -0.012800001 0.89600003 1.0144406e-38
-0.084480003 -0.012800001 0.89600003 9.7777786e-39
-0.082773335 -0.012800001 0.89600003 9.8699743e-39
-0.081066668 -0.012800001 0.89600003 1.0697214e-38
-0.079360001 -0.012800001 0.89600003 7.470367e-39
-0.077826671 -0.012828573 0.89800006 7.9269913e-39
-0.076540001 -0.0129 0.90300006 8.3879694e-39
-0.074820004 -0.0129 0.90300006 8.1132154e-39
-0.07334286 -0.012942857 0.90600002 8.9429761e-39
-0.071775243 -0.012971429 0.90800005 8.8532986e-39
-0.070045717 -0.012971429 0.90800005 9.1298855e-39
-0.068316191 -0.012971429 0.90800005 8.5785194e-39
-0.066586666 -0.012971429 0.90800005 9.4082801e-39
-0.064999998 -0.013 0.91000003 9.5933804e-39
-0.063266665 -0.013 0.91000003 9.685576e-39
-0.061533332 -0.013 0.91000003 9.7770626e-39
-0.059668574 -0.012971429 0.90800005 9.9614538e-39
-0.057939049 -0.012971429 0.90800005 9.8699743e-39
-0.056085713 -0.012942857 0.90600002 9.9621699e-39
-0.054360002 -0.012942857 0.90600002 1.0054366e-38
-0.052634288 -0.012942857 0.90600002 1.0146561e-38
-0.050908573 -0.012942857 0.90600002 1.023876e-38
-0.049182858 -0.012942857 0.90600002 1.023876e-38
-0.047457144 -0.012942857 0.90600002 1.0238757e-38
-0.045731429 -0.012942857 0.90600002 1.0330952e-38
-0.044005714 -0.012942857 0.90600002 1.0514267e-38
-0.04228 -0.012942857 0.90600002 1.0698659e-38
-0.040554285 -0.012942857 0.90600002 1.0514265e-38
-0.038914286 -0.012971429 0.90800005 1.0514265e-38
-0.037184764 -0.012971429 0.90800005 1.0422082e-38
-0.035455238 -0.012971429 0.90800005 1.0329886e-38
-0.033725716 -0.012971429 0.90800005 1.0238757e-38
-0.031996191 -0.012971429 0.90800005 1.0238757e-38
-0.030266669 -0.012971429 0.90800005 9.9625356e-39
-0.028537145 -0.012971429 0.90800005 1.0054731e-38
-0.026866667 -0.013 0.91000003 1.0055084e-38
-0.025133334 -0.013 0.91000003 9.8706931e-39
-0.023477143 -0.013042858 0.91300005 9.3182256e-39
-0.021738095 -0.013042858 0.91300005 7.1977261e-39
-0.020042857 -0.013071429 0.91500002 5.8130064e-39
-0.018300001 -0.013071429 0.91500002 6.7349627e-39
-0.016611429 -0.013114286 0.91800004 7.6529379e-39
-0.014895238 -0.013142857 0.92000002 4.7948734e-39
-0.013142857 -0.013142857 0.92000002 3.8746785e-39
-0.011390476 -0.013142857 0.92000002 7.5625037e-39
-0.0097428579 -0.013285715 0.93000007 7.5625598e-39
-0.0079971431 -0.013328572 0.93300003 7.4703642e-39
-0.0062199999 -0.013328572 0.93300003 7.4692781e-39
-0.0044428571 -0.013328572 0.93300003 8.3912344e-39
-0.0026714287 -0.013357143 0.93500006 9.8649198e-39
-0.00089047622 -0.013357143 0.93500006 1.1616637e-38
0.00089047622 -0.013357143 0.93500006 1.1524413e-38
0.0026714287 -0.013357143 0.93500006 1.1432217e-38
-0.097914286 -0.011068572 0.89400005 1.2169811e-38
-0.096211433 -0.011068572 0.89400005 9.9571154e-39
-0.094508581 -0.011068572 0.89400005 8.3930267e-39
-0.093013331 -0.011093334 0.89600003 8.4852223e-39
-0.091306664 -0.011093334 0.89600003 8.7618246e-39
-0.089400001 -0.011068572 0.89400005 9.407194e-39
-0.087697148 -0.011068572 0.89400005 9.5912322e-39
-0.085994288 -0.011068572 0.89400005 1.0420993e-38
-0.084291428 -0.011068572 0.89400005 1.0421346e-38
-0.082588576 -0.011068572 0.89400005 1.0513542e-38
-0.080885723 -0.011068572 0.89400005 1.0329135e-38
-0.079182863 -0.011068572 0.89400005 5.9037447e-39
-0.077826671 -0.011118095 0.89800006 6.0860032e-39
-0.076540001 -0.01118 0.90300006 7.8377201e-39
-0.075068571 -0.011217142 0.90600002 8.0220988e-39
-0.07334286 -0.011217142 0.90600002 8.7596638e-39
-0.071775243 -0.011241905 0.90800005 8.4841658e-39
-0.070199996 -0.011266666 0.91000003 9.0373395e-39
-0.068466663 -0.011266666 0.91000003 9.130254e-39
-0.06673333 -0.011266666 0.91000003 9.7756234e-39
-0.064999998 -0.011266666 0.91000003 9.5011847e-39
-0.063266665 -0.011266666 0.91000003 9.5011847e-39
-0.061533332 -0.011266666 0.91000003 9.4093619e-39
-0.059668574 -0.011241905 0.90800005 9.6859487e-39
-0.057939049 -0.011241905 0.90800005 9.8696141e-39
-0.056085713 -0.011217142 0.90600002 9.9618098e-39
-0.054360002 -0.011217142 0.90600002 9.9621699e-39
-0.052634288 -0.011217142 0.90600002 1.0238757e-38
-0.050908573 -0.011217142 0.90600002 1.0146564e-38
-0.049182858 -0.011217142 0.90600002 1.0146564e-38
-0.047457144 -0.011217142 0.90600002 1.0054731e-38
-0.045731429 -0.011217142 0.90600002 1.0146927e-38
-0.044005714 -0.011217142 0.90600002 1.0146561e-38
-0.04228 -0.011217142 0.90600002 1.0330952e-38
-0.040554285 -0.011217142 0.90600002 1.0330955e-38
-0.038914286 -0.011241905 0.90800005 1.023876e-38
-0.037184764 -0.011241905 0.90800005 1.0054378e-38
-0.035455238 -0.011241905 0.90800005 1.0054378e-38
-0.033725716 -0.011241905 0.90800005 1.0055084e-38
-0.031996191 -0.011241905 0.90800005 1.0239476e-38
-0.030266669 -0.011241905 0.90800005 9.9625356e-39
-0.028537145 -0.011241905 0.90800005 9.9625356e-39
-0.026866667 -0.011266666 0.91000003 1.023876e-38
-0.025216192 -0.011303809 0.91300005 9.3168033e-39
-0.023477143 -0.011303809 0.91300005 8.7621694e-39
-0.021785714 -0.011328571 0.91500002 8.3933868e-39
-0.020042857 -0.011328571 0.91500002 8.7585876e-39
-0.018360002 -0.011365715 0.91800004 7.8366313e-39
-0.016647618 -0.011390476 0.92000002 5.4441987e-39
-0.014895238 -0.011390476 0.92000002 3.7344044e-40
-0.013142857 -0.011390476 0.92000002 2.1280399e-39
-0.011427619 -0.011427619 0.92300004 6.9222126e-39
-0.0097428579 -0.011514287 0.93000007 8.2054111e-39
-0.0079971431 -0.01155143 0.93300003 8.1132154e-39
-0.0062199999 -0.01155143 0.93300003 7.9302563e-39
-0.0044523813 -0.011576191 0.93500006 9.0366039e-39
-0.0026800002 -0.011613334 0.93800002 9.9571126e-39
-0.00089047622 -0.011576191 0.93500006 1.1524438e-38
0.00089047622 -0.011576191 0.93500006 1.1891396e-38
0.0026714287 -0.011576191 0.93500006 1.1799201e-38
-0.098133333 -0.0093866661 0.89600003 1.1986138e-38
-0.096426666 -0.0093866661 0.89600003 8.2983129e-39
-0.094719999 -0.0093866661 0.89600003 8.0217232e-39
-0.092805721 -0.0093657151 0.89400005 9.3124621e-39
-0.091102861 -0.0093657151 0.89400005 9.0384115e-39
-0.089400001 -0.0093657151 0.89400005 9.7759766e-39
-0.087402858 -0.0093342857 0.89100003 9.3175222e-39
-0.08570572 -0.0093342857 0.89100003 1.0331674e-38
-0.084008567 -0.0093342857 0.89100003 1.1066728e-38
-0.082126677 -0.0093133338 0.88900006 9.4994023e-39
-0.080433331 -0.0093133338 0.88900006 9.4039416e-39
-0.079182863 -0.0093657151 0.89400005 6.6380727e-39
-0.077480003 -0.0093657151 0.89400005 6.8213948e-39
-0.076794289 -0.0094914287 0.90600002 8.2965249e-39
-0.075068571 -0.0094914287 0.90600002 8.0220988e-39
-0.073504768 -0.0095123816 0.90800005 8.7596638e-39
-0.071933329 -0.0095333336 0.91000003 8.3923233e-39
-0.070199996 -0.0095333336 0.91000003 9.2220839e-39
-0.068466663 -0.0095333336 0.91000003 9.3149984e-39
-0.06673333 -0.0095333336 0.91000003 9.8681722e-39
-0.065214291 -0.009564762 0.91300005 9.4086332e-39
-0.063475236 -0.009564762 0.91300005 9.3164376e-39
-0.061736196 -0.009564762 0.91300005 9.4097178e-39
-0.059799999 -0.0095333336 0.91000003 9.594109e-39
-0.058066666 -0.0095333336 0.91000003 9.7777786e-39
-0.056209527 -0.0095123816 0.90800005 9.8699743e-39
-0.054480001 -0.0095123816 0.90800005 9.9621699e-39
-0.052634288 -0.0094914287 0.90600002 1.0146561e-38
-0.050908573 -0.0094914287 0.90600002 9.9621825e-39
-0.049182858 -0.0094914287 0.90600002 1.0054378e-38
-0.047457144 -0.0094914287 0.90600002 1.0146927e-38
-0.045731429 -0.0094914287 0.90600002 1.0239123e-38
-0.044005714 -0.0094914287 0.90600002 1.014728e-38
-0.042373337 -0.0095123816 0.90800005 1.0239476e-38
-0.040643811 -0.0095123816 0.90800005 1.0238769e-38
-0.038914286 -0.0095123816 0.90800005 1.0238769e-38
-0.037184764 -0.0095123816 0.90800005 1.0146574e-38
-0.035455238 -0.0095123816 0.90800005 1.0054378e-38
-0.033725716 -0.0095123816 0.90800005 9.9628888e-39
-0.031996191 -0.0095123816 0.90800005 1.014728e-38
-0.030333333 -0.0095333336 0.91000003 1.0054731e-38
-0.0286 -0.0095333336 0.91000003 1.0146927e-38
-0.026955239 -0.009564762 0.91300005 1.0238757e-38
-0.025216192 -0.009564762 0.91300005 9.4089961e-39
-0.02352857 -0.0095857149 0.91500002 7.2863414e-39
-0.021785714 -0.0095857149 0.91500002 8.5770803e-39
-0.020108571 -0.0096171433 0.91800004 1.032521e-38
-0.018360002 -0.0096171433 0.91800004 8.0203191e-39
-0.016647618 -0.0096380953 0.92000002 4.5225955e-39
-0.014895238 -0.0096380953 0.92000002 1.3879441e-39
-0.013185714 -0.0096695246 0.92300004 2.2195292e-39
-0.011452381 -0.0096904775 0.92500007 6.5527239e-39
-0.0097742863 -0.0097742863 0.93300003 7.7451392e-39
-0.0079971431 -0.0097742863 0.93300003 8.0217261e-39
-0.0062199999 -0.0097742863 0.93300003 7.838411e-39
-0.0044523813 -0.0097952392 0.93500006 8.7603673e-39
-0.0026800002 -0.0098266667 0.93800002 1.0049308e-38
-0.00089333334 -0.0098266667 0.93800002 1.1432243e-38
0.00089333334 -0.0098266667 0.93800002 1.1799198e-38
0.0026800002 -0.0098266667 0.93800002 1.1799198e-38
-0.098133333 -0.0076800003 0.89600003 1.1709183e-38
-0.096426666 -0.0076800003 0.89600003 8.2979444e-39
-0.094719999 -0.0076800003 0.89600003 7.6554771e-39
-0.092805721 -0.0076628574 0.89400005 9.1306072e-39
-0.091102861 -0.0076628574 0.89400005 9.1306072e-39
-0.089400001 -0.0076628574 0.89400005 9.7759766e-39
-0.087402858 -0.0076371427 0.89100003 9.9600119e-39
-0.08570572 -0.0076371427 0.89100003 1.1527338e-38
-0.083820008 -0.0076200003 0.88900006 1.1802488e-38
-0.081941903 -0.0076028574 0.88700002 8.5756411e-39
-0.080252379 -0.0076028574 0.88700002 7.376351e-39
-0.078562863 -0.0076028574 0.88700002 6.9153729e-39
-0.079300001 -0.0078428574 0.91500002 7.1909088e-39
-0.077557147 -0.0078428574 0.91500002 8.389452e-39
-0.075814284 -0.0078428574 0.91500002 8.2068432e-39
-0.07407143 -0.0078428574 0.91500002 8.9444082e-39
-0.072170481 -0.0078257145 0.91300005 8.669629e-39
-0.070431434 -0.0078257145 0.91300005 9.4993897e-39
-0.068692386 -0.0078257145 0.91300005 9.5915853e-39
-0.066953339 -0.0078257145 0.91300005 9.7759766e-39
-0.065214291 -0.0078257145 0.91300005 9.4086332e-39
-0.063475236 -0.0078257145 0.91300005 9.4086332e-39
-0.061736196 -0.0078257145 0.91300005 9.5019078e-39
-0.059997145 -0.0078257145 0.91300005 9.5941034e-39
-0.058066666 -0.0078000003 0.91000003 9.5015575e-39
-0.056333333 -0.0078000003 0.91000003 9.6859487e-39
-0.0546 -0.0078000003 0.91000003 9.8699799e-39
-0.052750479 -0.0077828579 0.90800005 1.0054371e-38
-0.051020954 -0.0077828579 0.90800005 1.0146574e-38
-0.049291432 -0.0077828579 0.90800005 1.0054378e-38
-0.047561906 -0.0077828579 0.90800005 1.0054731e-38
-0.045832384 -0.0077828579 0.90800005 1.0146927e-38
-0.044102859 -0.0077828579 0.90800005 1.0146927e-38
-0.042373337 -0.0077828579 0.90800005 1.0239123e-38
-0.040643811 -0.0077828579 0.90800005 1.0330968e-38
-0.038914286 -0.0077828579 0.90800005 1.0146577e-38
-0.037184764 -0.0077828579 0.90800005 1.0054378e-38
-0.035455238 -0.0077828579 0.90800005 1.0054378e-38
-0.033725716 -0.0077828579 0.90800005 1.0054731e-38
-0.031996191 -0.0077828579 0.90800005 1.0054731e-38
-0.030333333 -0.0078000003 0.91000003 1.023876e-38
-0.0286 -0.0078000003 0.91000003 1.0146564e-38
-0.026955239 -0.0078257145 0.91300005 1.0238034e-38
-0.025271429 -0.0078428574 0.91500002 1.0053642e-38
-0.02352857 -0.0078428574 0.91500002 8.5781719e-39
-0.021857142 -0.0078685712 0.91800004 6.6420636e-39
-0.020108571 -0.0078685712 0.91800004 5.7165508e-39
-0.0184 -0.0078857141 0.92000002 5.5321596e-39
-0.016647618 -0.0078857141 0.92000002 3.7818187e-39
-0.01494381 -0.0079114288 0.92300004 2.3988842e-39
-0.013185714 -0.0079114288 0.92300004 3.5052738e-39
-0.011452381 -0.0079285717 0.92500007 6.7321209e-39
-0.0097742863 -0.0079971431 0.93300003 7.9309205e-39
-0.0080142869 -0.0080142869 0.93500006 7.7465293e-39
-0.0062333336 -0.0080142869 0.93500006 7.1940841e-39
-0.0044523813 -0.0080142869 0.93500006 8.7614099e-39
-0.0026800002 -0.0080400007 0.93800002 1.0601403e-38
-0.00089333334 -0.0080400007 0.93800002 1.1523359e-38
0.00089333334 -0.0080400007 0.93800002 1.1707002e-38
-0.10006286 -0.0059866668 0.89800006 1.2720454e-38
-0.098133333 -0.0059733335 0.89600003 1.1432245e-38
-0.096426666 -0.0059733335 0.89600003 8.2053984e-39
-0.094719999 -0.0059733335 0.89600003 7.746951e-39
-0.092805721 -0.0059600002 0.89400005 9.1298855e-39
-0.091102861 -0.0059600002 0.89400005 9.1306044e-39
-0.089400001 -0.0059600002 0.89400005 9.7759738e-39
-0.087402858 -0.0059400005 0.89100003 9.5926713e-39
-0.08570572 -0.0059400005 0.89100003 1.1252193e-38
-0.083820008 -0.0059266672 0.88900006 1.1894678e-38
-0.081941903 -0.0059133335 0.88700002 7.9302661e-39
-0.080252379 -0.0059133335 0.88700002 7.1000949e-39
-0.078562863 -0.0059133335 0.88700002 7.1000949e-39
-0.080426671 -0.0061866669 0.92800003 7.0990663e-39
-0.078404762 -0.0061666667 0.92500007 8.2976095e-39
-0.076477148 -0.0061533335 0.92300004 7.9316954e-39
-0.074719049 -0.0061533335 0.92300004 8.7614561e-39
-0.072565712 -0.00612 0.91800004 8.669629e-39
-0.07058572 -0.0061000003 0.91500002 9.5915853e-39
-0.068842858 -0.0061000003 0.91500002 9.3160872e-39
-0.067100003 -0.0061000003 0.91500002 9.3160872e-39
-0.065357141 -0.0061000003 0.91500002 9.3160844e-39
-0.063614286 -0.0061000003 0.91500002 9.3160844e-39
-0.061871432 -0.0061000003 0.91500002 9.5926713e-39
-0.059997145 -0.0060866671 0.91300005 9.7770626e-39
-0.058258098 -0.0060866671 0.91300005 9.6855858e-39
-0.056519046 -0.0060866671 0.91300005 9.8699771e-39
-0.054780003 -0.0060866671 0.91300005 9.9621699e-39
-0.053040955 -0.0060866671 0.91300005 1.0146561e-38
-0.051133335 -0.0060666669 0.91000003 1.0054378e-38
-0.049291432 -0.0060533336 0.90800005 1.0054378e-38
-0.047561906 -0.0060533336 0.90800005 1.0146927e-38
-0.045832384 -0.0060533336 0.90800005 1.0146927e-38
-0.044199999 -0.0060666669 0.91000003 1.0239478e-38
-0.042373337 -0.0060533336 0.90800005 1.0239478e-38
-0.040643811 -0.0060533336 0.90800005 1.0146577e-38
-0.038914286 -0.0060533336 0.90800005 1.0146577e-38
-0.037266668 -0.0060666669 0.91000003 1.0146564e-38
-0.035533335 -0.0060666669 0.91000003 1.0146564e-38
-0.033800002 -0.0060666669 0.91000003 1.0146564e-38
-0.032066669 -0.0060666669 0.91000003 1.0054368e-38
-0.030333333 -0.0060666669 0.91000003 1.0329526e-38
-0.0286 -0.0060666669 0.91000003 1.0421722e-38
-0.027014285 -0.0061000003 0.91500002 1.0329873e-38
-0.025271429 -0.0061000003 0.91500002 1.0053287e-38
-0.023605715 -0.00612 0.91800004 9.2246231e-39
-0.021904761 -0.0061333333 0.92000002 5.9055804e-39
-0.020218095 -0.0061533335 0.92300004 3.2311883e-39
-0.018460002 -0.0061533335 0.92300004 3.8765577e-39
-0.016738096 -0.0061666667 0.92500007 2.8591183e-39
-0.014976191 -0.0061666667 0.92500007 3.8732702e-39
-0.013214286 -0.0061666667 0.92500007 5.9001672e-39
-0.011489524 -0.0061866669 0.92800003 7.7440798e-39
-0.0097742863 -0.0062199999 0.93300003 7.6561651e-39
-0.0080142869 -0.0062333336 0.93500006 5.7200569e-39
-0.0062333336 -0.0062333336 0.93500006 5.9004951e-39
-0.0044523813 -0.0062333336 0.93500006 9.4961247e-39
-0.0026800002 -0.0062533333 0.93800002 1.0693601e-38
-0.00089333334 -0.0062533333 0.93800002 1.1615558e-38
-0.10211334 -0.0042904764 0.90100002 1.2351665e-38
-0.10006286 -0.0042761909 0.89800006 1.2536057e-38
-0.098352388 -0.0042761909 0.89800006 1.1063466e-38
-0.096426666 -0.0042666667 0.89600003 7.7444231e-39
-0.094719999 -0.0042666667 0.89600003 7.655124e-39
-0.093013331 -0.0042666667 0.89600003 9.0380584e-39
-0.091102861 -0.004257143 0.89400005 8.8554594e-39
-0.089400001 -0.004257143 0.89400005 9.5930244e-39
-0.087402858 -0.004242857 0.89100003 9.7774157e-39
-0.085513338 -0.0042333333 0.88900006 1.116035e-38
-0.083820008 -0.0042333333 0.88900006 1.1618079e-38
-0.081941903 -0.0042238096 0.88700002 7.561471e-39
-0.080252379 -0.0042238096 0.88700002 6.3621991e-39
-0.082637146 -0.0044428571 0.93300003 7.0075685e-39
-0.080426671 -0.0044190479 0.92800003 7.0079497e-39
-0.078404762 -0.0044047623 0.92500007 8.2064929e-39
-0.076642863 -0.0044047623 0.92500007 7.9320612e-39
-0.074719049 -0.0043952381 0.92300004 8.8540175e-39
-0.07296095 -0.0043952381 0.92300004 8.5788725e-39
-0.070817143 -0.0043714289 0.91800004 9.3164376e-39
-0.068842858 -0.0043571433 0.91500002 9.5001254e-39
-0.067100003 -0.0043571433 0.91500002 9.3157341e-39
-0.065357141 -0.0043571433 0.91500002 9.2238888e-39
-0.063614286 -0.0043571433 0.91500002 9.3160844e-39
-0.061871432 -0.0043571433 0.91500002 9.5008288e-39
-0.060128573 -0.0043571433 0.91500002 9.6852201e-39
-0.058258098 -0.0043476191 0.91300005 9.6848697e-39
-0.056519046 -0.0043476191 0.91300005 9.869261e-39
-0.054780003 -0.0043476191 0.91300005 9.8699799e-39
-0.053040955 -0.0043476191 0.91300005 1.0054371e-38
-0.051133335 -0.0043333336 0.91000003 1.0238757e-38
-0.049400002 -0.0043333336 0.91000003 1.0238757e-38
-0.047666669 -0.0043333336 0.91000003 1.0146927e-38
-0.045933332 -0.0043333336 0.91000003 1.0146927e-38
-0.044199999 -0.0043333336 0.91000003 1.0146927e-38
-0.042466667 -0.0043333336 0.91000003 1.0239123e-38
-0.040733334 -0.0043333336 0.91000003 1.0146574e-38
-0.039000001 -0.0043333336 0.91000003 1.0146574e-38
-0.037266668 -0.0043333336 0.91000003 1.0146564e-38
-0.035533335 -0.0043333336 0.91000003 1.0054368e-38
-0.033800002 -0.0043333336 0.91000003 9.9618224e-39
-0.032066669 -0.0043333336 0.91000003 9.9618224e-39
-0.030433334 -0.0043476191 0.91300005 9.9614566e-39
-0.028694287 -0.0043476191 0.91300005 1.0145848e-38
-0.027014285 -0.0043571433 0.91500002 1.0604665e-38
-0.025354287 -0.0043714289 0.91800004 8.668557e-39
-0.023605715 -0.0043714289 0.91800004 8.1182503e-39
-0.021976192 -0.0043952381 0.92300004 6.7353158e-39
-0.020218095 -0.0043952381 0.92300004 5.535363e-39
-0.018460002 -0.0043952381 0.92300004 5.8119498e-39
-0.016738096 -0.0044047623 0.92500007 6.2693028e-39
-0.014976191 -0.0044047623 0.92500007 7.467846e-39
-0.013257143 -0.0044190479 0.92800003 7.9313129e-39
-0.011489524 -0.0044190479 0.92800003 7.8391172e-39
-0.0097742863 -0.0044428571 0.93300003 5.5349902e-39
-0.0080142869 -0.0044523813 0.93500006 3.598882e-39
-0.0062333336 -0.0044523813 0.93500006 5.6239334e-39
-0.0044523813 -0.0044523813 0.93500006 9.8649324e-39
-0.0026800002 -0.0044666668 0.93800002 1.106345e-38
-0.00089333334 -0.0044666668 0.93800002 1.1524429e-38
-0.10211334 -0.0025742857 0.90100002 1.1892492e-38
-0.10039714 -0.0025742857 0.90100002 1.2169079e-38
-0.098352388 -0.0025657145 0.89800006 1.0786876e-38
-0.096426666 -0.0025600002 0.89600003 7.9288116e-39
-0.094719999 -0.0025600002 0.89600003 7.6547582e-39
-0.093013331 -0.0025600002 0.89600003 9.1298883e-39
-0.091102861 -0.0025542858 0.89400005 8.8554594e-39
-0.089400001 -0.0025542858 0.89400005 9.5930244e-39
-0.087402858 -0.0025457144 0.89100003 9.5944594e-39
-0.085513338 -0.0025400002 0.88900006 1.0239829e-38
-0.083820008 -0.0025400002 0.88900006 1.1250018e-38
-0.081941903 -0.0025342857 0.88700002 7.1012145e-39
-0.080252379 -0.0025342857 0.88700002 6.0884667e-39
-0.082371436 -0.0026571429 0.93000007 6.7338361e-39
-0.080600001 -0.0026571429 0.93000007 6.7327991e-39
-0.07865905 -0.0026514288 0.92800003 7.9313423e-39
-0.076642863 -0.0026428571 0.92500007 7.9320612e-39
-0.074880958 -0.0026428571 0.92500007 8.7618218e-39
-0.07296095 -0.0026371428 0.92300004 8.5788725e-39
-0.070971429 -0.0026285714 0.92000002 9.1320463e-39
-0.069068573 -0.0026228572 0.91800004 9.2238888e-39
-0.067320004 -0.0026228572 0.91800004 9.2238888e-39
-0.065571435 -0.0026228572 0.91800004 9.4993897e-39
-0.063614286 -0.0026142858 0.91500002 9.6837809e-39
-0.061871432 -0.0026142858 0.91500002 9.5008288e-39
-0.060128573 -0.0026142858 0.91500002 9.5930244e-39
-0.058385715 -0.0026142858 0.91500002 9.594109e-39
-0.056519046 -0.0026085714 0.91300005 9.7785003e-39
-0.054780003 -0.0026085714 0.91300005 9.7777786e-39
-0.053040955 -0.0026085714 0.91300005 1.0054366e-38
-0.051301908 -0.0026085714 0.91300005 1.0055084e-38
-0.049400002 -0.0026 0.91000003 1.0239476e-38
-0.047666669 -0.0026 0.91000003 1.0239476e-38
-0.045933332 -0.0026 0.91000003 1.014728e-38
-0.044199999 -0.0026 0.91000003 1.0330952e-38
-0.042466667 -0.0026 0.91000003 1.0330952e-38
-0.040733334 -0.0026 0.91000003 1.0330955e-38
-0.039000001 -0.0026 0.91000003 1.023876e-38
-0.037266668 -0.0026 0.91000003 1.0055084e-38
-0.035650477 -0.0026085714 0.91300005 1.0055084e-38
-0.033800002 -0.0026 0.91000003 1.0054366e-38
-0.032066669 -0.0026 0.91000003 9.9621699e-39
-0.030433334 -0.0026085714 0.91300005 9.9621755e-39
-0.028694287 -0.0026085714 0.91300005 1.0146567e-38
-0.02710286 -0.0026228572 0.91800004 1.0237325e-38
-0.025354287 -0.0026228572 0.91800004 7.9324339e-39
-0.023657143 -0.0026285714 0.92000002 6.7353257e-39
-0.021976192 -0.0026371428 0.92300004 7.0119125e-39
-0.020218095 -0.0026371428 0.92300004 7.470367e-39
-0.018460002 -0.0026371428 0.92300004 6.9171932e-39
-0.016738096 -0.0026428571 0.92500007 6.0867094e-39
-0.014976191 -0.0026428571 0.92500007 8.1150133e-39
-0.013257143 -0.0026514288 0.92800003 8.3004779e-39
-0.011489524 -0.0026514288 0.92800003 6.4565654e-39
-0.0097952392 -0.0026714287 0.93500006 4.2424059e-39
-0.0080142869 -0.0026714287 0.93500006 3.965819e-39
-0.0062333336 -0.0026714287 0.93500006 5.8994413e-39
-0.0044523813 -0.0026714287 0.93500006 1.0509223e-38
-0.0026714287 -0.0026714287 0.93500006 1.0879069e-38
-0.10039714 -0.00085809524 0.90100002 1.2169432e-38
-0.098352388 -0.00085523812 0.89800006 1.0511008e-38
-0.096426666 -0.00085333333 0.89600003 7.7451392e-39
-0.094719999 -0.00085333333 0.89600003 7.6540646e-39
-0.092805721 -0.0008514286 0.89400005 9.1291946e-39
-0.091102861 -0.0008514286 0.89400005 8.7632638e-39
-0.089400001 -0.0008514286 0.89400005 9.5930244e-39
-0.087402858 -0.00084857148 0.89100003 9.685576e-39
-0.085513338 -0.00084666669 0.88900006 1.0423141e-38
-0.083631434 -0.0008447619 0.88700002 1.0696491e-38
-0.081941903 -0.0008447619 0.88700002 6.6398832e-39
-0.080252379 -0.0008447619 0.88700002 6.2710601e-39
-0.082371436 -0.00088571431 0.93000007 7.1930164e-39
-0.080600001 -0.00088571431 0.93000007 7.1923381e-39
-0.07865905 -0.00088380952 0.92800003 8.2064901e-39
-0.076642863 -0.00088095246 0.92500007 8.0238911e-39
-0.074880958 -0.00088095246 0.92500007 8.8536517e-39
-0.07296095 -0.00087904767 0.92300004 8.7618218e-39
-0.071202859 -0.00087904767 0.92300004 9.3149956e-39
-0.069219045 -0.00087619049 0.92000002 9.4071912e-39
-0.067466669 -0.00087619049 0.92000002 9.4071912e-39
-0.065571435 -0.00087428576 0.91800004 9.4993841e-39
-0.063822858 -0.00087428576 0.91800004 9.5915797e-39
-0.061871432 -0.00087142858 0.91500002 9.5912322e-39
-0.060128573 -0.00087142858 0.91500002 9.6834278e-39
-0.058385715 -0.00087142858 0.91500002 9.4082829e-39
-0.056519046 -0.00086952385 0.91300005 9.869261e-39
-0.054780003 -0.00086952385 0.91300005 9.8699743e-39
-0.053040955 -0.00086952385 0.91300005 9.8699743e-39
-0.051301908 -0.00086952385 0.91300005 1.0146917e-38
-0.04956286 -0.00086952385 0.91300005 1.0146917e-38
-0.047666669 -0.00086666667 0.91000003 1.0054731e-38
-0.045933332 -0.00086666667 0.91000003 1.0146927e-38
-0.044345718 -0.00086952385 0.91300005 1.0238757e-38
-0.042466667 -0.00086666667 0.91000003 1.0330952e-38
-0.040733334 -0.00086666667 0.91000003 1.0330952e-38
-0.039128575 -0.00086952385 0.91300005 1.0330952e-38
-0.037389524 -0.00086952385 0.91300005 1.0331308e-38
-0.035650477 -0.00086952385 0.91300005 1.0239113e-38
-0.033911429 -0.00086952385 0.91300005 1.0237678e-38
-0.032172382 -0.00086952385 0.91300005 1.0145482e-38
-0.030433334 -0.00086952385 0.91300005 9.9614566e-39
-0.028757144 -0.00087142858 0.91500002 1.0145848e-38
-0.02710286 -0.00087428576 0.91800004 1.0145135e-38
-0.025354287 -0.00087428576 0.91800004 7.7480483e-39
-0.023657143 -0.00087619049 0.92000002 7.1030418e-39
-0.021976192 -0.00087904767 0.92300004 7.5640199e-39
-0.020218095 -0.00087904767 0.92300004 7.5622095e-39
-0.018460002 -0.00087904767 0.92300004 7.2856226e-39
-0.016738096 -0.00088095246 0.92500007 6.3636817e-39
-0.014976191 -0.00088095246 0.92500007 7.9310074e-39
-0.013257143 -0.00088380952 0.92800003 8.0228022e-39
-0.011514287 -0.00088571431 0.93000007 5.0725421e-39
-0.0097952392 -0.00089047622 0.93500006 4.519692e-39
-0.0080142869 -0.00089047622 0.93500006 4.3353008e-39
-0.0062333336 -0.00089047622 0.93500006 6.3607698e-39
-0.0044523813 -0.00089047622 0.93500006 1.0693964e-38
-0.0026714287 -0.00089047622 0.93500006 1.1432586e-38
-0.10154667 0.00085333333 0.89600003 1.1708817e-38
-0.09984 0.00085333333 0.89600003 1.1985404e-38
-0.098133333 0.00085333333 0.89600003 1.0326617e-38
-0.096426666 0.00085333333 0.89600003 7.9295304e-39
-0.094719999 0.00085333333 0.89600003 7.3788902e-39
-0.092805721 0.0008514286 0.89400005 9.0384115e-39
-0.091102861 0.0008514286 0.89400005 8.7636197e-39
-0.089400001 0.0008514286 0.89400005 9.5011847e-39
-0.087402858 0.00084857148 0.89100003 9.6855704e-39
-0.085513338 0.00084666669 0.88900006 1.033094e-38
-0.083631434 0.0008447619 0.88700002 1.0052563e-38
-0.081941903 0.0008447619 0.88700002 6.6413252e-39
-0.080252379 0.0008447619 0.88700002 6.3625522e-39
-0.082637146 0.00088857143 0.93300003 7.1923129e-39
-0.080859996 0.00088857143 0.93300003 7.4681991e-39
-0.07865905 0.00088380952 0.92800003 8.2057642e-39
-0.07689143 0.00088380952 0.92800003 7.9316954e-39
-0.074880958 0.00088095246 0.92500007 8.7614561e-39
-0.073119059 0.00088095246 0.92500007 8.762175e-39
-0.071202859 0.00087904767 0.92300004 9.2231531e-39
-0.069219045 0.00087619049 0.92000002 9.3153487e-39
-0.067466669 0.00087619049 0.92000002 9.4075444e-39
-0.065714285 0.00087619049 0.92000002 9.4993869e-39
-0.063822858 0.00087428576 0.91800004 9.4993869e-39
-0.062074285 0.00087428576 0.91800004 9.5915853e-39
-0.060128573 0.00087142858 0.91500002 9.7759766e-39
-0.058385715 0.00087142858 0.91500002 9.3164376e-39
-0.05664286 0.00087142858 0.91500002 9.961807e-39
-0.054899998 0.00087142858 0.91500002 9.8703302e-39
-0.053157143 0.00087142858 0.91500002 9.9625258e-39
-0.051301908 0.00086952385 0.91300005 1.0054366e-38
-0.04956286 0.00086952385 0.91300005 1.0146561e-38
-0.047823813 0.00086952385 0.91300005 1.0146564e-38
-0.046084765 0.00086952385 0.91300005 1.023876e-38
-0.044345718 0.00086952385 0.91300005 1.0146927e-38
-0.04260667 0.00086952385 0.91300005 1.0239123e-38
-0.040867623 0.00086952385 0.91300005 1.0422432e-38
-0.039128575 0.00086952385 0.91300005 1.0422432e-38
-0.037389524 0.00086952385 0.91300005 1.0238757e-38
-0.035650477 0.00086952385 0.91300005 1.0146561e-38
-0.033911429 0.00086952385 0.91300005 1.0237681e-38
-0.032172382 0.00086952385 0.91300005 1.0237681e-38
-0.0305 0.00087142858 0.91500002 9.8699799e-39
-0.028757144 0.00087142858 0.91500002 9.8699799e-39
-0.02710286 0.00087428576 0.91800004 9.9621755e-39
-0.025354287 0.00087428576 0.91800004 8.5792411e-39
-0.023657143 0.00087619049 0.92000002 8.2079418e-39
-0.021976192 0.00087904767 0.92300004 7.7469637e-39
-0.020218095 0.00087904767 0.92300004 7.6544051e-39
-0.018460002 0.00087904767 0.92300004 7.2856226e-39
-0.016738096 0.00088095246 0.92500007 6.5480379e-39
-0.014976191 0.00088095246 0.92500007 7.1934073e-39
-0.013257143 0.00088380952 0.92800003 7.1919626e-39
-0.011514287 0.00088571431 0.93000007 5.7168325e-39
-0.0097952392 0.00089047622 0.93500006 5.8082995e-39
-0.0080142869 0.00089047622 0.93500006 5.2551257e-39
-0.0062333336 0.00089047622 0.93500006 7.1897948e-39
-0.0044523813 0.00089047622 0.93500006 1.1338598e-38
-0.0026714287 0.00089047622 0.93500006 1.1524426e-38
-0.10154667 0.0025600002 0.89600003 1.1616977e-38
-0.09984 0.0025600002 0.89600003 1.198576e-38
-0.098133333 0.0025600002 0.89600003 1.1064885e-38
-0.096426666 0.0025600002 0.89600003 8.391212e-39
-0.094719999 0.0025600002 0.89600003 7.5625724e-39
-0.092805721 0.0025542858 0.89400005 9.0377025e-39
-0.091102861 0.0025542858 0.89400005 9.0384087e-39
-0.089400001 0.0025542858 0.89400005 9.6837781e-39
-0.087402858 0.0025457144 0.89100003 9.9607182e-39
-0.085513338 0.0025400002 0.88900006 1.0606088e-38
-0.083631434 0.0025342857 0.88700002 1.0511384e-38
-0.081941903 0.0025342857 0.88700002 7.2845366e-39
-0.084595241 0.0026714287 0.93500006 6.6391391e-39
-0.082637146 0.0026657144 0.93300003 7.1923129e-39
-0.080859996 0.0026657144 0.93300003 7.2838079e-39
-0.078828573 0.0026571429 0.93000007 8.2057642e-39
-0.077057146 0.0026571429 0.93000007 7.9316954e-39
-0.075123817 0.0026514288 0.92800003 8.7614561e-39
-0.073119059 0.0026428571 0.92500007 8.762175e-39
-0.071202859 0.0026371428 0.92300004 8.9465662e-39
-0.069444761 0.0026371428 0.92300004 9.2228e-39
-0.067466669 0.0026285714 0.92000002 9.3149956e-39
-0.065714285 0.0026285714 0.92000002 9.3149984e-39
-0.063961908 0.0026285714 0.92000002 9.3149984e-39
-0.062074285 0.0026228572 0.91800004 9.2238888e-39
-0.060325716 0.0026228572 0.91800004 9.9614538e-39
-0.058385715 0.0026142858 0.91500002 9.6852201e-39
-0.05664286 0.0026142858 0.91500002 9.7774157e-39
-0.054899998 0.0026142858 0.91500002 9.961807e-39
-0.053157143 0.0026142858 0.91500002 9.961807e-39
-0.051414285 0.0026142858 0.91500002 9.9621755e-39
-0.04956286 0.0026085714 0.91300005 1.0238762e-38
-0.047823813 0.0026085714 0.91300005 1.0238409e-38
-0.046084765 0.0026085714 0.91300005 1.0146214e-38
-0.044345718 0.0026085714 0.91300005 1.023876e-38
-0.04260667 0.0026085714 0.91300005 1.023876e-38
-0.040867623 0.0026085714 0.91300005 1.0238409e-38
-0.039128575 0.0026085714 0.91300005 1.0238409e-38
-0.037389524 0.0026085714 0.91300005 1.0329873e-38
-0.03572857 0.0026142858 0.91500002 1.0237678e-38
-0.033985715 0.0026142858 0.91500002 1.0053299e-38
-0.032242857 0.0026142858 0.91500002 1.0053299e-38
-0.0305 0.0026142858 0.91500002 9.8696267e-39
-0.028757144 0.0026142858 0.91500002 9.8696267e-39
-0.02710286 0.0026228572 0.91800004 1.0054366e-38
-0.025409523 0.0026285714 0.92000002 9.8699743e-39
-0.023657143 0.0026285714 0.92000002 8.3945065e-39
-0.021976192 0.0026371428 0.92300004 7.6569414e-39
-0.020218095 0.0026371428 0.92300004 8.3923331e-39
-0.018460002 0.0026371428 0.92300004 8.3923331e-39
-0.016738096 0.0026428571 0.92500007 7.652966e-39
-0.015024763 0.0026514288 0.92800003 8.390531e-39
-0.013285715 0.0026571429 0.93000007 8.4837804e-39
-0.01155143 0.0026657144 0.93300003 8.3915848e-39
-0.0097952392 0.0026714287 0.93500006 8.3915876e-39
-0.0080142869 0.0026714287 0.93500006 7.7462182e-39
