# .PCD v0.7 - Point Cloud Data file format
VERSION 0.7
FIELDS x y z rgb
SIZE 4 4 4 4
TYPE F F F F
COUNT 1 1 1 1
WIDTH 969
HEIGHT 1
VIEWPOINT 0 0 0 1 0 0 0
POINTS 969
DATA ascii
-0.040071432 0.024042858 0.93500006 1.4935682e-38
-0.022833334 0.024660001 0.95900005 1.2353836e-38
-0.021006668 0.024660001 0.95900005 1.134329e-38
-0.01912 0.024582857 0.95600003 1.1619877e-38
-0.017262857 0.02453143 0.95400006 1.1804653e-38
-0.015397143 0.024454286 0.95100003 1.2542218e-38
-0.013585715 0.024454286 0.95100003 1.346095e-38
-0.011774287 0.024454286 0.95100003 1.5397058e-38
-0.0099628577 0.024454286 0.95100003 1.5212269e-38
-0.13090001 0.025823811 0.93500006 1.521155e-38
-0.12884286 0.025768572 0.93300003 1.2537877e-38
-0.12665714 0.025685715 0.93000007 1.0603223e-38
-0.12461715 0.025630476 0.92800003 9.4968757e-39
-0.12245239 0.025547622 0.92500007 1.0050403e-38
-0.12042952 0.025492381 0.92300004 9.0362507e-39
-0.11867143 0.025492381 0.92300004 8.8504147e-39
-0.11691333 0.025492381 0.92300004 9.4957841e-39
-0.11478096 0.025409523 0.92000002 9.5865476e-39
-0.11302857 0.025409523 0.92000002 1.0508504e-38
-0.11103429 0.025354287 0.91800004 1.0974485e-38
-0.10928572 0.025354287 0.91800004 1.1804245e-38
-0.10718572 0.025271429 0.91500002 1.1344732e-38
-0.10544286 0.025271429 0.91500002 1.1344732e-38
-0.1037 0.025271429 0.91500002 1.1619521e-38
-0.10173429 0.025216192 0.91300005 1.226489e-38
-0.099995241 0.025216192 0.91300005 1.2541129e-38
-0.098256193 0.025216192 0.91300005 8.9454998e-39
-0.096517146 0.025216192 0.91300005 5.2645116e-39
-0.094466671 0.025133334 0.91000003 4.5269465e-39
-0.092733338 0.025133334 0.91000003 7.7490768e-39
-0.091000006 0.025133334 0.91000003 1.3004228e-38
-0.089266665 0.025133334 0.91000003 1.291172e-38
-0.087533332 0.025133334 0.91000003 1.2450741e-38
-0.0858 0.025133334 0.91000003 1.2175234e-38
-0.084066667 0.025133334 0.91000003 1.2083038e-38
-0.082333334 0.025133334 0.91000003 1.2174515e-38
-0.080600001 0.025133334 0.91000003 1.2358906e-38
-0.078866668 0.025133334 0.91000003 1.2452171e-38
-0.077387623 0.025216192 0.91300005 1.2359975e-38
-0.075648576 0.025216192 0.91300005 1.2543628e-38
-0.073909529 0.025216192 0.91300005 1.2635824e-38
-0.072170481 0.025216192 0.91300005 1.2267063e-38
-0.07058572 0.025271429 0.91500002 1.2174868e-38
-0.068842858 0.025271429 0.91500002 1.1899e-38
-0.067100003 0.025271429 0.91500002 1.1899e-38
-0.065357141 0.025271429 0.91500002 1.1805732e-38
-0.063614286 0.025271429 0.91500002 1.1805732e-38
-0.062074285 0.025354287 0.91800004 1.171389e-38
-0.060325716 0.025354287 0.91800004 1.171389e-38
-0.05870476 0.025409523 0.92000002 1.1621694e-38
-0.05695238 0.025409523 0.92000002 1.171389e-38
-0.055380002 0.025492381 0.92300004 1.1436224e-38
-0.053738099 0.025547622 0.92500007 1.1251833e-38
-0.051976193 0.025547622 0.92500007 1.1067441e-38
-0.050377145 0.025630476 0.92800003 1.088305e-38
-0.048714291 0.025685715 0.93000007 1.0698656e-38
-0.047094285 0.025768572 0.93300003 1.0145482e-38
-0.045414288 0.025823811 0.93500006 9.7759766e-39
-0.043633334 0.025823811 0.93500006 1.244965e-38
-0.041852385 0.025823811 0.93500006 1.419848e-38
-0.040071432 0.025823811 0.93500006 1.484385e-38
-0.022761906 0.026403811 0.95600003 1.152516e-38
-0.020940954 0.026403811 0.95600003 9.8699743e-39
-0.01908 0.026348574 0.95400006 1.1529496e-38
-0.017208571 0.026265714 0.95100003 1.2081227e-38
-0.015397143 0.026265714 0.95100003 1.3464162e-38
-0.013585715 0.026265714 0.95100003 1.4566912e-38
-0.011774287 0.026265714 0.95100003 1.5120086e-38
-0.0099628577 0.026265714 0.95100003 1.5027878e-38
-0.13090001 0.027604764 0.93500006 1.4751291e-38
-0.12884286 0.027545715 0.93300003 1.3183965e-38
-0.12706572 0.027545715 0.93300003 1.1157839e-38
-0.12461715 0.027398096 0.92800003 9.1295352e-39
-0.12245239 0.027309526 0.92500007 9.3146299e-39
-0.12069048 0.027309526 0.92500007 9.9599993e-39
-0.11892857 0.027309526 0.92500007 1.0602485e-38
-0.11691333 0.027250476 0.92300004 9.4961373e-39
-0.11515524 0.027250476 0.92300004 8.0210478e-39
-0.11302857 0.027161906 0.92000002 5.5317658e-39
-0.11127619 0.027161906 0.92000002 5.7233191e-39
-0.10928572 0.02710286 0.91800004 1.0609687e-38
-0.10753714 0.02710286 0.91800004 1.2264167e-38
-0.10544286 0.027014285 0.91500002 1.1895384e-38
-0.1037 0.027014285 0.91500002 1.1711716e-38
-0.10195714 0.027014285 0.91500002 1.2449281e-38
-0.099995241 0.026955239 0.91300005 1.2725521e-38
-0.098256193 0.026955239 0.91300005 8.7611086e-39
-0.096517146 0.026955239 0.91300005 4.1553124e-39
-0.094778098 0.026955239 0.91300005 3.2333561e-39
-0.093039051 0.026955239 0.91300005 4.4297216e-39
-0.091000006 0.026866667 0.91000003 1.0514633e-38
-0.089266665 0.026866667 0.91000003 1.3093224e-38
-0.087821908 0.026955239 0.91300005 1.3738594e-38
-0.086082861 0.026955239 0.91300005 1.2818792e-38
-0.084343813 0.026955239 0.91300005 1.2818792e-38
-0.082604766 0.026955239 0.91300005 1.254366e-38
-0.080865718 0.026955239 0.91300005 1.0515356e-38
-0.079126671 0.026955239 0.91300005 8.1204405e-39
-0.077387623 0.026955239 0.91300005 7.751658e-39
-0.075648576 0.026955239 0.91300005 9.1309575e-39
-0.073909529 0.026955239 0.91300005 1.2357805e-38
-0.072328568 0.027014285 0.91500002 1.3370534e-38
-0.07058572 0.027014285 0.91500002 1.3093947e-38
-0.068842858 0.027014285 0.91500002 1.2451455e-38
-0.067100003 0.027014285 0.91500002 1.2082672e-38
-0.065357141 0.027014285 0.91500002 1.1806085e-38
-0.063822858 0.02710286 0.91800004 1.171389e-38
-0.062074285 0.02710286 0.91800004 1.171389e-38
-0.06045714 0.027161906 0.92000002 1.171389e-38
-0.05870476 0.027161906 0.92000002 1.1621691e-38
-0.057138097 0.027250476 0.92300004 1.1621691e-38
-0.055380002 0.027250476 0.92300004 1.1436224e-38
-0.053738099 0.027309526 0.92500007 1.1159637e-38
-0.052144762 0.027398096 0.92800003 1.079122e-38
-0.050485715 0.027457144 0.93000007 1.0699024e-38
-0.048871431 0.027545715 0.93300003 1.0698656e-38
-0.047094285 0.027545715 0.93300003 1.0145482e-38
-0.045414288 0.027604764 0.93500006 1.0052208e-38
-0.043633334 0.027604764 0.93500006 1.2633685e-38
-0.041762859 0.027545715 0.93300003 1.465909e-38
-0.039985713 0.027545715 0.93300003 1.5027872e-38
-0.024582857 0.028224763 0.95600003 1.0973804e-38
-0.022761906 0.028224763 0.95600003 1.1158195e-38
-0.020897144 0.028165715 0.95400006 1.1252211e-38
-0.01902 0.028077144 0.95100003 1.2266363e-38
-0.017208571 0.028077144 0.95100003 1.2909909e-38
-0.015348572 0.027988574 0.94800007 1.4661626e-38
-0.013542858 0.027988574 0.94800007 1.521155e-38
-0.011774287 0.028077144 0.95100003 1.5027159e-38
-0.13132 0.029480001 0.93800002 1.4566544e-38
-0.12911905 0.029385716 0.93500006 1.401337e-38
-0.12706572 0.029322859 0.93300003 1.1712448e-38
-0.12488572 0.029228574 0.93000007 8.9465788e-39
-0.12284952 0.029165715 0.92800003 8.762175e-39
-0.12069048 0.02907143 0.92500007 9.4075444e-39
-0.11892857 0.02907143 0.92500007 1.0602144e-38
-0.11716668 0.02907143 0.92500007 9.8645793e-39
-0.11515524 0.029008573 0.92300004 7.8387991e-39
-0.11339714 0.029008573 0.92300004 2.3070614e-39
-0.11127619 0.028914286 0.92000002 2.3120304e-39
-0.10952381 0.028914286 0.92000002 1.0886216e-38
-0.10753714 0.028851429 0.91800004 1.2816274e-38
-0.10578857 0.028851429 0.91800004 1.2078709e-38
-0.10404 0.028851429 0.91800004 1.1988659e-38
-0.10195714 0.028757144 0.91500002 1.2634028e-38
-0.099995241 0.028694287 0.91300005 1.3000666e-38
-0.098256193 0.028694287 0.91300005 6.178189e-39
-0.096517146 0.028694287 0.91300005 6.815585e-39
-0.094778098 0.028694287 0.91300005 7.7375413e-39
-0.093039051 0.028694287 0.91300005 4.6154778e-39
-0.091300003 0.028694287 0.91300005 8.7642811e-39
-0.089560956 0.028694287 0.91300005 1.0055062e-38
-0.087821908 0.028694287 0.91300005 1.1714583e-38
-0.086082861 0.028694287 0.91300005 1.3553837e-38
-0.084343813 0.028694287 0.91300005 1.3646032e-38
-0.082604766 0.028694287 0.91300005 1.2727348e-38
-0.080865718 0.028694287 0.91300005 9.5005009e-39
-0.079126671 0.028694287 0.91300005 7.9352912e-39
-0.077387623 0.028694287 0.91300005 7.9352912e-39
-0.075648576 0.028694287 0.91300005 8.3915595e-39
-0.073909529 0.028694287 0.91300005 1.2079385e-38
-0.072328568 0.028757144 0.91500002 1.3278339e-38
-0.07058572 0.028757144 0.91500002 1.2725165e-38
-0.068842858 0.028757144 0.91500002 1.2083376e-38
-0.067100003 0.028757144 0.91500002 1.2083376e-38
-0.065357141 0.028757144 0.91500002 1.1714255e-38
-0.063822858 0.028851429 0.91800004 1.162206e-38
-0.062209524 0.028914286 0.92000002 1.1713887e-38
-0.06045714 0.028914286 0.92000002 1.1713887e-38
-0.058896191 0.029008573 0.92300004 1.1529496e-38
-0.057138097 0.029008573 0.92300004 1.1529496e-38
-0.055380002 0.029008573 0.92300004 1.1252909e-38
-0.053738099 0.02907143 0.92500007 1.1068517e-38
-0.052144762 0.029165715 0.92800003 1.0607192e-38
-0.050485715 0.029228574 0.93000007 1.0514996e-38
-0.048871431 0.029322859 0.93300003 1.0606463e-38
-0.047094285 0.029322859 0.93300003 1.0145485e-38
-0.045414288 0.029385716 0.93500006 1.0052208e-38
-0.043633334 0.029385716 0.93500006 1.2818076e-38
-0.041762859 0.029322859 0.93300003 1.4658379e-38
-0.039985713 0.029322859 0.93300003 1.4934966e-38
-0.03820857 0.029322859 0.93300003 1.4750559e-38
-0.024582857 0.030045714 0.95600003 1.0972006e-38
-0.022761906 0.030045714 0.95600003 1.2170549e-38
-0.020897144 0.029982859 0.95400006 1.1897928e-38
-0.01902 0.029888572 0.95100003 1.226671e-38
-0.017154286 0.029794287 0.94800007 1.3095733e-38
-0.015348572 0.029794287 0.94800007 1.4570863e-38
-0.013542858 0.029794287 0.94800007 1.521155e-38
-0.011737144 0.029794287 0.94800007 1.5119355e-38
-0.12884286 0.031100003 0.93300003 1.4658379e-38
-0.12706572 0.031100003 0.93300003 1.2909527e-38
-0.12488572 0.031000003 0.93000007 9.1295057e-39
-0.12284952 0.030933332 0.92800003 8.3930267e-39
-0.12069048 0.030833337 0.92500007 7.1022879e-39
-0.11892857 0.030833337 0.92500007 7.7455147e-39
-0.11716668 0.030833337 0.92500007 8.4830797e-39
-0.11515524 0.030766666 0.92300004 7.5625724e-39
-0.11339714 0.030766666 0.92300004 1.938639e-39
-0.11163905 0.030766666 0.92300004 1.2075003e-39
-0.10952381 0.030666668 0.92000002 9.9660851e-39
-0.10777143 0.030666668 0.92000002 1.2079425e-38
-0.10578857 0.0306 0.91800004 1.134186e-38
-0.10404 0.0306 0.91800004 1.1987565e-38
-0.10195714 0.0305 0.91500002 1.272513e-38
-0.10021429 0.0305 0.91500002 1.2080817e-38
-0.098256193 0.030433334 0.91300005 2.2158901e-39
-0.096517146 0.030433334 0.91300005 3.783618e-39
-0.094778098 0.030433334 0.91300005 8.0246169e-39
-0.093039051 0.030433334 0.91300005 8.0231526e-39
-0.091300003 0.030433334 0.91300005 7.1933919e-39
-0.089560956 0.030433334 0.91300005 9.317738e-39
-0.087821908 0.030433334 0.91300005 1.033189e-38
-0.086082861 0.030433334 0.91300005 1.2264164e-38
-0.084343813 0.030433334 0.91300005 1.4753446e-38
-0.082604766 0.030433334 0.91300005 1.3739329e-38
-0.080865718 0.030433334 0.91300005 1.0328091e-38
-0.079126671 0.030433334 0.91300005 8.4884649e-39
-0.077387623 0.030433334 0.91300005 8.6728562e-39
-0.075648576 0.030433334 0.91300005 8.3933924e-39
-0.073909529 0.030433334 0.91300005 8.8543706e-39
-0.072328568 0.0305 0.91500002 8.8533112e-39
-0.07058572 0.0305 0.91500002 7.9313549e-39
-0.068842858 0.0305 0.91500002 7.3825154e-39
-0.067320004 0.0306 0.91800004 1.1162536e-38
-0.065571435 0.0306 0.91800004 1.2082319e-38
-0.063961908 0.030666668 0.92000002 1.1805732e-38
-0.062209524 0.030666668 0.92000002 1.1714243e-38
-0.06065429 0.030766666 0.92300004 1.1622047e-38
-0.058896191 0.030766666 0.92300004 1.1805357e-38
-0.057138097 0.030766666 0.92300004 1.1620965e-38
-0.055500004 0.030833337 0.92500007 1.1620968e-38
-0.053738099 0.030833337 0.92500007 1.1252186e-38
-0.052144762 0.030933332 0.92800003 1.079122e-38
-0.050485715 0.031000003 0.93000007 1.0606829e-38
-0.048871431 0.031100003 0.93300003 1.0606463e-38
-0.047094285 0.031100003 0.93300003 1.0237681e-38
-0.045414288 0.031166669 0.93500006 1.0144403e-38
-0.043633334 0.031166669 0.93500006 1.2910272e-38
-0.041852385 0.031166669 0.93500006 1.4566181e-38
-0.040071432 0.031166669 0.93500006 1.4750572e-38
-0.038290478 0.031166669 0.93500006 1.4658011e-38
-0.024582857 0.03186667 0.95600003 1.0975271e-38
-0.022761906 0.03186667 0.95600003 1.2358205e-38
-0.020940954 0.03186667 0.95600003 1.2726963e-38
-0.01902 0.0317 0.95100003 1.383331e-38
-0.017154286 0.031600002 0.94800007 1.4568342e-38
-0.015348572 0.031600002 0.94800007 1.4660537e-38
-0.013542858 0.031600002 0.94800007 1.4843131e-38
-0.12884286 0.032877143 0.93300003 1.5118989e-38
-0.12706572 0.032877143 0.93300003 1.3368366e-38
-0.12488572 0.032771431 0.93000007 9.5883455e-39
-0.12311429 0.032771431 0.93000007 8.7596638e-39
-0.1210819 0.032700956 0.92800003 7.6533163e-39
-0.11931429 0.032700956 0.92800003 6.4547633e-39
-0.11716668 0.03259524 0.92500007 6.8235458e-39
-0.11540477 0.03259524 0.92500007 6.8257234e-39
-0.11339714 0.032524761 0.92300004 3.5066807e-39
-0.11163905 0.032524761 0.92300004 3.8686193e-39
-0.10988096 0.032524761 0.92300004 1.0045727e-38
-0.10777143 0.032419048 0.92000002 1.0237655e-38
-0.10601905 0.032419048 0.92000002 9.6844816e-39
-0.10404 0.032348573 0.91800004 9.408245e-39
-0.10229144 0.032348573 0.91800004 9.9614188e-39
-0.10021429 0.032242857 0.91500002 8.4884818e-39
-0.098256193 0.032172382 0.91300005 3.0489396e-39
-0.096517146 0.032172382 0.91300005 4.1538382e-39
-0.094778098 0.032172382 0.91300005 7.7494678e-39
-0.093039051 0.032172382 0.91300005 8.4837832e-39
-0.091300003 0.032172382 0.91300005 9.4057395e-39
-0.089560956 0.032172382 0.91300005 9.3139418e-39
-0.087821908 0.032172382 0.91300005 9.4061375e-39
-0.086082861 0.032172382 0.91300005 9.5937307e-39
-0.084343813 0.032172382 0.91300005 1.2820578e-38
-0.082604766 0.032172382 0.91300005 1.3371616e-38
-0.081042856 0.032242857 0.91500002 1.0697943e-38
-0.079300001 0.032242857 0.91500002 9.3149956e-39
-0.077557147 0.032242857 0.91500002 7.1944961e-39
-0.075814284 0.032242857 0.91500002 5.8126309e-39
-0.07407143 0.032242857 0.91500002 8.4863041e-39
-0.072328568 0.032242857 0.91500002 8.5785222e-39
-0.07058572 0.032242857 0.91500002 8.0253484e-39
-0.068842858 0.032242857 0.91500002 7.7480048e-39
-0.067320004 0.032348573 0.91800004 1.1251439e-38
-0.065571435 0.032348573 0.91800004 1.235783e-38
-0.063961908 0.032419048 0.92000002 1.1989047e-38
-0.062209524 0.032419048 0.92000002 1.1529852e-38
-0.06065429 0.032524761 0.92300004 1.1437656e-38
-0.058896191 0.032524761 0.92300004 1.1620968e-38
-0.057261907 0.03259524 0.92500007 1.1620968e-38
-0.055500004 0.03259524 0.92500007 1.1436224e-38
-0.053738099 0.03259524 0.92500007 1.1251833e-38
-0.052257147 0.032771431 0.93000007 1.0883416e-38
-0.05064857 0.032877143 0.93300003 1.0699024e-38
-0.048871431 0.032877143 0.93300003 1.0973448e-38
-0.047195241 0.032947619 0.93500006 1.0420274e-38
-0.045414288 0.032947619 0.93500006 1.0051845e-38
-0.043633334 0.032947619 0.93500006 1.3278692e-38
-0.041852385 0.032947619 0.93500006 1.4658379e-38
-0.040071432 0.032947619 0.93500006 1.4750575e-38
-0.038290478 0.032947619 0.93500006 1.4658011e-38
-0.026486667 0.033793334 0.95900005 1.0884139e-38
-0.024660001 0.033793334 0.95900005 1.1529514e-38
-0.022833334 0.033793334 0.95900005 1.2082688e-38
-0.021006668 0.033793334 0.95900005 1.2818792e-38
-0.12706572 0.034654286 0.93300003 1.4383575e-38
-0.12528858 0.034654286 0.93300003 1.0142576e-38
-0.12311429 0.034542862 0.93000007 8.3012318e-39
-0.12134287 0.034542862 0.93000007 7.7480581e-39
-0.11957144 0.034542862 0.93000007 5.8126533e-39
-0.11754667 0.034468573 0.92800003 5.9970446e-39
-0.11540477 0.034357145 0.92500007 8.1150007e-39
-0.11364286 0.034357145 0.92500007 8.7603701e-39
-0.11163905 0.034282859 0.92300004 7.285275e-39
-0.10988096 0.034282859 0.92300004 4.6116018e-39
-0.10812286 0.034282859 0.92300004 7.102641e-39
-0.10601905 0.034171429 0.92000002 8.4855755e-39
-0.10426667 0.034171429 0.92000002 8.3004457e-39
-0.10229144 0.034097143 0.91800004 7.9316632e-39
-0.10054287 0.034097143 0.91800004 9.5915671e-39
-0.098471433 0.033985715 0.91500002 8.3930239e-39
-0.096728571 0.033985715 0.91500002 8.2082977e-39
-0.094985716 0.033985715 0.91500002 8.2082977e-39
-0.093242854 0.033985715 0.91500002 8.6663892e-39
-0.091300003 0.033911429 0.91300005 1.392154e-38
-0.089560956 0.033911429 0.91300005 1.3829698e-38
-0.087821908 0.033911429 0.91300005 9.3121117e-39
-0.086082861 0.033911429 0.91300005 8.116437e-39
-0.084528573 0.033985715 0.91500002 9.0383933e-39
-0.082785718 0.033985715 0.91500002 9.3146299e-39
-0.081042856 0.033985715 0.91500002 9.4068255e-39
-0.079300001 0.033985715 0.91500002 8.21009e-39
-0.077557147 0.033985715 0.91500002 3.4159172e-39
-0.075814284 0.033985715 0.91500002 4.9875646e-39
-0.07407143 0.033985715 0.91500002 8.7675854e-39
-0.072328568 0.033985715 0.91500002 1.0144043e-38
-0.07058572 0.033985715 0.91500002 1.1526977e-38
-0.069068573 0.034097143 0.91800004 9.4983205e-39
-0.067320004 0.034097143 0.91800004 1.0420277e-38
-0.065714285 0.034171429 0.92000002 1.2265616e-38
-0.063961908 0.034171429 0.92000002 1.2265616e-38
-0.062412385 0.034282859 0.92300004 1.0792647e-38
-0.06065429 0.034282859 0.92300004 9.962886e-39
-0.059023816 0.034357145 0.92500007 1.0330252e-38
-0.057261907 0.034357145 0.92500007 1.1252208e-38
-0.055500004 0.034357145 0.92500007 1.1436577e-38
-0.053912383 0.034468573 0.92800003 1.1067794e-38
-0.052425716 0.034654286 0.93300003 1.1066722e-38
-0.05064857 0.034654286 0.93300003 1.0882331e-38
-0.048976194 0.034728575 0.93500006 1.0514267e-38
-0.047195241 0.034728575 0.93500006 1.0053289e-38
-0.045560002 0.034839999 0.93800002 1.0511381e-38
-0.043773334 0.034839999 0.93800002 1.3922619e-38
-0.041986667 0.034839999 0.93800002 1.4658023e-38
-0.040200002 0.034839999 0.93800002 1.4565828e-38
-0.038413331 0.034839999 0.93800002 1.4658364e-38
-0.030234287 0.035731431 0.96200007 1.1803208e-38
-0.028313335 0.03562 0.95900005 1.18043e-38
-0.026486667 0.03562 0.95900005 1.2357474e-38
-0.024660001 0.03562 0.95900005 1.2542221e-38
-0.022833334 0.03562 0.95900005 1.3648569e-38
-0.021006668 0.03562 0.95900005 1.4199559e-38
-0.12706572 0.036431432 0.93300003 1.4199206e-38
-0.12528858 0.036431432 0.93300003 1.032699e-38
-0.12311429 0.036314286 0.93000007 9.4986708e-39
-0.12134287 0.036314286 0.93000007 8.1157364e-39
-0.11957144 0.036314286 0.93000007 8.2979598e-39
-0.11754667 0.036236189 0.92800003 8.758938e-39
-0.11540477 0.036119051 0.92500007 9.5879952e-39
-0.11364286 0.036119051 0.92500007 9.8645821e-39
-0.11163905 0.036040954 0.92300004 9.2213833e-39
-0.10988096 0.036040954 0.92300004 7.9306445e-39
-0.10812286 0.036040954 0.92300004 5.2637605e-39
-0.10601905 0.035923809 0.92000002 7.2920643e-39
-0.10426667 0.035923809 0.92000002 9.2206168e-39
-0.10251428 0.035923809 0.92000002 9.3128124e-39
-0.10054287 0.035845716 0.91800004 1.1708848e-38
-0.098471433 0.03572857 0.91500002 9.2195658e-39
-0.096728571 0.03572857 0.91500002 8.115386e-39
-0.094985716 0.03572857 0.91500002 7.377821e-39
-0.093242854 0.03572857 0.91500002 7.1037424e-39
-0.091500007 0.03572857 0.91500002 1.3004263e-38
-0.089757144 0.03572857 0.91500002 1.3645714e-38
-0.088014282 0.03572857 0.91500002 9.1281283e-39
-0.086271428 0.03572857 0.91500002 7.3795754e-39
-0.084528573 0.03572857 0.91500002 9.1312924e-39
-0.082785718 0.03572857 0.91500002 9.3146327e-39
-0.081042856 0.03572857 0.91500002 8.5770676e-39
-0.079300001 0.03572857 0.91500002 6.6452726e-39
-0.077557147 0.03572857 0.91500002 3.3262299e-39
-0.075814284 0.03572857 0.91500002 7.0090034e-39
-0.07407143 0.03572857 0.91500002 1.0143655e-38
-0.072565712 0.035845716 0.91800004 9.7756234e-39
-0.070817143 0.035845716 0.91800004 1.0328797e-38
-0.069068573 0.035845716 0.91800004 9.8678191e-39
-0.067466669 0.035923809 0.92000002 1.0605384e-38
-0.065714285 0.035923809 0.92000002 1.2081225e-38
-0.06417048 0.036040954 0.92300004 1.1620246e-38
-0.062412385 0.036040954 0.92300004 9.5966272e-39
-0.06065429 0.036040954 0.92300004 9.3200403e-39
-0.059023816 0.036119051 0.92500007 9.962886e-39
-0.057261907 0.036119051 0.92500007 1.1161429e-38
-0.055500004 0.036119051 0.92500007 1.1343675e-38
-0.053912383 0.036236189 0.92800003 1.1159284e-38
-0.052425716 0.036431432 0.93300003 1.1066722e-38
-0.050757144 0.036509525 0.93500006 1.0882331e-38
-0.048976194 0.036509525 0.93500006 1.0698659e-38
-0.047346666 0.036626667 0.93800002 1.0145485e-38
-0.045657143 0.036704764 0.94000006 1.0695775e-38
-0.043866668 0.036704764 0.94000006 1.4199209e-38
-0.042076193 0.036704764 0.94000006 1.4750222e-38
-0.040285718 0.036704764 0.94000006 1.4565831e-38
-0.038495239 0.036704764 0.94000006 1.4566544e-38
-0.037563812 0.037563812 0.96200007 1.4658739e-38
-0.03562 0.037446667 0.95900005 1.4105931e-38
-0.033793334 0.037446667 0.95900005 1.2077628e-38
-0.031966668 0.037446667 0.95900005 1.1158195e-38
-0.030140001 0.037446667 0.95900005 1.2080151e-38
-0.028313335 0.037446667 0.95900005 1.1988331e-38
-0.026486667 0.037446667 0.95900005 1.2172722e-38
-0.024660001 0.037446667 0.95900005 1.2633325e-38
-0.022833334 0.037446667 0.95900005 1.4292846e-38
-0.021006668 0.037446667 0.95900005 1.4843487e-38
-0.12706572 0.03820857 0.93300003 1.4474348e-38
-0.12528858 0.03820857 0.93300003 1.2077262e-38
-0.12351143 0.03820857 0.93300003 9.5915853e-39
-0.12134287 0.038085714 0.93000007 9.5915853e-39
-0.11957144 0.038085714 0.93000007 1.0052561e-38
-0.1178 0.038085714 0.93000007 1.0605734e-38
-0.11577905 0.038003813 0.92800003 1.0788321e-38
-0.11364286 0.037880953 0.92500007 9.4053864e-39
-0.11188096 0.037880953 0.92500007 9.2220937e-39
-0.10988096 0.037799049 0.92300004 9.0377025e-39
-0.10812286 0.037799049 0.92300004 8.6681324e-39
-0.10636476 0.037799049 0.92300004 5.9944592e-39
-0.10460667 0.037799049 0.92300004 7.5596759e-39
-0.10251428 0.037676193 0.92000002 8.8504147e-39
-0.10076191 0.037676193 0.92000002 8.5741964e-39
-0.099009521 0.037676193 0.92000002 8.2054139e-39
-0.097257145 0.037676193 0.92000002 7.4696733e-39
-0.095297143 0.037594289 0.91800004 5.9945432e-39
-0.093548574 0.037594289 0.91800004 7.1037424e-39
-0.091800004 0.037594289 0.91800004 1.2451089e-38
-0.090051427 0.037594289 0.91800004 1.2726597e-38
-0.088014282 0.037471429 0.91500002 8.7621848e-39
-0.086271428 0.037471429 0.91500002 7.5622221e-39
-0.08480572 0.037594289 0.91800004 9.8671128e-39
-0.082785718 0.037471429 0.91500002 1.0052548e-38
-0.081042856 0.037471429 0.91500002 7.3788748e-39
-0.079560004 0.037594289 0.91800004 1.1186538e-39
-0.077811427 0.037594289 0.91800004 2.8889309e-40
-0.076062858 0.037594289 0.91800004 4.9846527e-39
-0.074314289 0.037594289 0.91800004 7.9349128e-39
-0.072565712 0.037594289 0.91800004 8.9451467e-39
-0.070817143 0.037594289 0.91800004 1.014369e-38
-0.069219045 0.037676193 0.92000002 1.1157469e-38
-0.067466669 0.037676193 0.92000002 1.1157469e-38
-0.065714285 0.037676193 0.92000002 1.0144043e-38
-0.06417048 0.037799049 0.92300004 1.0051847e-38
-0.062412385 0.037799049 0.92300004 9.5926713e-39
-0.060785718 0.037880953 0.92500007 7.7487587e-39
-0.059023816 0.037880953 0.92500007 9.3171662e-39
-0.057261907 0.037880953 0.92500007 1.1529861e-38
-0.055500004 0.037880953 0.92500007 1.1620262e-38
-0.053912383 0.038003813 0.92800003 1.1067088e-38
-0.052425716 0.03820857 0.93300003 1.1066722e-38
-0.050757144 0.038290478 0.93500006 1.0882331e-38
-0.049133334 0.038413331 0.93800002 1.0698659e-38
-0.047447622 0.038495239 0.94000006 1.0145485e-38
-0.045657143 0.038495239 0.94000006 1.1247154e-38
-0.043866668 0.038495239 0.94000006 1.5211566e-38
-0.042210475 0.038618095 0.94300002 1.5762569e-38
-0.040414285 0.038618095 0.94300002 1.5393786e-38
-0.039273337 0.039273337 0.95900005 1.4013029e-38
-0.037563812 0.039396197 0.96200007 1.2537899e-38
-0.035731431 0.039396197 0.96200007 1.189576e-38
-0.033793334 0.039273337 0.95900005 1.189576e-38
-0.031966668 0.039273337 0.95900005 1.2265622e-38
-0.030140001 0.039273337 0.95900005 1.2450013e-38
-0.028313335 0.039273337 0.95900005 1.2724814e-38
-0.026486667 0.039273337 0.95900005 1.3554575e-38
-0.024660001 0.039273337 0.95900005 1.4290673e-38
-0.022833334 0.039273337 0.95900005 1.4751651e-38
-0.1273381 0.040071432 0.93500006 1.4657658e-38
-0.12555715 0.040071432 0.93500006 1.2444962e-38
-0.12351143 0.039985713 0.93300003 1.0326992e-38
-0.12173429 0.039985713 0.93300003 9.8660142e-39
-0.11995714 0.039985713 0.93300003 9.5933804e-39
-0.11818001 0.039985713 0.93300003 9.8699673e-39
-0.11577905 0.03977143 0.92800003 1.0236599e-38
-0.11401143 0.03977143 0.92800003 1.0052208e-38
-0.11188096 0.039642859 0.92500007 9.2217434e-39
-0.11011905 0.039642859 0.92500007 8.6685696e-39
-0.10812286 0.039557144 0.92300004 9.3113929e-39
-0.10636476 0.039557144 0.92300004 5.8079589e-39
-0.10460667 0.039557144 0.92300004 4.9760277e-39
-0.10284857 0.039557144 0.92300004 5.8057883e-39
-0.10109048 0.039557144 0.92300004 7.0061518e-39
-0.099009521 0.039428573 0.92000002 8.4812819e-39
-0.097257145 0.039428573 0.92000002 7.9306515e-39
-0.095504761 0.039428573 0.92000002 7.1008908e-39
-0.093548574 0.039342858 0.91800004 8.0242568e-39
-0.091800004 0.039342858 0.91800004 1.2265256e-38
-0.090051427 0.039342858 0.91800004 1.2174865e-38
-0.088302858 0.039342858 0.91800004 9.3168005e-39
-0.086554289 0.039342858 0.91800004 7.6540646e-39
-0.08480572 0.039342858 0.91800004 9.7745641e-39
-0.08305715 0.039342858 0.91800004 1.1249296e-38
-0.081308573 0.039342858 0.91800004 7.2848841e-39
-0.079560004 0.039342858 0.91800004 6.5904888e-40
-0.077811427 0.039342858 0.91800004 9.3563577e-40
-0.076062858 0.039342858 0.91800004 6.5469435e-39
-0.074314289 0.039342858 0.91800004 9.1284211e-39
-0.072723806 0.039428573 0.92000002 8.9437076e-39
-0.070971429 0.039428573 0.92000002 1.0418838e-38
-0.069219045 0.039428573 0.92000002 1.1526268e-38
-0.067466669 0.039428573 0.92000002 8.6682039e-39
-0.065928578 0.039557144 0.92300004 8.1092876e-39
-0.06417048 0.039557144 0.92300004 9.0312439e-39
-0.062412385 0.039557144 0.92300004 1.1337914e-38
-0.060785718 0.039642859 0.92500007 1.0047175e-38
-0.059023816 0.039642859 0.92500007 9.7763269e-39
-0.057447623 0.03977143 0.92800003 1.1804631e-38
-0.055679999 0.03977143 0.92800003 1.1619902e-38
-0.054028574 0.039857145 0.93000007 1.1158924e-38
-0.052538101 0.040071432 0.93500006 1.0974527e-38
-0.050757144 0.040071432 0.93500006 1.0790136e-38
-0.049133334 0.040200002 0.93800002 1.0881608e-38
-0.047447622 0.040285718 0.94000006 1.0236239e-38
-0.045948572 0.04054286 0.94600004 1.1338265e-38
-0.044146664 0.04054286 0.94600004 1.5579264e-38
-0.042344764 0.04054286 0.94600004 1.677638e-38
-0.041100003 0.041100003 0.95900005 1.530125e-38
-0.039273337 0.041100003 0.95900005 1.2818792e-38
-0.037563812 0.041228574 0.96200007 1.1528054e-38
-0.035731431 0.041228574 0.96200007 1.0331671e-38
-0.03389905 0.041228574 0.96200007 1.162241e-38
-0.031966668 0.041100003 0.95900005 1.2357827e-38
-0.030140001 0.041100003 0.95900005 1.208124e-38
-0.028313335 0.041100003 0.95900005 1.2816637e-38
-0.026486667 0.041100003 0.95900005 1.4476159e-38
-0.024660001 0.041100003 0.95900005 1.4935682e-38
-0.12774667 0.041986667 0.93800002 1.4566181e-38
-0.12596001 0.041986667 0.93800002 1.3091051e-38
-0.12351143 0.041762859 0.93300003 1.0787633e-38
-0.12173429 0.041762859 0.93300003 9.8656765e-39
-0.11995714 0.041762859 0.93300003 9.5915797e-39
-0.11818001 0.041762859 0.93300003 1.0052558e-38
-0.11602858 0.041628573 0.93000007 1.0604646e-38
-0.11401143 0.041539047 0.92800003 1.1342211e-38
-0.11188096 0.041404765 0.92500007 1.106633e-38
-0.11011905 0.041404765 0.92500007 7.5628961e-39
-0.10835715 0.041404765 0.92500007 5.6261433e-39
-0.10636476 0.041315239 0.92300004 3.7822307e-39
-0.10460667 0.041315239 0.92300004 3.5026898e-39
-0.10284857 0.041315239 0.92300004 3.7792767e-39
-0.10109048 0.041315239 0.92300004 6.1785519e-39
-0.099332385 0.041315239 0.92300004 9.9585728e-39
-0.097574286 0.041315239 0.92300004 9.9578567e-39
-0.095504761 0.041180953 0.92000002 8.7593135e-39
-0.093548574 0.041091431 0.91800004 7.7494678e-39
-0.091800004 0.041091431 0.91800004 1.1437293e-38
-0.090051427 0.041091431 0.91800004 1.2358165e-38
-0.088302858 0.041091431 0.91800004 1.1804991e-38
-0.086554289 0.041091431 0.91800004 1.0421371e-38
-0.08480572 0.041091431 0.91800004 8.485263e-39
-0.08305715 0.041091431 0.91800004 8.3933924e-39
-0.081308573 0.041091431 0.91800004 6.5494798e-39
-0.079560004 0.041091431 0.91800004 6.2750636e-39
-0.077980958 0.041180953 0.92000002 6.8282373e-39
-0.076228574 0.041180953 0.92000002 7.7466133e-39
-0.074476197 0.041180953 0.92000002 1.0420287e-38
-0.072723806 0.041180953 0.92000002 9.9599993e-39
-0.070971429 0.041180953 0.92000002 9.2224342e-39
-0.069444761 0.041315239 0.92300004 8.212276e-39
-0.067686662 0.041315239 0.92300004 5.6307984e-39
-0.065928578 0.041315239 0.92300004 5.3542577e-39
-0.06417048 0.041315239 0.92300004 5.9074315e-39
-0.062547624 0.041404765 0.92500007 7.8370531e-39
-0.060785718 0.041404765 0.92500007 9.3121832e-39
-0.05921524 0.041539047 0.92800003 9.5011847e-39
-0.057447623 0.041539047 0.92800003 1.1345097e-38
-0.055800002 0.041628573 0.93000007 1.1435505e-38
-0.054202858 0.041762859 0.93300003 1.0974527e-38
-0.052538101 0.041852385 0.93500006 1.0790854e-38
-0.050919998 0.041986667 0.93800002 1.0606463e-38
-0.049238101 0.042076193 0.94000006 1.0422425e-38
-0.047599047 0.042210475 0.94300002 1.0145838e-38
-0.046045717 0.04243429 0.94800007 1.0603576e-38
-0.044380002 0.042568572 0.95100003 1.2724076e-38
-0.042792384 0.042792384 0.95600003 1.3182568e-38
-0.041100003 0.042926669 0.95900005 1.1984025e-38
-0.039273337 0.042926669 0.95900005 1.1159274e-38
-0.037563812 0.043060955 0.96200007 1.1989035e-38
-0.035731431 0.043060955 0.96200007 1.2082669e-38
-0.03389905 0.043060955 0.96200007 1.2359256e-38
-0.031966668 0.042926669 0.95900005 1.2725893e-38
-0.030140001 0.042926669 0.95900005 1.3463458e-38
-0.028313335 0.042926669 0.95900005 1.4382508e-38
-0.026486667 0.042926669 0.95900005 1.4751291e-38
-0.024660001 0.042926669 0.95900005 1.4750572e-38
-0.12528858 0.043540001 0.93300003 1.4105909e-38
-0.12351143 0.043540001 0.93300003 1.1894684e-38
-0.12173429 0.043540001 0.93300003 9.589793e-39
-0.11995714 0.043540001 0.93300003 9.6837655e-39
-0.11818001 0.043540001 0.93300003 1.0236939e-38
-0.11640286 0.043540001 0.93300003 1.0328782e-38
-0.11425715 0.043400005 0.93000007 1.1158542e-38
-0.11224381 0.043306667 0.92800003 1.0974527e-38
-0.11011905 0.043166671 0.92500007 6.917919e-39
-0.10835715 0.043166671 0.92500007 4.6133786e-39
-0.10636476 0.043073334 0.92300004 4.7055743e-39
-0.10460667 0.043073334 0.92300004 3.6878252e-39
-0.10284857 0.043073334 0.92300004 3.9644121e-39
-0.10109048 0.043073334 0.92300004 5.7172235e-39
-0.099332385 0.043073334 0.92300004 9.4050487e-39
-0.097574286 0.043073334 0.92300004 9.4071912e-39
-0.095504761 0.042933334 0.92000002 8.2086481e-39
-0.093752384 0.042933334 0.92000002 6.6434803e-39
-0.091800004 0.04284 0.91800004 1.1161066e-38
-0.090051427 0.04284 0.91800004 1.2448934e-38
-0.088302858 0.04284 0.91800004 1.2541129e-38
-0.086554289 0.04284 0.91800004 1.189578e-38
-0.08480572 0.04284 0.91800004 8.3923457e-39
-0.08305715 0.04284 0.91800004 7.6558218e-39
-0.081308573 0.04284 0.91800004 7.3792349e-39
-0.079560004 0.04284 0.91800004 8.0217485e-39
-0.077980958 0.042933334 0.92000002 8.2061397e-39
-0.076228574 0.042933334 0.92000002 8.7596666e-39
-0.074476197 0.042933334 0.92000002 1.0142601e-38
-0.072723806 0.042933334 0.92000002 9.5930244e-39
-0.070971429 0.042933334 0.92000002 9.1320463e-39
-0.069444761 0.043073334 0.92300004 7.2013583e-39
-0.067686662 0.043073334 0.92300004 3.79012e-39
-0.065928578 0.043073334 0.92300004 4.1628654e-39
-0.064309523 0.043166671 0.92500007 4.8082348e-39
-0.062547624 0.043166671 0.92500007 7.2852821e-39
-0.060982861 0.043306667 0.92800003 9.5901728e-39
-0.05921524 0.043306667 0.92800003 1.0788331e-38
-0.057571433 0.043400005 0.93000007 1.1710287e-38
-0.055980001 0.043540001 0.93300003 1.1159637e-38
-0.05431905 0.043633334 0.93500006 1.088305e-38
-0.052538101 0.043633334 0.93500006 1.0882331e-38
-0.050919998 0.043773334 0.93800002 1.069794e-38
-0.049238101 0.043866668 0.94000006 1.0514621e-38
-0.047750477 0.044146664 0.94600004 1.0514621e-38
-0.046191432 0.044380002 0.95100003 1.0145858e-38
-0.044893336 0.044893336 0.96200007 1.1436597e-38
-0.043060955 0.044893336 0.96200007 1.1711754e-38
-0.041228574 0.044893336 0.96200007 1.1342972e-38
-0.039396197 0.044893336 0.96200007 1.125183e-38
-0.037563812 0.044893336 0.96200007 1.2173786e-38
-0.035731431 0.044893336 0.96200007 1.2542569e-38
-0.03389905 0.044893336 0.96200007 1.2265982e-38
-0.031966668 0.044753335 0.95900005 1.2816637e-38
-0.030140001 0.044753335 0.95900005 1.4476159e-38
-0.028313335 0.044753335 0.95900005 1.4751291e-38
-0.026486667 0.044753335 0.95900005 1.4659095e-38
-0.12417334 0.045560002 0.93800002 1.3092133e-38
-0.12199524 0.045414288 0.93500006 9.4043074e-39
-0.12021429 0.045414288 0.93500006 9.2220811e-39
-0.11843334 0.045414288 0.93500006 1.0144037e-38
-0.11640286 0.045317143 0.93300003 1.0236586e-38
-0.11425715 0.045171432 0.93000007 1.078976e-38
-0.11248572 0.045171432 0.93000007 1.0790852e-38
-0.1104762 0.045074288 0.92800003 8.5781564e-39
-0.10835715 0.044928573 0.92500007 7.9320458e-39
-0.10659525 0.044928573 0.92500007 8.7618064e-39
-0.10460667 0.044831429 0.92300004 8.2965375e-39
-0.10284857 0.044831429 0.92300004 7.4667768e-39
-0.10109048 0.044831429 0.92300004 7.2834828e-39
-0.099332385 0.044831429 0.92300004 8.2054391e-39
-0.097574286 0.044831429 0.92300004 9.2202664e-39
-0.095504761 0.044685714 0.92000002 8.8514839e-39
-0.093752384 0.044685714 0.92000002 8.2082823e-39
-0.092 0.044685714 0.92000002 1.1435129e-38
-0.090247624 0.044685714 0.92000002 1.2634028e-38
-0.088495232 0.044685714 0.92000002 1.2910615e-38
-0.086742856 0.044685714 0.92000002 1.1528066e-38
-0.084990472 0.044685714 0.92000002 8.2090236e-39
-0.083238095 0.044685714 0.92000002 7.2881589e-39
-0.081485718 0.044685714 0.92000002 9.3164628e-39
-0.079733334 0.044685714 0.92000002 9.5905161e-39
-0.078235239 0.044831429 0.92300004 8.6685598e-39
-0.076477148 0.044831429 0.92300004 8.025724e-39
-0.074719049 0.044831429 0.92300004 8.763289e-39
-0.07296095 0.044831429 0.92300004 9.1331309e-39
-0.071202859 0.044831429 0.92300004 9.594109e-39
-0.069444761 0.044831429 0.92300004 8.8583461e-39
-0.067686662 0.044831429 0.92300004 8.3051723e-39
-0.065928578 0.044831429 0.92300004 8.5817312e-39
-0.064309523 0.044928573 0.92500007 1.0056861e-38
-0.062547624 0.044928573 0.92500007 1.134223e-38
-0.060982861 0.045074288 0.92800003 1.1895404e-38
-0.059342861 0.045171432 0.93000007 1.1527701e-38
-0.057571433 0.045171432 0.93000007 1.1343309e-38
-0.055980001 0.045317143 0.93300003 1.1159634e-38
-0.05431905 0.045414288 0.93500006 1.0975243e-38
-0.052538101 0.045414288 0.93500006 1.0699019e-38
-0.050919998 0.045560002 0.93800002 1.0514628e-38
-0.049395241 0.045802858 0.94300002 1.0055084e-38
-0.047750477 0.045948572 0.94600004 1.0423867e-38
-0.046337146 0.046337146 0.95400006 1.0883808e-38
-0.044753335 0.046580002 0.95900005 1.2819916e-38
-0.043060955 0.046725716 0.96200007 1.3188313e-38
-0.041228574 0.046725716 0.96200007 1.3003922e-38
-0.039396197 0.046725716 0.96200007 1.2819884e-38
-0.037563812 0.046725716 0.96200007 1.2635493e-38
-0.035731431 0.046725716 0.96200007 1.2818445e-38
-0.03389905 0.046725716 0.96200007 1.3279423e-38
-0.031966668 0.046580002 0.95900005 1.392154e-38
-0.030140001 0.046580002 0.95900005 1.456691e-38
-0.028313335 0.046580002 0.95900005 1.4566894e-38
-0.1237762 0.047195241 0.93500006 1.3460209e-38
-0.12199524 0.047195241 0.93500006 9.680188e-39
-0.12021429 0.047195241 0.93500006 9.6808943e-39
-0.11843334 0.047195241 0.93500006 1.0602851e-38
-0.11640286 0.047094285 0.93300003 1.0420977e-38
-0.11462571 0.047094285 0.93300003 1.0697564e-38
-0.11248572 0.04694286 0.93000007 1.0973798e-38
-0.11071429 0.04694286 0.93000007 9.9596462e-39
-0.10870858 0.046841905 0.92800003 9.0348214e-39
-0.10659525 0.046690479 0.92500007 9.0348214e-39
-0.10460667 0.046589527 0.92300004 8.6649445e-39
-0.10284857 0.046589527 0.92300004 8.8493357e-39
-0.10109048 0.046589527 0.92300004 8.756787e-39
-0.099332385 0.046589527 0.92300004 8.6645913e-39
-0.097574286 0.046589527 0.92300004 9.5872343e-39
-0.095816195 0.046589527 0.92300004 9.9560168e-39
-0.094058096 0.046589527 0.92300004 8.9436795e-39
-0.092 0.046438098 0.92000002 1.124857e-38
-0.090247624 0.046438098 0.92000002 1.2174142e-38
-0.088495232 0.046438098 0.92000002 1.2542924e-38
-0.086742856 0.046438098 0.92000002 1.0425682e-38
-0.084990472 0.046438098 0.92000002 7.4754214e-39
-0.083238095 0.046438098 0.92000002 7.5629283e-39
-0.081485718 0.046438098 0.92000002 9.5912322e-39
-0.079993337 0.046589527 0.92300004 9.6834278e-39
-0.078235239 0.046589527 0.92300004 9.7756234e-39
-0.076477148 0.046589527 0.92300004 9.6841635e-39
-0.074719049 0.046589527 0.92300004 9.2231853e-39
-0.07296095 0.046589527 0.92300004 1.0146542e-38
-0.071202859 0.046589527 0.92300004 1.0423128e-38
-0.06959524 0.046690479 0.92500007 1.106529e-38
-0.067833342 0.046690479 0.92500007 1.0788703e-38
-0.066071436 0.046690479 0.92500007 1.0236939e-38
-0.064309523 0.046690479 0.92500007 1.1527678e-38
-0.062750474 0.046841905 0.92800003 1.1437303e-38
-0.061114289 0.04694286 0.93000007 1.1252912e-38
-0.059342861 0.04694286 0.93000007 1.1252912e-38
-0.057757143 0.047094285 0.93300003 1.1160716e-38
-0.056100003 0.047195241 0.93500006 1.0791933e-38
-0.05431905 0.047195241 0.93500006 1.0607542e-38
-0.05270667 0.047346666 0.93800002 1.0699375e-38
-0.051028572 0.047447622 0.94000006 1.0330592e-38
-0.049552381 0.047750477 0.94600004 9.6870249e-39
-0.048002861 0.048002861 0.95100003 1.0793373e-38
-0.046434287 0.048255239 0.95600003 1.1438407e-38
-0.044753335 0.048406668 0.95900005 1.2913537e-38
-0.043060955 0.048558097 0.96200007 1.2729146e-38
-0.041228574 0.048558097 0.96200007 1.2360363e-38
-0.039396197 0.048558097 0.96200007 1.2636565e-38
-0.037563812 0.048558097 0.96200007 1.2359978e-38
-0.035731431 0.048558097 0.96200007 1.2633325e-38
-0.033969525 0.048659049 0.96400005 1.4016259e-38
-0.031966668 0.048406668 0.95900005 1.4566181e-38
-0.030140001 0.048406668 0.95900005 1.4658376e-38
-0.12264763 0.049238101 0.94000006 1.1063816e-38
-0.1206 0.049133334 0.93800002 9.2228028e-39
-0.11881334 0.049133334 0.93800002 9.7759766e-39
-0.11665238 0.048976194 0.93500006 1.0236586e-38
-0.11487143 0.048976194 0.93500006 1.0605369e-38
-0.11284857 0.048871431 0.93300003 1.078976e-38
-0.11107143 0.048871431 0.93300003 1.1158542e-38
-0.10929429 0.048871431 0.93300003 9.958605e-39
-0.10717143 0.048714291 0.93000007 8.1146924e-39
-0.10517334 0.048609525 0.92800003 8.0221016e-39
-0.10307144 0.048452385 0.92500007 9.7738186e-39
-0.10130953 0.048452385 0.92500007 9.4986358e-39
-0.099547625 0.048452385 0.92500007 9.0376576e-39
-0.097785726 0.048452385 0.92500007 8.3001374e-39
-0.095816195 0.048347622 0.92300004 1.0420637e-38
-0.094058096 0.048347622 0.92300004 9.1327497e-39
-0.092299998 0.048347622 0.92300004 8.6717716e-39
-0.090541907 0.048347622 0.92300004 1.1897905e-38
-0.088783816 0.048347622 0.92300004 1.2727666e-38
-0.087025717 0.048347622 0.92300004 1.1345843e-38
-0.085267626 0.048347622 0.92300004 1.0884865e-38
-0.083509527 0.048347622 0.92300004 9.4097472e-39
-0.081751429 0.048347622 0.92300004 8.6721822e-39
-0.079993337 0.048347622 0.92300004 1.0330952e-38
-0.078235239 0.048347622 0.92300004 1.2543648e-38
-0.076477148 0.048347622 0.92300004 1.2265969e-38
-0.074719049 0.048347622 0.92300004 8.9469264e-39
-0.073119059 0.048452385 0.92500007 9.4093366e-39
-0.071357146 0.048452385 0.92500007 1.1898619e-38
-0.06959524 0.048452385 0.92500007 1.2816634e-38
-0.067833342 0.048452385 0.92500007 1.2816634e-38
-0.066285722 0.048609525 0.92800003 1.2172341e-38
-0.064518094 0.048609525 0.92800003 1.198795e-38
-0.062885717 0.048714291 0.93000007 1.14373e-38
-0.061311428 0.048871431 0.93300003 1.1252909e-38
-0.059534285 0.048871431 0.93300003 1.134546e-38
-0.057757143 0.048871431 0.93300003 1.1068873e-38
-0.056100003 0.048976194 0.93500006 1.0699387e-38
-0.054493334 0.049133334 0.93800002 1.0607192e-38
-0.05270667 0.049133334 0.93800002 1.0698656e-38
-0.051191427 0.049395241 0.94300002 1.0422069e-38
-0.049657144 0.049657144 0.94800007 9.6870249e-39
-0.048154291 0.049971428 0.95400006 1.1346546e-38
-0.046434287 0.05007619 0.95600003 1.2728054e-38
-0.044753335 0.050233334 0.95900005 1.429538e-38
-0.043060955 0.050390478 0.96200007 1.3004664e-38
-0.041228574 0.050390478 0.96200007 1.2267098e-38
-0.039396197 0.050390478 0.96200007 1.2727316e-38
-0.037563812 0.050390478 0.96200007 1.3003903e-38
-0.035731431 0.050390478 0.96200007 1.392189e-38
-0.033969525 0.050495241 0.96400005 1.4382869e-38
-0.032233335 0.050652385 0.96700007 1.4382859e-38
-0.12264763 0.051028572 0.94000006 1.1247864e-38
-0.12085715 0.051028572 0.94000006 9.3146327e-39
-0.11906667 0.051028572 0.94000006 9.7756108e-39
-0.11702667 0.050919998 0.93800002 9.9603496e-39
-0.11487143 0.050757144 0.93500006 1.0513523e-38
-0.11309049 0.050757144 0.93500006 1.0238028e-38
-0.11130953 0.050757144 0.93500006 1.0606811e-38
-0.10929429 0.05064857 0.93300003 1.0698659e-38
-0.10751715 0.05064857 0.93300003 8.393768e-39
-0.1054 0.050485715 0.93000007 7.9302563e-39
-0.10340571 0.050377145 0.92800003 9.8663645e-39
-0.10130953 0.050214287 0.92500007 1.0329498e-38
-0.099547625 0.050214287 0.92500007 8.8543678e-39
-0.097785726 0.050214287 0.92500007 7.3799762e-39
-0.096023813 0.050214287 0.92500007 1.0238041e-38
-0.094058096 0.050105717 0.92300004 1.060646e-38
-0.092299998 0.050105717 0.92300004 9.1313302e-39
-0.090541907 0.050105717 0.92300004 1.1435129e-38
-0.088783816 0.050105717 0.92300004 1.2910259e-38
-0.087025717 0.050105717 0.92300004 1.2358906e-38
-0.085267626 0.050105717 0.92300004 1.2082319e-38
-0.083509527 0.050105717 0.92300004 1.1898647e-38
-0.081751429 0.050105717 0.92300004 1.1345473e-38
-0.079993337 0.050105717 0.92300004 1.125363e-38
-0.078404762 0.050214287 0.92500007 1.2359978e-38
-0.076642863 0.050214287 0.92500007 1.226636e-38
-0.074880958 0.050214287 0.92500007 9.3160998e-39
-0.073119059 0.050214287 0.92500007 8.3011968e-39
-0.071357146 0.050214287 0.92500007 9.8685225e-39
-0.06959524 0.050214287 0.92500007 1.1157078e-38
-0.068053335 0.050377145 0.92800003 1.217123e-38
-0.066285722 0.050377145 0.92800003 1.1896839e-38
-0.064865716 0.05064857 0.93300003 1.1712448e-38
-0.063088574 0.05064857 0.93300003 1.1253277e-38
-0.061311428 0.05064857 0.93300003 1.1253277e-38
-0.05966191 0.050757144 0.93500006 1.1252912e-38
-0.057880957 0.050757144 0.93500006 1.106852e-38
-0.056100003 0.050757144 0.93500006 1.0699738e-38
-0.054493334 0.050919998 0.93800002 1.0423151e-38
-0.052819051 0.051028572 0.94000006 1.060646e-38
-0.051191427 0.051191427 0.94300002 1.0514265e-38
-0.049657144 0.051462859 0.94800007 9.6873753e-39
-0.048154291 0.051788572 0.95400006 1.1439092e-38
-0.046434287 0.051897142 0.95600003 1.2820253e-38
-0.044893336 0.052222859 0.96200007 1.2728057e-38
-0.043060955 0.052222859 0.96200007 1.2360714e-38
-0.041228574 0.052222859 0.96200007 1.1899735e-38
-0.039396197 0.052222859 0.96200007 1.2357086e-38
-0.037563812 0.052222859 0.96200007 1.3647824e-38
-0.035731431 0.052222859 0.96200007 1.4289591e-38
-0.12264763 0.052819051 0.94000006 1.2446751e-38
-0.12085715 0.052819051 0.94000006 9.77492e-39
-0.11906667 0.052819051 0.94000006 9.6827244e-39
-0.11702667 0.05270667 0.93800002 9.9603524e-39
-0.11524001 0.05270667 0.93800002 1.0421331e-38
-0.11309049 0.052538101 0.93500006 1.0421343e-38
-0.11130953 0.052538101 0.93500006 1.0882321e-38
-0.10929429 0.052425716 0.93300003 1.0883753e-38
-0.10751715 0.052425716 0.93300003 1.116034e-38
-0.10574 0.052425716 0.93300003 1.1251464e-38
-0.10362858 0.052257147 0.93000007 1.1435855e-38
-0.10163809 0.052144762 0.92800003 1.1528054e-38
-0.099870481 0.052144762 0.92800003 1.1896836e-38
-0.09810286 0.052144762 0.92800003 1.2080146e-38
-0.096023813 0.051976193 0.92500007 1.2356733e-38
-0.094261907 0.051976193 0.92500007 8.5792873e-39
-0.092500009 0.051976193 0.92500007 5.3524403e-39
-0.090738103 0.051976193 0.92500007 8.2104683e-39
-0.088976197 0.051976193 0.92500007 1.2635859e-38
-0.087214291 0.051976193 0.92500007 1.3093947e-38
-0.085452385 0.051976193 0.92500007 1.2448578e-38
-0.083690479 0.051976193 0.92500007 1.1991195e-38
-0.081928581 0.051976193 0.92500007 1.2267782e-38
-0.080166668 0.051976193 0.92500007 1.1990842e-38
-0.078404762 0.051976193 0.92500007 1.2175234e-38
-0.076642863 0.051976193 0.92500007 1.2174517e-38
-0.074880958 0.051976193 0.92500007 9.9618224e-39
-0.073119059 0.051976193 0.92500007 7.2902889e-39
-0.071357146 0.051976193 0.92500007 6.0917457e-39
-0.069820955 0.052144762 0.92800003 6.0945259e-39
-0.068053335 0.052144762 0.92800003 9.3213729e-39
-0.066428579 0.052257147 0.93000007 1.0421734e-38
-0.064865716 0.052425716 0.93300003 1.1528082e-38
-0.063088574 0.052425716 0.93300003 1.1528795e-38
-0.061311428 0.052425716 0.93300003 1.1252208e-38
-0.05966191 0.052538101 0.93500006 1.1160716e-38
-0.057880957 0.052538101 0.93500006 1.0884129e-38
-0.056280002 0.05270667 0.93800002 1.079122e-38
-0.054493334 0.05270667 0.93800002 1.0606829e-38
-0.052819051 0.052819051 0.94000006 1.060646e-38
-0.051191427 0.05298762 0.94300002 1.0329873e-38
-0.049657144 0.053268574 0.94800007 9.5951796e-39
-0.048154291 0.053605717 0.95400006 1.1346897e-38
-0.046580002 0.053886667 0.95900005 1.1714981e-38
-0.044893336 0.05405524 0.96200007 1.1254003e-38
-0.043060955 0.05405524 0.96200007 1.1989398e-38
-0.041228574 0.05405524 0.96200007 1.2819158e-38
-0.039396197 0.05405524 0.96200007 1.3737136e-38
-0.037563812 0.05405524 0.96200007 1.4013723e-38
-0.12264763 0.054609526 0.94000006 1.3276158e-38
-0.12085715 0.054609526 0.94000006 1.1158189e-38
-0.11906667 0.054609526 0.94000006 9.5908636e-39
-0.11702667 0.054493334 0.93800002 1.0143305e-38
-0.11524001 0.054493334 0.93800002 1.0604283e-38
-0.11309049 0.05431905 0.93500006 1.0237305e-38
-0.11130953 0.05431905 0.93500006 1.0882674e-38
-0.10952857 0.05431905 0.93500006 1.0699722e-38
-0.10751715 0.054202858 0.93300003 1.0976309e-38
-0.10574 0.054202858 0.93300003 1.1068871e-38
-0.10396286 0.054202858 0.93300003 1.1068871e-38
-0.10185715 0.054028574 0.93000007 1.1253265e-38
-0.10008572 0.054028574 0.93000007 1.199083e-38
-0.09810286 0.053912383 0.92800003 1.2908836e-38
-0.096023813 0.053738099 0.92500007 1.0972727e-38
-0.094261907 0.053738099 0.92500007 7.1995184e-39
-0.092500009 0.053738099 0.92500007 3.7882801e-39
-0.090738103 0.053738099 0.92500007 4.1609372e-39
-0.088976197 0.053738099 0.92500007 1.0338033e-38
-0.087214291 0.053738099 0.92500007 1.3093565e-38
-0.085452385 0.053738099 0.92500007 1.2540391e-38
-0.083690479 0.053738099 0.92500007 1.1898647e-38
-0.081928581 0.053738099 0.92500007 1.2083038e-38
-0.080166668 0.053738099 0.92500007 1.1714978e-38
-0.07865905 0.053912383 0.92800003 1.1714978e-38
-0.07689143 0.053912383 0.92800003 1.2083038e-38
-0.075123817 0.053912383 0.92800003 1.097669e-38
-0.073356189 0.053912383 0.92800003 7.0162636e-39
-0.071588568 0.053912383 0.92800003 5.0801553e-39
-0.069820955 0.053912383 0.92800003 4.5318791e-39
-0.068200007 0.054028574 0.93000007 8.1275087e-39
-0.066642858 0.054202858 0.93300003 9.410794e-39
-0.064865716 0.054202858 0.93300003 1.1162511e-38
-0.063088574 0.054202858 0.93300003 1.1436597e-38
-0.061442863 0.05431905 0.93500006 1.116001e-38
-0.05966191 0.05431905 0.93500006 1.1251833e-38
-0.057880957 0.05431905 0.93500006 1.1067441e-38
-0.056280002 0.054493334 0.93800002 1.0791215e-38
-0.054493334 0.054493334 0.93800002 1.0422432e-38
-0.052819051 0.054609526 0.94000006 1.0514621e-38
-0.051191427 0.05478381 0.94300002 1.0238034e-38
-0.049657144 0.055074289 0.94800007 9.410794e-39
-0.048154291 0.055422861 0.95400006 1.097812e-38
-0.046434287 0.055539049 0.95600003 1.134512e-38
-0.044893336 0.055887621 0.96200007 1.1529511e-38
-0.043060955 0.055887621 0.96200007 1.2540035e-38
-0.041228574 0.055887621 0.96200007 1.3830774e-38
-0.039396197 0.055887621 0.96200007 1.438178e-38
-0.12085715 0.056400005 0.94000006 1.2263448e-38
-0.11906667 0.056400005 0.94000006 9.4975792e-39
-0.1172762 0.056400005 0.94000006 9.498668e-39
