# .PCD v0.7 - Point Cloud Data file format
VERSION 0.7
FIELDS x y z rgba
SIZE 4 4 4 4
TYPE F F F U
COUNT 1 1 1 1
WIDTH 1139
HEIGHT 1
VIEWPOINT 0 0 0 1 0 0 0
POINTS 1139
DATA ascii
-0.076840006 0.18292001 0.71400005 6580643
-0.075691432 0.18343239 0.71600002 5991343
-0.074431427 0.18368857 0.71700001 5201827
-0.073065713 0.18368857 0.71700001 7108000
-0.072000004 0.18445715 0.72000003 9673927
-0.070922859 0.18522573 0.72300005 10263197
-0.069545716 0.18522573 0.72300005 10065818
-0.13881429 0.18350571 0.71100003 9277063
-0.13726667 0.18324763 0.71000004 8685446
-0.13514857 0.18221524 0.70600003 5922140
-0.13380381 0.18221524 0.70600003 5785728
-0.13245904 0.18221524 0.70600003 5917314
-0.13074286 0.18169905 0.70400006 6637187
-0.1292181 0.18144095 0.70300001 7360910
-0.12751524 0.18092477 0.70100003 7558532
-0.126 0.18066667 0.70000005 7755911
-0.12466668 0.18066667 0.70000005 7689345
-0.12298095 0.18015048 0.69800001 6570864
-0.12165143 0.18015048 0.69800001 7092075
-0.12032191 0.18015048 0.69800001 7223661
-0.11899238 0.18015048 0.69800001 7027055
-0.11749429 0.17989239 0.69700003 7027055
-0.11616667 0.17989239 0.69700003 6963574
-0.11467429 0.1796343 0.69600004 7095160
-0.11334857 0.1796343 0.69600004 7226494
-0.11218382 0.17989239 0.69700003 7160701
-0.11069715 0.1796343 0.69600004 7161459
-0.10937143 0.1796343 0.69600004 7424631
-0.10820096 0.17989239 0.69700003 7622540
-0.10687333 0.17989239 0.69700003 8017298
-0.10554572 0.17989239 0.69700003 7821461
-0.1042181 0.17989239 0.69700003 7624082
-0.10289048 0.17989239 0.69700003 7425161
-0.10156287 0.17989239 0.69700003 7490954
-0.10023524 0.17989239 0.69700003 7753106
-0.09890762 0.17989239 0.69700003 7950485
-0.097720005 0.18015048 0.69800001 8081299
-0.096390471 0.18015048 0.69800001 8081299
-0.095060952 0.18015048 0.69800001 7950487
-0.093731426 0.18015048 0.69800001 7753108
-0.092666671 0.18066667 0.70000005 7556243
-0.091333345 0.18066667 0.70000005 7819415
-0.090000004 0.18066667 0.70000005 7820187
-0.08866667 0.18066667 0.70000005 8609703
-0.087458096 0.18092477 0.70100003 8611740
-0.086368576 0.18144095 0.70300001 8743326
-0.08515048 0.18169905 0.70400006 8677531
-0.084047616 0.18221524 0.70600003 8611738
-0.08270286 0.18221524 0.70600003 8348316
-0.081473336 0.18247333 0.70700002 8019351
-0.080466673 0.18324763 0.71000004 6705277
-0.079114296 0.18324763 0.71000004 7165828
-0.077871427 0.18350571 0.71100003 6514852
-0.076840006 0.18428002 0.71400005 6449059
-0.075691432 0.1847962 0.71600002 5467048
-0.074327618 0.1847962 0.71600002 4874911
-0.073065713 0.18505429 0.71700001 7436447
-0.072200008 0.18634477 0.72200006 9870788
-0.070824765 0.18634477 0.72200006 10262938
-0.069449529 0.18634477 0.72200006 10065559
-0.13726667 0.18460001 0.71000004 8816530
-0.13514857 0.18356 0.70600003 6184810
-0.13380381 0.18356 0.70600003 5852539
-0.13245904 0.18356 0.70600003 5786746
-0.13074286 0.18304001 0.70400006 7296370
-0.1292181 0.18278 0.70300001 7822714
-0.12751524 0.18226001 0.70100003 7691912
-0.12618001 0.18226001 0.70100003 7560326
-0.12466668 0.18200001 0.70000005 7886984
-0.12333335 0.18200001 0.70000005 6965882
-0.122 0.18200001 0.70000005 7487358
-0.12032191 0.18148001 0.69800001 7421565
-0.11899238 0.18148001 0.69800001 7355268
-0.11749429 0.18122001 0.69700003 7289475
-0.11616667 0.18122001 0.69700003 7290241
-0.11467429 0.18096001 0.69600004 7553413
-0.11334857 0.18096001 0.69600004 7488131
-0.11218382 0.18122001 0.69700003 7619717
-0.11069715 0.18096001 0.69600004 7620480
-0.10937143 0.18096001 0.69600004 7883652
-0.10820096 0.18122001 0.69700003 7622024
-0.10687333 0.18122001 0.69700003 8543126
-0.10554572 0.18122001 0.69700003 8611245
-0.1042181 0.18122001 0.69700003 8282280
-0.10289048 0.18122001 0.69700003 7886750
-0.10156287 0.18122001 0.69700003 7623578
-0.10023524 0.18122001 0.69700003 7622036
-0.09890762 0.18122001 0.69700003 7951001
-0.097720005 0.18148001 0.69800001 8148893
-0.096390471 0.18148001 0.69800001 8214686
-0.095060952 0.18148001 0.69800001 8215195
-0.093731426 0.18148001 0.69800001 8280988
-0.092666671 0.18200001 0.70000005 8280486
-0.091333345 0.18200001 0.70000005 8609451
-0.090000004 0.18200001 0.70000005 8611245
-0.08866667 0.18200001 0.70000005 8545452
-0.087458096 0.18226001 0.70100003 8876440
-0.086368576 0.18278 0.70300001 8942233
-0.08515048 0.18304001 0.70400006 8678565
-0.084047616 0.18356 0.70600003 8218014
-0.08270286 0.18356 0.70600003 8413337
-0.081473336 0.18381999 0.70700002 7360649
-0.080239996 0.18407999 0.708 6375536
-0.079114296 0.18460001 0.71000004 8020361
-0.077871427 0.18486001 0.71100003 6778556
-0.076840006 0.18564001 0.71400005 5725868
-0.075691432 0.18616 0.71600002 5071011
-0.074327618 0.18616 0.71600002 5268390
-0.073065713 0.18641999 0.71700001 7634075
-0.072200008 0.18772002 0.72200006 9739451
-0.070824765 0.18772002 0.72200006 10197145
-0.069449529 0.18772002 0.72200006 10131352
-0.13726667 0.1859524 0.71000004 9737864
-0.13514857 0.18490477 0.70600003 6579800
-0.13380381 0.18490477 0.70600003 5852809
-0.13245904 0.18490477 0.70600003 5392258
-0.13074286 0.18438096 0.70400006 6374258
-0.1292181 0.18411905 0.70300001 8282255
-0.12751524 0.18359524 0.70100003 8218506
-0.12618001 0.18359524 0.70100003 8415885
-0.12466668 0.18333335 0.70000005 8219031
-0.12333335 0.18333335 0.70000005 8547996
-0.122 0.18333335 0.70000005 8744351
-0.12032191 0.18280952 0.69800001 8152214
-0.11899238 0.18280952 0.69800001 8413348
-0.11766286 0.18280952 0.69800001 8413348
-0.11616667 0.18254761 0.69700003 8347292
-0.11483905 0.18254761 0.69700003 8281499
-0.11351143 0.18254761 0.69700003 8281753
-0.11218382 0.18254761 0.69700003 8413339
-0.11085619 0.18254761 0.69700003 8478878
-0.10952857 0.18254761 0.69700003 8544671
-0.10820096 0.18254761 0.69700003 8414616
-0.10687333 0.18254761 0.69700003 8940960
-0.10569715 0.18280952 0.69800001 9996478
-0.10436761 0.18280952 0.69800001 10522822
-0.10289048 0.18254761 0.69700003 10193087
-0.10156287 0.18254761 0.69700003 9074606
-0.10037905 0.18280952 0.69800001 9007280
-0.099049523 0.18280952 0.69800001 9073073
-0.097720005 0.18280952 0.69800001 9270711
-0.096390471 0.18280952 0.69800001 9402297
-0.095060952 0.18280952 0.69800001 9534385
-0.093731426 0.18280952 0.69800001 10323901
-0.092666671 0.18333335 0.70000005 10258378
-0.091333345 0.18333335 0.70000005 10060999
-0.090000004 0.18333335 0.70000005 10127044
-0.08866667 0.18333335 0.70000005 9140149
-0.087458096 0.18359524 0.70100003 9074587
-0.086491436 0.18438096 0.70400006 9929896
-0.08515048 0.18438096 0.70400006 10126489
-0.084047616 0.18490477 0.70600003 8284285
-0.08270286 0.18490477 0.70600003 7821709
-0.081473336 0.18516667 0.70700002 6176884
-0.080239996 0.18542856 0.708 5588349
-0.079114296 0.1859524 0.71000004 8154276
-0.077871427 0.1862143 0.71100003 7173573
-0.077055238 0.18752381 0.71600002 4870818
-0.075797141 0.18778571 0.71700001 4086701
-0.074431427 0.18778571 0.71700001 4876217
-0.073269531 0.18830952 0.71900004 7633812
-0.072200008 0.18909526 0.72200006 9607602
-0.070824765 0.18909526 0.72200006 10262938
-0.13553143 0.18677714 0.708 6843242
-0.13380381 0.18624954 0.70600003 6511491
-0.13245904 0.18624954 0.70600003 5393010
-0.1311143 0.18624954 0.70600003 6307690
-0.12940191 0.18572192 0.70400006 7755136
-0.12787904 0.18545809 0.70300001 8087174
-0.12618001 0.18493049 0.70100003 8481932
-0.12484477 0.18493049 0.70100003 7826077
-0.12333335 0.18466668 0.70000005 8286628
-0.122 0.18466668 0.70000005 8485033
-0.12066668 0.18466668 0.70000005 8419240
-0.11899238 0.18413906 0.69800001 8351405
-0.11766286 0.18413906 0.69800001 8022440
-0.11633334 0.18413906 0.69800001 8217757
-0.11483905 0.18387523 0.69700003 8415136
-0.11351143 0.18387523 0.69700003 8480677
-0.11218382 0.18387523 0.69700003 8480677
-0.11085619 0.18387523 0.69700003 8415656
-0.10952857 0.18387523 0.69700003 8613035
-0.10835619 0.18413906 0.69800001 8547503
-0.10702667 0.18413906 0.69800001 8679089
-0.10569715 0.18413906 0.69800001 9536708
-0.10436761 0.18413906 0.69800001 9997259
-0.10303809 0.18413906 0.69800001 9406660
-0.10170857 0.18413906 0.69800001 9077695
-0.10037905 0.18413906 0.69800001 8813755
-0.099049523 0.18413906 0.69800001 9471685
-0.097720005 0.18413906 0.69800001 9668303
-0.096390471 0.18413906 0.69800001 8944580
-0.095060952 0.18413906 0.69800001 8944560
-0.093731426 0.18413906 0.69800001 9865662
-0.092666671 0.18466668 0.70000005 10064329
-0.091333345 0.18466668 0.70000005 9209020
-0.090128571 0.18493049 0.70100003 9536708
-0.089046665 0.18545809 0.70300001 8155055
-0.087707624 0.18545809 0.70300001 8086428
-0.086491436 0.18572192 0.70400006 9994425
-0.08515048 0.18572192 0.70400006 10390708
-0.084047616 0.18624954 0.70600003 8022160
-0.08270286 0.18624954 0.70600003 7756669
-0.081473336 0.18651333 0.70700002 7032946
-0.080466673 0.18730478 0.71000004 6049434
-0.079114296 0.18730478 0.71000004 8023224
-0.078419052 0.18888761 0.71600002 7371204
-0.077162862 0.18915144 0.71700001 5200035
-0.076008573 0.18967906 0.71900004 4349098
-0.074639052 0.18967906 0.71900004 5204407
-0.073269531 0.18967906 0.71900004 7633812
-0.071900003 0.18967906 0.71900004 9739188
-0.1359143 0.18865715 0.71000004 7304045
-0.13418286 0.18812571 0.708 6380686
-0.13264666 0.18786 0.70700002 5788549
-0.1311143 0.18759429 0.70600003 6506619
-0.12976953 0.18759429 0.70600003 6638205
-0.12806095 0.18706287 0.70400006 7297910
-0.12654001 0.18679714 0.70300001 9271700
-0.12520096 0.18679714 0.70300001 8747179
-0.12350953 0.18626572 0.70100003 8352421
-0.12217429 0.18626572 0.70100003 8616099
-0.12066668 0.18600002 0.70000005 9142443
-0.11933334 0.18600002 0.70000005 9009067
-0.11766286 0.18546857 0.69800001 8153758
-0.11633334 0.18546857 0.69800001 8943514
-0.11500382 0.18546857 0.69800001 9930409
-0.11351143 0.18520287 0.69700003 9601724
-0.11218382 0.18520287 0.69700003 9470138
-0.11085619 0.18520287 0.69700003 9930685
-0.10952857 0.18520287 0.69700003 10391236
-0.10835619 0.18546857 0.69800001 9996228
-0.10702667 0.18546857 0.69800001 9206712
-0.10569715 0.18546857 0.69800001 9470652
-0.10436761 0.18546857 0.69800001 9931203
-0.10303809 0.18546857 0.69800001 9800382
-0.10170857 0.18546857 0.69800001 9931968
-0.10037905 0.18546857 0.69800001 9866191
-0.099049523 0.18546857 0.69800001 10392535
-0.097720005 0.18546857 0.69800001 10392026
-0.096390471 0.18546857 0.69800001 9010373
-0.095060952 0.18546857 0.69800001 8878765
-0.094000004 0.18600002 0.70000005 9339316
-0.092666671 0.18600002 0.70000005 9076144
-0.091333345 0.18600002 0.70000005 8352421
-0.090128571 0.18626572 0.70100003 8153261
-0.089046665 0.18679714 0.70300001 7758503
-0.087832384 0.18706287 0.70400006 7888799
-0.086491436 0.18706287 0.70400006 8744108
-0.08515048 0.18706287 0.70400006 8876450
-0.084047616 0.18759429 0.70600003 6573695
-0.082819998 0.18786 0.70700002 5785469
-0.081588566 0.18812571 0.708 7627673
-0.080580004 0.18892285 0.71100003 6976185
-0.079225719 0.18892285 0.71100003 6844599
-0.078419052 0.19025144 0.71600002 5928112
-0.077378094 0.19104858 0.71900004 4612252
-0.076008573 0.19104858 0.71900004 4743086
-0.074639052 0.19104858 0.71900004 5729981
-0.073269531 0.19104858 0.71900004 7633812
-0.13610572 0.19027714 0.71100003 7501422
-0.13456191 0.19000953 0.71000004 6907781
-0.13320953 0.19000953 0.71000004 5789300
-0.1313 0.18920667 0.70700002 6573700
-0.12976953 0.18893905 0.70600003 6639493
-0.12842476 0.18893905 0.70600003 6836328
-0.12672001 0.18840383 0.70400006 8678532
-0.12520096 0.18813619 0.70300001 8287904
-0.12386191 0.18813619 0.70300001 7893146
-0.12217429 0.18760096 0.70100003 8351387
-0.12083905 0.18760096 0.70100003 8943524
-0.11933334 0.18733335 0.70000005 8811684
-0.11800001 0.18733335 0.70000005 8548512
-0.11633334 0.1867981 0.69800001 8550822
-0.11500382 0.1867981 0.69800001 9142959
-0.11367428 0.1867981 0.69800001 9011893
-0.11218382 0.18653049 0.69700003 8880307
-0.11085619 0.18653049 0.69700003 9340606
-0.10952857 0.18653049 0.69700003 9472192
-0.10835619 0.1867981 0.69800001 9668294
-0.10702667 0.1867981 0.69800001 8878778
-0.10569715 0.1867981 0.69800001 9008561
-0.10436761 0.1867981 0.69800001 9798077
-0.10333334 0.18733335 0.70000005 9340349
-0.10200001 0.18733335 0.70000005 9340349
-0.10066667 0.18733335 0.70000005 9472196
-0.099333346 0.18733335 0.70000005 9669575
-0.097720005 0.1867981 0.69800001 9997264
-0.096390471 0.1867981 0.69800001 8812990
-0.095060952 0.1867981 0.69800001 8351907
-0.094000004 0.18733335 0.70000005 8680872
-0.092666671 0.18733335 0.70000005 8876970
-0.091463812 0.18760096 0.70100003 8350626
-0.090128571 0.18760096 0.70100003 8151975
-0.089046665 0.18813619 0.70300001 8151975
-0.087832384 0.18840383 0.70400006 7954592
-0.086737148 0.18893905 0.70600003 8283557
-0.085392386 0.18893905 0.70600003 8152232
-0.084166668 0.18920667 0.70700002 6573200
-0.082819998 0.18920667 0.70700002 5457801
-0.081588566 0.18947428 0.708 7431591
-0.080580004 0.19027714 0.71100003 6847168
-0.079225719 0.19027714 0.71100003 4873378
-0.078528576 0.19188286 0.71700001 4087732
-0.077378094 0.19241811 0.71900004 3824560
-0.076114289 0.19268572 0.72000003 4349350
-0.074742861 0.19268572 0.72000003 5204659
-0.073371425 0.19268572 0.72000003 7895955
-0.072300009 0.19348858 0.72300005 10001331
-0.13475142 0.19163144 0.71100003 6713223
-0.13320953 0.1913619 0.71000004 5331570
-0.13148572 0.19082285 0.708 5984908
-0.12995334 0.19055334 0.70700002 5919115
-0.12842476 0.19028381 0.70600003 6113636
-0.12708001 0.19028381 0.70600003 6311015
-0.12537906 0.18974477 0.70400006 6441329
-0.12386191 0.18947524 0.70300001 6375536
-0.12252286 0.18947524 0.70300001 6507902
-0.12083905 0.1889362 0.70100003 6771074
-0.11933334 0.18866667 0.70000005 7033217
-0.11800001 0.18866667 0.70000005 7164803
-0.11633334 0.18812761 0.69800001 7230360
-0.11500382 0.18812761 0.69800001 7690911
-0.11367428 0.18812761 0.69800001 7428759
-0.11234476 0.18812761 0.69800001 7362966
-0.11085619 0.1878581 0.69700003 7232924
-0.10952857 0.1878581 0.69700003 7430303
-0.10835619 0.18812761 0.69800001 7429799
-0.10702667 0.18812761 0.69800001 7298213
-0.10569715 0.18812761 0.69800001 7297441
-0.10436761 0.18812761 0.69800001 8086957
-0.10333334 0.18866667 0.70000005 7824809
-0.10200001 0.18866667 0.70000005 7561637
-0.10066667 0.18866667 0.70000005 6970781
-0.099333346 0.18866667 0.70000005 6773402
-0.098000005 0.18866667 0.70000005 7167915
-0.096666671 0.18866667 0.70000005 6838950
-0.095333338 0.18866667 0.70000005 7167129
-0.094000004 0.18866667 0.70000005 7430301
-0.092799053 0.1889362 0.70100003 7759266
-0.091463812 0.1889362 0.70100003 7496094
-0.090385713 0.18947524 0.70300001 7167915
-0.089173339 0.18974477 0.70400006 7957431
-0.087832384 0.18974477 0.70400006 7959475
-0.086737148 0.19028381 0.70600003 8551612
-0.085392386 0.19028381 0.70600003 8224187
-0.084166668 0.19055334 0.70700002 8092601
-0.082819998 0.19055334 0.70700002 7502529
-0.081588566 0.19082285 0.708 7370943
-0.080580004 0.19163144 0.71100003 5862335
-0.079448573 0.1921705 0.71300006 3230615
-0.078528576 0.19324857 0.71700001 2577844
-0.07748571 0.19405715 0.72000003 2577844
-0.076325722 0.1945962 0.72200006 3888540
-0.074950479 0.1945962 0.72200006 5138607
-0.073677152 0.19486572 0.72300005 8027539
-0.072300009 0.19486572 0.72300005 10067122
-0.13475142 0.19298573 0.71100003 7174276
-0.13339715 0.19298573 0.71100003 5068900
-0.13185716 0.19271429 0.71000004 5789583
-0.13013715 0.19217142 0.708 5592204
-0.12860666 0.19190001 0.70700002 6179448
-0.12708001 0.19162858 0.70600003 6837378
-0.12537906 0.19108573 0.70400006 7229063
-0.12386191 0.19081429 0.70300001 7097477
-0.12252286 0.19081429 0.70300001 6703500
-0.12083905 0.19027144 0.70100003 6769293
-0.11933334 0.19000001 0.70000005 6900350
-0.11800001 0.19000001 0.70000005 7360901
-0.11666667 0.19000001 0.70000005 7031432
-0.11500382 0.18945715 0.69800001 7360397
-0.11367428 0.18945715 0.69800001 7490961
-0.11234476 0.18945715 0.69800001 7885719
-0.11101524 0.18945715 0.69800001 7098776
-0.10968572 0.18945715 0.69800001 7164569
-0.10835619 0.18945715 0.69800001 7361948
-0.10702667 0.18945715 0.69800001 7756706
-0.10569715 0.18945715 0.69800001 7560095
-0.10436761 0.18945715 0.69800001 7757474
-0.10333334 0.19000001 0.70000005 7887795
-0.10200001 0.19000001 0.70000005 8019381
-0.10066667 0.19000001 0.70000005 7626410
-0.099333346 0.19000001 0.70000005 7757996
-0.098000005 0.19000001 0.70000005 7759284
-0.096666671 0.19000001 0.70000005 7825077
-0.095333338 0.19000001 0.70000005 7629724
-0.094000004 0.19000001 0.70000005 7563931
-0.092799053 0.19027144 0.70100003 7302049
-0.091463812 0.19027144 0.70100003 7959979
-0.090385713 0.19081429 0.70300001 7961272
-0.089173339 0.19108573 0.70400006 7961272
-0.087832384 0.19108573 0.70400006 8554946
-0.086737148 0.19162858 0.70600003 8949704
-0.085392386 0.19162858 0.70600003 8754901
-0.084166668 0.19190001 0.70700002 8425936
-0.082819998 0.19190001 0.70700002 7310276
-0.081588566 0.19217142 0.708 6126002
-0.080806673 0.19352859 0.71300006 4812479
-0.079448573 0.19352859 0.71300006 3101861
-0.078528576 0.19461429 0.71700001 2905007
-0.077700958 0.19597144 0.72200006 2905007
-0.076325722 0.19597144 0.72200006 4084384
-0.074950479 0.19597144 0.72200006 5137072
-0.073677152 0.19624287 0.72300005 8355729
-0.072300009 0.19624287 0.72300005 10066347
-0.071413331 0.19760001 0.72800004 10131352
-0.13706286 0.19570667 0.71600002 9079677
-0.13475142 0.19434001 0.71100003 7963256
-0.13339715 0.19434001 0.71100003 5068364
-0.13185716 0.19406667 0.71000004 5265562
-0.13050477 0.19406667 0.71000004 6120871
-0.12878856 0.19351999 0.708 6841496
-0.12708001 0.19297335 0.70600003 8749493
-0.12573524 0.19297335 0.70600003 9142711
-0.1240381 0.19242668 0.70400006 9142711
-0.12252286 0.19215333 0.70300001 9011123
-0.12118381 0.19215333 0.70300001 7958435
-0.11950381 0.19160667 0.70100003 8156068
-0.11800001 0.19133334 0.70000005 9011377
-0.11666667 0.19133334 0.70000005 8945834
-0.11500382 0.19078667 0.69800001 9011627
-0.11367428 0.19078667 0.69800001 8880050
-0.11234476 0.19078667 0.69800001 8748464
-0.11101524 0.19078667 0.69800001 8616876
-0.10968572 0.19078667 0.69800001 7827360
-0.10835619 0.19078667 0.69800001 8420521
-0.10702667 0.19078667 0.69800001 9275830
-0.10569715 0.19078667 0.69800001 9011641
-0.10436761 0.19078667 0.69800001 9143227
-0.10333334 0.19133334 0.70000005 9209040
-0.10200001 0.19133334 0.70000005 8287938
-0.10066667 0.19133334 0.70000005 7828414
-0.099333346 0.19133334 0.70000005 8354758
-0.098000005 0.19133334 0.70000005 8748989
-0.096804768 0.19160667 0.70100003 8748989
-0.095469527 0.19160667 0.70100003 7829661
-0.094134286 0.19160667 0.70100003 7895454
-0.093063809 0.19215333 0.70300001 7501223
-0.091724768 0.19215333 0.70300001 10396115
-0.090514295 0.19242668 0.70400006 10725082
-0.089173339 0.19242668 0.70400006 10725082
-0.088081911 0.19297335 0.70600003 10069723
-0.086737148 0.19297335 0.70600003 10069723
-0.085392386 0.19297335 0.70600003 10135773
-0.084166668 0.19324668 0.70700002 8688327
-0.082937144 0.19351999 0.708 5929407
-0.08181905 0.19406667 0.71000004 5732028
-0.080920003 0.19516002 0.71400005 5337540
-0.079782858 0.19570667 0.71600002 4153266
-0.078747623 0.19652668 0.71900004 3364278
-0.077700958 0.19734669 0.72200006 3101106
-0.076325722 0.19734669 0.72200006 4346541
-0.075054288 0.19762 0.72300005 5136057
-0.073677152 0.19762 0.72300005 7960971
-0.072800003 0.19898668 0.72800004 9934761
-0.071413331 0.19898668 0.72800004 10065811
-0.13842668 0.19707048 0.71600002 9736837
-0.13706286 0.19707048 0.71600002 9802630
-0.13513048 0.19624478 0.71300006 8094086
-0.13339715 0.19569428 0.71100003 5199194
-0.13204286 0.19569428 0.71100003 4674706
-0.13050477 0.19541906 0.71000004 4872085
-0.12915239 0.19541906 0.71000004 5923992
-0.12743999 0.19486856 0.708 8029368
-0.12573524 0.1943181 0.70600003 9081279
-0.12439048 0.1943181 0.70600003 9147072
-0.12269716 0.19376762 0.70400006 9146570
-0.1213562 0.19376762 0.70400006 7370159
-0.11950381 0.1929419 0.70100003 7435941
-0.11816857 0.1929419 0.70100003 8225457
-0.11666667 0.19266668 0.70000005 8686519
-0.11533334 0.19266668 0.70000005 8423347
-0.114 0.19266668 0.70000005 8752305
-0.11234476 0.19211619 0.69800001 8554926
-0.11101524 0.19211619 0.69800001 8423360
-0.10968572 0.19211619 0.69800001 7831223
-0.10866667 0.19266668 0.70000005 7766198
-0.10733334 0.19266668 0.70000005 8226749
-0.10600001 0.19266668 0.70000005 8225961
-0.10466667 0.19266668 0.70000005 8752305
-0.10333334 0.19266668 0.70000005 9869291
-0.10200001 0.19266668 0.70000005 7303364
-0.10081048 0.1929419 0.70100003 6254254
-0.099475242 0.1929419 0.70100003 6714805
-0.098140001 0.1929419 0.70100003 7107775
-0.096804768 0.1929419 0.70100003 6778810
-0.095469527 0.1929419 0.70100003 5463689
-0.094402857 0.19349238 0.70300001 5990033
-0.093063809 0.19349238 0.70300001 6121373
-0.091855243 0.19376762 0.70400006 9871574
-0.090514295 0.19376762 0.70400006 10267107
-0.089426666 0.1943181 0.70600003 9938142
-0.088081911 0.1943181 0.70600003 9938394
-0.086860001 0.19459333 0.70700002 10135773
-0.085513331 0.19459333 0.70700002 10201318
-0.084285714 0.19486856 0.708 8293321
-0.082937144 0.19486856 0.708 5535414
-0.08181905 0.19541906 0.71000004 4877484
-0.080920003 0.19652 0.71400005 5271234
-0.079782858 0.19707048 0.71600002 4284339
-0.078747623 0.1978962 0.71900004 4152757
-0.07748571 0.19817142 0.72000003 3560620
-0.076325722 0.19872192 0.72200006 4280748
-0.074950479 0.19872192 0.72200006 5136057
-0.073677152 0.19899715 0.72300005 7829385
-0.072700009 0.2000981 0.72700006 9934761
-0.071315244 0.2000981 0.72700006 9999766
-0.13842668 0.19843429 0.71600002 9605249
-0.13706286 0.19843429 0.71600002 9934214
-0.13532001 0.19788001 0.71400005 8554123
-0.13377239 0.19760287 0.71300006 5330266
-0.13204286 0.19704857 0.71100003 4018580
-0.13068858 0.19704857 0.71100003 3755408
-0.12915239 0.19677144 0.71000004 5333397
-0.12743999 0.19621713 0.708 7636152
-0.12591334 0.19594 0.70700002 8883889
-0.12439048 0.19566287 0.70600003 9476026
-0.12304571 0.19566287 0.70600003 9343942
-0.1213562 0.19510858 0.70400006 7238566
-0.11984476 0.19483143 0.70300001 6910369
-0.11816857 0.19427715 0.70100003 6976162
-0.11683334 0.19427715 0.70100003 6385063
-0.11533334 0.19400001 0.70000005 4871824
-0.114 0.19400001 0.70000005 4675465
-0.11266667 0.19400001 0.70000005 5530774
-0.11133334 0.19400001 0.70000005 6384048
-0.11000001 0.19400001 0.70000005 6120876
-0.10866667 0.19400001 0.70000005 6319016
-0.10733334 0.19400001 0.70000005 5792672
-0.10600001 0.19400001 0.70000005 5136007
-0.10466667 0.19400001 0.70000005 7570348
-0.10348096 0.19427715 0.70100003 9410771
-0.10214572 0.19427715 0.70100003 6515879
-0.10081048 0.19427715 0.70100003 4614042
-0.099475242 0.19427715 0.70100003 5403558
-0.098420002 0.19483143 0.70300001 6452671
-0.097080946 0.19483143 0.70300001 6123706
-0.095741905 0.19483143 0.70300001 5859730
-0.094402857 0.19483143 0.70300001 6386074
-0.093196198 0.19510858 0.70400006 6187421
-0.091855243 0.19510858 0.70400006 8884934
-0.090514295 0.19510858 0.70400006 9806040
-0.089426666 0.19566287 0.70600003 9345489
-0.088081911 0.19566287 0.70600003 9675472
-0.086860001 0.19594 0.70700002 10136023
-0.085513331 0.19594 0.70700002 10135262
-0.084285714 0.19621713 0.708 8293058
-0.083171427 0.19677144 0.71000004 5403324
-0.081934288 0.19704857 0.71100003 3955878
-0.080920003 0.19788001 0.71400005 3299777
-0.079782858 0.19843429 0.71600002 3365570
-0.078747623 0.19926573 0.71900004 3759028
-0.077378094 0.19926573 0.71900004 3627442
-0.076114289 0.19954287 0.72000003 4609708
-0.074950479 0.20009716 0.72200006 5530810
-0.073677152 0.20037431 0.72300005 7895437
-0.072700009 0.20148288 0.72700006 9869227
-0.071315244 0.20148288 0.72700006 10065811
-0.13861999 0.20007715 0.71700001 9408129
-0.13725428 0.20007715 0.71700001 9868680
-0.13569905 0.19979811 0.71600002 8751498
-0.13396001 0.19924001 0.71400005 5659227
-0.1324143 0.19896096 0.71300006 3822216
-0.13068858 0.19840287 0.71100003 3822216
-0.12915239 0.19812383 0.71000004 5333397
-0.1278 0.19812383 0.71000004 7372980
-0.12591334 0.19728667 0.70700002 8686260
-0.12439048 0.19700761 0.70600003 9409983
-0.12304571 0.19700761 0.70600003 9279162
-0.1213562 0.19644953 0.70400006 7107993
-0.11984476 0.19617048 0.70300001 6714276
-0.11816857 0.19561239 0.70100003 6714276
-0.11683334 0.19561239 0.70100003 5925282
-0.1154981 0.19561239 0.70100003 4675215
-0.114 0.19533335 0.70000005 4281495
-0.11266667 0.19533335 0.70000005 5268390
-0.11133334 0.19533335 0.70000005 6449841
-0.11000001 0.19533335 0.70000005 6581427
-0.10866667 0.19533335 0.70000005 6254508
-0.10733334 0.19533335 0.70000005 5267613
-0.10600001 0.19533335 0.70000005 2642312
-0.10466667 0.19533335 0.70000005 6918857
-0.10348096 0.19561239 0.70100003 8952796
-0.10214572 0.19561239 0.70100003 7110592
-0.10109809 0.19617048 0.70300001 4351919
-0.09975905 0.19617048 0.70300001 5075642
-0.098420002 0.19617048 0.70300001 7241928
-0.097219057 0.19644953 0.70400006 6978756
-0.095878102 0.19644953 0.70400006 6123170
-0.094537146 0.19644953 0.70400006 6057377
-0.093196198 0.19644953 0.70400006 6186660
-0.091855243 0.19644953 0.70400006 8555208
-0.090771429 0.19700761 0.70600003 8361422
-0.089426666 0.19700761 0.70600003 8098250
-0.088206671 0.19728667 0.70700002 8754631
-0.086982854 0.19756572 0.708 9807319
-0.085876197 0.19812383 0.71000004 9938137
-0.084523819 0.19812383 0.71000004 8161726
-0.083522864 0.19896096 0.71300006 5534910
-0.082280003 0.19924001 0.71400005 3824292
-0.081146665 0.19979811 0.71600002 3102648
-0.079894282 0.20007715 0.71700001 2971062
-0.078747623 0.20063524 0.71900004 3364018
-0.077378094 0.20063524 0.71900004 3166639
-0.076114289 0.20091429 0.72000003 4609704
-0.074950479 0.2014724 0.72200006 5662392
-0.073880956 0.20230952 0.72500002 8092559
-0.072700009 0.20286763 0.72700006 9934763
-0.071315244 0.20286763 0.72700006 9999766
-0.13725428 0.20144285 0.71700001 9868421
-0.13569905 0.20116191 0.71600002 9015176
-0.13396001 0.20060001 0.71400005 6120284
-0.13260001 0.20060001 0.71400005 3954311
-0.1310562 0.20031907 0.71300006 3888518
-0.12915239 0.1994762 0.71000004 5464722
-0.1278 0.1994762 0.71000004 7504305
-0.12644762 0.1994762 0.71000004 8818090
-0.12474285 0.19891429 0.708 8818090
-0.12322 0.19863333 0.70700002 8423580
-0.1213562 0.1977905 0.70400006 6515583
-0.12001524 0.1977905 0.70400006 6384813
-0.11850572 0.19750953 0.70300001 6976950
-0.11716667 0.19750953 0.70300001 6911916
-0.1154981 0.19694763 0.70100003 7240881
-0.11416285 0.19694763 0.70100003 7240633
-0.11282763 0.19694763 0.70100003 7832770
-0.11149239 0.19694763 0.70100003 8160450
-0.11015715 0.19694763 0.70100003 8226243
-0.10882191 0.19694763 0.70100003 7832766
-0.10748667 0.19694763 0.70100003 7503801
-0.10615143 0.19694763 0.70100003 7505086
-0.1048162 0.19694763 0.70100003 8491981
-0.10348096 0.19694763 0.70100003 9412050
-0.10214572 0.19694763 0.70100003 9609429
-0.10109809 0.19750953 0.70300001 7966160
-0.09975905 0.19750953 0.70300001 6847679
-0.098560005 0.1977905 0.70400006 7111371
-0.097219057 0.1977905 0.70400006 7177164
-0.095878102 0.1977905 0.70400006 6188976
-0.094537146 0.1977905 0.70400006 5860011
-0.093196198 0.1977905 0.70400006 6318257
-0.092116199 0.19835238 0.70600003 6778808
-0.090771429 0.19835238 0.70600003 6649775
-0.089553341 0.19863333 0.70700002 6649775
-0.088331431 0.19891429 0.708 8228021
-0.086982854 0.19891429 0.708 9214916
-0.085876197 0.1994762 0.71000004 9148610
-0.084642857 0.19975714 0.71100003 7437992
-0.083522864 0.20031907 0.71300006 5797312
-0.082280003 0.20060001 0.71400005 3823522
-0.081259996 0.20144285 0.71700001 3102905
-0.079894282 0.20144285 0.71700001 2510768
-0.078747623 0.20200478 0.71900004 2838963
-0.07748571 0.20228572 0.72000003 2509998
-0.076325722 0.20284763 0.72200006 3887266
-0.075054288 0.20312859 0.72300005 5729470
-0.073677152 0.20312859 0.72300005 8224402
-0.072700009 0.20425239 0.72700006 9803434
-0.071315244 0.20425239 0.72700006 10000018
-0.13725428 0.20280857 0.71700001 10064269
-0.13569905 0.20252572 0.71600002 9278346
-0.13396001 0.20196001 0.71400005 6251868
-0.13260001 0.20196001 0.71400005 4545417
-0.1310562 0.20167716 0.71300006 4348038
-0.1293343 0.20111144 0.71100003 5726865
-0.12797999 0.20111144 0.71100003 7634862
-0.12644762 0.20082858 0.71000004 8357547
-0.12474285 0.20026286 0.708 8291754
-0.12322 0.19998001 0.70700002 7765671
-0.12170096 0.19969715 0.70600003 6581397
-0.12001524 0.19913144 0.70400006 5991075
-0.11867429 0.19913144 0.70400006 6649005
-0.11716667 0.19884858 0.70300001 6846123
-0.11582762 0.19884858 0.70300001 6977709
-0.11448857 0.19884858 0.70300001 7174579
-0.11314952 0.19884858 0.70300001 7700923
-0.11149239 0.19828287 0.70100003 7833020
-0.11015715 0.19828287 0.70100003 7767227
-0.10882191 0.19828287 0.70100003 7899065
-0.10748667 0.19828287 0.70100003 7833272
-0.10615143 0.19828287 0.70100003 7833788
-0.10511524 0.19884858 0.70300001 8360132
-0.10377619 0.19884858 0.70300001 9280216
-0.10243714 0.19884858 0.70300001 9411802
-0.10109809 0.19884858 0.70300001 8820181
-0.09975905 0.19884858 0.70300001 7833286
-0.098560005 0.19913144 0.70400006 7177418
-0.097219057 0.19913144 0.70400006 7111625
-0.095878102 0.19913144 0.70400006 6058426
-0.094537146 0.19913144 0.70400006 5926840
-0.093460955 0.19969715 0.70600003 6516649
-0.092116199 0.19969715 0.70600003 6714028
-0.090899996 0.19998001 0.70700002 6452130
-0.089553341 0.19998001 0.70700002 6715302
-0.088331431 0.20026286 0.708 8094909
-0.087228574 0.20082858 0.71000004 8752839
-0.085997149 0.20111144 0.71100003 8359373
-0.084642857 0.20111144 0.71100003 7109306
-0.083522864 0.20167716 0.71300006 5797573
-0.082510479 0.20252572 0.71600002 4218541
-0.081259996 0.20280857 0.71700001 3496895
-0.080117144 0.2033743 0.71900004 2773172
-0.078857146 0.20365715 0.72000003 3035313
-0.07748571 0.20365715 0.72000003 2706348
-0.076325722 0.20422287 0.72200006 3492767
-0.075054288 0.20450573 0.72300005 5729729
-0.073677152 0.20450573 0.72300005 8356242
-0.072800003 0.20592001 0.72800004 9803688
-0.071413331 0.20592001 0.72800004 9868180
-0.13569905 0.20388952 0.71600002 9278087
-0.13433523 0.20388952 0.71600002 6514781
-0.13260001 0.20332001 0.71400005 4545417
-0.13124 0.20332001 0.71400005 3821694
-0.12969811 0.20303525 0.71300006 4609690
-0.12797999 0.20246571 0.71100003 5859757
-0.12644762 0.20218095 0.71000004 6319772
-0.12509525 0.20218095 0.71000004 6911909
-0.12339428 0.20161143 0.708 6714537
-0.12170096 0.20104191 0.70600003 6319779
-0.12035619 0.20104191 0.70600003 5991584
-0.11867429 0.2004724 0.70400006 6320549
-0.11733335 0.2004724 0.70400006 6320551
-0.11599239 0.2004724 0.70400006 6057379
-0.11448857 0.20018762 0.70300001 6517928
-0.11314952 0.20018762 0.70300001 6781100
-0.11181048 0.20018762 0.70300001 6912690
-0.11047143 0.20018762 0.70300001 6846897
-0.10913239 0.20018762 0.70300001 6913969
-0.10779333 0.20018762 0.70300001 6913969
-0.10645428 0.20018762 0.70300001 7111859
-0.10511524 0.20018762 0.70300001 7309238
-0.10377619 0.20018762 0.70300001 8425423
-0.10243714 0.20018762 0.70300001 8293837
-0.10124191 0.2004724 0.70400006 8031946
-0.099900961 0.2004724 0.70400006 8031946
-0.098560005 0.2004724 0.70400006 7702731
-0.097219057 0.2004724 0.70400006 7702731
-0.095878102 0.2004724 0.70400006 7503051
-0.094805717 0.20104191 0.70600003 7174086
-0.093460955 0.20104191 0.70600003 7042723
-0.092116199 0.20104191 0.70600003 6911137
-0.090899996 0.20132667 0.70700002 6452126
-0.089680001 0.20161143 0.708 6715298
-0.088331431 0.20161143 0.708 7374025
-0.087228574 0.20218095 0.71000004 7571404
-0.085997149 0.20246571 0.71100003 7177677
-0.084880956 0.20303525 0.71300006 5664438
-0.083640002 0.20332001 0.71400005 4286663
-0.082510479 0.20388952 0.71600002 4089284
-0.081259996 0.20417428 0.71700001 4022212
-0.080117144 0.20474382 0.71900004 3166903
-0.078857146 0.20502858 0.72000003 2904237
-0.07748571 0.20502858 0.72000003 2509479
-0.076325722 0.20559812 0.72200006 3492767
-0.075054288 0.20588288 0.72300005 5729729
-0.073677152 0.20588288 0.72300005 8355727
-0.072800003 0.20730668 0.72800004 9803173
-0.071413331 0.20730668 0.72800004 9802133
-0.13626763 0.20611334 0.71900004 9278087
-0.13433523 0.20525333 0.71600002 6777953
-0.13260001 0.20468001 0.71400005 5200519
-0.13124 0.20468001 0.71400005 4279417
-0.12969811 0.20439336 0.71300006 3625355
-0.12834001 0.20439336 0.71300006 4612250
-0.12662572 0.20382001 0.71100003 5073055
-0.12509525 0.20353334 0.71000004 5862571
-0.12339428 0.20296 0.708 6190766
-0.12187333 0.20267333 0.70700002 6059180
-0.12035619 0.20238668 0.70600003 6124721
-0.11901143 0.20238668 0.70600003 6453686
-0.11766667 0.20238668 0.70600003 6650806
-0.11599239 0.20181336 0.70400006 6585013
-0.11465143 0.20181336 0.70400006 6846391
-0.11331049 0.20181336 0.70400006 7043770
-0.11181048 0.20152666 0.70300001 7175097
-0.11047143 0.20152666 0.70300001 7240890
-0.10913239 0.20152666 0.70300001 7242682
-0.10779333 0.20152666 0.70300001 7242682
-0.10645428 0.20152666 0.70300001 7440322
-0.10511524 0.20152666 0.70300001 7506115
-0.10377619 0.20152666 0.70300001 7769044
-0.10258286 0.20181336 0.70400006 7308493
-0.10124191 0.20181336 0.70400006 7177927
-0.099900961 0.20181336 0.70400006 7506892
-0.098560005 0.20181336 0.70400006 7767754
-0.097219057 0.20181336 0.70400006 7833547
-0.09615048 0.20238668 0.70600003 8094407
-0.094805717 0.20238668 0.70600003 7699649
-0.093460955 0.20238668 0.70600003 7633313
-0.092246667 0.20267333 0.70700002 7764899
-0.090899996 0.20267333 0.70700002 6846886
-0.089680001 0.20296 0.708 6846886
-0.088580951 0.20353334 0.71000004 6980557
-0.087351426 0.20382001 0.71100003 6980557
-0.086239055 0.20439336 0.71300006 6194895
-0.084880956 0.20439336 0.71300006 4484277
-0.083640002 0.20468001 0.71400005 3105476
-0.082625717 0.20554 0.71700001 3171269
-0.081259996 0.20554 0.71700001 4350654
-0.080117144 0.20611334 0.71900004 3429552
-0.078857146 0.20639999 0.72000003 3232175
-0.07748571 0.20639999 0.72000003 2837417
-0.076325722 0.20697336 0.72200006 3689635
-0.075054288 0.20726001 0.72300005 5268667
-0.073880956 0.20783333 0.72500002 8420750
-0.072499998 0.20783333 0.72500002 9868196
-0.13821143 0.20834859 0.72200006 9604999
-0.1368362 0.20834859 0.72200006 9212040
-0.13452287 0.20690572 0.71700001 7633008
-0.13297144 0.20661715 0.71600002 5069962
-0.13160762 0.20661715 0.71600002 3622516
-0.12969811 0.20575145 0.71300006 3165844
-0.12834001 0.20575145 0.71300006 4350118
-0.12662572 0.2051743 0.71100003 4744106
-0.12509525 0.20488572 0.71000004 5862587
-0.12339428 0.20430857 0.708 6322870
-0.12187333 0.20402001 0.70700002 6191284
-0.12035619 0.20373145 0.70600003 6322368
-0.11901143 0.20373145 0.70600003 6914505
-0.11766667 0.20373145 0.70600003 7373766
-0.11599239 0.2031543 0.70400006 7768524
-0.11465143 0.2031543 0.70400006 7637186
-0.11331049 0.2031543 0.70400006 7702979
-0.11196953 0.2031543 0.70400006 7637186
-0.11062858 0.2031543 0.70400006 7768772
-0.10928763 0.2031543 0.70400006 7506626
-0.10794667 0.2031543 0.70400006 7506626
-0.10645428 0.20286572 0.70300001 7440849
-0.10511524 0.20286572 0.70300001 7572435
-0.10392382 0.2031543 0.70400006 7178197
-0.10258286 0.2031543 0.70400006 6454474
-0.10124191 0.2031543 0.70400006 6651855
-0.099900961 0.2031543 0.70400006 7572957
-0.098560005 0.2031543 0.70400006 9017285
-0.097219057 0.2031543 0.70400006 9148871
-0.09615048 0.20373145 0.70600003 9080766
-0.094805717 0.20373145 0.70600003 8291250
-0.093460955 0.20373145 0.70600003 7963302
-0.092246667 0.20402001 0.70700002 8094888
-0.091028571 0.20430857 0.708 7111094
-0.089933343 0.20488572 0.71000004 7242680
-0.088580951 0.20488572 0.71000004 6915791
-0.087351426 0.2051743 0.71100003 6849998
-0.086239055 0.20575145 0.71300006 6654161
-0.085000008 0.20604001 0.71400005 5798852
-0.083874285 0.20661715 0.71600002 4682188
-0.082625717 0.20690572 0.71700001 3168949
-0.081259996 0.20690572 0.71700001 3562937
-0.080117144 0.20748286 0.71900004 3497144
-0.078857146 0.20777144 0.72000003 3495347
-0.07748571 0.20777144 0.72000003 2705831
-0.076325722 0.20834859 0.72200006 3426734
-0.075054288 0.20863715 0.72300005 4874180
-0.074084766 0.20979145 0.72700006 7961734
-0.072999999 0.21065715 0.73000002 10001317
-0.071609527 0.21065715 0.73000002 9933973
-0.13588856 0.20827143 0.71700001 9146247
-0.13315715 0.20827143 0.71700001 5531269
-0.13160762 0.20798096 0.71600002 3491686
-0.12988001 0.20740001 0.71400005 3034769
-0.12834001 0.20710953 0.71300006 3890078
-0.12662572 0.20652857 0.71100003 4547493
-0.12509525 0.20623811 0.71000004 5600181
-0.12339428 0.20565714 0.708 5732789
-0.12187333 0.20536667 0.70700002 5732789
-0.12035619 0.20507619 0.70600003 6256834
-0.11901143 0.20507619 0.70600003 6651592
-0.11766667 0.20507619 0.70600003 6915014
-0.11599239 0.20449525 0.70400006 6849221
-0.11465143 0.20449525 0.70400006 6914244
-0.11331049 0.20449525 0.70400006 6980037
-0.11196953 0.20449525 0.70400006 6783428
-0.11062858 0.20449525 0.70400006 6717635
-0.10928763 0.20449525 0.70400006 6717896
-0.10794667 0.20449525 0.70400006 6783689
-0.10660572 0.20449525 0.70400006 6587089
-0.10526477 0.20449525 0.70400006 7047640
-0.10392382 0.20449525 0.70400006 6719193
-0.10258286 0.20449525 0.70400006 5732298
-0.10124191 0.20449525 0.70400006 5994943
-0.099900961 0.20449525 0.70400006 7508182
-0.098560005 0.20449525 0.70400006 9279946
-0.097495243 0.20507619 0.70600003 9345739
-0.09615048 0.20507619 0.70600003 9080768
-0.094805717 0.20507619 0.70600003 8225459
-0.093460955 0.20507619 0.70600003 7962796
-0.092246667 0.20536667 0.70700002 7897003
-0.091028571 0.20565714 0.708 6848694
-0.089933343 0.20623811 0.71000004 6914487
-0.088580951 0.20623811 0.71000004 6718421
-0.087351426 0.20652857 0.71100003 7113179
-0.086239055 0.20710953 0.71300006 7311323
-0.085000008 0.20740001 0.71400005 6784979
-0.083874285 0.20798096 0.71600002 5995468
-0.082625717 0.20827143 0.71700001 4482229
-0.081486672 0.2088524 0.71900004 3300795
-0.080117144 0.2088524 0.71900004 3103416
-0.078857146 0.20914286 0.72000003 3824051
-0.077700958 0.20972383 0.72200006 3034535
-0.076431431 0.2100143 0.72300005 3492265
-0.075054288 0.2100143 0.72300005 4742332
-0.074186668 0.21146667 0.72800004 7829898
-0.072999999 0.21204762 0.73000002 9869481
-0.071609527 0.21204762 0.73000002 9934232
-0.13315715 0.20963715 0.71700001 5727878
-0.13160762 0.20934477 0.71600002 3425123
-0.12988001 0.20876001 0.71400005 2705809
-0.12834001 0.20846763 0.71300006 3495325
-0.12662572 0.20788287 0.71100003 5202849
-0.12509525 0.20759049 0.71000004 5926572
-0.12374286 0.20759049 0.71000004 5731496
-0.12187333 0.20671335 0.70700002 5731496
-0.12052666 0.20671335 0.70700002 5205436
-0.11901143 0.20642096 0.70600003 4810678
-0.11766667 0.20642096 0.70600003 4614841
-0.11632191 0.20642096 0.70600003 4680634
-0.11497714 0.20642096 0.70600003 4811455
-0.11331049 0.20583621 0.70400006 5403592
-0.11196953 0.20583621 0.70400006 5863364
-0.11062858 0.20583621 0.70400006 6389708
-0.10928763 0.20583621 0.70400006 6323915
-0.10794667 0.20583621 0.70400006 6652880
-0.10660572 0.20583621 0.70400006 7375826
-0.10526477 0.20583621 0.70400006 8033756
-0.10392382 0.20583621 0.70400006 7706072
-0.10258286 0.20583621 0.70400006 5534903
-0.10124191 0.20583621 0.70400006 5863366
-0.099900961 0.20583621 0.70400006 7705570
-0.098560005 0.20583621 0.70400006 9345214
-0.097495243 0.20642096 0.70600003 8950456
-0.09615048 0.20642096 0.70600003 8948914
-0.094805717 0.20642096 0.70600003 8159398
-0.093460955 0.20642096 0.70600003 7634612
-0.092246667 0.20671335 0.70700002 7042475
-0.091028571 0.20700571 0.708 6059709
-0.089933343 0.20759049 0.71000004 6586053
-0.088580951 0.20759049 0.71000004 7178967
-0.087351426 0.20788287 0.71100003 7902690
-0.086239055 0.20846763 0.71300006 8295645
-0.085000008 0.20876001 0.71400005 7440336
-0.083874285 0.20934477 0.71600002 6521544
-0.082625717 0.20963715 0.71700001 5732028
-0.081486672 0.21022192 0.71900004 4614848
-0.080228575 0.21051429 0.72000003 3167402
-0.079076193 0.21109907 0.72200006 3167663
-0.077700958 0.21109907 0.72200006 3036077
-0.076642863 0.2119762 0.72500002 4084395
-0.075469524 0.21256097 0.72700006 4808118
-0.074084766 0.21256097 0.72700006 7172493
-0.072800003 0.21285334 0.72800004 9606834
-0.071413331 0.21285334 0.72800004 9868439
-0.13452287 0.21100286 0.71700001 8093043
-0.13315715 0.21100286 0.71700001 6319235
-0.13179143 0.21100286 0.71700001 3950687
-0.12988001 0.21012001 0.71400005 3362194
-0.12834001 0.20982572 0.71300006 4085917
-0.12662572 0.20923714 0.71100003 5070241
-0.12527142 0.20923714 0.71100003 5399206
-0.12374286 0.20894288 0.71000004 4745383
-0.12204571 0.20835428 0.708 5074348
-0.12052666 0.20806001 0.70700002 5074366
-0.11918 0.20806001 0.70700002 4284850
-0.11766667 0.20776571 0.70600003 3629750
-0.11632191 0.20776571 0.70600003 3827129
-0.11497714 0.20776571 0.70600003 4745916
-0.11363238 0.20776571 0.70600003 5338053
-0.11196953 0.20717715 0.70400006 5666755
-0.11062858 0.20717715 0.70400006 6061513
-0.10928763 0.20717715 0.70400006 6323658
-0.10794667 0.20717715 0.70400006 6784209
-0.10660572 0.20717715 0.70400006 7441367
-0.10526477 0.20717715 0.70400006 8033504
-0.10392382 0.20717715 0.70400006 8231910
-0.10258286 0.20717715 0.70400006 5731776
-0.10124191 0.20717715 0.70400006 5337279
-0.10018477 0.20776571 0.70600003 7968999
-0.098840006 0.20776571 0.70600003 9739468
-0.097495243 0.20776571 0.70600003 8752573
-0.09615048 0.20776571 0.70600003 8619949
-0.094805717 0.20776571 0.70600003 8290984
-0.093593337 0.20806001 0.70700002 7765932
-0.092377141 0.20835428 0.708 7108002
-0.091028571 0.20835428 0.708 5797310
-0.089933343 0.20894288 0.71000004 6126275
-0.088580951 0.20894288 0.71000004 6851029
-0.087351426 0.20923714 0.71100003 7772131
-0.086239055 0.20982572 0.71300006 8361953
-0.085000008 0.21012001 0.71400005 7572437
-0.083874285 0.21070857 0.71600002 6455499
-0.082510479 0.21070857 0.71600002 5337018
-0.081486672 0.21159144 0.71900004 5140159
-0.080228575 0.21188572 0.72000003 3692713
-0.079076193 0.2124743 0.72200006 2905007
-0.077808574 0.21276858 0.72300005 2839214
-0.076642863 0.21335715 0.72500002 4215979
-0.075469524 0.21394573 0.72700006 4215979
-0.074084766 0.21394573 0.72700006 7302537
-0.072800003 0.21424001 0.72800004 9736878
-0.071413331 0.21424001 0.72800004 9934232
-0.13179143 0.21236856 0.71700001 3556695
-0.12988001 0.21148001 0.71400005 2969753
-0.12834001 0.21118382 0.71300006 4154027
-0.12662572 0.21059144 0.71100003 4022175
-0.12527142 0.21059144 0.71100003 2706315
-0.12374286 0.21029525 0.71000004 2775206
-0.12204571 0.20970286 0.708 3893687
-0.12052666 0.20940666 0.70700002 4023491
-0.11918 0.20940666 0.70700002 3299768
-0.11766667 0.20911048 0.70600003 2710459
-0.11632191 0.20911048 0.70600003 3434182
-0.11497714 0.20911048 0.70600003 5009345
-0.11363238 0.20911048 0.70600003 5404103
-0.11228763 0.20911048 0.70600003 5469385
-0.11094286 0.20911048 0.70600003 5929936
-0.1095981 0.20911048 0.70600003 6062035
-0.10825334 0.20911048 0.70600003 6391000
-0.10690857 0.20911048 0.70600003 7310551
-0.10556381 0.20911048 0.70600003 7968481
-0.10421906 0.20911048 0.70600003 7968481
-0.10287429 0.20911048 0.70600003 6323656
-0.10152952 0.20911048 0.70600003 6651594
-0.10018477 0.20911048 0.70600003 8493798
-0.098840006 0.20911048 0.70600003 9738950
-0.097633332 0.20940666 0.70700002 8686262
-0.096286669 0.20940666 0.70700002 8290982
-0.094939999 0.20940666 0.70700002 8356775
-0.093725719 0.20970286 0.708 7372197
-0.092377141 0.20970286 0.708 7306404
-0.091028571 0.20970286 0.708 6651851
-0.089933343 0.21029525 0.71000004 6586058
-0.088580951 0.21029525 0.71000004 7178447
-0.087351426 0.21059144 0.71100003 8362721
-0.086239055 0.21118382 0.71300006 8624603
-0.085000008 0.21148001 0.71400005 7769294
-0.083874285 0.21207239 0.71600002 6389447
-0.082510479 0.21207239 0.71600002 4284071
-0.081486672 0.21296096 0.71900004 4154810
-0.080228575 0.21325715 0.72000003 3891638
-0.079076193 0.21384954 0.72200006 3102646
-0.078023814 0.2147381 0.72500002 2247337
-0.076854289 0.21533048 0.72700006 3297196
-0.075469524 0.21533048 0.72700006 3428782
-0.074186668 0.21562669 0.72800004 6645897
-0.072999999 0.21621904 0.73000002 9409203
-0.071609527 0.21621904 0.73000002 9934230
-0.070219047 0.21621904 0.73000002 9671058
-0.13179143 0.21373428 0.71700001 3819867
-0.12988001 0.21284001 0.71400005 3231383
-0.12834001 0.21254192 0.71300006 4218278
-0.12698191 0.21254192 0.71300006 3694752
-0.12527142 0.21194573 0.71100003 2642064
-0.12374286 0.21164763 0.71000004 1791389
-0.12204571 0.21105143 0.708 3238835
-0.12052666 0.21075334 0.70700002 3892915
-0.11918 0.21075334 0.70700002 2840227
-0.11783334 0.21075334 0.70700002 2185386
-0.11648667 0.21075334 0.70700002 3172281
-0.11497714 0.21045525 0.70600003 5009586
-0.11363238 0.21045525 0.70600003 5206965
-0.11228763 0.21045525 0.70600003 5009849
-0.11094286 0.21045525 0.70600003 5799365
-0.1095981 0.21045525 0.70600003 6194121
-0.10825334 0.21045525 0.70600003 6062535
-0.10690857 0.21045525 0.70600003 7178440
-0.10556381 0.21045525 0.70600003 7836370
-0.10421906 0.21045525 0.70600003 7705295
-0.10287429 0.21045525 0.70600003 6849986
-0.10152952 0.21045525 0.70600003 7374786
-0.10032666 0.21075334 0.70700002 8756439
-0.098980002 0.21075334 0.70700002 9870788
-0.097771429 0.21105143 0.708 8423342
-0.096422859 0.21105143 0.708 8093351
-0.095342867 0.21164763 0.71000004 8356523
-0.093990475 0.21164763 0.71000004 7438510
-0.092638098 0.21164763 0.71000004 7438510
-0.09128572 0.21164763 0.71000004 6981570
-0.089933343 0.21164763 0.71000004 6784191
-0.088705719 0.21194573 0.71100003 7440579
-0.087351426 0.21194573 0.71100003 8493267
-0.086239055 0.21254192 0.71300006 8756432
-0.085238092 0.21343619 0.71600002 7637951
-0.083874285 0.21343619 0.71600002 6126275
-0.082625717 0.21373428 0.71700001 4349864
-0.081600003 0.21462858 0.72000003 4416958
-0.080451436 0.21522479 0.72200006 4022200
-0.079076193 0.21522479 0.72200006 3693487
-0.078023814 0.21611905 0.72500002 2706592
-0.076854289 0.21671526 0.72700006 3100326
-0.07557334 0.21701334 0.72800004 2902947
-0.074186668 0.21701334 0.72800004 6186380
-0.072999999 0.21760952 0.73000002 9278651
-0.071609527 0.21760952 0.73000002 9802648
-0.070219047 0.21760952 0.73000002 9671062
-0.13179143 0.21509999 0.71700001 3621713
-0.13024381 0.2148 0.71600002 2903708
-0.12852001 0.21420002 0.71400005 4153775
-0.12716 0.21420002 0.71400005 3891357
-0.12562382 0.21390001 0.71300006 3233427
-0.12391715 0.2133 0.71100003 4613540
-0.12239049 0.213 0.71000004 6521537
-0.12069714 0.2124 0.708 6978983
-0.11918 0.2121 0.70700002 6123674
-0.11783334 0.2121 0.70700002 5862317
-0.11648667 0.2121 0.70700002 6125489
-0.11497714 0.21180001 0.70600003 6190762
-0.11363238 0.21180001 0.70600003 6388141
-0.11228763 0.21180001 0.70600003 6453425
-0.11094286 0.21180001 0.70600003 7111355
-0.1095981 0.21180001 0.70600003 7111357
-0.10825334 0.21180001 0.70600003 7374529
-0.10690857 0.21180001 0.70600003 7505334
-0.10556381 0.21180001 0.70600003 7636920
-0.10421906 0.21180001 0.70600003 8031669
-0.10302 0.2121 0.70700002 8031669
-0.10167333 0.2121 0.70700002 8294593
-0.10032666 0.2121 0.70700002 9018316
-0.098980002 0.2121 0.70700002 9541819
-0.097771429 0.2124 0.708 8160166
-0.096695244 0.213 0.71000004 8223915
-0.095342867 0.213 0.71000004 8552880
-0.093990475 0.213 0.71000004 8949686
-0.092768572 0.2133 0.71100003 9607616
-0.091414288 0.2133 0.71100003 8885688
-0.090060003 0.2133 0.71100003 8622516
-0.088705719 0.2133 0.71100003 8228798
-0.087351426 0.2133 0.71100003 8294591
-0.086360008 0.21420002 0.71400005 8229300
-0.085238092 0.2148 0.71600002 7637163
-0.083874285 0.2148 0.71600002 6192322
-0.082625717 0.21509999 0.71700001 3692188
-0.081600003 0.21600001 0.72000003 4220102
-0.080451436 0.21660002 0.72200006 3825344
-0.079185717 0.21690001 0.72300005 3693478
-0.078239053 0.21810001 0.72700006 2969755
-0.076960005 0.2184 0.72800004 3231401
-0.07557334 0.2184 0.72800004 2770850
-0.074186668 0.2184 0.72800004 6054288
-0.072999999 0.21900001 0.73000002 9343938
-0.071609527 0.21900001 0.73000002 9802394
