# .PCD v0.7 - Point Cloud Data file format
VERSION 0.7
FIELDS x y z rgba
SIZE 4 4 4 4
TYPE F F F U
COUNT 1 1 1 1
WIDTH 1096
HEIGHT 1
VIEWPOINT 0 0 0 1 0 0 0
POINTS 1096
DATA ascii
-0.049202859 0.082004763 1.013 16311980
-0.047273334 0.082004763 1.013 16575152
-0.045343809 0.082004763 1.013 15985856
-0.040971428 0.077390477 0.95600003 15525305
-0.039150476 0.077390477 0.95600003 13291162
-0.037446667 0.077633336 0.95900005 12106888
-0.03562 0.077633336 0.95900005 13024848
-0.034075242 0.078280956 0.96700007 14801259
-0.032233335 0.078280956 0.96700007 16313265
-0.030485716 0.078523815 0.97000003 16774587
-0.028638097 0.078523815 0.97000003 16512196
-0.11726001 0.082940005 1.001 15062928
-0.11535333 0.082940005 1.001 16049823
-0.11344667 0.082940005 1.001 15720363
-0.1118743 0.083188578 1.0040001 15720363
-0.11029048 0.083437152 1.0070001 15588770
-0.10869523 0.083685718 1.01 15588770
-0.10677142 0.083685718 1.01 15390848
-0.10515904 0.083934292 1.013 14403953
-0.10353524 0.084182858 1.016 14337924
-0.1016 0.084182858 1.016 14272131
-0.099959053 0.084431432 1.0190001 14009981
-0.098306671 0.084680006 1.0220001 13944188
-0.096360005 0.084680006 1.0220001 13944447
-0.09441334 0.084680006 1.0220001 14404998
-0.092466667 0.084680006 1.0220001 14535805
-0.090520002 0.084680006 1.0220001 14601598
-0.088573337 0.084680006 1.0220001 14798214
-0.086626671 0.084680006 1.0220001 14929800
-0.084680006 0.084680006 1.0220001 15192706
-0.0829762 0.08492858 1.0250001 15324292
-0.081023812 0.08492858 1.0250001 15585681
-0.07907144 0.08492858 1.0250001 15585681
-0.077119052 0.08492858 1.0250001 15717526
-0.075166672 0.08492858 1.0250001 15783319
-0.073214293 0.08492858 1.0250001 16446343
-0.071053334 0.084680006 1.0220001 16775565
-0.069106668 0.084680006 1.0220001 16181695
-0.067160003 0.084680006 1.0220001 16313281
-0.065213338 0.084680006 1.0220001 16443552
-0.063266672 0.084680006 1.0220001 16443552
-0.061140005 0.084431432 1.0190001 16442782
-0.05919905 0.084431432 1.0190001 16772518
-0.057089522 0.084182858 1.016 16246450
-0.055154286 0.084182858 1.016 16443829
-0.053219046 0.084182858 1.016 15522718
-0.051132381 0.083934292 1.013 14667409
-0.049202859 0.083934292 1.013 14469262
-0.044520002 0.079045713 0.95400006 14600848
-0.042702857 0.079045713 0.95400006 13748358
-0.040885717 0.079045713 0.95400006 12366705
-0.039150476 0.079211429 0.95600003 12368234
-0.037446667 0.079460002 0.95900005 12499820
-0.03562 0.079460002 0.95900005 13220697
-0.033969525 0.079874292 0.96400005 14931315
-0.032233335 0.080122858 0.96700007 16379565
-0.03039143 0.080122858 0.96700007 16774580
-0.028549524 0.080122858 0.96700007 16446918
-0.026707619 0.080122858 0.96700007 16578504
-0.11535333 0.084846668 1.001 15654554
-0.11344667 0.084846668 1.001 15720111
-0.1118743 0.085100956 1.0040001 15720111
-0.11061905 0.085609525 1.01 15785647
-0.10869523 0.085609525 1.01 15719854
-0.10677142 0.085609525 1.01 16047259
-0.10515904 0.085863806 1.013 16178845
-0.10353524 0.086118095 1.016 15917485
-0.1016 0.086118095 1.016 15456934
-0.099959053 0.086372383 1.0190001 14668427
-0.098306671 0.086626671 1.0220001 14536841
-0.096360005 0.086626671 1.0220001 14471050
-0.09441334 0.086626671 1.0220001 14536843
-0.092466667 0.086626671 1.0220001 14929795
-0.090520002 0.086626671 1.0220001 14995588
-0.088573337 0.086626671 1.0220001 15126920
-0.086626671 0.086626671 1.0220001 15521678
-0.084680006 0.086626671 1.0220001 15849871
-0.082733333 0.086626671 1.0220001 15981457
-0.081023812 0.08688096 1.0250001 16377521
-0.07907144 0.08688096 1.0250001 16509107
-0.077119052 0.08688096 1.0250001 16644062
-0.075166672 0.08688096 1.0250001 16578269
-0.073214293 0.08688096 1.0250001 16645086
-0.071053334 0.086626671 1.0220001 16381914
-0.063764766 0.079930477 0.94300002 15721919
-0.061968572 0.079930477 0.94300002 15327161
-0.060172379 0.079930477 0.94300002 15785899
-0.058376193 0.079930477 0.94300002 16049071
-0.05658 0.079930477 0.94300002 16376737
-0.054958098 0.080184758 0.94600004 16508323
-0.053156193 0.080184758 0.94600004 16180657
-0.051354285 0.080184758 0.94600004 15456934
-0.049552381 0.080184758 0.94600004 13682822
-0.047851432 0.080354296 0.94800007 12761720
-0.046045717 0.080354296 0.94800007 12891498
-0.044380002 0.080608569 0.95100003 14207358
-0.042702857 0.080862865 0.95400006 13420177
-0.040885717 0.080862865 0.95400006 10788457
-0.039150476 0.08103238 0.95600003 11510830
-0.037446667 0.081286669 0.95900005 12300346
-0.035731431 0.081540957 0.96200007 13284448
-0.033969525 0.08171048 0.96400005 15652996
-0.032133333 0.08171048 0.96400005 16577464
-0.03039143 0.081964761 0.96700007 16775357
-0.028549524 0.081964761 0.96700007 16447427
-0.026707619 0.081964761 0.96700007 16447427
-0.024865715 0.081964761 0.96700007 16380862
-0.10924572 0.082160003 0.94800007 11774829
-0.10744001 0.082160003 0.94800007 12691584
-0.10563429 0.082160003 0.94800007 14073237
-0.10360952 0.081986673 0.94600004 14075272
-0.10180762 0.081986673 0.94600004 13943686
-0.10708857 0.087793328 1.013 14865022
-0.10515904 0.087793328 1.013 15457159
-0.10353524 0.088053331 1.016 15587991
-0.1016 0.088053331 1.016 15587991
-0.099959053 0.088313334 1.0190001 15326341
-0.098306671 0.088573337 1.0220001 15655306
-0.096360005 0.088573337 1.0220001 15589522
-0.09441334 0.088573337 1.0220001 15984280
-0.092466667 0.088573337 1.0220001 15522954
-0.090520002 0.088573337 1.0220001 15522954
-0.088573337 0.088573337 1.0220001 15127692
-0.086626671 0.088573337 1.0220001 15325071
-0.084680006 0.088573337 1.0220001 15325305
-0.082733333 0.088573337 1.0220001 14798961
-0.074304767 0.081466675 0.94000006 14994805
-0.072360002 0.081293337 0.93800002 15126391
-0.070573337 0.081293337 0.93800002 15258006
-0.068786673 0.081293337 0.93800002 15455385
-0.067142867 0.081466675 0.94000006 14864032
-0.06535238 0.081466675 0.94000006 14469274
-0.063764766 0.08172667 0.94300002 14075529
-0.061968572 0.08172667 0.94300002 13878150
-0.060172379 0.08172667 0.94300002 14010247
-0.058376193 0.08172667 0.94300002 13812868
-0.05658 0.08172667 0.94300002 14140797
-0.05478381 0.08172667 0.94300002 14864520
-0.053156193 0.081986673 0.94600004 14010749
-0.051354285 0.081986673 0.94600004 10852685
-0.049552381 0.081986673 0.94600004 10723894
-0.047851432 0.082160003 0.94800007 9013276
-0.046045717 0.082160003 0.94800007 11905866
-0.044380002 0.082419999 0.95100003 12761175
-0.042702857 0.082680002 0.95400006 11249512
-0.040885717 0.082680002 0.95400006 7236139
-0.039150476 0.082853332 0.95600003 8223813
-0.037563812 0.083373338 0.96200007 11381877
-0.035731431 0.083373338 0.96200007 12365665
-0.033969525 0.083546676 0.96400005 15326350
-0.032133333 0.083546676 0.96400005 16511925
-0.03039143 0.083806671 0.96700007 16776639
-0.028549524 0.083806671 0.96700007 16579783
-0.026707619 0.083806671 0.96700007 16579783
-0.10924572 0.083965719 0.94800007 11316325
-0.10744001 0.083965719 0.94800007 12166771
-0.10563429 0.083965719 0.94800007 14074768
-0.10360952 0.083788574 0.94600004 13616531
-0.10180762 0.083788574 0.94600004 12498050
-0.10000572 0.083788574 0.94600004 12367179
-0.097892381 0.083522864 0.94300002 13419867
-0.096096188 0.083522864 0.94300002 14009477
-0.094300002 0.083522864 0.94300002 13943684
-0.092503816 0.083522864 0.94300002 14075779
-0.090419047 0.083257146 0.94000006 14141572
-0.088628575 0.083257146 0.94000006 14141835
-0.086838104 0.083257146 0.94000006 14339214
-0.085047618 0.083257146 0.94000006 14536339
-0.083257146 0.083257146 0.94000006 13746823
-0.081293337 0.083080001 0.93800002 13220461
-0.079506665 0.083080001 0.93800002 13286254
-0.077471435 0.082814291 0.93500006 13353328
-0.075690478 0.082814291 0.93500006 13419121
-0.074146673 0.083080001 0.93800002 13155449
-0.072360002 0.083080001 0.93800002 13023863
-0.070573337 0.083080001 0.93800002 12958079
-0.068786673 0.083080001 0.93800002 12300149
-0.067142867 0.083257146 0.94000006 12431710
-0.06535238 0.083257146 0.94000006 12694882
-0.063764766 0.083522864 0.94300002 14140297
-0.061968572 0.083522864 0.94300002 14271883
-0.060172379 0.083522864 0.94300002 13880203
-0.058376193 0.083522864 0.94300002 12893308
-0.05658 0.083522864 0.94300002 12893551
-0.05478381 0.083522864 0.94300002 13419895
-0.053156193 0.083788574 0.94600004 12895100
-0.051354285 0.083788574 0.94600004 10789724
-0.049552381 0.083788574 0.94600004 10725194
-0.047851432 0.083965719 0.94800007 10922573
-0.046045717 0.083965719 0.94800007 11644261
-0.044380002 0.084231429 0.95100003 11052124
-0.042702857 0.084497146 0.95400006 10460253
-0.040885717 0.084497146 0.95400006 7236396
-0.039150476 0.084674291 0.95600003 7239960
-0.037563812 0.085205719 0.96200007 9411129
-0.035731431 0.085205719 0.96200007 11444565
-0.033969525 0.085382864 0.96400005 15523731
-0.032233335 0.085648574 0.96700007 16117681
-0.03039143 0.085648574 0.96700007 16776639
-0.028549524 0.085648574 0.96700007 16579533
-0.026707619 0.085648574 0.96700007 16513740
-0.11476191 0.087219052 0.96400005 11052133
-0.11269144 0.0870381 0.96200007 11644018
-0.11016762 0.086495236 0.95600003 12959878
-0.10744001 0.085771434 0.94800007 13352580
-0.10563429 0.085771434 0.94800007 12892029
-0.10382858 0.085771434 0.94800007 10196607
-0.10202286 0.085771434 0.94800007 7630680
-0.10000572 0.085590474 0.94600004 9077328
-0.097892381 0.085319042 0.94300002 13090701
-0.096096188 0.085319042 0.94300002 13023620
-0.094300002 0.085319042 0.94300002 12365690
-0.092503816 0.085319042 0.94300002 11776113
-0.090419047 0.085047618 0.94000006 11710320
-0.088628575 0.085047618 0.94000006 12103554
-0.086838104 0.085047618 0.94000006 13353621
-0.085047618 0.085047618 0.94000006 13747075
-0.083080001 0.084866665 0.93800002 12891766
-0.081293337 0.084866665 0.93800002 12037231
-0.079506665 0.084866665 0.93800002 11905645
-0.077471435 0.084595241 0.93500006 12759928
-0.075690478 0.084595241 0.93500006 13878409
-0.074146673 0.084866665 0.93800002 13418875
-0.072514288 0.085047618 0.94000006 10787155
-0.070573337 0.084866665 0.93800002 10852946
-0.068786673 0.084866665 0.93800002 10721360
-0.067142867 0.085047618 0.94000006 10984005
-0.06535238 0.085047618 0.94000006 12694623
-0.063764766 0.085319042 0.94300002 13221751
-0.061968572 0.085319042 0.94300002 12826993
-0.060172379 0.085319042 0.94300002 11315814
-0.058561906 0.085590474 0.94600004 10065747
-0.056760002 0.085590474 0.94600004 10198112
-0.054958098 0.085590474 0.94600004 11053421
-0.053156193 0.085590474 0.94600004 11643514
-0.051354285 0.085590474 0.94600004 12827788
-0.049657144 0.085771434 0.94800007 12893803
-0.048002861 0.086042859 0.95100003 13025389
-0.046191432 0.086042859 0.95100003 11973251
-0.044520002 0.086314291 0.95400006 9144152
-0.042792384 0.086495236 0.95600003 7109457
-0.040971428 0.086495236 0.95600003 6846285
-0.039150476 0.086495236 0.95600003 7305807
-0.037446667 0.086766668 0.95900005 8819046
-0.035731431 0.0870381 0.96200007 10855004
-0.033969525 0.087219052 0.96400005 15197342
-0.032233335 0.087490484 0.96700007 16249780
-0.03039143 0.087490484 0.96700007 16776895
-0.028638097 0.087761909 0.97000003 16579533
-0.11452381 0.088870488 0.96200007 11117161
-0.11234 0.088593334 0.95900005 11642451
-0.11016762 0.088316195 0.95600003 13682034
-0.10778 0.087854289 0.95100003 13616531
-0.10563429 0.087577149 0.94800007 10919018
-0.10382858 0.087577149 0.94800007 9016411
-0.10180762 0.087392382 0.94600004 6187312
-0.10000572 0.087392382 0.94600004 8092416
-0.097892381 0.087115236 0.94300002 11842607
-0.096096188 0.087115236 0.94300002 12499327
-0.094300002 0.087115236 0.94300002 11775604
-0.092503816 0.087115236 0.94300002 9609809
-0.090419047 0.086838104 0.94000006 10399325
-0.088628575 0.086838104 0.94000006 11578986
-0.086838104 0.086838104 0.94000006 13092225
-0.085047618 0.086838104 0.94000006 13287816
-0.083080001 0.086653329 0.93800002 11314026
-0.081293337 0.086653329 0.93800002 10655308
-0.079506665 0.086653329 0.93800002 10589515
-0.077720001 0.086653329 0.93800002 11969628
-0.075933337 0.086653329 0.93800002 13548660
-0.074146673 0.086653329 0.93800002 13682061
-0.072514288 0.086838104 0.94000006 10918755
-0.070723809 0.086838104 0.94000006 10326577
-0.068933338 0.086838104 0.94000006 10326577
-0.067142867 0.086838104 0.94000006 10390784
-0.065560959 0.087115236 0.94300002 13548839
-0.063764766 0.087115236 0.94300002 13222023
-0.061968572 0.087115236 0.94300002 12037749
-0.060172379 0.087115236 0.94300002 10529378
-0.058561906 0.087392382 0.94600004 9147725
-0.056760002 0.087392382 0.94600004 8950085
-0.054958098 0.087392382 0.94600004 9673808
-0.053156193 0.087392382 0.94600004 11840343
-0.051354285 0.087392382 0.94600004 13221996
-0.049657144 0.087577149 0.94800007 13681032
-0.048002861 0.087854289 0.95100003 13549446
-0.046191432 0.087854289 0.95100003 11777407
-0.044520002 0.088131428 0.95400006 7435069
-0.042792384 0.088316195 0.95600003 5732660
-0.040971428 0.088316195 0.95600003 6193211
-0.039150476 0.088316195 0.95600003 6912328
-0.037446667 0.088593334 0.95900005 8754532
-0.035731431 0.088870488 0.96200007 10986590
-0.033969525 0.08905524 0.96400005 15657893
-0.032333333 0.089609526 0.97000003 16184003
-0.030485716 0.089609526 0.97000003 16776140
-0.028638097 0.089609526 0.97000003 16513481
-0.11452381 0.090702862 0.96200007 10920554
-0.11234 0.09042 0.95900005 11052372
-0.11016762 0.090137146 0.95600003 12762990
-0.10778 0.089665718 0.95100003 12302945
-0.10563429 0.089382865 0.94800007 7763228
-0.10382858 0.089382865 0.94800007 6389057
-0.10180762 0.08919429 0.94600004 5928506
-0.10000572 0.08919429 0.94600004 6846278
-0.097892381 0.088911429 0.94300002 8096345
-0.096096188 0.088911429 0.94300002 10591825
-0.094300002 0.088911429 0.94300002 12499822
-0.092503816 0.088911429 0.94300002 12565370
-0.090419047 0.088628575 0.94000006 12762749
-0.088628575 0.088628575 0.94000006 12894074
-0.086838104 0.088628575 0.94000006 12565109
-0.085047618 0.088628575 0.94000006 11577180
-0.083257146 0.088628575 0.94000006 8813874
-0.081466675 0.088628575 0.94000006 8813883
-0.079506665 0.088440001 0.93800002 8353332
-0.077720001 0.088440001 0.93800002 8878154
-0.075933337 0.088440001 0.93800002 10522979
-0.074146673 0.088440001 0.93800002 11970405
-0.072514288 0.088628575 0.94000006 13549437
-0.070723809 0.088628575 0.94000006 12957550
-0.068933338 0.088628575 0.94000006 12957550
-0.067142867 0.088628575 0.94000006 12694646
-0.065560959 0.088911429 0.94300002 12628853
-0.063764766 0.088911429 0.94300002 11381870
-0.061968572 0.088911429 0.94300002 9737045
-0.060172379 0.088911429 0.94300002 9214297
-0.058561906 0.08919429 0.94600004 9280090
-0.056760002 0.08919429 0.94600004 9345887
-0.054958098 0.08919429 0.94600004 9411680
-0.053156193 0.08919429 0.94600004 10329680
-0.051462859 0.089382865 0.94800007 11316575
-0.049814284 0.089665718 0.95100003 12235117
-0.048002861 0.089665718 0.95100003 11774566
-0.046337146 0.08994858 0.95400006 10331229
-0.044520002 0.08994858 0.95400006 6646821
-0.042792384 0.090137146 0.95600003 5864015
-0.040971428 0.090137146 0.95600003 6127187
-0.039150476 0.090137146 0.95600003 7765831
-0.037446667 0.09042 0.95900005 11779204
-0.035731431 0.090702862 0.96200007 12695679
-0.033969525 0.090891428 0.96400005 16511673
-0.032333333 0.091457151 0.97000003 16578761
-0.030485716 0.091457151 0.97000003 16776397
-0.028638097 0.091457151 0.97000003 16513481
-0.11476191 0.092727624 0.96400005 11513211
-0.11269144 0.09253525 0.96200007 10658888
-0.11016762 0.091958091 0.95600003 12237920
-0.10812001 0.091765717 0.95400006 10792291
-0.10596858 0.091477141 0.95100003 7042090
-0.10415715 0.091477141 0.95100003 6125896
-0.10202286 0.09118858 0.94800007 6060103
-0.10000572 0.090996191 0.94600004 5666363
-0.098203816 0.090996191 0.94600004 6126914
-0.096096188 0.090707622 0.94300002 9078818
-0.094300002 0.090707622 0.94300002 12302675
-0.092503816 0.090707622 0.94300002 14073998
-0.090707622 0.090707622 0.94300002 14008205
-0.088911429 0.090707622 0.94300002 13616018
-0.087115236 0.090707622 0.94300002 11576435
-0.085319042 0.090707622 0.94300002 10261579
-0.083257146 0.090419047 0.94000006 8748340
-0.081466675 0.090419047 0.94000006 8879426
-0.079676196 0.090419047 0.94000006 8682047
-0.077885717 0.090419047 0.94000006 8484655
-0.076095238 0.090419047 0.94000006 8879413
-0.074304767 0.090419047 0.94000006 10850347
-0.072514288 0.090419047 0.94000006 12429379
-0.070723809 0.090419047 0.94000006 13875831
-0.068933338 0.090419047 0.94000006 14139003
-0.067357138 0.090707622 0.94300002 13155476
-0.065560959 0.090707622 0.94300002 11839616
-0.063764766 0.090707622 0.94300002 10265967
-0.061968572 0.090707622 0.94300002 9081693
-0.060363814 0.090996191 0.94600004 8755545
-0.058561906 0.090996191 0.94600004 8952924
-0.056760002 0.090996191 0.94600004 9084260
-0.054958098 0.090996191 0.94600004 8821088
-0.053268574 0.09118858 0.94800007 8688437
-0.051462859 0.09118858 0.94800007 10399055
-0.049814284 0.091477141 0.95100003 11383667
-0.048154291 0.091765717 0.95400006 11383667
-0.046337146 0.091765717 0.95400006 9281880
-0.044520002 0.091765717 0.95400006 6123816
-0.042792384 0.091958091 0.95600003 5535279
-0.040971428 0.091958091 0.95600003 5995830
-0.039150476 0.091958091 0.95600003 8224583
-0.037563812 0.09253525 0.96200007 12501128
-0.035731431 0.09253525 0.96200007 13351563
-0.034075242 0.0930162 0.96700007 16773827
-0.032333333 0.093304761 0.97000003 16578511
-0.030485716 0.093304761 0.97000003 16644304
-0.11511905 0.094858103 0.96700007 12368520
-0.11269144 0.094367623 0.96200007 11777135
-0.11051334 0.09407334 0.95900005 12435065
-0.10834666 0.09377905 0.95600003 11449208
-0.10630286 0.093582861 0.95400006 7370042
-0.10415715 0.093288571 0.95100003 5929033
-0.10234572 0.093288571 0.95100003 5929033
-0.10021715 0.092994288 0.94800007 5797951
-0.098203816 0.092798099 0.94600004 6061123
-0.096401908 0.092798099 0.94600004 7699518
-0.094300002 0.092503816 0.94300002 9936480
-0.092503816 0.092503816 0.94300002 12957543
-0.090707622 0.092503816 0.94300002 13220715
-0.088911429 0.092503816 0.94300002 12695132
-0.087115236 0.092503816 0.94300002 8944931
-0.085319042 0.092503816 0.94300002 8880187
-0.083522864 0.092503816 0.94300002 8419636
-0.08172667 0.092503816 0.94300002 8747847
-0.079930477 0.092503816 0.94300002 9011019
-0.078134283 0.092503816 0.94300002 8879181
-0.076095238 0.092209533 0.94000006 8813388
-0.074304767 0.092209533 0.94000006 9339696
-0.072745718 0.092503816 0.94300002 10458177
-0.070949525 0.092503816 0.94300002 12560484
-0.069153331 0.092503816 0.94300002 14468481
-0.067357138 0.092503816 0.94300002 12957827
-0.065560959 0.092503816 0.94300002 10589279
-0.063764766 0.092503816 0.94300002 9147762
-0.062165715 0.092798099 0.94600004 9081969
-0.060363814 0.092798099 0.94600004 8952928
-0.058561906 0.092798099 0.94600004 8952928
-0.056760002 0.092798099 0.94600004 9149281
-0.055074289 0.092994288 0.94800007 9017695
-0.053268574 0.092994288 0.94800007 9214292
-0.051625714 0.093288571 0.95100003 10266980
-0.049814284 0.093288571 0.95100003 11776867
-0.048154291 0.093582861 0.95400006 12105832
-0.046337146 0.093582861 0.95400006 10727270
-0.044613335 0.09377905 0.95600003 5924381
-0.042792384 0.09377905 0.95600003 5273906
-0.041100003 0.09407334 0.95900005 6260801
-0.039273337 0.09407334 0.95900005 8487790
-0.037641905 0.094563812 0.96400005 12501163
-0.035805713 0.094563812 0.96400005 13286040
-0.03418095 0.095152386 0.97000003 16774354
-0.032433335 0.095446669 0.97300005 16579533
-0.030580001 0.095446669 0.97300005 16645326
-0.028726669 0.095446669 0.97300005 16446933
-0.11511905 0.096700005 0.96700007 12565899
-0.11269144 0.096200012 0.96200007 12301939
-0.11051334 0.095900007 0.95900005 12828283
-0.10834666 0.095600002 0.95600003 11778445
-0.10630286 0.095400006 0.95400006 7830865
-0.10448572 0.095400006 0.95400006 6059815
-0.10234572 0.095100001 0.95100003 6191401
-0.10021715 0.09480001 0.94800007 5929287
-0.098203816 0.094599999 0.94600004 5600322
-0.096401908 0.094599999 0.94600004 5730852
-0.094599999 0.094599999 0.94600004 8428365
-0.092503816 0.094300002 0.94300002 11116386
-0.090707622 0.094300002 0.94300002 12892797
-0.088911429 0.094300002 0.94300002 11379292
-0.087115236 0.094300002 0.94300002 8879158
-0.085319042 0.094300002 0.94300002 8813890
-0.083522864 0.094300002 0.94300002 8748097
-0.08172667 0.094300002 0.94300002 8747847
-0.079930477 0.094300002 0.94300002 8945226
-0.078134283 0.094300002 0.94300002 8814408
-0.07633809 0.094300002 0.94300002 8814408
-0.074541911 0.094300002 0.94300002 8487208
-0.072745718 0.094300002 0.94300002 9276724
-0.070949525 0.094300002 0.94300002 10721612
-0.069153331 0.094300002 0.94300002 13879676
-0.067357138 0.094300002 0.94300002 12170891
-0.065769531 0.094599999 0.94600004 9999722
-0.063967615 0.094599999 0.94600004 8688730
-0.062165715 0.094599999 0.94600004 8951902
-0.060363814 0.094599999 0.94600004 9149015
-0.058561906 0.094599999 0.94600004 9214808
-0.056880001 0.09480001 0.94800007 9149281
-0.055074289 0.09480001 0.94800007 9017695
-0.053437144 0.095100001 0.95100003 9214029
-0.051625714 0.095100001 0.95100003 10661475
-0.049971428 0.095400006 0.95400006 11710315
-0.048154291 0.095400006 0.95400006 12368245
-0.046337146 0.095400006 0.95400006 10989707
-0.044613335 0.095600002 0.95600003 6384197
-0.042792384 0.095600002 0.95600003 5995532
-0.041100003 0.095900007 0.95900005 7114013
-0.039273337 0.095900007 0.95900005 10263385
-0.037641905 0.0964 0.96400005 11842417
-0.035917144 0.096700005 0.96700007 12957827
-0.03428667 0.097300008 0.97300005 16775106
-0.032433335 0.097300008 0.97300005 16645074
-0.030580001 0.097300008 0.97300005 16447695
-0.028726669 0.097300008 0.97300005 16447175
-0.11511905 0.098541915 0.96700007 14144420
-0.11269144 0.098032385 0.96200007 12631181
-0.11051334 0.097726673 0.95900005 12960146
-0.10834666 0.097420953 0.95600003 12499093
-0.10652572 0.097420953 0.95600003 11051647
-0.10448572 0.097217143 0.95400006 8490828
-0.10234572 0.09691143 0.95100003 6648624
-0.10053429 0.09691143 0.95100003 5732680
-0.098411433 0.096605718 0.94800007 5535301
-0.096401908 0.096401908 0.94600004 5796682
-0.094599999 0.096401908 0.94600004 7967851
-0.092798099 0.096401908 0.94600004 11380333
-0.090707622 0.096096188 0.94300002 12893572
-0.088911429 0.096096188 0.94300002 11905895
-0.087115236 0.096096188 0.94300002 8682038
-0.085319042 0.096096188 0.94300002 8618062
-0.083522864 0.096096188 0.94300002 8420683
-0.08172667 0.096096188 0.94300002 8682318
-0.079930477 0.096096188 0.94300002 8945490
-0.078134283 0.096096188 0.94300002 8879949
-0.07633809 0.096096188 0.94300002 8945742
-0.074541911 0.096096188 0.94300002 8618040
-0.072745718 0.096096188 0.94300002 9407556
-0.070949525 0.096096188 0.94300002 11378007
-0.069153331 0.096096188 0.94300002 14075520
-0.067357138 0.096096188 0.94300002 12696695
-0.065769531 0.096401908 0.94600004 10196561
-0.063967615 0.096401908 0.94600004 8755556
-0.062165715 0.096401908 0.94600004 8689763
-0.060363814 0.096401908 0.94600004 9017931
-0.05868572 0.096605718 0.94800007 9017931
-0.056880001 0.096605718 0.94800007 9083488
-0.055248573 0.09691143 0.95100003 8951902
-0.053437144 0.09691143 0.95100003 10066530
-0.051788572 0.097217143 0.95400006 12171906
-0.049971428 0.097217143 0.95400006 12760700
-0.048154291 0.097217143 0.95400006 13944974
-0.046337146 0.097217143 0.95400006 13157775
-0.044613335 0.097420953 0.95600003 10855020
-0.042792384 0.097420953 0.95600003 9937745
-0.041100003 0.097726673 0.95900005 9937745
-0.039396197 0.098032385 0.96200007 10199391
-0.037641905 0.098236188 0.96400005 10462563
-0.035917144 0.098541915 0.96700007 12564334
-0.03428667 0.09915334 0.97300005 16776114
-0.032499999 0.099357143 0.97500002 16579533
-0.030642856 0.099357143 0.97500002 16382154
-0.028785715 0.099357143 0.97500002 16447686
-0.11511905 0.10038382 0.96700007 14606004
-0.11269144 0.099864773 0.96200007 13223300
-0.11051334 0.099553339 0.95900005 12236405
-0.10868668 0.099553339 0.95900005 12892018
-0.10652572 0.099241905 0.95600003 13023604
-0.10470476 0.099241905 0.95600003 10397322
-0.10266858 0.099034294 0.95400006 6647121
-0.10053429 0.09872286 0.95100003 5600552
-0.098411433 0.098411433 0.94800007 5534759
-0.096605718 0.098411433 0.94800007 5599014
-0.094599999 0.098203816 0.94600004 8888664
-0.092798099 0.098203816 0.94600004 11578218
-0.090707622 0.097892381 0.94300002 12696699
-0.088911429 0.097892381 0.94300002 11447152
-0.087115236 0.097892381 0.94300002 8552260
-0.085319042 0.097892381 0.94300002 8617790
-0.083522864 0.097892381 0.94300002 8815169
-0.08172667 0.097892381 0.94300002 8945992
-0.079930477 0.097892381 0.94300002 8880199
-0.078134283 0.097892381 0.94300002 8748615
-0.07633809 0.097892381 0.94300002 8419650
-0.074541911 0.097892381 0.94300002 8354560
-0.072745718 0.097892381 0.94300002 10459936
-0.070949525 0.097892381 0.94300002 12100710
-0.069153331 0.097892381 0.94300002 13811328
-0.067571431 0.098203816 0.94600004 12500351
-0.065769531 0.098203816 0.94600004 11052905
-0.063967615 0.098203816 0.94600004 9282679
-0.062165715 0.098203816 0.94600004 9019507
-0.060363814 0.098203816 0.94600004 8953437
-0.05868572 0.098411433 0.94800007 8821851
-0.056880001 0.098411433 0.94800007 9148504
-0.055248573 0.09872286 0.95100003 9411676
-0.053437144 0.09872286 0.95100003 11511421
-0.051788572 0.099034294 0.95400006 12695695
-0.049971428 0.099034294 0.95400006 12891518
-0.048154291 0.099034294 0.95400006 13746827
-0.046434287 0.099241905 0.95600003 13485461
-0.044613335 0.099241905 0.95600003 12564359
-0.042792384 0.099241905 0.95600003 11183465
-0.041100003 0.099553339 0.95900005 11380844
-0.039478097 0.10007238 0.96400005 11252844
-0.037759051 0.10038382 0.96700007 10200156
-0.036028571 0.10069524 0.97000003 12302452
-0.03428667 0.10100667 0.97300005 16776633
-0.032499999 0.10121429 0.97500002 16578761
-0.030642856 0.10121429 0.97500002 16512968
-0.028785715 0.10121429 0.97500002 16513222
-0.11511905 0.10222572 0.96700007 15132330
-0.11292572 0.10190857 0.96400005 14669951
-0.11108953 0.10190857 0.96400005 10459199
-0.10902668 0.10169715 0.96200007 11576142
-0.10686 0.10138001 0.95900005 13615725
-0.10470476 0.10106286 0.95600003 11776644
-0.10266858 0.10085143 0.95400006 8421201
-0.10085143 0.10085143 0.95400006 6455354
-0.09872286 0.10053429 0.95100003 6389561
-0.096605718 0.10021715 0.94800007 8356967
-0.09480001 0.10021715 0.94800007 12041375
-0.092798099 0.10000572 0.94600004 13485427
-0.090996191 0.10000572 0.94600004 13682806
-0.088911429 0.099688575 0.94300002 13155958
-0.087115236 0.099688575 0.94300002 11379547
-0.085319042 0.099688575 0.94300002 9801816
-0.083522864 0.099688575 0.94300002 8617542
-0.081986673 0.10000572 0.94600004 8552247
-0.080184758 0.10000572 0.94600004 8749626
-0.078382857 0.10000572 0.94600004 8815178
-0.076580957 0.10000572 0.94600004 9144143
-0.074541911 0.099688575 0.94300002 10260028
-0.072745718 0.099688575 0.94300002 13023334
-0.07117524 0.10000572 0.94600004 12891516
-0.069373332 0.10000572 0.94600004 12694137
-0.067571431 0.10000572 0.94600004 12761715
-0.065769531 0.10000572 0.94600004 12827508
-0.063967615 0.10000572 0.94600004 11317631
-0.062165715 0.10000572 0.94600004 10264943
-0.060363814 0.10000572 0.94600004 9215596
-0.05868572 0.10021715 0.94800007 8886631
-0.056880001 0.10021715 0.94800007 10002016
-0.055248573 0.10053429 0.95100003 11975806
-0.053437144 0.10053429 0.95100003 12695427
-0.051788572 0.10085143 0.95400006 11576946
-0.049971428 0.10085143 0.95400006 10654302
-0.048255239 0.10106286 0.95600003 10325337
-0.046434287 0.10106286 0.95600003 11575649
-0.044613335 0.10106286 0.95600003 13878404
-0.042926669 0.10138001 0.95900005 13287548
-0.041228574 0.10169715 0.96200007 12300653
-0.039478097 0.10190857 0.96400005 10988909
-0.037759051 0.10222572 0.96700007 10330979
-0.036028571 0.10254286 0.97000003 12566142
-0.03428667 0.10286 0.97300005 16776894
-0.032499999 0.10307144 0.97500002 16579022
-0.030642856 0.10307144 0.97500002 16710608
-0.028785715 0.10307144 0.97500002 16579785
-0.11511905 0.10406763 0.96700007 15328426
-0.11327715 0.10406763 0.96700007 14866830
-0.11108953 0.10374477 0.96400005 9998148
-0.10902668 0.10352953 0.96200007 10390809
-0.10686 0.10320667 0.95900005 12035634
-0.10470476 0.10288381 0.95600003 12629632
-0.10288381 0.10288381 0.95600003 9405775
-0.10085143 0.10266858 0.95400006 8357405
-0.09872286 0.10234572 0.95100003 8423198
-0.09691143 0.10234572 0.95100003 11510633
-0.09480001 0.10202286 0.94800007 13352837
-0.092798099 0.10180762 0.94600004 13747334
-0.090996191 0.10180762 0.94600004 13484162
-0.08919429 0.10180762 0.94600004 13418889
-0.087392382 0.10180762 0.94600004 12563580
-0.085590474 0.10180762 0.94600004 11445864
-0.083788574 0.10180762 0.94600004 9669453
-0.081986673 0.10180762 0.94600004 7959835
-0.080184758 0.10180762 0.94600004 8486179
-0.078382857 0.10180762 0.94600004 8684314
-0.076580957 0.10180762 0.94600004 9737002
-0.074779049 0.10180762 0.94600004 11836786
-0.072977141 0.10180762 0.94600004 13547404
-0.07117524 0.10180762 0.94600004 13089674
-0.069373332 0.10180762 0.94600004 11839607
-0.067571431 0.10180762 0.94600004 12103004
-0.065769531 0.10180762 0.94600004 13221485
-0.063967615 0.10180762 0.94600004 13223057
-0.062297143 0.10202286 0.94800007 12038783
-0.060491435 0.10202286 0.94800007 9939058
-0.05868572 0.10202286 0.94800007 9215335
-0.05706 0.10234572 0.95100003 10789213
-0.055248573 0.10234572 0.95100003 12828796
-0.053605717 0.10266858 0.95400006 13286805
-0.051788572 0.10266858 0.95400006 9865569
-0.049971428 0.10266858 0.95400006 9536305
-0.048255239 0.10288381 0.95600003 9273133
-0.046434287 0.10288381 0.95600003 10916392
-0.044753335 0.10320667 0.95900005 13482319
-0.042926669 0.10320667 0.95900005 13681293
-0.041228574 0.10352953 0.96200007 12497019
-0.039478097 0.10374477 0.96400005 11053914
-0.037759051 0.10406763 0.96700007 10790742
-0.036028571 0.10439047 0.97000003 12895109
-0.03428667 0.10471334 0.97300005 16776896
-0.032499999 0.10492858 0.97500002 16644813
-0.030642856 0.10492858 0.97500002 16644813
-0.028785715 0.10492858 0.97500002 16579785
-0.11327715 0.10590953 0.96700007 14604421
-0.11143525 0.10590953 0.96700007 9209395
-0.10925333 0.10558096 0.96400005 9865547
-0.10719429 0.10536191 0.96200007 10062926
-0.10503334 0.10503334 0.95900005 11050843
-0.10288381 0.10470476 0.95600003 13024633
-0.10085143 0.10448572 0.95400006 12631163
-0.099034294 0.10448572 0.95400006 12762749
-0.09691143 0.10415715 0.95100003 12893572
-0.095100001 0.10415715 0.95100003 12367228
-0.092798099 0.10360952 0.94600004 11184239
-0.090996191 0.10360952 0.94600004 10789481
-0.08919429 0.10360952 0.94600004 11906411
-0.087392382 0.10360952 0.94600004 13288064
-0.085590474 0.10360952 0.94600004 13089897
-0.083788574 0.10360952 0.94600004 12497760
-0.081986673 0.10360952 0.94600004 10394471
-0.080184758 0.10360952 0.94600004 8683853
-0.078382857 0.10360952 0.94600004 9668688
-0.076580957 0.10360952 0.94600004 13418889
-0.074779049 0.10360952 0.94600004 12957327
-0.072977141 0.10360952 0.94600004 11838846
-0.07117524 0.10360952 0.94600004 9143910
-0.069373332 0.10360952 0.94600004 6906948
-0.067571431 0.10360952 0.94600004 8157502
-0.065769531 0.10360952 0.94600004 11183980
-0.064102866 0.10382858 0.94800007 12827245
-0.062297143 0.10382858 0.94800007 13550968
-0.060491435 0.10382858 0.94800007 12828290
-0.058871429 0.10415715 0.95100003 12170360
-0.05706 0.10415715 0.95100003 12302200
-0.055248573 0.10415715 0.95100003 12170614
-0.053605717 0.10448572 0.95400006 11115614
-0.051788572 0.10448572 0.95400006 8812859
-0.049971428 0.10448572 0.95400006 8748351
-0.048255239 0.10470476 0.95600003 8682558
-0.046580002 0.10503334 0.95900005 9272379
-0.044753335 0.10503334 0.95900005 11311962
-0.043060955 0.10536191 0.96200007 12366433
-0.041314285 0.10558096 0.96400005 12169054
-0.039600953 0.10590953 0.96700007 10922843
-0.037876189 0.1062381 0.97000003 11120222
-0.036028571 0.1062381 0.97000003 13092488
-0.03428667 0.10656667 0.97300005 16776896
-0.032499999 0.10678571 0.97500002 16580554
-0.030642856 0.10678571 0.97500002 16646091
-0.11327715 0.10775144 0.96700007 14080142
-0.11143525 0.10775144 0.96700007 9343046
-0.10959334 0.10775144 0.96700007 9209418
-0.10719429 0.10719429 0.96200007 9275211
-0.10503334 0.10686 0.95900005 10851651
-0.10320667 0.10686 0.95900005 13549164
-0.10106286 0.10652572 0.95600003 13483140
-0.099241905 0.10652572 0.95600003 13812105
-0.097217143 0.10630286 0.95400006 13353873
-0.095100001 0.10596858 0.95100003 11380083
-0.092994288 0.10563429 0.94800007 10266206
-0.090996191 0.10541143 0.94600004 9542483
-0.08919429 0.10541143 0.94600004 10723659
-0.087392382 0.10541143 0.94600004 12105312
-0.085590474 0.10541143 0.94600004 13679994
-0.083788574 0.10541143 0.94600004 13219443
-0.081986673 0.10541143 0.94600004 11972733
-0.080184758 0.10541143 0.94600004 11117424
-0.078382857 0.10541143 0.94600004 11247715
-0.076580957 0.10541143 0.94600004 13221505
-0.074779049 0.10541143 0.94600004 12564109
-0.072977141 0.10541143 0.94600004 9932389
-0.07117524 0.10541143 0.94600004 7505228
-0.069373332 0.10541143 0.94600004 5860403
-0.067571431 0.10541143 0.94600004 6714899
-0.065769531 0.10541143 0.94600004 7767587
-0.064102866 0.10563429 0.94800007 11049012
-0.062297143 0.10563429 0.94800007 12628044
-0.060491435 0.10563429 0.94800007 14008457
-0.058871429 0.10596858 0.95100003 13942664
-0.05706 0.10596858 0.95100003 13157007
-0.055248573 0.10596858 0.95100003 9933150
-0.053605717 0.10630286 0.95400006 9470512
-0.051788572 0.10630286 0.95400006 9141547
-0.05007619 0.10652572 0.95600003 8551486
-0.048255239 0.10652572 0.95600003 8354107
-0.046580002 0.10686 0.95900005 8485402
-0.044893336 0.10719429 0.96200007 11380294
-0.043060955 0.10719429 0.96200007 11578988
-0.041314285 0.10741714 0.96400005 11447402
-0.039600953 0.10775144 0.96700007 10002743
-0.037759051 0.10775144 0.96700007 11187017
-0.036028571 0.10808572 0.97000003 13289858
-0.03428667 0.10842 0.97300005 16777147
-0.032499999 0.10864286 0.97500002 16646099
-0.030642856 0.10864286 0.97500002 16383183
-0.11327715 0.10959334 0.96700007 14933920
-0.11143525 0.10959334 0.96700007 10262617
-0.10959334 0.10959334 0.96700007 9274966
-0.10741714 0.10925333 0.96400005 9209173
-0.10536191 0.10902668 0.96200007 9733981
-0.10320667 0.10868668 0.95900005 12036736
-0.10106286 0.10834666 0.95600003 12957307
-0.099241905 0.10834666 0.95600003 13023100
-0.097217143 0.10812001 0.95400006 11841386
-0.095100001 0.10778 0.95100003 10196561
-0.093288571 0.10778 0.95100003 9477971
-0.09118858 0.10744001 0.94800007 9214799
-0.08919429 0.10721334 0.94600004 9805139
-0.087392382 0.10721334 0.94600004 9870932
-0.085590474 0.10721334 0.94600004 11839850
-0.083788574 0.10721334 0.94600004 12958331
-0.081986673 0.10721334 0.94600004 12958088
-0.080184758 0.10721334 0.94600004 13418639
-0.078382857 0.10721334 0.94600004 13090176
-0.076580957 0.10721334 0.94600004 11576937
-0.07493715 0.10744001 0.94800007 9540177
-0.073131435 0.10744001 0.94800007 7040043
-0.07117524 0.10721334 0.94600004 5994061
-0.069373332 0.10721334 0.94600004 5665096
-0.067714289 0.10744001 0.94800007 5992780
-0.065908574 0.10744001 0.94800007 6124366
-0.064102866 0.10744001 0.94800007 7895332
-0.062297143 0.10744001 0.94800007 9934915
-0.060682859 0.10778 0.95100003 13220701
-0.058871429 0.10778 0.95100003 13681252
-0.05706 0.10778 0.95100003 13023845
-0.055422861 0.10812001 0.95400006 8549921
-0.053605717 0.10812001 0.95400006 8683056
-0.051788572 0.10812001 0.95400006 9012021
-0.05007619 0.10834666 0.95600003 8748365
-0.048255239 0.10834666 0.95600003 8814158
-0.046580002 0.10868668 0.95900005 8814410
-0.044893336 0.10902668 0.96200007 11511923
-0.043150477 0.10925333 0.96400005 11973483
-0.041314285 0.10925333 0.96400005 11776104
-0.039600953 0.10959334 0.96700007 10396270
-0.037759051 0.10959334 0.96700007 11448958
-0.036028571 0.10993333 0.97000003 13356162
-0.03428667 0.11027333 0.97300005 16777147
-0.032499999 0.1105 0.97500002 16646095
-0.030642856 0.1105 0.97500002 16383435
-0.11362857 0.11178096 0.97000003 15328685
-0.11143525 0.11143525 0.96700007 10591589
-0.10959334 0.11143525 0.96700007 10587737
-0.10775144 0.11143525 0.96700007 9600842
-0.10536191 0.11085905 0.96200007 8748311
-0.10352953 0.11085905 0.96200007 11840582
-0.10138001 0.11051334 0.95900005 11906681
-0.099241905 0.11016762 0.95600003 12301439
-0.097217143 0.10993715 0.95400006 10528356
-0.095400006 0.10993715 0.95400006 9804633
-0.093288571 0.10959143 0.95100003 9544025
-0.09118858 0.10924572 0.94800007 9544025
-0.089382865 0.10924572 0.94800007 9478232
-0.087392382 0.10901524 0.94600004 9083474
-0.085590474 0.10901524 0.94600004 10526550
-0.083788574 0.10901524 0.94600004 11447652
-0.081986673 0.10901524 0.94600004 13220213
-0.080184758 0.10901524 0.94600004 14009729
-0.078548573 0.10924572 0.94800007 12894094
-0.076742865 0.10924572 0.94800007 8749135
-0.07493715 0.10924572 0.94800007 8029489
-0.073131435 0.10924572 0.94800007 6647836
-0.071325719 0.10924572 0.94800007 5862732
-0.069520004 0.10924572 0.94800007 5862732
-0.067714289 0.10924572 0.94800007 5796169
-0.065908574 0.10924572 0.94800007 5401411
-0.064102866 0.10924572 0.94800007 5730823
-0.062297143 0.10924572 0.94800007 6717718
-0.060682859 0.10959143 0.95100003 11510363
-0.058871429 0.10959143 0.95100003 13484153
-0.05706 0.10959143 0.95100003 11773555
-0.055422861 0.10993715 0.95400006 8812870
-0.053605717 0.10993715 0.95400006 8814660
-0.051788572 0.10993715 0.95400006 8946246
-0.05007619 0.11016762 0.95600003 8814410
-0.048255239 0.11016762 0.95600003 8748617
-0.046580002 0.11051334 0.95900005 8748867
-0.044893336 0.11085905 0.96200007 11906931
-0.043150477 0.11108953 0.96400005 12236407
-0.041314285 0.11108953 0.96400005 11973235
-0.039600953 0.11143525 0.96700007 10658638
-0.037876189 0.11178096 0.97000003 11842912
-0.036028571 0.11178096 0.97000003 13684364
-0.03428667 0.11212667 0.97300005 16777149
-0.032499999 0.11235715 0.97500002 16580560
-0.11143525 0.11327715 0.96700007 12236162
-0.10959334 0.11327715 0.96700007 9801851
-0.10775144 0.11327715 0.96700007 8814956
-0.10558096 0.11292572 0.96400005 8946766
-0.10352953 0.11269144 0.96200007 11183728
-0.10138001 0.11234 0.95900005 12236659
-0.099241905 0.11198857 0.95600003 12302452
-0.097217143 0.1117543 0.95400006 10725235
-0.095400006 0.1117543 0.95400006 9935719
-0.093288571 0.11140286 0.95100003 9609055
-0.091477141 0.11140286 0.95100003 9609055
-0.089382865 0.11105144 0.94800007 9544025
-0.087577149 0.11105144 0.94800007 9149267
-0.085771434 0.11105144 0.94800007 10068057
-0.083965719 0.11105144 0.94800007 10133850
-0.082160003 0.11105144 0.94800007 12761165
-0.080354296 0.11105144 0.94800007 13945439
-0.078548573 0.11105144 0.94800007 12236918
-0.076742865 0.11105144 0.94800007 7236650
-0.07493715 0.11105144 0.94800007 5666095
-0.073131435 0.11105144 0.94800007 5929267
-0.071325719 0.11105144 0.94800007 5994569
-0.069520004 0.11105144 0.94800007 6126155
-0.067714289 0.11105144 0.94800007 5731148
-0.065908574 0.11105144 0.94800007 5599562
-0.064102866 0.11105144 0.94800007 5600043
-0.062297143 0.11105144 0.94800007 6192180
-0.060682859 0.11140286 0.95100003 10920272
-0.058871429 0.11140286 0.95100003 13354613
-0.057240006 0.1117543 0.95400006 11971184
-0.055422861 0.1117543 0.95400006 8747327
-0.053605717 0.1117543 0.95400006 8354636
-0.051788572 0.1117543 0.95400006 8617808
-0.05007619 0.11198857 0.95600003 8879181
-0.048255239 0.11198857 0.95600003 8681802
-0.046580002 0.11234 0.95900005 9537097
-0.044893336 0.11269144 0.96200007 12826747
-0.043150477 0.11292572 0.96400005 12760952
-0.04144286 0.11327715 0.96700007 13747847
-0.039723814 0.11362857 0.97000003 12631667
-0.037876189 0.11362857 0.97000003 12039530
-0.036028571 0.11362857 0.97000003 14012827
-0.03428667 0.11398001 0.97300005 16710340
-0.032433335 0.11398001 0.97300005 16645576
-0.11143525 0.11511905 0.96700007 12368261
-0.10959334 0.11511905 0.96700007 11052669
-0.10775144 0.11511905 0.96700007 8684121
-0.10558096 0.11476191 0.96400005 8946210
-0.10352953 0.11452381 0.96200007 12367446
-0.10138001 0.11416667 0.95900005 12368520
-0.099241905 0.11380953 0.95600003 12171141
-0.097420953 0.11380953 0.95600003 10725748
-0.095400006 0.11357144 0.95400006 9804646
-0.093288571 0.11321429 0.95100003 9411678
-0.091477141 0.11321429 0.95100003 9477471
-0.089665718 0.11321429 0.95100003 9412439
-0.087854289 0.11321429 0.95100003 9280853
-0.085771434 0.11285715 0.94800007 9674848
-0.083965719 0.11285715 0.94800007 9477469
-0.082160003 0.11285715 0.94800007 12236123
-0.080354296 0.11285715 0.94800007 13683569
-0.078548573 0.11285715 0.94800007 11448433
-0.076742865 0.11285715 0.94800007 7303474
-0.07493715 0.11285715 0.94800007 5207361
-0.073131435 0.11285715 0.94800007 5602119
-0.071325719 0.11285715 0.94800007 6125385
-0.069520004 0.11285715 0.94800007 6125385
-0.067928575 0.11321429 0.95100003 5796682
-0.066117145 0.11321429 0.95100003 5665096
-0.064305715 0.11321429 0.95100003 5468970
-0.062494289 0.11321429 0.95100003 6324279
-0.060682859 0.11321429 0.95100003 10524740
-0.059057143 0.11357144 0.95400006 13288046
-0.057240006 0.11357144 0.95400006 11578997
-0.055422861 0.11357144 0.95400006 9013070
-0.053605717 0.11357144 0.95400006 8354118
-0.051788572 0.11357144 0.95400006 8419911
-0.05007619 0.11380953 0.95600003 8419859
-0.048255239 0.11380953 0.95600003 9077789
-0.046580002 0.11416667 0.95900005 10587498
-0.044893336 0.11452381 0.96200007 12429702
-0.043150477 0.11476191 0.96400005 12233552
-0.04144286 0.11511905 0.96700007 13154654
-0.039723814 0.11547619 0.97000003 13222275
-0.037876189 0.11547619 0.97000003 13156482
-0.036028571 0.11547619 0.97000003 14341538
-0.03428667 0.11583334 0.97300005 16776136
-0.032433335 0.11583334 0.97300005 16645324
-0.11143525 0.11696096 0.96700007 12631431
-0.10959334 0.11696096 0.96700007 11249286
-0.10775144 0.11696096 0.96700007 9933426
-0.10558096 0.1165981 0.96400005 10786147
-0.10352953 0.1163562 0.96200007 13615246
-0.10138001 0.11599334 0.95900005 13418893
-0.099241905 0.11563048 0.95600003 13024135
-0.097420953 0.11563048 0.95600003 11974518
-0.095600002 0.11563048 0.95600003 10132314
-0.093582861 0.11538857 0.95400006 9477473
-0.091765717 0.11538857 0.95400006 9411680
-0.089665718 0.11502572 0.95100003 9346394
-0.087854289 0.11502572 0.95100003 9280601
-0.086042859 0.11502572 0.95100003 9674080
-0.083965719 0.11466286 0.94800007 9805666
-0.082160003 0.11466286 0.94800007 12629607
-0.080354296 0.11466286 0.94800007 14208639
-0.078797139 0.11502572 0.95100003 12894828
-0.076985717 0.11502572 0.95100003 8552490
-0.075174294 0.11502572 0.95100003 5600875
-0.073362865 0.11502572 0.95100003 5600875
-0.071551435 0.11502572 0.95100003 5666382
-0.069740005 0.11502572 0.95100003 5600589
-0.067928575 0.11502572 0.95100003 5599569
-0.066117145 0.11502572 0.95100003 5862741
-0.064305715 0.11502572 0.95100003 7044159
-0.062494289 0.11502572 0.95100003 10465395
-0.060682859 0.11502572 0.95100003 13025128
-0.059057143 0.11538857 0.95400006 13814644
-0.057240006 0.11538857 0.95400006 13155958
-0.055422861 0.11538857 0.95400006 12169063
-0.053605717 0.11538857 0.95400006 9801590
-0.051788572 0.11538857 0.95400006 8354144
-0.05007619 0.11563048 0.95600003 9077062
-0.048255239 0.11563048 0.95600003 11971954
-0.046580002 0.11599334 0.95900005 12102529
-0.044893336 0.1163562 0.96200007 11049841
-0.043150477 0.1165981 0.96400005 10656552
-0.04144286 0.11696096 0.96700007 10590759
-0.039723814 0.11732381 0.97000003 11183236
-0.037876189 0.11732381 0.97000003 13485991
-0.036028571 0.11732381 0.97000003 14275736
-0.03428667 0.11768667 0.97300005 16777156
-0.032433335 0.11768667 0.97300005 16645837
-0.030580001 0.11768667 0.97300005 16448458
-0.11178096 0.11917143 0.97000003 12565638
-0.10959334 0.11880287 0.96700007 11776624
-0.10775144 0.11880287 0.96700007 10921315
-0.10558096 0.11843429 0.96400005 12297058
-0.10352953 0.11818857 0.96200007 14205055
-0.10138001 0.11782 0.95900005 14073998
-0.099553339 0.11782 0.95900005 13481861
-0.097420953 0.11745143 0.95600003 12171391
-0.095600002 0.11745143 0.95600003 11316082
-0.09377905 0.11745143 0.95600003 9281909
-0.091765717 0.11720572 0.95400006 8887151
-0.08994858 0.11720572 0.95400006 9280601
-0.088131428 0.11720572 0.95400006 9149015
-0.086314291 0.11720572 0.95400006 9411390
-0.084231429 0.11683714 0.95100003 10266699
-0.082419999 0.11683714 0.95100003 13023091
-0.080608569 0.11683714 0.95100003 13878400
-0.078797139 0.11683714 0.95100003 12960639
-0.076985717 0.11683714 0.95100003 10723677
-0.075174294 0.11683714 0.95100003 6915960
-0.073362865 0.11683714 0.95100003 5600100
-0.071551435 0.11683714 0.95100003 5469999
-0.069740005 0.11683714 0.95100003 5075241
-0.067928575 0.11683714 0.95100003 4877855
-0.066117145 0.11683714 0.95100003 5667371
-0.064305715 0.11683714 0.95100003 7503933
-0.062494289 0.11683714 0.95100003 11846271
-0.060682859 0.11683714 0.95100003 12763523
-0.059057143 0.11720572 0.95400006 12631937
-0.057240006 0.11720572 0.95400006 13221505
-0.055422861 0.11720572 0.95400006 12958333
-0.053605717 0.11720572 0.95400006 11512443
-0.051897142 0.11745143 0.95600003 8880723
-0.05007619 0.11745143 0.95600003 9537325
-0.048406668 0.11782 0.95900005 13287526
-0.046580002 0.11782 0.95900005 12631442
-0.044893336 0.11818857 0.96200007 8486483
-0.043150477 0.11843429 0.96400005 8290305
-0.041571431 0.11917143 0.97000003 8421891
-0.039723814 0.11917143 0.97000003 11182942
-0.037876189 0.11917143 0.97000003 13617283
-0.036028571 0.11917143 0.97000003 14275486
-0.03428667 0.11954001 0.97300005 16776905
-0.032433335 0.11954001 0.97300005 16645839
-0.030580001 0.11954001 0.97300005 16382667
-0.028726669 0.11954001 0.97300005 16513722
-0.11178096 0.12101905 0.97000003 12631685
-0.10959334 0.12064477 0.96700007 12104828
-0.10775144 0.12064477 0.96700007 13289102
-0.10558096 0.12027048 0.96400005 13682286
-0.10352953 0.12002096 0.96200007 12958563
-0.10169715 0.12002096 0.96200007 10656619
-0.099553339 0.11964667 0.95900005 9603931
-0.097420953 0.11927239 0.95600003 10263398
-0.095600002 0.11927239 0.95600003 12566153
-0.09377905 0.11927239 0.95600003 11054459
-0.091765717 0.11902286 0.95400006 9343841
-0.08994858 0.11902286 0.95400006 9542503
-0.088131428 0.11902286 0.95400006 10134640
-0.086314291 0.11902286 0.95400006 11842896
-0.084497146 0.11902286 0.95400006 13487721
-0.082419999 0.11864857 0.95100003 13023872
-0.080608569 0.11864857 0.95100003 12102770
-0.078797139 0.11864857 0.95100003 12629623
-0.077228576 0.11902286 0.95400006 13484932
-0.075174294 0.11864857 0.95100003 11974523
-0.073362865 0.11864857 0.95100003 9671768
-0.071551435 0.11864857 0.95100003 6323024
-0.069740005 0.11864857 0.95100003 5270336
-0.067928575 0.11864857 0.95100003 6321994
-0.066117145 0.11864857 0.95100003 9874816
-0.064305715 0.11864857 0.95100003 12566117
-0.062494289 0.11864857 0.95100003 12829289
-0.060874287 0.11902286 0.95400006 11315564
-0.059057143 0.11902286 0.95400006 10328669
-0.057240006 0.11902286 0.95400006 11446380
-0.055422861 0.11902286 0.95400006 12959619
-0.053605717 0.11902286 0.95400006 12300660
-0.051897142 0.11927239 0.95600003 12037488
-0.05007619 0.11927239 0.95600003 12367207
-0.048406668 0.11964667 0.95900005 12959344
-0.046580002 0.11964667 0.95900005 11843673
-0.044893336 0.12002096 0.96200007 7435542
-0.043284763 0.12064477 0.96700007 6717506
-0.041571431 0.12101905 0.97000003 6783299
-0.039723814 0.12101905 0.97000003 9540711
-0.037876189 0.12101905 0.97000003 12830361
-0.036140002 0.12139334 0.97300005 14274984
-0.03428667 0.12139334 0.97300005 16776660
-0.032433335 0.12139334 0.97300005 16645333
-0.030580001 0.12139334 0.97300005 16316368
-0.10959334 0.12248667 0.96700007 12366955
-0.10775144 0.12248667 0.96700007 13682815
-0.10558096 0.12210667 0.96400005 13486483
-0.10374477 0.12210667 0.96400005 10525798
-0.10169715 0.12185334 0.96200007 8819012
-0.099553339 0.12147333 0.95900005 7963703
-0.097420953 0.12109333 0.95600003 9605413
-0.095600002 0.12109333 0.95600003 12171340
-0.09377905 0.12109333 0.95600003 12630924
