# .PCD v0.7 - Point Cloud Data file format
VERSION 0.7
FIELDS x y z rgba
SIZE 4 4 4 4
TYPE F F F U
COUNT 1 1 1 1
WIDTH 1100
HEIGHT 1
VIEWPOINT 0 0 0 1 0 0 0
POINTS 1100
DATA ascii
-0.085422859 0.097502857 0.90600002 14403971
-0.083697148 0.097502857 0.90600002 14338178
-0.082152382 0.097718097 0.90800005 14272383
-0.080600001 0.097933337 0.91000003 14272383
-0.078866668 0.097933337 0.91000003 13877618
-0.077387623 0.098256193 0.91300005 14206583
-0.075648576 0.098256193 0.91300005 14337665
-0.073909529 0.098256193 0.91300005 14271872
-0.072170481 0.098256193 0.91300005 14402936
-0.070431434 0.098256193 0.91300005 14534522
-0.068692386 0.098256193 0.91300005 14469242
-0.066953339 0.098256193 0.91300005 14469242
-0.065214291 0.098256193 0.91300005 14140279
-0.063475236 0.098256193 0.91300005 14666623
-0.061871432 0.098471433 0.91500002 13944706
-0.060128573 0.098471433 0.91500002 14142085
-0.058385715 0.098471433 0.91500002 14470532
-0.05664286 0.098471433 0.91500002 14602118
-0.054899998 0.098471433 0.91500002 14470012
-0.053157143 0.098471433 0.91500002 14733184
-0.051301908 0.098256193 0.91300005 14667657
-0.04956286 0.098256193 0.91300005 14667657
-0.047823813 0.098256193 0.91300005 14536071
-0.046084765 0.098256193 0.91300005 14667657
-0.044345718 0.098256193 0.91300005 14600839
-0.042466667 0.097933337 0.91000003 14666632
-0.040733334 0.097933337 0.91000003 14535051
-0.038914286 0.097718097 0.90800005 14732430
-0.037102856 0.097502857 0.90600002 14403710
-0.035377141 0.097502857 0.90600002 14666882
-0.033540003 0.097180009 0.90300006 14469760
-0.031749524 0.096964762 0.90100002 14535553
-0.029933335 0.096641913 0.89800006 14601612
-0.028222859 0.096641913 0.89800006 14535819
-0.026512383 0.096641913 0.89800006 14536071
-0.024746668 0.096426666 0.89600003 14470278
-0.02304 0.096426666 0.89600003 14075002
-0.021285716 0.096211433 0.89400005 16114585
-0.019582856 0.096211433 0.89400005 15920052
-0.017880002 0.096211433 0.89400005 16777160
-0.10559524 0.097147621 0.88700002 15198424
-0.10390572 0.097147621 0.88700002 14800533
-0.10221619 0.097147621 0.88700002 13418880
-0.10098001 0.097585715 0.89100003 13681532
-0.099617146 0.097914286 0.89400005 13878911
-0.097914286 0.097914286 0.89400005 13746307
-0.096426666 0.098133333 0.89600003 13943686
-0.094931439 0.098352388 0.89800006 14140284
-0.093532376 0.098680958 0.90100002 14535042
-0.091816194 0.098680958 0.90100002 14535033
-0.090300001 0.098900005 0.90300006 14271861
-0.088580005 0.098900005 0.90300006 14205829
-0.087148577 0.099228576 0.90600002 14929552
-0.085422859 0.099228576 0.90600002 14469249
-0.083697148 0.099228576 0.90600002 14337663
-0.082152382 0.099447623 0.90800005 14403456
-0.080600001 0.09966667 0.91000003 14403456
-0.078866668 0.09966667 0.91000003 14272131
-0.077387623 0.099995241 0.91300005 14206338
-0.075648576 0.099995241 0.91300005 14272131
-0.073909529 0.099995241 0.91300005 14206338
-0.072170481 0.099995241 0.91300005 14403449
-0.07058572 0.10021429 0.91500002 15192965
-0.068842858 0.10021429 0.91500002 14864250
-0.067100003 0.10021429 0.91500002 14864250
-0.065357141 0.10021429 0.91500002 14733184
-0.063614286 0.10021429 0.91500002 15193735
-0.061871432 0.10021429 0.91500002 14273669
-0.060128573 0.10021429 0.91500002 14207876
-0.058385715 0.10021429 0.91500002 14668161
-0.05664286 0.10021429 0.91500002 14668161
-0.054899998 0.10021429 0.91500002 14667391
-0.053157143 0.10021429 0.91500002 14864770
-0.051301908 0.099995241 0.91300005 14798979
-0.04956286 0.099995241 0.91300005 14996358
-0.047823813 0.099995241 0.91300005 14930565
-0.046084765 0.099995241 0.91300005 14930565
-0.044345718 0.099995241 0.91300005 14731919
-0.04260667 0.099995241 0.91300005 14731919
-0.040733334 0.09966667 0.91000003 14732425
-0.038914286 0.099447623 0.90800005 14864011
-0.037102856 0.099228576 0.90600002 14666628
-0.035377141 0.099228576 0.90600002 14732421
-0.033540003 0.098900005 0.90300006 14732414
-0.031749524 0.098680958 0.90100002 14666621
-0.029933335 0.098352388 0.89800006 14864513
-0.028222859 0.098352388 0.89800006 14996099
-0.026512383 0.098352388 0.89800006 14732423
-0.024746668 0.098133333 0.89600003 14732423
-0.02304 0.098133333 0.89600003 14666632
-0.021285716 0.097914286 0.89400005 15785113
-0.019582856 0.097914286 0.89400005 15985604
-0.01792 0.098133333 0.89600003 16776662
-0.014506667 0.098133333 0.89600003 16711616
-0.10559524 0.098837145 0.88700002 14738127
-0.10390572 0.098837145 0.88700002 14601589
-0.10221619 0.098837145 0.88700002 13877866
-0.10075334 0.099060006 0.88900006 13615219
-0.099617146 0.099617146 0.89400005 13681012
-0.097914286 0.099617146 0.89400005 13943168
-0.096426666 0.09984 0.89600003 14008961
-0.094931439 0.10006286 0.89800006 14074493
-0.093532376 0.10039714 0.90100002 14469251
-0.091816194 0.10039714 0.90100002 14798477
-0.090300001 0.10062001 0.90300006 14337926
-0.088580005 0.10062001 0.90300006 14205568
-0.087148577 0.10095429 0.90600002 14534533
-0.085422859 0.10095429 0.90600002 14469253
-0.083881907 0.10117715 0.90800005 14403460
-0.082333334 0.1014 0.91000003 14403199
-0.080600001 0.1014 0.91000003 14468992
-0.078866668 0.1014 0.91000003 14337926
-0.077387623 0.10173429 0.91300005 14601098
-0.075648576 0.10173429 0.91300005 14470280
-0.073909529 0.10173429 0.91300005 14470280
-0.072170481 0.10173429 0.91300005 14536059
-0.070431434 0.10173429 0.91300005 14865024
-0.068692386 0.10173429 0.91300005 14403967
-0.067100003 0.10195714 0.91500002 14535553
-0.065357141 0.10195714 0.91500002 14601598
-0.063614286 0.10195714 0.91500002 14733184
-0.061871432 0.10195714 0.91500002 14273914
-0.060128573 0.10195714 0.91500002 14273914
-0.058385715 0.10195714 0.91500002 14733702
-0.05664286 0.10195714 0.91500002 14667909
-0.054899998 0.10195714 0.91500002 14470012
-0.053157143 0.10195714 0.91500002 14470012
-0.051301908 0.10173429 0.91300005 14337647
-0.04956286 0.10173429 0.91300005 15127163
-0.047823813 0.10173429 0.91300005 14930313
-0.046084765 0.10173429 0.91300005 14930313
-0.044345718 0.10173429 0.91300005 14798227
-0.04260667 0.10173429 0.91300005 14732434
-0.040733334 0.1014 0.91000003 14798207
-0.038914286 0.10117715 0.90800005 14798207
-0.037102856 0.10095429 0.90600002 14732416
-0.035377141 0.10095429 0.90600002 14798209
-0.033540003 0.10062001 0.90300006 14732412
-0.031749524 0.10039714 0.90100002 14798205
-0.029933335 0.10006286 0.89800006 15061118
-0.028222859 0.10006286 0.89800006 15126911
-0.026512383 0.10006286 0.89800006 14665851
-0.024746668 0.09984 0.89600003 14929023
-0.02304 0.09984 0.89600003 14994832
-0.021333335 0.09984 0.89600003 16376485
-0.019626666 0.09984 0.89600003 16511419
-0.01792 0.09984 0.89600003 16775876
-0.10559524 0.10052667 0.88700002 14803396
-0.10390572 0.10052667 0.88700002 14405259
-0.10221619 0.10052667 0.88700002 13878915
-0.10075334 0.10075334 0.88900006 13484148
-0.099617146 0.10132001 0.89400005 13418355
-0.098133333 0.10154667 0.89600003 14008448
-0.096426666 0.10154667 0.89600003 14074241
-0.094931439 0.10177334 0.89800006 14205568
-0.093532376 0.10211334 0.90100002 14271361
-0.091816194 0.10211334 0.90100002 14469249
-0.090300001 0.10234001 0.90300006 14535042
-0.088874288 0.10268001 0.90600002 14271622
-0.087148577 0.10268001 0.90600002 14271622
-0.085611433 0.10290667 0.90800005 14336902
-0.084066667 0.10313334 0.91000003 14402695
-0.082333334 0.10313334 0.91000003 14402940
-0.080600001 0.10313334 0.91000003 14468733
-0.078866668 0.10313334 0.91000003 14402954
-0.077387623 0.10347334 0.91300005 14731919
-0.075648576 0.10347334 0.91300005 14601350
-0.073909529 0.10347334 0.91300005 14930315
-0.072170481 0.10347334 0.91300005 14667645
-0.070431434 0.10347334 0.91300005 14865024
-0.068692386 0.10347334 0.91300005 14536321
-0.067100003 0.1037 0.91500002 14404735
-0.065357141 0.1037 0.91500002 14404485
-0.063614286 0.1037 0.91500002 14667657
-0.061871432 0.1037 0.91500002 14404471
-0.060128573 0.1037 0.91500002 14404471
-0.058385715 0.1037 0.91500002 14536325
-0.05664286 0.1037 0.91500002 14536325
-0.054899998 0.1037 0.91500002 14667141
-0.053157143 0.1037 0.91500002 14667141
-0.051301908 0.10347334 0.91300005 14667393
-0.04956286 0.10347334 0.91300005 15127944
-0.047928572 0.1037 0.91500002 14929804
-0.046084765 0.10347334 0.91300005 15061390
-0.044345718 0.10347334 0.91300005 15192985
-0.04260667 0.10347334 0.91300005 15061399
-0.040733334 0.10313334 0.91000003 14864250
-0.038914286 0.10290667 0.90800005 15061629
-0.037102856 0.10268001 0.90600002 14863496
-0.035377141 0.10268001 0.90600002 14929289
-0.033540003 0.10234001 0.90300006 14863998
-0.031749524 0.10211334 0.90100002 15061377
-0.029933335 0.10177334 0.89800006 14864504
-0.028222859 0.10177334 0.89800006 14930297
-0.026512383 0.10177334 0.89800006 15126161
-0.024801906 0.10177334 0.89800006 16376228
-0.02304 0.10154667 0.89600003 16511937
-0.021333335 0.10154667 0.89600003 16776908
-0.019626666 0.10154667 0.89600003 16579522
-0.01792 0.10154667 0.89600003 16711108
-0.10559524 0.10221619 0.88700002 15263164
-0.10390572 0.10221619 0.88700002 15194273
-0.10221619 0.10221619 0.88700002 14207378
-0.10075334 0.10244668 0.88900006 14009211
-0.099282861 0.10267714 0.89100003 14075004
-0.098133333 0.10325333 0.89600003 14271613
-0.096426666 0.10325333 0.89600003 14205820
-0.094931439 0.10348381 0.89800006 14140027
-0.093532376 0.10382953 0.90100002 14337406
-0.091816194 0.10382953 0.90100002 14534533
-0.090300001 0.10406001 0.90300006 14600326
-0.088874288 0.10440572 0.90600002 14666378
-0.087148577 0.10440572 0.90600002 14337413
-0.085611433 0.10463619 0.90800005 14467968
-0.084066667 0.10486667 0.91000003 14533761
-0.082333334 0.10486667 0.91000003 14468481
-0.080600001 0.10486667 0.91000003 14534274
-0.078866668 0.10486667 0.91000003 14468488
-0.077387623 0.10521238 0.91300005 14731660
-0.075648576 0.10521238 0.91300005 14535557
-0.073909529 0.10521238 0.91300005 14798729
-0.072170481 0.10521238 0.91300005 14207860
-0.07058572 0.10544286 0.91500002 14734204
-0.068842858 0.10544286 0.91500002 15259794
-0.067100003 0.10544286 0.91500002 14536071
-0.065357141 0.10544286 0.91500002 14601098
-0.063614286 0.10544286 0.91500002 14864270
-0.061871432 0.10544286 0.91500002 14799229
-0.060128573 0.10544286 0.91500002 14799229
-0.058385715 0.10544286 0.91500002 14798725
-0.05664286 0.10544286 0.91500002 14930311
-0.054899998 0.10544286 0.91500002 14865288
-0.053157143 0.10544286 0.91500002 14865288
-0.051301908 0.10521238 0.91300005 14931081
-0.04956286 0.10521238 0.91300005 14931081
-0.047928572 0.10544286 0.91500002 14863489
-0.046084765 0.10521238 0.91300005 15324040
-0.044345718 0.10521238 0.91300005 15389844
-0.04260667 0.10521238 0.91300005 15192465
-0.040733334 0.10486667 0.91000003 14864513
-0.038914286 0.10463619 0.90800005 14930306
-0.037102856 0.10440572 0.90600002 14798209
-0.035377141 0.10440572 0.90600002 14864002
-0.033540003 0.10406001 0.90300006 14798459
-0.031749524 0.10382953 0.90100002 14995838
-0.029933335 0.10348381 0.89800006 14930283
-0.028222859 0.10348381 0.89800006 15193455
-0.026512383 0.10348381 0.89800006 15653016
-0.024746668 0.10325333 0.89600003 16508325
-0.02304 0.10325333 0.89600003 16579020
-0.021333335 0.10325333 0.89600003 15921090
-0.019626666 0.10325333 0.89600003 15985568
-0.01792 0.10325333 0.89600003 16777140
-0.10244668 0.10414001 0.88900006 15524544
-0.10075334 0.10414001 0.88900006 15061913
-0.099282861 0.10437429 0.89100003 13877639
-0.098133333 0.10496 0.89600003 14271359
-0.096426666 0.10496 0.89600003 14666117
-0.094931439 0.10519429 0.89800006 14666108
-0.093532376 0.10554572 0.90100002 14731901
-0.092020005 0.10578001 0.90300006 14600587
-0.090300001 0.10578001 0.90300006 14929552
-0.088874288 0.10613143 0.90600002 14797707
-0.087148577 0.10613143 0.90600002 14797707
-0.085611433 0.10636572 0.90800005 14862985
-0.084066667 0.1066 0.91000003 14994571
-0.082333334 0.1066 0.91000003 14666126
-0.080600001 0.1066 0.91000003 14534540
-0.078866668 0.1066 0.91000003 14666121
-0.077387623 0.10695143 0.91300005 14863500
-0.075648576 0.10695143 0.91300005 14732421
-0.073909529 0.10695143 0.91300005 15127179
-0.072170481 0.10695143 0.91300005 14470264
-0.070431434 0.10695143 0.91300005 14799229
-0.068692386 0.10695143 0.91300005 14930565
-0.067100003 0.10718572 0.91500002 14996358
-0.065357141 0.10718572 0.91500002 14864802
-0.063614286 0.10718572 0.91500002 14799009
-0.061871432 0.10718572 0.91500002 14930054
-0.060128573 0.10718572 0.91500002 15456398
-0.058385715 0.10718572 0.91500002 14930311
-0.05664286 0.10718572 0.91500002 14930311
-0.054899998 0.10718572 0.91500002 15128196
-0.053157143 0.10718572 0.91500002 15193989
-0.051414285 0.10718572 0.91500002 15193483
-0.04967143 0.10718572 0.91500002 15061897
-0.047928572 0.10718572 0.91500002 15126931
-0.046084765 0.10695143 0.91300005 15587482
-0.044345718 0.10695143 0.91300005 15390605
-0.04260667 0.10695143 0.91300005 15259019
-0.040733334 0.1066 0.91000003 15127442
-0.038914286 0.10636572 0.90800005 15456407
-0.037184764 0.10636572 0.90800005 14864016
-0.035377141 0.10613143 0.90600002 15127188
-0.033540003 0.10578001 0.90300006 16113547
-0.031749524 0.10554572 0.90100002 16639891
-0.029933335 0.10519429 0.89800006 16379027
-0.02816 0.10496 0.89600003 16774556
-0.026453335 0.10496 0.89600003 16511694
-0.024746668 0.10496 0.89600003 16380108
-0.02304 0.10496 0.89600003 15194541
-0.10132001 0.10642858 0.89400005 15851438
-0.099617146 0.10642858 0.89400005 14009234
-0.098133333 0.10666667 0.89600003 14467968
-0.096426666 0.10666667 0.89600003 14731140
-0.094931439 0.10690477 0.89800006 14600308
-0.093532376 0.1072619 0.90100002 14666101
-0.092020005 0.10750001 0.90300006 14337667
-0.090600006 0.10785715 0.90600002 14666632
-0.088874288 0.10785715 0.90600002 14862987
-0.087340958 0.10809524 0.90800005 15060366
-0.0858 0.10833333 0.91000003 14994825
-0.084066667 0.10833333 0.91000003 14929032
-0.082333334 0.10833333 0.91000003 14666378
-0.080865718 0.10869049 0.91300005 14666378
-0.079126671 0.10869049 0.91300005 14995084
-0.077387623 0.10869049 0.91300005 14929291
-0.075648576 0.10869049 0.91300005 14469503
-0.073909529 0.10869049 0.91300005 14798468
-0.072170481 0.10869049 0.91300005 14666880
-0.070431434 0.10869049 0.91300005 14930052
-0.068692386 0.10869049 0.91300005 14996106
-0.067100003 0.10892857 0.91500002 15193485
-0.065357141 0.10892857 0.91500002 15193760
-0.063614286 0.10892857 0.91500002 15127967
-0.061871432 0.10892857 0.91500002 14469751
-0.060128573 0.10892857 0.91500002 15061888
-0.058385715 0.10892857 0.91500002 14996099
-0.05664286 0.10892857 0.91500002 15061892
-0.054899998 0.10892857 0.91500002 15259276
-0.053157143 0.10892857 0.91500002 15259276
-0.051414285 0.10892857 0.91500002 15127690
-0.04967143 0.10892857 0.91500002 15061897
-0.047928572 0.10892857 0.91500002 15061138
-0.046084765 0.10869049 0.91300005 15258517
-0.044345718 0.10869049 0.91300005 15193487
-0.04260667 0.10869049 0.91300005 15193487
-0.040733334 0.10833333 0.91000003 14996608
-0.038914286 0.10809524 0.90800005 15128194
-0.037184764 0.10809524 0.90800005 14929541
-0.035377141 0.10785715 0.90600002 15587471
-0.033540003 0.10750001 0.90300006 16442296
-0.031749524 0.1072619 0.90100002 16705468
-0.029933335 0.10690477 0.89800006 16511421
-0.02816 0.10666667 0.89600003 16708800
-0.026453335 0.10666667 0.89600003 16577497
-0.024746668 0.10666667 0.89600003 14801086
-0.021882858 0.10130952 0.85100001 13156936
-0.10154667 0.10837333 0.89600003 15653275
-0.09984 0.10837333 0.89600003 15784861
-0.098133333 0.10837333 0.89600003 15785134
-0.096426666 0.10837333 0.89600003 16114099
-0.095248573 0.10897809 0.90100002 16244613
-0.093532376 0.10897809 0.90100002 15718269
-0.092020005 0.10922001 0.90300006 15390094
-0.090600006 0.10958286 0.90600002 14929543
-0.088874288 0.10958286 0.90600002 14863500
-0.087340958 0.10982477 0.90800005 14863500
-0.0858 0.11006667 0.91000003 14797957
-0.084066667 0.11006667 0.91000003 14797957
-0.082333334 0.11006667 0.91000003 14600578
-0.080865718 0.11042953 0.91300005 14600578
-0.079126671 0.11042953 0.91300005 14731910
-0.077387623 0.11042953 0.91300005 15389840
-0.075648576 0.11042953 0.91300005 14600846
-0.073909529 0.11042953 0.91300005 14995604
-0.072170481 0.11042953 0.91300005 14930077
-0.070431434 0.11042953 0.91300005 15193249
-0.068692386 0.11042953 0.91300005 15061649
-0.067100003 0.11067143 0.91500002 15127442
-0.065357141 0.11067143 0.91500002 15127442
-0.063614286 0.11067143 0.91500002 15259028
-0.061871432 0.11067143 0.91500002 15193224
-0.060128573 0.11067143 0.91500002 15193224
-0.058385715 0.11067143 0.91500002 15127690
-0.05664286 0.11067143 0.91500002 15193483
-0.054899998 0.11067143 0.91500002 15259530
-0.053157143 0.11067143 0.91500002 15259530
-0.051414285 0.11067143 0.91500002 15127179
-0.04967143 0.11067143 0.91500002 15061386
-0.047928572 0.11067143 0.91500002 15323799
-0.046084765 0.11042953 0.91300005 15389592
-0.044345718 0.11042953 0.91300005 16245660
-0.04260667 0.11042953 0.91300005 16772775
-0.040733334 0.11006667 0.91000003 16445099
-0.038914286 0.10982477 0.90800005 16445099
-0.037184764 0.10982477 0.90800005 16444851
-0.035377141 0.10958286 0.90600002 16774844
-0.033465713 0.10897809 0.90100002 15917760
-0.031749524 0.10897809 0.90100002 15457209
-0.029566666 0.10728476 0.88700002 14798500
-0.027877143 0.10728476 0.88700002 14798500
-0.026453335 0.10837333 0.89600003 14142346
-0.02350381 0.10293048 0.85100001 11379040
-0.021882858 0.10293048 0.85100001 11773787
-0.020333333 0.10329334 0.85400003 15063437
-0.018706666 0.10329334 0.85400003 15459503
-0.10211334 0.11069429 0.90100002 14600058
-0.10039714 0.11069429 0.90100002 15455367
-0.098352388 0.11032572 0.89800006 16178595
-0.096641913 0.11032572 0.89800006 16244388
-0.095248573 0.11069429 0.90100002 16310424
-0.093532376 0.11069429 0.90100002 16442010
-0.092020005 0.11094 0.90300006 16114603
-0.090600006 0.11130857 0.90600002 15390880
-0.088874288 0.11130857 0.90600002 14864032
-0.087340958 0.11155429 0.90800005 14732446
-0.0858 0.11180001 0.91000003 14666121
-0.084343813 0.11216858 0.91300005 14995086
-0.082604766 0.11216858 0.91300005 14995593
-0.080865718 0.11216858 0.91300005 14798214
-0.079126671 0.11216858 0.91300005 14601080
-0.077387623 0.11216858 0.91300005 14995838
-0.075648576 0.11216858 0.91300005 14601332
-0.073909529 0.11216858 0.91300005 15061883
-0.072170481 0.11216858 0.91300005 15062142
-0.070431434 0.11216858 0.91300005 15127935
-0.068692386 0.11216858 0.91300005 14996104
-0.067100003 0.11241429 0.91500002 14996104
-0.065357141 0.11241429 0.91500002 14996610
-0.063614286 0.11241429 0.91500002 15193989
-0.061871432 0.11241429 0.91500002 15325069
-0.060128573 0.11241429 0.91500002 15259276
-0.058385715 0.11241429 0.91500002 15193474
-0.05664286 0.11241429 0.91500002 15325060
-0.054899998 0.11241429 0.91500002 15456387
-0.053157143 0.11241429 0.91500002 15390594
-0.051414285 0.11241429 0.91500002 15324544
-0.04967143 0.11241429 0.91500002 15653509
-0.047928572 0.11241429 0.91500002 15784884
-0.046084765 0.11216858 0.91300005 15916470
-0.044345718 0.11216858 0.91300005 16312261
-0.04260667 0.11216858 0.91300005 16246468
-0.040867623 0.11216858 0.91300005 16246455
-0.039214283 0.11241429 0.91500002 16312248
-0.037266668 0.11180001 0.91000003 16312248
-0.035377141 0.11130857 0.90600002 16246455
-0.033465713 0.11069429 0.90100002 14866614
-0.031749524 0.11069429 0.90100002 13682340
-0.029566666 0.10897429 0.88700002 13417590
-0.027877143 0.10897429 0.88700002 13680762
-0.025213335 0.10492 0.85400003 13879172
-0.02350381 0.10455143 0.85100001 11510624
-0.021882858 0.10455143 0.85100001 12036406
-0.020333333 0.10492 0.85400003 15326056
-0.018706666 0.10492 0.85400003 15393192
-0.017280001 0.10614857 0.86400002 16777159
-0.099688575 0.10617238 0.85100001 13419393
-0.097837143 0.10592286 0.84900004 12827256
-0.096220002 0.10592286 0.84900004 12431483
-0.094380006 0.10567334 0.84700006 12365690
-0.092547618 0.10542382 0.84500003 14009193
-0.090722859 0.10517429 0.84300005 14469744
-0.089117147 0.10517429 0.84300005 15324029
-0.08730381 0.10492477 0.84100002 15916166
-0.085701905 0.10492477 0.84100002 16047513
-0.090600006 0.11303429 0.90600002 16310685
-0.088874288 0.11303429 0.90600002 15982532
-0.087340958 0.11328381 0.90800005 15982532
-0.086082861 0.11390762 0.91300005 15982781
-0.084343813 0.11390762 0.91300005 16311746
-0.082604766 0.11390762 0.91300005 16246961
-0.080865718 0.11390762 0.91300005 16773305
-0.079126671 0.11390762 0.91300005 16444838
-0.077387623 0.11390762 0.91300005 16510631
-0.075648576 0.11390762 0.91300005 16444327
-0.073909529 0.11390762 0.91300005 16510120
-0.072170481 0.11390762 0.91300005 16379027
-0.070431434 0.11390762 0.91300005 16510613
-0.068692386 0.11390762 0.91300005 16444086
-0.067100003 0.11415715 0.91500002 16312500
-0.065357141 0.11415715 0.91500002 16444842
-0.063614286 0.11415715 0.91500002 16642221
-0.061871432 0.11415715 0.91500002 16511151
-0.060128573 0.11415715 0.91500002 16777150
-0.058385715 0.11415715 0.91500002 16646059
-0.05664286 0.11415715 0.91500002 16777134
-0.054899998 0.11415715 0.91500002 16646061
-0.053157143 0.11415715 0.91500002 15725471
-0.051414285 0.11415715 0.91500002 16511410
-0.04967143 0.11415715 0.91500002 16774839
-0.047928572 0.11415715 0.91500002 15391418
-0.046084765 0.11390762 0.91300005 15259832
-0.044345718 0.11390762 0.91300005 13877428
-0.04260667 0.11390762 0.91300005 13351084
-0.037376191 0.10417619 0.83500004 13352058
-0.035785716 0.10417619 0.83500004 13286265
-0.034113336 0.10392667 0.83300006 13746039
-0.032526668 0.10392667 0.83300006 14140797
-0.033911429 0.11390762 0.91300005 13812357
-0.029705716 0.10517429 0.84300005 12825462
-0.028100001 0.10517429 0.84300005 11905393
-0.026494287 0.10517429 0.84300005 11839600
-0.025213335 0.10654666 0.85400003 12234617
-0.02350381 0.10617238 0.85100001 13484684
-0.021882858 0.10617238 0.85100001 13353337
-0.020333333 0.10654666 0.85400003 14340232
-0.018706666 0.10654666 0.85400003 14868145
-0.017280001 0.10779429 0.86400002 16777171
-0.10130952 0.10779333 0.85100001 14869963
-0.099454284 0.10754 0.84900004 12960884
-0.097837143 0.10754 0.84900004 11447645
-0.096220002 0.10754 0.84900004 11710054
-0.094380006 0.10728668 0.84700006 11973226
-0.092547618 0.10703333 0.84500003 13484914
-0.090722859 0.10678001 0.84300005 13353328
-0.089117147 0.10678001 0.84300005 13811312
-0.08730381 0.10652667 0.84100002 14074484
-0.085498095 0.10627334 0.83900005 14730102
-0.083700001 0.10602 0.83700001 15980169
-0.082105711 0.10602 0.83700001 15981236
-0.087533332 0.11526667 0.91000003 16178615
-0.086082861 0.11564668 0.91300005 16179903
-0.084343813 0.11564668 0.91300005 16048317
-0.082604766 0.11564668 0.91300005 15852219
-0.080865718 0.11564668 0.91300005 15654840
-0.079126671 0.11564668 0.91300005 15720104
-0.077387623 0.11564668 0.91300005 16312241
-0.075648576 0.11564668 0.91300005 16378293
-0.073909529 0.11564668 0.91300005 16575672
-0.072170481 0.11564668 0.91300005 16510649
-0.07058572 0.11589999 0.91500002 16510649
-0.068842858 0.11589999 0.91500002 16511435
-0.067100003 0.11589999 0.91500002 16248263
-0.065357141 0.11589999 0.91500002 16511169
-0.063614286 0.11589999 0.91500002 16379583
-0.061871432 0.11589999 0.91500002 15786928
-0.060128573 0.11589999 0.91500002 15984307
-0.058385715 0.11589999 0.91500002 16180644
-0.05664286 0.11589999 0.91500002 16776893
-0.054780003 0.11564668 0.91300005 16646118
-0.053040955 0.11564668 0.91300005 16120030
-0.051301908 0.11564668 0.91300005 16710625
-0.04956286 0.11564668 0.91300005 15921109
-0.047928572 0.11589999 0.91500002 13289622
-0.046084765 0.11564668 0.91300005 13421208
-0.044345718 0.11564668 0.91300005 12826763
-0.038966667 0.10576668 0.83500004 12300419
-0.037376191 0.10576668 0.83500004 12169567
-0.035785716 0.10576668 0.83500004 11445844
-0.034113336 0.10551334 0.83300006 11840073
-0.032526668 0.10551334 0.83300006 13550691
-0.031014288 0.10576668 0.83500004 13746834
-0.029705716 0.10678001 0.84300005 12036216
-0.028100001 0.10678001 0.84300005 11315030
-0.026620002 0.10728668 0.84700006 11117651
-0.025124762 0.10779333 0.85100001 12103772
-0.023586666 0.10817333 0.85400003 13222253
-0.02196 0.10817333 0.85400003 13419382
-0.020333333 0.10817333 0.85400003 14472070
-0.018706666 0.10817333 0.85400003 14474416
-0.01708 0.10817333 0.85400003 16777173
-0.10130952 0.10941429 0.85100001 15593686
-0.099454284 0.10915715 0.84900004 13618310
-0.097837143 0.10915715 0.84900004 11249762
-0.096220002 0.10915715 0.84900004 12168824
-0.094380006 0.10890001 0.84700006 13484684
-0.092547618 0.10864286 0.84500003 13551472
-0.090722859 0.10838572 0.84300005 12893542
-0.089117147 0.10838572 0.84300005 12433275
-0.08730381 0.10812858 0.84100002 12367482
-0.085498095 0.10787144 0.83900005 13548151
-0.083700001 0.10761429 0.83700001 14271874
-0.082105711 0.10761429 0.83700001 14007658
-0.087821908 0.11738572 0.91300005 12757591
-0.086082861 0.11738572 0.91300005 12824165
-0.084343813 0.11738572 0.91300005 13087337
-0.082604766 0.11738572 0.91300005 13547906
-0.080865718 0.11738572 0.91300005 14008457
-0.079126671 0.11738572 0.91300005 13943420
-0.077387623 0.11738572 0.91300005 14009213
-0.075648576 0.11738572 0.91300005 14205827
-0.073909529 0.11738572 0.91300005 14337413
-0.072170481 0.11738572 0.91300005 14469258
-0.07058572 0.11764286 0.91500002 14600844
-0.068842858 0.11764286 0.91500002 14600844
-0.067320004 0.11802858 0.91800004 14600844
-0.065571435 0.11802858 0.91800004 14272899
-0.063822858 0.11802858 0.91800004 14075520
-0.062074285 0.11802858 0.91800004 13812861
-0.060325716 0.11802858 0.91800004 13418103
-0.058577146 0.11802858 0.91800004 13680489
-0.05664286 0.11764286 0.91500002 13943661
-0.054780003 0.11738572 0.91300005 13812611
-0.053040955 0.11738572 0.91300005 13746818
-0.051301908 0.11738572 0.91300005 13286274
-0.04956286 0.11738572 0.91300005 12694137
-0.043633334 0.10710001 0.83300006 12825730
-0.04204667 0.10710001 0.83300006 14141590
-0.040460002 0.10710001 0.83300006 13089917
-0.038966667 0.10735714 0.83500004 11971436
-0.037376191 0.10735714 0.83500004 10921803
-0.035785716 0.10735714 0.83500004 10592838
-0.034195241 0.10735714 0.83500004 11446847
-0.032604761 0.10735714 0.83500004 13223258
-0.031014288 0.10735714 0.83500004 12959353
-0.029705716 0.10838572 0.84300005 11117149
-0.028100001 0.10838572 0.84300005 9870930
-0.026620002 0.10890001 0.84700006 9410379
-0.025124762 0.10941429 0.85100001 10525796
-0.023586666 0.1098 0.85400003 12565379
-0.021882858 0.10941429 0.85100001 12828260
-0.020261904 0.10941429 0.85100001 14867843
-0.018706666 0.1098 0.85400003 14737588
-0.017120002 0.11005715 0.85600007 16777174
-0.099688575 0.11103524 0.85100001 14473115
-0.097837143 0.11077429 0.84900004 11117672
-0.096220002 0.11077429 0.84900004 12298089
-0.094380006 0.11051334 0.84700006 14206086
-0.092547618 0.11025239 0.84500003 13551504
-0.090722859 0.10999143 0.84300005 12038265
-0.089117147 0.10999143 0.84300005 10989170
-0.08730381 0.10973047 0.84100002 10923377
-0.085701905 0.10973047 0.84100002 12498282
-0.083700001 0.10920857 0.83700001 13550970
-0.08190953 0.10894762 0.83500004 13418364
-0.080319054 0.10894762 0.83500004 11839332
-0.078728572 0.10894762 0.83500004 11905609
-0.077138096 0.10894762 0.83500004 12300367
-0.082604766 0.11912477 0.91300005 12825716
-0.080865718 0.11912477 0.91300005 13549439
-0.071846671 0.10816476 0.82900006 13483642
-0.070267625 0.10816476 0.82900006 12957298
-0.068688571 0.10816476 0.82900006 12956789
-0.067109525 0.10816476 0.82900006 12693617
-0.065530479 0.10816476 0.82900006 12496990
-0.063951433 0.10816476 0.82900006 13352299
-0.062372386 0.10816476 0.82900006 13681804
-0.060793336 0.10816476 0.82900006 12629116
-0.059071429 0.10790381 0.82700002 12563812
-0.057496194 0.10790381 0.82700002 12629605
-0.055920955 0.10790381 0.82700002 13155442
-0.054345712 0.10790381 0.82700002 12629098
-0.052898098 0.10816476 0.82900006 12628837
-0.051319048 0.10816476 0.82900006 13286767
-0.049860001 0.10842572 0.83100003 13549959
-0.048393335 0.10868668 0.83300006 12694650
-0.046806671 0.10868668 0.83300006 12628342
-0.045328572 0.10894762 0.83500004 12233584
-0.043633334 0.10868668 0.83300006 12496742
-0.04204667 0.10868668 0.83300006 13483637
-0.040460002 0.10868668 0.83300006 13747327
-0.038966667 0.10894762 0.83500004 12497260
-0.037376191 0.10894762 0.83500004 10265674
-0.035785716 0.10894762 0.83500004 10134088
-0.034195241 0.10894762 0.83500004 11184462
-0.032604761 0.10894762 0.83500004 12434529
-0.031088572 0.10920857 0.83700001 11842678
-0.029705716 0.10999143 0.84300005 10197853
-0.028100001 0.10999143 0.84300005 9216339
-0.026620002 0.11051334 0.84700006 9084753
-0.025124762 0.11103524 0.85100001 10198094
-0.023586666 0.11142667 0.85400003 11908712
-0.021882858 0.11103524 0.85100001 11907681
-0.020261904 0.11103524 0.85100001 14473608
-0.018706666 0.11142667 0.85400003 14934710
-0.01708 0.11142667 0.85400003 16777173
-0.099688575 0.11265619 0.85100001 14999979
-0.097837143 0.11239143 0.84900004 10328676
-0.096220002 0.11239143 0.84900004 11642221
-0.094380006 0.11212667 0.84700006 13089667
-0.092547618 0.11186191 0.84500003 12433275
-0.090722859 0.11159715 0.84300005 10327899
-0.089117147 0.11159715 0.84300005 9739880
-0.08730381 0.11133238 0.84100002 9608294
-0.085701905 0.11133238 0.84100002 10724190
-0.083700001 0.11080286 0.83700001 12961152
-0.08190953 0.1105381 0.83500004 13156473
-0.080319054 0.1105381 0.83500004 10722132
-0.078728572 0.1105381 0.83500004 11511106
-0.076953337 0.11027334 0.83300006 12432208
-0.075366676 0.11027334 0.83300006 13549930
-0.073602863 0.11000858 0.83100003 14010481
-0.071846671 0.10974382 0.82900006 13287294
-0.070267625 0.10974382 0.82900006 11774055
-0.068688571 0.10974382 0.82900006 9145202
-0.067109525 0.10974382 0.82900006 8487272
-0.065530479 0.10974382 0.82900006 9735762
-0.063951433 0.10974382 0.82900006 13222791
-0.062372386 0.10974382 0.82900006 13352587
-0.060793336 0.10974382 0.82900006 12826243
-0.059071429 0.10947905 0.82700002 12301939
-0.057496194 0.10947905 0.82700002 10722907
-0.055920955 0.10947905 0.82700002 11446112
-0.054345712 0.10947905 0.82700002 11511905
-0.052898098 0.10974382 0.82900006 12760954
-0.051319048 0.10974382 0.82900006 13353091
-0.049860001 0.11000858 0.83100003 13089404
-0.048393335 0.11027334 0.83300006 10984028
-0.046806671 0.11027334 0.83300006 9404746
-0.045328572 0.1105381 0.83500004 8615230
-0.043738097 0.1105381 0.83500004 9140822
-0.042147618 0.1105381 0.83500004 11575163
-0.040557146 0.1105381 0.83500004 12497251
-0.038966667 0.1105381 0.83500004 13878904
-0.037376191 0.1105381 0.83500004 12894598
-0.035871428 0.11080286 0.83700001 12697219
-0.034277145 0.11080286 0.83700001 12435051
-0.032682858 0.11080286 0.83700001 11184984
-0.031088572 0.11080286 0.83700001 10199645
-0.029705716 0.11159715 0.84300005 9936473
-0.028233334 0.11212667 0.84700006 9675613
-0.026620002 0.11212667 0.84700006 9872992
-0.025124762 0.11265619 0.85100001 10395743
-0.023586666 0.11305334 0.85400003 11908982
-0.021882858 0.11265619 0.85100001 11907701
-0.020261904 0.11265619 0.85100001 14078870
-0.018706666 0.11305334 0.85400003 15329478
-0.01708 0.11305334 0.85400003 16777182
-0.10050857 0.11521715 0.85800004 14803626
-0.098067619 0.11427715 0.85100001 9934944
-0.096220002 0.11400858 0.84900004 11052376
-0.094602861 0.11400858 0.84900004 12697201
-0.092547618 0.11347143 0.84500003 12170884
-0.090938091 0.11347143 0.84500003 10065508
-0.089117147 0.11320286 0.84300005 9478484
-0.08730381 0.11293428 0.84100002 9412691
-0.085701905 0.11293428 0.84100002 9542728
-0.083700001 0.11239714 0.83700001 11911276
-0.08190953 0.11212858 0.83500004 12566392
-0.080319054 0.11212858 0.83500004 11118946
-0.078728572 0.11212858 0.83500004 11642444
-0.076953337 0.11186001 0.83300006 13089890
-0.075366676 0.11186001 0.83300006 13944706
-0.073602863 0.11159144 0.83100003 13878913
-0.072020002 0.11159144 0.83100003 12828299
-0.070267625 0.11132286 0.82900006 10064993
-0.068688571 0.11132286 0.82900006 6653510
-0.067109525 0.11132286 0.82900006 5798201
-0.065530479 0.11132286 0.82900006 8094986
-0.063951433 0.11132286 0.82900006 11450429
-0.062372386 0.11132286 0.82900006 13483914
-0.060793336 0.11132286 0.82900006 13089156
-0.059214287 0.11132286 0.82900006 12171132
-0.057496194 0.11105429 0.82700002 11513202
-0.055920955 0.11105429 0.82700002 11513713
-0.054345712 0.11105429 0.82700002 11711092
-0.052898098 0.11132286 0.82900006 12892036
-0.051319048 0.11132286 0.82900006 13155208
-0.049860001 0.11159144 0.83100003 13022859
-0.048277143 0.11159144 0.83100003 9996381
-0.046806671 0.11186001 0.83300006 9404467
-0.045220003 0.11186001 0.83300006 8943916
-0.043738097 0.11212858 0.83500004 8747827
-0.042147618 0.11212858 0.83500004 10195273
-0.040557146 0.11212858 0.83500004 11641415
-0.038966667 0.11212858 0.83500004 12957275
-0.037465714 0.11239714 0.83700001 13681284
-0.035871428 0.11239714 0.83700001 13615491
-0.034277145 0.11239714 0.83700001 12500356
-0.032682858 0.11239714 0.83700001 10131808
-0.031088572 0.11239714 0.83700001 9805394
-0.029776191 0.11347143 0.84500003 9936980
-0.028233334 0.11374 0.84700006 9412180
-0.026682859 0.11400858 0.84900004 9280594
-0.025124762 0.11427715 0.85100001 10000204
-0.023586666 0.11468 0.85400003 12039787
-0.021882858 0.11427715 0.85100001 11842660
-0.020261904 0.11427715 0.85100001 14803345
-0.018706666 0.11468 0.85400003 15790806
-0.01708 0.11468 0.85400003 16711652
-0.10050857 0.11685143 0.85800004 15329966
-0.098643817 0.11657906 0.85600007 9737561
-0.096446671 0.1158981 0.85100001 10789713
-0.094602861 0.11562572 0.84900004 12829296
-0.092766672 0.11535334 0.84700006 12105339
-0.090938091 0.11508096 0.84500003 9868377
-0.089117147 0.11480858 0.84300005 9478473
-0.08730381 0.11453619 0.84100002 9741645
-0.085701905 0.11453619 0.84100002 9542764
-0.083700001 0.11399143 0.83700001 10332280
-0.08190953 0.11371905 0.83500004 11842140
-0.080319054 0.11371905 0.83500004 12829035
-0.078728572 0.11371905 0.83500004 13418632
-0.077138096 0.11371905 0.83500004 13879183
-0.075366676 0.11344668 0.83300006 13419130
-0.073602863 0.11317429 0.83100003 10721617
-0.072020002 0.11317429 0.83100003 7830369
-0.070437141 0.11317429 0.83100003 6580302
-0.068854287 0.11317429 0.83100003 5469992
-0.067271426 0.11317429 0.83100003 4680476
-0.065688573 0.11317429 0.83100003 6584360
-0.064105719 0.11317429 0.83100003 7308083
-0.062522858 0.11317429 0.83100003 10920011
-0.060940001 0.11317429 0.83100003 12762215
-0.059214287 0.11290191 0.82900006 12695429
-0.057635244 0.11290191 0.82900006 12629636
-0.056056194 0.11290191 0.82900006 13287805
-0.054477148 0.11290191 0.82900006 14011528
-0.052898098 0.11290191 0.82900006 13023372
-0.051319048 0.11290191 0.82900006 11246961
-0.049860001 0.11317429 0.83100003 9732719
-0.048277143 0.11317429 0.83100003 8877410
-0.046806671 0.11344668 0.83300006 8813638
-0.045220003 0.11344668 0.83300006 8945224
-0.043738097 0.11371905 0.83500004 8879951
-0.042147618 0.11371905 0.83500004 9143123
-0.040557146 0.11371905 0.83500004 10194748
-0.038966667 0.11371905 0.83500004 11313229
-0.037465714 0.11399143 0.83700001 12760673
-0.035871428 0.11399143 0.83700001 13418603
-0.034359049 0.11426381 0.83900005 12566117
-0.032760955 0.11426381 0.83900005 10197569
-0.031237142 0.11453619 0.84100002 9674328
-0.029846668 0.11535334 0.84700006 9805914
-0.028300002 0.11562572 0.84900004 9543777
-0.026682859 0.11562572 0.84900004 9543777
-0.025213335 0.11630667 0.85400003 10658136
-0.023586666 0.11630667 0.85400003 13684614
-0.02196 0.11630667 0.85400003 13814914
-0.020333333 0.11630667 0.85400003 15986083
-0.018706666 0.11630667 0.85400003 16316639
-0.10050857 0.11848572 0.85800004 15725505
-0.098643817 0.11820953 0.85600007 10396272
-0.096446671 0.11751905 0.85100001 10592323
-0.094825715 0.11751905 0.85100001 12763492
-0.092985712 0.11724286 0.84900004 11777398
-0.090938091 0.11669048 0.84500003 10198366
-0.089117147 0.11641429 0.84300005 9675613
-0.08730381 0.11613809 0.84100002 9675613
-0.085701905 0.11613809 0.84100002 9345892
-0.083899997 0.11586191 0.83900005 9148513
-0.082105711 0.11558571 0.83700001 10197293
-0.080319054 0.11530953 0.83500004 12894806
-0.078728572 0.11530953 0.83500004 14009495
-0.077138096 0.11530953 0.83500004 13877909
-0.075366676 0.11503334 0.83300006 12697469
-0.073780008 0.11503334 0.83300006 7631408
-0.072020002 0.11475714 0.83100003 6912557
-0.070437141 0.11475714 0.83100003 6254627
-0.068854287 0.11475714 0.83100003 5863476
-0.067271426 0.11475714 0.83100003 5863476
-0.065688573 0.11475714 0.83100003 5732649
-0.064105719 0.11475714 0.83100003 5864235
-0.062522858 0.11475714 0.83100003 8291621
-0.060940001 0.11475714 0.83100003 10396997
-0.059214287 0.11448096 0.82900006 12825462
-0.057635244 0.11448096 0.82900006 13483392
-0.056056194 0.11448096 0.82900006 13615759
-0.054477148 0.11448096 0.82900006 13681552
-0.053025715 0.11475714 0.83100003 12891775
-0.051442858 0.11475714 0.83100003 9075781
-0.049860001 0.11475714 0.83100003 9402690
-0.048277143 0.11475714 0.83100003 9205311
-0.046806671 0.11503334 0.83300006 8617031
-0.045220003 0.11503334 0.83300006 8682824
-0.043738097 0.11530953 0.83500004 8814158
-0.042147618 0.11530953 0.83500004 8814158
-0.040654287 0.11558571 0.83700001 8683056
-0.03906 0.11558571 0.83700001 9735744
-0.03755524 0.11586191 0.83900005 11707987
-0.035957143 0.11586191 0.83900005 13418605
-0.034359049 0.11586191 0.83900005 11710831
-0.032760955 0.11586191 0.83900005 10066006
-0.031237142 0.11613809 0.84100002 9608787
-0.029846668 0.11696667 0.84700006 9674580
-0.028300002 0.11724286 0.84900004 9412189
-0.026745714 0.11751905 0.85100001 9543775
-0.025272382 0.11820953 0.85600007 11248481
-0.023641907 0.11820953 0.85600007 13551236
-0.022011429 0.11820953 0.85600007 14208891
-0.020333333 0.11793333 0.85400003 16577439
-0.018706666 0.11793333 0.85400003 16513498
-0.10050857 0.12012 0.85800004 16448724
-0.098874293 0.12012 0.85800004 11514249
-0.09678667 0.11956 0.85400003 12629866
-0.094825715 0.11914 0.85100001 13814140
-0.093204759 0.11914 0.85100001 12697460
-0.091368571 0.11886001 0.84900004 10723670
-0.08932858 0.11830001 0.84500003 9347443
-0.087511435 0.11802001 0.84300005 9413236
-0.085905716 0.11802001 0.84300005 9346412
-0.084100001 0.11774001 0.84100002 9412205
-0.082301915 0.11746 0.83900005 10263889
-0.080511428 0.11718 0.83700001 12106093
-0.078917138 0.11718 0.83700001 12235903
-0.077322856 0.11718 0.83700001 11841145
-0.075547621 0.1169 0.83500004 10857039
-0.073957145 0.1169 0.83500004 6843666
-0.072193339 0.11662001 0.83300006 5929269
-0.070606671 0.11662001 0.83300006 5731890
-0.069020011 0.11662001 0.83300006 5731654
-0.067433342 0.11662001 0.83300006 5929033
-0.065688573 0.11634 0.83100003 6061112
-0.064105719 0.11634 0.83100003 5863733
-0.062522858 0.11634 0.83100003 7109166
-0.060940001 0.11634 0.83100003 6977580
-0.059357144 0.11634 0.83100003 9865808
-0.057774287 0.11634 0.83100003 13418630
-0.056191429 0.11634 0.83100003 13484155
-0.054608572 0.11634 0.83100003 12036709
-0.053025715 0.11634 0.83100003 11379272
-0.051442858 0.11634 0.83100003 8879138
-0.049980003 0.11662001 0.83300006 8945219
-0.048393335 0.11662001 0.83300006 8813633
-0.046806671 0.11662001 0.83300006 8813638
-0.045328572 0.1169 0.83500004 8879431
-0.043842856 0.11718 0.83700001 8945226
-0.042248569 0.11718 0.83700001 9011019
-0.040751431 0.11746 0.83900005 8879181
-0.039153337 0.11746 0.83900005 9734490
-0.037644763 0.11774001 0.84100002 11576930
-0.036042858 0.11774001 0.84100002 13616513
-0.034440953 0.11774001 0.84100002 11974500
-0.032917146 0.11802001 0.84300005 9737538
-0.03131143 0.11802001 0.84300005 9280846
-0.029846668 0.11858001 0.84700006 10004569
-0.028300002 0.11886001 0.84900004 10200152
-0.026745714 0.11914 0.85100001 11252840
-0.025272382 0.11984 0.85600007 11973494
-0.023641907 0.11984 0.85600007 11710322
-0.022011429 0.11984 0.85600007 12169058
-0.020380953 0.11984 0.85600007 16775596
-0.018750478 0.11984 0.85600007 16646099
-0.017120002 0.11984 0.85600007 16646099
-0.10074285 0.1220381 0.86000001 16711650
-0.098874293 0.12175429 0.85800004 12172189
-0.09678667 0.12118667 0.85400003 13677950
-0.094825715 0.12076095 0.85100001 14204294
-0.093204759 0.12076095 0.85100001 12828294
-0.091368571 0.12047715 0.84900004 10920297
-0.08932858 0.11990952 0.84500003 9346412
-0.087511435 0.11962572 0.84300005 9477998
-0.085905716 0.11962572 0.84300005 9608555
-0.084100001 0.11934191 0.84100002 9542762
-0.082301915 0.1190581 0.83900005 9870930
-0.080703817 0.1190581 0.83900005 11449962
-0.078917138 0.11877429 0.83700001 11580294
-0.077322856 0.11877429 0.83700001 11448708
-0.075728573 0.11877429 0.83700001 9149521
-0.073957145 0.11849048 0.83500004 6320422
-0.07236667 0.11849048 0.83500004 5929528
-0.070776194 0.11849048 0.83500004 5732149
-0.069020011 0.11820668 0.83300006 5534009
-0.067433342 0.11820668 0.83300006 6060353
-0.065846674 0.11820668 0.83300006 5929528
-0.064260006 0.11820668 0.83300006 5995321
-0.062673338 0.11820668 0.83300006 5994549
-0.061086673 0.11820668 0.83300006 5270826
-0.059357144 0.11792286 0.83100003 8158999
-0.057774287 0.11792286 0.83100003 12896095
-0.056191429 0.11792286 0.83100003 13418898
-0.054740004 0.11820668 0.83300006 11774073
-0.053153336 0.11820668 0.83300006 10459217
-0.051566672 0.11820668 0.83300006 8748599
-0.049980003 0.11820668 0.83300006 9077064
-0.048509523 0.11849048 0.83500004 8879685
-0.046919052 0.11849048 0.83500004 9142346
-0.045328572 0.11849048 0.83500004 9076553
-0.043842856 0.11877429 0.83700001 9010508
-0.042248569 0.11877429 0.83700001 9076301
-0.040751431 0.1190581 0.83900005 8813640
-0.039153337 0.1190581 0.83900005 10655844
-0.037644763 0.11934191 0.84100002 11709034
-0.036042858 0.11934191 0.84100002 13353859
-0.034440953 0.11934191 0.84100002 11646587
-0.032917146 0.11962572 0.84300005 9738590
-0.031385716 0.11990952 0.84500003 9345367
-0.029846668 0.12019334 0.84700006 9542746
-0.028300002 0.12047715 0.84900004 10067543
-0.026745714 0.12076095 0.85100001 11843954
-0.025272382 0.12147048 0.85600007 11974266
-0.023641907 0.12147048 0.85600007 10855785
-0.022011429 0.12147048 0.85600007 11445567
-0.020380953 0.12147048 0.85600007 16776599
-0.018750478 0.12147048 0.85600007 16646109
-0.017120002 0.12147048 0.85600007 16646109
-0.10074285 0.12367619 0.86000001 16646106
-0.099104762 0.12367619 0.86000001 14606779
-0.097013339 0.12310096 0.85600007 12695469
-0.095160007 0.12281334 0.85400003 11971746
-0.093204759 0.12238191 0.85100001 11775863
-0.091368571 0.12209429 0.84900004 11907449
-0.089540005 0.12180667 0.84700006 10199672
-0.087719053 0.12151904 0.84500003 9673328
-0.085905716 0.12123144 0.84300005 9150064
-0.084100001 0.12094381 0.84100002 9018478
-0.082301915 0.1206562 0.83900005 9936230
-0.080703817 0.1206562 0.83900005 11581055
-0.078917138 0.12036857 0.83700001 12499586
-0.077322856 0.12036857 0.83700001 12631172
-0.075728573 0.12036857 0.83700001 10595943
-0.073957145 0.12008096 0.83500004 6122019
-0.07236667 0.12008096 0.83500004 4878650
-0.070776194 0.12008096 0.83500004 5339201
-0.069185719 0.12008096 0.83500004 5731397
-0.067433342 0.11979334 0.83300006 5797190
-0.065846674 0.11979334 0.83300006 5929269
-0.064260006 0.11979334 0.83300006 6060855
-0.062673338 0.11979334 0.83300006 5928774
-0.061086673 0.11979334 0.83300006 5336637
-0.059500005 0.11979334 0.83300006 7831106
-0.057774287 0.11950572 0.83100003 11910272
-0.056191429 0.11950572 0.83100003 12960119
-0.054740004 0.11979334 0.83300006 10986329
-0.053153336 0.11979334 0.83300006 9407326
-0.051566672 0.11979334 0.83300006 8617810
-0.049980003 0.11979334 0.83300006 8748617
-0.048509523 0.12008096 0.83500004 8814410
-0.046919052 0.12008096 0.83500004 8945994
-0.045328572 0.12008096 0.83500004 9209166
-0.043842856 0.12036857 0.83700001 8748113
-0.042349525 0.1206562 0.83900005 8748113
-0.040751431 0.1206562 0.83900005 9536334
-0.039246667 0.12094381 0.84100002 12825984
-0.037644763 0.12094381 0.84100002 13155449
-0.036042858 0.12094381 0.84100002 13681793
-0.034522858 0.12123144 0.84300005 12828292
-0.032917146 0.12123144 0.84300005 12236155
-0.031385716 0.12151904 0.84500003 10528126
-0.029776191 0.12151904 0.84500003 9738610
-0.028300002 0.12209429 0.84900004 10592372
-0.026745714 0.12238191 0.85100001 12763541
-0.025272382 0.12310096 0.85600007 12038765
-0.023697145 0.12338857 0.85800004 9143873
-0.022062857 0.12338857 0.85800004 10656362
-0.020428572 0.12338857 0.85800004 16775368
-0.018794287 0.12338857 0.85800004 16646102
-0.017160002 0.12338857 0.85800004 16646102
-0.10074285 0.12531428 0.86000001 16646111
-0.099104762 0.12531428 0.86000001 15198665
-0.097013339 0.12473144 0.85600007 13224097
-0.095160007 0.12444 0.85400003 10131826
-0.093204759 0.12400286 0.85100001 11314741
-0.091368571 0.12371143 0.84900004 12893773
-0.089540005 0.12342 0.84700006 12039305
-0.087719053 0.12312857 0.84500003 10065515
-0.085905716 0.12283715 0.84300005 9084505
-0.084300004 0.12283715 0.84300005 9084505
-0.082498096 0.12254572 0.84100002 10856296
-0.080703817 0.12225429 0.83900005 12566914
-0.07910572 0.12225429 0.83900005 13287562
-0.077507623 0.12225429 0.83900005 13221769
-0.075728573 0.12196286 0.83700001 10793090
-0.073957145 0.12167143 0.83500004 6779717
-0.07236667 0.12167143 0.83500004 4943666
-0.070776194 0.12167143 0.83500004 5535803
-0.069185719 0.12167143 0.83500004 5927755
-0.067433342 0.12138001 0.83300006 6059341
-0.065846674 0.12138001 0.83300006 6060099
-0.064260006 0.12138001 0.83300006 6060099
-0.062673338 0.12138001 0.83300006 5600068
-0.061086673 0.12138001 0.83300006 5205310
-0.059500005 0.12138001 0.83300006 7830831
-0.057913337 0.12138001 0.83300006 12370548
-0.056326672 0.12138001 0.83300006 12763532
-0.054740004 0.12138001 0.83300006 11776637
-0.053153336 0.12138001 0.83300006 8817238
-0.051566672 0.12138001 0.83300006 8093515
-0.049980003 0.12138001 0.83300006 8617531
-0.048509523 0.12167143 0.83500004 8814910
-0.046919052 0.12167143 0.83500004 8749133
-0.045328572 0.12167143 0.83500004 8617547
-0.043842856 0.12196286 0.83700001 8223041
-0.042349525 0.12225429 0.83900005 8617799
-0.040848572 0.12254572 0.84100002 10061915
-0.039246667 0.12254572 0.84100002 13088393
-0.037644763 0.12254572 0.84100002 13220999
-0.036128573 0.12283715 0.84300005 13089413
-0.034522858 0.12283715 0.84300005 13484416
-0.032995239 0.12312857 0.84500003 13221244
-0.031385716 0.12312857 0.84500003 12105330
-0.029776191 0.12312857 0.84500003 11381607
-0.028300002 0.12371143 0.84900004 11447157
-0.026745714 0.12400286 0.85100001 11907708
-0.025272382 0.12473144 0.85600007 12036689
-0.023697145 0.12502286 0.85800004 9931313
-0.022062857 0.12502286 0.85800004 9998180
-0.02047619 0.12531428 0.86000001 16775116
-0.018838096 0.12531428 0.86000001 16646099
-0.017199999 0.12531428 0.86000001 16711636
-0.099104762 0.12695238 0.86000001 15198667
-0.097013339 0.12636191 0.85600007 12369031
-0.095160007 0.12606667 0.85400003 7566142
-0.093204759 0.12562381 0.85100001 9144406
-0.091368571 0.12532857 0.84900004 13157779
-0.089540005 0.12503333 0.84700006 12697721
-0.087719053 0.1247381 0.84500003 10855517
-0.085905716 0.12444286 0.84300005 10330986
-0.084300004 0.12444286 0.84300005 11515260
-0.082498096 0.12414762 0.84100002 12696445
-0.080896191 0.12414762 0.84100002 13749133
-0.07910572 0.12385239 0.83900005 13484407
-0.077507623 0.12385239 0.83900005 13418614
-0.075909525 0.12385239 0.83900005 12500106
-0.07413429 0.12355714 0.83700001 10723695
-0.07236667 0.12326191 0.83500004 7572078
-0.070776194 0.12326191 0.83500004 5729874
-0.069185719 0.12326191 0.83500004 5141321
-0.067433342 0.12296667 0.83300006 5338700
-0.065846674 0.12296667 0.83300006 5731146
-0.064260006 0.12296667 0.83300006 5665353
-0.062673338 0.12296667 0.83300006 6124097
-0.061086673 0.12296667 0.83300006 8492645
-0.059500005 0.12296667 0.83300006 10394732
-0.057913337 0.12296667 0.83300006 13158038
-0.056326672 0.12296667 0.83300006 13550986
-0.054740004 0.12296667 0.83300006 13287814
-0.053153336 0.12296667 0.83300006 10919308
-0.051566672 0.12296667 0.83300006 9471862
