# .PCD v0.7 - Point Cloud Data file format
VERSION 0.7
FIELDS x y z rgba
SIZE 4 4 4 4
TYPE F F F U
COUNT 1 1 1 1
WIDTH 1110
HEIGHT 1
VIEWPOINT 0 0 0 1 0 0 0
POINTS 1110
DATA ascii
-0.062210482 0.15515144 0.78700006 12170351
-0.060711432 0.15515144 0.78700006 12433523
-0.059362859 0.15554573 0.78900003 12958081
-0.057860002 0.15554573 0.78900003 13287046
-0.05642857 0.15574285 0.79000002 13221001
-0.05506286 0.15613715 0.79200006 13418380
-0.053554289 0.15613715 0.79200006 13484157
-0.052177146 0.15653142 0.79400003 13549950
-0.050920002 0.15732001 0.79800004 13549435
-0.049400002 0.15732001 0.79800004 13746814
-0.048 0.15771429 0.80000001 13747068
-0.046650477 0.15830572 0.80300003 13747068
-0.045233335 0.1587 0.80500007 13747320
-0.043700002 0.1587 0.80500007 14207871
-0.042166673 0.1587 0.80500007 14404237
-0.040633336 0.1587 0.80500007 16443820
-0.039100002 0.1587 0.80500007 16645328
-0.037566669 0.1587 0.80500007 16777173
-0.12220286 0.16063143 0.80700004 16580569
-0.12006763 0.15983525 0.80300003 16646106
-0.1185381 0.15983525 0.80300003 16646113
-0.11700858 0.15983525 0.80300003 15659218
-0.11533524 0.1596362 0.80200005 15195829
-0.11352381 0.15923809 0.80000001 12629902
-0.11172 0.15884002 0.79800004 11972981
-0.1102 0.15884002 0.79800004 10854500
-0.10840763 0.15844192 0.79600006 10459469
-0.10662286 0.1580438 0.79400003 10722641
-0.10511048 0.1580438 0.79400003 10459985
-0.10307619 0.15724762 0.79000002 10854743
-0.10144287 0.15704857 0.78900003 10724449
-0.099686667 0.15665048 0.78700006 10395484
-0.098187625 0.15665048 0.78700006 10329432
-0.096442863 0.15625238 0.78500003 9605709
-0.094947621 0.15625238 0.78500003 9079604
-0.093452379 0.15625238 0.78500003 8882225
-0.091957144 0.15625238 0.78500003 8687417
-0.090231434 0.1558543 0.78300005 8819003
-0.088740006 0.1558543 0.78300005 10657625
-0.087248579 0.1558543 0.78300005 10723418
-0.085757144 0.1558543 0.78300005 10460257
-0.084265716 0.1558543 0.78300005 10328671
-0.082774289 0.1558543 0.78300005 10198094
-0.081282862 0.1558543 0.78300005 9869129
-0.079791434 0.1558543 0.78300005 9409863
-0.078299999 0.1558543 0.78300005 9738828
-0.076808572 0.1558543 0.78300005 10198103
-0.075317152 0.1558543 0.78300005 9934931
-0.073825717 0.1558543 0.78300005 9933895
-0.07233429 0.1558543 0.78300005 10197067
-0.070842862 0.1558543 0.78300005 11510876
-0.069528572 0.15625238 0.78500003 11576669
-0.068033338 0.15625238 0.78500003 11576426
-0.066538103 0.15625238 0.78500003 11971184
-0.065208569 0.15665048 0.78700006 12431987
-0.063709527 0.15665048 0.78700006 12497780
-0.062210482 0.15665048 0.78700006 12958592
-0.060865719 0.15704857 0.78900003 12892799
-0.059362859 0.15704857 0.78900003 13155467
-0.057860002 0.15704857 0.78900003 13089674
-0.05642857 0.15724762 0.79000002 12891795
-0.05506286 0.15764573 0.79200006 12957588
-0.053554289 0.15764573 0.79200006 13089436
-0.052177146 0.1580438 0.79400003 12892057
-0.050920002 0.15884002 0.79800004 12956807
-0.049400002 0.15884002 0.79800004 13614737
-0.048 0.15923809 0.80000001 13681545
-0.046650477 0.15983525 0.80300003 13747338
-0.045120955 0.15983525 0.80300003 13747325
-0.043700002 0.16023335 0.80500007 13944704
-0.042166673 0.16023335 0.80500007 14009729
-0.040633336 0.16023335 0.80500007 16509863
-0.039100002 0.16023335 0.80500007 16645326
-0.037566669 0.16023335 0.80500007 16777171
-0.12220286 0.16216858 0.80700004 16580572
-0.12066572 0.16216858 0.80700004 16646109
-0.1185381 0.16136478 0.80300003 16711652
-0.11700858 0.16136478 0.80300003 15725013
-0.11547905 0.16136478 0.80300003 15195309
-0.11380763 0.16116382 0.80200005 12826761
-0.11172 0.16036001 0.79800004 11907442
-0.1102 0.16036001 0.79800004 11841649
-0.10840763 0.15995811 0.79600006 11315312
-0.10662286 0.1595562 0.79400003 11249519
-0.10511048 0.1595562 0.79400003 11183719
-0.10333715 0.1591543 0.79200006 10920547
-0.10157143 0.15875238 0.79000002 10723927
-0.099940002 0.15855142 0.78900003 10460755
-0.098187625 0.15814953 0.78700006 10394962
-0.096688583 0.15814953 0.78700006 10394962
-0.094947621 0.15774763 0.78500003 10263376
-0.093452379 0.15774763 0.78500003 10592341
-0.091957144 0.15774763 0.78500003 10198098
-0.090461902 0.15774763 0.78500003 10329684
-0.088966668 0.15774763 0.78500003 10329684
-0.087471426 0.15774763 0.78500003 10198098
-0.085976191 0.15774763 0.78500003 10591069
-0.084265716 0.15734573 0.78300005 10920034
-0.082774289 0.15734573 0.78300005 11775304
-0.081282862 0.15734573 0.78300005 11972683
-0.079791434 0.15734573 0.78300005 11775602
-0.078299999 0.15734573 0.78300005 11775602
-0.076808572 0.15734573 0.78300005 12038778
-0.075317152 0.15734573 0.78300005 12433536
-0.074014291 0.15774763 0.78500003 12433534
-0.072519049 0.15774763 0.78500003 12696706
-0.071023814 0.15774763 0.78500003 12761724
-0.069705717 0.15814953 0.78700006 12630138
-0.068206668 0.15814953 0.78700006 12563843
-0.066707626 0.15814953 0.78700006 12761222
-0.065208569 0.15814953 0.78700006 12431726
-0.063871428 0.15855142 0.78900003 11971175
-0.062368572 0.15855142 0.78900003 11380585
-0.060865719 0.15855142 0.78900003 11117413
-0.059362859 0.15855142 0.78900003 9999202
-0.057933334 0.15875238 0.79000002 9736030
-0.056571431 0.1591543 0.79200006 9274979
-0.05506286 0.1591543 0.79200006 8551256
-0.053554289 0.1591543 0.79200006 8617066
-0.052308574 0.15995811 0.79600006 8551273
-0.050920002 0.16036001 0.79800004 8878966
-0.049400002 0.16036001 0.79800004 10129033
-0.048 0.16076191 0.80000001 10720902
-0.046650477 0.16136478 0.80300003 13681587
-0.045120955 0.16136478 0.80300003 13682043
-0.043700002 0.16176668 0.80500007 14076801
-0.042061906 0.16136478 0.80300003 14141835
-0.040532384 0.16136478 0.80300003 16576176
-0.039002858 0.16136478 0.80300003 16579274
-0.12190001 0.16330001 0.80500007 16580567
-0.12036668 0.16330001 0.80500007 16646104
-0.11883334 0.16330001 0.80500007 16646120
-0.1173 0.16330001 0.80500007 15856604
-0.11547905 0.16289428 0.80300003 14801071
-0.11394952 0.16289428 0.80300003 12827281
-0.112 0.16228572 0.80000001 11841649
-0.1102 0.16188002 0.79800004 11381098
-0.10840763 0.1614743 0.79600006 11315566
-0.10689144 0.1614743 0.79600006 11118187
-0.10511048 0.16106857 0.79400003 11118435
-0.10333715 0.16066287 0.79200006 10986849
-0.10182858 0.16066287 0.79200006 10658386
-0.10006666 0.16025715 0.79000002 10395214
-0.098437145 0.1600543 0.78900003 10329169
-0.096688583 0.15964858 0.78700006 10263376
-0.095189527 0.15964858 0.78700006 10328910
-0.093690485 0.15964858 0.78700006 10526289
-0.092191435 0.15964858 0.78700006 10328903
-0.090461902 0.15924285 0.78500003 10657868
-0.088966668 0.15924285 0.78500003 10657634
-0.087471426 0.15924285 0.78500003 10657634
-0.085976191 0.15924285 0.78500003 11642991
-0.084480956 0.15924285 0.78500003 11971956
-0.082985714 0.15924285 0.78500003 12299881
-0.081282862 0.15883715 0.78300005 12628846
-0.079791434 0.15883715 0.78300005 12892286
-0.078299999 0.15883715 0.78300005 12694907
-0.077004768 0.15924285 0.78500003 12563575
-0.075509526 0.15924285 0.78500003 12629368
-0.074014291 0.15924285 0.78500003 12564343
-0.072519049 0.15924285 0.78500003 12761722
-0.071204767 0.15964858 0.78700006 12958851
-0.069705717 0.15964858 0.78700006 12498300
-0.068206668 0.15964858 0.78700006 12432257
-0.066707626 0.15964858 0.78700006 12300671
-0.065374292 0.1600543 0.78900003 12168824
-0.063871428 0.1600543 0.78900003 11576687
-0.062368572 0.1600543 0.78900003 10657886
-0.060865719 0.1600543 0.78900003 9539405
-0.059438094 0.16025715 0.79000002 7831615
-0.057933334 0.16025715 0.79000002 7897408
-0.056571431 0.16066287 0.79200006 7962972
-0.05506286 0.16066287 0.79200006 7568214
-0.053554289 0.16066287 0.79200006 7108193
-0.052308574 0.1614743 0.79600006 6845021
-0.050920002 0.16188002 0.79800004 7106898
-0.049400002 0.16188002 0.79800004 6909519
-0.048 0.16228572 0.80000001 10195027
-0.046650477 0.16289428 0.80300003 13747849
-0.045120955 0.16289428 0.80300003 13550970
-0.043591432 0.16289428 0.80300003 13814142
-0.042061906 0.16289428 0.80300003 14010510
-0.040532384 0.16289428 0.80300003 16576437
-0.039002858 0.16289428 0.80300003 16644815
-0.12190001 0.16483334 0.80500007 16515026
-0.12036668 0.16483334 0.80500007 16646100
-0.11883334 0.16483334 0.80500007 16646120
-0.1173 0.16483334 0.80500007 15922397
-0.11547905 0.16442381 0.80300003 14800827
-0.11394952 0.16442381 0.80300003 12892830
-0.11228 0.16421905 0.80200005 11776122
-0.1102 0.16340001 0.79800004 10986606
-0.10840763 0.1629905 0.79600006 10723949
-0.10689144 0.1629905 0.79600006 10592363
-0.10511048 0.16258095 0.79400003 10986588
-0.10333715 0.16217144 0.79200006 10986588
-0.10182858 0.16217144 0.79200006 11051608
-0.10006666 0.16176191 0.79000002 11314780
-0.098437145 0.16155715 0.78900003 11840100
-0.096688583 0.16114764 0.78700006 11905893
-0.095189527 0.16114764 0.78700006 12498032
-0.093690485 0.16114764 0.78700006 12695411
-0.092191435 0.16114764 0.78700006 12563830
-0.090692386 0.16114764 0.78700006 12629623
-0.088966668 0.1607381 0.78500003 12498316
-0.087471426 0.1607381 0.78500003 12366730
-0.086195245 0.16114764 0.78700006 12563584
-0.084480956 0.1607381 0.78500003 13287307
-0.082985714 0.1607381 0.78500003 12563323
-0.081490479 0.1607381 0.78500003 12431737
-0.079995237 0.1607381 0.78500003 12759919
-0.078500003 0.1607381 0.78500003 12825712
-0.077004768 0.1607381 0.78500003 12760171
-0.075509526 0.1607381 0.78500003 12299620
-0.074202865 0.16114764 0.78700006 12103261
-0.072703816 0.16114764 0.78700006 11445331
-0.071204767 0.16114764 0.78700006 11182940
-0.069705717 0.16114764 0.78700006 9998666
-0.068380006 0.16155715 0.78900003 10064211
-0.066877142 0.16155715 0.78900003 9866832
-0.065374292 0.16155715 0.78900003 8354636
-0.063871428 0.16155715 0.78900003 8025671
-0.062368572 0.16155715 0.78900003 6976263
-0.060865719 0.16155715 0.78900003 5792000
-0.059438094 0.16176191 0.79000002 5399307
-0.057933334 0.16176191 0.79000002 5662479
-0.056571431 0.16217144 0.79200006 5399084
-0.05506286 0.16217144 0.79200006 5201705
-0.053689525 0.16258095 0.79400003 5005113
-0.052308574 0.1629905 0.79600006 4939320
-0.050920002 0.16340001 0.79800004 5331252
-0.049400002 0.16340001 0.79800004 4673322
-0.048 0.16380952 0.80000001 8156254
-0.046650477 0.16442381 0.80300003 13485487
-0.045120955 0.16442381 0.80300003 13747836
-0.043591432 0.16442381 0.80300003 13879422
-0.042061906 0.16442381 0.80300003 14076051
-0.040532384 0.16442381 0.80300003 16576185
-0.039002858 0.16442381 0.80300003 16644813
-0.12036668 0.16636668 0.80500007 16646106
-0.11883334 0.16636668 0.80500007 16711652
-0.1173 0.16636668 0.80500007 15922392
-0.11576667 0.16636668 0.80500007 14932916
-0.11423334 0.16636668 0.80500007 12959126
-0.11242001 0.16595334 0.80300003 12236664
-0.11047619 0.16533333 0.80000001 10986597
-0.10840763 0.16450667 0.79600006 10789209
-0.10689144 0.16450667 0.79600006 10986588
-0.10511048 0.16409333 0.79400003 11249249
-0.10333715 0.16368002 0.79200006 11117663
-0.10182858 0.16368002 0.79200006 11313488
-0.10006666 0.16326667 0.79000002 11839832
-0.098437145 0.16306001 0.78900003 12890998
-0.096934289 0.16306001 0.78900003 12890998
-0.095431432 0.16306001 0.78900003 13022584
-0.093690485 0.16264667 0.78700006 13219963
-0.092191435 0.16264667 0.78700006 13023095
-0.090692386 0.16264667 0.78700006 12957302
-0.089193337 0.16264667 0.78700006 13351565
-0.087694295 0.16264667 0.78700006 12891014
-0.086195245 0.16264667 0.78700006 12694137
-0.084696196 0.16264667 0.78700006 12562551
-0.082985714 0.16223334 0.78500003 12431987
-0.081490479 0.16223334 0.78500003 12300401
-0.079995237 0.16223334 0.78500003 12036439
-0.078500003 0.16223334 0.78500003 12957541
-0.077004768 0.16223334 0.78500003 13154668
-0.075509526 0.16223334 0.78500003 12562531
-0.074202865 0.16264667 0.78700006 12169558
-0.072703816 0.16264667 0.78700006 11051077
-0.071204767 0.16264667 0.78700006 10854997
-0.069705717 0.16264667 0.78700006 9868102
-0.068380006 0.16306001 0.78900003 9737036
-0.066877142 0.16306001 0.78900003 8421176
-0.065374292 0.16306001 0.78900003 7764786
-0.063871428 0.16306001 0.78900003 6646305
-0.062368572 0.16306001 0.78900003 5860614
-0.060942858 0.16326667 0.79000002 5268480
-0.059438094 0.16326667 0.79000002 4873984
-0.058080003 0.16368002 0.79200006 5137152
-0.056714289 0.16409333 0.79400003 4349222
-0.055201907 0.16409333 0.79400003 4480808
-0.053689525 0.16409333 0.79400003 4874297
-0.052308574 0.16450667 0.79600006 4874297
-0.050920002 0.16492002 0.79800004 4806702
-0.049400002 0.16492002 0.79800004 4411944
-0.048 0.16533333 0.80000001 8155983
-0.046650477 0.16595334 0.80300003 13419423
-0.045120955 0.16595334 0.80300003 13944958
-0.043591432 0.16595334 0.80300003 14010751
-0.042061906 0.16595334 0.80300003 14010508
-0.040532384 0.16595334 0.80300003 16444849
-0.039002858 0.16595334 0.80300003 16512718
-0.11912858 0.16831714 0.80700004 16646113
-0.1173 0.16790001 0.80500007 15922390
-0.11576667 0.16790001 0.80500007 15262392
-0.11423334 0.16790001 0.80500007 13354395
-0.11242001 0.16748287 0.80300003 12236668
-0.11075239 0.1672743 0.80200005 12039289
-0.10868 0.16644001 0.79800004 12564345
-0.10689144 0.16602288 0.79600006 12827517
-0.10537525 0.16602288 0.79600006 13221764
-0.1035981 0.16560571 0.79400003 13419143
-0.10182858 0.16518858 0.79200006 13155712
-0.10006666 0.16477144 0.79000002 13287298
-0.098561905 0.16477144 0.79000002 13352060
-0.096934289 0.16456285 0.78900003 13220474
-0.095431432 0.16456285 0.78900003 13088625
-0.093928576 0.16456285 0.78900003 13154418
-0.092191435 0.16414572 0.78700006 13153895
-0.090692386 0.16414572 0.78700006 12298586
-0.089193337 0.16414572 0.78700006 12560221
-0.087694295 0.16414572 0.78700006 12494428
-0.086195245 0.16414572 0.78700006 11968590
-0.084696196 0.16414572 0.78700006 11573832
-0.082985714 0.16372858 0.78500003 11574852
-0.081490479 0.16372858 0.78500003 11574852
-0.079995237 0.16372858 0.78500003 11837000
-0.078500003 0.16372858 0.78500003 13350239
-0.077004768 0.16372858 0.78500003 12957508
-0.075509526 0.16372858 0.78500003 11773234
-0.074202865 0.16414572 0.78700006 11051051
-0.072703816 0.16414572 0.78700006 10458914
-0.071204767 0.16414572 0.78700006 9737025
-0.069705717 0.16414572 0.78700006 9342267
-0.068380006 0.16456285 0.78900003 8684859
-0.066877142 0.16456285 0.78900003 8290101
-0.065374292 0.16456285 0.78900003 7043380
-0.063871428 0.16456285 0.78900003 6056485
-0.062368572 0.16456285 0.78900003 5533205
-0.060942858 0.16477144 0.79000002 4809482
-0.059588574 0.16518858 0.79200006 3890432
-0.058080003 0.16518858 0.79200006 4153601
-0.056714289 0.16560571 0.79400003 4086832
-0.055201907 0.16560571 0.79400003 4086832
-0.053689525 0.16560571 0.79400003 4480307
-0.052308574 0.16602288 0.79600006 4611893
-0.050920002 0.16644001 0.79800004 4609335
-0.049400002 0.16644001 0.79800004 4609335
-0.048 0.16685714 0.80000001 8484967
-0.046650477 0.16748287 0.80300003 12958891
-0.045120955 0.16748287 0.80300003 13813370
-0.043591432 0.16748287 0.80300003 13944956
-0.042061906 0.16748287 0.80300003 14076299
-0.040532384 0.16748287 0.80300003 16313261
-0.039100002 0.16790001 0.80500007 16447175
-0.11912858 0.1698543 0.80700004 16711650
-0.11759143 0.1698543 0.80700004 15922390
-0.11576667 0.16943334 0.80500007 15460543
-0.11423334 0.16943334 0.80500007 13091995
-0.11242001 0.1690124 0.80300003 12959103
-0.11075239 0.1688019 0.80200005 12893310
-0.10868 0.16796 0.79800004 13285761
-0.10689144 0.16753906 0.79600006 13680519
-0.10537525 0.16753906 0.79600006 13747086
-0.1035981 0.16711809 0.79400003 13681293
-0.10182858 0.16669716 0.79200006 13221253
-0.10006666 0.1662762 0.79000002 13221253
-0.098561905 0.1662762 0.79000002 13351574
-0.096934289 0.16606572 0.78900003 12956816
-0.095431432 0.16606572 0.78900003 12693117
-0.093928576 0.16606572 0.78900003 12298359
-0.092191435 0.16564478 0.78700006 12296817
-0.090692386 0.16564478 0.78700006 12165231
-0.089193337 0.16564478 0.78700006 11768910
-0.087694295 0.16564478 0.78700006 11439945
-0.086195245 0.16564478 0.78700006 11242557
-0.084696196 0.16564478 0.78700006 11768901
-0.083197154 0.16564478 0.78700006 11770691
-0.081490479 0.16522381 0.78500003 11902277
-0.079995237 0.16522381 0.78500003 11837487
-0.078700006 0.16564478 0.78700006 13087554
-0.077200957 0.16564478 0.78700006 12497240
-0.075701907 0.16564478 0.78700006 11641931
-0.074202865 0.16564478 0.78700006 10919965
-0.072703816 0.16564478 0.78700006 10525207
-0.071204767 0.16564478 0.78700006 9605689
-0.069705717 0.16564478 0.78700006 9013552
-0.068380006 0.16606572 0.78900003 8291360
-0.066877142 0.16606572 0.78900003 8225567
-0.065374292 0.16606572 0.78900003 6846478
-0.063952379 0.1662762 0.79000002 6122755
-0.062447619 0.1662762 0.79000002 5204740
-0.060942858 0.1662762 0.79000002 5073154
-0.059588574 0.16669716 0.79200006 4811264
-0.058226667 0.16711809 0.79400003 4679680
-0.056714289 0.16711809 0.79400003 4548361
-0.055201907 0.16711809 0.79400003 4548361
-0.053689525 0.16711809 0.79400003 4282939
-0.052308574 0.16753906 0.79600006 3953974
-0.050920002 0.16796 0.79800004 4609024
-0.049400002 0.16796 0.79800004 5266944
-0.048 0.16838096 0.80000001 9141322
-0.046650477 0.1690124 0.80300003 13417867
-0.045120955 0.1690124 0.80300003 13550466
-0.043700002 0.16943334 0.80500007 13879431
-0.042166673 0.16943334 0.80500007 14273673
-0.040633336 0.16943334 0.80500007 16379049
-0.039197143 0.1698543 0.80700004 16117958
-0.1173 0.17096668 0.80500007 15988183
-0.11576667 0.17096668 0.80500007 15722675
-0.11394952 0.1705419 0.80300003 14012057
-0.11242001 0.1705419 0.80300003 13616272
-0.11075239 0.17032953 0.80200005 13747858
-0.10868 0.16948001 0.79800004 13746573
-0.10689144 0.16905525 0.79600006 13812366
-0.10537525 0.16905525 0.79600006 13681032
-0.1035981 0.16863048 0.79400003 13417860
-0.10182858 0.16820572 0.79200006 13416822
-0.10006666 0.16778095 0.79000002 11969376
-0.098561905 0.16778095 0.79000002 10911869
-0.096934289 0.16756858 0.78900003 10714490
-0.095431432 0.16756858 0.78900003 10582088
-0.093928576 0.16756858 0.78900003 10121537
-0.092425719 0.16756858 0.78900003 10515784
-0.090692386 0.16714382 0.78700006 10449991
-0.089193337 0.16714382 0.78700006 10911289
-0.087694295 0.16714382 0.78700006 10977082
-0.086195245 0.16714382 0.78700006 10780491
-0.084696196 0.16714382 0.78700006 11964765
-0.083197154 0.16714382 0.78700006 11573058
-0.081698097 0.16714382 0.78700006 11836230
-0.080199055 0.16714382 0.78700006 11771703
-0.078700006 0.16714382 0.78700006 13021770
-0.077200957 0.16714382 0.78700006 12628830
-0.075701907 0.16714382 0.78700006 11773521
-0.074202865 0.16714382 0.78700006 11116861
-0.072703816 0.16714382 0.78700006 11182654
-0.071204767 0.16714382 0.78700006 10263385
-0.069705717 0.16714382 0.78700006 10131799
-0.068380006 0.16756858 0.78900003 10658134
-0.066877142 0.16756858 0.78900003 10723927
-0.065374292 0.16756858 0.78900003 10658134
-0.063952379 0.16778095 0.79000002 10658134
-0.062447619 0.16778095 0.79000002 10789227
-0.060942858 0.16778095 0.79000002 10920813
-0.059588574 0.16820572 0.79200006 11184248
-0.058226667 0.16863048 0.79400003 11513213
-0.056714289 0.16863048 0.79400003 11447670
-0.055201907 0.16863048 0.79400003 11710842
-0.053689525 0.16863048 0.79400003 10922623
-0.052308574 0.16905525 0.79600006 7501387
-0.050920002 0.16948001 0.79800004 7895632
-0.049400002 0.16948001 0.79800004 10461559
-0.048 0.16990477 0.80000001 11116409
-0.046650477 0.1705419 0.80300003 13155992
-0.045233335 0.17096668 0.80500007 13615498
-0.043700002 0.17096668 0.80500007 14273428
-0.042166673 0.17096668 0.80500007 14273664
-0.040633336 0.17096668 0.80500007 16444833
-0.039197143 0.17139144 0.80700004 16052167
-0.1173 0.17250001 0.80500007 15856347
-0.11576667 0.17250001 0.80500007 15786919
-0.11394952 0.17207143 0.80300003 14471059
-0.11242001 0.17207143 0.80300003 14010249
-0.11075239 0.17185715 0.80200005 14076042
-0.10868 0.171 0.79800004 13615500
-0.10689144 0.17057145 0.79600006 13418121
-0.10537525 0.17057145 0.79600006 13679506
-0.1035981 0.17014286 0.79400003 13153162
-0.10182858 0.1697143 0.79200006 12953984
-0.10032 0.1697143 0.79200006 11572331
-0.098561905 0.16928571 0.79000002 11042139
-0.096934289 0.16907144 0.78900003 9660486
-0.095431432 0.16907144 0.78900003 10511650
-0.093928576 0.16907144 0.78900003 11301166
-0.092425719 0.16907144 0.78900003 11105838
-0.090692386 0.16864286 0.78700006 11105838
-0.089193337 0.16864286 0.78700006 11238437
-0.087694295 0.16864286 0.78700006 11370023
-0.086195245 0.16864286 0.78700006 11042859
-0.084696196 0.16864286 0.78700006 12358719
-0.083197154 0.16864286 0.78700006 11704128
-0.081698097 0.16864286 0.78700006 12098886
-0.080199055 0.16864286 0.78700006 12231760
-0.078700006 0.16864286 0.78700006 13481827
-0.077200957 0.16864286 0.78700006 12892279
-0.075701907 0.16864286 0.78700006 12168556
-0.074202865 0.16864286 0.78700006 11774307
-0.072703816 0.16864286 0.78700006 11445342
-0.071385719 0.16907144 0.78900003 11380067
-0.069882862 0.16907144 0.78900003 11972204
-0.068380006 0.16907144 0.78900003 11710583
-0.066877142 0.16907144 0.78900003 11710583
-0.065374292 0.16907144 0.78900003 12365944
-0.063952379 0.16928571 0.79000002 12694909
-0.062447619 0.16928571 0.79000002 12957057
-0.061097149 0.1697143 0.79200006 12957057
-0.059588574 0.1697143 0.79200006 12957318
-0.058226667 0.17014286 0.79400003 13220490
-0.056714289 0.17014286 0.79400003 13089928
-0.055201907 0.17014286 0.79400003 13353100
-0.053824764 0.17057145 0.79600006 12762529
-0.052308574 0.17057145 0.79600006 11183497
-0.050920002 0.171 0.79800004 9143653
-0.049400002 0.171 0.79800004 11117443
-0.048 0.17142858 0.80000001 12496765
-0.046766669 0.17250001 0.80500007 13352074
-0.045233335 0.17250001 0.80500007 13484171
-0.043808572 0.17292859 0.80700004 13813136
-0.042376194 0.17335714 0.80900002 14075004
-0.040835235 0.17335714 0.80900002 16377759
-0.039391432 0.17378572 0.81100005 15985863
-0.03784667 0.17378572 0.81100005 16777178
-0.11883334 0.17403334 0.80500007 16711663
-0.1173 0.17403334 0.80500007 15658975
-0.11576667 0.17403334 0.80500007 16313767
-0.11394952 0.17360096 0.80300003 14339977
-0.11242001 0.17360096 0.80300003 14010501
-0.11075239 0.17338477 0.80200005 14207880
-0.10895238 0.17295238 0.80000001 13943432
-0.10716 0.17252001 0.79800004 13482881
-0.10537525 0.17208764 0.79600006 12757653
-0.1035981 0.17165524 0.79400003 9731175
-0.10182858 0.17122287 0.79200006 9460814
-0.10032 0.17122287 0.79200006 9460814
-0.098561905 0.17079048 0.79000002 10313794
-0.097057149 0.17079048 0.79000002 10511173
-0.095431432 0.17057429 0.78900003 10775885
-0.093928576 0.17057429 0.78900003 12025952
-0.092425719 0.17057429 0.78900003 12030783
-0.090692386 0.17014192 0.78700006 12293955
-0.089193337 0.17014192 0.78700006 12295252
-0.087694295 0.17014192 0.78700006 12295252
-0.086195245 0.17014192 0.78700006 12428394
-0.084696196 0.17014192 0.78700006 12823152
-0.083197154 0.17014192 0.78700006 12889715
-0.081698097 0.17014192 0.78700006 13021301
-0.080199055 0.17014192 0.78700006 12824953
-0.078700006 0.17014192 0.78700006 13285504
-0.077200957 0.17014192 0.78700006 12826234
-0.075701907 0.17014192 0.78700006 12826234
-0.074202865 0.17014192 0.78700006 12564107
-0.072703816 0.17014192 0.78700006 12432521
-0.071204767 0.17014192 0.78700006 12629884
-0.069705717 0.17014192 0.78700006 13090435
-0.068380006 0.17057429 0.78900003 12629634
-0.066877142 0.17057429 0.78900003 12498048
-0.065374292 0.17057429 0.78900003 12759937
-0.063952379 0.17079048 0.79000002 12759937
-0.062447619 0.17079048 0.79000002 13023102
-0.061097149 0.17122287 0.79200006 13023102
-0.059588574 0.17122287 0.79200006 13154699
-0.058226667 0.17165524 0.79400003 13154699
-0.056714289 0.17165524 0.79400003 13220481
-0.055201907 0.17165524 0.79400003 13812618
-0.053824764 0.17208764 0.79600006 12959353
-0.052308574 0.17208764 0.79600006 12367216
-0.051047619 0.17295238 0.80000001 9671042
-0.049523808 0.17295238 0.80000001 9605249
-0.048119999 0.17338477 0.80200005 10589297
-0.046766669 0.17403334 0.80500007 12957845
-0.045345716 0.17446572 0.80700004 13615500
-0.043808572 0.17446572 0.80700004 13944465
-0.042480957 0.17533049 0.81100005 14075781
-0.040936191 0.17533049 0.81100005 15917985
-0.039488573 0.17576286 0.81300002 15854279
-0.037940003 0.17576286 0.81300002 16777180
-0.1173 0.17556667 0.80500007 15856608
-0.11576667 0.17556667 0.80500007 16182722
-0.11423334 0.17556667 0.80500007 13945760
-0.11242001 0.17513049 0.80300003 14010247
-0.11089048 0.17513049 0.80300003 14076040
-0.10895238 0.17447619 0.80000001 14205838
-0.10716 0.17404 0.79800004 12692599
-0.10537525 0.17360382 0.79600006 13148787
-0.1035981 0.17316762 0.79400003 9003828
-0.10182858 0.17273144 0.79200006 10312448
-0.10032 0.17273144 0.79200006 10904583
-0.098561905 0.17229524 0.79000002 10576439
-0.097057149 0.17229524 0.79000002 11036990
-0.095431432 0.17207715 0.78900003 11698774
-0.093928576 0.17207715 0.78900003 12422497
-0.092425719 0.17207715 0.78900003 11834964
-0.090922855 0.17207715 0.78900003 13216617
-0.089420006 0.17207715 0.78900003 12430724
-0.087917142 0.17207715 0.78900003 12759689
-0.086195245 0.17164096 0.78700006 12825723
-0.084696196 0.17164096 0.78700006 12759930
-0.083197154 0.17164096 0.78700006 13022841
-0.081698097 0.17164096 0.78700006 13088634
-0.080199055 0.17164096 0.78700006 12627831
-0.078700006 0.17164096 0.78700006 12956796
-0.077200957 0.17164096 0.78700006 12365681
-0.075701907 0.17164096 0.78700006 12694646
-0.074202865 0.17164096 0.78700006 12629634
-0.072703816 0.17164096 0.78700006 12563841
-0.071204767 0.17164096 0.78700006 12695166
-0.069705717 0.17164096 0.78700006 12958338
-0.068380006 0.17207715 0.78900003 12825730
-0.066877142 0.17207715 0.78900003 12957316
-0.065374292 0.17207715 0.78900003 13154179
-0.063871428 0.17207715 0.78900003 13088386
-0.062447619 0.17229524 0.79000002 13088643
-0.060942858 0.17229524 0.79000002 13088643
-0.059588574 0.17273144 0.79200006 13285779
-0.058226667 0.17316762 0.79400003 13219986
-0.056714289 0.17316762 0.79400003 13219477
-0.055201907 0.17316762 0.79400003 13087891
-0.053824764 0.17360382 0.79600006 12497537
-0.052308574 0.17360382 0.79600006 12234365
-0.050920002 0.17404 0.79800004 8031602
-0.049523808 0.17447619 0.80000001 7176293
-0.048179999 0.17513049 0.80300003 9210431
-0.046766669 0.17556667 0.80500007 13158011
-0.045345716 0.17600286 0.80700004 13746834
-0.043808572 0.17600286 0.80700004 13878420
-0.042376194 0.17643905 0.80900002 14272651
-0.041037142 0.17731144 0.81300002 15917476
-0.039488573 0.17731144 0.81300002 15722691
-0.037940003 0.17731144 0.81300002 16777178
-0.11759143 0.17754 0.80700004 15988190
-0.11576667 0.17710002 0.80500007 16051143
-0.11423334 0.17710002 0.80500007 13748388
-0.11242001 0.17666002 0.80300003 14010256
-0.11089048 0.17666002 0.80300003 13878670
-0.10922477 0.17644 0.80200005 14271379
-0.10716 0.17556001 0.79800004 11771245
-0.10537525 0.17512001 0.79600006 11504455
-0.1035981 0.17467999 0.79400003 8872735
-0.10182858 0.17424001 0.79200006 10644549
-0.10032 0.17424001 0.79200006 13736820
-0.098561905 0.17380001 0.79000002 11836232
-0.097057149 0.17380001 0.79000002 10059821
-0.095431432 0.17358001 0.78900003 9666644
-0.093928576 0.17358001 0.78900003 10456160
-0.092425719 0.17358001 0.78900003 10718798
-0.090922855 0.17358001 0.78900003 13218932
-0.089420006 0.17358001 0.78900003 13351313
-0.087917142 0.17358001 0.78900003 13285520
-0.086414285 0.17358001 0.78900003 12890996
-0.084696196 0.17314 0.78700006 12825203
-0.083197154 0.17314 0.78700006 12957041
-0.081698097 0.17314 0.78700006 13614971
-0.080199055 0.17314 0.78700006 13220733
-0.078700006 0.17314 0.78700006 13154940
-0.077200957 0.17314 0.78700006 13089395
-0.075701907 0.17314 0.78700006 12892016
-0.074202865 0.17314 0.78700006 11906677
-0.072703816 0.17314 0.78700006 11380333
-0.071385719 0.17358001 0.78900003 12761193
-0.069882862 0.17358001 0.78900003 13287537
-0.068380006 0.17358001 0.78900003 13219718
-0.066877142 0.17358001 0.78900003 13219718
-0.065374292 0.17358001 0.78900003 13023104
-0.063871428 0.17358001 0.78900003 12891518
-0.062368572 0.17358001 0.78900003 12891516
-0.060942858 0.17380001 0.79000002 12957309
-0.059588574 0.17424001 0.79200006 12234104
-0.058226667 0.17467999 0.79400003 11115623
-0.056714289 0.17467999 0.79400003 8812419
-0.055201907 0.17467999 0.79400003 7299180
-0.053824764 0.17512001 0.79600006 6775343
-0.052440003 0.17556001 0.79800004 6643757
-0.050920002 0.17556001 0.79800004 6318626
-0.049709525 0.17666002 0.80300003 5200145
-0.048420005 0.17754 0.80700004 9472576
-0.046882857 0.17754 0.80700004 13617535
-0.045458097 0.17797999 0.80900002 13812627
-0.043917142 0.17797999 0.80900002 13878420
-0.042376194 0.17797999 0.80900002 14272397
-0.041037142 0.17886001 0.81300002 15917222
-0.039488573 0.17886001 0.81300002 15854277
-0.037940003 0.17886001 0.81300002 16777178
-0.11759143 0.17907715 0.80700004 16251353
-0.11576667 0.17863335 0.80500007 15788482
-0.11423334 0.17863335 0.80500007 13946278
-0.11242001 0.17818953 0.80300003 14471061
-0.11089048 0.17818953 0.80300003 13944717
-0.10922477 0.17796762 0.80200005 14140563
-0.10742857 0.17752382 0.80000001 11706222
-0.10564 0.17708001 0.79800004 10913063
-0.1035981 0.17619239 0.79400003 11242028
-0.10182858 0.17574859 0.79200006 11240808
-0.10032 0.17574859 0.79200006 12819840
-0.098561905 0.17530477 0.79000002 10722416
-0.097057149 0.17530477 0.79000002 7959110
-0.095431432 0.17508286 0.78900003 3233280
-0.093928576 0.17508286 0.78900003 4878094
-0.092425719 0.17508286 0.78900003 7628042
-0.090922855 0.17508286 0.78900003 13023068
-0.089420006 0.17508286 0.78900003 13023640
-0.087917142 0.17508286 0.78900003 12760468
-0.086414285 0.17508286 0.78900003 12825975
-0.084911436 0.17508286 0.78900003 12891768
-0.083408572 0.17508286 0.78900003 12891003
-0.081698097 0.17463906 0.78700006 12956796
-0.080199055 0.17463906 0.78700006 12825732
-0.078700006 0.17463906 0.78700006 13023111
-0.077200957 0.17463906 0.78700006 13351824
-0.075701907 0.17463906 0.78700006 13022859
-0.074391425 0.17508286 0.78900003 11118187
-0.072888575 0.17508286 0.78900003 10328671
-0.071385719 0.17508286 0.78900003 11115596
-0.069882862 0.17508286 0.78900003 13220972
-0.068380006 0.17508286 0.78900003 13219739
-0.066877142 0.17508286 0.78900003 12890774
-0.065374292 0.17508286 0.78900003 12562060
-0.063871428 0.17508286 0.78900003 12101509
-0.062368572 0.17508286 0.78900003 11773294
-0.060942858 0.17530477 0.79000002 11904880
-0.059588574 0.17574859 0.79200006 10853750
-0.058226667 0.17619239 0.79400003 9998441
-0.056714289 0.17619239 0.79400003 6977610
-0.055340957 0.1766362 0.79600006 5530164
-0.054230478 0.17796762 0.80200005 4477978
-0.052702863 0.17796762 0.80200005 5530666
-0.05117524 0.17796762 0.80200005 6975552
-0.049833339 0.17863335 0.80500007 6843966
-0.048420005 0.17907715 0.80700004 9996892
-0.046999045 0.17952096 0.80900002 13878679
-0.045458097 0.17952096 0.80900002 13812879
-0.043917142 0.17952096 0.80900002 13878672
-0.042376194 0.17952096 0.80900002 14338192
-0.041037142 0.18040857 0.81300002 15654052
-0.039488573 0.18040857 0.81300002 15985865
-0.037940003 0.18040857 0.81300002 16777180
-0.11788286 0.18106191 0.80900002 16317136
-0.1160543 0.18061429 0.80700004 16051395
-0.11451714 0.18061429 0.80700004 14603949
-0.11270001 0.18016668 0.80500007 14076049
-0.11089048 0.17971905 0.80300003 14010256
-0.10922477 0.17949525 0.80200005 14272149
-0.10742857 0.17904761 0.80000001 12035187
-0.10564 0.17860001 0.79800004 11373659
-0.10385905 0.1781524 0.79600006 11965796
-0.10208572 0.17770477 0.79400003 12229519
-0.10032 0.17725715 0.79200006 12295312
-0.098811433 0.17725715 0.79200006 9802073
-0.097057149 0.17680953 0.79000002 8223041
-0.095431432 0.17658572 0.78900003 8224837
-0.093928576 0.17658572 0.78900003 9343318
-0.092425719 0.17658572 0.78900003 10062685
-0.090922855 0.17658572 0.78900003 10983787
-0.089420006 0.17658572 0.78900003 10984557
-0.087917142 0.17658572 0.78900003 10918764
-0.086414285 0.17658572 0.78900003 12233818
-0.084911436 0.17658572 0.78900003 12825955
-0.083408572 0.17658572 0.78900003 12562794
-0.081905723 0.17658572 0.78900003 10852176
-0.080402859 0.17658572 0.78900003 10917987
-0.078700006 0.1761381 0.78700006 11181159
-0.077200957 0.1761381 0.78700006 11378036
-0.075894289 0.17658572 0.78900003 11378036
-0.074391425 0.17658572 0.78900003 9602895
-0.072888575 0.17658572 0.78900003 6839589
-0.071385719 0.17658572 0.78900003 7759630
-0.069882862 0.17658572 0.78900003 10588729
-0.068380006 0.17658572 0.78900003 8679270
-0.066877142 0.17658572 0.78900003 6771273
-0.065457143 0.17680953 0.79000002 7233343
-0.063952379 0.17680953 0.79000002 7364929
-0.062447619 0.17680953 0.79000002 7693601
-0.061097149 0.17725715 0.79200006 9470012
-0.059588574 0.17725715 0.79200006 9010760
-0.058226667 0.17770477 0.79400003 7497521
-0.056714289 0.17770477 0.79400003 7302675
-0.055340957 0.1781524 0.79600006 7894812
-0.054230478 0.17949525 0.80200005 7434315
-0.052702863 0.17949525 0.80200005 7236936
-0.051239051 0.17971905 0.80300003 7762247
-0.049957145 0.18061429 0.80700004 8485970
-0.048420005 0.18061429 0.80700004 10129015
-0.046999045 0.18106191 0.80900002 13747630
-0.045458097 0.18106191 0.80900002 13747336
-0.043917142 0.18106191 0.80900002 13944715
-0.042376194 0.18106191 0.80900002 14141585
-0.041037142 0.18195716 0.81300002 15523238
-0.039488573 0.18195716 0.81300002 15722689
-0.037940003 0.18195716 0.81300002 16777176
-0.12060476 0.18440858 0.81700003 16646103
-0.11817429 0.1830543 0.81100005 16580310
-0.1163419 0.18260285 0.80900002 15920329
-0.11451714 0.18215142 0.80700004 14078125
-0.11270001 0.18170002 0.80500007 14075790
-0.11089048 0.18124858 0.80300003 14009997
-0.10922477 0.18102285 0.80200005 14272397
-0.10742857 0.18057144 0.80000001 12627572
-0.10590477 0.18057144 0.80000001 11504471
-0.10385905 0.17966858 0.79600006 12228194
-0.10208572 0.17921714 0.79400003 13942447
-0.10032 0.17876573 0.79200006 10587004
-0.098811433 0.17876573 0.79200006 8684062
-0.097057149 0.1783143 0.79000002 8486683
-0.095552385 0.1783143 0.79000002 8946001
-0.093928576 0.17808858 0.78900003 11577721
-0.092425719 0.17808858 0.78900003 11906177
-0.090922855 0.17808858 0.78900003 8813906
-0.089420006 0.17808858 0.78900003 8944706
-0.087917142 0.17808858 0.78900003 9010499
-0.086414285 0.17808858 0.78900003 9929777
-0.084911436 0.17808858 0.78900003 11640395
-0.083408572 0.17808858 0.78900003 11115893
-0.081905723 0.17808858 0.78900003 9865826
-0.080402859 0.17808858 0.78900003 9011021
-0.078900002 0.17808858 0.78900003 9603158
-0.077397145 0.17808858 0.78900003 10390878
-0.075894289 0.17808858 0.78900003 10390878
-0.074391425 0.17808858 0.78900003 8683560
-0.072888575 0.17808858 0.78900003 7433493
-0.071385719 0.17808858 0.78900003 4931072
-0.069882862 0.17808858 0.78900003 8286506
-0.068466663 0.1783143 0.79000002 7302677
-0.066961907 0.1783143 0.79000002 5921024
-0.065457143 0.1783143 0.79000002 6052445
-0.063952379 0.1783143 0.79000002 5920859
-0.062447619 0.1783143 0.79000002 5062400
-0.061097149 0.17876573 0.79200006 9075763
-0.059588574 0.17876573 0.79200006 9076301
-0.058226667 0.17921714 0.79400003 6707753
-0.056857146 0.17966858 0.79600006 7032576
-0.055340957 0.17966858 0.79600006 9269526
-0.054298095 0.18124858 0.80300003 8417851
-0.052768573 0.18124858 0.80300003 8286265
-0.051366672 0.18170002 0.80500007 8089910
-0.049833339 0.18170002 0.80500007 8879426
-0.048420005 0.18215142 0.80700004 10522473
-0.046999045 0.18260285 0.80900002 13943709
-0.045458097 0.18260285 0.80900002 13747334
-0.044025715 0.1830543 0.81100005 13813127
-0.042480957 0.1830543 0.81100005 14008973
-0.041037142 0.18350571 0.81300002 15719591
-0.039488573 0.18350571 0.81300002 15525816
-0.037940003 0.18350571 0.81300002 16777169
-0.12060476 0.18596476 0.81700003 16646109
-0.11846571 0.18505429 0.81300002 16514779
-0.1163419 0.18414381 0.80900002 16117708
-0.11451714 0.18368858 0.80700004 14012332
-0.11298 0.18368858 0.80700004 14141590
-0.11116667 0.18323335 0.80500007 14075797
-0.10936096 0.18277811 0.80300003 13944454
-0.10769715 0.18255049 0.80200005 13747075
-0.10590477 0.18209523 0.80000001 12692112
-0.10385905 0.18118478 0.79600006 12494733
-0.10234286 0.18118478 0.79600006 12693385
-0.10057334 0.18072952 0.79400003 9995872
-0.09906096 0.18072952 0.79400003 8552968
-0.097302862 0.18027429 0.79200006 9013519
-0.09579429 0.18027429 0.79200006 10919018
-0.094285719 0.18027429 0.79200006 11774327
-0.092542864 0.17981905 0.79000002 11050343
-0.090922855 0.17959145 0.78900003 4734215
-0.089420006 0.17959145 0.78900003 6183460
-0.087917142 0.17959145 0.78900003 7367734
-0.086414285 0.17959145 0.78900003 7300099
-0.084911436 0.17959145 0.78900003 7168513
-0.083408572 0.17959145 0.78900003 7103526
-0.081905723 0.17959145 0.78900003 5392908
-0.080402859 0.17959145 0.78900003 5328179
-0.078900002 0.17959145 0.78900003 4341284
-0.077397145 0.17959145 0.78900003 5587480
-0.075894289 0.17959145 0.78900003 8284993
-0.074391425 0.17959145 0.78900003 7958528
-0.072888575 0.17959145 0.78900003 8879630
-0.071385719 0.17959145 0.78900003 8945250
-0.069882862 0.17959145 0.78900003 8616285
-0.068380006 0.17959145 0.78900003 8025600
-0.066877142 0.17959145 0.78900003 9209869
-0.065457143 0.17981905 0.79000002 8485762
-0.063952379 0.17981905 0.79000002 7433074
-0.062447619 0.17981905 0.79000002 6378044
-0.061251432 0.18072952 0.79400003 9338729
-0.05973905 0.18072952 0.79400003 8879415
-0.058373336 0.18118478 0.79600006 6576660
-0.056857146 0.18118478 0.79600006 7167814
-0.05548 0.18164001 0.79800004 9536362
-0.054230478 0.18255049 0.80200005 8747838
-0.052702863 0.18255049 0.80200005 9076803
-0.051239051 0.18277811 0.80300003 8879426
-0.049833339 0.18323335 0.80500007 10261079
-0.048420005 0.18368858 0.80700004 10654593
-0.046999045 0.18414381 0.80900002 13812657
-0.045458097 0.18414381 0.80900002 13747336
-0.044025715 0.18459906 0.81100005 14076301
-0.042480957 0.18459906 0.81100005 14009745
-0.041138098 0.18550953 0.81500006 15654570
-0.039682858 0.18596476 0.81700003 15525562
-0.038220003 0.18642001 0.81900007 16777171
-0.036749527 0.18687524 0.82100004 16646118
-0.035185717 0.18687524 0.82100004 16580581
-0.12246001 0.18798001 0.81900007 16646113
-0.12060476 0.18752095 0.81700003 16646111
-0.11846571 0.18660286 0.81300002 16646111
-0.11662953 0.18614383 0.81100005 16249548
-0.11480095 0.18568477 0.80900002 14012586
-0.11298 0.18522573 0.80700004 14207374
-0.11116667 0.18476668 0.80500007 14338960
-0.10936096 0.18430762 0.80300003 13747343
-0.10769715 0.18407811 0.80200005 13484171
-0.10590477 0.18361905 0.80000001 13154706
-0.10412 0.18316001 0.79800004 13154706
-0.10234286 0.18270096 0.79600006 12103563
-0.10057334 0.1822419 0.79400003 9142878
-0.09906096 0.1822419 0.79400003 7168256
-0.097548574 0.1822419 0.79400003 9470997
-0.09579429 0.18178286 0.79200006 11707010
-0.094285719 0.18178286 0.79200006 11904389
-0.092777148 0.18178286 0.79200006 10262113
-0.090922855 0.18109429 0.78900003 5261845
-0.089420006 0.18109429 0.78900003 6183951
-0.087917142 0.18109429 0.78900003 6776088
-0.086414285 0.18109429 0.78900003 6184203
-0.084911436 0.18109429 0.78900003 5986824
-0.083408572 0.18109429 0.78900003 6121249
-0.081905723 0.18109429 0.78900003 6844972
-0.080402859 0.18109429 0.78900003 7632733
-0.078900002 0.18109429 0.78900003 3816739
-0.077397145 0.18109429 0.78900003 4797696
-0.075894289 0.18109429 0.78900003 6705684
-0.074391425 0.18109429 0.78900003 6509312
-0.072888575 0.18109429 0.78900003 10456880
-0.071385719 0.18109429 0.78900003 10656647
-0.069882862 0.18109429 0.78900003 8288099
-0.068380006 0.18109429 0.78900003 6445568
-0.066877142 0.18109429 0.78900003 10853687
-0.065457143 0.18132381 0.79000002 10789800
-0.063952379 0.18132381 0.79000002 6842220
-0.062447619 0.18132381 0.79000002 6313479
-0.061251432 0.1822419 0.79400003 9010992
-0.05973905 0.1822419 0.79400003 8223291
-0.058373336 0.18270096 0.79600006 6315294
-0.056857146 0.18270096 0.79600006 6513478
-0.05548 0.18316001 0.79800004 8092510
-0.054230478 0.18407811 0.80200005 8222472
-0.052702863 0.18407811 0.80200005 9011988
-0.051239051 0.18430762 0.80300003 8879136
-0.049833339 0.18476668 0.80500007 10787133
-0.048300002 0.18476668 0.80500007 12496506
-0.046999045 0.18568477 0.80900002 13812366
-0.045458097 0.18568477 0.80900002 13483903
-0.044025715 0.18614383 0.81100005 13747075
-0.042480957 0.18614383 0.81100005 13681545
-0.041138098 0.18706191 0.81500006 15457956
-0.039780006 0.18798001 0.81900007 15526073
-0.038220003 0.18798001 0.81900007 16777169
-0.036749527 0.18843906 0.82100004 16711652
-0.035185717 0.18843906 0.82100004 16646115
-0.12246001 0.18954001 0.81900007 16646111
-0.12060476 0.18907715 0.81700003 16646111
-0.11875715 0.18861429 0.81500006 16711648
-0.11662953 0.18768859 0.81100005 16381134
-0.11480095 0.18722571 0.80900002 13881000
-0.11270001 0.18630002 0.80500007 14207885
-0.11089048 0.18583715 0.80300003 14339471
-0.10936096 0.18583715 0.80300003 13549457
-0.10769715 0.18560573 0.80200005 13549457
-0.10590477 0.18514286 0.80000001 13219977
-0.10438095 0.18514286 0.80000001 13351563
-0.10234286 0.18421715 0.79600006 12498321
-0.10057334 0.18375428 0.79400003 9011292
-0.09906096 0.18375428 0.79400003 6971168
-0.097548574 0.18375428 0.79400003 9208130
-0.096036196 0.18375428 0.79400003 11640927
-0.09452381 0.18375428 0.79400003 11969892
-0.093011431 0.18375428 0.79400003 10196790
-0.091268577 0.18329144 0.79200006 5459712
-0.089760005 0.18329144 0.79200006 6511921
-0.088251434 0.18329144 0.79200006 7433023
-0.086742863 0.18329144 0.79200006 7365692
-0.085449524 0.18375428 0.79400003 6905141
-0.083725713 0.18329144 0.79200006 6643759
-0.082009524 0.18282858 0.79000002 8354377
-0.08050476 0.18282858 0.79000002 7896157
-0.079000004 0.18282858 0.79000002 3882784
-0.07749524 0.18282858 0.79000002 5194538
-0.075990476 0.18282858 0.79000002 7431500
-0.074391425 0.18259715 0.78900003 6574879
-0.072888575 0.18259715 0.78900003 10325080
-0.071385719 0.18259715 0.78900003 10722634
-0.069882862 0.18259715 0.78900003 7630363
-0.068466663 0.18282858 0.79000002 6444800
-0.066961907 0.18282858 0.79000002 10984514
-0.065457143 0.18282858 0.79000002 10198891
-0.063952379 0.18282858 0.79000002 5396002
-0.062605724 0.18329144 0.79200006 4803872
-0.061405718 0.18421715 0.79600006 6251318
-0.059889529 0.18421715 0.79600006 6905348
-0.05852 0.18468001 0.79800004 6905348
-0.057 0.18468001 0.79800004 7891299
-0.05548 0.18468001 0.79800004 10391433
-0.054095238 0.18514286 0.80000001 12103252
-0.052571427 0.18514286 0.80000001 12366424
-0.05117524 0.18560573 0.80200005 12826234
-0.049709525 0.18583715 0.80300003 13813129
-0.048179999 0.18583715 0.80300003 13484686
-0.046999045 0.18722571 0.80900002 13879444
-0.045458097 0.18722571 0.80900002 13681293
-0.044025715 0.18768859 0.81100005 13747086
-0.042480957 0.18768859 0.81100005 13878920
-0.041239049 0.18907715 0.81700003 15392159
-0.039780006 0.18954001 0.81900007 15657400
-0.038220003 0.18954001 0.81900007 16777167
-0.036749527 0.19000286 0.82100004 16711650
-0.035185717 0.19000286 0.82100004 16646113
-0.12462571 0.19203334 0.82300001 16580581
-0.12275905 0.19156668 0.82100004 16580581
-0.12090001 0.19110002 0.81900007 16580577
-0.11904858 0.19063334 0.81700003 16646114
-0.11691714 0.18970001 0.81300002 16512726
-0.11480095 0.18876667 0.80900002 14078385
-0.11270001 0.18783335 0.80500007 14603149
-0.11089048 0.18736666 0.80300003 14142598
-0.10936096 0.18736666 0.80300003 13352069
-0.10769715 0.18713334 0.80200005 13549448
-0.10616953 0.18713334 0.80200005 13680269
-0.10438095 0.18666667 0.80000001 13680269
-0.1026 0.18620001 0.79800004 12565910
-0.10082667 0.18573335 0.79600006 9078881
-0.09906096 0.18526667 0.79400003 7232782
-0.097548574 0.18526667 0.79400003 8614435
-0.096036196 0.18526667 0.79400003 10257486
-0.09452381 0.18526667 0.79400003 9796935
-0.093011431 0.18526667 0.79400003 8089651
-0.091268577 0.1848 0.79200006 6115861
-0.089760005 0.1848 0.79200006 7562810
-0.088251434 0.1848 0.79200006 8286533
-0.086742863 0.1848 0.79200006 9009754
-0.085234292 0.1848 0.79200006 7364929
-0.083725713 0.1848 0.79200006 6904576
-0.082009524 0.18433334 0.79000002 9733662
-0.08050476 0.18433334 0.79000002 9079916
-0.079000004 0.18433334 0.79000002 4474406
-0.07749524 0.18433334 0.79000002 6116141
-0.075990476 0.18433334 0.79000002 6379313
-0.074485712 0.18433334 0.79000002 6042624
-0.072980955 0.18433334 0.79000002 10911296
-0.071476191 0.18433334 0.79000002 10985845
-0.069971427 0.18433334 0.79000002 6906679
-0.068466663 0.18433334 0.79000002 4864512
-0.066961907 0.18433334 0.79000002 11575388
-0.065622866 0.1848 0.79200006 10659969
-0.064276196 0.18526667 0.79400003 5264943
-0.06276381 0.18526667 0.79400003 3092480
-0.061405718 0.18573335 0.79600006 5395227
-0.059889529 0.18573335 0.79600006 6313216
-0.05852 0.18620001 0.79800004 7563271
-0.057 0.18620001 0.79800004 10585956
-0.05548 0.18620001 0.79800004 12033402
-0.054095238 0.18666667 0.80000001 12497271
-0.052571427 0.18666667 0.80000001 12563064
-0.05117524 0.18713334 0.80200005 13417858
-0.049709525 0.18736666 0.80300003 13878409
-0.048179999 0.18736666 0.80300003 13352587
-0.046999045 0.18876667 0.80900002 13549966
-0.045458097 0.18876667 0.80900002 13615239
-0.044025715 0.18923333 0.81100005 13878411
-0.042585716 0.18970001 0.81300002 14207626
-0.041239049 0.19063334 0.81700003 15589279
-0.039780006 0.19110002 0.81900007 15592125
-0.038220003 0.19110002 0.81900007 16777171
-0.036749527 0.19156668 0.82100004 16711650
-0.035185717 0.19156668 0.82100004 16646113
-0.12462571 0.19360095 0.82300001 16646122
-0.12275905 0.19313048 0.82100004 16580329
-0.12119524 0.19313048 0.82100004 16646115
-0.11904858 0.19218953 0.81700003 16711652
-0.11720477 0.19171906 0.81500006 16381393
-0.11508477 0.19077811 0.81100005 14210224
-0.11270001 0.18936668 0.80500007 14274182
-0.11089048 0.18889619 0.80300003 13945217
-0.10936096 0.18889619 0.80300003 13417617
-0.10769715 0.18866096 0.80200005 13483410
-0.10616953 0.18866096 0.80200005 13483403
-0.10438095 0.18819048 0.80000001 13614989
-0.1026 0.18772 0.79800004 12893324
-0.10082667 0.18724954 0.79600006 11511671
-0.09906096 0.18677905 0.79400003 7892877
-0.097548574 0.18677905 0.79400003 7037568
-0.096036196 0.18677905 0.79400003 7956546
-0.09452381 0.18677905 0.79400003 8219718
-0.093011431 0.18677905 0.79400003 7761220
-0.091268577 0.18630858 0.79200006 5721637
-0.089760005 0.18630858 0.79200006 6840634
-0.088251434 0.18630858 0.79200006 7498564
-0.086742863 0.18630858 0.79200006 8221003
-0.085449524 0.18677905 0.79400003 7957831
-0.083725713 0.18630858 0.79200006 7036200
-0.082217142 0.18630858 0.79200006 9273162
-0.080708571 0.18630858 0.79200006 8684868
-0.0792 0.18630858 0.79200006 3487232
-0.077887625 0.18677905 0.79400003 5526099
-0.076182857 0.18630858 0.79200006 7499889
-0.074485712 0.1858381 0.79000002 6772747
-0.072980955 0.1858381 0.79000002 6838540
-0.071657151 0.18630858 0.79200006 8749124
-0.07014858 0.18630858 0.79200006 6709541
-0.068640009 0.18630858 0.79200006 7561800
-0.067131437 0.18630858 0.79200006 12759447
-0.065622866 0.18630858 0.79200006 12235914
-0.064276196 0.18677905 0.79400003 10722675
-0.06276381 0.18677905 0.79400003 10986608
-0.061405718 0.18724954 0.79600006 11512952
-0.059889529 0.18724954 0.79600006 12167809
-0.05852 0.18772 0.79800004 12430981
-0.057 0.18772 0.79800004 11839885
-0.05548 0.18772 0.79800004 11774092
-0.054095238 0.18819048 0.80000001 11774309
-0.052571427 0.18819048 0.80000001 11576930
-0.05117524 0.18866096 0.80200005 11904880
-0.049709525 0.18889619 0.80300003 13878670
-0.048179999 0.18889619 0.80300003 13615757
-0.046999045 0.19030762 0.80900002 13484171
-0.045458097 0.19030762 0.80900002 13615498
-0.044025715 0.19077811 0.81100005 14076049
-0.042585716 0.19124858 0.81300002 14011010
-0.041138098 0.19171906 0.81500006 15721628
-0.039780006 0.19266002 0.81900007 15591866
-0.038220003 0.19266002 0.81900007 16777169
-0.036660004 0.19266002 0.81900007 16711652
-0.12492857 0.19564287 0.82500005 16580581
