# .PCD v0.7 - Point Cloud Data file format
VERSION 0.7
FIELDS x y z rgba
SIZE 4 4 4 4
TYPE F F F U
COUNT 1 1 1 1
WIDTH 1122
HEIGHT 1
VIEWPOINT 0 0 0 1 0 0 0
POINTS 1122
DATA ascii
-0.094499998 0.22564286 0.67500001 3490308
-0.093214288 0.22564286 0.67500001 3687687
-0.092064768 0.22597715 0.67600006 3949335
-0.090777151 0.22597715 0.67600006 5462574
-0.089754291 0.22664572 0.67800003 6119240
-0.088462859 0.22664572 0.67800003 6382412
-0.087300003 0.22698 0.67900002 6578999
-0.086386673 0.22798288 0.68200004 9605477
-0.08508762 0.22798288 0.68200004 10261350
-0.083911426 0.22831716 0.68300003 11774589
-0.08261048 0.22831716 0.68300003 11905650
-0.081666671 0.22932 0.68600005 11839857
-0.080477148 0.2296543 0.68700004 11511167
-0.079514287 0.23065716 0.69000006 11840132
-0.078313336 0.23099144 0.69100004 12102018
-0.07722 0.23166001 0.69300002 12299397
-0.076009519 0.23199429 0.69400001 12365188
-0.074902862 0.23266287 0.69600004 12496774
-0.073788576 0.23333143 0.69800001 12365699
-0.072666667 0.23400001 0.70000005 12957836
-0.071435243 0.23433429 0.70100003 12695168
-0.070400007 0.23533715 0.70400006 15326888
-0.14480762 0.23129906 0.68800002 13551522
-0.14328857 0.23096287 0.68700004 13089937
-0.14198001 0.23096287 0.68700004 12168835
-0.14046668 0.23062669 0.68600005 12102520
-0.13875428 0.22995429 0.68400002 12036727
-0.13745143 0.22995429 0.68400002 11576178
-0.13575049 0.22928192 0.68200004 11707764
-0.13405713 0.22860953 0.68000001 11511419
-0.13256668 0.22827335 0.67900002 11182454
-0.13127334 0.22827335 0.67900002 11116127
-0.12978856 0.22793716 0.67800003 10918748
-0.12811811 0.22726478 0.67600006 10984019
-0.12664287 0.22692858 0.67500001 10128710
-0.12535714 0.22692858 0.67500001 9995838
-0.12407143 0.22692858 0.67500001 10324803
-0.12260382 0.22659239 0.67400002 10324803
-0.12132 0.22659239 0.67400002 10456389
-0.12003619 0.22659239 0.67400002 9669451
-0.11875238 0.22659239 0.67400002 7629868
-0.11746857 0.22659239 0.67400002 6711830
-0.11618476 0.22659239 0.67400002 7961897
-0.11456001 0.22592002 0.67200005 8224583
-0.11328001 0.22592002 0.67200005 7500860
-0.112 0.22592002 0.67200005 7235876
-0.11072001 0.22592002 0.67200005 7564841
-0.10927714 0.22558381 0.671 7172388
-0.10799905 0.22558381 0.671 5067012
-0.10688 0.22592002 0.67200005 4739647
-0.10560001 0.22592002 0.67200005 5134405
-0.10432001 0.22592002 0.67200005 5725263
-0.10304001 0.22592002 0.67200005 6054228
-0.10206286 0.22659239 0.67400002 5792585
-0.10077905 0.22659239 0.67400002 5529413
-0.099642858 0.22692858 0.67500001 5202494
-0.098357141 0.22692858 0.67500001 5005115
-0.097071432 0.22692858 0.67500001 3297547
-0.095785715 0.22692858 0.67500001 3231754
-0.094499998 0.22692858 0.67500001 3885824
-0.093352392 0.22726478 0.67600006 4214784
-0.092064768 0.22726478 0.67600006 4936457
-0.091045722 0.22793716 0.67800003 5725973
-0.089754291 0.22793716 0.67800003 7234360
-0.088593334 0.22827335 0.67900002 7300153
-0.08742857 0.22860953 0.68000001 7892522
-0.086386673 0.22928192 0.68200004 10655828
-0.085212387 0.2296181 0.68300003 11181166
-0.083911426 0.2296181 0.68300003 12036475
-0.082731433 0.22995429 0.68400002 11708784
-0.081666671 0.23062669 0.68600005 11642991
-0.080594286 0.23129906 0.68800002 11445626
-0.079514287 0.23197144 0.69000006 11708798
-0.078313336 0.23230763 0.69100004 12168313
-0.07722 0.23298001 0.69300002 12299899
-0.076009519 0.23331618 0.69400001 12299910
-0.074687615 0.23331618 0.69400001 12299910
-0.073788576 0.23466097 0.69800001 12234619
-0.07245905 0.23466097 0.69800001 12366205
-0.071435243 0.23566954 0.70100003 12431735
-0.14522858 0.23328574 0.69000006 13814433
-0.14328857 0.23227143 0.68700004 12827538
-0.14198001 0.23227143 0.68700004 12038022
-0.14046668 0.23193334 0.68600005 11971445
-0.13875428 0.23125714 0.68400002 12037238
-0.13745143 0.23125714 0.68400002 11773555
-0.13575049 0.23058097 0.68200004 11641969
-0.13405713 0.22990477 0.68000001 11641967
-0.13256668 0.22956668 0.67900002 11444588
-0.13127334 0.22956668 0.67900002 11115875
-0.12978856 0.22922859 0.67800003 10984289
-0.12849715 0.22922859 0.67800003 10918226
-0.12683049 0.2285524 0.67600006 10918226
-0.12535714 0.22821428 0.67500001 10654543
-0.12407143 0.22821428 0.67500001 10720336
-0.12278572 0.22821428 0.67500001 10720579
-0.12132 0.22787619 0.67400002 10391614
-0.12003619 0.22787619 0.67400002 9537865
-0.11875238 0.22787619 0.67400002 7498282
-0.11746857 0.22787619 0.67400002 7238181
-0.11618476 0.22787619 0.67400002 7961904
-0.11456001 0.22720002 0.67200005 7896122
-0.11328001 0.22720002 0.67200005 7567157
-0.112 0.22720002 0.67200005 7105602
-0.11072001 0.22720002 0.67200005 7105602
-0.10944001 0.22720002 0.67200005 6582050
-0.10816 0.22720002 0.67200005 4213504
-0.10688 0.22720002 0.67200005 3887922
-0.10560001 0.22720002 0.67200005 4151094
-0.10432001 0.22720002 0.67200005 5397325
-0.10334668 0.22787619 0.67400002 5857876
-0.10206286 0.22787619 0.67400002 5989441
-0.10077905 0.22787619 0.67400002 5989441
-0.099642858 0.22821428 0.67500001 6451270
-0.098357141 0.22821428 0.67500001 6582856
-0.097071432 0.22821428 0.67500001 6976583
-0.095785715 0.22821428 0.67500001 7108169
-0.094640009 0.2285524 0.67600006 7041849
-0.093352392 0.2285524 0.67600006 6844470
-0.092064768 0.2285524 0.67600006 7172163
-0.091045722 0.22922859 0.67800003 7830093
-0.089886673 0.22956668 0.67900002 7762251
-0.088593334 0.22956668 0.67900002 8420181
-0.08742857 0.22990477 0.68000001 8748374
-0.086386673 0.23058097 0.68200004 10722164
-0.085212387 0.23091906 0.68300003 11180914
-0.083911426 0.23091906 0.68300003 11509879
-0.082731433 0.23125714 0.68400002 11773807
-0.081666671 0.23193334 0.68600005 11905393
-0.080594286 0.23260953 0.68800002 11708282
-0.079514287 0.23328574 0.69000006 11642489
-0.078313336 0.23362383 0.69100004 11839346
-0.07722 0.2343 0.69300002 12365690
-0.075899996 0.2343 0.69300002 12300169
-0.074687615 0.23463809 0.69400001 12563341
-0.073788576 0.23599048 0.69800001 12432507
-0.07245905 0.23599048 0.69800001 12695679
-0.071129531 0.23599048 0.69800001 12694907
-0.14522858 0.23460001 0.69000006 14078116
-0.14328857 0.23358001 0.68700004 12630933
-0.14198001 0.23358001 0.68700004 11315073
-0.14046668 0.23324002 0.68600005 11839861
-0.13875428 0.23255999 0.68400002 11905654
-0.13745143 0.23255999 0.68400002 11773305
-0.13575049 0.23188001 0.68200004 11641719
-0.13405713 0.23120001 0.68000001 10984561
-0.1327619 0.23120001 0.68000001 11050354
-0.13127334 0.23085999 0.67900002 11181418
-0.12978856 0.23052 0.67800003 10589281
-0.12849715 0.23052 0.67800003 10588754
-0.12683049 0.22984001 0.67600006 10588754
-0.12535714 0.22950001 0.67500001 10720331
-0.12407143 0.22950001 0.67500001 10786124
-0.12278572 0.22950001 0.67500001 10720849
-0.12132 0.22916001 0.67400002 10589263
-0.12003619 0.22916001 0.67400002 9209936
-0.11875238 0.22916001 0.67400002 8025662
-0.11746857 0.22916001 0.67400002 7829825
-0.11618476 0.22916001 0.67400002 7961411
-0.11490095 0.22916001 0.67400002 7698493
-0.11361714 0.22916001 0.67400002 7961665
-0.112 0.22848003 0.67200005 7830345
-0.11072001 0.22848003 0.67200005 7435587
-0.10944001 0.22848003 0.67200005 6254393
-0.10816 0.22848003 0.67200005 4938533
-0.10688 0.22848003 0.67200005 4939068
-0.10591429 0.22916001 0.67400002 5202240
-0.10463049 0.22916001 0.67400002 5793089
-0.10334668 0.22916001 0.67400002 6253640
-0.10206286 0.22916001 0.67400002 6909519
-0.10077905 0.22916001 0.67400002 6843726
-0.099642858 0.22950001 0.67500001 7238476
-0.098357141 0.22950001 0.67500001 7764820
-0.097071432 0.22950001 0.67500001 7830873
-0.095785715 0.22950001 0.67500001 7765080
-0.094640009 0.22984001 0.67600006 7436105
-0.093352392 0.22984001 0.67600006 7304519
-0.092064768 0.22984001 0.67600006 7237956
-0.091045722 0.23052 0.67800003 7501128
-0.089886673 0.23085999 0.67900002 7434810
-0.088723809 0.23120001 0.68000001 8487498
-0.08742857 0.23120001 0.68000001 9997912
-0.086513333 0.23222001 0.68300003 11247979
-0.085337147 0.23255999 0.68400002 11575672
-0.084034286 0.23255999 0.68400002 11509879
-0.082973339 0.23324002 0.68600005 11707501
-0.081785724 0.23358001 0.68700004 12036466
-0.080477148 0.23358001 0.68700004 11839861
-0.079514287 0.23460001 0.69000006 11708275
-0.078200005 0.23460001 0.69000006 11641447
-0.07722 0.23561999 0.69300002 12299377
-0.075899996 0.23561999 0.69300002 12102527
-0.074687615 0.23595999 0.69400001 12431492
-0.073788576 0.23732001 0.69800001 12432246
-0.07245905 0.23732001 0.69800001 12432246
-0.071129531 0.23732001 0.69800001 12629116
-0.14522858 0.2359143 0.69000006 14341027
-0.14328857 0.23488858 0.68700004 12762008
-0.14198001 0.23488858 0.68700004 10854011
-0.14046668 0.23454668 0.68600005 10787948
-0.13875428 0.23386285 0.68400002 10919534
-0.13745143 0.23386285 0.68400002 11181938
-0.13575049 0.23317906 0.68200004 11510903
-0.13405713 0.23249523 0.68000001 11313022
-0.1327619 0.23249523 0.68000001 11247229
-0.13127334 0.23215333 0.67900002 11116145
-0.12998 0.23215333 0.67900002 10392422
-0.12849715 0.23181143 0.67800003 9733981
-0.12683049 0.23112763 0.67600006 9536602
-0.12554286 0.23112763 0.67600006 9733936
-0.12407143 0.23078571 0.67500001 10194487
-0.12278572 0.23078571 0.67500001 10391882
-0.1215 0.23078571 0.67500001 10589261
-0.12003619 0.23044381 0.67400002 9340752
-0.11875238 0.23044381 0.67400002 8419650
-0.11746857 0.23044381 0.67400002 8223834
-0.11618476 0.23044381 0.67400002 8223834
-0.11490095 0.23044381 0.67400002 8289608
-0.11361714 0.23044381 0.67400002 8421194
-0.11233333 0.23044381 0.67400002 8420940
-0.11104953 0.23044381 0.67400002 8881491
-0.10976572 0.23044381 0.67400002 8355669
-0.10848191 0.23044381 0.67400002 8026704
-0.1071981 0.23044381 0.67400002 7764828
-0.10591429 0.23044381 0.67400002 7962207
-0.10463049 0.23044381 0.67400002 7896666
-0.10334668 0.23044381 0.67400002 8291424
-0.10221429 0.23078571 0.67500001 7961698
-0.10092857 0.23078571 0.67500001 7830112
-0.099642858 0.23078571 0.67500001 7895636
-0.098357141 0.23078571 0.67500001 8093015
-0.097071432 0.23078571 0.67500001 8355934
-0.095927626 0.23112763 0.67600006 8553313
-0.094640009 0.23112763 0.67600006 8683610
-0.093352392 0.23112763 0.67600006 8420438
-0.092337146 0.23181143 0.67800003 8617045
-0.091180004 0.23215333 0.67900002 9603940
-0.090019047 0.23249523 0.68000001 10459244
-0.088723809 0.23249523 0.68000001 10788209
-0.087685719 0.23317906 0.68200004 10919280
-0.086513333 0.23352095 0.68300003 11379831
-0.085337147 0.23386285 0.68400002 11641465
-0.084034286 0.23386285 0.68400002 11707258
-0.082973339 0.23454668 0.68600005 11641967
-0.081785724 0.23488858 0.68700004 12168311
-0.080477148 0.23488858 0.68700004 12037490
-0.079514287 0.2359143 0.69000006 12103283
-0.078200005 0.2359143 0.69000006 11838846
-0.07722 0.23694 0.69300002 12430983
-0.075899996 0.23694 0.69300002 12431485
-0.074902862 0.23796572 0.69600004 12431485
-0.074000001 0.23933335 0.70000005 12431976
-0.072666667 0.23933335 0.70000005 12695148
-0.071333334 0.23933335 0.70000005 12629377
-0.14522858 0.23722859 0.69000006 14341279
-0.14349715 0.23654096 0.68800002 12959126
-0.14218667 0.23654096 0.68800002 10985336
-0.14067143 0.23619716 0.68700004 10196070
-0.13916001 0.23585334 0.68600005 10327656
-0.13745143 0.23516572 0.68400002 10985077
-0.13575049 0.2344781 0.68200004 11379835
-0.13405713 0.23379047 0.68000001 11641985
-0.13256668 0.23344667 0.67900002 11313020
-0.13127334 0.23344667 0.67900002 11116913
-0.12978856 0.23310286 0.67800003 10722155
-0.12849715 0.23310286 0.67800003 9406295
-0.12683049 0.23241526 0.67600006 9274709
-0.12554286 0.23241526 0.67600006 9011496
-0.12407143 0.23207143 0.67500001 9998391
-0.12278572 0.23207143 0.67500001 10129484
-0.1215 0.23207143 0.67500001 10195277
-0.12021428 0.23207143 0.67500001 9077582
-0.11875238 0.23172763 0.67400002 8419652
-0.11746857 0.23172763 0.67400002 8354899
-0.11618476 0.23172763 0.67400002 8289106
-0.11490095 0.23172763 0.67400002 8355383
-0.11361714 0.23172763 0.67400002 8421176
-0.11233333 0.23172763 0.67400002 8551745
-0.11104953 0.23172763 0.67400002 9012296
-0.10976572 0.23172763 0.67400002 9011021
-0.10848191 0.23172763 0.67400002 8813642
-0.1071981 0.23172763 0.67400002 8419668
-0.10591429 0.23172763 0.67400002 8485461
-0.10463049 0.23172763 0.67400002 8158036
-0.1035 0.23207143 0.67500001 8487001
-0.10221429 0.23207143 0.67500001 7830362
-0.10092857 0.23207143 0.67500001 7764569
-0.099642858 0.23207143 0.67500001 8025680
-0.098357141 0.23207143 0.67500001 8420438
-0.097071432 0.23207143 0.67500001 8683594
-0.095927626 0.23241526 0.67600006 8880973
-0.094640009 0.23241526 0.67600006 9208139
-0.093628578 0.23310286 0.67800003 9273932
-0.092337146 0.23310286 0.67800003 9405007
-0.091180004 0.23344667 0.67900002 10523488
-0.090019047 0.23379047 0.68000001 10852973
-0.088723809 0.23379047 0.68000001 11116145
-0.087685719 0.2344781 0.68200004 10984809
-0.086513333 0.2348219 0.68300003 11379567
-0.085337147 0.23516572 0.68400002 11313524
-0.084034286 0.23516572 0.68400002 11379317
-0.082973339 0.23585334 0.68600005 11510385
-0.081785724 0.23619716 0.68700004 12102522
-0.080477148 0.23619716 0.68700004 12037236
-0.079514287 0.23722859 0.69000006 12037236
-0.078313336 0.2375724 0.69100004 11707512
-0.07722 0.23826 0.69300002 12233856
-0.076009519 0.2386038 0.69400001 12693633
-0.075118095 0.23997906 0.69800001 12693633
-0.074000001 0.24066667 0.70000005 12497271
-0.072666667 0.24066667 0.70000005 12497271
-0.071333334 0.24066667 0.70000005 12431744
-0.070000008 0.24066667 0.70000005 15129257
-0.14654286 0.23854287 0.69000006 15459762
-0.14522858 0.23854287 0.69000006 14407074
-0.1439143 0.23854287 0.69000006 13024665
-0.14218667 0.23785143 0.68800002 11248254
-0.14067143 0.23750572 0.68700004 10458500
-0.13916001 0.23716001 0.68600005 10195328
-0.13745143 0.23646858 0.68400002 10261870
-0.13575049 0.23577715 0.68200004 10393456
-0.13405713 0.23508571 0.68000001 11050354
-0.13256668 0.23474 0.67900002 11181940
-0.13127334 0.23474 0.67900002 11313006
-0.12978856 0.2343943 0.67800003 11510385
-0.12849715 0.2343943 0.67800003 10655090
-0.12683049 0.23370287 0.67600006 10523504
-0.12554286 0.23370287 0.67600006 10655585
-0.12425525 0.23370287 0.67600006 10721378
-0.12278572 0.23335715 0.67500001 10656085
-0.1215 0.23335715 0.67500001 10063948
-0.12021428 0.23335715 0.67500001 9142878
-0.11875238 0.23301142 0.67400002 8353362
-0.11746857 0.23301142 0.67400002 8420168
-0.11635715 0.23335715 0.67500001 8420168
-0.11490095 0.23301142 0.67400002 8617517
-0.11361714 0.23301142 0.67400002 9209654
-0.11233333 0.23301142 0.67400002 9143623
-0.11104953 0.23301142 0.67400002 9209416
-0.10976572 0.23301142 0.67400002 9209425
-0.10848191 0.23301142 0.67400002 9275218
-0.1071981 0.23301142 0.67400002 8551777
-0.10591429 0.23301142 0.67400002 8485984
-0.10463049 0.23301142 0.67400002 8682857
-0.1035 0.23335715 0.67500001 9340787
-0.10221429 0.23335715 0.67500001 9340778
-0.10092857 0.23335715 0.67500001 9340778
-0.099642858 0.23335715 0.67500001 9998182
-0.098357141 0.23335715 0.67500001 10261354
-0.097071432 0.23335715 0.67500001 10261336
-0.095927626 0.23370287 0.67600006 10590301
-0.094640009 0.23370287 0.67600006 10787430
-0.093628578 0.2343943 0.67800003 10853223
-0.092337146 0.2343943 0.67800003 10853489
-0.091180004 0.23474 0.67900002 11379833
-0.090019047 0.23508571 0.68000001 11313767
-0.088984765 0.23577715 0.68200004 11313767
-0.087685719 0.23577715 0.68200004 11248233
-0.086513333 0.23612288 0.68300003 11511405
-0.085337147 0.23646858 0.68400002 11576178
-0.084034286 0.23646858 0.68400002 11444592
-0.082973339 0.23716001 0.68600005 11575672
-0.081785724 0.23750572 0.68700004 12167809
-0.080594286 0.23785143 0.68800002 11971697
-0.079514287 0.23854287 0.69000006 11971697
-0.078313336 0.23888859 0.69100004 11904637
-0.07722 0.23958001 0.69300002 11904637
-0.076009519 0.23992571 0.69400001 12167559
-0.075010478 0.24096288 0.69700003 12496524
-0.074105717 0.24234572 0.70100003 12563071
-0.072666667 0.24200001 0.70000005 12431485
-0.071333334 0.24200001 0.70000005 12366214
-0.070000008 0.24200001 0.70000005 15129520
-0.068960957 0.24303715 0.70300001 15196359
-0.14654286 0.23985717 0.69000006 15722691
-0.14522858 0.23985717 0.69000006 14670003
-0.1439143 0.23985717 0.69000006 13419152
-0.14218667 0.23916191 0.68800002 11642741
-0.14067143 0.23881431 0.68700004 11248256
-0.13916001 0.23846668 0.68600005 10787705
-0.13745143 0.23777144 0.68400002 9868129
-0.13575049 0.23707619 0.68200004 9933922
-0.13405713 0.23638095 0.68000001 10523499
-0.13256668 0.23603334 0.67900002 10655085
-0.13127334 0.23603334 0.67900002 10916963
-0.12978856 0.23568572 0.67800003 10982756
-0.12849715 0.23568572 0.67800003 10852201
-0.12720571 0.23568572 0.67800003 10917994
-0.12554286 0.23499049 0.67600006 10917987
-0.12425525 0.23499049 0.67600006 11115366
-0.12278572 0.23464285 0.67500001 11049580
-0.1215 0.23464285 0.67500001 10325857
-0.12021428 0.23464285 0.67500001 10129502
-0.11892857 0.23464285 0.67500001 9339986
-0.11764286 0.23464285 0.67500001 9405770
-0.11635715 0.23464285 0.67500001 9208391
-0.11490095 0.23429525 0.67400002 8880169
-0.11361714 0.23429525 0.67400002 9538099
-0.11233333 0.23429525 0.67400002 9603658
-0.11104953 0.23429525 0.67400002 9735244
-0.10976572 0.23429525 0.67400002 9538903
-0.10848191 0.23429525 0.67400002 9473110
-0.1071981 0.23429525 0.67400002 9472875
-0.10591429 0.23429525 0.67400002 9341289
-0.10463049 0.23429525 0.67400002 9538140
-0.1035 0.23464285 0.67500001 9735519
-0.10221429 0.23464285 0.67500001 9800799
-0.10092857 0.23464285 0.67500001 9800799
-0.099642858 0.23464285 0.67500001 10326118
-0.098357141 0.23464285 0.67500001 10655083
-0.097071432 0.23464285 0.67500001 10654563
-0.095927626 0.23499049 0.67600006 11049321
-0.094920009 0.23568572 0.67800003 11050604
-0.093628578 0.23568572 0.67800003 11050604
-0.092473336 0.23603334 0.67900002 10853489
-0.091314279 0.23638095 0.68000001 11182454
-0.090019047 0.23638095 0.68000001 10853993
-0.088723809 0.23638095 0.68000001 11117165
-0.087685719 0.23707619 0.68200004 11247970
-0.086513333 0.23742382 0.68300003 11576935
-0.085212387 0.23742382 0.68300003 11641967
-0.084034286 0.23777144 0.68400002 11576174
-0.082973339 0.23846668 0.68600005 11575665
-0.081785724 0.23881431 0.68700004 12102009
-0.080594286 0.23916191 0.68800002 11971186
-0.079514287 0.23985717 0.69000006 12036979
-0.078313336 0.24020477 0.69100004 12299901
-0.07722 0.24090001 0.69300002 12102522
-0.076009519 0.24124761 0.69400001 11904882
-0.074902862 0.24194287 0.69600004 12431226
-0.074105717 0.24368095 0.70100003 12826504
-0.072770476 0.24368095 0.70100003 12365953
-0.071435243 0.24368095 0.70100003 12365694
-0.070299998 0.24437618 0.70300001 15326379
-0.068960957 0.24437618 0.70300001 15261891
-0.14654286 0.24117145 0.69000006 15854026
-0.14522858 0.24117145 0.69000006 14735545
-0.1439143 0.24117145 0.69000006 13484932
-0.14260001 0.24117145 0.69000006 11642728
-0.14087619 0.24047238 0.68800002 11248254
-0.13936286 0.24012287 0.68700004 11314047
-0.13745143 0.23907429 0.68400002 10986077
-0.13575049 0.23837526 0.68200004 9736010
-0.13405713 0.23767619 0.68000001 9669476
-0.13256668 0.23732667 0.67900002 9143132
-0.13127334 0.23732667 0.67900002 9339984
-0.12978856 0.23697716 0.67800003 9471570
-0.12849715 0.23697716 0.67800003 9471836
-0.12720571 0.23697716 0.67800003 10590317
-0.12554286 0.23627812 0.67600006 10853466
-0.12425525 0.23627812 0.67600006 10919259
-0.12278572 0.23592858 0.67500001 10852971
-0.1215 0.23592858 0.67500001 10195041
-0.12021428 0.23592858 0.67500001 10524510
-0.11892857 0.23592858 0.67500001 10721889
-0.11764286 0.23592858 0.67500001 10459231
-0.11635715 0.23592858 0.67500001 10590817
-0.11507143 0.23592858 0.67500001 10459231
-0.11361714 0.23557904 0.67400002 10590817
-0.11233333 0.23557904 0.67400002 10525024
-0.11121429 0.23592858 0.67500001 10656610
-0.10992857 0.23592858 0.67500001 10459494
-0.10864286 0.23592858 0.67500001 10525287
-0.10735714 0.23592858 0.67500001 10328435
-0.10607143 0.23592858 0.67500001 10262642
-0.10478572 0.23592858 0.67500001 10393953
-0.1035 0.23592858 0.67500001 10854504
-0.10221429 0.23592858 0.67500001 10458981
-0.10092857 0.23592858 0.67500001 10458981
-0.099642858 0.23592858 0.67500001 10721137
-0.098357141 0.23592858 0.67500001 11247481
-0.09721525 0.23627812 0.67600006 10917744
-0.095927626 0.23627812 0.67600006 10983537
-0.094920009 0.23697716 0.67800003 11115627
-0.093766667 0.23732667 0.67900002 11049834
-0.092473336 0.23732667 0.67900002 10853491
-0.091314279 0.23767619 0.68000001 11182456
-0.090019047 0.23767619 0.68000001 11248233
-0.088723809 0.23767619 0.68000001 11445612
-0.087685719 0.23837526 0.68200004 11445594
-0.086513333 0.23872477 0.68300003 11906145
-0.085212387 0.23872477 0.68300003 11839852
-0.084034286 0.23907429 0.68400002 11839852
-0.083094291 0.24012287 0.68700004 11641967
-0.081785724 0.24012287 0.68700004 11970932
-0.080828577 0.24117145 0.69000006 11709298
-0.079514287 0.24117145 0.69000006 11709298
-0.078313336 0.24152097 0.69100004 12037238
-0.07722 0.24222 0.69300002 12168824
-0.076009519 0.24256952 0.69400001 12233584
-0.074902862 0.24326859 0.69600004 12496756
-0.074000001 0.24466668 0.70000005 12760450
-0.072978094 0.24571525 0.70300001 12563071
-0.071639046 0.24571525 0.70300001 12431998
-0.070400007 0.24606477 0.70400006 15326890
-0.069059052 0.24606477 0.70400006 15261632
-0.14654286 0.24248573 0.69000006 15985865
-0.14522858 0.24248573 0.69000006 14735798
-0.1439143 0.24248573 0.69000006 13419916
-0.14260001 0.24248573 0.69000006 11380333
-0.14087619 0.24178286 0.68800002 11050870
-0.13936286 0.24143143 0.68700004 11379835
-0.13745143 0.24037716 0.68400002 11249269
-0.13575049 0.2396743 0.68200004 10196581
-0.13405713 0.23897143 0.68000001 9276249
-0.13256668 0.23862001 0.67900002 8749905
-0.13127334 0.23862001 0.67900002 8290126
-0.12978856 0.23826857 0.67800003 8750677
-0.12849715 0.23826857 0.67800003 9012820
-0.12720571 0.23826857 0.67800003 9868129
-0.12554286 0.23756573 0.67600006 10656619
-0.12425525 0.23756573 0.67600006 10656619
-0.12278572 0.23721428 0.67500001 10458983
-0.1215 0.23721428 0.67500001 10261604
-0.12021428 0.23721428 0.67500001 10590051
-0.11892857 0.23721428 0.67500001 10721637
-0.11764286 0.23721428 0.67500001 10129752
-0.11635715 0.23721428 0.67500001 10590303
-0.11507143 0.23721428 0.67500001 10459494
-0.11378571 0.23721428 0.67500001 10459494
-0.1125 0.23721428 0.67500001 10459746
-0.11121429 0.23721428 0.67500001 10459746
-0.10992857 0.23721428 0.67500001 10130277
-0.10864286 0.23721428 0.67500001 10525035
-0.10735714 0.23721428 0.67500001 10525294
-0.10607143 0.23721428 0.67500001 10393708
-0.10478572 0.23721428 0.67500001 10130266
-0.1035 0.23721428 0.67500001 10590817
-0.10221429 0.23721428 0.67500001 10459494
-0.10092857 0.23721428 0.67500001 10393701
-0.099642858 0.23721428 0.67500001 10589549
-0.098357141 0.23721428 0.67500001 10984307
-0.09721525 0.23756573 0.67600006 10720358
-0.095927626 0.23756573 0.67600006 11049323
-0.094920009 0.23826857 0.67800003 11312997
-0.093766667 0.23862001 0.67900002 11181411
-0.092473336 0.23862001 0.67900002 10852973
-0.091314279 0.23897143 0.68000001 11247731
-0.090019047 0.23897143 0.68000001 10985073
-0.088984765 0.2396743 0.68200004 10985073
-0.087685719 0.2396743 0.68200004 11050591
-0.086513333 0.24002571 0.68300003 11642728
-0.085337147 0.24037716 0.68400002 11445358
-0.084034286 0.24037716 0.68400002 11445358
-0.083094291 0.24143143 0.68700004 11511403
-0.081785724 0.24143143 0.68700004 11774575
-0.080828577 0.24248573 0.69000006 11578484
-0.079629533 0.24283716 0.69100004 11512691
-0.078313336 0.24283716 0.69100004 11775095
-0.07722 0.24354 0.69300002 11906681
-0.076009519 0.24389142 0.69400001 12299892
-0.074902862 0.24459429 0.69600004 12497271
-0.074000001 0.24600002 0.70000005 12497019
-0.072978094 0.24705429 0.70300001 12562812
-0.071639046 0.24705429 0.70300001 12497530
-0.070600003 0.24810858 0.70600003 15195043
-0.14654286 0.24380001 0.69000006 15919552
-0.14522858 0.24380001 0.69000006 14801071
-0.14412287 0.24415335 0.69100004 14274709
-0.14260001 0.24380001 0.69000006 11577196
-0.14128572 0.24380001 0.69000006 10919282
-0.13956572 0.24309333 0.68800002 10261352
-0.13745143 0.24168001 0.68400002 10656360
-0.13575049 0.24097335 0.68200004 11116911
-0.13445143 0.24097335 0.68200004 10459492
-0.1327619 0.24026667 0.68000001 10459492
-0.13127334 0.23991334 0.67900002 9999213
-0.12998 0.23991334 0.67900002 9604455
-0.12849715 0.23956001 0.67800003 9735008
-0.12720571 0.23956001 0.67800003 9603422
-0.12554286 0.23885335 0.67600006 10195561
-0.12425525 0.23885335 0.67600006 10524526
-0.12296763 0.23885335 0.67600006 10393188
-0.1215 0.2385 0.67500001 10261602
-0.12021428 0.2385 0.67500001 10590553
-0.11892857 0.2385 0.67500001 10787932
-0.11764286 0.2385 0.67500001 10130277
-0.11635715 0.2385 0.67500001 10393449
-0.11507143 0.2385 0.67500001 10459244
-0.11378571 0.2385 0.67500001 10261865
-0.1125 0.2385 0.67500001 10459233
-0.11121429 0.2385 0.67500001 10525026
-0.10992857 0.2385 0.67500001 10327143
-0.10864286 0.2385 0.67500001 10458729
-0.10735714 0.2385 0.67500001 10458983
-0.10607143 0.2385 0.67500001 10393190
-0.10478572 0.2385 0.67500001 10459233
-0.1035 0.2385 0.67500001 10590819
-0.10221429 0.2385 0.67500001 10524774
-0.10092857 0.2385 0.67500001 10656360
-0.099790484 0.23885335 0.67600006 10919282
-0.098502867 0.23885335 0.67600006 10853489
-0.09721525 0.23885335 0.67600006 10983526
-0.095927626 0.23885335 0.67600006 10851940
-0.094920009 0.23956001 0.67800003 11181400
-0.093766667 0.23991334 0.67900002 11444572
-0.092473336 0.23991334 0.67900002 10853489
-0.091314279 0.24026667 0.68000001 11445626
-0.090019047 0.24026667 0.68000001 11182454
-0.088984765 0.24097335 0.68200004 11116661
-0.087685719 0.24097335 0.68200004 10985075
-0.086513333 0.24132667 0.68300003 11445626
-0.085337147 0.24168001 0.68400002 11313524
-0.084279999 0.24238667 0.68600005 11247731
-0.083094291 0.24274001 0.68700004 11445862
-0.081904761 0.24309333 0.68800002 11840620
-0.080828577 0.24380001 0.69000006 11709300
-0.079629533 0.24415335 0.69100004 12169851
-0.078313336 0.24415335 0.69100004 12037240
-0.077331424 0.24521333 0.69400001 12103033
-0.076009519 0.24521333 0.69400001 12430972
-0.075010478 0.24627334 0.69700003 13023109
-0.074105717 0.24768668 0.70100003 12760182
-0.072978094 0.24839331 0.70300001 12562803
-0.071639046 0.24839331 0.70300001 12497271
-0.070400007 0.24874668 0.70400006 15063198
-0.14586 0.24618001 0.69300002 14997947
-0.14412287 0.24546953 0.69100004 14406572
-0.14280666 0.24546953 0.69100004 11709059
-0.14128572 0.24511431 0.69000006 10985847
-0.13997145 0.24511431 0.69000006 10130538
-0.13825524 0.24440382 0.68800002 10261079
-0.13594954 0.24262764 0.68300003 10655837
-0.13445143 0.24227239 0.68200004 10852973
-0.1327619 0.2415619 0.68000001 10787180
-0.13146667 0.2415619 0.68000001 10392170
-0.12998 0.24120668 0.67900002 10063205
-0.12868667 0.24120668 0.67900002 10193753
-0.12739334 0.24120668 0.67900002 10259546
-0.1261 0.24120668 0.67900002 10062958
-0.12462286 0.24085143 0.67800003 10589302
-0.12296763 0.24014097 0.67600006 10195818
-0.12168001 0.24014097 0.67600006 10195818
-0.12039239 0.24014097 0.67600006 10327647
-0.11892857 0.23978572 0.67500001 10393440
-0.11764286 0.23978572 0.67500001 10130270
-0.11652953 0.24014097 0.67600006 10327649
-0.11524191 0.24014097 0.67600006 10327143
-0.11395429 0.24014097 0.67600006 10129764
-0.11266667 0.24014097 0.67600006 10260829
-0.11137906 0.24014097 0.67600006 10458208
-0.11009143 0.24014097 0.67600006 10327147
-0.10880382 0.24014097 0.67600006 10458733
-0.1075162 0.24014097 0.67600006 10327397
-0.10607143 0.23978572 0.67500001 10393190
-0.10478572 0.23978572 0.67500001 10655844
-0.1035 0.23978572 0.67500001 10721637
-0.10236572 0.24014097 0.67600006 10458983
-0.10107811 0.24014097 0.67600006 10590569
-0.099790484 0.24014097 0.67600006 10985595
-0.098502867 0.24014097 0.67600006 10722423
-0.09721525 0.24014097 0.67600006 10721901
-0.096211433 0.24085143 0.67800003 10590315
-0.094920009 0.24085143 0.67800003 10786399
-0.093766667 0.24120668 0.67900002 10852192
-0.092473336 0.24120668 0.67900002 10391902
-0.091180004 0.24120668 0.67900002 11313004
-0.090019047 0.2415619 0.68000001 11051381
-0.088984765 0.24227239 0.68200004 10985588
-0.087685719 0.24227239 0.68200004 10985073
-0.086513333 0.24262764 0.68300003 11379831
-0.085337147 0.24298286 0.68400002 11051120
-0.084279999 0.24369335 0.68600005 11182706
-0.083215237 0.24440382 0.68800002 11708014
-0.081904761 0.24440382 0.68800002 11905393
-0.080945715 0.24546953 0.69100004 11840118
-0.079629533 0.24546953 0.69100004 12234876
-0.078540005 0.24618001 0.69300002 12036725
-0.077331424 0.24653524 0.69400001 12168311
-0.076228574 0.24724571 0.69600004 12430722
-0.075118095 0.24795619 0.69800001 12430722
-0.074105717 0.24902192 0.70100003 12496499
-0.072978094 0.24973238 0.70300001 12430706
-0.071639046 0.24973238 0.70300001 12562301
-0.070400007 0.25008762 0.70400006 15062435
-0.069059052 0.25008762 0.70400006 15590333
-0.14649144 0.24857143 0.69600004 14932674
-0.14474858 0.24785714 0.69400001 14340525
-0.14321999 0.2475 0.69300002 12037770
-0.14149047 0.24678575 0.69100004 11116668
-0.1401743 0.24678575 0.69100004 10327152
-0.13865715 0.24642859 0.69000006 10195543
-0.13614857 0.24428572 0.68400002 9669199
-0.1348457 0.24428572 0.68400002 9865828
-0.13334762 0.24392857 0.68300003 10260586
-0.13146667 0.24285714 0.68000001 10260825
-0.13017143 0.24285714 0.68000001 10063446
-0.12887619 0.24285714 0.68000001 10062935
-0.12758096 0.24285714 0.68000001 10918244
-0.1261 0.24249999 0.67900002 10721152
-0.12480666 0.24249999 0.67900002 10852738
-0.12333143 0.24214287 0.67800003 10327406
-0.12204001 0.24214287 0.67800003 10195820
-0.12074857 0.24214287 0.67800003 10327647
-0.11910477 0.24142858 0.67600006 10327647
-0.11781715 0.24142858 0.67600006 10458715
-0.11652953 0.24142858 0.67600006 10458715
-0.11524191 0.24142858 0.67600006 10458463
-0.11395429 0.24142858 0.67600006 10261084
-0.11266667 0.24142858 0.67600006 10261088
-0.11137906 0.24142858 0.67600006 10326881
-0.11009143 0.24142858 0.67600006 10392690
-0.10880382 0.24142858 0.67600006 10524276
-0.1075162 0.24142858 0.67600006 10524006
-0.10622858 0.24142858 0.67600006 10392420
-0.10494096 0.24142858 0.67600006 10589792
-0.10365334 0.24142858 0.67600006 10721378
-0.10236572 0.24142858 0.67600006 10655594
-0.10107811 0.24142858 0.67600006 10655594
-0.099790484 0.24142858 0.67600006 10458738
-0.098502867 0.24142858 0.67600006 10392945
-0.09721525 0.24142858 0.67600006 10655342
-0.096211433 0.24214287 0.67800003 10918514
-0.094920009 0.24214287 0.67800003 10787180
-0.093766667 0.24249999 0.67900002 10984559
-0.092473336 0.24249999 0.67900002 10853489
-0.091180004 0.24249999 0.67900002 11050868
-0.090019047 0.24285714 0.68000001 11051120
-0.088984765 0.24357145 0.68200004 11051120
-0.087685719 0.24357145 0.68200004 11116659
-0.086513333 0.24392857 0.68300003 11643003
-0.085337147 0.24428572 0.68400002 11248247
-0.084279999 0.24500002 0.68600005 11445626
-0.083215237 0.24571428 0.68800002 11642487
-0.082142867 0.24642859 0.69000006 11708280
-0.080945715 0.24678575 0.69100004 11906429
-0.079860002 0.2475 0.69300002 12169601
-0.078540005 0.2475 0.69300002 12365944
-0.077331424 0.24785714 0.69400001 12300151
-0.076228574 0.24857143 0.69600004 12365188
-0.075118095 0.24928571 0.69800001 12233602
-0.074105717 0.25035715 0.70100003 12036979
-0.072978094 0.25107142 0.70300001 11905393
-0.071639046 0.25107142 0.70300001 12299397
-0.070400007 0.2514286 0.70400006 14799531
-0.06925524 0.25214285 0.70600003 15458747
-0.14824191 0.25061524 0.69800001 15722180
-0.1467019 0.25025621 0.69700003 15327422
-0.14516573 0.24989717 0.69600004 14143659
-0.14321999 0.24882001 0.69300002 11643525
-0.14149047 0.24810192 0.69100004 11247995
-0.1401743 0.24810192 0.69100004 10524272
-0.13865715 0.24774289 0.69000006 10196063
-0.13654667 0.24630667 0.68600005 9735512
-0.1348457 0.24558859 0.68400002 8946001
-0.13354285 0.24558859 0.68400002 9274966
-0.13204667 0.24522951 0.68300003 9931869
-0.13017143 0.2441524 0.68000001 9602904
-0.12887619 0.2441524 0.68000001 9733468
-0.12758096 0.2441524 0.68000001 10325605
-0.1261 0.24379334 0.67900002 10129528
-0.12480666 0.24379334 0.67900002 10063735
-0.12351334 0.24379334 0.67900002 10195559
-0.12204001 0.2434343 0.67800003 10195559
-0.12074857 0.2434343 0.67800003 10195811
-0.11945715 0.2434343 0.67800003 10130018
-0.11816572 0.2434343 0.67800003 10260575
-0.11652953 0.24271621 0.67600006 10326368
-0.11524191 0.24271621 0.67600006 10326111
-0.11395429 0.24271621 0.67600006 10391904
-0.11266667 0.24271621 0.67600006 10326629
-0.11137906 0.24271621 0.67600006 10326629
-0.11009143 0.24271621 0.67600006 10195557
-0.10880382 0.24271621 0.67600006 10458729
-0.1075162 0.24271621 0.67600006 10589799
-0.10622858 0.24271621 0.67600006 10524006
-0.10494096 0.24271621 0.67600006 10325605
-0.10365334 0.24271621 0.67600006 10851949
-0.10236572 0.24271621 0.67600006 10853237
-0.10137715 0.2434343 0.67800003 10524272
-0.099790484 0.24271621 0.67600006 10524272
-0.098502867 0.24271621 0.67600006 10392686
-0.097646669 0.24379334 0.67900002 10457695
-0.096353337 0.24379334 0.67900002 10457695
-0.095060006 0.24379334 0.67900002 10720874
-0.093766667 0.24379334 0.67900002 11049839
-0.092473336 0.24379334 0.67900002 10919280
-0.091180004 0.24379334 0.67900002 11050866
-0.090019047 0.2441524 0.68000001 11051120
-0.088984765 0.24487048 0.68200004 11116913
-0.087685719 0.24487048 0.68200004 11116911
-0.08664 0.24558859 0.68400002 11380083
-0.085586667 0.24630667 0.68600005 10853739
-0.084402859 0.24666573 0.68700004 11445876
-0.083215237 0.24702476 0.68800002 11511671
-0.082142867 0.24774289 0.69000006 11774843
-0.080945715 0.24810192 0.69100004 11906177
-0.079860002 0.24882001 0.69300002 12037763
-0.078540005 0.24882001 0.69300002 12300421
-0.077331424 0.24917905 0.69400001 12037249
-0.076228574 0.24989717 0.69600004 11838844
-0.075333342 0.25133336 0.70000005 10983535
-0.074105717 0.25169238 0.70100003 10852444
-0.072978094 0.25241047 0.70300001 11970925
-0.071740955 0.25276953 0.70400006 11906177
-0.070400007 0.25276953 0.70400006 14603690
-0.069059052 0.25276953 0.70400006 15327161
-0.067718096 0.25276953 0.70400006 16775121
-0.14824191 0.25194475 0.69800001 15788464
-0.1467019 0.25158384 0.69700003 15393706
-0.14516573 0.25122288 0.69600004 14406318
-0.14342667 0.25050095 0.69400001 11379840
-0.14210476 0.25050095 0.69400001 11313788
-0.1401743 0.24941809 0.69100004 10655858
-0.13865715 0.24905714 0.69000006 10393447
-0.13694477 0.24833524 0.68800002 10261861
-0.13524002 0.24761336 0.68600005 9603441
-0.13354285 0.24689142 0.68400002 9274476
-0.13204667 0.2465305 0.68300003 9405801
-0.13074572 0.2465305 0.68300003 9011043
-0.12925524 0.24616955 0.68200004 8944739
-0.12758096 0.24544762 0.68000001 8747360
-0.12628572 0.24544762 0.68000001 8747098
-0.12480666 0.24508667 0.67900002 8418133
-0.12351334 0.24508667 0.67900002 9076810
-0.12204001 0.24472572 0.67800003 9274189
-0.12074857 0.24472572 0.67800003 9339984
-0.11945715 0.24472572 0.67800003 9471570
-0.11816572 0.24472572 0.67800003 9536600
-0.11687429 0.24472572 0.67800003 9733979
-0.11558286 0.24472572 0.67800003 9668701
-0.11429143 0.24472572 0.67800003 9668701
-0.11300001 0.24472572 0.67800003 9537879
-0.11137906 0.24400382 0.67600006 9472086
-0.11009143 0.24400382 0.67600006 9867082
-0.10880382 0.24400382 0.67600006 9998668
-0.1075162 0.24400382 0.67600006 10063709
-0.10622858 0.24400382 0.67600006 9866330
-0.10494096 0.24400382 0.67600006 9536362
-0.10365334 0.24400382 0.67600006 9404776
-0.10266857 0.24472572 0.67800003 9537629
-0.10137715 0.24472572 0.67800003 9669215
-0.10008572 0.24472572 0.67800003 9208914
-0.09894 0.24508667 0.67900002 8945742
-0.097646669 0.24508667 0.67900002 9208137
-0.096353337 0.24508667 0.67900002 10129239
-0.095060006 0.24508667 0.67900002 10655846
-0.093766667 0.24508667 0.67900002 10919018
-0.092609517 0.24544762 0.68000001 10853993
-0.091314279 0.24544762 0.68000001 10985579
-0.090283811 0.24616955 0.68200004 11051120
-0.088984765 0.24616955 0.68200004 11314292
-0.087685719 0.24616955 0.68200004 11249001
-0.08664 0.24689142 0.68400002 11512173
-0.085586667 0.24761336 0.68600005 11248499
-0.084402859 0.24797429 0.68700004 11445878
-0.083215237 0.24833524 0.68800002 11511671
-0.082142867 0.24905714 0.69000006 11972222
-0.080945715 0.24941809 0.69100004 11774077
-0.079860002 0.25014001 0.69300002 11576698
-0.078540005 0.25014001 0.69300002 12037240
-0.077331424 0.25050095 0.69400001 11576689
-0.076228574 0.25122288 0.69600004 10523771
-0.075440958 0.25302762 0.70100003 10260599
-0.07431715 0.25374952 0.70300001 10327395
-0.072978094 0.25374952 0.70300001 12235392
-0.071740955 0.25411049 0.70400006 12432523
-0.070400007 0.25411049 0.70400006 14669485
-0.069059052 0.25411049 0.70400006 15327422
-0.067718096 0.25411049 0.70400006 16775382
-0.1467019 0.25291142 0.69700003 15262644
-0.14516573 0.25254861 0.69600004 14472624
-0.14342667 0.25182286 0.69400001 11840904
-0.14210476 0.25182286 0.69400001 11314038
-0.14058001 0.25146002 0.69300002 10590315
-0.13865715 0.25037143 0.69000006 10919284
-0.13694477 0.24964572 0.68800002 10392940
-0.13524002 0.24892002 0.68600005 10130286
-0.13354285 0.24819429 0.68400002 9998700
-0.13224 0.24819429 0.68400002 9735780
-0.13074572 0.24783145 0.68300003 9341022
-0.12925524 0.24746858 0.68200004 8813658
-0.12758096 0.24674287 0.68000001 8682072
-0.12628572 0.24674287 0.68000001 8615512
-0.12480666 0.24638 0.67900002 8615512
-0.12351334 0.24638 0.67900002 8814926
-0.12204001 0.24601716 0.67800003 8485961
-0.12074857 0.24601716 0.67800003 8813638
-0.11945715 0.24601716 0.67800003 8945224
-0.11816572 0.24601716 0.67800003 8879449
-0.11687429 0.24601716 0.67800003 9076828
-0.11558286 0.24601716 0.67800003 8946262
-0.11429143 0.24601716 0.67800003 8880469
-0.11316667 0.24638 0.67900002 9011292
-0.11170857 0.24601716 0.67800003 9208671
-0.11041714 0.24601716 0.67800003 9209175
-0.10880382 0.24529146 0.67600006 8880210
-0.1075162 0.24529146 0.67600006 8945226
-0.10622858 0.24529146 0.67600006 8945226
-0.10494096 0.24529146 0.67600006 8945501
-0.10396 0.24601716 0.67800003 8682329
-0.10266857 0.24601716 0.67800003 8682318
-0.10137715 0.24601716 0.67800003 8682318
-0.10023333 0.24638 0.67900002 7762483
-0.09894 0.24638 0.67900002 8288827
-0.097646669 0.24638 0.67900002 8551220
-0.096495233 0.24674287 0.68000001 10196045
-0.095199995 0.24674287 0.68000001 10524774
-0.093904756 0.24674287 0.68000001 10722153
-0.092609517 0.24674287 0.68000001 10591080
-0.091314279 0.24674287 0.68000001 10854252
-0.090283811 0.24746858 0.68200004 10919800
-0.089115247 0.24783145 0.68300003 11117179
-0.087814286 0.24783145 0.68300003 11182704
-0.086893335 0.24892002 0.68600005 11248497
-0.085711427 0.24928287 0.68700004 11314290
-0.084525719 0.24964572 0.68800002 11445876
-0.08345715 0.25037143 0.69000006 11380335
-0.082142867 0.25037143 0.69000006 11709300
-0.080945715 0.2507343 0.69100004 11642221
-0.079860002 0.25146002 0.69300002 11773807
-0.078540005 0.25146002 0.69300002 11906179
-0.077554293 0.25254861 0.69600004 11182456
-0.076447621 0.25327429 0.69800001 9998950
-0.075656191 0.2550886 0.70300001 10064743
-0.074422859 0.25545144 0.70400006 10261586
-0.073081911 0.25545144 0.70400006 12498548
-0.071740955 0.25545144 0.70400006 12498827
-0.070400007 0.25545144 0.70400006 14538410
-0.069059052 0.25545144 0.70400006 15261881
-0.067718096 0.25545144 0.70400006 16643534
-0.1467019 0.25423905 0.69700003 15393465
-0.14516573 0.2538743 0.69600004 14538156
-0.14342667 0.25314477 0.69400001 12366987
-0.14210476 0.25314477 0.69400001 11510905
-0.14058001 0.25277999 0.69300002 10063459
-0.13885811 0.25205049 0.69100004 10128739
-0.13694477 0.25095618 0.68800002 10128739
-0.13524002 0.25022668 0.68600005 9932639
-0.13393334 0.25022668 0.68600005 10064225
-0.13224 0.24949716 0.68400002 10129502
-0.13074572 0.24913239 0.68300003 10261088
-0.12925524 0.24876764 0.68200004 9866330
-0.1279562 0.24876764 0.68200004 9274193
-0.12628572 0.2480381 0.68000001 8813666
-0.12480666 0.24767333 0.67900002 8550494
-0.12351334 0.24767333 0.67900002 8485461
-0.12222001 0.24767333 0.67900002 8024910
-0.12092667 0.24767333 0.67900002 8025151
-0.11945715 0.24730858 0.67800003 8025151
-0.11816572 0.24730858 0.67800003 8221270
-0.11704667 0.24767333 0.67900002 8221270
-0.11575333 0.24767333 0.67900002 8155210
-0.11446001 0.24767333 0.67900002 7957831
-0.11316667 0.24767333 0.67900002 8288090
-0.11187334 0.24767333 0.67900002 8288090
-0.11041714 0.24730858 0.67800003 8287320
-0.10912572 0.24730858 0.67800003 8024148
-0.10783429 0.24730858 0.67800003 8221251
-0.10654286 0.24730858 0.67800003 8287044
-0.10525143 0.24730858 0.67800003 8287574
-0.10396 0.24730858 0.67800003 8748125
-0.10266857 0.24730858 0.67800003 8682842
-0.10152667 0.24767333 0.67900002 8814428
-0.10023333 0.24767333 0.67900002 8814676
-0.09894 0.24767333 0.67900002 8814676
-0.097646669 0.24767333 0.67900002 9011297
-0.096495233 0.2480381 0.68000001 10129778
-0.095199995 0.2480381 0.68000001 10590049
-0.093904756 0.2480381 0.68000001 10853221
-0.092609517 0.2480381 0.68000001 10721651
-0.091582857 0.24876764 0.68200004 10919030
-0.090283811 0.24876764 0.68200004 10919299
-0.089115247 0.24913239 0.68300003 11182471
-0.087814286 0.24913239 0.68300003 11182706
-0.086893335 0.25022668 0.68600005 11182706
-0.085586667 0.25022668 0.68600005 11445362
-0.084402859 0.25059143 0.68700004 11576948
-0.083215237 0.25095618 0.68800002 11707762
-0.082142867 0.25168574 0.69000006 12036727
-0.080945715 0.25205049 0.69100004 11249249
-0.079860002 0.25277999 0.69300002 10130768
-0.078540005 0.25277999 0.69300002 10525805
-0.077665716 0.25423905 0.69700003 10657391
-0.076447621 0.25460383 0.69800001 10590835
-0.075656191 0.25642762 0.70300001 10985593
-0.074422859 0.2567924 0.70400006 10986097
-0.073081911 0.2567924 0.70400006 12433543
-0.071740955 0.2567924 0.70400006 12761222
-0.070400007 0.2567924 0.70400006 14735012
-0.069059052 0.2567924 0.70400006 15393208
-0.067718096 0.2567924 0.70400006 16709068
-0.1467019 0.25556666 0.69700003 15656126
-0.14516573 0.25520003 0.69600004 14603951
-0.14342667 0.25446665 0.69400001 12235403
-0.1419 0.25409999 0.69300002 11839859
-0.14058001 0.25409999 0.69300002 10260827
-0.13865715 0.25300002 0.69000006 10128478
-0.13694477 0.25226668 0.68800002 10128478
-0.13524002 0.25153336 0.68600005 10063709
-0.13393334 0.25153336 0.68600005 9800537
-0.13224 0.25079998 0.68400002 9865558
-0.13093714 0.25079998 0.68400002 10391902
-0.12925524 0.25006667 0.68200004 10261104
-0.1279562 0.25006667 0.68200004 9340002
-0.12628572 0.24933332 0.68000001 9274466
-0.12499048 0.24933332 0.68000001 9208673
-0.12351334 0.24896668 0.67900002 8749396
-0.12222001 0.24896668 0.67900002 8288845
-0.12092667 0.24896668 0.67900002 8288325
-0.11963334 0.24896668 0.67900002 8090946
-0.11834 0.24896668 0.67900002 8024649
-0.11704667 0.24896668 0.67900002 8156235
-0.11575333 0.24896668 0.67900002 8155210
-0.11446001 0.24896668 0.67900002 8155210
-0.11316667 0.24896668 0.67900002 8682838
-0.11187334 0.24896668 0.67900002 8419666
-0.11058 0.24896668 0.67900002 7959369
-0.10928667 0.24896668 0.67900002 7893576
-0.10783429 0.24859999 0.67800003 8025151
-0.10654286 0.24859999 0.67800003 8156737
-0.10525143 0.24859999 0.67800003 8287560
-0.10396 0.24859999 0.67800003 8748111
-0.10266857 0.24859999 0.67800003 9076814
-0.10152667 0.24896668 0.67900002 9142607
-0.10023333 0.24896668 0.67900002 9208398
-0.09894 0.24896668 0.67900002 9405777
-0.097646669 0.24896668 0.67900002 9866330
-0.096495233 0.24933332 0.68000001 10326881
-0.095199995 0.24933332 0.68000001 10392670
-0.093904756 0.24933332 0.68000001 10853221
-0.092609517 0.24933332 0.68000001 10721905
-0.091582857 0.25006667 0.68200004 10853491
-0.090416193 0.25043336 0.68300003 10853491
-0.089115247 0.25043336 0.68300003 11116663
-0.087942861 0.25079998 0.68400002 11248245
-0.086893335 0.25153336 0.68600005 11314038
-0.085586667 0.25153336 0.68600005 11575672
-0.084402859 0.25190002 0.68700004 11641465
-0.083215237 0.25226668 0.68800002 11510633
-0.082142867 0.25300002 0.69000006 11576426
-0.080945715 0.25336668 0.69100004 10723954
-0.079860002 0.25409999 0.69300002 9473887
-0.078653328 0.25446665 0.69400001 9934940
-0.077665716 0.25556666 0.69700003 10461284
-0.076447621 0.25593334 0.69800001 10591341
-0.075656191 0.25776666 0.70300001 11117685
-0.074422859 0.25813335 0.70400006 11447148
-0.073081911 0.25813335 0.70400006 12434043
-0.071740955 0.25813335 0.70400006 12892295
-0.070400007 0.25813335 0.70400006 15129257
-0.069059052 0.25813335 0.70400006 15524794
-0.067718096 0.25813335 0.70400006 16774861
-0.1467019 0.25689429 0.69700003 15722430
-0.14516573 0.25652573 0.69600004 14735798
-0.14342667 0.25578856 0.69400001 11972492
-0.1419 0.25542 0.69300002 11840370
-0.14058001 0.25542 0.69300002 10261338
-0.13865715 0.2543143 0.69000006 10063198
-0.13734286 0.2543143 0.69000006 10128991
-0.13524002 0.25284001 0.68600005 9603422
-0.13393334 0.25284001 0.68600005 9471836
-0.13224 0.25210285 0.68400002 9734233
-0.13093714 0.25210285 0.68400002 9865819
-0.12925524 0.25136572 0.68200004 9603174
-0.1279562 0.25136572 0.68200004 9274209
-0.12628572 0.25062856 0.68000001 9209175
-0.12499048 0.25062856 0.68000001 9274968
-0.12351334 0.25026 0.67900002 9144145
-0.12222001 0.25026 0.67900002 9209938
-0.12092667 0.25026 0.67900002 9209688
-0.11963334 0.25026 0.67900002 9143895
-0.11834 0.25026 0.67900002 9274193
-0.11721905 0.25062856 0.68000001 9208400
-0.11575333 0.25026 0.67900002 8879970
-0.11446001 0.25026 0.67900002 8748384
-0.11316667 0.25026 0.67900002 8814676
-0.11187334 0.25026 0.67900002 9275227
-0.11058 0.25026 0.67900002 8880719
-0.10928667 0.25026 0.67900002 8749133
-0.10799333 0.25026 0.67900002 8880208
-0.10654286 0.24989145 0.67800003 9077587
-0.10525143 0.24989145 0.67800003 9669465
-0.10396 0.24989145 0.67800003 9669465
-0.10282 0.25026 0.67900002 9603922
-0.10152667 0.25026 0.67900002 9538129
-0.10023333 0.25026 0.67900002 9538131
-0.09894 0.25026 0.67900002 10130268
-0.097646669 0.25026 0.67900002 10261338
-0.096495233 0.25062856 0.68000001 10985061
-0.095199995 0.25062856 0.68000001 10721637
-0.093904756 0.25062856 0.68000001 10984809
-0.092881911 0.25136572 0.68200004 10984559
-0.091582857 0.25136572 0.68200004 10984559
-0.090416193 0.25173429 0.68300003 10919018
-0.089115247 0.25173429 0.68300003 10787432
-0.087942861 0.25210285 0.68400002 11050868
-0.086893335 0.25284001 0.68600005 11050868
-0.085711427 0.25320858 0.68700004 11116409
-0.084525719 0.25357714 0.68800002 11050616
-0.08345715 0.2543143 0.69000006 10656596
-0.082142867 0.2543143 0.69000006 10261838
-0.081180006 0.25542 0.69300002 9605216
-0.079860002 0.25542 0.69300002 8355149
-0.078653328 0.25578856 0.69400001 8948556
-0.077665716 0.25689429 0.69700003 10527588
-0.076338097 0.25689429 0.69700003 11446898
-0.075656191 0.25910571 0.70300001 11973242
-0.074422859 0.25947431 0.70400006 12104310
-0.073289528 0.26021144 0.70600003 12762240
-0.071944758 0.26021144 0.70600003 12892043
-0.070600003 0.26021144 0.70600003 15194798
-0.069059052 0.25947431 0.70400006 15327413
-0.067718096 0.25947431 0.70400006 16775373
-0.1467019 0.25822189 0.69700003 15919559
-0.14537428 0.25822189 0.69700003 14867390
-0.14342667 0.25711048 0.69400001 11906705
-0.1419 0.25674 0.69300002 11840886
-0.14058001 0.25674 0.69300002 10327647
-0.13865715 0.25562862 0.69000006 10129248
-0.13734286 0.25562862 0.69000006 9866076
-0.13543716 0.25451714 0.68700004 9537881
-0.13393334 0.25414667 0.68600005 9603674
-0.13224 0.25340572 0.68400002 9801051
-0.13093714 0.25340572 0.68400002 9340500
-0.12944476 0.25303525 0.68300003 9340259
-0.1279562 0.25266477 0.68200004 9208673
-0.12628572 0.2519238 0.68000001 8748883
-0.12499048 0.2519238 0.68000001 9012055
-0.12369524 0.2519238 0.68000001 9078352
-0.12222001 0.25155336 0.67900002 9078352
-0.12092667 0.25155336 0.67900002 8880219
