# .PCD v0.7 - Point Cloud Data file format
VERSION 0.7
FIELDS x y z rgba
SIZE 4 4 4 4
TYPE F F F U
COUNT 1 1 1 1
WIDTH 1142
HEIGHT 1
VIEWPOINT 0 0 0 1 0 0 0
POINTS 1142
DATA ascii
-0.08589524 0.11314477 0.62200004 7561790
-0.0844381 0.11278095 0.62 6369298
-0.083122857 0.11259905 0.61900002 6435091
-0.081811436 0.11241715 0.61800003 6829875
-0.080634288 0.11241715 0.61800003 6829875
-0.079200007 0.11205334 0.61600006 6500380
-0.0779 0.11187143 0.61500001 6566173
-0.076728575 0.11187143 0.61500001 6827565
-0.075434282 0.11168952 0.61400002 6761772
-0.074264765 0.11168952 0.61400002 6762272
-0.07309524 0.11168952 0.61400002 6762272
-0.071925715 0.11168952 0.61400002 6696982
-0.070756197 0.11168952 0.61400002 6631189
-0.069586664 0.11168952 0.61400002 6630173
-0.068305716 0.11150762 0.61300004 6695966
-0.067138098 0.11150762 0.61300004 6500380
-0.06597048 0.11150762 0.61300004 6368794
-0.064908572 0.11168952 0.61400002 6434587
-0.063739046 0.11168952 0.61400002 6500380
-0.062569529 0.11168952 0.61400002 6631456
-0.061500005 0.11187143 0.61500001 6631456
-0.060426671 0.11205334 0.61600006 6500647
-0.059253339 0.11205334 0.61600006 6434854
-0.058080003 0.11205334 0.61600006 6631479
-0.056906674 0.11205334 0.61600006 6565686
-0.055914287 0.11241715 0.61800003 6828067
-0.054737143 0.11241715 0.61800003 6893860
-0.053560004 0.11241715 0.61800003 6828067
-0.05255238 0.11278095 0.62 6696481
-0.051454291 0.11296286 0.62100005 7157032
-0.050433334 0.11332667 0.62300003 7617583
-0.049246669 0.11332667 0.62300003 7487014
-0.048137143 0.11350857 0.62400001 7223842
-0.08589524 0.11432952 0.62200004 8022593
-0.084574297 0.11414573 0.62100005 6501400
-0.083257139 0.11396191 0.62 6172435
-0.081811436 0.11359429 0.61800003 6763580
-0.080634288 0.11359429 0.61800003 6763580
-0.079200007 0.11322667 0.61600006 6500647
-0.0779 0.11304285 0.61500001 6434854
-0.076728575 0.11304285 0.61500001 6631206
-0.075434282 0.11285906 0.61400002 6631206
-0.074264765 0.11285906 0.61400002 6631456
-0.07309524 0.11285906 0.61400002 6499870
-0.071925715 0.11285906 0.61400002 6631456
-0.070756197 0.11285906 0.61400002 6631456
-0.069586664 0.11285906 0.61400002 6695716
-0.068305716 0.11267524 0.61300004 6761509
-0.067138098 0.11267524 0.61300004 6631456
-0.06597048 0.11267524 0.61300004 6565663
-0.064908572 0.11285906 0.61400002 6565653
-0.063739046 0.11285906 0.61400002 6565653
-0.062569529 0.11285906 0.61400002 6696479
-0.061500005 0.11304285 0.61500001 6762272
-0.060426671 0.11322667 0.61600006 6631456
-0.059253339 0.11322667 0.61600006 6631456
-0.058080003 0.11322667 0.61600006 6631456
-0.056906674 0.11322667 0.61600006 6697249
-0.055914287 0.11359429 0.61800003 6893860
-0.054737143 0.11359429 0.61800003 6893860
-0.053560004 0.11359429 0.61800003 6893608
-0.05255238 0.11396191 0.62 7156780
-0.051454291 0.11414573 0.62100005 7354919
-0.050433334 0.11451334 0.62300003 7420712
-0.049246669 0.11451334 0.62300003 7420463
-0.047905717 0.11414573 0.62100005 7025705
-0.046647619 0.11396191 0.62 6303246
-0.045466669 0.11396191 0.62 12816753
-0.0844381 0.11514286 0.62 6435628
-0.083257139 0.11514286 0.62 5975077
-0.08194381 0.11495715 0.61900002 6763580
-0.080634288 0.11477143 0.61800003 6697787
-0.079200007 0.11440001 0.61600006 6762792
-0.078026675 0.11440001 0.61600006 6696999
-0.076728575 0.11421429 0.61500001 6631206
-0.075434282 0.11402857 0.61400002 6696999
-0.074264765 0.11402857 0.61400002 6631456
-0.07309524 0.11402857 0.61400002 6631456
-0.071925715 0.11402857 0.61400002 6564643
-0.070756197 0.11402857 0.61400002 6630436
-0.069586664 0.11402857 0.61400002 6630443
-0.068305716 0.11384286 0.61300004 6564650
-0.067138098 0.11384286 0.61300004 6697249
-0.06597048 0.11384286 0.61300004 6697249
-0.064908572 0.11402857 0.61400002 6631959
-0.063739046 0.11402857 0.61400002 6566166
-0.062569529 0.11402857 0.61400002 6631456
-0.061500005 0.11421429 0.61500001 6631456
-0.060426671 0.11440001 0.61600006 6631959
-0.059253339 0.11440001 0.61600006 6500373
-0.058080003 0.11440001 0.61600006 6500612
-0.05709143 0.11477143 0.61800003 6632198
-0.055914287 0.11477143 0.61800003 6828314
-0.054825716 0.11495715 0.61900002 7025693
-0.053646669 0.11495715 0.61900002 7025714
-0.052637149 0.11532858 0.62100005 7223093
-0.051537145 0.11551429 0.62200004 7224353
-0.050433334 0.11570001 0.62300003 7290146
-0.049246669 0.11570001 0.62300003 7288632
-0.047828574 0.11514286 0.62 6170151
-0.04657238 0.11495715 0.61900002 6565403
-0.045393337 0.11495715 0.61900002 13539461
-0.086171433 0.11707429 0.62400001 9075792
-0.084846668 0.11688667 0.62300003 7292725
-0.083525717 0.11669905 0.62200004 5713693
-0.082076192 0.11632381 0.62 6696749
-0.080764763 0.11613619 0.61900002 6762542
-0.079457149 0.11594857 0.61800003 6893608
-0.078026675 0.11557335 0.61600006 6827815
-0.076728575 0.11538571 0.61500001 6696999
-0.075557142 0.11538571 0.61500001 6631206
-0.074264765 0.1151981 0.61400002 6696999
-0.07309524 0.1151981 0.61400002 6696999
-0.071925715 0.1151981 0.61400002 6695716
-0.070756197 0.1151981 0.61400002 6827302
-0.069586664 0.1151981 0.61400002 6499643
-0.068417147 0.1151981 0.61400002 6565436
-0.067247622 0.1151981 0.61400002 6566690
-0.066078097 0.1151981 0.61400002 6500897
-0.064908572 0.1151981 0.61400002 6697752
-0.063739046 0.1151981 0.61400002 6631959
-0.062569529 0.1151981 0.61400002 6762521
-0.061500005 0.11538571 0.61500001 6894107
-0.060426671 0.11557335 0.61600006 6763042
-0.059253339 0.11557335 0.61600006 6565663
-0.058268573 0.11594857 0.61800003 6697249
-0.05709143 0.11594857 0.61800003 6697249
-0.056004763 0.11613619 0.61900002 7024420
-0.054914284 0.11632381 0.62 7024420
-0.053733334 0.11632381 0.62 7222825
-0.052637149 0.11651144 0.62100005 7288618
-0.051537145 0.11669905 0.62200004 7092758
-0.050433334 0.11688667 0.62300003 7290137
-0.049246669 0.11688667 0.62300003 6764332
-0.047828574 0.11632381 0.62 6237988
-0.04657238 0.11613619 0.61900002 7355704
-0.045393337 0.11613619 0.61900002 14921899
-0.086171433 0.11826286 0.62400001 9799256
-0.084846668 0.11807334 0.62300003 7292498
-0.083659999 0.11807334 0.62300003 5647673
-0.082208581 0.1176943 0.62100005 6631206
-0.080895238 0.11750476 0.62 6762792
-0.079585716 0.11731524 0.61900002 6893860
-0.078280002 0.11712572 0.61800003 6893860
-0.077102862 0.11712572 0.61800003 6697249
-0.075557142 0.11655714 0.61500001 6697249
-0.074264765 0.11636762 0.61400002 6696999
-0.07309524 0.11636762 0.61400002 6631206
-0.071925715 0.11636762 0.61400002 6630693
-0.070756197 0.11636762 0.61400002 6696486
-0.069586664 0.11636762 0.61400002 6564934
-0.068305716 0.1161781 0.61300004 6564934
-0.067138098 0.1161781 0.61300004 6696999
-0.066078097 0.11636762 0.61400002 6631206
-0.064908572 0.11636762 0.61400002 6697489
-0.063739046 0.11636762 0.61400002 6763282
-0.062569529 0.11636762 0.61400002 6828314
-0.061500005 0.11655714 0.61500001 6828314
-0.060426671 0.11674668 0.61600006 6697249
-0.059253339 0.11674668 0.61600006 6631456
-0.058268573 0.11712572 0.61800003 6828592
-0.05709143 0.11712572 0.61800003 6894385
-0.056004763 0.11731524 0.61900002 6827815
-0.054914284 0.11750476 0.62 6630436
-0.053733334 0.11750476 0.62 7091745
-0.052721906 0.11788382 0.62200004 7025952
-0.051537145 0.11788382 0.62200004 6960656
-0.050433334 0.11807334 0.62300003 6829070
-0.049246669 0.11807334 0.62300003 7158053
-0.04806 0.11807334 0.62300003 10250324
-0.046948571 0.11826286 0.62400001 11042460
-0.086309522 0.11964285 0.625 10127967
-0.084982857 0.11945143 0.62400001 8410958
-0.083659999 0.11926001 0.62300003 5581859
-0.082340956 0.11906858 0.62200004 6892801
-0.08102572 0.11887715 0.62100005 7353352
-0.079714283 0.11868571 0.62 6959910
-0.078406669 0.11849429 0.61900002 6959910
-0.077102862 0.11830286 0.61800003 6763042
-0.075557142 0.11772858 0.61500001 6697249
-0.074385718 0.11772858 0.61500001 6762775
-0.07309524 0.11753714 0.61400002 6762775
-0.071925715 0.11753714 0.61400002 6434338
-0.070756197 0.11753714 0.61400002 6368545
-0.069586664 0.11753714 0.61400002 6499893
-0.068305716 0.11734572 0.61300004 6565686
-0.067138098 0.11734572 0.61300004 6631206
-0.06597048 0.11734572 0.61300004 6631206
-0.064802863 0.11734572 0.61300004 6631959
-0.063739046 0.11753714 0.61400002 6631959
-0.062569529 0.11753714 0.61400002 6697249
-0.061500005 0.11772858 0.61500001 6631456
-0.060426671 0.11792001 0.61600006 6631959
-0.059253339 0.11792001 0.61600006 6697752
-0.058268573 0.11830286 0.61800003 6893358
-0.057183813 0.11849429 0.61900002 6827565
-0.056004763 0.11849429 0.61900002 6631206
-0.055002861 0.11887715 0.62100005 6433827
-0.053820003 0.11887715 0.62100005 6697249
-0.052721906 0.11906858 0.62200004 7092007
-0.051537145 0.11906858 0.62200004 7158551
-0.050433334 0.11926001 0.62300003 6566414
-0.049246669 0.11926001 0.62300003 7815191
-0.04806 0.11926001 0.62300003 11170634
-0.046948571 0.11945143 0.62400001 12754308
-0.086309522 0.12083333 0.625 11706488
-0.085119046 0.12083333 0.625 8544129
-0.083794288 0.12064 0.62400001 6833511
-0.082340956 0.12025334 0.62200004 6830338
-0.08102572 0.12006001 0.62100005 6567168
-0.079714283 0.11986667 0.62 6696999
-0.078406669 0.11967333 0.61900002 6696999
-0.077102862 0.11948001 0.61800003 6763291
-0.075680003 0.11909334 0.61600006 6434326
-0.074385718 0.1189 0.61500001 6565637
-0.073214285 0.1189 0.61500001 6828809
-0.071925715 0.11870667 0.61400002 6565403
-0.070756197 0.11870667 0.61400002 6565403
-0.069586664 0.11870667 0.61400002 6500131
-0.068305716 0.11851335 0.61300004 6565924
-0.067138098 0.11851335 0.61300004 6565403
-0.06597048 0.11851335 0.61300004 6565403
-0.064802863 0.11851335 0.61300004 6631456
-0.063739046 0.11870667 0.61400002 6499870
-0.062569529 0.11870667 0.61400002 6564900
-0.061500005 0.1189 0.61500001 6564900
-0.060426671 0.11909334 0.61600006 6434321
-0.059445716 0.11948001 0.61800003 6763286
-0.058268573 0.11948001 0.61800003 6631206
-0.057183813 0.11967333 0.61900002 6565413
-0.056095239 0.11986667 0.62 6630956
-0.055002861 0.12006001 0.62100005 6565163
-0.053820003 0.12006001 0.62100005 6960680
-0.052721906 0.12025334 0.62200004 7618610
-0.051537145 0.12025334 0.62200004 7423022
-0.050433334 0.12044667 0.62300003 8212538
-0.049246669 0.12044667 0.62300003 8280096
-0.04806 0.12044667 0.62300003 10977609
-0.046948571 0.12064 0.62400001 11637306
-0.085391432 0.12241429 0.62700003 10191208
-0.08392857 0.12202381 0.625 7033144
-0.08247333 0.12163334 0.62300003 7818291
-0.081156194 0.1214381 0.62200004 6173466
-0.079714283 0.12104762 0.62 6564874
-0.078533329 0.12104762 0.62 6893839
-0.077227622 0.12085238 0.61900002 6763795
-0.075925715 0.12065715 0.61800003 6434830
-0.074385718 0.12007143 0.61500001 6631430
-0.073214285 0.12007143 0.61500001 6763016
-0.07204286 0.12007143 0.61500001 6631180
-0.070756197 0.11987619 0.61400002 6696973
-0.069586664 0.11987619 0.61400002 6762272
-0.068305716 0.11968096 0.61300004 6762272
-0.067138098 0.11968096 0.61300004 6828065
-0.06597048 0.11968096 0.61300004 6696479
-0.064908572 0.11987619 0.61400002 6695966
-0.063739046 0.11987619 0.61400002 6630173
-0.062569529 0.11987619 0.61400002 6367765
-0.061500005 0.12007143 0.61500001 6565144
-0.060426671 0.12026668 0.61600006 6565644
-0.059445716 0.12065715 0.61800003 6565644
-0.058268573 0.12065715 0.61800003 6565403
-0.057183813 0.12085238 0.61900002 6762782
-0.056095239 0.12104762 0.62 6894107
-0.055002861 0.12124287 0.62100005 6762521
-0.053820003 0.12124287 0.62100005 7487770
-0.052721906 0.1214381 0.62200004 7619356
-0.051537145 0.1214381 0.62200004 7423524
-0.050433334 0.12163334 0.62300003 8278833
-0.049246669 0.12163334 0.62300003 8346920
-0.04806 0.12163334 0.62300003 10320710
-0.046948571 0.12182858 0.62400001 9994028
-0.085527621 0.12380572 0.62800002 8480330
-0.08392857 0.12321428 0.625 8546123
-0.08247333 0.12282 0.62300003 7950939
-0.081156194 0.12262287 0.62200004 6635079
-0.079842865 0.12242573 0.62100005 7029018
-0.078533329 0.12222857 0.62 7357983
-0.077352382 0.12222857 0.62 7094291
-0.075925715 0.12183429 0.61800003 6502154
-0.074506678 0.12144001 0.61600006 6895640
-0.073333338 0.12144001 0.61600006 7224605
-0.07204286 0.12124286 0.61500001 6828564
-0.070871428 0.12124286 0.61500001 6762771
-0.069699995 0.12124286 0.61500001 6893860
-0.068417147 0.12104572 0.61400002 6893860
-0.067247622 0.12104572 0.61400002 6959910
-0.066078097 0.12104572 0.61400002 6959910
-0.064908572 0.12104572 0.61400002 6959910
-0.063739046 0.12104572 0.61400002 6894117
-0.06267143 0.12124286 0.61500001 7093021
-0.061600007 0.12144001 0.61600006 7290400
-0.060426671 0.12144001 0.61600006 7028514
-0.059445716 0.12183429 0.61800003 6962721
-0.058268573 0.12183429 0.61800003 7292199
-0.057183813 0.12203144 0.61900002 7818543
-0.056095239 0.12222857 0.62 7818793
-0.055002861 0.12242573 0.62100005 7687207
-0.053820003 0.12242573 0.62100005 7686944
-0.052721906 0.12262287 0.62200004 8015909
-0.051620003 0.12282 0.62300003 7754533
-0.050433334 0.12282 0.62300003 8215084
-0.049246669 0.12282 0.62300003 8346920
-0.048137143 0.12301714 0.62400001 8346920
-0.04702381 0.12321428 0.625 8869930
-0.085527621 0.12500191 0.62800002 8349473
-0.08392857 0.12440476 0.625 7888922
-0.082605712 0.12420572 0.62400001 8280908
-0.081286669 0.12400667 0.62300003 6833462
-0.079971433 0.12380762 0.62200004 7226906
-0.078660011 0.12360859 0.62100005 7490078
-0.077352382 0.12340952 0.62 7359001
-0.076048575 0.12321047 0.61900002 7095829
-0.074748576 0.12301143 0.61800003 6896676
-0.073571429 0.12301143 0.61800003 6896676
-0.072160006 0.12261335 0.61600006 6895890
-0.070871428 0.12241429 0.61500001 6764304
-0.069699995 0.12241429 0.61500001 6829068
-0.06852857 0.12241429 0.61500001 7026447
-0.067357138 0.12241429 0.61500001 7157018
-0.066078097 0.12221524 0.61400002 7157018
-0.064908572 0.12221524 0.61400002 7092251
-0.063739046 0.12221524 0.61400002 7223837
-0.06267143 0.12241429 0.61500001 7225632
-0.061600007 0.12261335 0.61600006 7094046
-0.06062286 0.12301143 0.61800003 6963475
-0.059445716 0.12301143 0.61800003 7095061
-0.058268573 0.12301143 0.61800003 7160613
-0.057183813 0.12321047 0.61900002 7884336
-0.056095239 0.12340952 0.62 7819815
-0.055002861 0.12360859 0.62100005 7754022
-0.053820003 0.12360859 0.62100005 7688468
-0.052721906 0.12380762 0.62200004 7820054
-0.051620003 0.12400667 0.62300003 7688738
-0.050433334 0.12400667 0.62300003 8346668
-0.049246669 0.12400667 0.62300003 8281663
-0.048137143 0.12420572 0.62400001 7294768
-0.04702381 0.12440476 0.625 8209920
-0.046200003 0.12540001 0.63000005 12091695
-0.045000002 0.12540001 0.63000005 14071704
-0.085391432 0.12599716 0.62700003 8613965
-0.08392857 0.12559524 0.625 6377003
-0.082605712 0.12539428 0.62400001 7162923
-0.081286669 0.12519333 0.62300003 7360302
-0.079971433 0.12499239 0.62200004 7293719
-0.078786671 0.12499239 0.62200004 7293719
-0.07747715 0.12479144 0.62100005 7360009
-0.076171428 0.12459048 0.62 7623181
-0.074869521 0.12438953 0.61900002 7556148
-0.073690474 0.12438953 0.61900002 7424562
-0.072394289 0.12418858 0.61800003 7357468
-0.071217142 0.12418858 0.61800003 7423261
-0.07004001 0.12418858 0.61800003 7357468
-0.068640009 0.12378668 0.61600006 7620640
-0.067466669 0.12378668 0.61600006 7555619
-0.066293344 0.12378668 0.61600006 7489826
-0.065120004 0.12378668 0.61600006 7291425
-0.063946672 0.12378668 0.61600006 7423011
-0.062773332 0.12378668 0.61600006 7359001
-0.061799999 0.12418858 0.61800003 7359001
-0.06062286 0.12418858 0.61800003 7292699
-0.059445716 0.12418858 0.61800003 7819043
-0.05836286 0.12438953 0.61900002 7557899
-0.057276189 0.12459048 0.62 7689485
-0.056185719 0.12479144 0.62100005 7687970
-0.055002861 0.12479144 0.62100005 7622177
-0.053820003 0.12479144 0.62100005 7886601
-0.052721906 0.12499239 0.62200004 8149773
-0.051620003 0.12519333 0.62300003 7557152
-0.050433334 0.12519333 0.62300003 7622945
-0.049246669 0.12519333 0.62300003 7027511
-0.048214287 0.12559524 0.625 5251100
-0.047324762 0.12639904 0.62900001 6427392
-0.046200003 0.12660001 0.63000005 11493448
-0.045000002 0.12660001 0.63000005 13018716
-0.043869525 0.12680095 0.63100004 15847815
-0.085391432 0.12719144 0.62700003 9600342
-0.08392857 0.12678571 0.625 5784348
-0.082605712 0.12658286 0.62400001 6306322
-0.081286669 0.12638 0.62300003 7095838
-0.079971433 0.12617715 0.62200004 7491370
-0.078786671 0.12617715 0.62200004 7293991
-0.07747715 0.1259743 0.62100005 6898963
-0.076171428 0.12577142 0.62 7359514
-0.074869521 0.12556857 0.61900002 7490607
-0.073690474 0.12556857 0.61900002 7556400
-0.072394289 0.12536572 0.61800003 7292195
-0.071217142 0.12536572 0.61800003 7226402
-0.07004001 0.12536572 0.61800003 7293219
-0.068862855 0.12536572 0.61800003 7359012
-0.067466669 0.12496001 0.61600006 7490868
-0.066293344 0.12496001 0.61600006 7293489
-0.065331437 0.12536572 0.61800003 7292699
-0.064154282 0.12536572 0.61800003 7424285
-0.06297715 0.12536572 0.61800003 7227676
-0.061799999 0.12536572 0.61800003 7227676
-0.06062286 0.12536572 0.61800003 6832409
-0.059445716 0.12536572 0.61800003 7161374
-0.05836286 0.12556857 0.61900002 7292949
-0.057368573 0.1259743 0.62100005 7292949
-0.056185719 0.1259743 0.62100005 7029516
-0.055091433 0.12617715 0.62200004 7884825
-0.053906672 0.12617715 0.62200004 8017714
-0.052721906 0.12617715 0.62200004 8017714
-0.051620003 0.12638 0.62300003 7292969
-0.050433334 0.12638 0.62300003 7227176
-0.049325712 0.12658286 0.62400001 6764833
-0.048368573 0.12719144 0.62700003 5843731
-0.047400005 0.12780002 0.63000005 5903360
-0.046200003 0.12780002 0.63000005 8732452
-0.045071434 0.12800287 0.63100004 11238187
-0.043869525 0.12800287 0.63100004 15317353
-0.085391432 0.12838572 0.62700003 8152397
-0.08392857 0.12797619 0.625 5389091
-0.082605712 0.12777144 0.62400001 5451307
-0.081286669 0.12756667 0.62300003 5188135
-0.079971433 0.12736191 0.62200004 6370591
-0.078786671 0.12736191 0.62200004 6896935
-0.07747715 0.12715715 0.62100005 6766085
-0.076171428 0.12695238 0.62 6831878
-0.074869521 0.12674762 0.61900002 7095833
-0.073690474 0.12674762 0.61900002 7293212
-0.072394289 0.12654287 0.61800003 7161883
-0.071217142 0.12654287 0.61800003 6964504
-0.07004001 0.12654287 0.61800003 7030560
-0.068862855 0.12654287 0.61800003 7227939
-0.067685723 0.12654287 0.61800003 7227709
-0.066508569 0.12654287 0.61800003 7030330
-0.065331437 0.12654287 0.61800003 7096090
-0.064154282 0.12654287 0.61800003 7227676
-0.06297715 0.12654287 0.61800003 7162133
-0.061799999 0.12654287 0.61800003 7030547
-0.06062286 0.12654287 0.61800003 6898450
-0.059541903 0.12674762 0.61900002 7030036
-0.058457144 0.12695238 0.62 7161617
-0.057368573 0.12715715 0.62100005 7293203
-0.056276195 0.12736191 0.62200004 7029268
-0.055091433 0.12736191 0.62200004 6963475
-0.053906672 0.12736191 0.62200004 6500131
-0.052806668 0.12756667 0.62300003 6105373
-0.051620003 0.12756667 0.62300003 6236187
-0.050514285 0.12777144 0.62400001 6236187
-0.04956286 0.12838572 0.62700003 6435607
-0.048368573 0.12838572 0.62700003 6698779
-0.047475241 0.12920476 0.63100004 6168832
-0.046273336 0.12920476 0.63100004 5576704
-0.045071434 0.12920476 0.63100004 8801024
-0.04393905 0.12940952 0.63200003 13077556
-0.085391432 0.12958001 0.62700003 6966557
-0.084197149 0.12958001 0.62700003 4926976
-0.082738094 0.12916666 0.625 5254441
-0.081417143 0.12896 0.62400001 4991269
-0.0801 0.12875333 0.62300003 5711114
-0.078786671 0.12854668 0.62200004 5842700
-0.07747715 0.12834001 0.62100005 5974016
-0.076171428 0.12813334 0.62 6368768
-0.074990474 0.12813334 0.62 6567963
-0.073690474 0.12792666 0.61900002 7094307
-0.072511427 0.12792666 0.61900002 6766892
-0.07133238 0.12792666 0.61900002 6832685
-0.07004001 0.12772 0.61800003 6899507
-0.068862855 0.12772 0.61800003 6833714
-0.067685723 0.12772 0.61800003 6833205
-0.066508569 0.12772 0.61800003 6767412
-0.065437146 0.12792666 0.61900002 6833455
-0.064258099 0.12792666 0.61900002 6636076
-0.063079052 0.12792666 0.61900002 6766122
-0.061900001 0.12792666 0.61900002 6634536
-0.06072095 0.12792666 0.61900002 6633758
-0.059541903 0.12792666 0.61900002 6765344
-0.058457144 0.12813334 0.62 6831396
-0.057368573 0.12834001 0.62100005 6831396
-0.056276195 0.12854668 0.62200004 6500897
-0.055180002 0.12875333 0.62300003 5514002
-0.053993333 0.12875333 0.62300003 5708032
-0.052806668 0.12875333 0.62300003 5642240
-0.051620003 0.12875333 0.62300003 5708288
-0.050514285 0.12896 0.62400001 6826767
-0.049404763 0.12916666 0.625 6502154
-0.048368573 0.12958001 0.62700003 6831119
-0.047475241 0.13040666 0.63100004 6500364
-0.046273336 0.13040666 0.63100004 5250304
-0.045142859 0.13061334 0.63200003 7083776
-0.044078097 0.13102667 0.634 11426106
-0.085391432 0.13077429 0.62700003 4730122
-0.084197149 0.13077429 0.62700003 4861708
-0.082738094 0.13035715 0.625 5190192
-0.081417143 0.13014857 0.62400001 5124399
-0.0801 0.12994 0.62300003 5319697
-0.078786671 0.12973143 0.62200004 5056525
-0.07747715 0.12952286 0.62100005 5382144
-0.076171428 0.12931429 0.62 5513728
-0.074990474 0.12931429 0.62 5709584
-0.073809519 0.12931429 0.62 5841170
-0.072511427 0.12910572 0.61900002 5578518
-0.07133238 0.12910572 0.61900002 5381139
-0.070153333 0.12910572 0.61900002 5710867
-0.068974286 0.12910572 0.61900002 6171418
-0.067795239 0.12910572 0.61900002 5777413
-0.066616185 0.12910572 0.61900002 5777413
-0.065437146 0.12910572 0.61900002 5710104
-0.064258099 0.12910572 0.61900002 5578518
-0.063079052 0.12910572 0.61900002 5577514
-0.061900001 0.12910572 0.61900002 5182756
-0.06072095 0.12910572 0.61900002 5509895
-0.059541903 0.12910572 0.61900002 5773067
-0.058457144 0.12931429 0.62 5576226
-0.057368573 0.12952286 0.62100005 5378847
-0.056276195 0.12973143 0.62200004 5708582
-0.055180002 0.12994 0.62300003 5313824
-0.053993333 0.12994 0.62300003 5444608
-0.052806668 0.12994 0.62300003 6234119
-0.051702857 0.13014857 0.62400001 6238980
-0.050514285 0.13014857 0.62400001 6633738
-0.049404763 0.13035715 0.625 6568197
-0.048368573 0.13077429 0.62700003 6831369
-0.047475241 0.13160858 0.63100004 6565403
-0.046273336 0.13160858 0.63100004 6039059
-0.045142859 0.13181715 0.63200003 7218489
-0.044078097 0.13223429 0.634 7086903
-0.042938098 0.13244288 0.63500005 9196800
-0.088480003 0.13302097 0.63200003 8349748
-0.087138094 0.13281047 0.63100004 4796928
-0.085391432 0.13196857 0.62700003 5125376
-0.08392857 0.13154761 0.625 5322752
-0.082605712 0.13133715 0.62400001 5255211
-0.081286669 0.13112666 0.62300003 4663074
-0.079971433 0.13091619 0.62200004 4992534
-0.078786671 0.13091619 0.62200004 4597776
-0.07747715 0.13070573 0.62100005 5251072
-0.076171428 0.13049524 0.62 5514240
-0.074990474 0.13049524 0.62 5709071
-0.073809519 0.13049524 0.62 5709071
-0.072628573 0.13049524 0.62 5578005
-0.071447626 0.13049524 0.62 5314833
-0.070153333 0.13028477 0.61900002 5379846
-0.068974286 0.13028477 0.61900002 5643018
-0.067795239 0.13028477 0.61900002 5510912
-0.066616185 0.13028477 0.61900002 5379328
-0.065437146 0.13028477 0.61900002 4983296
-0.064258099 0.13028477 0.61900002 5904393
-0.063079052 0.13028477 0.61900002 5905448
-0.061900001 0.13028477 0.61900002 5444897
-0.06072095 0.13028477 0.61900002 5509895
-0.059541903 0.13028477 0.61900002 5575688
-0.058457144 0.13049524 0.62 5509895
-0.057368573 0.13070573 0.62100005 5707274
-0.056276195 0.13091619 0.62200004 5970991
-0.055180002 0.13112666 0.62300003 5707819
-0.053993333 0.13112666 0.62300003 5709056
-0.052806668 0.13112666 0.62300003 6235400
-0.051702857 0.13133715 0.62400001 6502170
-0.050514285 0.13133715 0.62400001 6238998
-0.049404763 0.13154761 0.625 6238980
-0.048368573 0.13196857 0.62700003 6370566
-0.047475241 0.13281047 0.63100004 6697498
-0.046273336 0.13281047 0.63100004 6631705
-0.045142859 0.13302097 0.63200003 7155249
-0.044078097 0.1334419 0.634 5313045
-0.042938098 0.13365239 0.63500005 6951168
-0.091319054 0.13486192 0.63500005 12102243
-0.089967623 0.13464953 0.634 5588736
-0.088480003 0.13422476 0.63200003 5258291
-0.087138094 0.13401239 0.63100004 4600361
-0.085527621 0.13337524 0.62800002 5389859
-0.08392857 0.1327381 0.625 7034684
-0.082605712 0.13252573 0.62400001 6641408
-0.081286669 0.13231333 0.62300003 4470272
-0.079971433 0.13210095 0.62200004 4463653
-0.078786671 0.13210095 0.62200004 4463653
-0.07747715 0.13188858 0.62100005 5315847
-0.076171428 0.13167618 0.62 5447433
-0.074990474 0.13167618 0.62 5512715
-0.073809519 0.13167618 0.62 5578508
-0.072511427 0.13146381 0.61900002 5644311
-0.07133238 0.13146381 0.61900002 5512725
-0.070153333 0.13146381 0.61900002 5774873
-0.068974286 0.13146381 0.61900002 5840666
-0.067795239 0.13146381 0.61900002 5643028
-0.066616185 0.13146381 0.61900002 5643028
-0.065437146 0.13146381 0.61900002 5709824
-0.064258099 0.13146381 0.61900002 6170368
-0.06297715 0.13125144 0.61800003 5974062
-0.061799999 0.13125144 0.61800003 5710890
-0.06062286 0.13125144 0.61800003 5907476
-0.059541903 0.13146381 0.61900002 5907476
-0.058457144 0.13167618 0.62 5774873
-0.057368573 0.13188858 0.62100005 5906459
-0.056276195 0.13210095 0.62200004 5907767
-0.055180002 0.13231333 0.62300003 5776181
-0.053993333 0.13231333 0.62300003 5777174
-0.052806668 0.13231333 0.62300003 6040346
-0.051702857 0.13252573 0.62400001 6172421
-0.050514285 0.13252573 0.62400001 6106628
-0.049404763 0.1327381 0.625 6238214
-0.048368573 0.13316287 0.62700003 6501386
-0.047475241 0.13401239 0.63100004 6763042
-0.046273336 0.13401239 0.63100004 7289386
-0.045142859 0.13422476 0.63200003 7353900
-0.044078097 0.13464953 0.634 6235419
-0.042938098 0.13486192 0.63500005 6821914
-0.091319054 0.13607144 0.63500005 10719577
-0.089967623 0.13585714 0.634 5587723
-0.088480003 0.13542858 0.63200003 4735510
-0.087138094 0.13521428 0.63100004 4209166
-0.085527621 0.13457143 0.62800002 5258793
-0.084197149 0.13435715 0.62700003 6903618
-0.082738094 0.13392857 0.625 6969404
-0.081286669 0.13349999 0.62300003 4008719
-0.079971433 0.13328573 0.62200004 4593172
-0.078786671 0.13328573 0.62200004 4856344
-0.07747715 0.13307144 0.62100005 5315847
-0.076171428 0.13285714 0.62 5447433
-0.074990474 0.13285714 0.62 5446409
-0.073809519 0.13285714 0.62 5577995
-0.072511427 0.13264287 0.61900002 5644311
-0.07133238 0.13264287 0.61900002 5973276
-0.070153333 0.13264287 0.61900002 5907733
-0.068974286 0.13264287 0.61900002 6039319
-0.067795239 0.13264287 0.61900002 5841930
-0.066616185 0.13264287 0.61900002 6039309
-0.065437146 0.13264287 0.61900002 5843718
-0.064258099 0.13264287 0.61900002 5975304
-0.06297715 0.13242857 0.61800003 5974062
-0.061799999 0.13242857 0.61800003 5776683
-0.06062286 0.13242857 0.61800003 5646611
-0.059541903 0.13264287 0.61900002 5646611
-0.058457144 0.13285714 0.62 5580305
-0.057368573 0.13307144 0.62100005 5711891
-0.056276195 0.13328573 0.62200004 5909550
-0.055180002 0.13349999 0.62300003 5712171
-0.054079998 0.13371429 0.62400001 5712151
-0.052891426 0.13371429 0.62400001 5646358
-0.051702857 0.13371429 0.62400001 5777677
-0.050595239 0.13392857 0.625 5251333
-0.04956286 0.13435715 0.62700003 5445889
-0.048368573 0.13435715 0.62700003 6827542
-0.047475241 0.13521428 0.63100004 6763291
-0.046273336 0.13521428 0.63100004 7355428
-0.045142859 0.13542858 0.63200003 7353900
-0.044078097 0.13585714 0.634 6498591
-0.042938098 0.13607144 0.63500005 6034950
-0.091319054 0.13728096 0.63500005 9602636
-0.089683816 0.13663238 0.63200003 5918228
-0.088339999 0.1364162 0.63100004 5655844
-0.087138094 0.1364162 0.63100004 5590051
-0.085527621 0.13576762 0.62800002 5785389
-0.084197149 0.13555144 0.62700003 5324838
-0.082738094 0.13511905 0.625 5783560
-0.081286669 0.13468666 0.62300003 4138752
-0.079971433 0.13447049 0.62200004 4659222
-0.078786671 0.13447049 0.62200004 4856601
-0.07747715 0.13425429 0.62100005 5250304
-0.076171428 0.13403811 0.62 5250304
-0.074990474 0.13403811 0.62 5381640
-0.073690474 0.1338219 0.61900002 5315847
-0.072511427 0.1338219 0.61900002 5382669
-0.07133238 0.1338219 0.61900002 5645841
-0.070153333 0.1338219 0.61900002 5777677
-0.068974286 0.1338219 0.61900002 5777677
-0.067795239 0.1338219 0.61900002 5777174
-0.066616185 0.1338219 0.61900002 6171932
-0.065437146 0.1338219 0.61900002 5843729
-0.064258099 0.1338219 0.61900002 5843729
-0.06297715 0.13360572 0.61800003 5975325
-0.061799999 0.13360572 0.61800003 5975325
-0.06072095 0.1338219 0.61900002 5646098
-0.059541903 0.1338219 0.61900002 5382926
-0.058457144 0.13403811 0.62 5644814
-0.057368573 0.13425429 0.62100005 5710607
-0.056276195 0.13447049 0.62200004 5776907
-0.055180002 0.13468666 0.62300003 5579528
-0.053993333 0.13468666 0.62300003 5183260
-0.052891426 0.13490286 0.62400001 4854295
-0.051702857 0.13490286 0.62400001 5182467
-0.050514285 0.13490286 0.62400001 5182467
-0.049404763 0.13511905 0.625 5445392
-0.048368573 0.13555144 0.62700003 6958631
-0.047324762 0.13598381 0.62900001 6697480
-0.046273336 0.1364162 0.63100004 6368515
-0.045071434 0.1364162 0.63100004 6563873
-0.04393905 0.13663238 0.63200003 6563873
-0.042870477 0.13706475 0.634 6499601
-0.041728575 0.13728096 0.63500005 8933942
-0.091175236 0.13827239 0.634 8222030
-0.089683816 0.1378362 0.63200003 5327138
-0.08820001 0.13740002 0.63000005 6311966
-0.086861908 0.13718191 0.62900001 6838310
-0.085391432 0.13674572 0.62700003 6244418
-0.084197149 0.13674572 0.62700003 4928558
-0.082738094 0.13630952 0.625 5387780
-0.081417143 0.13609143 0.62400001 3414016
-0.079971433 0.13565524 0.62200004 4589577
-0.078786671 0.13565524 0.62200004 4984335
-0.07747715 0.13543716 0.62100005 4856834
-0.076171428 0.13521904 0.62 4988420
-0.074990474 0.13521904 0.62 5054223
-0.073690474 0.13500096 0.61900002 4856844
-0.072511427 0.13500096 0.61900002 5249541
-0.07133238 0.13500096 0.61900002 5907471
-0.07004001 0.13478287 0.61800003 5516316
-0.068862855 0.13478287 0.61800003 5450523
-0.067795239 0.13500096 0.61900002 5711901
-0.066616185 0.13500096 0.61900002 5843487
-0.065437146 0.13500096 0.61900002 5648151
-0.064258099 0.13500096 0.61900002 5713944
-0.063079052 0.13500096 0.61900002 5780263
-0.061900001 0.13500096 0.61900002 5451298
-0.06072095 0.13500096 0.61900002 5054223
-0.059638094 0.13521904 0.62 4988430
-0.058457144 0.13521904 0.62 5447692
-0.057368573 0.13543716 0.62100005 5579278
-0.056276195 0.13565524 0.62200004 5447959
-0.055091433 0.13565524 0.62200004 5118994
-0.053993333 0.13587333 0.62300003 5248773
-0.052891426 0.13609143 0.62400001 4985601
-0.051702857 0.13609143 0.62400001 5247233
-0.050514285 0.13609143 0.62400001 5313026
-0.049404763 0.13630952 0.625 5445639
-0.048368573 0.13674572 0.62700003 6893085
-0.047324762 0.13718191 0.62900001 6697752
-0.046200003 0.13740002 0.63000005 6237201
-0.045000002 0.13740002 0.63000005 6234906
-0.043869525 0.13761809 0.63100004 7484973
-0.042735238 0.1378362 0.63200003 6766122
-0.041662857 0.13827239 0.634 8081982
-0.092528574 0.13970001 0.63500005 10852203
-0.091175236 0.13947999 0.634 8813155
-0.089683816 0.13904001 0.63200003 4470817
-0.08820001 0.13860001 0.63000005 5522961
-0.086861908 0.13837999 0.62900001 6838821
-0.085391432 0.13794 0.62700003 6903608
-0.08392857 0.1375 0.625 4929818
-0.082605712 0.13728 0.62400001 5188864
-0.081286669 0.13706 0.62300003 3675648
-0.079971433 0.13684 0.62200004 4459537
-0.078786671 0.13684 0.62200004 4788502
-0.07747715 0.13662001 0.62100005 4789765
-0.076171428 0.1364 0.62 4789765
-0.074990474 0.1364 0.62 4856834
-0.073690474 0.13618 0.61900002 4856834
-0.072511427 0.13618 0.61900002 4920320
-0.07133238 0.13618 0.61900002 4854528
-0.07004001 0.13596001 0.61800003 4985109
-0.068862855 0.13596001 0.61800003 4853523
-0.067685723 0.13596001 0.61800003 4853264
-0.066508569 0.13596001 0.61800003 4919057
-0.065331437 0.13596001 0.61800003 4723972
-0.064258099 0.13618 0.61900002 4987144
-0.063079052 0.13618 0.61900002 5053469
-0.061900001 0.13618 0.61900002 4790297
-0.06072095 0.13618 0.61900002 5249551
-0.059638094 0.1364 0.62 5315344
-0.058457144 0.1364 0.62 5315857
-0.057368573 0.13662001 0.62100005 5579029
-0.056276195 0.13684 0.62200004 5513511
-0.055091433 0.13684 0.62200004 5118753
-0.053906672 0.13684 0.62200004 5314823
-0.052806668 0.13706 0.62300003 4985858
-0.051620003 0.13706 0.62300003 5116674
-0.050514285 0.13728 0.62400001 5116674
-0.049404763 0.1375 0.625 5378819
-0.048214287 0.1375 0.625 5970956
-0.047249526 0.13816001 0.62800002 5709080
-0.046200003 0.13860001 0.63000005 5577494
-0.045000002 0.13860001 0.63000005 5317163
-0.043800004 0.13860001 0.63000005 7356746
-0.042735238 0.13904001 0.63200003 6505773
-0.041662857 0.13947999 0.634 7361082
-0.092382856 0.14068761 0.634 11180657
-0.090887621 0.14024381 0.63200003 9338211
-0.089541912 0.14002192 0.63100004 4930080
-0.088059999 0.1395781 0.62900001 4866053
-0.086723812 0.1393562 0.62800002 6445085
-0.085119046 0.13869047 0.625 6772554
-0.08392857 0.13869047 0.625 3746076
-0.08247333 0.13824667 0.62300003 4657666
-0.081286669 0.13824667 0.62300003 4526080
-0.079971433 0.13802478 0.62200004 4591632
-0.078786671 0.13802478 0.62200004 4657425
-0.07747715 0.13780287 0.62100005 4787971
-0.076171428 0.13758096 0.62 4787971
-0.074990474 0.13758096 0.62 4723218
-0.073690474 0.13735905 0.61900002 4789011
-0.072511427 0.13735905 0.61900002 4791296
-0.07133238 0.13735905 0.61900002 4264960
-0.07004001 0.13713714 0.61800003 4853264
-0.068862855 0.13713714 0.61800003 4787471
-0.067685723 0.13713714 0.61800003 4655370
-0.066508569 0.13713714 0.61800003 4984335
-0.065331437 0.13713714 0.61800003 4919557
-0.064154282 0.13713714 0.61800003 5116936
-0.06297715 0.13713714 0.61800003 5183501
-0.061900001 0.13735905 0.61900002 5315087
-0.06072095 0.13735905 0.61900002 5053982
-0.059638094 0.13758096 0.62 5053982
-0.058457144 0.13758096 0.62 5054736
-0.057368573 0.13780287 0.62100005 5120529
-0.056276195 0.13802478 0.62200004 5775656
-0.055091433 0.13802478 0.62200004 5512484
-0.053906672 0.13802478 0.62200004 5182731
-0.052721906 0.13802478 0.62200004 5116938
-0.051620003 0.13824667 0.62300003 4920320
-0.050433334 0.13824667 0.62300003 5117698
-0.049325712 0.13846856 0.62400001 5248524
-0.048214287 0.13869047 0.625 5445903
-0.047249526 0.1393562 0.62800002 5053469
-0.046200003 0.13980001 0.63000005 5185055
-0.045000002 0.13980001 0.63000005 4270628
-0.043800004 0.13980001 0.63000005 5783867
-0.042735238 0.14024381 0.63200003 6113835
-0.092091434 0.14144762 0.63200003 11115123
-0.090743817 0.14122382 0.63100004 9142621
-0.089400008 0.14100002 0.63000005 5129248
-0.088059999 0.14077619 0.62900001 4997389
-0.086723812 0.14055239 0.62800002 5523733
-0.085119046 0.13988096 0.625 5324819
-0.083794288 0.13965714 0.62400001 2824704
-0.08247333 0.13943332 0.62300003 3869726
-0.081156194 0.13920954 0.62200004 4132898
-0.079971433 0.13920954 0.62200004 4591873
-0.078660011 0.13898572 0.62100005 4591873
-0.07747715 0.13898572 0.62100005 4592386
-0.076171428 0.13876191 0.62 4592386
-0.074869521 0.13853811 0.61900002 4788507
-0.073690474 0.13853811 0.61900002 4656921
-0.072394289 0.13831429 0.61800003 4592640
-0.071217142 0.13831429 0.61800003 4461056
-0.07004001 0.13831429 0.61800003 4526112
-0.068862855 0.13831429 0.61800003 4460319
-0.067685723 0.13831429 0.61800003 4657425
-0.066508569 0.13831429 0.61800003 4723218
-0.065331437 0.13831429 0.61800003 4919557
-0.064154282 0.13831429 0.61800003 5314315
-0.06297715 0.13831429 0.61800003 4988933
-0.061900001 0.13853811 0.61900002 5186312
-0.06072095 0.13853811 0.61900002 5119775
-0.059638094 0.13876191 0.62 4922396
-0.058551431 0.13898572 0.62100005 4857868
-0.057368573 0.13898572 0.62100005 4857868
-0.056185719 0.13898572 0.62100005 4856585
-0.055002861 0.13898572 0.62100005 4659206
-0.053906672 0.13920954 0.62200004 4789781
-0.052721906 0.13920954 0.62200004 4592402
-0.051620003 0.13943332 0.62300003 4461314
-0.050433334 0.13943332 0.62300003 4724486
-0.049325712 0.13965714 0.62400001 4397083
-0.048214287 0.13988096 0.625 4791841
-0.047249526 0.14055239 0.62800002 4465454
-0.046126667 0.14077619 0.62900001 5320763
-0.045000002 0.14100002 0.63000005 4471094
-0.043800004 0.14100002 0.63000005 5194817
-0.04266762 0.14122382 0.63100004 6180900
-0.041531429 0.14144762 0.63200003 6904623
-0.092091434 0.14265144 0.63200003 10655090
-0.090600006 0.14220001 0.63000005 9143142
-0.089258097 0.14197429 0.62900001 5195562
-0.087920003 0.14174856 0.62800002 4864770
-0.086585723 0.14152287 0.62700003 4667392
-0.085119046 0.14107142 0.625 4599056
-0.083659999 0.14061999 0.62300003 2822656
-0.082340956 0.1403943 0.62200004 3608094
-0.081156194 0.1403943 0.62200004 3739680
-0.079842865 0.14016859 0.62100005 4460814
-0.078660011 0.14016859 0.62100005 4460814
-0.077352382 0.13994285 0.62 4526080
-0.076171428 0.13994285 0.62 4789252
-0.074869521 0.13971715 0.61900002 4592411
-0.073690474 0.13971715 0.61900002 4395032
-0.072394289 0.13949142 0.61800003 4395776
-0.071217142 0.13949142 0.61800003 4395776
-0.07004001 0.13949142 0.61800003 4460573
-0.068862855 0.13949142 0.61800003 4460573
-0.067685723 0.13949142 0.61800003 4460823
-0.066508569 0.13949142 0.61800003 4526616
-0.065331437 0.13949142 0.61800003 4657920
-0.064154282 0.13949142 0.61800003 4986882
-0.06297715 0.13949142 0.61800003 4988959
-0.061900001 0.13971715 0.61900002 4857373
-0.06072095 0.13971715 0.61900002 4725769
-0.059638094 0.13994285 0.62 4725769
-0.058457144 0.13994285 0.62 4659992
-0.057368573 0.14016859 0.62100005 4659992
-0.056185719 0.14016859 0.62100005 4594944
-0.055002861 0.14016859 0.62100005 4726529
-0.053820003 0.14016859 0.62100005 4791587
-0.052721906 0.1403943 0.62200004 4331036
-0.051537145 0.1403943 0.62200004 3806475
-0.050352383 0.1403943 0.62200004 4135440
-0.049325712 0.14084572 0.62400001 3286563
-0.048137143 0.14084572 0.62400001 2826012
-0.047174286 0.14152287 0.62700003 3089198
-0.046053335 0.14174856 0.62800002 4273472
-0.044928569 0.14197429 0.62900001 4144187
-0.043800004 0.14220001 0.63000005 4867910
-0.042600002 0.14220001 0.63000005 6443822
-0.041531429 0.14265144 0.63200003 6838580
-0.091945723 0.14362763 0.63100004 10589040
-0.090600006 0.1434 0.63000005 9011035
-0.089116193 0.14294477 0.62800002 5458213
-0.087780006 0.14271715 0.62700003 4931090
-0.086585723 0.14271715 0.62700003 4404746
-0.084982857 0.14203429 0.62400001 3813407
-0.083659999 0.14180666 0.62300003 1839617
-0.082340956 0.14157905 0.62200004 2494753
-0.08102572 0.14135143 0.62100005 2626339
-0.079842865 0.14135143 0.62100005 2822417
-0.078533329 0.14112382 0.62 2822417
-0.077352382 0.14112382 0.62 3215108
-0.076048575 0.1408962 0.61900002 3215108
-0.074869521 0.1408962 0.61900002 3345940
-0.073690474 0.1408962 0.61900002 3477526
-0.072394289 0.14066859 0.61800003 3936521
-0.071217142 0.14066859 0.61800003 4002314
-0.069813341 0.14021334 0.61600006 4067859
-0.068640009 0.14021334 0.61600006 4199445
-0.067466669 0.14021334 0.61600006 4263964
-0.066293344 0.14021334 0.61600006 4000792
-0.065120004 0.14021334 0.61600006 4067072
-0.064154282 0.14066859 0.61800003 4396032
-0.06297715 0.14066859 0.61800003 4395800
-0.061799999 0.14066859 0.61800003 4461593
-0.06062286 0.14066859 0.61800003 4200705
-0.059541903 0.1408962 0.61900002 4332291
-0.058457144 0.14112382 0.62 4201242
-0.057276189 0.14112382 0.62 4069656
-0.056095239 0.14112382 0.62 3742976
-0.054914284 0.14112382 0.62 4335110
-0.053820003 0.14135143 0.62100005 4074026
-0.052637149 0.14135143 0.62100005 3942440
-0.051537145 0.14157905 0.62200004 3353383
-0.050352383 0.14157905 0.62200004 3419176
-0.049246669 0.14180666 0.62300003 2960433
-0.048137143 0.14203429 0.62400001 2697261
-0.04702381 0.14226191 0.625 3419964
-0.046053335 0.14294477 0.62800002 4275273
-0.044857144 0.14294477 0.62800002 4209982
-0.043730475 0.14317238 0.62900001 5065291
-0.042600002 0.1434 0.63000005 6247213
-0.091800004 0.14460002 0.63000005 10194023
-0.090456195 0.14437048 0.62900001 8680019
-0.089116193 0.14414096 0.62800002 6508850
-0.087780006 0.14391144 0.62700003 5787680
-0.086309522 0.14345238 0.625 4208648
-0.084846668 0.14299333 0.62300003 3421216
-0.083525717 0.14276381 0.62200004 1644805
-0.082340956 0.14276381 0.62200004 1250860
-0.08102572 0.1425343 0.62100005 1119274
-0.079842865 0.1425343 0.62100005 988442
-0.078533329 0.14230476 0.62 1054235
-0.077352382 0.14230476 0.62 1512460
-0.076048575 0.14207524 0.61900002 1578253
-0.074869521 0.14207524 0.61900002 2364689
-0.073690474 0.14207524 0.61900002 2562068
-0.072394289 0.14184572 0.61800003 3478793
-0.071217142 0.14184572 0.61800003 3610379
-0.069813341 0.14138667 0.61600006 3609625
-0.068640009 0.14138667 0.61600006 3675418
-0.067466669 0.14138667 0.61600006 3871773
-0.066293344 0.14138667 0.61600006 3871773
-0.065120004 0.14138667 0.61600006 4265472
-0.064154282 0.14184572 0.61800003 4265472
-0.06297715 0.14184572 0.61800003 4002314
-0.061799999 0.14184572 0.61800003 4397072
-0.06062286 0.14184572 0.61800003 4004866
-0.059541903 0.14207524 0.61900002 4136452
-0.05836286 0.14207524 0.61900002 3744804
-0.057183813 0.14207524 0.61900002 3415839
-0.056004763 0.14207524 0.61900002 2826251
-0.054914284 0.14230476 0.62 3813146
-0.053733334 0.14230476 0.62 3421236
-0.052637149 0.1425343 0.62100005 3223857
-0.051537145 0.14276381 0.62200004 2306605
-0.050352383 0.14276381 0.62200004 2175019
-0.049246669 0.14299333 0.62300003 2436912
-0.048137143 0.14322285 0.62400001 2502705
-0.04702381 0.14345238 0.625 3881267
-0.046053335 0.14414096 0.62800002 4210232
-0.044857144 0.14414096 0.62800002 3881535
-0.043730475 0.14437048 0.62900001 4605258
-0.042600002 0.14460002 0.63000005 6246964
-0.091800004 0.14580001 0.63000005 9536089
-0.090456195 0.14556856 0.62900001 7166538
-0.089116193 0.14533715 0.62800002 7232331
-0.087499999 0.14464286 0.625 6708262
-0.086171433 0.14441143 0.62400001 4537093
-0.084846668 0.14418 0.62300003 3683601
-0.083525717 0.14394858 0.62200004 2301952
-0.082208581 0.14371715 0.62100005 1186861
-0.08102572 0.14371715 0.62100005 1055275
-0.079842865 0.14371715 0.62100005 1055527
-0.078660011 0.14371715 0.62100005 1055527
-0.077352382 0.14348571 0.62 1186071
-0.076171428 0.14348571 0.62 1251864
-0.074869521 0.14325429 0.61900002 1972507
-0.073571429 0.14302287 0.61800003 2038300
-0.072394289 0.14302287 0.61800003 2103048
-0.071217142 0.14302287 0.61800003 2300427
-0.069813341 0.14256002 0.61600006 2692902
-0.068640009 0.14256002 0.61600006 2824488
-0.067466669 0.14256002 0.61600006 3744804
-0.066293344 0.14256002 0.61600006 4731699
-0.065120004 0.14256002 0.61600006 4731929
-0.064154282 0.14302287 0.61800003 4797722
-0.06297715 0.14302287 0.61800003 4732206
-0.061799999 0.14302287 0.61800003 4732206
-0.06062286 0.14302287 0.61800003 4208665
-0.059445716 0.14302287 0.61800003 4340251
-0.05836286 0.14325429 0.61900002 3683888
-0.057183813 0.14325429 0.61900002 2828579
-0.056004763 0.14325429 0.61900002 2960433
-0.054914284 0.14348571 0.62 4407879
-0.053733334 0.14348571 0.62 3619880
-0.05255238 0.14348571 0.62 3225122
-0.051537145 0.14394858 0.62200004 2961716
-0.050352383 0.14394858 0.62200004 2895923
-0.049325712 0.14441143 0.62400001 2698544
-0.048137143 0.14441143 0.62400001 2698544
-0.04702381 0.14464286 0.625 3750701
-0.046053335 0.14533715 0.62800002 4013873
-0.044857144 0.14533715 0.62800002 4078664
-0.043660954 0.14533715 0.62800002 4473422
-0.042600002 0.14580001 0.63000005 6312505
-0.091800004 0.147 0.63000005 8483664
-0.090456195 0.14676666 0.62900001 6838317
-0.089116193 0.14653333 0.62800002 7298868
-0.087499999 0.14583333 0.625 6774582
-0.086171433 0.14560001 0.62400001 4274448
-0.084846668 0.14536667 0.62300003 3553558
-0.083525717 0.14513335 0.62200004 1974528
-0.082208581 0.14490002 0.62100005 1056815
-0.08102572 0.14490002 0.62100005 925229
-0.079842865 0.14490002 0.62100005 925738
-0.078533329 0.14466666 0.62 859945
-0.077352382 0.14466666 0.62 1055775
-0.076048575 0.14443333 0.61900002 1121568
-0.074748576 0.1442 0.61800003 1580579
-0.073571429 0.1442 0.61800003 1514786
-0.072394289 0.1442 0.61800003 725774
-0.071217142 0.1442 0.61800003 988946
-0.069813341 0.14373334 0.61600006 1580331
-0.068640009 0.14373334 0.61600006 1711917
-0.067466669 0.14373334 0.61600006 2499632
-0.066293344 0.14373334 0.61600006 3552320
-0.065120004 0.14373334 0.61600006 3553322
-0.064154282 0.1442 0.61800003 3750701
-0.06297715 0.1442 0.61800003 3947078
-0.061799999 0.1442 0.61800003 3683906
-0.06062286 0.1442 0.61800003 3225890
-0.059445716 0.1442 0.61800003 3357476
-0.05836286 0.14443333 0.61900002 2964026
-0.057183813 0.14443333 0.61900002 2437682
-0.056004763 0.14443333 0.61900002 2372148
-0.054914284 0.14466666 0.62 3030078
-0.053733334 0.14466666 0.62 3356976
-0.05255238 0.14466666 0.62 3028011
-0.051537145 0.14513335 0.62200004 3223857
-0.050352383 0.14513335 0.62200004 3158064
-0.049246669 0.14536667 0.62300003 2960685
-0.04806 0.14536667 0.62300003 3092271
-0.04702381 0.14583333 0.625 4210482
-0.046053335 0.14653333 0.62800002 4473654
-0.044857144 0.14653333 0.62800002 4343369
-0.043660954 0.14653333 0.62800002 4145990
-0.042600002 0.147 0.63000005 6247235
-0.04212286 0.14956668 0.64100003 7168337
-0.040710479 0.14886667 0.63800001 8019500
-0.039495237 0.14886667 0.63800001 9993290
-0.038460001 0.14956668 0.64100003 11573866
-0.091800004 0.14820002 0.63000005 7365183
-0.090312384 0.14772953 0.62800002 6575166
-0.08897429 0.14749429 0.62700003 7496268
-0.087499999 0.14702381 0.625 6576930
-0.086171433 0.14678858 0.62400001 4274176
-0.084846668 0.14655334 0.62300003 3356167
-0.083525717 0.14631809 0.62200004 1842944
-0.082208581 0.14608286 0.62100005 1056815
-0.08102572 0.14608286 0.62100005 1188401
-0.079842865 0.14608286 0.62100005 1123621
-0.078533329 0.14584762 0.62 1123621
-0.077352382 0.14584762 0.62 1252906
-0.076048575 0.14561239 0.61900002 1318699
-0.074748576 0.14537716 0.61800003 2305056
-0.073571429 0.14537716 0.61800003 2502435
-0.072394289 0.14537716 0.61800003 1777960
-0.071217142 0.14537716 0.61800003 1712167
-0.069813341 0.14490667 0.61600006 2040628
-0.068640009 0.14490667 0.61600006 1909042
-0.067466669 0.14490667 0.61600006 2172464
-0.066293344 0.14490667 0.61600006 4277840
-0.065120004 0.14490667 0.61600006 4080420
-0.064154282 0.14537716 0.61800003 3554076
-0.062773332 0.14490667 0.61600006 3618640
-0.061600007 0.14490667 0.61600006 3355468
-0.06062286 0.14537716 0.61800003 2897678
-0.059445716 0.14537716 0.61800003 3226643
-0.05836286 0.14561239 0.61900002 3094842
-0.057183813 0.14561239 0.61900002 2963256
-0.056004763 0.14561239 0.61900002 3291183
-0.054914284 0.14584762 0.62 3356976
-0.053733334 0.14584762 0.62 3487279
-0.052637149 0.14608286 0.62100005 3421486
-0.051537145 0.14631809 0.62200004 4013103
-0.050352383 0.14631809 0.62200004 4210482
-0.049246669 0.14655334 0.62300003 3948343
-0.04806 0.14655334 0.62300003 3948343
-0.04702381 0.14702381 0.625 4212787
-0.046053335 0.14772953 0.62800002 4410166
-0.044857144 0.14772953 0.62800002 4343621
-0.043730475 0.14796476 0.62900001 3817277
-0.042600002 0.14820002 0.63000005 5983561
-0.041925713 0.1500819 0.63800001 7167835
-0.040646669 0.14984667 0.63700002 7757345
-0.039433334 0.14984667 0.63700002 8152103
-0.038400002 0.15055239 0.64000005 9400424
-0.091800004 0.14940001 0.63000005 6116391
-0.090312384 0.14892572 0.62800002 6509882
-0.08897429 0.14868857 0.62700003 7430984
-0.087499999 0.14821428 0.625 6313770
-0.086171433 0.14797714 0.62400001 4339980
-0.084846668 0.14773999 0.62300003 3487529
-0.083525717 0.14750285 0.62200004 1842704
-0.082208581 0.14726573 0.62100005 1188401
-0.08102572 0.14726573 0.62100005 1122608
-0.079714283 0.14702858 0.62 1318699
-0.078533329 0.14702858 0.62 1187113
-0.077227622 0.14679144 0.61900002 1317407
-0.076048575 0.14679144 0.61900002 1383200
-0.074748576 0.14655429 0.61800003 2631720
-0.073571429 0.14655429 0.61800003 2697513
-0.072394289 0.14655429 0.61800003 2106378
-0.070986666 0.14608002 0.61600006 2237964
-0.069813341 0.14608002 0.61600006 1909544
-0.068640009 0.14608002 0.61600006 1580579
-0.067466669 0.14608002 0.61600006 1713455
-0.066293344 0.14608002 0.61600006 3226694
-0.065120004 0.14608002 0.61600006 3751984
-0.063946672 0.14608002 0.61600006 3686191
-0.062773332 0.14608002 0.61600006 3291971
-0.061600007 0.14608002 0.61600006 3028799
-0.06062286 0.14655429 0.61800003 2634007
-0.059445716 0.14655429 0.61800003 3489316
