# .PCD v0.7 - Point Cloud Data file format
VERSION 0.7
FIELDS x y z rgba
SIZE 4 4 4 4
TYPE F F F U
COUNT 1 1 1 1
WIDTH 1119
HEIGHT 1
VIEWPOINT 0 0 0 1 0 0 0
POINTS 1119
DATA ascii
-0.043581907 0.17758001 0.68300003 7027492
-0.042342857 0.17784001 0.68400002 7685422
-0.041040003 0.17784001 0.68400002 7620922
-0.039853338 0.17836002 0.68600005 7818301
-0.038602859 0.17862001 0.68700004 7884593
-0.037348572 0.17888001 0.68800002 8279351
-0.03614286 0.17940001 0.69000006 8147527
-0.034979999 0.18018001 0.69300002 7555390
-0.033805717 0.18096001 0.69600004 6703409
-0.032480001 0.18096001 0.69600004 5650721
-0.031199049 0.18122001 0.69700003 6377810
-0.029914286 0.18148001 0.69800001 12891317
-0.028584762 0.18148001 0.69800001 13286815
-0.027255237 0.18148001 0.69800001 13484194
-0.097720005 0.18280952 0.69800001 12826252
-0.096252382 0.18254761 0.69700003 12694666
-0.094788581 0.18228573 0.69600004 10985873
-0.093060002 0.1815 0.69300002 4998710
-0.091475241 0.1809762 0.69100004 4277045
-0.090159051 0.1809762 0.69100004 5395526
-0.08832857 0.17992857 0.68700004 6180147
-0.087020002 0.17992857 0.68700004 4403736
-0.085586667 0.17966667 0.68600005 6040897
-0.084034286 0.17914286 0.68400002 7422550
-0.08261048 0.17888096 0.68300003 7291693
-0.081190482 0.17861906 0.68200004 8147002
-0.079891428 0.17861906 0.68200004 7423541
-0.078361906 0.17809524 0.68000001 7226162
-0.077066667 0.17809524 0.68000001 7225399
-0.075771429 0.17809524 0.68000001 7093813
-0.074476197 0.17809524 0.68000001 6961718
-0.073180959 0.17809524 0.68000001 6566960
-0.071780004 0.17783333 0.67900002 6697489
-0.070486665 0.17783333 0.67900002 6894868
-0.069091432 0.17757145 0.67800003 6631994
-0.0678 0.17757145 0.67800003 6960959
-0.066508569 0.17757145 0.67800003 7091764
-0.065217145 0.17757145 0.67800003 7091764
-0.063925713 0.17757145 0.67800003 6895918
-0.062634289 0.17757145 0.67800003 6830125
-0.061342862 0.17757145 0.67800003 6961711
-0.060051434 0.17757145 0.67800003 6895918
-0.058846667 0.17783333 0.67900002 7026741
-0.057553336 0.17783333 0.67900002 7224120
-0.056260001 0.17783333 0.67900002 7160361
-0.055047616 0.17809524 0.68000001 7620912
-0.053752381 0.17809524 0.68000001 7028292
-0.052457143 0.17809524 0.68000001 6436155
-0.051161904 0.17809524 0.68000001 6894921
-0.049866665 0.17809524 0.68000001 7487058
-0.048571426 0.17809524 0.68000001 7422521
-0.047415242 0.17861906 0.68200004 8014658
-0.046116196 0.17861906 0.68200004 7753009
-0.04488286 0.17888096 0.68300003 8213560
-0.043581907 0.17888096 0.68300003 8214328
-0.042342857 0.17914286 0.68400002 8477500
-0.041040003 0.17914286 0.68400002 8148815
-0.039853338 0.17966667 0.68600005 8017229
-0.038602859 0.17992857 0.68700004 8214081
-0.037348572 0.18019049 0.68800002 8674632
-0.036195237 0.1809762 0.69100004 8214604
-0.035131428 0.18228573 0.69600004 6964537
-0.033805717 0.18228573 0.69600004 6572872
-0.032480001 0.18228573 0.69600004 6507079
-0.031199049 0.18254761 0.69700003 7166560
-0.02987143 0.18254761 0.69700003 13614274
-0.028543809 0.18254761 0.69700003 13483678
-0.097720005 0.18413906 0.69800001 12430223
-0.096252382 0.18387523 0.69700003 13088153
-0.094924763 0.18387523 0.69700003 11709326
-0.093194291 0.18308382 0.69400001 5787956
-0.091740005 0.18281999 0.69300002 4146742
-0.090159051 0.18229239 0.69100004 4804672
-0.088457145 0.18150096 0.68800002 5983281
-0.087020002 0.18123715 0.68700004 5062179
-0.085586667 0.18097335 0.68600005 6370092
-0.084034286 0.18044572 0.68400002 7225401
-0.08261048 0.18018191 0.68300003 7094820
-0.081190482 0.17991811 0.68200004 8081715
-0.079891428 0.17991811 0.68200004 7555887
-0.078592382 0.17991811 0.68200004 7095336
-0.077066667 0.17939048 0.68000001 7421482
-0.075771429 0.17939048 0.68000001 7487275
-0.074476197 0.17939048 0.68000001 7224379
-0.073180959 0.17939048 0.68000001 6961207
-0.07188572 0.17939048 0.68000001 6699031
-0.070590481 0.17939048 0.68000001 6567445
-0.069193333 0.17912666 0.67900002 6435607
-0.067900002 0.17912666 0.67900002 6830365
-0.066606671 0.17912666 0.67900002 7026216
-0.065313332 0.17912666 0.67900002 7026216
-0.06402 0.17912666 0.67900002 7092251
-0.062726662 0.17912666 0.67900002 7223837
-0.061433338 0.17912666 0.67900002 7158303
-0.060140003 0.17912666 0.67900002 7026717
-0.058846667 0.17912666 0.67900002 6696749
-0.057638094 0.17939048 0.68000001 7420472
-0.056342855 0.17939048 0.68000001 7226154
-0.055047616 0.17939048 0.68000001 8015670
-0.053752381 0.17939048 0.68000001 7557439
-0.052457143 0.17939048 0.68000001 7425853
-0.051161904 0.17939048 0.68000001 7424311
-0.050013337 0.17991811 0.68200004 7226932
-0.048714288 0.17991811 0.68200004 7488045
-0.047415242 0.17991811 0.68200004 7948596
-0.046116196 0.17991811 0.68200004 7556148
-0.04488286 0.18018191 0.68300003 8148285
-0.043645717 0.18044572 0.68400002 8083773
-0.042342857 0.18044572 0.68400002 8215359
-0.041160002 0.18097335 0.68600005 8083018
-0.039853338 0.18097335 0.68600005 7951432
-0.038602859 0.18123715 0.68700004 7885123
-0.037348572 0.18150096 0.68800002 8279881
-0.036195237 0.18229239 0.69100004 8018508
-0.035131428 0.18361144 0.69600004 7163199
-0.033805717 0.18361144 0.69600004 6245177
-0.032480001 0.18361144 0.69600004 4666145
-0.031154288 0.18361144 0.69600004 7627089
-0.029828573 0.18361144 0.69600004 13614252
-0.097580008 0.18520287 0.69700003 12562075
-0.096252382 0.18520287 0.69700003 13351591
-0.094924763 0.18520287 0.69700003 11907721
-0.093194291 0.18440571 0.69400001 6644281
-0.091740005 0.18414 0.69300002 3950653
-0.090159051 0.18360859 0.69100004 4411204
-0.088457145 0.18281144 0.68800002 5721906
-0.087020002 0.18254572 0.68700004 5721906
-0.085586667 0.18228 0.68600005 6568754
-0.084034286 0.18174857 0.68400002 6700340
-0.08261048 0.18148287 0.68300003 7094557
-0.081190482 0.18121715 0.68200004 8344624
-0.079891428 0.18121715 0.68200004 7886128
-0.078592382 0.18121715 0.68200004 7820335
-0.077293336 0.18121715 0.68200004 7819580
-0.075771429 0.18068571 0.68000001 8148545
-0.074476197 0.18068571 0.68000001 8083022
-0.073180959 0.18068571 0.68000001 7556678
-0.07188572 0.18068571 0.68000001 7688238
-0.070590481 0.18068571 0.68000001 7622445
-0.069295242 0.18068571 0.68000001 7490596
-0.068000004 0.18068571 0.68000001 7556389
-0.066606671 0.18042001 0.67900002 7687986
-0.065313332 0.18042001 0.67900002 7753779
-0.064114287 0.18068571 0.68000001 7423541
-0.062726662 0.18042001 0.67900002 8147264
-0.061433338 0.18042001 0.67900002 7885356
-0.060140003 0.18042001 0.67900002 7556391
-0.058933333 0.18068571 0.68000001 7752785
-0.057638094 0.18068571 0.68000001 7818578
-0.056342855 0.18068571 0.68000001 7557427
-0.055047616 0.18068571 0.68000001 8083771
-0.053752381 0.18068571 0.68000001 8018739
-0.052457143 0.18068571 0.68000001 8347704
-0.051312383 0.18121715 0.68200004 7951669
-0.050013337 0.18121715 0.68200004 7951669
-0.048714288 0.18121715 0.68200004 7951933
-0.047484763 0.18148287 0.68300003 7820347
-0.046183813 0.18148287 0.68300003 7885123
-0.04494857 0.18174857 0.68400002 8016709
-0.043645717 0.18174857 0.68400002 7952185
-0.042342857 0.18174857 0.68400002 8017978
-0.041160002 0.18228 0.68600005 7951933
-0.03991143 0.18254572 0.68700004 7688761
-0.038659051 0.18281144 0.68800002 7621442
-0.037457146 0.18334286 0.69000006 7555649
-0.0363 0.18414 0.69300002 7162153
-0.035131428 0.18493715 0.69600004 7162153
-0.033805717 0.18493715 0.69600004 5916982
-0.032480001 0.18493715 0.69600004 4206364
-0.031154288 0.18493715 0.69600004 7891535
-0.029828573 0.18493715 0.69600004 13352354
-0.096252382 0.18653049 0.69700003 12892071
-0.094924763 0.18653049 0.69700003 12236181
-0.093194291 0.18572763 0.69400001 7170120
-0.091740005 0.18546 0.69300002 4736576
-0.090159051 0.18492477 0.69100004 4210232
-0.088457145 0.18412191 0.68800002 5590569
-0.087020002 0.1838543 0.68700004 5853741
-0.085586667 0.18358667 0.68600005 6569513
-0.084279999 0.18358667 0.68600005 6437927
-0.082731433 0.18305144 0.68400002 7094820
-0.08130952 0.18278381 0.68300003 8081715
-0.080008574 0.18278381 0.68300003 7690037
-0.078592382 0.1825162 0.68200004 7624244
-0.077293336 0.1825162 0.68200004 7557948
-0.07599429 0.1825162 0.68200004 7821120
-0.074695244 0.1825162 0.68200004 7820620
-0.073180959 0.18198095 0.68000001 7689034
-0.07188572 0.18198095 0.68000001 7689265
-0.070590481 0.18198095 0.68000001 7689265
-0.069295242 0.18198095 0.68000001 7557393
-0.068000004 0.18198095 0.68000001 7820565
-0.066704765 0.18198095 0.68000001 7820107
-0.065409526 0.18198095 0.68000001 7556935
-0.064114287 0.18198095 0.68000001 7160863
-0.062819049 0.18198095 0.68000001 8213551
-0.061523806 0.18198095 0.68000001 8083253
-0.060228571 0.18198095 0.68000001 8017460
-0.058933333 0.18198095 0.68000001 7886152
-0.057638094 0.18198095 0.68000001 7425601
-0.056342855 0.18198095 0.68000001 7360309
-0.055047616 0.18198095 0.68000001 7820860
-0.053752381 0.18198095 0.68000001 7886656
-0.052457143 0.18198095 0.68000001 7952449
-0.051312383 0.1825162 0.68200004 7754808
-0.050013337 0.1825162 0.68200004 7952187
-0.048785716 0.18278381 0.68300003 8610404
-0.047484763 0.18278381 0.68300003 7623509
-0.046183813 0.18278381 0.68300003 7688262
-0.04494857 0.18305144 0.68400002 7622469
-0.043645717 0.18305144 0.68400002 7753787
-0.042342857 0.18305144 0.68400002 7622201
-0.041160002 0.18358667 0.68600005 7687235
-0.03991143 0.1838543 0.68700004 7555649
-0.038771432 0.18465716 0.69000006 7555899
-0.037511431 0.18492477 0.69100004 7555899
-0.0363 0.18546 0.69300002 6242841
-0.035131428 0.18626286 0.69600004 6637599
-0.033854287 0.18653049 0.69700003 5195832
-0.032526664 0.18653049 0.69700003 3748386
-0.031199049 0.18653049 0.69700003 8484440
-0.02987143 0.18653049 0.69700003 13418915
-0.096252382 0.1878581 0.69700003 12760231
-0.094924763 0.1878581 0.69700003 12366740
-0.093462862 0.18758859 0.69600004 9471848
-0.091740005 0.18678001 0.69300002 5065827
-0.090159051 0.18624096 0.69100004 3223623
-0.088714294 0.18597144 0.69000006 4407075
-0.08714667 0.18543239 0.68800002 5196591
-0.085711427 0.18516286 0.68700004 6177069
-0.084402859 0.18516286 0.68700004 6242862
-0.082973339 0.18489334 0.68600005 6962220
-0.081428573 0.18435429 0.68400002 7225392
-0.080008574 0.18408476 0.68300003 7688997
-0.078592382 0.18381524 0.68200004 8346927
-0.077293336 0.18381524 0.68200004 8017714
-0.07599429 0.18381524 0.68200004 8017714
-0.074695244 0.18381524 0.68200004 7754554
-0.073396191 0.18381524 0.68200004 7622968
-0.072097145 0.18381524 0.68200004 7820076
-0.070798099 0.18381524 0.68200004 7622697
-0.069295242 0.18327619 0.68000001 7491600
-0.068000004 0.18327619 0.68000001 8610081
-0.066704765 0.18327619 0.68000001 8084051
-0.065409526 0.18327619 0.68000001 7689293
-0.064114287 0.18327619 0.68000001 7623472
-0.062819049 0.18327619 0.68000001 8084023
-0.061523806 0.18327619 0.68000001 8018464
-0.060228571 0.18327619 0.68000001 8084257
-0.058933333 0.18327619 0.68000001 7820585
-0.057638094 0.18327619 0.68000001 7425827
-0.056342855 0.18327619 0.68000001 7556913
-0.055047616 0.18327619 0.68000001 8017464
-0.053752381 0.18327619 0.68000001 7951945
-0.052611433 0.18381524 0.68200004 7886152
-0.051312383 0.18381524 0.68200004 7753787
-0.050013337 0.18381524 0.68200004 7819580
-0.048785716 0.18408476 0.68300003 7688028
-0.047554284 0.18435429 0.68400002 7293270
-0.046251431 0.18435429 0.68400002 7160648
-0.045080002 0.18489334 0.68600005 7160648
-0.043773334 0.18489334 0.68600005 7094603
-0.04246667 0.18489334 0.68600005 7423568
-0.041220002 0.18516286 0.68700004 7161934
-0.039969526 0.18543239 0.68800002 7490899
-0.03882762 0.18624096 0.69100004 7756101
-0.037620001 0.18678001 0.69300002 7953480
-0.036457144 0.18758859 0.69600004 7167030
-0.035181906 0.1878581 0.69700003 6574893
-0.033902857 0.18812761 0.69800001 5065548
-0.032573331 0.18812761 0.69800001 3683895
-0.031243809 0.18812761 0.69800001 8879708
-0.029914286 0.18812761 0.69800001 13616804
-0.096804768 0.19027144 0.70100003 12891040
-0.095469527 0.19027144 0.70100003 12365710
-0.094000004 0.19000001 0.70000005 9865576
-0.091872387 0.18837143 0.69400001 6905937
-0.09042 0.1881 0.69300002 3616287
-0.088842861 0.18755715 0.69100004 3684138
-0.087400004 0.18728572 0.69000006 4407861
-0.085711427 0.18647143 0.68700004 5982005
-0.084402859 0.18647143 0.68700004 5916212
-0.082973339 0.18620001 0.68600005 6634536
-0.081428573 0.18565714 0.68400002 6766122
-0.080008574 0.18538572 0.68300003 7095320
-0.078707621 0.18538572 0.68300003 7884836
-0.077293336 0.18511429 0.68200004 7820100
-0.07599429 0.18511429 0.68200004 7820100
-0.074695244 0.18511429 0.68200004 7424826
-0.073396191 0.18511429 0.68200004 7819584
-0.072097145 0.18511429 0.68200004 7689015
-0.070798099 0.18511429 0.68200004 7294257
-0.069499053 0.18511429 0.68200004 7095840
-0.0682 0.18511429 0.68200004 8280114
-0.066704765 0.18457143 0.68000001 7690840
-0.065409526 0.18457143 0.68000001 7361875
-0.064114287 0.18457143 0.68000001 7360571
-0.062819049 0.18457143 0.68000001 7557950
-0.061523806 0.18457143 0.68000001 7623974
-0.060228571 0.18457143 0.68000001 7689767
-0.058933333 0.18457143 0.68000001 7358501
-0.057638094 0.18457143 0.68000001 7424294
-0.056508575 0.18511429 0.68200004 7424044
-0.055209529 0.18511429 0.68200004 8081974
-0.053910479 0.18511429 0.68200004 7820107
-0.052611433 0.18511429 0.68200004 7688521
-0.051312383 0.18511429 0.68200004 7489593
-0.05008667 0.18538572 0.68300003 7094835
-0.048857145 0.18565714 0.68400002 7290953
-0.047554284 0.18565714 0.68400002 6961988
-0.04638667 0.18620001 0.68600005 6962738
-0.045080002 0.18620001 0.68600005 7423289
-0.043837145 0.18647143 0.68700004 6767662
-0.042528573 0.18647143 0.68700004 7162420
-0.041280001 0.18674286 0.68800002 7034163
-0.040085718 0.18728572 0.69000006 7165749
-0.03882762 0.18755715 0.69100004 7429442
-0.037620001 0.1881 0.69300002 7692614
-0.036457144 0.1889143 0.69600004 7102539
-0.035181906 0.18918572 0.69700003 5852472
-0.033902857 0.18945715 0.69800001 4869166
-0.032573331 0.18945715 0.69800001 5000752
-0.031333335 0.19000001 0.70000005 9274217
-0.030000001 0.19000001 0.70000005 13221797
-0.096804768 0.19160667 0.70100003 12825748
-0.095469527 0.19160667 0.70100003 12563089
-0.094000004 0.19133334 0.70000005 10128748
-0.092401907 0.19078667 0.69800001 6906464
-0.090550475 0.18969335 0.69400001 3287849
-0.088842861 0.18887335 0.69100004 3552822
-0.087400004 0.18860002 0.69000006 4013373
-0.085836194 0.18805334 0.68800002 5061948
-0.084402859 0.18778001 0.68700004 5456706
-0.082973339 0.18750668 0.68600005 6177069
-0.081666671 0.18750668 0.68600005 5979690
-0.080125719 0.18696 0.68400002 6502163
-0.078707621 0.18668668 0.68300003 6896921
-0.077406667 0.18668668 0.68300003 7291705
-0.076105714 0.18668668 0.68300003 7291705
-0.074695244 0.18641333 0.68200004 7095357
-0.073396191 0.18641333 0.68200004 6963771
-0.072097145 0.18641333 0.68200004 6899499
-0.070798099 0.18641333 0.68200004 6373155
-0.069499053 0.18641333 0.68200004 6568992
-0.0682 0.18641333 0.68200004 6766371
-0.066900954 0.18641333 0.68200004 6635074
-0.065601908 0.18641333 0.68200004 6569281
-0.064302862 0.18641333 0.68200004 6635056
-0.063003816 0.18641333 0.68200004 6371884
-0.061704762 0.18641333 0.68200004 6503687
-0.060405716 0.18641333 0.68200004 6437894
-0.05910667 0.18641333 0.68200004 6898472
-0.057807621 0.18641333 0.68200004 7030058
-0.056508575 0.18641333 0.68200004 6636076
-0.055209529 0.18641333 0.68200004 6636076
-0.053910479 0.18641333 0.68200004 6637114
-0.052688573 0.18668668 0.68300003 6637114
-0.051387619 0.18668668 0.68300003 6439478
-0.05008667 0.18668668 0.68300003 6307892
-0.049000002 0.18750668 0.68600005 6242869
-0.047693335 0.18750668 0.68600005 6111283
-0.04638667 0.18750668 0.68600005 6310459
-0.045145717 0.18778001 0.68700004 7231561
-0.043837145 0.18778001 0.68700004 7035448
-0.042528573 0.18778001 0.68700004 8022343
-0.041280001 0.18805334 0.68800002 8417844
-0.04014381 0.18887335 0.69100004 9009981
-0.038940001 0.18942 0.69300002 8681779
-0.037674285 0.18969335 0.69400001 8287021
-0.036509525 0.19051333 0.69700003 6906439
-0.035181906 0.19051333 0.69700003 5327407
-0.033902857 0.19078667 0.69800001 4475457
-0.032666668 0.19133334 0.70000005 5462352
-0.031333335 0.19133334 0.70000005 9340010
-0.030000001 0.19133334 0.70000005 12958625
-0.096804768 0.1929419 0.70100003 12957588
-0.095469527 0.1929419 0.70100003 12629650
-0.094134286 0.1929419 0.70100003 10195309
-0.092401907 0.19211619 0.69800001 8091224
-0.090811431 0.19156572 0.69600004 3551507
-0.089099996 0.19074 0.69300002 3355191
-0.087526672 0.19018954 0.69100004 4013121
-0.086085722 0.1899143 0.69000006 4471864
-0.084402859 0.18908858 0.68700004 4340278
-0.083094291 0.18908858 0.68700004 6311222
-0.081666671 0.18881334 0.68600005 5784878
-0.080125719 0.18826286 0.68400002 6503168
-0.078822859 0.18826286 0.68400002 7095304
-0.077406667 0.18798763 0.68300003 7161883
-0.076105714 0.18798763 0.68300003 7161883
-0.074804768 0.18798763 0.68300003 6306081
-0.073503807 0.18798763 0.68300003 6898218
-0.072202861 0.18798763 0.68300003 6836261
-0.070798099 0.18771239 0.68200004 6046745
-0.069499053 0.18771239 0.68200004 6503694
-0.0682 0.18771239 0.68200004 6898452
-0.066900954 0.18771239 0.68200004 6635056
-0.065601908 0.18771239 0.68200004 6700849
-0.064302862 0.18771239 0.68200004 6635811
-0.063003816 0.18771239 0.68200004 6635811
-0.061704762 0.18771239 0.68200004 6635539
-0.060405716 0.18771239 0.68200004 6832918
-0.05910667 0.18771239 0.68200004 6571827
-0.057807621 0.18771239 0.68200004 6637620
-0.056508575 0.18771239 0.68200004 6178338
-0.055209529 0.18771239 0.68200004 6375717
-0.053910479 0.18771239 0.68200004 6113352
-0.052688573 0.18798763 0.68300003 5652801
-0.051462859 0.18826286 0.68400002 5848897
-0.050159998 0.18826286 0.68400002 5914690
-0.049000002 0.18881334 0.68600005 5653551
-0.047693335 0.18881334 0.68600005 5653551
-0.04638667 0.18881334 0.68600005 5590604
-0.045145717 0.18908858 0.68700004 5656397
-0.043837145 0.18908858 0.68700004 6642499
-0.042590477 0.18936381 0.68800002 8024152
-0.041400004 0.1899143 0.69000006 8417844
-0.04014381 0.19018954 0.69100004 9075774
-0.038940001 0.19074 0.69300002 8878168
-0.037674285 0.19101523 0.69400001 8220238
-0.036509525 0.19184096 0.69700003 6906439
-0.03523238 0.19211619 0.69800001 3879961
-0.034000002 0.19266668 0.70000005 3421712
-0.032666668 0.19266668 0.70000005 5856053
-0.031333335 0.19266668 0.70000005 9667946
-0.030000001 0.19266668 0.70000005 13352354
-0.098840006 0.19566287 0.70600003 12628612
-0.096804768 0.19427715 0.70100003 12957577
-0.095469527 0.19427715 0.70100003 12629134
-0.094134286 0.19427715 0.70100003 10457965
-0.092666671 0.19400001 0.70000005 8552026
-0.091072381 0.19344573 0.69800001 3880723
-0.08922857 0.19233714 0.69400001 3354941
-0.087779999 0.19206001 0.69300002 3815492
-0.086085722 0.1912286 0.69000006 3946558
-0.084525719 0.19067429 0.68800002 3946558
-0.083094291 0.19039714 0.68700004 5721136
-0.081666671 0.19012001 0.68600005 6642238
-0.080360003 0.19012001 0.68600005 7232028
-0.078822859 0.18956572 0.68400002 8284716
-0.077520005 0.18956572 0.68400002 8217903
-0.076105714 0.18928857 0.68300003 8283696
-0.074804768 0.18928857 0.68300003 7759151
-0.073503807 0.18928857 0.68300003 6640670
-0.072202861 0.18928857 0.68300003 6771771
-0.070901908 0.18928857 0.68300003 7495494
-0.069600955 0.18928857 0.68300003 7166503
-0.068300001 0.18928857 0.68300003 7232296
-0.066999055 0.18928857 0.68300003 7428422
-0.065698095 0.18928857 0.68300003 6902078
-0.064397149 0.18928857 0.68300003 7033134
-0.063096188 0.18928857 0.68300003 7756857
-0.061795238 0.18928857 0.68300003 6375732
-0.060494285 0.18928857 0.68300003 6375732
-0.05910667 0.18901142 0.68200004 6508108
-0.057807621 0.18901142 0.68200004 7100245
-0.056591429 0.18928857 0.68300003 6706211
-0.055290479 0.18928857 0.68300003 7495727
-0.053989526 0.18928857 0.68300003 6970666
-0.052765712 0.18956572 0.68400002 4996876
-0.051462859 0.18956572 0.68400002 5127227
-0.050159998 0.18956572 0.68400002 4995641
-0.049000002 0.19012001 0.68600005 4340253
-0.047693335 0.19012001 0.68600005 3748116
-0.046454288 0.19039714 0.68700004 3946826
-0.045145717 0.19039714 0.68700004 3223103
-0.043900952 0.19067429 0.68800002 6050110
-0.042714287 0.1912286 0.69000006 8287072
-0.04146 0.19150572 0.69100004 8351781
-0.040260002 0.19206001 0.69300002 8549160
-0.038940001 0.19206001 0.69300002 8286041
-0.037674285 0.19233714 0.69400001 7693904
-0.036509525 0.19316858 0.69700003 6710343
-0.035181906 0.19316858 0.69700003 3618072
-0.034048576 0.19427715 0.70100003 3028547
-0.032713335 0.19427715 0.70100003 6252404
-0.031378098 0.19427715 0.70100003 9602669
-0.030042859 0.19427715 0.70100003 13484456
-0.098840006 0.19700761 0.70600003 12299397
-0.097495243 0.19700761 0.70600003 12562569
-0.095741905 0.19617048 0.70300001 12563089
-0.094402857 0.19617048 0.70300001 10786678
-0.092799053 0.19561239 0.70100003 8880738
-0.091333345 0.19533335 0.70000005 4341021
-0.089614287 0.1944962 0.69700003 3092019
-0.087906666 0.19365904 0.69400001 3749949
-0.086460002 0.19338001 0.69300002 3486777
-0.084771439 0.19254287 0.69000006 3749949
-0.08345715 0.19254287 0.69000006 5131323
-0.081785724 0.19170573 0.68700004 5328702
-0.080360003 0.19142668 0.68600005 6904614
-0.079053335 0.19142668 0.68600005 8088888
-0.077520005 0.19086857 0.68400002 7694398
-0.076217145 0.19086857 0.68400002 8023363
-0.074914292 0.19086857 0.68400002 7760476
-0.073611431 0.19086857 0.68400002 5918272
-0.072308578 0.19086857 0.68400002 6313006
-0.070901908 0.19058953 0.68300003 7168315
-0.069600955 0.19058953 0.68300003 7167030
-0.068300001 0.19058953 0.68300003 6903858
-0.066999055 0.19058953 0.68300003 6903627
-0.065698095 0.19058953 0.68300003 6443076
-0.064397149 0.19058953 0.68300003 6378018
-0.063096188 0.19058953 0.68300003 6509604
-0.061795238 0.19058953 0.68300003 5456942
-0.060494285 0.19058953 0.68300003 5325356
-0.059193335 0.19058953 0.68300003 6049354
-0.057892382 0.19058953 0.68300003 5194045
-0.056591429 0.19058953 0.68300003 5193987
-0.055290479 0.19058953 0.68300003 7365156
-0.054068573 0.19086857 0.68400002 6512714
-0.052765712 0.19086857 0.68400002 4473131
-0.051613338 0.19142668 0.68600005 4012853
-0.050306667 0.19142668 0.68600005 4144439
-0.049071431 0.19170573 0.68700004 3816466
-0.047762856 0.19170573 0.68700004 4013845
-0.046454288 0.19170573 0.68700004 5000261
-0.045145717 0.19170573 0.68700004 4144952
-0.044028573 0.19254287 0.69000006 6377777
-0.042776193 0.19282192 0.69100004 8680532
-0.04146 0.19282192 0.69100004 8287046
-0.040260002 0.19338001 0.69300002 8221253
-0.038940001 0.19338001 0.69300002 8023646
-0.037782859 0.19421715 0.69600004 7497302
-0.036509525 0.1944962 0.69700003 6841427
-0.035181906 0.1944962 0.69700003 3485984
-0.034048576 0.19561239 0.70100003 3092771
-0.032713335 0.19561239 0.70100003 6777179
-0.031378098 0.19561239 0.70100003 9603182
-0.098840006 0.19835238 0.70600003 12365200
-0.097495243 0.19835238 0.70600003 12430993
-0.095878102 0.1977905 0.70400006 12234643
-0.094402857 0.19750953 0.70300001 11050369
-0.092799053 0.19694763 0.70100003 9340778
-0.091333345 0.19666667 0.70000005 5064233
-0.089742862 0.19610476 0.69800001 3092800
-0.088286668 0.19582382 0.69700003 3421765
-0.086584762 0.19498095 0.69400001 3290681
-0.084894292 0.19413811 0.69100004 3422267
-0.083578095 0.19413811 0.69100004 3946826
-0.081904761 0.19329524 0.68800002 4999514
-0.080477148 0.19301429 0.68700004 6773285
-0.07916858 0.19301429 0.68700004 8549696
-0.077746667 0.19273335 0.68600005 8220994
-0.076440006 0.19273335 0.68600005 8484166
-0.075133339 0.19273335 0.68600005 7760728
-0.073826671 0.19273335 0.68600005 5852731
-0.072308578 0.19217142 0.68400002 6049571
-0.071005717 0.19217142 0.68400002 6378536
-0.069702856 0.19217142 0.68400002 5719344
-0.068399996 0.19217142 0.68400002 5456172
-0.067097142 0.19217142 0.68400002 5456165
-0.065794282 0.19217142 0.68400002 4403477
-0.064397149 0.19189049 0.68300003 5126931
-0.063096188 0.19189049 0.68300003 5850654
-0.061795238 0.19189049 0.68300003 5523241
-0.060582858 0.19217142 0.68400002 5260069
-0.059280004 0.19217142 0.68400002 5522233
-0.05797714 0.19217142 0.68400002 5127475
-0.056674287 0.19217142 0.68400002 5061636
-0.055371426 0.19217142 0.68400002 7298598
-0.054068573 0.19217142 0.68400002 6381128
-0.052920006 0.19273335 0.68600005 4933682
-0.051613338 0.19273335 0.68600005 5328704
-0.050306667 0.19273335 0.68600005 5591876
-0.049071431 0.19301429 0.68700004 5526307
-0.047762856 0.19301429 0.68700004 5197342
-0.046454288 0.19301429 0.68700004 5196352
-0.045145717 0.19301429 0.68700004 4933180
-0.044028573 0.19385716 0.69000006 6049331
-0.042776193 0.19413811 0.69100004 6707261
-0.04146 0.19413811 0.69100004 6773044
-0.040260002 0.19470002 0.69300002 7102009
-0.03899619 0.19498095 0.69400001 6971210
-0.037782859 0.19554286 0.69600004 6708038
-0.036509525 0.19582382 0.69700003 5986902
-0.03523238 0.19610476 0.69800001 3289389
-0.034048576 0.19694763 0.70100003 2961968
-0.032713335 0.19694763 0.70100003 6646376
-0.031378098 0.19694763 0.70100003 9865325
-0.098560005 0.19913144 0.70400006 12431242
-0.097219057 0.19913144 0.70400006 12628621
-0.095878102 0.19913144 0.70400006 12103057
-0.094537146 0.19913144 0.70400006 11576713
-0.093063809 0.19884858 0.70300001 9670515
-0.091463812 0.19828287 0.70100003 5262384
-0.090000004 0.19800001 0.70000005 4145209
-0.088413335 0.19743428 0.69800001 3618865
-0.086959057 0.19715142 0.69700003 3094592
-0.085140005 0.19601999 0.69300002 2699834
-0.08382 0.19601999 0.69300002 3422267
-0.082142867 0.19517145 0.69000006 4935506
-0.080594286 0.19460572 0.68800002 6773809
-0.07916858 0.19432287 0.68700004 8352841
-0.077860005 0.19432287 0.68700004 8089931
-0.07655143 0.19432287 0.68700004 8089931
-0.075133339 0.19404002 0.68600005 7169361
-0.073826671 0.19404002 0.68600005 5656122
-0.072520003 0.19404002 0.68600005 5722137
-0.071213335 0.19404002 0.68600005 5393172
-0.069702856 0.19347429 0.68400002 5654052
-0.068399996 0.19347429 0.68400002 5785638
-0.067097142 0.19347429 0.68400002 5392169
-0.065794282 0.19347429 0.68400002 4536860
-0.064491428 0.19347429 0.68400002 4931090
-0.063188568 0.19347429 0.68400002 5852192
-0.061885718 0.19347429 0.68400002 5786929
-0.060582858 0.19347429 0.68400002 5457964
-0.059280004 0.19347429 0.68400002 5915710
-0.05797714 0.19347429 0.68400002 5652538
-0.056840003 0.19404002 0.68600005 4797955
-0.055533338 0.19404002 0.68600005 7100710
-0.05422667 0.19404002 0.68600005 6183247
-0.052920006 0.19404002 0.68600005 5788489
-0.051613338 0.19404002 0.68600005 5854282
-0.050306667 0.19404002 0.68600005 5788489
-0.049071431 0.19432287 0.68700004 5919536
-0.047762856 0.19432287 0.68700004 5458985
-0.046454288 0.19432287 0.68700004 5194790
-0.045211427 0.19460572 0.68800002 5326376
-0.044092383 0.1954543 0.69100004 5326376
-0.042776193 0.1954543 0.69100004 5918513
-0.04146 0.1954543 0.69100004 5656362
-0.040260002 0.19601999 0.69300002 6182706
-0.03899619 0.19630285 0.69400001 6970710
-0.037782859 0.19686857 0.69600004 6839124
-0.036509525 0.19715142 0.69700003 5921109
-0.03523238 0.19743428 0.69800001 3223596
-0.034048576 0.19828287 0.70100003 2895655
-0.032713335 0.19828287 0.70100003 7172200
-0.031378098 0.19828287 0.70100003 10062193
-0.097219057 0.2004724 0.70400006 12760452
-0.095878102 0.2004724 0.70400006 12169101
-0.094537146 0.2004724 0.70400006 11642757
-0.093063809 0.20018762 0.70300001 9998708
-0.091463812 0.1996181 0.70100003 5524784
-0.090000004 0.19933335 0.70000005 3883320
-0.088413335 0.19876382 0.69800001 3422769
-0.086959057 0.19847906 0.69700003 3095110
-0.085262857 0.19762476 0.69400001 3029317
-0.08382 0.19734 0.69300002 4078412
-0.082261913 0.19677049 0.69100004 5657444
-0.080828577 0.19648573 0.69000006 6839598
-0.079283811 0.19591619 0.68800002 7892286
-0.077860005 0.19563143 0.68700004 8023086
-0.07655143 0.19563143 0.68700004 7233570
-0.075133339 0.19534668 0.68600005 6904889
-0.073826671 0.19534668 0.68600005 5786408
-0.072520003 0.19534668 0.68600005 5195293
-0.071213335 0.19534668 0.68600005 5326879
-0.069906674 0.19534668 0.68600005 5721136
-0.068600006 0.19534668 0.68600005 5786929
-0.067293338 0.19534668 0.68600005 5721654
-0.065986671 0.19534668 0.68600005 6379584
-0.064680003 0.19534668 0.68600005 6379586
-0.063373342 0.19534668 0.68600005 6379586
-0.062066671 0.19534668 0.68600005 6181685
-0.060760003 0.19534668 0.68600005 6115892
-0.059453338 0.19534668 0.68600005 6246476
-0.05814667 0.19534668 0.68600005 6443855
-0.056840003 0.19534668 0.68600005 6049081
-0.055533338 0.19534668 0.68600005 7364941
-0.05422667 0.19534668 0.68600005 7037775
-0.052920006 0.19534668 0.68600005 6050880
-0.051613338 0.19534668 0.68600005 6116160
-0.050380003 0.19563143 0.68700004 5918781
-0.049071431 0.19563143 0.68700004 5853743
-0.047762856 0.19563143 0.68700004 5722157
-0.046521906 0.19591619 0.68800002 5918766
-0.045211427 0.19591619 0.68800002 6116145
-0.044092383 0.19677049 0.69100004 5918265
-0.042776193 0.19677049 0.69100004 6181437
-0.04146 0.19677049 0.69100004 5656901
-0.040260002 0.19734 0.69300002 5656901
-0.03899619 0.19762476 0.69400001 6118720
-0.037782859 0.1981943 0.69600004 5592376
-0.036509525 0.19847906 0.69700003 5066831
-0.03523238 0.19876382 0.69800001 2632490
-0.034048576 0.1996181 0.70100003 3289148
-0.032713335 0.1996181 0.70100003 7697279
-0.031378098 0.1996181 0.70100003 10128245
-0.097219057 0.20181336 0.70400006 12628614
-0.095878102 0.20181336 0.70400006 12103306
-0.094537146 0.20181336 0.70400006 12169099
-0.093063809 0.20152666 0.70300001 10196602
-0.091463812 0.20095333 0.70100003 5788471
-0.090000004 0.20066668 0.70000005 4212017
-0.088413335 0.20009334 0.69800001 3356708
-0.086959057 0.19980668 0.69700003 3489350
-0.085262857 0.19894665 0.69400001 3357764
-0.08382 0.19866 0.69300002 4275523
-0.082261913 0.19808668 0.69100004 5854555
-0.080945715 0.19808668 0.69100004 6444343
-0.079514287 0.19780001 0.69000006 7760203
-0.077973336 0.19722667 0.68800002 8089163
-0.076662861 0.19722667 0.68800002 7168061
-0.075242862 0.19694002 0.68700004 6313530
-0.073934287 0.19694002 0.68700004 5655600
-0.072520003 0.19665334 0.68600005 5261082
-0.071213335 0.19665334 0.68600005 5458461
-0.069906674 0.19665334 0.68600005 5656113
-0.068600006 0.19665334 0.68600005 5656113
-0.067293338 0.19665334 0.68600005 5721654
-0.065986671 0.19665334 0.68600005 6379584
-0.064680003 0.19665334 0.68600005 6379586
-0.063373342 0.19665334 0.68600005 6182207
-0.062066671 0.19665334 0.68600005 5722683
-0.060760003 0.19665334 0.68600005 5656890
-0.059453338 0.19665334 0.68600005 5786177
-0.05814667 0.19665334 0.68600005 6180935
-0.056840003 0.19665334 0.68600005 5983782
-0.055533338 0.19665334 0.68600005 7431228
-0.05422667 0.19665334 0.68600005 7299925
-0.052920006 0.19665334 0.68600005 6510409
-0.051613338 0.19665334 0.68600005 6511168
-0.050380003 0.19694002 0.68700004 6182203
-0.049071431 0.19694002 0.68700004 5919016
-0.047832385 0.19722667 0.68800002 5919016
-0.046657149 0.19780001 0.69000006 6115627
-0.045342863 0.19780001 0.69000006 6181420
-0.044092383 0.19808668 0.69100004 5919016
-0.042776193 0.19808668 0.69100004 6116395
-0.041579999 0.19866 0.69300002 5723198
-0.040318094 0.19894665 0.69400001 5788991
-0.03899619 0.19894665 0.69400001 5987665
-0.037837144 0.19980668 0.69700003 5263942
-0.036561903 0.20009334 0.69800001 4214345
-0.035333335 0.20066668 0.70000005 2306348
-0.034145713 0.20152666 0.70300001 3354923
-0.032806665 0.20152666 0.70300001 7565675
-0.095878102 0.2031543 0.70400006 12366214
-0.094537146 0.2031543 0.70400006 12366214
-0.093063809 0.20286572 0.70300001 10590588
-0.091724768 0.20286572 0.70300001 6248250
-0.090000004 0.20200002 0.70000005 4080431
-0.088413335 0.20142286 0.69800001 2501399
-0.087083809 0.20142286 0.69800001 3358784
-0.08563143 0.20113429 0.69700003 3424577
-0.083940953 0.20026857 0.69400001 3751484
-0.082499996 0.19998001 0.69300002 4475207
-0.080945715 0.19940287 0.69100004 5129537
-0.079514287 0.19911431 0.69000006 5721674
-0.078200005 0.19911431 0.69000006 6509882
-0.076662861 0.19853714 0.68800002 6707261
-0.075242862 0.19824858 0.68700004 6116662
-0.073934287 0.19824858 0.68700004 5458732
-0.072520003 0.19796002 0.68600005 5328429
-0.071213335 0.19796002 0.68600005 5394222
-0.069906674 0.19796002 0.68600005 5524525
-0.068600006 0.19796002 0.68600005 5656111
-0.067293338 0.19796002 0.68600005 5525313
-0.065986671 0.19796002 0.68600005 5788485
-0.064680003 0.19796002 0.68600005 5722935
-0.063373342 0.19796002 0.68600005 5525556
-0.062066671 0.19796002 0.68600005 5656890
-0.060760003 0.19796002 0.68600005 5591097
-0.059453338 0.19796002 0.68600005 5919035
-0.05814667 0.19796002 0.68600005 6116414
-0.056840003 0.19796002 0.68600005 6313254
-0.055533338 0.19796002 0.68600005 6642219
-0.05422667 0.19796002 0.68600005 6445106
-0.052920006 0.19796002 0.68600005 6050348
-0.051688574 0.19824858 0.68700004 6247478
-0.050380003 0.19824858 0.68700004 6642236
-0.04914286 0.19853714 0.68800002 6969905
-0.047971431 0.19911431 0.69000006 6969905
-0.046657149 0.19911431 0.69000006 6838067
-0.045408577 0.19940287 0.69100004 6772274
-0.044092383 0.19940287 0.69100004 6708016
-0.0429 0.19998001 0.69300002 6905395
-0.041579999 0.19998001 0.69300002 5986359
-0.040318094 0.20026857 0.69400001 5854773
-0.03899619 0.20026857 0.69400001 5527114
-0.037837144 0.20113429 0.69700003 5461321
-0.036561903 0.20142286 0.69800001 4476752
-0.03523238 0.20142286 0.69800001 2437169
-0.034194287 0.2031543 0.70400006 3617845
-0.095878102 0.20449525 0.70400006 12300683
-0.094537146 0.20449525 0.70400006 12366476
-0.093063809 0.20420477 0.70300001 10919303
-0.091724768 0.20420477 0.70300001 6182207
-0.090128571 0.20362382 0.70100003 4474657
-0.088413335 0.20275238 0.69800001 3553555
-0.087083809 0.20275238 0.69800001 3424327
-0.08563143 0.20246191 0.69700003 3424327
-0.083940953 0.20159048 0.69400001 3292217
-0.082499996 0.20130001 0.69300002 3094838
-0.080945715 0.20071906 0.69100004 4605240
-0.079629533 0.20071906 0.69100004 5394756
-0.078200005 0.20042858 0.69000006 6050869
-0.076885715 0.20042858 0.69000006 6379834
-0.075352386 0.19984762 0.68800002 6051902
-0.073934287 0.19955714 0.68700004 5722937
-0.072625719 0.19955714 0.68700004 5263413
-0.071213335 0.19926667 0.68600005 5263413
-0.069906674 0.19926667 0.68600005 5131827
-0.068600006 0.19926667 0.68600005 5460792
-0.067293338 0.19926667 0.68600005 5657419
-0.065986671 0.19926667 0.68600005 5657419
-0.064680003 0.19926667 0.68600005 5656890
-0.063373342 0.19926667 0.68600005 5591097
-0.062066671 0.19926667 0.68600005 5656890
-0.060760003 0.19926667 0.68600005 5656890
-0.059453338 0.19926667 0.68600005 5722683
-0.05814667 0.19926667 0.68600005 5985855
-0.056840003 0.19926667 0.68600005 6051902
-0.055533338 0.19926667 0.68600005 5788730
-0.05422667 0.19926667 0.68600005 5853242
-0.052997146 0.19955714 0.68700004 5721656
-0.051688574 0.19955714 0.68700004 6115126
-0.050453335 0.19984762 0.68800002 6904642
-0.04914286 0.19984762 0.68800002 7363382
-0.047971431 0.20042858 0.69000006 7429175
-0.046724766 0.20071906 0.69100004 7166253
-0.045408577 0.20071906 0.69100004 7034667
-0.044220001 0.20130001 0.69300002 6773809
-0.0429 0.20130001 0.69300002 6642223
-0.041579999 0.20130001 0.69300002 5986862
-0.040318094 0.20159048 0.69400001 5921069
-0.039108574 0.20217144 0.69600004 5461823
-0.037837144 0.20246191 0.69700003 5461823
-0.036666669 0.20333335 0.70000005 5330505
-0.035535242 0.20449525 0.70400006 3619887
-0.034194287 0.20449525 0.70400006 4077079
-0.032853335 0.20449525 0.70400006 7629901
-0.096286669 0.20671335 0.70700002 12299906
-0.094939999 0.20671335 0.70700002 12628871
-0.093196198 0.20583621 0.70400006 11050637
-0.091724768 0.2055438 0.70300001 6116162
-0.090128571 0.20495906 0.70100003 4540201
-0.088413335 0.20408191 0.69800001 3553306
-0.087083809 0.20408191 0.69800001 3095110
-0.08563143 0.20378953 0.69700003 3095110
-0.083940953 0.20291238 0.69400001 2833199
-0.082499996 0.20262 0.69300002 2833199
-0.081180006 0.20262 0.69300002 4671803
-0.079629533 0.20203525 0.69100004 5592905
-0.078313336 0.20203525 0.69100004 6116913
-0.076885715 0.20174287 0.69000006 6511671
-0.075571433 0.20174287 0.69000006 6249290
-0.07404191 0.20115809 0.68800002 6117704
-0.072731428 0.20115809 0.68800002 5460292
-0.071317144 0.20086573 0.68700004 5328706
-0.070008576 0.20086573 0.68700004 5525056
-0.068700001 0.20086573 0.68700004 5854021
-0.067391433 0.20086573 0.68700004 5722960
-0.066082858 0.20086573 0.68700004 5591374
-0.064774282 0.20086573 0.68700004 5460292
-0.063465714 0.20086573 0.68700004 5262913
-0.06215715 0.20086573 0.68700004 5591097
-0.060848575 0.20086573 0.68700004 5656890
-0.059453338 0.20057335 0.68600005 5459011
-0.05814667 0.20057335 0.68600005 5459011
-0.056840003 0.20057335 0.68600005 5589316
-0.055614289 0.20086573 0.68700004 5720902
-0.054305717 0.20086573 0.68700004 5195598
-0.052997146 0.20086573 0.68700004 4340289
-0.051688574 0.20086573 0.68700004 5324368
-0.050453335 0.20115809 0.68800002 7034986
-0.04914286 0.20115809 0.68800002 7560507
-0.048040956 0.20203525 0.69100004 7494714
-0.046724766 0.20203525 0.69100004 7363884
-0.045408577 0.20203525 0.69100004 7166505
-0.044220001 0.20262 0.69300002 6445356
-0.0429 0.20262 0.69300002 5590047
-0.041639999 0.20291238 0.69400001 5198129
-0.040434286 0.20349716 0.69600004 6382403
-0.039108574 0.20349716 0.69600004 6184515
-0.037891429 0.20408191 0.69800001 6316101
-0.036666669 0.20466667 0.70000005 5725499
-0.035535242 0.20583621 0.70400006 3817502
-0.034194287 0.20583621 0.70400006 3749931
-0.032853335 0.20583621 0.70400006 7039581
-0.096422859 0.20835428 0.708 12233611
-0.095074289 0.20835428 0.708 12496783
-0.093460955 0.20776571 0.70600003 11050630
-0.091855243 0.20717715 0.70400006 6839878
-0.090128571 0.2062943 0.70100003 5198634
-0.088413335 0.20541143 0.69800001 3356430
-0.087083809 0.20541143 0.69800001 2963776
-0.08563143 0.20511714 0.69700003 2503225
-0.083940953 0.20423429 0.69400001 2239790
-0.082619049 0.20423429 0.69400001 3029306
-0.081180006 0.20394 0.69300002 4671033
-0.079860002 0.20394 0.69300002 5526342
-0.078313336 0.20335144 0.69100004 5984828
-0.076997146 0.20335144 0.69100004 6511172
-0.075571433 0.20305716 0.69000006 6445136
-0.07404191 0.20246857 0.68800002 6313550
-0.072731428 0.20246857 0.68800002 5394247
-0.071420953 0.20246857 0.68800002 5394247
-0.070008576 0.20217429 0.68700004 5460040
-0.068700001 0.20217429 0.68700004 5591626
-0.067391433 0.20217429 0.68700004 5788501
-0.066082858 0.20217429 0.68700004 5459536
-0.064868569 0.20246857 0.68800002 5197638
-0.063558094 0.20246857 0.68800002 5197638
-0.06215715 0.20217429 0.68700004 5130809
-0.060848575 0.20217429 0.68700004 5130809
-0.05954 0.20217429 0.68700004 4932649
-0.058231428 0.20217429 0.68700004 5393200
-0.05692286 0.20217429 0.68700004 5458225
-0.055614289 0.20217429 0.68700004 5721397
-0.054305717 0.20217429 0.68700004 4867912
-0.052997146 0.20217429 0.68700004 3617845
-0.05176381 0.20246857 0.68800002 4996635
-0.050600003 0.20305716 0.69000006 7233597
-0.049285717 0.20305716 0.69000006 7559504
-0.048040956 0.20335144 0.69100004 7427918
-0.046860002 0.20394 0.69300002 7297337
-0.045540001 0.20394 0.69300002 7363130
-0.044220001 0.20394 0.69300002 6379574
-0.042961907 0.20423429 0.69400001 4339991
-0.041760001 0.20482287 0.69600004 4211236
-0.040434286 0.20482287 0.69600004 6185026
-0.039108574 0.20482287 0.69600004 6446917
-0.038000003 0.20600002 0.70000005 6644296
-0.036823809 0.20688286 0.70300001 6118720
-0.035535242 0.20717715 0.70400006 3815965
-0.034194287 0.20717715 0.70400006 3749385
-0.032853335 0.20717715 0.70400006 7039035
-0.093196198 0.2085181 0.70400006 11314047
-0.091855243 0.2085181 0.70400006 7563846
-0.090385713 0.2082219 0.70300001 5330237
-0.08866667 0.20733334 0.70000005 3224861
-0.087333336 0.20733334 0.70000005 2108485
-0.085754283 0.20674095 0.69800001 2503243
-0.084303811 0.20644477 0.69700003 2896961
-0.082619049 0.20555618 0.69400001 3752270
-0.081297144 0.20555618 0.69400001 4474424
-0.079860002 0.20526001 0.69300002 4671803
-0.078540005 0.20526001 0.69300002 5065016
-0.076997146 0.20466763 0.69100004 4933430
-0.075680956 0.20466763 0.69100004 4868162
-0.074364766 0.20466763 0.69100004 4868162
-0.073048577 0.20466763 0.69100004 4407879
-0.071628578 0.20437144 0.69000006 4276293
-0.070314296 0.20437144 0.69000006 4210752
-0.069000006 0.20437144 0.69000006 4210752
-0.067489527 0.20377904 0.68800002 4539717
-0.066179045 0.20377904 0.68800002 4473924
-0.064868569 0.20377904 0.68800002 4999998
-0.063558094 0.20377904 0.68800002 5197377
-0.062247619 0.20377904 0.68800002 5197888
-0.060848575 0.20348287 0.68700004 5197888
-0.05954 0.20348287 0.68700004 5394497
-0.058231428 0.20348287 0.68700004 5855048
-0.05692286 0.20348287 0.68700004 6051902
-0.055614289 0.20348287 0.68700004 6183488
-0.054305717 0.20348287 0.68700004 5395017
-0.053074285 0.20377904 0.68800002 3947571
-0.05191429 0.20437144 0.69000006 5194790
-0.050600003 0.20437144 0.69000006 7431752
-0.049357146 0.20466763 0.69100004 7823187
-0.048179999 0.20526001 0.69300002 7165257
-0.046860002 0.20526001 0.69300002 7033911
-0.045540001 0.20526001 0.69300002 7231290
-0.044283811 0.20555618 0.69400001 6313530
-0.042961907 0.20555618 0.69400001 4537119
-0.041760001 0.20614858 0.69600004 4342865
-0.040434286 0.20614858 0.69600004 5790311
-0.039164763 0.20644477 0.69700003 6513213
-0.038000003 0.20733334 0.70000005 6776385
-0.03687619 0.2085181 0.70400006 5856310
-0.035535242 0.2085181 0.70400006 3619348
-0.034291428 0.20911048 0.70600003 3291657
-0.032946669 0.20911048 0.70600003 6515514
-0.031601906 0.20911048 0.70600003 10127734
-0.093196198 0.20985906 0.70400006 11643274
-0.091855243 0.20985906 0.70400006 7498315
-0.090385713 0.20956095 0.70300001 5790266
-0.088793337 0.20896477 0.70100003 3026960
-0.087333336 0.20866668 0.70000005 2502701
-0.085754283 0.20807047 0.69800001 2634287
-0.084303811 0.20777239 0.69700003 3422267
-0.082857147 0.20747429 0.69600004 4080197
-0.081297144 0.2068781 0.69400001 3949363
-0.079860002 0.20658001 0.69300002 4344121
-0.078540005 0.20658001 0.69300002 4475959
-0.076997146 0.20598383 0.69100004 3752236
-0.075680956 0.20598383 0.69100004 3883070
-0.074364766 0.20598383 0.69100004 3948863
-0.073048577 0.20598383 0.69100004 3817025
-0.071732387 0.20598383 0.69100004 3619646
-0.070314296 0.20568573 0.69000006 3620148
-0.069000006 0.20568573 0.69000006 3620148
-0.067685723 0.20568573 0.69000006 4408131
-0.066371433 0.20568573 0.69000006 4539717
-0.065057144 0.20568573 0.69000006 4868664
-0.063558094 0.20508952 0.68800002 5197629
-0.062247619 0.20508952 0.68800002 5197888
-0.060937144 0.20508952 0.68800002 5197888
-0.05954 0.20479143 0.68700004 5394229
-0.058231428 0.20479143 0.68700004 5920573
-0.057005715 0.20508952 0.68800002 5855550
-0.055695239 0.20508952 0.68800002 5987136
-0.054384761 0.20508952 0.68800002 5723980
-0.053074285 0.20508952 0.68800002 4737085
-0.05191429 0.20568573 0.69000006 5720615
-0.050673336 0.20598383 0.69100004 7562819
-0.049357146 0.20598383 0.69100004 7823439
-0.048179999 0.20658001 0.69300002 7099716
-0.046860002 0.20658001 0.69300002 7034413
-0.045540001 0.20658001 0.69300002 7165999
-0.044283811 0.2068781 0.69400001 5984054
-0.043085717 0.20747429 0.69600004 5128745
-0.041760001 0.20747429 0.69600004 4802639
-0.040434286 0.20747429 0.69600004 5986913
-0.039164763 0.20777239 0.69700003 6512712
-0.038000003 0.20866668 0.70000005 6775884
-0.036980953 0.21045525 0.70600003 5592628
-0.035636194 0.21045525 0.70600003 3224080
-0.034291428 0.21045525 0.70600003 3027456
-0.032946669 0.21045525 0.70600003 6711860
-0.091855243 0.21120003 0.70400006 7563851
-0.090385713 0.21090001 0.70300001 5593390
-0.088793337 0.21030001 0.70100003 2830084
-0.087333336 0.21000001 0.70000005 2371628
-0.086000003 0.21000001 0.70000005 2634800
-0.084424764 0.20940001 0.69800001 3488312
-0.082857147 0.2088 0.69600004 3883070
-0.081531428 0.2088 0.69600004 3621938
-0.07997524 0.20819999 0.69400001 3358766
-0.078540005 0.20790002 0.69300002 3357478
-0.07722 0.20790002 0.69300002 3554857
-0.075899996 0.20790002 0.69300002 3685691
-0.074364766 0.20730001 0.69100004 3751484
-0.073048577 0.20730001 0.69100004 3489350
-0.071732387 0.20730001 0.69100004 3226178
-0.070416197 0.20730001 0.69100004 3291433
-0.069100007 0.20730001 0.69100004 3488812
-0.067685723 0.20700002 0.69000006 3947328
-0.066371433 0.20700002 0.69000006 4407879
-0.065057144 0.20700002 0.69000006 5065793
-0.063742861 0.20700002 0.69000006 5197379
-0.062247619 0.20639999 0.68800002 5262911
-0.060937144 0.20639999 0.68800002 5262911
-0.059626669 0.20639999 0.68800002 5394222
-0.058316194 0.20639999 0.68800002 5854773
-0.057005715 0.20639999 0.68800002 6182205
-0.055695239 0.20639999 0.68800002 6313791
-0.054384761 0.20639999 0.68800002 6313791
-0.053228576 0.20700002 0.69000006 6116412
-0.05191429 0.20700002 0.69000006 6707004
-0.050673336 0.20730001 0.69100004 7430727
-0.049357146 0.20730001 0.69100004 7493946
-0.048179999 0.20790002 0.69300002 7033395
-0.046860002 0.20790002 0.69300002 7033640
-0.045540001 0.20790002 0.69300002 7296812
-0.044283811 0.20819999 0.69400001 7232835
-0.043085717 0.2088 0.69600004 7298628
-0.041760001 0.2088 0.69600004 7036773
-0.040434286 0.2088 0.69600004 6839394
-0.039164763 0.20910001 0.69700003 7101769
-0.038000003 0.21000001 0.70000005 7891285
-0.037033334 0.2121 0.70700002 5723980
-0.035636194 0.21180001 0.70600003 2697502
-0.034291428 0.21180001 0.70600003 3095344
-0.032946669 0.21180001 0.70600003 6450787
-0.031691428 0.2124 0.708 9471346
-0.091855243 0.21254097 0.70400006 7432001
-0.090385713 0.21223904 0.70300001 5658169
-0.088793337 0.21163525 0.70100003 2829070
-0.087333336 0.21133333 0.70000005 2635043
-0.086000003 0.21133333 0.70000005 2766629
-0.084424764 0.21072952 0.69800001 3424309
-0.082976192 0.21042763 0.69700003 4016446
-0.081531428 0.21012573 0.69600004 3885880
-0.07997524 0.2095219 0.69400001 2964778
-0.078653328 0.2095219 0.69400001 2766629
-0.07722 0.20921999 0.69300002 3095594
-0.075899996 0.20921999 0.69300002 3422769
-0.074580006 0.20921999 0.69300002 3554355
-0.073260002 0.20921999 0.69300002 3356976
-0.071732387 0.2086162 0.69100004 3225390
-0.070416197 0.2086162 0.69100004 2896925
-0.069100007 0.2086162 0.69100004 3225890
-0.06778381 0.2086162 0.69100004 3553574
-0.066467628 0.2086162 0.69100004 4145711
-0.065151431 0.2086162 0.69100004 5263149
-0.063742861 0.2083143 0.69000006 5263149
-0.062428575 0.2083143 0.69000006 5328179
-0.061114289 0.2083143 0.69000006 5459765
-0.059800003 0.2083143 0.69000006 5788200
-0.058485717 0.2083143 0.69000006 6051372
-0.057171434 0.2083143 0.69000006 6247729
-0.055857148 0.2083143 0.69000006 6445108
-0.054542862 0.2083143 0.69000006 6969665
-0.053228576 0.2083143 0.69000006 7298630
-0.051989529 0.2086162 0.69100004 7429695
-0.050673336 0.2086162 0.69100004 7298109
-0.049357146 0.2086162 0.69100004 7164470
-0.048179999 0.20921999 0.69300002 6901298
-0.046860002 0.20921999 0.69300002 6967341
-0.045605715 0.2095219 0.69400001 7691064
-0.044411432 0.21012573 0.69600004 7626569
-0.043085717 0.21012573 0.69600004 7692362
-0.041760001 0.21012573 0.69600004 7626067
-0.040434286 0.21012573 0.69600004 7428688
-0.039164763 0.21042763 0.69700003 7298109
-0.038054287 0.21163525 0.70100003 8087625
-0.03687619 0.21254097 0.70400006 6053708
-0.035686668 0.21344666 0.70700002 3487781
-0.034339998 0.21344666 0.70700002 3424000
-0.033040002 0.21374857 0.708 5924129
-0.031691428 0.21374857 0.708 9207920
-0.093196198 0.21388192 0.70400006 11708800
-0.091855243 0.21388192 0.70400006 7432255
-0.090514295 0.21388192 0.70400006 5854796
-0.089046665 0.21357809 0.70300001 2828318
-0.087458096 0.2129705 0.70100003 2241568
-0.086000003 0.21266668 0.70000005 2833705
-0.084424764 0.21205905 0.69800001 3358516
-0.082976192 0.21175523 0.69700003 3884860
-0.081531428 0.21145144 0.69600004 4213289
-0.07997524 0.2108438 0.69400001 3357980
-0.078653328 0.2108438 0.69400001 3553853
-0.07722 0.21054 0.69300002 4474955
-0.075899996 0.21054 0.69300002 5855022
