# .PCD v0.7 - Point Cloud Data file format
VERSION 0.7
FIELDS x y z rgba
SIZE 4 4 4 4
TYPE F F F U
COUNT 1 1 1 1
WIDTH 1116
HEIGHT 1
VIEWPOINT 0 0 0 1 0 0 0
POINTS 1116
DATA ascii
-0.053357143 0.17572285 0.74700004 6705485
-0.051934287 0.17572285 0.74700004 6771278
-0.050511431 0.17572285 0.74700004 6244684
-0.049088575 0.17572285 0.74700004 5981512
-0.047665719 0.17572285 0.74700004 5851174
-0.046242859 0.17572285 0.74700004 6706483
-0.044939999 0.17619334 0.74900001 7101533
-0.043513332 0.17619334 0.74900001 4798778
-0.042086668 0.17619334 0.74900001 5457940
-0.040660001 0.17619334 0.74900001 6181663
-0.039285716 0.17642859 0.75000006 5589316
-0.037857145 0.17642859 0.75000006 5128765
-0.036525715 0.17689905 0.75200003 5391930
-0.035093337 0.17689905 0.75200003 6444618
-0.033750474 0.17736953 0.75400001 7957023
-0.032314286 0.17736953 0.75400001 8220195
-0.030919051 0.17760478 0.75500005 9535511
-0.029559048 0.17807524 0.75700003 10390820
-0.02819143 0.17854573 0.75900006 8879706
-0.026745716 0.17854573 0.75900006 6774330
-0.0254 0.17925143 0.76200002 4739658
-0.024011429 0.17972191 0.76400006 1713180
-0.022644762 0.18042763 0.76700002 5130078
-0.021183809 0.18042763 0.76700002 13880547
-0.019722857 0.18042763 0.76700002 14997423
-0.018261906 0.18042763 0.76700002 14668458
-0.081898101 0.18046573 0.76100004 6576970
-0.080448568 0.18046573 0.76100004 5066563
-0.07899905 0.18046573 0.76100004 3750703
-0.077549525 0.18046573 0.76100004 3950151
-0.075900003 0.17999144 0.75900006 3686979
-0.074454293 0.17999144 0.75900006 3947562
-0.072623812 0.17904286 0.75500005 5526594
-0.071091428 0.17880571 0.75400001 7563305
-0.06965524 0.17880571 0.75400001 9208130
-0.068038099 0.17833143 0.75200003 9403491
-0.066605717 0.17833143 0.75200003 9469284
-0.065173343 0.17833143 0.75200003 8943971
-0.063571438 0.17785716 0.75000006 7101767
-0.062142864 0.17785716 0.75000006 6970162
-0.06071429 0.17785716 0.75000006 6970162
-0.059206665 0.17762001 0.74900001 5523990
-0.057780001 0.17762001 0.74900001 5260818
-0.056202862 0.17714572 0.74700004 4933430
-0.054780003 0.17714572 0.74700004 5328188
-0.053357143 0.17714572 0.74700004 5919035
-0.052073333 0.17762001 0.74900001 6182207
-0.050646666 0.17762001 0.74900001 5590068
-0.049219999 0.17762001 0.74900001 4997931
-0.047793336 0.17762001 0.74900001 4865801
-0.046366669 0.17762001 0.74900001 6839591
-0.044939999 0.17762001 0.74900001 7299425
-0.043513332 0.17762001 0.74900001 5917772
-0.042086668 0.17762001 0.74900001 5785888
-0.04071429 0.17785716 0.75000006 6443818
-0.039390475 0.17833143 0.75200003 6247235
-0.037958097 0.17833143 0.75200003 5852477
-0.036525715 0.17833143 0.75200003 6707764
-0.035186667 0.17880571 0.75400001 6707764
-0.033750474 0.17880571 0.75400001 6773809
-0.032357145 0.17904286 0.75500005 6839602
-0.030919051 0.17904286 0.75500005 7954722
-0.029559048 0.17951715 0.75700003 10125891
-0.02819143 0.17999144 0.75900006 8814428
-0.026816191 0.18046573 0.76100004 6182708
-0.025466667 0.18117715 0.76400006 4804938
-0.024074288 0.18165143 0.76600003 2173218
-0.022615239 0.18165143 0.76600003 5392225
-0.021156192 0.18165143 0.76600003 14076901
-0.019722857 0.18188857 0.76700002 14997430
-0.018261906 0.18188857 0.76700002 14602672
-0.081898101 0.18191525 0.76100004 7300693
-0.080448568 0.18191525 0.76100004 4936024
-0.07899905 0.18191525 0.76100004 3488578
-0.077549525 0.18191525 0.76100004 3621186
-0.075900003 0.18143716 0.75900006 3950151
-0.074454293 0.18143716 0.75900006 4933453
-0.073008575 0.18143716 0.75900006 6249313
-0.071185715 0.18048097 0.75500005 7628837
-0.06965524 0.1802419 0.75400001 9273662
-0.068219043 0.1802419 0.75400001 9075542
-0.066605717 0.17976382 0.75200003 8351819
-0.065173343 0.17976382 0.75200003 7759949
-0.063740954 0.17976382 0.75200003 6838847
-0.062308576 0.17976382 0.75200003 6904632
-0.060876191 0.17976382 0.75200003 6904632
-0.059285719 0.17928572 0.75000006 6642744
-0.057857145 0.17928572 0.75000006 6642744
-0.056353334 0.17904668 0.74900001 6577213
-0.054926667 0.17904668 0.74900001 6840385
-0.0535 0.17904668 0.74900001 6773833
-0.052073333 0.17904668 0.74900001 6905419
-0.050646666 0.17904668 0.74900001 6708801
-0.049219999 0.17904668 0.74900001 6577215
-0.047793336 0.17904668 0.74900001 6576704
-0.046366669 0.17904668 0.74900001 7234634
-0.045000002 0.17928572 0.75000006 7826258
-0.043571431 0.17928572 0.75000006 7760465
-0.042142861 0.17928572 0.75000006 7430221
-0.04082286 0.17976382 0.75200003 7101256
-0.039390475 0.17976382 0.75200003 6838595
-0.037958097 0.17976382 0.75200003 6049079
-0.036622856 0.1802419 0.75400001 5984585
-0.035186667 0.1802419 0.75400001 6576722
-0.033750474 0.1802419 0.75400001 6970433
-0.032357145 0.18048097 0.75500005 6904640
-0.031000955 0.18095905 0.75700003 7693117
-0.029637145 0.18143716 0.75900006 8482633
-0.02819143 0.18143716 0.75900006 7695659
-0.026816191 0.18191525 0.76100004 5919248
-0.025466667 0.18263239 0.76400006 4673615
-0.024074288 0.18311048 0.76600003 2436653
-0.022615239 0.18311048 0.76600003 5983077
-0.021156192 0.18311048 0.76600003 14470374
-0.019697145 0.18311048 0.76600003 15062962
-0.018238096 0.18311048 0.76600003 14997169
-0.081898101 0.18336476 0.76100004 8024411
-0.080448568 0.18336476 0.76100004 5660247
-0.07899905 0.18336476 0.76100004 3225906
-0.077549525 0.18336476 0.76100004 3751984
-0.076100007 0.18336476 0.76100004 4080949
-0.074454293 0.18288288 0.75900006 4933705
-0.073008575 0.18288288 0.75900006 6315358
-0.071185715 0.18191905 0.75500005 7891527
-0.06965524 0.1816781 0.75400001 9207387
-0.068219043 0.1816781 0.75400001 8616544
-0.066605717 0.1811962 0.75200003 7234891
-0.065173343 0.1811962 0.75200003 6314043
-0.063740954 0.1811962 0.75200003 6379836
-0.062308576 0.1811962 0.75200003 6772787
-0.060876191 0.1811962 0.75200003 6904373
-0.059285719 0.18071429 0.75000006 7167814
-0.057857145 0.18071429 0.75000006 6904642
-0.056428574 0.18071429 0.75000006 6708530
-0.054926667 0.18047334 0.74900001 6905909
-0.0535 0.18047334 0.74900001 6641995
-0.052073333 0.18047334 0.74900001 6839374
-0.050646666 0.18047334 0.74900001 6905417
-0.049219999 0.18047334 0.74900001 6773831
-0.047857147 0.18071429 0.75000006 6511420
-0.046428576 0.18071429 0.75000006 7235143
-0.045000002 0.18071429 0.75000006 7760215
-0.043687619 0.1811962 0.75200003 7826008
-0.042255241 0.1811962 0.75200003 7298385
-0.04082286 0.1811962 0.75200003 7101006
-0.039390475 0.1811962 0.75200003 6773581
-0.037958097 0.1811962 0.75200003 5720893
-0.036622856 0.1816781 0.75400001 5654822
-0.035186667 0.1816781 0.75400001 6773303
-0.033795241 0.18191905 0.75500005 6905417
-0.03244286 0.18240096 0.75700003 6971210
-0.031000955 0.18240096 0.75700003 7167814
-0.029637145 0.18288288 0.75900006 7036228
-0.028265715 0.18336476 0.76100004 6249279
-0.026816191 0.18336476 0.76100004 5065005
-0.025533335 0.18456952 0.76600003 4409664
-0.024074288 0.18456952 0.76600003 2172702
-0.022615239 0.18456952 0.76600003 6639453
-0.021156192 0.18456952 0.76600003 14929371
-0.019697145 0.18456952 0.76600003 15128506
-0.018261906 0.18481049 0.76700002 14602162
-0.082005717 0.18505715 0.76200002 9010784
-0.080554284 0.18505715 0.76200002 6052947
-0.07899905 0.18481429 0.76100004 3026469
-0.077549525 0.18481429 0.76100004 3357226
-0.076100007 0.18481429 0.76100004 4409914
-0.074650481 0.18481429 0.76100004 4803652
-0.073008575 0.18432859 0.75900006 5198410
-0.071185715 0.18335715 0.75500005 6511163
-0.069747627 0.18335715 0.75500005 7366472
-0.068219043 0.18311429 0.75400001 7364941
-0.066782854 0.18311429 0.75400001 7035976
-0.065346666 0.18311429 0.75400001 6511179
-0.063910477 0.18311429 0.75400001 6182214
-0.062474284 0.18311429 0.75400001 6313774
-0.060876191 0.18262857 0.75200003 6050602
-0.059443813 0.18262857 0.75200003 6050378
-0.058011431 0.18262857 0.75200003 5852999
-0.05657905 0.18262857 0.75200003 6708266
-0.055000003 0.18214287 0.75000006 7037231
-0.053571433 0.18214287 0.75000006 6773077
-0.052142859 0.18214287 0.75000006 6378319
-0.050714288 0.18214287 0.75000006 6642247
-0.049285717 0.18214287 0.75000006 6510661
-0.047857147 0.18214287 0.75000006 6445106
-0.046428576 0.18214287 0.75000006 7366208
-0.045120001 0.18262857 0.75200003 7496777
-0.043687619 0.18262857 0.75200003 6970433
-0.042255241 0.18262857 0.75200003 7101006
-0.04082286 0.18262857 0.75200003 7166799
-0.039495237 0.18311429 0.75400001 7166538
-0.038059048 0.18311429 0.75400001 7166538
-0.036622856 0.18311429 0.75400001 7298109
-0.035233337 0.18335715 0.75500005 7627074
-0.033795241 0.18335715 0.75500005 7298887
-0.03244286 0.18384285 0.75700003 7298887
-0.031082857 0.18432859 0.75900006 6839374
-0.02971524 0.18481429 0.76100004 6905167
-0.028265715 0.18481429 0.76100004 6315849
-0.026851429 0.18505715 0.76200002 4736817
-0.025533335 0.18602857 0.76600003 3556665
-0.024105715 0.18627143 0.76700002 1188117
-0.022615239 0.18602857 0.76600003 6837341
-0.021156192 0.18602857 0.76600003 14732501
-0.019722857 0.18627143 0.76700002 15062703
-0.018261906 0.18627143 0.76700002 14536359
-0.082436197 0.18748763 0.76600003 9272669
-0.080977142 0.18748763 0.76600003 6578255
-0.079102859 0.18650857 0.76200002 3551777
-0.077651434 0.18650857 0.76200002 3554355
-0.076200001 0.18650857 0.76200002 4343871
-0.074650481 0.18626381 0.76100004 4475207
-0.073200949 0.18626381 0.76100004 4080449
-0.071374282 0.18528476 0.75700003 5263149
-0.069747627 0.18479526 0.75500005 6710595
-0.068309531 0.18479526 0.75500005 6906431
-0.066782854 0.18455048 0.75400001 6972224
-0.065346666 0.18455048 0.75400001 6972232
-0.063910477 0.18455048 0.75400001 6774853
-0.062474284 0.18455048 0.75400001 6774845
-0.061038099 0.18455048 0.75400001 6840638
-0.059443813 0.18406096 0.75200003 6642504
-0.058011431 0.18406096 0.75200003 6708297
-0.05657905 0.18406096 0.75200003 7036727
-0.055146668 0.18406096 0.75200003 7299899
-0.053714287 0.18406096 0.75200003 7233357
-0.052281909 0.18406096 0.75200003 6970185
-0.050714288 0.18357144 0.75000006 6642247
-0.049285717 0.18357144 0.75000006 6576454
-0.047984764 0.18406096 0.75200003 6510911
-0.046552382 0.18406096 0.75200003 6708290
-0.045120001 0.18406096 0.75200003 6576972
-0.043687619 0.18406096 0.75200003 6379593
-0.042255241 0.18406096 0.75200003 7035465
-0.04093143 0.18455048 0.75400001 7101258
-0.039495237 0.18455048 0.75400001 7690044
-0.038059048 0.18455048 0.75400001 8150595
-0.03667143 0.18479526 0.75500005 8281930
-0.035233337 0.18479526 0.75500005 8216137
-0.033884764 0.18528476 0.75700003 7560776
-0.03244286 0.18528476 0.75700003 7297604
-0.031082857 0.1857743 0.75900006 6905419
-0.02971524 0.18626381 0.76100004 7102798
-0.028265715 0.18626381 0.76100004 6382416
-0.026851429 0.18650857 0.76200002 5198142
-0.025533335 0.18748763 0.76600003 4211252
-0.024105715 0.18773238 0.76700002 2040083
-0.022644762 0.18773238 0.76700002 7101281
-0.021183809 0.18773238 0.76700002 14535890
-0.019722857 0.18773238 0.76700002 14536109
-0.018261906 0.18773238 0.76700002 14601902
-0.082543813 0.18919334 0.76700002 8944465
-0.080977142 0.18894668 0.76600003 6315365
-0.079310484 0.18845335 0.76400006 3683645
-0.077855244 0.18845335 0.76400006 3423807
-0.076200001 0.18796 0.76200002 3555393
-0.074748568 0.18796 0.76200002 3816019
-0.073200949 0.18771334 0.76100004 4079191
-0.071562864 0.18722001 0.75900006 5395017
-0.069932379 0.18672667 0.75700003 6513498
-0.068309531 0.18623334 0.75500005 6972215
-0.066871434 0.18623334 0.75500005 7235387
-0.065346666 0.18598665 0.75400001 7038008
-0.063910477 0.18598665 0.75400001 6840629
-0.062474284 0.18598665 0.75400001 6775095
-0.061038099 0.18598665 0.75400001 6972474
-0.059443813 0.18549334 0.75200003 6840396
-0.058011431 0.18549334 0.75200003 6774603
-0.05657905 0.18549334 0.75200003 6840125
-0.055146668 0.18549334 0.75200003 6971711
-0.053714287 0.18549334 0.75200003 7036477
-0.052281909 0.18549334 0.75200003 6773305
-0.050849527 0.18549334 0.75200003 6445386
-0.049417142 0.18549334 0.75200003 6379593
-0.047984764 0.18549334 0.75200003 6379343
-0.046552382 0.18549334 0.75200003 6445136
-0.045120001 0.18549334 0.75200003 5986384
-0.043803807 0.18598665 0.75400001 5065282
-0.042367619 0.18598665 0.75400001 6049106
-0.04093143 0.18598665 0.75400001 7628138
-0.039495237 0.18598665 0.75400001 8480816
-0.038109526 0.18623334 0.75500005 8678195
-0.036768574 0.18672667 0.75700003 8085321
-0.035326667 0.18672667 0.75700003 7953735
-0.033884764 0.18672667 0.75700003 7232842
-0.032528572 0.18722001 0.75900006 6838084
-0.031082857 0.18722001 0.75900006 6446419
-0.02971524 0.18771334 0.76100004 6775384
-0.028265715 0.18771334 0.76100004 6578769
-0.026851429 0.18796 0.76200002 6578769
-0.025566667 0.18919334 0.76700002 4213337
-0.024105715 0.18919334 0.76700002 1515824
-0.022556191 0.18845335 0.76400006 6641495
-0.021100953 0.18845335 0.76400006 14405069
-0.019722857 0.18919334 0.76700002 14865326
-0.018261906 0.18919334 0.76700002 14667947
-0.08400476 0.19065429 0.76700002 13485218
-0.082543813 0.19065429 0.76700002 8879708
-0.081082858 0.19065429 0.76700002 7629399
-0.079518095 0.19040573 0.76600003 4142370
-0.077855244 0.18990859 0.76400006 3751734
-0.076200001 0.18941143 0.76200002 3488562
-0.074748568 0.18941143 0.76200002 3223605
-0.073200949 0.18916285 0.76100004 4013121
-0.071562864 0.18866573 0.75900006 5461062
-0.069932379 0.18816859 0.75700003 6382164
-0.068490475 0.18816859 0.75700003 6972220
-0.066871434 0.18767144 0.75500005 7235392
-0.065433331 0.18767144 0.75500005 7102796
-0.063910477 0.18742286 0.75400001 6905417
-0.062474284 0.18742286 0.75400001 6578507
-0.061038099 0.18742286 0.75400001 6578507
-0.059443813 0.18692571 0.75200003 6578005
-0.058011431 0.18692571 0.75200003 6249040
-0.05657905 0.18692571 0.75200003 6380083
-0.055146668 0.18692571 0.75200003 6380083
-0.053714287 0.18692571 0.75200003 6379582
-0.052420951 0.18742286 0.75400001 6379582
-0.050984763 0.18742286 0.75400001 6379586
-0.04954857 0.18742286 0.75400001 6379586
-0.048112381 0.18742286 0.75400001 6117441
-0.046676192 0.18742286 0.75400001 6249027
-0.04524 0.18742286 0.75400001 5855566
-0.043803807 0.18742286 0.75400001 4210741
-0.042367619 0.18742286 0.75400001 5588763
-0.04093143 0.18742286 0.75400001 8220483
-0.039547618 0.18767144 0.75500005 8612409
-0.038109526 0.18767144 0.75500005 8546616
-0.036768574 0.18816859 0.75700003 7888723
-0.035326667 0.18816859 0.75700003 7691344
-0.03397429 0.18866573 0.75900006 6970433
-0.032528572 0.18866573 0.75900006 6378296
-0.031164765 0.18916285 0.76100004 6052947
-0.029754287 0.18941143 0.76200002 7237221
-0.028302858 0.18941143 0.76200002 7106148
-0.026921906 0.18990859 0.76400006 6250839
-0.025566667 0.19065429 0.76700002 5199946
-0.024105715 0.19065429 0.76700002 2699812
-0.022556191 0.18990859 0.76400006 6509403
-0.021100953 0.18990859 0.76400006 14404563
-0.019645717 0.18990859 0.76400006 14800051
-0.018190479 0.18990859 0.76400006 14536879
-0.08400476 0.19211525 0.76700002 13616294
-0.082543813 0.19211525 0.76700002 10655609
-0.081082858 0.19211525 0.76700002 7565164
-0.079518095 0.19186477 0.76600003 3749170
-0.077855244 0.19136383 0.76400006 3226930
-0.076200001 0.19086286 0.76200002 2963758
-0.074748568 0.19086286 0.76200002 3290431
-0.073200949 0.19061239 0.76100004 3882568
-0.071562864 0.19011144 0.75900006 5264442
-0.070117153 0.19011144 0.75900006 5724993
-0.068490475 0.18961048 0.75700003 5987635
-0.067048572 0.18961048 0.75700003 6185014
-0.065433331 0.18910953 0.75500005 5525581
-0.063995242 0.18910953 0.75500005 5196616
-0.062474284 0.18885905 0.75400001 5131856
-0.061038099 0.18885905 0.75400001 5526614
-0.059601903 0.18885905 0.75400001 5131341
-0.058165714 0.18885905 0.75400001 4933962
-0.056729525 0.18885905 0.75400001 6052403
-0.055293337 0.18885905 0.75400001 6118196
-0.05385714 0.18885905 0.75400001 6379836
-0.052420951 0.18885905 0.75400001 6445629
-0.050984763 0.18885905 0.75400001 6445379
-0.04954857 0.18885905 0.75400001 6971723
-0.048112381 0.18885905 0.75400001 6972232
-0.046676192 0.18885905 0.75400001 7235404
-0.04524 0.18885905 0.75400001 6316619
-0.043803807 0.18885905 0.75400001 4211243
-0.042367619 0.18885905 0.75400001 5917737
-0.040985718 0.18910953 0.75500005 8417871
-0.039547618 0.18910953 0.75500005 8415273
-0.038109526 0.18910953 0.75500005 8349480
-0.036768574 0.18961048 0.75700003 7822426
-0.035420001 0.19011144 0.75900006 7756633
-0.03397429 0.19011144 0.75900006 6181435
-0.032614287 0.19061239 0.76100004 5457712
-0.031164765 0.19061239 0.76100004 5921361
-0.029754287 0.19086286 0.76200002 7697772
-0.028302858 0.19086286 0.76200002 7368787
-0.026921906 0.19136383 0.76400006 5723962
-0.025566667 0.19211525 0.76700002 4804413
-0.024105715 0.19211525 0.76700002 2896416
-0.02270381 0.19261619 0.76900005 6116448
-0.02123905 0.19261619 0.76900005 14011608
-0.019774286 0.19261619 0.76900005 14799783
-0.08646857 0.19584762 0.77600002 14338460
-0.084990479 0.19584762 0.77600002 13746850
-0.082543813 0.19357619 0.76700002 10917751
-0.081082858 0.19357619 0.76700002 8354396
-0.079518095 0.19332381 0.76600003 3683093
-0.078059055 0.19332381 0.76600003 3227957
-0.076200001 0.1923143 0.76200002 3227957
-0.074748568 0.1923143 0.76200002 3489600
-0.07329715 0.1923143 0.76200002 3884358
-0.071751431 0.19206192 0.76100004 5066563
-0.070117153 0.19155715 0.75900006 5461321
-0.068671428 0.19155715 0.75900006 5265214
-0.067048572 0.19105239 0.75700003 4673077
-0.065606669 0.19105239 0.75700003 4342838
-0.063995242 0.19054763 0.75500005 4606010
-0.062474284 0.19029523 0.75400001 4343621
-0.061038099 0.19029523 0.75400001 3817277
-0.059601903 0.19029523 0.75400001 4014125
-0.058165714 0.19029523 0.75400001 5001020
-0.056729525 0.19029523 0.75400001 5855802
-0.055293337 0.19029523 0.75400001 5790009
-0.05385714 0.19029523 0.75400001 5986109
-0.052420951 0.19029523 0.75400001 6117695
-0.050984763 0.19029523 0.75400001 6379593
-0.04954857 0.19029523 0.75400001 6840144
-0.048112381 0.19029523 0.75400001 6841679
-0.046676192 0.19029523 0.75400001 7039058
-0.04524 0.19029523 0.75400001 6382673
-0.043803807 0.19029523 0.75400001 4869434
-0.042367619 0.19029523 0.75400001 6246964
-0.040985718 0.19054763 0.75500005 8023375
-0.039547618 0.19054763 0.75500005 8086065
-0.038109526 0.19054763 0.75500005 8151858
-0.036768574 0.19105239 0.75700003 7691340
-0.035420001 0.19155715 0.75900006 7559754
-0.03397429 0.19155715 0.75900006 6115364
-0.032614287 0.19206192 0.76100004 5786399
-0.031164765 0.19206192 0.76100004 5723964
-0.029754287 0.1923143 0.76200002 7697754
-0.028302858 0.1923143 0.76200002 7631709
-0.026921906 0.19281907 0.76400006 5789505
-0.025566667 0.19357619 0.76700002 4673058
-0.024105715 0.19357619 0.76700002 3094026
-0.02270381 0.19408096 0.76900005 6049115
-0.02123905 0.19408096 0.76900005 14273240
-0.019774286 0.19408096 0.76900005 14470827
-0.08646857 0.19732571 0.77600002 14404505
-0.084990479 0.19732571 0.77600002 13878436
-0.083512381 0.19732571 0.77600002 10720372
-0.081294291 0.19554572 0.76900005 8091473
-0.079621911 0.19503714 0.76700002 3617549
-0.078059055 0.19478285 0.76600003 3095862
-0.076400004 0.19427431 0.76400006 3556413
-0.074748568 0.19376571 0.76200002 3819335
-0.07329715 0.19376571 0.76200002 4740437
-0.071751431 0.19351144 0.76100004 4869452
-0.070117153 0.19300286 0.75900006 4672073
-0.068671428 0.19300286 0.75900006 4145990
-0.067225717 0.19300286 0.75900006 3619646
-0.065780006 0.19300286 0.75900006 4277828
-0.064334288 0.19300286 0.75900006 4672586
-0.062888578 0.19300286 0.75900006 4540748
-0.06111905 0.19198573 0.75500005 3751232
-0.059601903 0.19173144 0.75400001 3948343
-0.058165714 0.19173144 0.75400001 5264203
-0.056729525 0.19173144 0.75400001 5658934
-0.055293337 0.19173144 0.75400001 5461555
-0.05385714 0.19173144 0.75400001 5920316
-0.052420951 0.19173144 0.75400001 6051902
-0.050984763 0.19173144 0.75400001 6378573
-0.04954857 0.19173144 0.75400001 6510159
-0.048112381 0.19173144 0.75400001 6773068
-0.046676192 0.19173144 0.75400001 7365205
-0.04524 0.19173144 0.75400001 7168591
-0.043861907 0.19198573 0.75500005 7037005
-0.042423811 0.19198573 0.75500005 7561550
-0.040985718 0.19198573 0.75500005 8219480
-0.039547618 0.19198573 0.75500005 8151356
-0.038210478 0.19249429 0.75700003 8085563
-0.036768574 0.19249429 0.75700003 7953226
-0.035420001 0.19300286 0.75900006 7953226
-0.03397429 0.19300286 0.75900006 7824449
-0.032614287 0.19351144 0.76100004 7692863
-0.031205716 0.19376571 0.76200002 7497547
-0.029754287 0.19376571 0.76200002 8287063
-0.028377144 0.19427431 0.76400006 7631209
-0.026921906 0.19427431 0.76400006 5789005
-0.025566667 0.19503714 0.76700002 4279607
-0.024168573 0.19554572 0.76900005 2568989
-0.02270381 0.19554572 0.76900005 5721440
-0.02123905 0.19554572 0.76900005 14077151
-0.087946668 0.19880381 0.77600002 14008725
-0.08646857 0.19880381 0.77600002 14469276
-0.084990479 0.19880381 0.77600002 13944483
-0.083512381 0.19880381 0.77600002 11049591
-0.081294291 0.19701049 0.76900005 8025680
-0.079621911 0.1964981 0.76700002 3156998
-0.078160949 0.1964981 0.76700002 2504234
-0.076400004 0.19572954 0.76400006 3293750
-0.074944772 0.19572954 0.76400006 3361101
-0.07329715 0.19521715 0.76200002 4019031
-0.071751431 0.19496097 0.76100004 4607570
-0.070301905 0.19496097 0.76100004 4212812
-0.068671428 0.19444859 0.75900006 3621436
-0.067225717 0.19444859 0.75900006 3687229
-0.065780006 0.19444859 0.75900006 4279366
-0.064334288 0.19444859 0.75900006 4476745
-0.062722854 0.1939362 0.75700003 5000770
-0.061280955 0.1939362 0.75700003 3816496
-0.059680957 0.19342382 0.75500005 3685134
-0.058165714 0.19316763 0.75400001 5198373
-0.056729525 0.19316763 0.75400001 5395759
-0.055293337 0.19316763 0.75400001 5395759
-0.05385714 0.19316763 0.75400001 5985076
-0.052420951 0.19316763 0.75400001 6116662
-0.050984763 0.19316763 0.75400001 6640690
-0.04954857 0.19316763 0.75400001 6969655
-0.048112381 0.19316763 0.75400001 7100469
-0.046676192 0.19316763 0.75400001 7692606
-0.04524 0.19316763 0.75400001 7757896
-0.043861907 0.19342382 0.75500005 7889482
-0.042423811 0.19342382 0.75500005 8151368
-0.040985718 0.19342382 0.75500005 8282954
-0.039547618 0.19342382 0.75500005 8216892
-0.038210478 0.1939362 0.75700003 8019513
-0.036768574 0.1939362 0.75700003 8019263
-0.035420001 0.19444859 0.75900006 8479814
-0.03397429 0.19444859 0.75900006 8218447
-0.032614287 0.19496097 0.76100004 8613205
-0.031205716 0.19521715 0.76200002 8351819
-0.029832384 0.19572954 0.76400006 8483405
-0.02845143 0.19624192 0.76600003 7499607
-0.026992382 0.19624192 0.76600003 6249540
-0.025566667 0.1964981 0.76700002 3951906
-0.024168573 0.19701049 0.76900005 1714944
-0.02270381 0.19701049 0.76900005 5786193
-0.02123905 0.19701049 0.76900005 14339283
-0.08400476 0.19795905 0.76700002 14075806
-0.082543813 0.19795905 0.76700002 11444086
-0.081082858 0.19795905 0.76700002 8157266
-0.079621911 0.19795905 0.76700002 2893826
-0.078160949 0.19795905 0.76700002 2701613
-0.0766 0.19770096 0.76600003 3359543
-0.074944772 0.19718479 0.76400006 3753038
-0.073489532 0.19718479 0.76400006 4213589
-0.071845718 0.19666858 0.76200002 4802909
-0.070301905 0.19641048 0.76100004 4408151
-0.068852387 0.19641048 0.76100004 4670783
-0.067225717 0.1958943 0.75900006 5920850
-0.065780006 0.1958943 0.75900006 6841427
-0.064334288 0.1958943 0.75900006 6775634
-0.062722854 0.19537809 0.75700003 6774855
-0.061280955 0.19537809 0.75700003 6116925
-0.059680957 0.19486192 0.75500005 6379574
-0.058165714 0.1946038 0.75400001 7300676
-0.056729525 0.1946038 0.75400001 7299388
-0.055293337 0.1946038 0.75400001 7233595
-0.05385714 0.1946038 0.75400001 7561028
-0.052420951 0.1946038 0.75400001 7758407
-0.050984763 0.1946038 0.75400001 7889733
-0.04954857 0.1946038 0.75400001 7889733
-0.048112381 0.1946038 0.75400001 7890246
-0.046676192 0.1946038 0.75400001 8021832
-0.04524 0.1946038 0.75400001 8086599
-0.043861907 0.19486192 0.75500005 8218185
-0.042423811 0.19486192 0.75500005 8414778
-0.040985718 0.19486192 0.75500005 8217399
-0.039652381 0.19537809 0.75700003 8216892
-0.038210478 0.19537809 0.75700003 8085306
-0.036768574 0.19537809 0.75700003 8348228
-0.035420001 0.1958943 0.75900006 9203537
-0.03397429 0.1958943 0.75900006 8677969
-0.032614287 0.19641048 0.76100004 8546383
-0.031287622 0.19718479 0.76400006 8481086
-0.029910479 0.19770096 0.76600003 8612672
-0.02845143 0.19770096 0.76600003 8088904
-0.026992382 0.19770096 0.76600003 8286283
-0.025566667 0.19795905 0.76700002 5330003
-0.024168573 0.19847526 0.76900005 1185044
-0.02270381 0.19847526 0.76900005 5524575
-0.02123905 0.19847526 0.76900005 14011872
-0.084442854 0.20046 0.77100003 14076326
-0.082543813 0.19942001 0.76700002 11247227
-0.081082858 0.19942001 0.76700002 8222802
-0.079621911 0.19942001 0.76700002 3617292
-0.078160949 0.19942001 0.76700002 3094838
-0.0766 0.19916001 0.76600003 3489596
-0.074944772 0.19864002 0.76400006 4080197
-0.073489532 0.19864002 0.76400006 4738127
-0.071845718 0.19812 0.76200002 4671803
-0.070301905 0.19786 0.76100004 4079666
-0.068852387 0.19786 0.76100004 5128745
-0.067225717 0.19734001 0.75900006 7628879
-0.065780006 0.19734001 0.75900006 8022621
-0.064334288 0.19734001 0.75900006 7825242
-0.062722854 0.19682001 0.75700003 7758929
-0.061280955 0.19682001 0.75700003 7495757
-0.059839047 0.19682001 0.75700003 7560759
-0.058165714 0.19603999 0.75400001 7823931
-0.056729525 0.19603999 0.75400001 8085304
-0.055293337 0.19603999 0.75400001 8085304
-0.05385714 0.19603999 0.75400001 8085293
-0.052420951 0.19603999 0.75400001 8282672
-0.050984763 0.19603999 0.75400001 8021058
-0.049614292 0.19630001 0.75500005 8021058
-0.048176192 0.19630001 0.75500005 8086853
-0.046738099 0.19630001 0.75500005 8086853
-0.045300003 0.19630001 0.75500005 8217408
-0.043978095 0.19682001 0.75700003 8546373
-0.042536192 0.19682001 0.75700003 8612159
-0.041094288 0.19682001 0.75700003 8151608
-0.039652381 0.19682001 0.75700003 8216874
-0.038210478 0.19682001 0.75700003 8085288
-0.036768574 0.19682001 0.75700003 8414278
-0.035420001 0.19734001 0.75900006 8611657
-0.034063812 0.19786 0.76100004 8480590
-0.032657143 0.19812 0.76200002 8283211
-0.031287622 0.19864002 0.76400006 8151597
-0.029910479 0.19916001 0.76600003 9204285
-0.02845143 0.19916001 0.76600003 9139791
-0.026992382 0.19916001 0.76600003 9534549
-0.025566667 0.19942001 0.76700002 7433816
-0.024168573 0.19994001 0.76900005 2499341
-0.02270381 0.19994001 0.76900005 5459011
-0.02123905 0.19994001 0.76900005 14077894
-0.084442854 0.20192857 0.77100003 13944483
-0.082974285 0.20192857 0.77100003 11181177
-0.081082858 0.20088096 0.76700002 8288595
-0.079621911 0.20088096 0.76700002 4275222
-0.078160949 0.20088096 0.76700002 3227450
-0.0766 0.20061906 0.76600003 3227450
-0.074944772 0.20009525 0.76400006 3950147
-0.073489532 0.20009525 0.76400006 4805456
-0.071845718 0.19957143 0.76200002 5065738
-0.070301905 0.19930953 0.76100004 5723668
-0.068852387 0.19930953 0.76100004 6772787
-0.067402862 0.19930953 0.76100004 7825475
-0.065780006 0.19878574 0.75900006 8086604
-0.064334288 0.19878574 0.75900006 7955018
-0.062888578 0.19878574 0.75900006 7889741
-0.061280955 0.1982619 0.75700003 8942429
-0.059839047 0.1982619 0.75700003 8481868
-0.058397144 0.1982619 0.75700003 8350282
-0.056804765 0.19773811 0.75500005 8678222
-0.055366673 0.19773811 0.75500005 9270359
-0.05385714 0.19747619 0.75400001 8876094
-0.052420951 0.19747619 0.75400001 8941887
-0.051052384 0.19773811 0.75500005 8875842
-0.049614292 0.19773811 0.75500005 8349498
-0.048176192 0.19773811 0.75500005 8414286
-0.046738099 0.19773811 0.75500005 8677458
-0.045420002 0.1982619 0.75700003 8677952
-0.043978095 0.1982619 0.75700003 8743745
-0.042536192 0.1982619 0.75700003 8612409
-0.041094288 0.1982619 0.75700003 7954479
-0.039652381 0.1982619 0.75700003 7690787
-0.038311433 0.19878574 0.75900006 7822373
-0.036865719 0.19878574 0.75900006 8282933
-0.035513334 0.19930953 0.76100004 8414519
-0.034063812 0.19930953 0.76100004 8414278
-0.032657143 0.19957143 0.76200002 8874829
-0.031287622 0.20009525 0.76400006 8941122
-0.029910479 0.20061906 0.76600003 9599052
-0.02845143 0.20061906 0.76600003 9073732
-0.026992382 0.20061906 0.76600003 9468490
-0.025633333 0.20140478 0.76900005 8025181
-0.024231428 0.20192857 0.77100003 3156499
-0.022762857 0.20192857 0.77100003 5326164
-0.021487622 0.20376192 0.77800006 14208219
-0.020134287 0.20507143 0.78300005 14799515
-0.084442854 0.20339714 0.77100003 13681309
-0.082974285 0.20339714 0.77100003 11049589
-0.081294291 0.20286953 0.76900005 8550751
-0.079829529 0.20286953 0.76900005 4537378
-0.078160949 0.2023419 0.76700002 3424577
-0.076700002 0.2023419 0.76700002 3227198
-0.075140953 0.2020781 0.76600003 3949901
-0.073681906 0.2020781 0.76600003 4410452
-0.071845718 0.20102286 0.76200002 5194507
-0.070301905 0.20075905 0.76100004 7234090
-0.068852387 0.20075905 0.76100004 7495235
-0.067402862 0.20075905 0.76100004 8087372
-0.065953337 0.20075905 0.76100004 8085325
-0.064503811 0.20075905 0.76100004 8019532
-0.062888578 0.20023143 0.75900006 8150595
-0.061442863 0.20023143 0.75900006 8808525
-0.059839047 0.19970381 0.75700003 8546888
-0.058397144 0.19970381 0.75700003 8481095
-0.056804765 0.19917619 0.75500005 8416080
-0.055366673 0.19917619 0.75500005 8679252
-0.053928573 0.19917619 0.75500005 8810308
-0.05249048 0.19917619 0.75500005 8941894
-0.051052384 0.19917619 0.75500005 9072218
-0.049745716 0.19970381 0.75700003 8611667
-0.048303809 0.19970381 0.75700003 8480071
-0.046861906 0.19970381 0.75700003 8743243
-0.045420002 0.19970381 0.75700003 8809540
-0.043978095 0.19970381 0.75700003 8941126
-0.042536192 0.19970381 0.75700003 8744004
-0.041202862 0.20023143 0.75900006 7822902
-0.039757144 0.20023143 0.75900006 7756341
-0.038311433 0.20023143 0.75900006 8019513
-0.036865719 0.20023143 0.75900006 8480055
-0.035513334 0.20075905 0.76100004 8480055
-0.034108575 0.20102286 0.76200002 8479553
-0.032742858 0.2015505 0.76400006 9005897
-0.031287622 0.2015505 0.76400006 9072201
-0.029910479 0.2020781 0.76600003 9203787
-0.02845143 0.2020781 0.76600003 9006919
-0.026992382 0.2020781 0.76600003 9599056
-0.025633333 0.20286953 0.76900005 8681576
-0.024231428 0.20339714 0.77100003 4141859
-0.022821905 0.20392478 0.77300006 5585716
-0.021487622 0.20524383 0.77800006 14730943
-0.020134287 0.20656288 0.78300005 14535589
-0.018642858 0.20656288 0.78300005 14535589
-0.084771432 0.20566286 0.77400005 13812897
-0.083189532 0.20539716 0.77300006 10918005
-0.081505716 0.20486572 0.77100003 7958632
-0.080037147 0.20486572 0.77100003 4340017
-0.078364767 0.20433429 0.76900005 2831938
-0.076900005 0.20433429 0.76900005 2831938
-0.075239047 0.20380287 0.76700002 4145740
-0.073681906 0.20353715 0.76600003 5132635
-0.071845718 0.2024743 0.76200002 6246712
-0.070301905 0.20220858 0.76100004 7365193
-0.068852387 0.20220858 0.76100004 7757637
-0.067402862 0.20220858 0.76100004 8415567
-0.065953337 0.20220858 0.76100004 8480090
-0.064503811 0.20220858 0.76100004 8348504
-0.062888578 0.20167716 0.75900006 8414519
-0.061442863 0.20167716 0.75900006 8414519
-0.059997149 0.20167716 0.75900006 8348726
-0.058397144 0.20114571 0.75700003 8480312
-0.056955241 0.20114571 0.75700003 8546383
-0.055513334 0.20114571 0.75700003 8546383
-0.053928573 0.2006143 0.75500005 8743997
-0.05249048 0.2006143 0.75500005 9072962
-0.05118762 0.20114571 0.75700003 9269088
-0.049745716 0.20114571 0.75700003 9071709
-0.048303809 0.20114571 0.75700003 8874827
-0.046861906 0.20114571 0.75700003 9203792
-0.045420002 0.20114571 0.75700003 8809797
-0.043978095 0.20114571 0.75700003 8612418
-0.042648572 0.20167716 0.75900006 8480069
-0.041202862 0.20167716 0.75900006 7953725
-0.039757144 0.20167716 0.75900006 8084812
-0.038311433 0.20167716 0.75900006 8611156
-0.036865719 0.20167716 0.75900006 8743747
-0.035513334 0.20220858 0.76100004 8875333
-0.034108575 0.2024743 0.76200002 8875842
-0.032742858 0.20300573 0.76400006 9402186
-0.031369522 0.20353715 0.76600003 8941126
-0.029910479 0.20353715 0.76600003 8809540
-0.02845143 0.20353715 0.76600003 8940881
-0.02702762 0.20380287 0.76700002 10322534
-0.025633333 0.20433429 0.76900005 8748132
-0.024231428 0.20486572 0.77100003 4405794
-0.022821905 0.20539716 0.77300006 5455706
-0.021542858 0.20725715 0.78000003 14074589
-0.020185716 0.20858572 0.78500003 14470316
-0.018690476 0.20858572 0.78500003 14404523
-0.084771432 0.20713715 0.77400005 14011052
-0.083189532 0.20686953 0.77300006 10852988
-0.081717148 0.20686953 0.77300006 7761748
-0.080244765 0.20686953 0.77300006 4011547
-0.07856857 0.20633428 0.77100003 3158845
-0.076900005 0.20579906 0.76900005 3356224
-0.075239047 0.20526381 0.76700002 4275273
-0.073681906 0.20499618 0.76600003 5327961
-0.071845718 0.20392571 0.76200002 6377777
-0.070301905 0.20365809 0.76100004 7496258
-0.068852387 0.20365809 0.76100004 7887934
-0.067402862 0.20365809 0.76100004 7953727
-0.065953337 0.20365809 0.76100004 7952976
-0.064503811 0.20365809 0.76100004 8479320
-0.062888578 0.20312287 0.75900006 8480590
-0.061442863 0.20312287 0.75900006 8151625
-0.059997149 0.20312287 0.75900006 7953459
-0.058397144 0.20258763 0.75700003 8348217
-0.056955241 0.20258763 0.75700003 8151619
-0.055513334 0.20258763 0.75700003 8151619
-0.05407143 0.20258763 0.75700003 8282685
-0.052629523 0.20258763 0.75700003 8809029
-0.05118762 0.20258763 0.75700003 9268827
-0.049745716 0.20258763 0.75700003 9137241
-0.048431434 0.20312287 0.75900006 8742471
-0.046985716 0.20312287 0.75900006 8808264
-0.045540005 0.20312287 0.75900006 8743754
-0.044094287 0.20312287 0.75900006 8414789
-0.042648572 0.20312287 0.75900006 8151597
-0.041202862 0.20312287 0.75900006 8085804
-0.039757144 0.20312287 0.75900006 8018750
-0.038311433 0.20312287 0.75900006 8808266
-0.036962859 0.20365809 0.76100004 8677969
-0.035513334 0.20365809 0.76100004 8941141
-0.034108575 0.20392571 0.76200002 8876103
-0.032742858 0.20446096 0.76400006 8941896
-0.031369522 0.20499618 0.76600003 8875590
-0.029910479 0.20499618 0.76600003 8875590
-0.02845143 0.20499618 0.76600003 8809547
-0.02702762 0.20526381 0.76700002 9796442
-0.025633333 0.20579906 0.76900005 8748132
-0.024231428 0.20633428 0.77100003 4011036
-0.022821905 0.20686953 0.77300006 4862522
-0.021487622 0.20820762 0.77800006 14007749
-0.020134287 0.20954572 0.78300005 14470055
-0.018642858 0.20954572 0.78300005 14535848
-0.084771432 0.20861143 0.77400005 13878947
-0.083189532 0.20834193 0.77300006 11181434
-0.081717148 0.20834193 0.77300006 7958632
-0.080244765 0.20834193 0.77300006 4011052
-0.07856857 0.20780286 0.77100003 3290179
-0.077100001 0.20780286 0.77100003 3619144
-0.075435244 0.20726383 0.76900005 4275021
-0.073681906 0.20645525 0.76600003 5327709
-0.071845718 0.20537715 0.76200002 6969905
-0.070394285 0.20537715 0.76200002 7496249
-0.068852387 0.20510763 0.76100004 7822141
-0.067402862 0.20510763 0.76100004 7887934
-0.065953337 0.20510763 0.76100004 7821642
-0.064503811 0.20510763 0.76100004 7953228
-0.063054286 0.20510763 0.76100004 8282685
-0.061442863 0.20456858 0.75900006 7953720
-0.059997149 0.20456858 0.75900006 8018750
-0.058551431 0.20456858 0.75900006 8216129
-0.056955241 0.20402953 0.75700003 7953961
-0.055513334 0.20402953 0.75700003 8019754
-0.054214288 0.20456858 0.75900006 8085064
-0.052629523 0.20402953 0.75700003 8216650
-0.05118762 0.20402953 0.75700003 8414540
-0.049877148 0.20456858 0.75900006 8414540
-0.048431434 0.20456858 0.75900006 8414278
-0.046985716 0.20456858 0.75900006 8545864
-0.045540005 0.20456858 0.75900006 8677941
-0.044094287 0.20456858 0.75900006 8020011
-0.042648572 0.20456858 0.75900006 8085025
-0.041202862 0.20456858 0.75900006 8479783
-0.039757144 0.20456858 0.75900006 8282692
-0.038412381 0.20510763 0.76100004 8809036
-0.037011426 0.20537715 0.76200002 9006427
-0.035560001 0.20537715 0.76200002 9532771
-0.034198094 0.20591621 0.76400006 9007176
-0.032742858 0.20591621 0.76400006 8875590
-0.031369522 0.20645525 0.76600003 8941122
-0.029910479 0.20645525 0.76600003 9072708
-0.02845143 0.20645525 0.76600003 8744256
-0.02702762 0.20672476 0.76700002 9007428
-0.025633333 0.20726383 0.76900005 8154956
-0.024231428 0.20780286 0.77100003 3878411
-0.02285143 0.20861143 0.77400005 5389132
-0.021487622 0.20968953 0.77800006 13744843
-0.020082857 0.21049811 0.78100002 14404512
-0.018595237 0.21049811 0.78100002 14601891
-0.017107621 0.21049811 0.78100002 14403768
-0.084771432 0.21008572 0.77400005 13813154
-0.083297148 0.21008572 0.77400005 11247227
-0.081717148 0.20981431 0.77300006 8945763
-0.080244765 0.20981431 0.77300006 4340253
-0.078772388 0.20981431 0.77300006 3159095
-0.077100001 0.20927143 0.77100003 3488060
-0.075435244 0.20872858 0.76900005 4077356
-0.073681906 0.20791429 0.76600003 5524802
-0.072034292 0.20737144 0.76400006 7495235
-0.070394285 0.20682858 0.76200002 7824200
-0.068942852 0.20682858 0.76200002 7954229
-0.067402862 0.20655715 0.76100004 7888436
-0.065953337 0.20655715 0.76100004 8019271
-0.064503811 0.20655715 0.76100004 8150857
-0.063054286 0.20655715 0.76100004 8282704
-0.061604768 0.20655715 0.76100004 7953739
-0.059997149 0.20601431 0.75900006 7756089
-0.058551431 0.20601431 0.75900006 7821882
-0.05710572 0.20601431 0.75900006 7691552
-0.055660002 0.20601431 0.75900006 8020517
-0.054214288 0.20601431 0.75900006 7692604
-0.052768577 0.20601431 0.75900006 7692604
-0.051322859 0.20601431 0.75900006 7956039
-0.049877148 0.20601431 0.75900006 7429695
-0.048431434 0.20601431 0.75900006 7756346
-0.046985716 0.20601431 0.75900006 8545862
-0.045540005 0.20601431 0.75900006 9072969
-0.044094287 0.20601431 0.75900006 8020281
-0.042648572 0.20601431 0.75900006 7690003
-0.041311432 0.20655715 0.76100004 8742691
-0.039861906 0.20655715 0.76100004 8348737
-0.038412381 0.20655715 0.76100004 8743495
-0.037011426 0.20682858 0.76200002 8809046
-0.035560001 0.20682858 0.76200002 9203804
-0.034198094 0.20737144 0.76400006 9073228
-0.032828573 0.20791429 0.76600003 8415298
-0.031369522 0.20791429 0.76600003 8413749
-0.029949524 0.20818572 0.76700002 8676921
-0.028488571 0.20818572 0.76700002 8743484
-0.02702762 0.20818572 0.76700002 8940863
-0.025700001 0.20927143 0.77100003 7825744
-0.024294289 0.20981431 0.77300006 4470301
-0.022910476 0.21062857 0.77600002 6112832
-0.021487622 0.21117143 0.77800006 13613234
-0.020057144 0.21171428 0.78000003 14470298
-0.018595237 0.21198572 0.78100002 14601884
-0.083297148 0.21156001 0.77400005 11180923
-0.081717148 0.21128668 0.77300006 8814428
-0.080244765 0.21128668 0.77300006 4669469
-0.078772388 0.21128668 0.77300006 3617845
-0.077100001 0.21074 0.77100003 3946810
-0.075435244 0.21019335 0.76900005 4732458
-0.0737781 0.20964667 0.76700002 5982525
-0.072034292 0.20882669 0.76400006 7363616
-0.070394285 0.20828 0.76200002 8087339
-0.068942852 0.20828 0.76200002 7954470
-0.067491435 0.20828 0.76200002 7888677
-0.065953337 0.20800668 0.76100004 7953979
-0.064503811 0.20800668 0.76100004 8217151
-0.063054286 0.20800668 0.76100004 8347986
-0.061604768 0.20800668 0.76100004 8150607
-0.060155239 0.20800668 0.76100004 7953478
-0.058551431 0.20746002 0.75900006 8282443
-0.05710572 0.20746002 0.75900006 8415280
-0.055660002 0.20746002 0.75900006 8481073
-0.054214288 0.20746002 0.75900006 8284982
-0.052768577 0.20746002 0.75900006 8416568
-0.051322859 0.20746002 0.75900006 8219207
-0.049877148 0.20746002 0.75900006 7495484
-0.048431434 0.20746002 0.75900006 7821890
-0.046985716 0.20746002 0.75900006 8348234
-0.045540005 0.20746002 0.75900006 8348737
-0.044094287 0.20746002 0.75900006 8217151
-0.042760953 0.20800668 0.76100004 8282435
-0.041311432 0.20800668 0.76100004 9203537
-0.039861906 0.20800668 0.76100004 8876346
-0.038412381 0.20800668 0.76100004 8547381
-0.037011426 0.20828 0.76200002 8677452
-0.035560001 0.20828 0.76200002 8677452
-0.034198094 0.20882669 0.76400006 8611655
-0.032828573 0.20937334 0.76600003 8414276
-0.031369522 0.20937334 0.76600003 8282954
-0.029949524 0.20964667 0.76700002 8282954
-0.028488571 0.20964667 0.76700002 8217903
-0.027098097 0.21019335 0.76900005 8546868
-0.025766669 0.21128668 0.77300006 7891016
-0.024325715 0.21156001 0.77400005 4798745
-0.022910476 0.21210667 0.77600002 5718592
-0.021487622 0.21265334 0.77800006 12955822
-0.020057144 0.21320002 0.78000003 14338962
-0.018571429 0.21320002 0.78000003 14602134
-0.084771432 0.2130343 0.77400005 13484708
-0.083297148 0.2130343 0.77400005 10918781
-0.081822865 0.2130343 0.77400005 8814428
-0.080348574 0.2130343 0.77400005 4735262
-0.078772388 0.21275906 0.77300006 4800309
-0.077300005 0.21275906 0.77300006 4602930
-0.075435244 0.21165811 0.76900005 5059356
-0.0737781 0.21110763 0.76700002 6177837
-0.072034292 0.21028192 0.76400006 6442276
-0.070579059 0.21028192 0.76400006 7758136
-0.069123812 0.21028192 0.76400006 7823413
-0.067491435 0.20973143 0.76200002 7626034
-0.065953337 0.20945621 0.76100004 7756346
-0.064503811 0.20945621 0.76100004 8019518
-0.063054286 0.20945621 0.76100004 8150344
-0.061604768 0.20945621 0.76100004 8150344
-0.060155239 0.20945621 0.76100004 8019002
-0.058551431 0.20890573 0.75900006 8479553
-0.05710572 0.20890573 0.75900006 8481336
-0.055660002 0.20890573 0.75900006 8744508
-0.054214288 0.20890573 0.75900006 8416577
-0.052768577 0.20890573 0.75900006 8416577
-0.051322859 0.20890573 0.75900006 8481619
-0.049877148 0.20890573 0.75900006 7560517
-0.048431434 0.20890573 0.75900006 7756323
-0.046985716 0.20890573 0.75900006 8348460
-0.045540005 0.20890573 0.75900006 8282674
-0.044094287 0.20890573 0.75900006 8414260
-0.042760953 0.20945621 0.76100004 8348236
-0.041311432 0.20945621 0.76100004 9071959
-0.039861906 0.20945621 0.76100004 8746325
-0.038462859 0.20973143 0.76200002 8219981
-0.037011426 0.20973143 0.76200002 8612429
-0.035653338 0.21028192 0.76400006 8612429
-0.03428762 0.21083239 0.76600003 8349496
-0.032828573 0.21083239 0.76600003 8086324
-0.031410474 0.21110763 0.76700002 7757896
-0.029949524 0.21110763 0.76700002 7626310
-0.028488571 0.21110763 0.76700002 7363378
-0.027098097 0.21165811 0.76900005 8218687
-0.025766669 0.21275906 0.77300006 7561809
-0.024325715 0.2130343 0.77400005 5061675
-0.022910476 0.21358477 0.77600002 5521437
-0.021487622 0.21413524 0.77800006 12627081
-0.020057144 0.21468572 0.78000003 14338969
-0.018571429 0.21468572 0.78000003 14602141
-0.017085714 0.21468572 0.78000003 13681057
-0.083512381 0.21506286 0.77600002 10983808
-0.081822865 0.21450858 0.77400005 8484960
-0.080348574 0.21450858 0.77400005 4997931
-0.078772388 0.21423145 0.77300006 4735286
-0.077300005 0.21423145 0.77300006 5130044
-0.075631432 0.21367715 0.77100003 5653551
-0.0737781 0.21256858 0.76700002 5587758
-0.072222859 0.21229143 0.76600003 6573094
-0.070579059 0.21173716 0.76400006 7362610
-0.069123812 0.21173716 0.76400006 7361320
-0.067491435 0.21118286 0.76200002 7295527
-0.065953337 0.21090572 0.76100004 7558192
-0.064503811 0.21090572 0.76100004 7755571
-0.063054286 0.21090572 0.76100004 7953191
-0.061604768 0.21090572 0.76100004 8018984
-0.060155239 0.21090572 0.76100004 7887414
-0.058551431 0.21035144 0.75900006 8545344
-0.05710572 0.21035144 0.75900006 8547381
-0.055660002 0.21035144 0.75900006 8613174
-0.054214288 0.21035144 0.75900006 8482370
-0.052768577 0.21035144 0.75900006 8679749
-0.051322859 0.21035144 0.75900006 8547423
-0.049877148 0.21035144 0.75900006 7823700
-0.048431434 0.21035144 0.75900006 8217383
-0.046985716 0.21035144 0.75900006 8677934
-0.04566 0.21090572 0.76100004 8546616
-0.044210479 0.21090572 0.76100004 8480823
-0.042760953 0.21090572 0.76100004 8282704
-0.041311432 0.21090572 0.76100004 8216911
-0.039861906 0.21090572 0.76100004 8020559
-0.038462859 0.21118286 0.76200002 7888973
-0.037108574 0.21173716 0.76400006 8481095
-0.035653338 0.21173716 0.76400006 8415302
-0.03428762 0.21229143 0.76600003 7954470
-0.032828573 0.21229143 0.76600003 7954470
-0.031410474 0.21256858 0.76700002 7823432
-0.029949524 0.21256858 0.76700002 7757639
-0.028562859 0.21312287 0.76900005 7757898
-0.027168572 0.21367715 0.77100003 8350035
-0.025766669 0.21423145 0.77300006 7957071
-0.024325715 0.21450858 0.77400005 5325351
-0.022969525 0.21561715 0.77800006 5324345
-0.021487622 0.21561715 0.77800006 11837852
-0.020057144 0.21617144 0.78000003 14076810
-0.018571429 0.21617144 0.78000003 14800533
-0.017085714 0.21617144 0.78000003 14207931
-0.083512381 0.21654096 0.77600002 10392187
-0.081822865 0.21598287 0.77400005 8353626
-0.080348574 0.21598287 0.77400005 5458734
-0.07887429 0.21598287 0.77400005 4866872
-0.077300005 0.21570382 0.77300006 4998458
-0.075435244 0.21458763 0.76900005 5850412
-0.0737781 0.21402952 0.76700002 5916205
-0.072222859 0.21375048 0.76600003 6767913
-0.070763811 0.21375048 0.76600003 7360050
-0.069123812 0.2131924 0.76400006 7163943
-0.067491435 0.2126343 0.76200002 6900771
-0.065953337 0.21235524 0.76100004 7161633
-0.064503811 0.21235524 0.76100004 7359012
-0.063054286 0.21235524 0.76100004 7358501
-0.061604768 0.21235524 0.76100004 7292708
-0.060155239 0.21235524 0.76100004 7755056
-0.058551431 0.21179716 0.75900006 8741951
-0.05710572 0.21179716 0.75900006 8417099
-0.055660002 0.21179716 0.75900006 8351306
-0.054214288 0.21179716 0.75900006 8417101
-0.052768577 0.21179716 0.75900006 8417101
-0.051322859 0.21179716 0.75900006 8350296
-0.049877148 0.21179716 0.75900006 8087124
-0.048431434 0.21179716 0.75900006 8283955
-0.046985716 0.21179716 0.75900006 8547127
-0.04566 0.21235524 0.76100004 8218948
-0.044210479 0.21235524 0.76100004 8087362
-0.042760953 0.21235524 0.76100004 8282700
-0.041311432 0.21235524 0.76100004 8151114
-0.039861906 0.21235524 0.76100004 7625786
-0.038462859 0.2126343 0.76200002 8086337
-0.037108574 0.2131924 0.76400006 8350033
-0.035653338 0.2131924 0.76400006 8218447
-0.03428762 0.21375048 0.76600003 7692579
-0.032828573 0.21375048 0.76600003 7824165
-0.031410474 0.21402952 0.76700002 7427896
-0.030027622 0.21458763 0.76900005 7691068
-0.028562859 0.21458763 0.76900005 7823161
-0.027098097 0.21458763 0.76900005 8546884
-0.025766669 0.21570382 0.77300006 8219487
-0.024325715 0.21598287 0.77400005 5456181
-0.022910476 0.21654096 0.77600002 4863748
-0.021487622 0.21709906 0.77800006 11574634
-0.019954285 0.21654096 0.77600002 13352596
-0.018476192 0.21654096 0.77600002 14471077
-0.016998095 0.21654096 0.77600002 14142388
-0.083297148 0.21745716 0.77400005 9931384
-0.081822865 0.21745716 0.77400005 7826782
-0.080348574 0.21745716 0.77400005 5852992
-0.07887429 0.21745716 0.77400005 4734768
-0.077300005 0.2171762 0.77300006 4734768
-0.075435244 0.21605238 0.76900005 5652781
-0.0737781 0.21549048 0.76700002 6442297
-0.072222859 0.21520954 0.76600003 6636577
-0.070763811 0.21520954 0.76600003 6570784
-0.069304764 0.21520954 0.76600003 6899499
-0.067668572 0.21464764 0.76400006 7162671
-0.066040002 0.21408571 0.76200002 7227176
-0.064503811 0.21380477 0.76100004 7358762
-0.063054286 0.21380477 0.76100004 7292206
-0.061604768 0.21380477 0.76100004 7160620
-0.060155239 0.21380477 0.76100004 7755060
-0.058551431 0.21324287 0.75900006 8676162
-0.05710572 0.21324287 0.75900006 8743997
-0.055660002 0.21324287 0.75900006 8743997
-0.054214288 0.21324287 0.75900006 8481095
-0.052768577 0.21324287 0.75900006 8152130
-0.051322859 0.21324287 0.75900006 8414540
-0.049877148 0.21324287 0.75900006 8414540
-0.048431434 0.21324287 0.75900006 8283955
-0.046985716 0.21324287 0.75900006 8415541
-0.04566 0.21380477 0.76100004 8349498
-0.044210479 0.21380477 0.76100004 8283705
-0.042760953 0.21380477 0.76100004 8152908
-0.041311432 0.21380477 0.76100004 8021322
-0.039861906 0.21380477 0.76100004 8481588
-0.038462859 0.21408571 0.76200002 9271104
-0.037108574 0.21464764 0.76400006 8546910
-0.035746668 0.21520954 0.76600003 8283738
-0.03428762 0.21520954 0.76600003 8218950
-0.032828573 0.21520954 0.76600003 8218950
-0.031410474 0.21549048 0.76700002 7823689
-0.030027622 0.21605238 0.76900005 7231552
-0.028562859 0.21605238 0.76900005 7363378
-0.027098097 0.21605238 0.76900005 8350273
-0.025766669 0.2171762 0.77300006 8088664
-0.024325715 0.21745716 0.77400005 5851702
-0.022910476 0.21801905 0.77600002 5258804
-0.021487622 0.21858096 0.77800006 10917002
-0.019954285 0.21801905 0.77600002 13418382
