# .PCD v0.7 - Point Cloud Data file format
VERSION 0.7
FIELDS x y z rgba
SIZE 4 4 4 4
TYPE F F F U
COUNT 1 1 1 1
WIDTH 1118
HEIGHT 1
VIEWPOINT 0 0 0 1 0 0 0
POINTS 1118
DATA ascii
-0.092799053 0.20896477 0.70100003 12169356
-0.091333345 0.20866668 0.70000005 11708805
-0.089742862 0.20807047 0.69800001 8423518
-0.088286668 0.20777239 0.69700003 5726005
-0.086584762 0.2068781 0.69400001 7891241
-0.085140005 0.20658001 0.69300002 11575649
-0.083578095 0.20598383 0.69100004 10787458
-0.082261913 0.20598383 0.69100004 5852983
-0.080945715 0.20598383 0.69100004 4800512
-0.079514287 0.20568573 0.69000006 7234842
-0.078200005 0.20568573 0.69000006 6382918
-0.076885715 0.20568573 0.69000006 5856574
-0.075571433 0.20568573 0.69000006 5985882
-0.07404191 0.20508952 0.68800002 5196366
-0.072731428 0.20508952 0.68800002 5061888
-0.071420953 0.20508952 0.68800002 9404217
-0.070110478 0.20508952 0.68800002 8814979
-0.068700001 0.20479143 0.68700004 3946297
-0.067391433 0.20479143 0.68700004 4996363
-0.066082858 0.20479143 0.68700004 7101739
-0.064774282 0.20479143 0.68700004 6643216
-0.063465714 0.20479143 0.68700004 7366939
-0.06215715 0.20479143 0.68700004 8355682
-0.060848575 0.20479143 0.68700004 8816233
-0.05954 0.20479143 0.68700004 7897179
-0.058316194 0.20508952 0.68800002 3357462
-0.057171434 0.20568573 0.69000006 6969152
-0.055614289 0.20479143 0.68700004 11640455
-0.054305717 0.20479143 0.68700004 9537890
-0.053691432 0.20747429 0.69600004 3419141
-0.05236572 0.20747429 0.69600004 6969133
-0.050893333 0.2068781 0.69400001 7429684
-0.049571428 0.2068781 0.69400001 7494912
-0.04824952 0.2068781 0.69400001 7758080
-0.04692762 0.2068781 0.69400001 5593894
-0.045540001 0.20658001 0.69300002 5067550
-0.044220001 0.20658001 0.69300002 7566907
-0.0429 0.20658001 0.69300002 7435321
-0.041639999 0.2068781 0.69400001 7495936
-0.040434286 0.20747429 0.69600004 10719785
-0.039164763 0.20777239 0.69700003 11443559
-0.038054287 0.20896477 0.70100003 12233075
-0.036823809 0.20956095 0.70300001 12629373
-0.035484761 0.20956095 0.70300001 12958338
-0.034194287 0.20985906 0.70400006 13024133
-0.032946669 0.21045525 0.70600003 12958340
-0.031646665 0.21075334 0.70700002 13023615
-0.030342858 0.21105143 0.708 13352580
-0.029076193 0.21164763 0.71000004 13353091
-0.027762858 0.21194573 0.71100003 13616263
-0.026408572 0.21194573 0.71100003 13485711
-0.10480952 0.213 0.71000004 16513241
-0.10345715 0.213 0.71000004 16513241
-0.10181714 0.2124 0.708 16051374
-0.10032666 0.2121 0.70700002 13617033
-0.098840006 0.21180001 0.70600003 13353355
-0.097219057 0.21120003 0.70400006 13024390
-0.095741905 0.21090001 0.70300001 12826502
-0.094402857 0.21090001 0.70300001 12826502
-0.092799053 0.21030001 0.70100003 12695175
-0.091333345 0.21000001 0.70000005 12037245
-0.089742862 0.20940001 0.69800001 9670515
-0.088286668 0.20910001 0.69700003 6709830
-0.086959057 0.20910001 0.69700003 7103522
-0.085262857 0.20819999 0.69400001 6906143
-0.08382 0.20790002 0.69300002 7233357
-0.082261913 0.20730001 0.69100004 5193774
-0.080945715 0.20730001 0.69100004 4802827
-0.079629533 0.20730001 0.69100004 8421442
-0.078313336 0.20730001 0.69100004 8486735
-0.076885715 0.20700002 0.69000006 9671009
-0.075571433 0.20700002 0.69000006 9078870
-0.07425715 0.20700002 0.69000006 4604946
-0.07294286 0.20700002 0.69000006 4734464
-0.071628578 0.20700002 0.69000006 9405757
-0.070314296 0.20700002 0.69000006 8356435
-0.068800002 0.20639999 0.68800002 2369280
-0.067391433 0.20610002 0.68700004 4145459
-0.066082858 0.20610002 0.68700004 7106144
-0.064868569 0.20639999 0.68800002 6642473
-0.063465714 0.20610002 0.68700004 7563575
-0.06215715 0.20610002 0.68700004 8355903
-0.060937144 0.20639999 0.68800002 8948040
-0.059626669 0.20639999 0.68800002 7896645
-0.058485717 0.20700002 0.69000006 3488514
-0.057254288 0.20730001 0.69100004 6575450
-0.055938099 0.20730001 0.69100004 10917788
-0.054621909 0.20730001 0.69100004 9077578
-0.053691432 0.2088 0.69600004 2498304
-0.05236572 0.2088 0.69600004 4211739
-0.050893333 0.20819999 0.69400001 4738083
-0.049571428 0.20819999 0.69400001 6576392
-0.04824952 0.20819999 0.69400001 8287010
-0.04692762 0.20819999 0.69400001 9276224
-0.045540001 0.20790002 0.69300002 9276224
-0.044220001 0.20790002 0.69300002 10987085
-0.0429 0.20790002 0.69300002 11645015
-0.041760001 0.2088 0.69600004 11970673
-0.040434286 0.2088 0.69600004 12825982
-0.039164763 0.20910001 0.69700003 12431744
-0.038054287 0.21030001 0.70100003 12760709
-0.036823809 0.21090001 0.70300001 12629877
-0.035535242 0.21120003 0.70400006 12695670
-0.034194287 0.21120003 0.70400006 12892799
-0.032946669 0.21180001 0.70600003 12892799
-0.031646665 0.2121 0.70700002 12958081
-0.030342858 0.2124 0.708 13352839
-0.029076193 0.213 0.71000004 13221501
-0.02772381 0.213 0.71000004 13484673
-0.026371431 0.213 0.71000004 13617297
-0.10316571 0.21374857 0.708 16579032
-0.10181714 0.21374857 0.708 15854529
-0.10032666 0.21344666 0.70700002 13683360
-0.098840006 0.21314476 0.70600003 13485713
-0.097219057 0.21254097 0.70400006 12893576
-0.095741905 0.21223904 0.70300001 12760709
-0.094402857 0.21223904 0.70300001 12826502
-0.092799053 0.21163525 0.70100003 12957840
-0.091333345 0.21133333 0.70000005 12168324
-0.089742862 0.21072952 0.69800001 11248749
-0.088286668 0.21042763 0.69700003 8222271
-0.086959057 0.21042763 0.69700003 7893265
-0.085140005 0.20921999 0.69300002 7564300
-0.08382 0.20921999 0.69300002 6712389
-0.082261913 0.2086162 0.69100004 4409634
-0.080945715 0.2086162 0.69100004 4933120
-0.079629533 0.2086162 0.69100004 7762208
-0.078313336 0.2086162 0.69100004 7630393
-0.076997146 0.2086162 0.69100004 9867355
-0.075680956 0.2086162 0.69100004 9604472
-0.074364766 0.2086162 0.69100004 4867376
-0.073048577 0.2086162 0.69100004 2829312
-0.071732387 0.2086162 0.69100004 8619089
-0.070416197 0.2086162 0.69100004 7962969
-0.069000006 0.2083143 0.69000006 3949596
-0.067489527 0.20771047 0.68800002 5199143
-0.066179045 0.20771047 0.68800002 6251831
-0.064868569 0.20771047 0.68800002 4731392
-0.063558094 0.20771047 0.68800002 6968345
-0.062247619 0.20771047 0.68800002 7958835
-0.061114289 0.2083143 0.69000006 8222007
-0.059800003 0.2083143 0.69000006 6449705
-0.058570478 0.2086162 0.69100004 6120740
-0.05742 0.20921999 0.69300002 7957844
-0.056100003 0.20921999 0.69300002 10721150
-0.054779999 0.20921999 0.69300002 8094024
-0.053537142 0.2095219 0.69400001 3554307
-0.052215237 0.2095219 0.69400001 4276736
-0.050893333 0.2095219 0.69400001 5329414
-0.049571428 0.2095219 0.69400001 6511872
-0.04824952 0.2095219 0.69400001 8748833
-0.04692762 0.2095219 0.69400001 10391902
-0.045605715 0.2095219 0.69400001 10984039
-0.044283811 0.2095219 0.69400001 11773303
-0.042961907 0.2095219 0.69400001 11970682
-0.041820001 0.21042763 0.69700003 12167280
-0.040492382 0.21042763 0.69700003 12562038
-0.039220951 0.21072952 0.69800001 12234117
-0.038054287 0.21163525 0.70100003 12694668
-0.036823809 0.21223904 0.70300001 12563832
-0.035535242 0.21254097 0.70400006 12695418
-0.034194287 0.21254097 0.70400006 12629632
-0.032993335 0.21344666 0.70700002 12629632
-0.031691428 0.21374857 0.708 12695420
-0.030342858 0.21374857 0.708 13287557
-0.029076193 0.21435238 0.71000004 13156221
-0.02772381 0.21435238 0.71000004 13485186
-0.026371431 0.21435238 0.71000004 13814674
-0.10345715 0.21570477 0.71000004 16644817
-0.10210477 0.21570477 0.71000004 15854529
-0.10032666 0.21479334 0.70700002 14012325
-0.098840006 0.21448952 0.70600003 13616531
-0.097219057 0.21388192 0.70400006 13221773
-0.095741905 0.21357809 0.70300001 12826252
-0.094402857 0.21357809 0.70300001 12760459
-0.092799053 0.2129705 0.70100003 12957831
-0.091333345 0.21266668 0.70000005 12563073
-0.089742862 0.21205905 0.69800001 12300660
-0.088286668 0.21175523 0.69700003 12169074
-0.086959057 0.21175523 0.69700003 11381359
-0.085140005 0.21054 0.69300002 11118187
-0.08382 0.21054 0.69300002 11118196
-0.082261913 0.20993239 0.69100004 9999715
-0.080945715 0.20993239 0.69100004 9144908
-0.079629533 0.20993239 0.69100004 7500083
-0.078313336 0.20993239 0.69100004 8155726
-0.076997146 0.20993239 0.69100004 9603172
-0.075680956 0.20993239 0.69100004 9341020
-0.074364766 0.20993239 0.69100004 5656612
-0.073048577 0.20993239 0.69100004 6445375
-0.071732387 0.20993239 0.69100004 9932404
-0.070416197 0.20993239 0.69100004 9145419
-0.069100007 0.20993239 0.69100004 5461011
-0.067685723 0.20962858 0.69000006 6579795
-0.066371433 0.20962858 0.69000006 8487792
-0.065057144 0.20962858 0.69000006 7036727
-0.063742861 0.20962858 0.69000006 5984039
-0.062428575 0.20962858 0.69000006 7827247
-0.061202858 0.20993239 0.69100004 8156212
-0.059886672 0.20993239 0.69100004 8486195
-0.058570478 0.20993239 0.69100004 8815160
-0.057254288 0.20993239 0.69100004 9930870
-0.056100003 0.21054 0.69300002 12036246
-0.054779999 0.21054 0.69300002 11379833
-0.053460002 0.21054 0.69300002 10787696
-0.052140001 0.21054 0.69300002 10722927
-0.05082 0.21054 0.69300002 10920306
-0.049571428 0.2108438 0.69400001 11116661
-0.04824952 0.2108438 0.69400001 11511419
-0.04692762 0.2108438 0.69400001 11117161
-0.045737144 0.21145144 0.69600004 11117161
-0.044411432 0.21145144 0.69600004 9735780
-0.043085717 0.21145144 0.69600004 8551506
-0.041820001 0.21175523 0.69700003 8813906
-0.040492382 0.21175523 0.69700003 10985075
-0.039220951 0.21205905 0.69800001 11904646
-0.038054287 0.2129705 0.70100003 12825748
-0.036823809 0.21357809 0.70300001 12760443
-0.035535242 0.21388192 0.70400006 12957822
-0.034194287 0.21388192 0.70400006 12760961
-0.032993335 0.21479334 0.70700002 13155719
-0.031691428 0.21509714 0.708 13089413
-0.030342858 0.21509714 0.708 13484171
-0.029076193 0.21570477 0.71000004 13353346
-0.02772381 0.21570477 0.71000004 13616518
-0.026371431 0.21570477 0.71000004 13617547
-0.10345715 0.21705715 0.71000004 16644813
-0.10210477 0.21705715 0.71000004 15591105
-0.10032666 0.21614 0.70700002 13814694
-0.098840006 0.21583429 0.70600003 13550475
-0.097219057 0.21522288 0.70400006 13287303
-0.095741905 0.21491715 0.70300001 13023881
-0.094402857 0.21491715 0.70300001 12892295
-0.092799053 0.21430573 0.70100003 13088652
-0.091333345 0.21400002 0.70000005 12693894
-0.089742862 0.21338856 0.69800001 12563321
-0.088286668 0.21308286 0.69700003 12300149
-0.086959057 0.21308286 0.69700003 12366205
-0.085262857 0.21216571 0.69400001 12431998
-0.08382 0.21186 0.69300002 11840384
-0.082499996 0.21186 0.69300002 11774591
-0.080945715 0.21124859 0.69100004 10592102
-0.079629533 0.21124859 0.69100004 9868379
-0.078313336 0.21124859 0.69100004 9537849
-0.076997146 0.21124859 0.69100004 10064193
-0.075680956 0.21124859 0.69100004 9735762
-0.074364766 0.21124859 0.69100004 8222523
-0.073048577 0.21124859 0.69100004 8944951
-0.071732387 0.21124859 0.69100004 10326604
-0.070416197 0.21124859 0.69100004 9538392
-0.069100007 0.21124859 0.69100004 8354118
-0.067685723 0.21094288 0.69000006 8880201
-0.066371433 0.21094288 0.69000006 9340752
-0.065057144 0.21094288 0.69000006 8945994
-0.063742861 0.21094288 0.69000006 8090685
-0.062428575 0.21094288 0.69000006 8485947
-0.061202858 0.21124859 0.69100004 8946498
-0.059886672 0.21124859 0.69100004 9995854
-0.058570478 0.21124859 0.69100004 10127440
-0.057254288 0.21124859 0.69100004 10982513
-0.055938099 0.21124859 0.69100004 12100994
-0.054779999 0.21186 0.69300002 12167552
-0.053460002 0.21186 0.69300002 11772794
-0.052140001 0.21186 0.69300002 11969921
-0.05082 0.21186 0.69300002 11640956
-0.049571428 0.21216571 0.69400001 11575422
-0.04824952 0.21216571 0.69400001 11443836
-0.047062859 0.21277715 0.69600004 10722421
-0.045737144 0.21277715 0.69600004 10393456
-0.044411432 0.21277715 0.69600004 7437647
-0.04314762 0.21308286 0.69700003 5595443
-0.041820001 0.21308286 0.69700003 6449152
-0.040550474 0.21338856 0.69800001 10988868
-0.039220951 0.21338856 0.69800001 11905402
-0.038054287 0.21430573 0.70100003 12563332
-0.036823809 0.21491715 0.70300001 12167786
-0.035535242 0.21522288 0.70400006 13088888
-0.034194287 0.21522288 0.70400006 12957568
-0.032946669 0.21583429 0.70600003 13089154
-0.031646665 0.21614 0.70700002 12957827
-0.030300001 0.21614 0.70700002 13484171
-0.028953334 0.21614 0.70700002 13484682
-0.02772381 0.21705715 0.71000004 13155717
-0.026371431 0.21705715 0.71000004 13484936
-0.10316571 0.21779428 0.708 16777164
-0.10181714 0.21779428 0.708 16117960
-0.10046858 0.21779428 0.708 13486240
-0.098840006 0.21717906 0.70600003 13484943
-0.097219057 0.21656382 0.70400006 13287564
-0.095741905 0.21625619 0.70300001 12958088
-0.094402857 0.21625619 0.70300001 12694916
-0.092799053 0.21564095 0.70100003 12496778
-0.091333345 0.21533336 0.70000005 12167813
-0.089742862 0.2147181 0.69800001 12365690
-0.088413335 0.2147181 0.69800001 12234104
-0.086959057 0.21441048 0.69700003 12365694
-0.085262857 0.21348763 0.69400001 12497280
-0.08382 0.21318001 0.69300002 11971436
-0.082499996 0.21318001 0.69300002 11971436
-0.080945715 0.21256477 0.69100004 11643745
-0.079629533 0.21256477 0.69100004 11643745
-0.078313336 0.21256477 0.69100004 11774048
-0.076997146 0.21256477 0.69100004 11905634
-0.075680956 0.21256477 0.69100004 11446126
-0.074364766 0.21256477 0.69100004 11380333
-0.073048577 0.21256477 0.69100004 11511907
-0.071732387 0.21256477 0.69100004 11709286
-0.070416197 0.21256477 0.69100004 11511671
-0.069100007 0.21256477 0.69100004 11380085
-0.06778381 0.21256477 0.69100004 11182440
-0.066467628 0.21256477 0.69100004 11642991
-0.065151431 0.21256477 0.69100004 10788466
-0.063835248 0.21256477 0.69100004 10788466
-0.062519051 0.21256477 0.69100004 10656880
-0.061202858 0.21256477 0.69100004 10985845
-0.059886672 0.21256477 0.69100004 10854243
-0.058570478 0.21256477 0.69100004 10788450
-0.057254288 0.21256477 0.69100004 10459233
-0.055938099 0.21256477 0.69100004 10525026
-0.054779999 0.21318001 0.69300002 10459219
-0.053460002 0.21318001 0.69300002 9735496
-0.052140001 0.21318001 0.69300002 8221795
-0.05082 0.21318001 0.69300002 7432279
-0.049571428 0.21348763 0.69400001 7301167
-0.04824952 0.21348763 0.69400001 7235374
-0.04692762 0.21348763 0.69400001 6645544
-0.045737144 0.21410286 0.69600004 6448165
-0.044411432 0.21410286 0.69600004 5528878
-0.04314762 0.21441048 0.69700003 4344604
-0.041820001 0.21441048 0.69700003 6251820
-0.040550474 0.2147181 0.69800001 11317881
-0.039220951 0.2147181 0.69800001 12235642
-0.038054287 0.21564095 0.70100003 12827779
-0.03687619 0.21656382 0.70400006 12563069
-0.035535242 0.21656382 0.70400006 12892034
-0.034194287 0.21656382 0.70400006 12892034
-0.032946669 0.21717906 0.70600003 13023620
-0.031646665 0.21748666 0.70700002 12957827
-0.030300001 0.21748666 0.70700002 13155206
-0.028953334 0.21748666 0.70700002 13221001
-0.027606668 0.21748666 0.70700002 13155208
-0.10167333 0.21883334 0.70700002 16117708
-0.10032666 0.21883334 0.70700002 13617574
-0.098840006 0.21852382 0.70600003 13813651
-0.097219057 0.21790478 0.70400006 13089928
-0.095741905 0.21759523 0.70300001 12958081
-0.094402857 0.21759523 0.70300001 12694909
-0.092799053 0.2169762 0.70100003 12365694
-0.091333345 0.21666668 0.70000005 12431487
-0.089742862 0.21604763 0.69800001 12629368
-0.088413335 0.21604763 0.69800001 12234610
-0.086959057 0.2157381 0.69700003 12167541
-0.085262857 0.21480952 0.69400001 12101748
-0.08382 0.21450001 0.69300002 11970918
-0.082499996 0.21450001 0.69300002 11773539
-0.081180006 0.21450001 0.69300002 11839328
-0.079629533 0.21388096 0.69100004 12036707
-0.078313336 0.21388096 0.69100004 11970916
-0.076997146 0.21388096 0.69100004 11839330
-0.075680956 0.21388096 0.69100004 11511655
-0.074364766 0.21388096 0.69100004 11380069
-0.073048577 0.21388096 0.69100004 10591078
-0.071732387 0.21388096 0.69100004 10656871
-0.070416197 0.21388096 0.69100004 11246689
-0.069100007 0.21388096 0.69100004 11378275
-0.06778381 0.21388096 0.69100004 11181407
-0.066467628 0.21388096 0.69100004 11115614
-0.065151431 0.21388096 0.69100004 10787696
-0.063835248 0.21388096 0.69100004 10721903
-0.062519051 0.21388096 0.69100004 10459251
-0.061202858 0.21388096 0.69100004 10261872
-0.059886672 0.21388096 0.69100004 9802355
-0.058570478 0.21388096 0.69100004 9604976
-0.057254288 0.21388096 0.69100004 9145703
-0.055938099 0.21388096 0.69100004 8948324
-0.054779999 0.21450001 0.69300002 8225122
-0.053460002 0.21450001 0.69300002 7567192
-0.052140001 0.21450001 0.69300002 6253899
-0.05082 0.21450001 0.69300002 4543281
-0.049571428 0.21480952 0.69400001 4936716
-0.04824952 0.21480952 0.69400001 5726232
-0.04692762 0.21480952 0.69400001 5594923
-0.045737144 0.21542858 0.69600004 5265958
-0.044411432 0.21542858 0.69600004 5266210
-0.04314762 0.2157381 0.69700003 4871452
-0.041820001 0.2157381 0.69700003 6447915
-0.040550474 0.21604763 0.69800001 11777148
-0.039220951 0.21604763 0.69800001 12170362
-0.038054287 0.2169762 0.70100003 12565120
-0.03687619 0.21790478 0.70400006 11972731
-0.035535242 0.21790478 0.70400006 12235903
-0.034194287 0.21790478 0.70400006 12563069
-0.032946669 0.21852382 0.70600003 12694655
-0.031646665 0.21883334 0.70700002 12759671
-0.030300001 0.21883334 0.70700002 13351808
-0.028994286 0.21914285 0.708 13155460
-0.027645715 0.21914285 0.708 13287046
-0.10167333 0.22018 0.70700002 16183235
-0.10032666 0.22018 0.70700002 13880480
-0.098840006 0.21986859 0.70600003 13945237
-0.097219057 0.21924573 0.70400006 13089928
-0.095741905 0.21893428 0.70300001 12892286
-0.094402857 0.21893428 0.70300001 12826493
-0.092799053 0.21831143 0.70100003 12695170
-0.091333345 0.21800001 0.70000005 12629377
-0.089742862 0.21737714 0.69800001 12366446
-0.088286668 0.21706572 0.69700003 12169067
-0.086959057 0.21706572 0.69700003 12234099
-0.085262857 0.21613143 0.69400001 11707755
-0.08382 0.21582 0.69300002 11444059
-0.082499996 0.21582 0.69300002 11378266
-0.081180006 0.21582 0.69300002 11444050
-0.079629533 0.21519716 0.69100004 11509843
-0.078313336 0.21519716 0.69100004 11377489
-0.076997146 0.21519716 0.69100004 11180110
-0.075680956 0.21519716 0.69100004 9868102
-0.074364766 0.21519716 0.69100004 8420656
-0.073048577 0.21519716 0.69100004 8750148
-0.071732387 0.21519716 0.69100004 8947527
-0.070416197 0.21519716 0.69100004 9407267
-0.069100007 0.21519716 0.69100004 9670439
-0.06778381 0.21519716 0.69100004 8091189
-0.066467628 0.21519716 0.69100004 7893810
-0.065151431 0.21519716 0.69100004 7238181
-0.063835248 0.21519716 0.69100004 5790735
-0.062519051 0.21519716 0.69100004 6184513
-0.061202858 0.21519716 0.69100004 6579271
-0.059886672 0.21519716 0.69100004 7434313
-0.058570478 0.21519716 0.69100004 7697485
-0.057254288 0.21519716 0.69100004 6382425
-0.056100003 0.21582 0.69300002 5856081
-0.054779999 0.21582 0.69300002 5397075
-0.053460002 0.21582 0.69300002 4344387
-0.052140001 0.21582 0.69300002 4018208
-0.05082 0.21582 0.69300002 4018208
-0.049571428 0.21613143 0.69400001 5134622
-0.04824952 0.21613143 0.69400001 6055724
-0.047062859 0.21675429 0.69600004 5791789
-0.045737144 0.21675429 0.69600004 5397031
-0.044475239 0.21706572 0.69700003 5266730
-0.04314762 0.21706572 0.69700003 4806179
-0.041820001 0.21706572 0.69700003 7237429
-0.040550474 0.21737714 0.69800001 12040318
-0.039220951 0.21737714 0.69800001 12300912
-0.038162857 0.21893428 0.70300001 12827256
-0.03687619 0.21924573 0.70400006 12497800
-0.035535242 0.21924573 0.70400006 12695179
-0.034291428 0.21986859 0.70600003 12760709
-0.032993335 0.22018 0.70700002 13023881
-0.031646665 0.22018 0.70700002 13089408
-0.030300001 0.22018 0.70700002 13220994
-0.028994286 0.22049144 0.708 13155208
-0.027645715 0.22049144 0.708 13549966
-0.10167333 0.22152668 0.70700002 16248767
-0.10032666 0.22152668 0.70700002 14209184
-0.098840006 0.22121334 0.70600003 14076312
-0.097219057 0.22058667 0.70400006 13286796
-0.095878102 0.22058667 0.70400006 13023615
-0.094537146 0.22058667 0.70400006 12892029
-0.093063809 0.22027333 0.70300001 12695168
-0.091333345 0.21933335 0.70000005 12497789
-0.089742862 0.21870667 0.69800001 11971947
-0.088286668 0.21839334 0.69700003 12103533
-0.086959057 0.21839334 0.69700003 12365170
-0.085262857 0.21745333 0.69400001 11838826
-0.08382 0.21714 0.69300002 11377995
-0.082499996 0.21714 0.69300002 11377995
-0.081180006 0.21714 0.69300002 11114312
-0.079629533 0.21651335 0.69100004 11245898
-0.078313336 0.21651335 0.69100004 11311185
-0.076997146 0.21651335 0.69100004 11245392
-0.075680956 0.21651335 0.69100004 9670980
-0.074364766 0.21651335 0.69100004 8091948
-0.073048577 0.21651335 0.69100004 7700022
-0.071732387 0.21651335 0.69100004 7963194
-0.070416197 0.21651335 0.69100004 8290590
-0.069100007 0.21651335 0.69100004 8422176
-0.06778381 0.21651335 0.69100004 7501603
-0.066467628 0.21651335 0.69100004 7041052
-0.065151431 0.21651335 0.69100004 6188836
-0.063835248 0.21651335 0.69100004 4215046
-0.062519051 0.21651335 0.69100004 5002803
-0.061202858 0.21651335 0.69100004 6121284
-0.059886672 0.21651335 0.69100004 7040848
-0.058570478 0.21651335 0.69100004 6646090
-0.057254288 0.21651335 0.69100004 5727557
-0.056100003 0.21714 0.69300002 5069627
-0.054779999 0.21714 0.69300002 4610137
-0.053460002 0.21714 0.69300002 3952207
-0.052140001 0.21714 0.69300002 4018208
-0.05082 0.21714 0.69300002 4084001
-0.049571428 0.21745333 0.69400001 5265440
-0.04824952 0.21745333 0.69400001 6120749
-0.047062859 0.21808 0.69600004 5528610
-0.045737144 0.21808 0.69600004 5594403
-0.044475239 0.21839334 0.69700003 5200926
-0.04314762 0.21839334 0.69700003 4871961
-0.04188 0.21870667 0.69800001 8354388
-0.040550474 0.21870667 0.69800001 12236175
-0.039220951 0.21870667 0.69800001 12300408
-0.038162857 0.22027333 0.70300001 12629373
-0.03687619 0.22058667 0.70400006 12169853
-0.035535242 0.22058667 0.70400006 12498818
-0.034291428 0.22121334 0.70600003 12629382
-0.032993335 0.22152668 0.70700002 12892554
-0.031691428 0.22184001 0.708 13089404
-0.030342858 0.22184001 0.708 13220990
-0.029076193 0.22246668 0.71000004 13220999
-0.02772381 0.22246668 0.71000004 13484171
-0.026705716 0.22528668 0.71900004 13287832
-0.10046858 0.22318858 0.708 14275234
-0.098980002 0.22287333 0.70700002 13551002
-0.097495243 0.2225581 0.70600003 13287830
-0.09615048 0.2225581 0.70600003 12958081
-0.094537146 0.22192763 0.70400006 12826495
-0.093063809 0.22161239 0.70300001 12695420
-0.091463812 0.22098191 0.70100003 12432248
-0.089742862 0.22003619 0.69800001 12102770
-0.088286668 0.21972096 0.69700003 12234356
-0.086959057 0.21972096 0.69700003 12299881
-0.085262857 0.21877524 0.69400001 11905123
-0.08382 0.21846001 0.69300002 11312464
-0.082499996 0.21846001 0.69300002 11312464
-0.081180006 0.21846001 0.69300002 11048267
-0.079629533 0.21782953 0.69100004 10785095
-0.078313336 0.21782953 0.69100004 10916436
-0.076997146 0.21782953 0.69100004 10916436
-0.075680956 0.21782953 0.69100004 9604664
-0.074364766 0.21782953 0.69100004 8420390
-0.073048577 0.21782953 0.69100004 8094017
-0.071732387 0.21782953 0.69100004 8225603
-0.070416197 0.21782953 0.69100004 8553019
-0.069100007 0.21782953 0.69100004 8750398
-0.06778381 0.21782953 0.69100004 7830845
-0.066467628 0.21782953 0.69100004 7041329
-0.065151431 0.21782953 0.69100004 5795096
-0.063835248 0.21782953 0.69100004 3426560
-0.062519051 0.21782953 0.69100004 4873538
-0.061202858 0.21782953 0.69100004 5860433
-0.059886672 0.21782953 0.69100004 5593679
-0.058570478 0.21782953 0.69100004 4935749
-0.057254288 0.21782953 0.69100004 4281928
-0.056100003 0.21846001 0.69300002 5795167
-0.054779999 0.21846001 0.69300002 5991758
-0.053460002 0.21846001 0.69300002 4017968
-0.052140001 0.21846001 0.69300002 3689502
-0.05082 0.21846001 0.69300002 3228951
-0.049571428 0.21877524 0.69400001 3622939
-0.048388574 0.21940573 0.69600004 5530936
-0.047062859 0.21940573 0.69600004 5792536
-0.045737144 0.21940573 0.69600004 5989915
-0.044475239 0.21972096 0.69700003 5200658
-0.04314762 0.21972096 0.69700003 6648104
-0.04188 0.22003619 0.69800001 8880488
-0.040550474 0.22003619 0.69800001 12367517
-0.039220951 0.22003619 0.69800001 12432257
-0.038162857 0.22161239 0.70300001 12761222
-0.03687619 0.22192763 0.70400006 12629634
-0.035535242 0.22192763 0.70400006 12695427
-0.034291428 0.2225581 0.70600003 12695175
-0.033040002 0.22318858 0.708 12892554
-0.031780954 0.22381905 0.71000004 13089908
-0.030428572 0.22381905 0.71000004 13353080
-0.029117145 0.22413428 0.71100003 13287053
-0.028075241 0.2266562 0.71900004 13418639
-0.026705716 0.2266562 0.71900004 13353359
-0.10181714 0.22453715 0.708 16512457
-0.10046858 0.22453715 0.708 14143909
-0.098980002 0.22421999 0.70700002 13419666
-0.097633332 0.22421999 0.70700002 12827529
-0.096286669 0.22421999 0.70700002 12957827
-0.094805717 0.22390287 0.70600003 12892034
-0.093063809 0.22295143 0.70300001 12760709
-0.091463812 0.22231716 0.70100003 12563330
-0.089742862 0.22136572 0.69800001 12102770
-0.088413335 0.22136572 0.69800001 12168563
-0.086959057 0.22104858 0.69700003 12036459
-0.085262857 0.22009714 0.69400001 11839080
-0.083940953 0.22009714 0.69400001 11706956
-0.082499996 0.21978001 0.69300002 11377991
-0.081180006 0.21978001 0.69300002 11114030
-0.079860002 0.21978001 0.69300002 11245616
-0.078313336 0.21914573 0.69100004 11047502
-0.076997146 0.21914573 0.69100004 10323779
-0.075680956 0.21914573 0.69100004 9077307
-0.074364766 0.21914573 0.69100004 8748342
-0.073048577 0.21914573 0.69100004 8422216
-0.071732387 0.21914573 0.69100004 8488009
-0.070416197 0.21914573 0.69100004 8816200
-0.069100007 0.21914573 0.69100004 8684614
-0.06778381 0.21914573 0.69100004 7765565
-0.066467628 0.21914573 0.69100004 6712877
-0.065151431 0.21914573 0.69100004 5202995
-0.063835248 0.21914573 0.69100004 4150307
-0.062519051 0.21914573 0.69100004 5858378
-0.061202858 0.21914573 0.69100004 6121550
-0.059886672 0.21914573 0.69100004 4938039
-0.058570478 0.21914573 0.69100004 4280109
-0.057254288 0.21914573 0.69100004 3625511
-0.056100003 0.21978001 0.69300002 5928266
-0.054779999 0.21978001 0.69300002 6648934
-0.053460002 0.21978001 0.69300002 4214593
-0.052140001 0.21978001 0.69300002 3557891
-0.05082 0.21978001 0.69300002 3360512
-0.049571428 0.22009714 0.69400001 3097344
-0.048388574 0.22073145 0.69600004 5136923
-0.047062859 0.22073145 0.69600004 5201430
-0.045737144 0.22073145 0.69600004 4872465
-0.044475239 0.22104858 0.69700003 5133568
-0.04314762 0.22104858 0.69700003 7436312
-0.04188 0.22136572 0.69800001 9865579
-0.040550474 0.22136572 0.69800001 12563092
-0.039220951 0.22136572 0.69800001 12365951
-0.038162857 0.22295143 0.70300001 12694916
-0.03687619 0.22326858 0.70400006 12629634
-0.035535242 0.22326858 0.70400006 12695427
-0.034339998 0.22421999 0.70700002 12563855
-0.033040002 0.22453715 0.708 12827027
-0.031780954 0.22517143 0.71000004 13155712
-0.030428572 0.22517143 0.71000004 13353091
-0.029199049 0.22612287 0.71300006 13287044
-0.028075241 0.22802573 0.71900004 13418630
-0.026854288 0.2292943 0.72300005 13353105
-0.025477143 0.2292943 0.72300005 16775883
-0.10181714 0.22588572 0.708 16446664
-0.10046858 0.22588572 0.708 14209702
-0.098980002 0.22556667 0.70700002 13550750
-0.097633332 0.22556667 0.70700002 12892820
-0.096286669 0.22556667 0.70700002 12826756
-0.094805717 0.22524762 0.70600003 12760963
-0.093063809 0.22429048 0.70300001 12760718
-0.091463812 0.22365238 0.70100003 12629132
-0.090000004 0.22333334 0.70000005 12299638
-0.088413335 0.22269523 0.69800001 12233845
-0.086959057 0.2223762 0.69700003 12299118
-0.08563143 0.2223762 0.69700003 11772774
-0.083940953 0.22141905 0.69400001 11707208
-0.082619049 0.22141905 0.69400001 11509829
-0.081297144 0.22141905 0.69400001 11377967
-0.079860002 0.2211 0.69300002 11904311
-0.078540005 0.2211 0.69300002 11378761
-0.07722 0.2211 0.69300002 9799729
-0.075899996 0.2211 0.69300002 8421192
-0.074580006 0.2211 0.69300002 7829055
-0.073260002 0.2211 0.69300002 8290630
-0.071940005 0.2211 0.69300002 8356423
-0.070416197 0.22046192 0.69100004 8684355
-0.069100007 0.22046192 0.69100004 8289597
-0.06778381 0.22046192 0.69100004 7896374
-0.066467628 0.22046192 0.69100004 6777893
-0.065151431 0.22046192 0.69100004 4216653
-0.063835248 0.22046192 0.69100004 3953481
-0.062519051 0.22046192 0.69100004 5134412
-0.061202858 0.22046192 0.69100004 6055514
-0.059886672 0.22046192 0.69100004 5595719
-0.058570478 0.22046192 0.69100004 5398340
-0.057254288 0.22046192 0.69100004 5465684
-0.056100003 0.2211 0.69300002 5992028
-0.054779999 0.2211 0.69300002 5859922
-0.053460002 0.2211 0.69300002 4675648
-0.052140001 0.2211 0.69300002 3820568
-0.05082 0.2211 0.69300002 3886361
-0.049571428 0.22141905 0.69400001 4213538
-0.048388574 0.22205716 0.69600004 5463605
-0.04713048 0.2223762 0.69700003 6186788
-0.045802858 0.2223762 0.69700003 6449960
-0.044475239 0.2223762 0.69700003 7237931
-0.04314762 0.2223762 0.69700003 10264409
-0.04188 0.22269523 0.69800001 10787974
-0.040550474 0.22269523 0.69800001 12432799
-0.039220951 0.22269523 0.69800001 12497796
-0.038162857 0.22429048 0.70300001 12300417
-0.03687619 0.22460954 0.70400006 12497789
-0.035535242 0.22460954 0.70400006 12563582
-0.034339998 0.22556667 0.70700002 12760471
-0.033040002 0.22588572 0.708 13089436
-0.031825714 0.22684287 0.71100003 13155458
-0.030557144 0.22748098 0.71300006 13944974
-0.029199049 0.22748098 0.71300006 13550461
-0.028075241 0.22939526 0.71900004 13484668
-0.026742859 0.22971429 0.72000003 13418902
-0.025477143 0.23067144 0.72300005 16775630
-0.024100002 0.23067144 0.72300005 16646116
-0.10181714 0.22723429 0.708 16315337
-0.10046858 0.22723429 0.708 14078375
-0.098980002 0.22691333 0.70700002 14208416
-0.097633332 0.22691333 0.70700002 12695177
-0.096286669 0.22691333 0.70700002 12892025
-0.094805717 0.22659239 0.70600003 12826232
-0.093196198 0.22595049 0.70400006 12563839
-0.091463812 0.22498763 0.70100003 12563839
-0.090000004 0.22466667 0.70000005 12299388
-0.088413335 0.22402476 0.69800001 12299388
-0.087083809 0.22402476 0.69800001 12364913
-0.08563143 0.22370382 0.69700003 11772776
-0.084182858 0.22338288 0.69600004 11707224
-0.082619049 0.22274096 0.69400001 11509845
-0.081297144 0.22274096 0.69400001 11312443
-0.079860002 0.22241999 0.69300002 11772994
-0.078540005 0.22241999 0.69300002 11182177
-0.07722 0.22241999 0.69300002 9405766
-0.075899996 0.22241999 0.69300002 8289597
-0.074580006 0.22241999 0.69300002 8223804
-0.073260002 0.22241999 0.69300002 8159294
-0.071940005 0.22241999 0.69300002 8356673
-0.07062 0.22241999 0.69300002 8618060
-0.069299996 0.22241999 0.69300002 8486474
-0.06778381 0.22177811 0.69100004 7830831
-0.066467628 0.22177811 0.69100004 6580764
-0.065151431 0.22177811 0.69100004 3888421
-0.063835248 0.22177811 0.69100004 3822628
-0.062519051 0.22177811 0.69100004 4872246
-0.061202858 0.22177811 0.69100004 6319692
-0.059886672 0.22177811 0.69100004 6057553
-0.058570478 0.22177811 0.69100004 5597002
-0.05742 0.22241999 0.69300002 5335368
-0.056100003 0.22241999 0.69300002 5532747
-0.054779999 0.22241999 0.69300002 4545322
-0.053460002 0.22241999 0.69300002 4413736
-0.052215237 0.22274096 0.69400001 4936991
-0.050893333 0.22274096 0.69400001 5200163
-0.04971429 0.22338288 0.69600004 5528099
-0.048388574 0.22338288 0.69600004 5922857
-0.04713048 0.22370382 0.69700003 7500599
-0.045802858 0.22370382 0.69700003 7763771
-0.044475239 0.22370382 0.69700003 8683842
-0.04314762 0.22370382 0.69700003 11249769
-0.04188 0.22402476 0.69800001 11315330
-0.040550474 0.22402476 0.69800001 12236432
-0.039333336 0.22466667 0.70000005 12432523
-0.038217146 0.22595049 0.70400006 12432523
-0.03687619 0.22595049 0.70400006 12694909
-0.035636194 0.22659239 0.70600003 12760702
-0.034339998 0.22691333 0.70700002 12694668
-0.033133335 0.2278762 0.71000004 12892047
-0.03191524 0.22883907 0.71300006 13154679
-0.030557144 0.22883907 0.71300006 13746816
-0.029240001 0.22916001 0.71400005 13352069
-0.028075241 0.23076476 0.71900004 13417862
-0.026742859 0.23108573 0.72000003 13286542
-0.025441907 0.23172764 0.72200006 16774599
-0.024066668 0.23172764 0.72200006 16579809
-0.022691431 0.23172764 0.72200006 16777188
-0.10210477 0.22922859 0.71000004 16512979
-0.10075239 0.22922859 0.71000004 14012845
-0.099120006 0.22858286 0.708 13419418
-0.097771429 0.22858286 0.708 11708800
-0.096286669 0.22826 0.70700002 12037231
-0.094805717 0.22793716 0.70600003 12629368
-0.093196198 0.22729145 0.70400006 12563834
-0.091724768 0.22696857 0.70300001 12695420
-0.090128571 0.22632286 0.70100003 12497280
-0.088413335 0.2253543 0.69800001 12234108
-0.087083809 0.2253543 0.69800001 11707240
-0.08563143 0.22503144 0.69700003 10786138
-0.084303811 0.22503144 0.69700003 10917987
-0.082857147 0.22470859 0.69600004 11378538
-0.081297144 0.22406286 0.69400001 11444554
-0.07997524 0.22406286 0.69400001 12299863
-0.078653328 0.22406286 0.69400001 11312993
-0.07722 0.22374 0.69300002 10194512
-0.075899996 0.22374 0.69300002 9012559
-0.074580006 0.22374 0.69300002 9012559
-0.073260002 0.22374 0.69300002 8947761
-0.071940005 0.22374 0.69300002 8684589
-0.07062 0.22374 0.69300002 8749135
-0.069299996 0.22374 0.69300002 8617549
-0.06778381 0.22309428 0.69100004 7896111
-0.066467628 0.22309428 0.69100004 7040802
-0.065151431 0.22309428 0.69100004 5595719
-0.063835248 0.22309428 0.69100004 5529926
-0.062519051 0.22309428 0.69100004 6054228
-0.061202858 0.22309428 0.69100004 6843744
-0.059886672 0.22309428 0.69100004 7042906
-0.058570478 0.22309428 0.69100004 7174492
-0.05742 0.22374 0.69300002 7963721
-0.056100003 0.22374 0.69300002 8095307
-0.054779999 0.22374 0.69300002 7765574
-0.053460002 0.22374 0.69300002 7568195
-0.052215237 0.22406286 0.69400001 7829592
-0.050893333 0.22406286 0.69400001 7763799
-0.04971429 0.22470859 0.69600004 7566170
-0.048458096 0.22503144 0.69700003 8158307
-0.04713048 0.22503144 0.69700003 8158792
-0.045802858 0.22503144 0.69700003 8750929
-0.044475239 0.22503144 0.69700003 9274726
-0.04314762 0.22503144 0.69700003 11380102
-0.04188 0.2253543 0.69800001 11511421
-0.040550474 0.2253543 0.69800001 12564109
-0.039220951 0.2253543 0.69800001 12629134
-0.038217146 0.22729145 0.70400006 12563341
-0.03687619 0.22729145 0.70400006 12694909
-0.035686668 0.22826 0.70700002 12760702
-0.034388572 0.22858286 0.708 12694916
-0.033133335 0.22922859 0.71000004 12958088
-0.031960003 0.23052001 0.71400005 13155192
-0.0306 0.23052001 0.71400005 13747329
-0.029321905 0.23116572 0.71600002 13549716
-0.028075241 0.2321343 0.71900004 13812888
-0.026817145 0.23310287 0.72200006 13615761
-0.025441907 0.23310287 0.72200006 16774339
-0.024066668 0.23310287 0.72200006 16579811
-0.022691431 0.23310287 0.72200006 16777190
-0.10268001 0.23188001 0.71400005 16579034
-0.10132001 0.23188001 0.71400005 14210486
-0.099120006 0.22993143 0.708 13419152
-0.097771429 0.22993143 0.708 11445362
-0.096422859 0.22993143 0.708 11313495
-0.094805717 0.22928192 0.70600003 12234597
-0.093196198 0.22863241 0.70400006 12498041
-0.091724768 0.22830762 0.70300001 12563834
-0.090128571 0.22765811 0.70100003 12562830
-0.08866667 0.22733334 0.70000005 12233865
-0.087083809 0.22668381 0.69800001 11378786
-0.085754283 0.22668381 0.69800001 10655063
-0.084303811 0.22635905 0.69700003 10656087
-0.082857147 0.2260343 0.69600004 10985052
-0.081531428 0.2260343 0.69600004 11247954
-0.07997524 0.22538477 0.69400001 11576919
-0.078653328 0.22538477 0.69400001 11116638
-0.077331424 0.22538477 0.69400001 10129743
-0.076009519 0.22538477 0.69400001 9800278
-0.074580006 0.22506 0.69300002 9800278
-0.073260002 0.22506 0.69300002 9735508
-0.071940005 0.22506 0.69300002 9011785
-0.07062 0.22506 0.69300002 8945742
-0.069299996 0.22506 0.69300002 9077328
-0.067980006 0.22506 0.69300002 8751179
-0.066467628 0.22441049 0.69100004 7961663
-0.065151431 0.22441049 0.69100004 7501900
-0.06402 0.22506 0.69300002 7699279
-0.062699996 0.22506 0.69300002 7961178
-0.061380003 0.22506 0.69300002 8158557
-0.060060002 0.22506 0.69300002 8224868
-0.058740001 0.22506 0.69300002 8422247
-0.05742 0.22506 0.69300002 8619607
-0.056100003 0.22506 0.69300002 8553814
-0.054779999 0.22506 0.69300002 8683853
-0.053460002 0.22506 0.69300002 8881232
-0.052215237 0.22538477 0.69400001 8946512
-0.050893333 0.22538477 0.69400001 8222789
-0.04971429 0.2260343 0.69600004 7826734
-0.048458096 0.22635905 0.69700003 8747836
-0.04713048 0.22635905 0.69700003 8420679
-0.045802858 0.22635905 0.69700003 9012816
-0.044475239 0.22635905 0.69700003 10786399
-0.043209527 0.22668381 0.69800001 11904880
-0.04188 0.22668381 0.69800001 12233847
-0.040550474 0.22668381 0.69800001 12497019
-0.039220951 0.22668381 0.69800001 11971447
-0.038217146 0.22863241 0.70400006 12431998
-0.03687619 0.22863241 0.70400006 12563834
-0.035686668 0.22960667 0.70700002 12695420
-0.034388572 0.22993143 0.708 12826502
-0.033180002 0.23090571 0.71100003 12892295
-0.031960003 0.23188001 0.71400005 12958592
-0.0306 0.23188001 0.71400005 13353350
-0.029321905 0.23252952 0.71600002 13089676
-0.028075241 0.23350382 0.71900004 13221262
-0.026817145 0.23447812 0.72200006 13483660
-0.025441907 0.23447812 0.72200006 16774081
-0.024066668 0.23447812 0.72200006 16514018
-0.10311142 0.23422 0.71700001 16513239
-0.10132001 0.23324002 0.71400005 14407863
-0.099120006 0.23128 0.708 13353635
-0.097771429 0.23128 0.708 11182466
-0.096422859 0.23128 0.708 11379556
-0.094537146 0.22997335 0.70400006 11774314
-0.093063809 0.22964667 0.70300001 12497519
-0.091724768 0.22964667 0.70300001 12760691
-0.090128571 0.22899334 0.70100003 12758928
-0.08866667 0.22866668 0.70000005 12495756
-0.087083809 0.22801334 0.69800001 11641458
-0.085754283 0.22801334 0.69800001 11509872
-0.084303811 0.22768667 0.69700003 11248231
-0.082857147 0.22736001 0.69600004 10853473
-0.081531428 0.22736001 0.69600004 11247445
-0.07997524 0.22670667 0.69400001 11510617
-0.078653328 0.22670667 0.69400001 10853975
-0.077331424 0.22670667 0.69400001 9867080
-0.076009519 0.22670667 0.69400001 9341272
-0.074687615 0.22670667 0.69400001 8946514
-0.073365718 0.22670667 0.69400001 9077578
-0.071940005 0.22638001 0.69300002 8945992
-0.07062 0.22638001 0.69300002 8748883
-0.069299996 0.22638001 0.69300002 8946262
-0.067980006 0.22638001 0.69300002 9012566
-0.066660002 0.22638001 0.69300002 9275738
-0.065340005 0.22638001 0.69300002 8882011
-0.06402 0.22638001 0.69300002 9013597
-0.062699996 0.22638001 0.69300002 8355168
-0.061380003 0.22638001 0.69300002 8486754
-0.060060002 0.22638001 0.69300002 8617819
-0.058740001 0.22638001 0.69300002 8946784
-0.05742 0.22638001 0.69300002 8881239
-0.056100003 0.22638001 0.69300002 8815446
-0.054779999 0.22638001 0.69300002 9538649
-0.053460002 0.22638001 0.69300002 9867614
-0.052215237 0.22670667 0.69400001 9670221
-0.050893333 0.22670667 0.69400001 9275463
-0.04971429 0.22736001 0.69600004 9801030
-0.048458096 0.22768667 0.69700003 10393167
-0.04713048 0.22768667 0.69700003 11050866
-0.045802858 0.22768667 0.69700003 11511417
-0.044475239 0.22768667 0.69700003 11906163
-0.043209527 0.22801334 0.69800001 12432507
-0.04188 0.22801334 0.69800001 12365942
-0.040550474 0.22801334 0.69800001 12431735
-0.039220951 0.22801334 0.69800001 12168054
-0.038217146 0.22997335 0.70400006 12431226
-0.03687619 0.22997335 0.70400006 12431483
-0.035636194 0.23062667 0.70600003 12760448
-0.034339998 0.23095334 0.70700002 12629382
-0.033180002 0.23226 0.71100003 12629382
-0.03191524 0.23291335 0.71300006 12826502
-0.0306 0.23324002 0.71400005 13550225
-0.029321905 0.23389335 0.71600002 13089676
-0.028075241 0.23487335 0.71900004 13155469
-0.026817145 0.23585336 0.72200006 13549705
-0.025441907 0.23585336 0.72200006 16774333
-0.024066668 0.23585336 0.72200006 16644832
-0.10311142 0.23558572 0.71700001 16381655
-0.10160381 0.23525715 0.71600002 14407865
-0.10024001 0.23525715 0.71600002 13748899
-0.098185718 0.2336143 0.71100003 11446144
-0.096422859 0.23262857 0.708 11707503
-0.094537146 0.2313143 0.70400006 11575917
-0.093063809 0.23098572 0.70300001 11377773
-0.091724768 0.23098572 0.70300001 11640945
-0.090128571 0.23032859 0.70100003 12099960
-0.088793337 0.23032859 0.70100003 12165753
-0.087333336 0.23000002 0.70000005 12167541
-0.085754283 0.22934285 0.69800001 11772783
-0.084424764 0.22934285 0.69800001 11380333
-0.082976192 0.22901429 0.69700003 11051368
-0.081531428 0.22868572 0.69600004 10984280
-0.080205716 0.22868572 0.69600004 11247452
-0.078880005 0.22868572 0.69600004 10787946
-0.077331424 0.22802858 0.69400001 9735258
-0.076009519 0.22802858 0.69400001 9341002
-0.074687615 0.22802858 0.69400001 9209416
-0.073365718 0.22802858 0.69400001 8880712
-0.072043814 0.22802858 0.69400001 8749126
-0.070721909 0.22802858 0.69400001 8551495
-0.069400005 0.22802858 0.69400001 8946253
-0.067980006 0.22770001 0.69300002 9077582
-0.066660002 0.22770001 0.69300002 9274961
-0.065340005 0.22770001 0.69300002 8881482
-0.06402 0.22770001 0.69300002 8947275
-0.062699996 0.22770001 0.69300002 8223293
-0.061380003 0.22770001 0.69300002 8552258
-0.060060002 0.22770001 0.69300002 8683592
-0.058740001 0.22770001 0.69300002 9209936
-0.057502858 0.22802858 0.69400001 9341270
-0.056180954 0.22802858 0.69400001 9341270
-0.05485905 0.22802858 0.69400001 10130016
-0.053537142 0.22802858 0.69400001 10130016
-0.05236572 0.22868572 0.69600004 10130520
-0.051113334 0.22901429 0.69700003 10130520
-0.049785715 0.22901429 0.69700003 10392665
-0.048458096 0.22901429 0.69700003 10919009
-0.04713048 0.22901429 0.69700003 11707001
-0.045802858 0.22901429 0.69700003 12299138
-0.044539049 0.22934285 0.69800001 11906681
-0.043209527 0.22934285 0.69800001 12104060
-0.04188 0.22934285 0.69800001 11708784
-0.040550474 0.22934285 0.69800001 12169335
-0.039333336 0.23000002 0.70000005 12233845
-0.038217146 0.2313143 0.70400006 12365431
-0.03687619 0.2313143 0.70400006 12365170
-0.035636194 0.23197143 0.70600003 12891514
-0.034339998 0.2323 0.70700002 12695170
-0.033180002 0.2336143 0.71100003 12629377
-0.03191524 0.23427144 0.71300006 12826241
-0.0306 0.23460001 0.71400005 13352585
-0.029321905 0.23525715 0.71600002 13024126
-0.028075241 0.23624286 0.71900004 13221505
-0.026742859 0.23657143 0.72000003 13615757
-0.025441907 0.23722859 0.72200006 16774078
-0.024066668 0.23722859 0.72200006 16645086
-0.022691431 0.23722859 0.72200006 16777186
-0.10311142 0.23695143 0.71700001 16579293
-0.10160381 0.23662096 0.71600002 14473917
-0.10024001 0.23662096 0.71600002 14012066
-0.098600008 0.23596001 0.71400005 12827792
-0.096422859 0.23397714 0.708 11445633
-0.094537146 0.23265526 0.70400006 11379840
-0.093196198 0.23265526 0.70400006 11313289
-0.091724768 0.23232476 0.70300001 10457980
-0.090128571 0.23166382 0.70100003 10916972
-0.088793337 0.23166382 0.70100003 11443316
-0.087333336 0.23133335 0.70000005 11642221
-0.085754283 0.23067239 0.69800001 11708014
-0.084424764 0.23067239 0.69800001 11380587
-0.082976192 0.23034191 0.69700003 12104310
-0.081648573 0.23034191 0.69700003 11445624
-0.080205716 0.23001143 0.69600004 11248245
-0.078880005 0.23001143 0.69600004 10985344
-0.077554293 0.23001143 0.69600004 10722172
-0.076228574 0.23001143 0.69600004 10591319
-0.074902862 0.23001143 0.69600004 10591319
-0.073577143 0.23001143 0.69600004 10393701
-0.072043814 0.22935048 0.69400001 10262115
-0.070721909 0.22935048 0.69400001 10262376
-0.069400005 0.22935048 0.69400001 10328169
-0.067980006 0.22902 0.69300002 10591089
-0.066660002 0.22902 0.69300002 10788468
-0.065340005 0.22902 0.69300002 10657132
-0.06402 0.22902 0.69300002 10525546
-0.062699996 0.22902 0.69300002 10526041
-0.061380003 0.22902 0.69300002 10526041
-0.060060002 0.22902 0.69300002 10722405
-0.058824759 0.22935048 0.69400001 11051370
-0.057502858 0.22935048 0.69400001 10984811
-0.056180954 0.22935048 0.69400001 11050604
-0.05485905 0.22935048 0.69400001 11182954
-0.053537142 0.22935048 0.69400001 11577712
-0.05236572 0.23001143 0.69600004 11577966
-0.051113334 0.23034191 0.69700003 11577966
-0.049785715 0.23034191 0.69700003 11576444
-0.048458096 0.23034191 0.69700003 11576444
-0.04713048 0.23034191 0.69700003 11707260
-0.045868572 0.23067239 0.69800001 12299397
-0.044539049 0.23067239 0.69800001 12103031
-0.043209527 0.23067239 0.69800001 12366203
-0.04188 0.23067239 0.69800001 12300410
-0.04066667 0.23133335 0.70000005 12629375
-0.039389525 0.23166382 0.70100003 12431485
-0.038217146 0.23265526 0.70400006 12694657
-0.03687619 0.23265526 0.70400006 12760189
-0.035636194 0.2333162 0.70600003 13220740
-0.034339998 0.23364668 0.70700002 13024126
-0.033180002 0.23496857 0.71100003 13089919
-0.03191524 0.23562954 0.71300006 12957827
-0.030557144 0.23562954 0.71300006 13549964
-0.029321905 0.23662096 0.71600002 13550209
-0.028114285 0.23794286 0.72000003 13418623
-0.026742859 0.23794286 0.72000003 13484173
-0.025477143 0.23893429 0.72300005 16773823
-0.024100002 0.23893429 0.72300005 16646109
-0.10160381 0.23798476 0.71600002 14539710
-0.10024001 0.23798476 0.71600002 13946273
-0.098600008 0.23732002 0.71400005 11709311
-0.096695244 0.23599048 0.71000004 11773303
-0.094805717 0.23466097 0.70600003 11970682
-0.093196198 0.2339962 0.70400006 11577994
-0.091724768 0.23366381 0.70300001 10788478
-0.090385713 0.23366381 0.70300001 9407065
-0.088793337 0.23299906 0.70100003 9604444
-0.087333336 0.23266669 0.70000005 10326872
-0.086000003 0.23266669 0.70000005 10392665
-0.084424764 0.2320019 0.69800001 11379558
-0.082976192 0.23166953 0.69700003 11905902
-0.081648573 0.23166953 0.69700003 11512443
-0.080320954 0.23166953 0.69700003 11578236
-0.078993335 0.23166953 0.69700003 11774339
-0.077554293 0.23133714 0.69600004 11313788
-0.076228574 0.23133714 0.69600004 11575924
-0.074902862 0.23133714 0.69600004 11312752
-0.073577143 0.23133714 0.69600004 10853741
-0.072043814 0.23067239 0.69400001 11182706
-0.070721909 0.23067239 0.69400001 11117433
-0.069400005 0.23067239 0.69400001 10985847
-0.067980006 0.23034 0.69300002 11051379
-0.066660002 0.23034 0.69300002 11117172
-0.065434285 0.23067239 0.69400001 10985073
-0.06402 0.23034 0.69300002 11050866
-0.062699996 0.23034 0.69300002 11051120
-0.061468571 0.23067239 0.69400001 11051120
-0.060146667 0.23067239 0.69400001 10919793
-0.058824759 0.23067239 0.69400001 11051379
-0.057668574 0.23133714 0.69600004 11247211
-0.056342859 0.23133714 0.69600004 11510383
-0.055017143 0.23133714 0.69600004 11445362
-0.053691432 0.23133714 0.69600004 11708534
-0.052440956 0.23166953 0.69700003 11643509
-0.051113334 0.23166953 0.69700003 11577716
-0.049785715 0.23166953 0.69700003 11641719
-0.048458096 0.23166953 0.69700003 11707512
-0.04713048 0.23166953 0.69700003 11708014
-0.045868572 0.2320019 0.69800001 12036979
-0.044539049 0.2320019 0.69800001 12036988
-0.043209527 0.2320019 0.69800001 12102781
-0.042000003 0.23266669 0.70000005 12168320
-0.04066667 0.23266669 0.70000005 12628871
-0.039389525 0.23299906 0.70100003 12103033
-0.038217146 0.2339962 0.70400006 12497791
-0.03687619 0.2339962 0.70400006 12825471
-0.035636194 0.23466097 0.70600003 13220229
-0.034339998 0.23499334 0.70700002 12958081
-0.033180002 0.23632286 0.71100003 12892288
-0.031825714 0.23632286 0.71100003 12760700
-0.030557144 0.23698764 0.71300006 13681802
-0.029321905 0.23798476 0.71600002 13681541
-0.028075241 0.23898192 0.71900004 13352576
-0.026742859 0.2393143 0.72000003 13287046
-0.025477143 0.24031144 0.72300005 16774075
-0.024100002 0.24031144 0.72300005 16646116
-0.022785716 0.2409762 0.72500002 16580579
-0.10024001 0.23934858 0.71600002 13815196
-0.098600008 0.23868001 0.71400005 11380855
-0.097240001 0.23868001 0.71400005 11709298
-0.095074289 0.23667428 0.708 12038263
-0.093196198 0.23533715 0.70400006 11906681
-0.091724768 0.23500286 0.70300001 11709302
-0.090385713 0.23500286 0.70300001 10260601
-0.088793337 0.23433429 0.70100003 9800050
-0.087333336 0.23400001 0.70000005 9866326
-0.086000003 0.23400001 0.70000005 9734740
-0.084424764 0.23333143 0.69800001 10261354
-0.082976192 0.23299715 0.69700003 11708800
-0.081648573 0.23299715 0.69700003 11840118
-0.080320954 0.23299715 0.69700003 12234876
-0.078993335 0.23299715 0.69700003 11839346
-0.077665716 0.23299715 0.69700003 11510381
-0.076228574 0.23266287 0.69600004 11575422
-0.074902862 0.23266287 0.69600004 11378043
-0.073577143 0.23266287 0.69600004 11248499
