# .PCD v0.7 - Point Cloud Data file format
VERSION 0.7
FIELDS x y z rgba
SIZE 4 4 4 4
TYPE F F F U
COUNT 1 1 1 1
WIDTH 1105
HEIGHT 1
VIEWPOINT 0 0 0 1 0 0 0
POINTS 1105
DATA ascii
-0.13965714 0.067154288 0.62400001 8940334
-0.13846856 0.067154288 0.62400001 9137713
-0.13728 0.067154288 0.62400001 9006397
-0.13609143 0.067154288 0.62400001 9203776
-0.13511905 0.067261904 0.625 9203783
-0.13392857 0.067261904 0.625 9137990
-0.1327381 0.067261904 0.625 9335112
-0.13196857 0.067477144 0.62700003 9400905
-0.13077429 0.067477144 0.62700003 9401175
-0.12958001 0.067477144 0.62700003 9466968
-0.12838572 0.067477144 0.62700003 9335369
-0.12719144 0.067477144 0.62700003 9466955
-0.12519333 0.067046665 0.62300003 9532761
-0.12400667 0.067046665 0.62300003 9466968
-0.12282 0.067046665 0.62300003 9598282
-0.12182858 0.067154288 0.62400001 9664075
-0.12064 0.067154288 0.62400001 9598543
-0.11945143 0.067154288 0.62400001 9598543
-0.11807334 0.067046665 0.62300003 9598543
-0.11688667 0.067046665 0.62300003 9598543
-0.11570001 0.067046665 0.62300003 9599052
-0.11469714 0.067154288 0.62400001 8743743
-0.11314477 0.066939048 0.62200004 7365404
-0.10998 0.065755233 0.611 12694637
-0.10863809 0.065647617 0.61000001 12503295
-0.1074762 0.065647617 0.61000001 14806015
-0.10631429 0.065647617 0.61000001 14740478
-0.10515238 0.065647617 0.61000001 14279927
-0.10399048 0.065647617 0.61000001 14214647
-0.10282857 0.065647617 0.61000001 14148854
-0.10166667 0.065647617 0.61000001 14083575
-0.10034 0.065540001 0.60900003 14083575
-0.099180005 0.065540001 0.60900003 14082807
-0.098180957 0.065647617 0.61000001 14148600
-0.096859999 0.065540001 0.60900003 14280181
-0.095700003 0.065540001 0.60900003 14477560
-0.094540007 0.065540001 0.60900003 14477558
-0.093380004 0.065540001 0.60900003 14411765
-0.092220001 0.065540001 0.60900003 14346231
-0.091060005 0.065540001 0.60900003 14346231
-0.089900002 0.065540001 0.60900003 14017782
-0.088885717 0.065647617 0.61000001 14346747
-0.087723807 0.065647617 0.61000001 14412792
-0.086561903 0.065647617 0.61000001 14412792
-0.085260004 0.065540001 0.60900003 14544632
-0.084100001 0.065540001 0.60900003 14873597
-0.082940005 0.065540001 0.60900003 15135738
-0.081780002 0.065540001 0.60900003 15727871
-0.08247333 0.067046665 0.62300003 16119807
-0.081156194 0.066939048 0.62200004 9145749
-0.079971433 0.066939048 0.62200004 7886661
-0.078786671 0.066939048 0.62200004 9860451
-0.07760191 0.066939048 0.62200004 10254156
-0.076417148 0.066939048 0.62200004 10319949
-0.075232387 0.066939048 0.62200004 10254919
-0.074047625 0.066939048 0.62200004 10320712
-0.072862864 0.066939048 0.62200004 10189124
-0.071678095 0.066939048 0.62200004 10189124
-0.07049334 0.066939048 0.62200004 9860668
-0.069308572 0.066939048 0.62200004 10058047
-0.068123817 0.066939048 0.62200004 9992774
-0.066939048 0.066939048 0.62200004 9795395
-0.065754294 0.066939048 0.62200004 10057027
-0.064569525 0.066939048 0.62200004 10057027
-0.063384764 0.066939048 0.62200004 10123072
-0.062200006 0.066939048 0.62200004 10188865
-0.061015241 0.066939048 0.62200004 10254404
-0.059830479 0.066939048 0.62200004 10320197
-0.058645718 0.066939048 0.62200004 10188611
-0.057460956 0.066939048 0.62200004 10254404
-0.056276195 0.066939048 0.62200004 10320694
-0.055091433 0.066939048 0.62200004 10386487
-0.053906672 0.066939048 0.62200004 10385990
-0.052637149 0.066831432 0.62100005 10385990
-0.051454291 0.066831432 0.62100005 10386735
-0.050271433 0.066831432 0.62100005 10452528
-0.049088575 0.066831432 0.62100005 9993783
-0.047905717 0.066831432 0.62100005 10651713
-0.046722863 0.066831432 0.62100005 10063256
-0.14726573 0.068014294 0.62100005 9075843
-0.14608286 0.068014294 0.62100005 9075332
-0.14490002 0.068014294 0.62100005 8220023
-0.14418 0.068233334 0.62300003 8743502
-0.14299333 0.068233334 0.62300003 8940881
-0.14157905 0.068123817 0.62200004 9202990
-0.1403943 0.068123817 0.62200004 9268783
-0.13920954 0.068123817 0.62200004 9203510
-0.13802478 0.068123817 0.62200004 9203510
-0.13684 0.068123817 0.62200004 9202756
-0.13565524 0.068123817 0.62200004 9268549
-0.13447049 0.068123817 0.62200004 9268801
-0.13328573 0.068123817 0.62200004 9334594
-0.13210095 0.068123817 0.62200004 9268801
-0.13112666 0.068233334 0.62300003 9466180
-0.12994 0.068233334 0.62300003 9466439
-0.12854668 0.068123817 0.62200004 9532232
-0.12736191 0.068123817 0.62200004 9466691
-0.12617715 0.068123817 0.62200004 9532484
-0.12499239 0.068123817 0.62200004 9531978
-0.12380762 0.068123817 0.62200004 9268806
-0.12262287 0.068123817 0.62200004 9268801
-0.1214381 0.068123817 0.62200004 9268801
-0.12025334 0.068123817 0.62200004 9400905
-0.11906858 0.068123817 0.62200004 9400905
-0.11788382 0.068123817 0.62200004 9268817
-0.11669905 0.068123817 0.62200004 9203024
-0.11551429 0.068123817 0.62200004 9071929
-0.11451334 0.068233334 0.62300003 8019241
-0.11150762 0.067138098 0.61300004 6313984
-0.10998 0.066919044 0.611 13090651
-0.10863809 0.066809528 0.61000001 13883903
-0.10730001 0.066700004 0.60900003 15265535
-0.10614 0.066700004 0.60900003 14872314
-0.10498 0.066700004 0.60900003 14082798
-0.10382 0.066700004 0.60900003 13886711
-0.10266001 0.066700004 0.60900003 14018297
-0.10133334 0.066590481 0.60800004 14214647
-0.10017524 0.066590481 0.60800004 14214647
-0.099017151 0.066590481 0.60800004 14083061
-0.097859055 0.066590481 0.60800004 14148854
-0.096700951 0.066590481 0.60800004 14214134
-0.095542863 0.066590481 0.60800004 14214134
-0.094384767 0.066590481 0.60800004 14148854
-0.093226671 0.066590481 0.60800004 14280440
-0.092068575 0.066590481 0.60800004 14215415
-0.090910487 0.066590481 0.60800004 14281208
-0.089752384 0.066590481 0.60800004 14280438
-0.088739999 0.066700004 0.60900003 14412024
-0.087580003 0.066700004 0.60900003 14477558
-0.086420007 0.066700004 0.60900003 14609144
-0.085260004 0.066700004 0.60900003 14609655
-0.083961904 0.066590481 0.60800004 15201791
-0.082803816 0.066590481 0.60800004 15529978
-0.081780002 0.066700004 0.60900003 15727357
-0.082340956 0.068123817 0.62200004 15856383
-0.081156194 0.068123817 0.62200004 9408669
-0.079971433 0.068123817 0.62200004 8149353
-0.078786671 0.068123817 0.62200004 9925764
-0.07760191 0.068123817 0.62200004 10320197
-0.076417148 0.068123817 0.62200004 10320197
-0.075111434 0.068014294 0.62100005 10320199
-0.07392858 0.068014294 0.62100005 10320199
-0.072745718 0.068014294 0.62100005 10254404
-0.071562864 0.068014294 0.62100005 10254404
-0.07038001 0.068014294 0.62100005 10254404
-0.069197148 0.068014294 0.62100005 10254404
-0.068014294 0.068014294 0.62100005 10188613
-0.066831432 0.068014294 0.62100005 10057027
-0.065648578 0.068014294 0.62100005 10123324
-0.064569525 0.068123817 0.62200004 10123324
-0.063384764 0.068123817 0.62200004 10188091
-0.062200006 0.068123817 0.62200004 10122298
-0.061015241 0.068123817 0.62200004 10188604
-0.059734289 0.068014294 0.62100005 10451776
-0.058551431 0.068014294 0.62100005 10254399
-0.057368573 0.068014294 0.62100005 10254399
-0.056185719 0.068014294 0.62100005 10384959
-0.055002861 0.068014294 0.62100005 10450752
-0.053820003 0.068014294 0.62100005 10450504
-0.052637149 0.068014294 0.62100005 10582090
-0.051454291 0.068014294 0.62100005 10451256
-0.050190475 0.067904763 0.62 10451256
-0.049009521 0.067904763 0.62 9862192
-0.047828574 0.067904763 0.62 10980673
-0.046722863 0.068014294 0.62100005 10129303
-0.14726573 0.069197148 0.62100005 8944518
-0.14584762 0.069085717 0.62 9075332
-0.14466666 0.069085717 0.62 8088437
-0.14371715 0.069197148 0.62100005 8940356
-0.14276381 0.069308572 0.62200004 9335114
-0.14135143 0.069197148 0.62100005 9465390
-0.14016859 0.069197148 0.62100005 9531183
-0.13898572 0.069197148 0.62100005 9465399
-0.13780287 0.069197148 0.62100005 9333813
-0.13662001 0.069197148 0.62100005 9399610
-0.13543716 0.069197148 0.62100005 9333817
-0.13425429 0.069197148 0.62100005 9399097
-0.13307144 0.069197148 0.62100005 9464890
-0.13188858 0.069197148 0.62100005 9530942
-0.13091619 0.069308572 0.62200004 9662528
-0.12973143 0.069308572 0.62200004 9662787
-0.12834001 0.069197148 0.62100005 9662787
-0.12715715 0.069197148 0.62100005 9663541
-0.1259743 0.069197148 0.62100005 9729334
-0.12479144 0.069197148 0.62100005 9663305
-0.12360859 0.069197148 0.62100005 9597512
-0.12242573 0.069197148 0.62100005 9400646
-0.12124287 0.069197148 0.62100005 9203267
-0.12006001 0.069197148 0.62100005 9203006
-0.11887715 0.069197148 0.62100005 8939834
-0.11750476 0.069085717 0.62 9005836
-0.11632381 0.069085717 0.62 8808457
-0.11514286 0.069085717 0.62 8743936
-0.11396191 0.069085717 0.62 8151808
-0.11150762 0.068305716 0.61300004 5328896
-0.10998 0.068082854 0.611 12697701
-0.10863809 0.067971431 0.61000001 13753855
-0.10712382 0.067748569 0.60800004 14938111
-0.10596572 0.067748569 0.60800004 14938109
-0.10480762 0.067748569 0.60800004 14148593
-0.10364953 0.067748569 0.60800004 14083061
-0.10232287 0.067637146 0.60700005 14214647
-0.10116667 0.067637146 0.60700005 14280438
-0.099845707 0.067525715 0.60600001 14148852
-0.098691426 0.067525715 0.60600001 14148341
-0.097537145 0.067525715 0.60600001 14214134
-0.096382856 0.067525715 0.60600001 14214134
-0.095228568 0.067525715 0.60600001 14279927
-0.094074287 0.067525715 0.60600001 14148854
-0.093073338 0.067637146 0.60700005 14214647
-0.09191715 0.067637146 0.60700005 14215415
-0.090910487 0.067748569 0.60800004 14215415
-0.089752384 0.067748569 0.60800004 14346231
-0.088739999 0.067860007 0.60900003 14412024
-0.087580003 0.067860007 0.60900003 14411765
-0.086420007 0.067860007 0.60900003 14543351
-0.085120007 0.067748569 0.60800004 14478069
-0.083961904 0.067748569 0.60800004 15333375
-0.082803816 0.067748569 0.60800004 15858430
-0.08164572 0.067748569 0.60800004 15595258
-0.082208581 0.069197148 0.62100005 15002110
-0.08102572 0.069197148 0.62100005 9409705
-0.079842865 0.069197148 0.62100005 9269118
-0.078660011 0.069197148 0.62100005 9795462
-0.07747715 0.069197148 0.62100005 10452026
-0.076294295 0.069197148 0.62100005 10649405
-0.075111434 0.069197148 0.62100005 10320708
-0.07392858 0.069197148 0.62100005 10320708
-0.072745718 0.069197148 0.62100005 10385985
-0.071562864 0.069197148 0.62100005 10385985
-0.07038001 0.069197148 0.62100005 10385985
-0.069085717 0.069085717 0.62 10320192
-0.067904763 0.069085717 0.62 10188604
-0.066723809 0.069085717 0.62 10122811
-0.065542854 0.069085717 0.62 10253627
-0.064361908 0.069085717 0.62 10319420
-0.063180953 0.069085717 0.62 10188336
-0.061999999 0.069085717 0.62 10254129
-0.060819048 0.069085717 0.62 10254129
-0.059734289 0.069197148 0.62100005 10385715
-0.058457144 0.069085717 0.62 10319679
-0.057276189 0.069085717 0.62 10319679
-0.056095239 0.069085717 0.62 10515775
-0.054914284 0.069085717 0.62 10647361
-0.053733334 0.069085717 0.62 10450245
-0.052467622 0.068974286 0.61900002 10516038
-0.051205717 0.068862855 0.61800003 10582581
-0.050028574 0.068862855 0.61800003 10582581
-0.04885143 0.068862855 0.61800003 9795872
-0.047674287 0.068862855 0.61800003 10716974
-0.046497144 0.068862855 0.61800003 10194842
-0.14679144 0.070153333 0.61900002 8878725
-0.14561239 0.070153333 0.61900002 9206405
-0.14466666 0.070266664 0.62 7890545
-0.14348571 0.070266664 0.62 8873021
-0.14230476 0.070266664 0.62 9333572
-0.14112382 0.070266664 0.62 9596206
-0.13994285 0.070266664 0.62 9727792
-0.13876191 0.070266664 0.62 9596976
-0.13758096 0.070266664 0.62 9465390
-0.1364 0.070266664 0.62 9399349
-0.13521904 0.070266664 0.62 9399349
-0.13403811 0.070266664 0.62 9465142
-0.13285714 0.070266664 0.62 9465142
-0.13167618 0.070266664 0.62 9595452
-0.13070573 0.07038001 0.62100005 9661245
-0.12952286 0.07038001 0.62100005 9465149
-0.12834001 0.07038001 0.62100005 9136184
-0.12715715 0.07038001 0.62100005 9202704
-0.1259743 0.07038001 0.62100005 9860634
-0.12479144 0.07038001 0.62100005 9201716
-0.12340952 0.070266664 0.62 8938544
-0.12222857 0.070266664 0.62 8872242
-0.12104762 0.070266664 0.62 8872242
-0.11986667 0.070266664 0.62 8807482
-0.11868571 0.070266664 0.62 9070654
-0.11731524 0.070153333 0.61900002 9400133
-0.11613619 0.070153333 0.61900002 10781786
-0.11495715 0.070153333 0.61900002 10786314
-0.1137781 0.070153333 0.61900002 11049486
-0.11150762 0.069473341 0.61300004 9148160
-0.10962 0.069020003 0.60900003 12898341
-0.10846 0.069020003 0.60900003 13490943
-0.10712382 0.068906672 0.60800004 15004159
-0.10579143 0.068793342 0.60700005 14938109
-0.10463525 0.068793342 0.60700005 14082800
-0.10347905 0.068793342 0.60700005 13951991
-0.10181715 0.068453342 0.60400003 14346749
-0.10066667 0.068453342 0.60400003 14214647
-0.099516191 0.068453342 0.60400003 14148854
-0.098365717 0.068453342 0.60400003 14345974
-0.097215243 0.068453342 0.60400003 14345974
-0.096064761 0.068453342 0.60400003 14345974
-0.094914287 0.068453342 0.60400003 14411767
-0.093763813 0.068453342 0.60400003 14149622
-0.092919998 0.068679996 0.60600001 14347001
-0.091765717 0.068679996 0.60600001 14281206
-0.090760961 0.068793342 0.60700005 14215413
-0.089604765 0.068793342 0.60700005 14477558
-0.088594295 0.068906672 0.60800004 14674937
-0.087436199 0.068906672 0.60800004 14477558
-0.086278096 0.068906672 0.60800004 14872316
-0.085120007 0.068906672 0.60800004 15069688
-0.083961904 0.068906672 0.60800004 15859199
-0.082803816 0.068906672 0.60800004 15989757
-0.08164572 0.068906672 0.60800004 14476518
-0.082076192 0.070266664 0.62 14803702
-0.080895238 0.070266664 0.62 9803434
-0.079714283 0.070266664 0.62 9861273
-0.078533329 0.070266664 0.62 9729687
-0.077352382 0.070266664 0.62 10320174
-0.076171428 0.070266664 0.62 10714932
-0.074990474 0.070266664 0.62 10649146
-0.073809519 0.070266664 0.62 10385974
-0.072628573 0.070266664 0.62 10450743
-0.071447626 0.070266664 0.62 10450743
-0.070266664 0.070266664 0.62 10451249
-0.068974286 0.070153333 0.61900002 10319663
-0.067795239 0.070153333 0.61900002 10187823
-0.066616185 0.070153333 0.61900002 10122030
-0.065437146 0.070153333 0.61900002 10187823
-0.064258099 0.070153333 0.61900002 10187823
-0.063079052 0.070153333 0.61900002 10253616
-0.061799999 0.07004001 0.61800003 10319409
-0.06062286 0.07004001 0.61800003 10254129
-0.059541903 0.070153333 0.61900002 10122543
-0.05836286 0.070153333 0.61900002 10253377
-0.057183813 0.070153333 0.61900002 10319170
-0.056004763 0.070153333 0.61900002 10449982
-0.054737143 0.07004001 0.61800003 10515775
-0.053560004 0.07004001 0.61800003 10384189
-0.05238286 0.07004001 0.61800003 10318396
-0.051040005 0.069813341 0.61600006 10516529
-0.049866669 0.069813341 0.61600006 10713908
-0.04869334 0.069813341 0.61600006 9664547
-0.047520004 0.069813341 0.61600006 10585649
-0.046346672 0.069813341 0.61600006 10195355
-0.045173336 0.069813341 0.61600006 10853285
-0.14655429 0.071217142 0.61800003 8943753
-0.14537716 0.071217142 0.61800003 9337475
-0.14443333 0.07133238 0.61900002 7824236
-0.14325429 0.07133238 0.61900002 8872494
-0.14230476 0.071447626 0.62 9464631
-0.1408962 0.07133238 0.61900002 9528882
-0.13971715 0.07133238 0.61900002 9792054
-0.13853811 0.07133238 0.61900002 9465149
-0.13735905 0.07133238 0.61900002 9333563
-0.13618 0.07133238 0.61900002 9333554
-0.13500096 0.07133238 0.61900002 9399347
-0.13403811 0.071447626 0.62 9530161
-0.13285714 0.071447626 0.62 9464368
-0.13167618 0.071447626 0.62 9464109
-0.13049524 0.071447626 0.62 9200937
-0.12910572 0.07133238 0.61900002 9332992
-0.12792666 0.07133238 0.61900002 9267200
-0.12695238 0.071447626 0.62 9070336
-0.12577142 0.071447626 0.62 9201920
-0.12459048 0.071447626 0.62 8938240
-0.12321047 0.07133238 0.61900002 8806656
-0.12203144 0.07133238 0.61900002 8806656
-0.12085238 0.07133238 0.61900002 9727744
-0.11967333 0.07133238 0.61900002 10126080
-0.11849429 0.07133238 0.61900002 10981376
-0.11731524 0.07133238 0.61900002 11642112
-0.11594857 0.071217142 0.61800003 12102656
-0.11477143 0.071217142 0.61800003 12104704
-0.11359429 0.071217142 0.61800003 12894208
-0.11114381 0.070410475 0.611 11712059
-0.10962 0.070179999 0.60900003 12567368
-0.10828191 0.070064768 0.60800004 12898559
-0.10694763 0.06994953 0.60700005 14609151
-0.10579143 0.06994953 0.60700005 14807036
-0.10463525 0.06994953 0.60700005 14149106
-0.10330857 0.069834292 0.60600001 14148854
-0.10181715 0.069603816 0.60400003 14214647
-0.10050001 0.069488578 0.60300004 14083061
-0.099351436 0.069488578 0.60300004 14214647
-0.098202862 0.069488578 0.60300004 14345974
-0.097054288 0.069488578 0.60300004 14345974
-0.095905714 0.069488578 0.60300004 14345974
-0.094757155 0.069488578 0.60300004 14411767
-0.093608581 0.069488578 0.60300004 14149622
-0.092460006 0.069488578 0.60300004 14412794
-0.091462858 0.069603816 0.60400003 14346999
-0.090611428 0.069834292 0.60600001 14346999
-0.089457139 0.069834292 0.60600001 14609142
-0.088448577 0.06994953 0.60700005 14609142
-0.087292388 0.06994953 0.60700005 14411765
-0.0861362 0.06994953 0.60700005 14938109
-0.084980011 0.06994953 0.60700005 15266552
-0.083823815 0.06994953 0.60700005 15924479
-0.082667626 0.06994953 0.60700005 16318463
-0.08151143 0.06994953 0.60700005 13423571
-0.082076192 0.071447626 0.62 12959993
-0.080895238 0.071447626 0.62 9801929
-0.079585716 0.07133238 0.61900002 10256026
-0.078406669 0.07133238 0.61900002 9598096
-0.077227622 0.07133238 0.61900002 10187816
-0.076048575 0.07133238 0.61900002 10911539
-0.074869521 0.07133238 0.61900002 10714698
-0.073690474 0.07133238 0.61900002 10319940
-0.072511427 0.07133238 0.61900002 10516013
-0.07133238 0.07133238 0.61900002 10647599
-0.070153333 0.07133238 0.61900002 10384691
-0.068862855 0.071217142 0.61800003 10384691
-0.067685723 0.071217142 0.61800003 10121255
-0.066508569 0.071217142 0.61800003 10318634
-0.065331437 0.071217142 0.61800003 10187566
-0.064154282 0.071217142 0.61800003 10187566
-0.062773332 0.070986666 0.61600006 10122023
-0.061600007 0.070986666 0.61600006 10253609
-0.060426671 0.070986666 0.61600006 10187823
-0.059253339 0.070986666 0.61600006 10187823
-0.058080003 0.070986666 0.61600006 10187575
-0.056906674 0.070986666 0.61600006 10187575
-0.055733338 0.070986666 0.61600006 10253114
-0.054560006 0.070986666 0.61600006 10187321
-0.053560004 0.071217142 0.61800003 10319152
-0.052213337 0.070986666 0.61600006 10253359
-0.051040005 0.070986666 0.61600006 10383671
-0.049866669 0.070986666 0.61600006 10515257
-0.04869334 0.070986666 0.61600006 9203994
-0.047442857 0.070871428 0.61500001 9927717
-0.046271428 0.070871428 0.61500001 10129053
-0.045173336 0.070986666 0.61600006 11181741
-0.14655429 0.072394289 0.61800003 8878725
-0.14537716 0.072394289 0.61800003 9205630
-0.1442 0.072394289 0.61800003 7363426
-0.14302287 0.072394289 0.61800003 8542782
-0.14207524 0.072511427 0.61900002 9200712
-0.14066859 0.072394289 0.61800003 9331253
-0.13949142 0.072394289 0.61800003 9397046
-0.13831429 0.072394289 0.61800003 9069619
-0.13713714 0.072394289 0.61800003 8872240
-0.13596001 0.072394289 0.61800003 8741151
-0.13478287 0.072394289 0.61800003 8675358
-0.13360572 0.072394289 0.61800003 8477716
-0.13242857 0.072394289 0.61800003 8082958
-0.13125144 0.072394289 0.61800003 8280080
-0.13007429 0.072394289 0.61800003 8477459
-0.12889715 0.072394289 0.61800003 8741408
-0.12772 0.072394289 0.61800003 10649405
-0.12654287 0.072394289 0.61800003 10851090
-0.12556857 0.072511427 0.61900002 11640606
-0.12418858 0.072394289 0.61800003 13091328
-0.12301143 0.072394289 0.61800003 13288704
-0.12183429 0.072394289 0.61800003 14077986
-0.12065715 0.072394289 0.61800003 14867502
-0.11948001 0.072394289 0.61800003 14869266
-0.11830286 0.072394289 0.61800003 15198231
-0.11712572 0.072394289 0.61800003 15199005
-0.11557335 0.072160006 0.61600006 15659556
-0.11421429 0.07204286 0.61500001 15001677
-0.11285906 0.071925715 0.61400002 14935884
-0.11114381 0.071574286 0.611 11780962
-0.10962 0.071340002 0.60900003 9807172
-0.10828191 0.071222864 0.60800004 10794225
-0.10694763 0.071105719 0.60700005 14478591
-0.10561714 0.070988573 0.60600001 15529727
-0.10446286 0.070988573 0.60600001 15069177
-0.10279715 0.070637152 0.60300004 14609142
-0.10164858 0.070637152 0.60300004 14477556
-0.10050001 0.070637152 0.60300004 14411765
-0.099186674 0.070520006 0.60200006 14477558
-0.098040007 0.070520006 0.60200006 14346231
-0.09689334 0.070520006 0.60200006 14280438
-0.095746674 0.070520006 0.60200006 14215415
-0.094600007 0.070520006 0.60200006 14412794
-0.09345334 0.070520006 0.60200006 14412278
-0.092306681 0.070520006 0.60200006 14609657
-0.091311432 0.070637152 0.60300004 14281206
-0.090312384 0.07075429 0.60400003 14610171
-0.08916191 0.07075429 0.60400003 14938359
-0.088302858 0.070988573 0.60600001 15004152
-0.087148577 0.070988573 0.60600001 15398392
-0.0861362 0.071105719 0.60700005 15924735
-0.084980011 0.071105719 0.60700005 15990268
-0.083685718 0.070988573 0.60600001 15792889
-0.082531422 0.070988573 0.60600001 16055293
-0.08151143 0.071105719 0.60700005 12436678
-0.082076192 0.072628573 0.62 12236270
-0.080764763 0.072511427 0.61900002 9933515
-0.079585716 0.072511427 0.61900002 10453403
-0.078280002 0.072394289 0.61800003 9400715
-0.077102862 0.072394289 0.61800003 10055462
-0.075925715 0.072394289 0.61800003 10647599
-0.074748576 0.072394289 0.61800003 10384711
-0.073571429 0.072394289 0.61800003 10055746
-0.072394289 0.072394289 0.61800003 10055964
-0.071217142 0.072394289 0.61800003 10187550
-0.07004001 0.072394289 0.61800003 9989944
-0.068862855 0.072394289 0.61800003 9858358
-0.067685723 0.072394289 0.61800003 9792554
-0.066293344 0.072160006 0.61600006 9792554
-0.065120004 0.072160006 0.61600006 9858851
-0.063946672 0.072160006 0.61600006 9858851
-0.062773332 0.072160006 0.61600006 9923874
-0.061500005 0.07204286 0.61500001 9923874
-0.060328573 0.07204286 0.61500001 9792554
-0.059157144 0.07204286 0.61500001 9924140
-0.057985716 0.07204286 0.61500001 9923626
-0.056814287 0.07204286 0.61500001 9857833
-0.055642854 0.07204286 0.61500001 9858349
-0.054560006 0.072160006 0.61600006 9792556
-0.053300001 0.07204286 0.61500001 9989660
-0.052128572 0.07204286 0.61500001 10055453
-0.050874289 0.071925715 0.61400002 10054972
-0.049704764 0.071925715 0.61400002 10449730
-0.048614286 0.07204286 0.61500001 9072692
-0.047365714 0.071925715 0.61400002 9664829
-0.046196189 0.071925715 0.61400002 9931933
-0.045026667 0.071925715 0.61400002 11445172
-0.043857146 0.071925715 0.61400002 11314361
-0.14584287 0.073214285 0.61500001 8812680
-0.14467143 0.073214285 0.61500001 9401467
-0.14373334 0.073333338 0.61600006 7756642
-0.14256002 0.073333338 0.61600006 8411671
-0.14138667 0.073333338 0.61600006 9135394
-0.14021334 0.073333338 0.61600006 9135137
-0.13904002 0.073333338 0.61600006 8608793
-0.13786668 0.073333338 0.61600006 8609024
-0.13669334 0.073333338 0.61600006 8674816
-0.13552001 0.073333338 0.61600006 8543232
-0.13434668 0.073333338 0.61600006 8543232
-0.13295713 0.073214285 0.61500001 8215296
-0.13178571 0.073214285 0.61500001 8412672
-0.13082668 0.073333338 0.61600006 8676608
-0.12965335 0.073333338 0.61600006 10189830
-0.12848 0.073333338 0.61600006 10983680
-0.12730667 0.073333338 0.61600006 11641600
-0.12654287 0.073571429 0.61800003 11973376
-0.12536572 0.073571429 0.61800003 12631296
-0.12418858 0.073571429 0.61800003 14078515
-0.12261335 0.073333338 0.61600006 15262789
-0.12144001 0.073333338 0.61600006 14542662
-0.12026668 0.073333338 0.61600006 15003213
-0.11909334 0.073333338 0.61600006 15002963
-0.11792001 0.073333338 0.61600006 15002963
-0.11674668 0.073333338 0.61600006 15069260
-0.11557335 0.073333338 0.61600006 15135053
-0.11421429 0.073214285 0.61500001 15004014
-0.11285906 0.07309524 0.61400002 14346084
-0.11132572 0.072857149 0.61200005 11388030
-0.10944001 0.07238096 0.60800004 8953689
-0.10810382 0.072261915 0.60700005 10004911
-0.10677142 0.072142854 0.60600001 14281456
-0.10526858 0.071904771 0.60400003 15529727
-0.10394572 0.071785718 0.60300004 15069177
-0.10262667 0.071666673 0.60200006 14806521
-0.10148001 0.071666673 0.60200006 14609142
-0.10033335 0.071666673 0.60200006 14411765
-0.099021904 0.07154762 0.60100001 14411765
-0.097877145 0.07154762 0.60100001 14149622
-0.096732378 0.07154762 0.60100001 14083829
-0.095587619 0.07154762 0.60100001 14149622
-0.094442859 0.07154762 0.60100001 14281208
-0.0932981 0.07154762 0.60100001 14215413
-0.092306681 0.071666673 0.60200006 14215413
-0.091311432 0.071785718 0.60300004 14149620
-0.090162858 0.071785718 0.60300004 14610171
-0.089014292 0.071785718 0.60300004 14938359
-0.088011429 0.071904771 0.60400003 15267324
-0.086860955 0.071904771 0.60400003 15529978
-0.085994281 0.072142854 0.60600001 15924735
-0.08484 0.072142854 0.60600001 16252670
-0.083685718 0.072142854 0.60600001 15397361
-0.082531422 0.072142854 0.60600001 13623035
-0.081377141 0.072142854 0.60600001 11583452
-0.081149533 0.072976194 0.61300004 12170225
-0.079981908 0.072976194 0.61300004 9801677
-0.079071432 0.073214285 0.61500001 10388105
-0.078026675 0.073333338 0.61600006 9335417
-0.076853342 0.073333338 0.61600006 10120742
-0.075680003 0.073333338 0.61600006 10581293
-0.074506678 0.073333338 0.61600006 10318405
-0.073333338 0.073333338 0.61600006 10055233
-0.072160006 0.073333338 0.61600006 9989910
-0.070986666 0.073333338 0.61600006 10055703
-0.069813341 0.073333338 0.61600006 9859103
-0.068640009 0.073333338 0.61600006 9859103
-0.067357138 0.073214285 0.61500001 9727274
-0.066185713 0.073214285 0.61500001 9793067
-0.065014288 0.073214285 0.61500001 9858365
-0.063842863 0.073214285 0.61500001 9726779
-0.06267143 0.073214285 0.61500001 9726520
-0.0614 0.07309524 0.61400002 9660727
-0.060230475 0.07309524 0.61400002 9593896
-0.059060954 0.07309524 0.61400002 9922861
-0.057891432 0.07309524 0.61400002 9463337
-0.056721907 0.07309524 0.61400002 9923888
-0.055642854 0.073214285 0.61500001 9924412
-0.054471429 0.073214285 0.61500001 9727033
-0.053213332 0.07309524 0.61400002 9858335
-0.052043814 0.07309524 0.61400002 10187300
-0.050874289 0.07309524 0.61400002 10120783
-0.049704764 0.07309524 0.61400002 9989197
-0.048535239 0.07309524 0.61400002 8876298
-0.047288574 0.072976194 0.61300004 9600021
-0.046120953 0.072976194 0.61300004 9538463
-0.044953335 0.072976194 0.61300004 11446460
-0.043857146 0.07309524 0.61400002 11709641
-0.14560571 0.074264765 0.61400002 8615301
-0.1444362 0.074264765 0.61400002 8678764
-0.1435 0.074385718 0.61500001 6902353
-0.14232858 0.074385718 0.61500001 7556864
-0.14115714 0.074385718 0.61500001 8083201
-0.13998571 0.074385718 0.61500001 8082188
-0.13881429 0.074385718 0.61500001 8279567
-0.13764286 0.074385718 0.61500001 8808704
-0.13647142 0.074385718 0.61500001 10716687
-0.1353 0.074385718 0.61500001 11839488
-0.13391048 0.074264765 0.61400002 12234240
-0.13274096 0.074264765 0.61400002 13684736
-0.13157144 0.074264765 0.61400002 13882112
-0.13040191 0.074264765 0.61400002 14277131
-0.12923238 0.074264765 0.61400002 15132440
-0.12806286 0.074264765 0.61400002 15001407
-0.12710001 0.074385718 0.61500001 14935614
-0.12592858 0.074385718 0.61500001 14805029
-0.12496001 0.074506678 0.61600006 14870822
-0.12378668 0.074506678 0.61600006 14936384
-0.12261335 0.074506678 0.61600006 14936384
-0.12124286 0.074385718 0.61500001 14740258
-0.12007143 0.074385718 0.61500001 15398188
-0.1189 0.074385718 0.61500001 14674527
-0.11772858 0.074385718 0.61500001 14279769
-0.11655714 0.074385718 0.61500001 13952291
-0.11538571 0.074385718 0.61500001 13689119
-0.11421429 0.074385718 0.61500001 13819720
-0.11285906 0.074264765 0.61400002 14280271
-0.11168952 0.074264765 0.61400002 11913093
-0.10944001 0.073539048 0.60800004 8689236
-0.10756953 0.073055245 0.60400003 8164797
-0.10641905 0.073055245 0.60400003 11454447
-0.10509429 0.072934292 0.60300004 14542583
-0.10377335 0.07281334 0.60200006 15200511
-0.10245619 0.072692387 0.60100001 15332349
-0.10131142 0.072692387 0.60100001 15529727
-0.10016667 0.072692387 0.60100001 15135481
-0.098857142 0.072571434 0.60000002 14872309
-0.09771429 0.072571434 0.60000002 14807032
-0.096571431 0.072571434 0.60000002 14741239
-0.095428571 0.072571434 0.60000002 14610423
-0.094285719 0.072571434 0.60000002 14610423
-0.0932981 0.072692387 0.60100001 14938359
-0.092153333 0.072692387 0.60100001 15069945
-0.091160007 0.07281334 0.60200006 15464183
-0.09001334 0.07281334 0.60200006 15924734
-0.088866673 0.07281334 0.60200006 16187390
-0.087865725 0.072934292 0.60300004 16252927
-0.086860955 0.073055245 0.60400003 16056061
-0.085710481 0.073055245 0.60400003 15069166
-0.084559999 0.073055245 0.60400003 14215165
-0.083409525 0.073055245 0.60400003 12438754
-0.082259052 0.073055245 0.60400003 11779837
-0.081377141 0.073297143 0.60600001 10924528
-0.08075238 0.073780954 0.61000001 12103923
-0.079851434 0.074022859 0.61200005 9801168
-0.07881429 0.074143812 0.61300004 9991537
-0.077773333 0.074264765 0.61400002 9465193
-0.076603815 0.074264765 0.61400002 10054708
-0.075434282 0.074264765 0.61400002 10449466
-0.074264765 0.074264765 0.61400002 10056777
-0.073214285 0.074385718 0.61500001 9859398
-0.071925715 0.074264765 0.61400002 10056507
-0.070756197 0.074264765 0.61400002 10451265
-0.069586664 0.074264765 0.61400002 10583335
-0.068417147 0.074264765 0.61400002 10978093
-0.067247622 0.074264765 0.61400002 10780241
-0.066078097 0.074264765 0.61400002 10977620
-0.064802863 0.074143812 0.61300004 10649197
-0.063635238 0.074143812 0.61300004 10451818
-0.06246762 0.074143812 0.61300004 10452072
-0.061300006 0.074143812 0.61300004 10386279
-0.060132384 0.074143812 0.61300004 10978651
-0.058964763 0.074143812 0.61300004 11373409
-0.057797145 0.074143812 0.61300004 11307887
-0.056629524 0.074143812 0.61300004 11439473
-0.055552382 0.074264765 0.61400002 11440505
-0.054382857 0.074264765 0.61400002 11440505
-0.05312667 0.074143812 0.61300004 11637356
-0.051959049 0.074143812 0.61300004 12032114
-0.050791427 0.074143812 0.61300004 11834987
-0.049623813 0.074143812 0.61300004 9663818
-0.048456192 0.074143812 0.61300004 8415782
-0.047288574 0.074143812 0.61300004 9665849
-0.046120953 0.074143812 0.61300004 9866413
-0.044953335 0.074143812 0.61300004 11840203
-0.043857146 0.074264765 0.61400002 11840441
-0.1460581 0.075065717 0.611 8945036
-0.14489429 0.075065717 0.611 8089727
-0.14420097 0.07531143 0.61300004 8021329
-0.14326668 0.075434282 0.61400002 6902848
-0.14209715 0.075434282 0.61400002 7360512
-0.14092761 0.075434282 0.61400002 7886848
-0.1397581 0.075434282 0.61400002 8150784
-0.13858858 0.075434282 0.61400002 9861387
-0.13741906 0.075434282 0.61400002 10917376
-0.13624953 0.075434282 0.61400002 11048960
-0.13507999 0.075434282 0.61400002 12497664
-0.1336924 0.07531143 0.61300004 14142465
-0.13252476 0.07531143 0.61300004 14080564
-0.13135715 0.07531143 0.61300004 15067459
-0.13018952 0.07531143 0.61300004 14478154
-0.12902191 0.07531143 0.61300004 14543947
-0.12785429 0.07531143 0.61300004 14478152
-0.12668668 0.07531143 0.61300004 14543945
-0.12572382 0.075434282 0.61400002 14543697
-0.12475713 0.075557142 0.61500001 14609490
-0.12358572 0.075557142 0.61500001 14937469
-0.12241429 0.075557142 0.61500001 14805883
-0.12104572 0.075434282 0.61400002 14542707
-0.11987619 0.075434282 0.61400002 14805879
-0.11870667 0.075434282 0.61400002 14608301
-0.11753714 0.075434282 0.61400002 13950371
-0.11636762 0.075434282 0.61400002 11849814
-0.1151981 0.075434282 0.61400002 11652435
-0.11384286 0.07531143 0.61300004 13556557
-0.11230762 0.075065717 0.611 14346073
-0.1105981 0.074697152 0.60800004 12175484
-0.10926001 0.074574292 0.60700005 9280592
-0.10756953 0.074205711 0.60400003 8952232
-0.10641905 0.074205711 0.60400003 11452366
-0.10509429 0.074082859 0.60300004 12109806
-0.10377335 0.073960006 0.60200006 13820415
-0.10245619 0.073837139 0.60100001 15200509
-0.10114286 0.073714286 0.60000002 15595263
-0.10000001 0.073714286 0.60000002 15333117
-0.098857142 0.073714286 0.60000002 15135738
-0.09771429 0.073714286 0.60000002 15070972
-0.096571431 0.073714286 0.60000002 14939386
-0.095428571 0.073714286 0.60000002 14874106
-0.094285719 0.073714286 0.60000002 15071485
-0.09314286 0.073714286 0.60000002 15464955
-0.092000008 0.073714286 0.60000002 15662334
-0.091008566 0.073837139 0.60100001 15989757
-0.089863814 0.073837139 0.60100001 16252927
-0.088719048 0.073837139 0.60100001 16449533
-0.087865725 0.074082859 0.60300004 16383740
-0.086717151 0.074082859 0.60300004 16252670
-0.085710481 0.074205711 0.60400003 14805224
-0.084559999 0.074205711 0.60400003 13490939
-0.083409525 0.074205711 0.60400003 11911907
-0.082259052 0.074205711 0.60400003 11777788
-0.081377141 0.074451432 0.60600001 10988272
-0.08075238 0.074942857 0.61000001 11971556
-0.079851434 0.075188577 0.61200005 8747699
-0.07881429 0.07531143 0.61300004 10317128
-0.077646673 0.07531143 0.61300004 10119749
-0.076603815 0.075434282 0.61400002 9792029
-0.075434282 0.075434282 0.61400002 11765819
-0.074264765 0.075434282 0.61400002 10979976
-0.07309524 0.075434282 0.61400002 10716804
-0.071925715 0.075434282 0.61400002 10781553
-0.070756197 0.075434282 0.61400002 10715760
-0.069586664 0.075434282 0.61400002 11108704
-0.068305716 0.07531143 0.61300004 11371876
-0.067138098 0.07531143 0.61300004 11042935
-0.06597048 0.07531143 0.61300004 11569279
-0.064802863 0.07531143 0.61300004 11375985
-0.063635238 0.07531143 0.61300004 11244399
-0.06246762 0.07531143 0.61300004 10915175
-0.061300006 0.07531143 0.61300004 11046761
-0.060034286 0.075188577 0.61200005 11307892
-0.058868576 0.075188577 0.61200005 11373685
-0.057702862 0.075188577 0.61200005 11769980
-0.056537148 0.075188577 0.61200005 11835773
-0.05537143 0.075188577 0.61200005 12034202
-0.054294288 0.07531143 0.61300004 11771030
-0.053040005 0.075188577 0.61200005 11967861
-0.051874291 0.075188577 0.61200005 12757377
-0.050708573 0.075188577 0.61200005 12560026
-0.049542859 0.075188577 0.61200005 9533548
-0.048377149 0.075188577 0.61200005 8154112
-0.047288574 0.07531143 0.61300004 9930510
-0.046120953 0.07531143 0.61300004 10459054
-0.044953335 0.07531143 0.61300004 11774914
-0.1460581 0.07622952 0.611 8747657
-0.14489429 0.07622952 0.611 7892348
-0.14396574 0.076354288 0.61200005 9405511
-0.14303334 0.076479048 0.61300004 10063441
-0.14186573 0.076479048 0.61300004 12763648
-0.14069809 0.076479048 0.61300004 13092608
-0.13953048 0.076479048 0.61300004 14013240
-0.13836285 0.076479048 0.61300004 14934342
-0.13719524 0.076479048 0.61300004 14409788
-0.13602763 0.076479048 0.61300004 14015030
-0.13486001 0.076479048 0.61300004 14014532
-0.1336924 0.076479048 0.61300004 14738255
-0.13230859 0.076354288 0.61200005 14738746
-0.13114287 0.076354288 0.61200005 14738746
-0.12997715 0.076354288 0.61200005 14280253
-0.12881143 0.076354288 0.61200005 14148667
-0.12764573 0.076354288 0.61200005 14346298
-0.12648001 0.076354288 0.61200005 14741056
-0.12551905 0.076479048 0.61300004 13690160
-0.12455428 0.076603815 0.61400002 12176921
-0.12338476 0.076603815 0.61400002 13097072
-0.12221524 0.076603815 0.61400002 13491830
-0.12104572 0.076603815 0.61400002 10465411
-0.11968096 0.076479048 0.61300004 9215344
-0.11832 0.076354288 0.61200005 10203030
-0.11715429 0.076354288 0.61200005 9545100
-0.1161781 0.076479048 0.61300004 9019248
-0.11482286 0.076354288 0.61200005 10137729
-0.11365715 0.076354288 0.61200005 13493058
-0.11212381 0.076104768 0.61000001 14874711
-0.1105981 0.07585524 0.60800004 12768620
-0.10926001 0.07573048 0.60700005 9215798
-0.10756953 0.075356193 0.60400003 8690628
-0.10641905 0.075356193 0.60400003 9809109
-0.10509429 0.075231433 0.60300004 10859727
-0.10377335 0.075106673 0.60200006 11649243
-0.10245619 0.074981906 0.60100001 13160954
-0.10114286 0.074857146 0.60000002 14213631
-0.10000001 0.074857146 0.60000002 15463422
-0.098857142 0.074857146 0.60000002 15595007
-0.09771429 0.074857146 0.60000002 15661823
-0.096571431 0.074857146 0.60000002 15727615
-0.095428571 0.074857146 0.60000002 15531007
-0.094285719 0.074857146 0.60000002 15794175
-0.09314286 0.074857146 0.60000002 16187390
-0.092000008 0.074857146 0.60000002 16187390
-0.090857141 0.074857146 0.60000002 15924734
-0.089863814 0.074981906 0.60100001 15595769
-0.088719048 0.074981906 0.60100001 14149883
-0.087865725 0.075231433 0.60300004 13426160
-0.086717151 0.075231433 0.60300004 13163007
-0.085568577 0.075231433 0.60300004 12373491
-0.084559999 0.075356193 0.60400003 12043519
-0.083409525 0.075356193 0.60400003 11582969
-0.082259052 0.075356193 0.60400003 12238573
-0.081377141 0.075605713 0.60600001 11185885
-0.080884762 0.07622952 0.611 12102330
-0.079851434 0.076354288 0.61200005 8746887
-0.07881429 0.076479048 0.61300004 9727274
-0.077646673 0.076479048 0.61300004 9529895
-0.076479048 0.076479048 0.61300004 9463589
-0.07531143 0.076479048 0.61300004 11832137
-0.074143812 0.076479048 0.61300004 12164500
-0.072976194 0.076479048 0.61300004 12164500
-0.071808569 0.076479048 0.61300004 12031892
-0.070640959 0.076479048 0.61300004 11900306
-0.069473341 0.076479048 0.61300004 12031370
-0.068194285 0.076354288 0.61200005 12886679
-0.067028575 0.076354288 0.61200005 12031118
-0.065862864 0.076354288 0.61200005 11702153
-0.064697146 0.076354288 0.61200005 11441242
-0.063531436 0.076354288 0.61200005 11572828
-0.062365722 0.076354288 0.61200005 11375177
-0.0612 0.076354288 0.61200005 11835728
-0.059936188 0.07622952 0.611 11109997
-0.058772378 0.07622952 0.611 10912618
-0.057608571 0.07622952 0.611 11045987
-0.05644476 0.07622952 0.611 11309159
-0.055280954 0.07622952 0.611 11901844
-0.054117143 0.07622952 0.611 11638672
-0.052953333 0.07622952 0.611 11573346
-0.051789526 0.07622952 0.611 12297069
-0.050625715 0.07622952 0.611 12165467
-0.049461905 0.07622952 0.611 9138989
-0.048298094 0.07622952 0.611 8284693
-0.047211431 0.076354288 0.61200005 10784827
-0.046120953 0.076479048 0.61300004 11050673
-0.14581905 0.077266671 0.61000001 9011081
-0.14465714 0.077266671 0.61000001 8945288
-0.14373048 0.077393331 0.611 9604646
-0.14280002 0.077520005 0.61200005 12828503
-0.1416343 0.077520005 0.61200005 13619531
-0.14046857 0.077520005 0.61200005 14935391
-0.13930286 0.077520005 0.61200005 14477175
-0.13813715 0.077520005 0.61200005 14477175
-0.13697143 0.077520005 0.61200005 13689979
-0.13580573 0.077520005 0.61200005 12242533
-0.13464001 0.077520005 0.61200005 12243312
-0.13347429 0.077520005 0.61200005 14217102
-0.13209239 0.077393331 0.611 14806385
-0.13092858 0.077393331 0.611 14674799
-0.12976477 0.077393331 0.611 14411669
-0.12860096 0.077393331 0.611 14148497
-0.12743714 0.077393331 0.611 14739346
-0.12627333 0.077393331 0.611 15199897
-0.12510952 0.077393331 0.611 12310145
-0.12414857 0.077520005 0.61200005 10796906
-0.12298286 0.077520005 0.61200005 11781782
-0.12201619 0.077646673 0.61300004 11979161
-0.12065144 0.077520005 0.61200005 8233314
-0.11948572 0.077520005 0.61200005 7838556
-0.11832 0.077520005 0.61200005 9678001
-0.11715429 0.077520005 0.61200005 5533042
-0.11598858 0.077520005 0.61200005 5594683
-0.11463524 0.077393331 0.611 13424050
-0.11328572 0.077266671 0.61000001 13495643
-0.11194 0.077140003 0.60900003 14153573
-0.1104162 0.076886676 0.60700005 12375405
-0.10926001 0.076886676 0.60700005 9085755
-0.10792571 0.076760001 0.60600001 8754633
-0.10641905 0.076506667 0.60400003 9478356
-0.10509429 0.076380007 0.60300004 10201548
-0.10377335 0.07625334 0.60200006 11320029
-0.10245619 0.076126665 0.60100001 11714028
-0.10114286 0.076000005 0.60000002 12700923
-0.10000001 0.076000005 0.60000002 13687291
-0.098857142 0.076000005 0.60000002 14542591
-0.09771429 0.076000005 0.60000002 14413051
-0.096571431 0.076000005 0.60000002 14939391
-0.095428571 0.076000005 0.60000002 15005694
-0.094285719 0.076000005 0.60000002 15400447
-0.09314286 0.076000005 0.60000002 15924734
-0.092000008 0.076000005 0.60000002 15727355
-0.090857141 0.076000005 0.60000002 14480379
-0.089863814 0.076126665 0.60100001 14217207
-0.088719048 0.076126665 0.60100001 12901882
-0.087865725 0.076380007 0.60300004 12375538
-0.086717151 0.076380007 0.60300004 12635898
-0.085568577 0.076380007 0.60300004 11977968
-0.084559999 0.076506667 0.60400003 11714303
-0.083409525 0.076506667 0.60400003 11451133
-0.082259052 0.076506667 0.60400003 12040438
-0.081377141 0.076760001 0.60600001 10264027
-0.080619998 0.077140003 0.60900003 10718351
-0.079720952 0.077393331 0.611 9468284
-0.078685716 0.077520005 0.61200005 10121798
-0.077520005 0.077520005 0.61200005 9661247
-0.076354288 0.077520005 0.61200005 9462585
-0.075188577 0.077520005 0.61200005 11370582
-0.074022859 0.077520005 0.61200005 12031883
-0.072857149 0.077520005 0.61200005 11900297
-0.071691439 0.077520005 0.61200005 10782064
-0.070525721 0.077520005 0.61200005 10979443
-0.069246665 0.077393331 0.611 11241093
-0.068082854 0.077393331 0.611 11109507
-0.066919044 0.077393331 0.611 10582920
-0.065755233 0.077393331 0.611 10385541
-0.06459143 0.077393331 0.611 10648679
-0.063323803 0.077266671 0.61000001 10319714
-0.062161908 0.077266671 0.61000001 9595655
-0.061000001 0.077266671 0.61000001 10319378
-0.059838098 0.077266671 0.61000001 10186328
-0.058676191 0.077266671 0.61000001 10317914
-0.057514288 0.077266671 0.61000001 10121809
-0.056352381 0.077266671 0.61000001 10648153
-0.055190478 0.077266671 0.61000001 10517381
-0.054028571 0.077266671 0.61000001 10188416
-0.052866668 0.077266671 0.61000001 9992520
-0.051704761 0.077266671 0.61000001 10979415
-0.050542857 0.077266671 0.61000001 10453101
-0.049380954 0.077266671 0.61000001 8676690
-0.048219047 0.077266671 0.61000001 8087552
-0.047211431 0.077520005 0.61200005 11442979
-0.14581905 0.078428566 0.61000001 9403784
-0.14465714 0.078428566 0.61000001 11969711
-0.14373048 0.078557141 0.611 13553176
-0.14256667 0.078557141 0.611 15329587
-0.14140286 0.078557141 0.611 14541115
-0.14023906 0.078557141 0.611 14606908
-0.13907525 0.078557141 0.611 14082633
-0.13791144 0.078557141 0.611 12372015
-0.13674763 0.078557141 0.611 8361362
-0.13558382 0.078557141 0.611 6519158
-0.13442001 0.078557141 0.611 10528393
-0.1332562 0.078557141 0.611 14739145
-0.13187619 0.078428566 0.61000001 14345285
-0.13071428 0.078428566 0.61000001 12503081
-0.12955238 0.078428566 0.61000001 8162989
-0.12860096 0.078557141 0.611 6978715
-0.12722857 0.078428566 0.61000001 9145506
-0.12606667 0.078428566 0.61000001 12961500
-0.12490477 0.078428566 0.61000001 11519295
-0.12394572 0.078557141 0.611 4347904
-0.12278191 0.078557141 0.611 8231584
-0.12181716 0.078685716 0.61200005 9810616
-0.12045428 0.078557141 0.611 8032152
-0.11929047 0.078557141 0.611 7045257
-0.11812666 0.078557141 0.611 6656430
-0.11696285 0.078557141 0.611 3169401
-0.11579905 0.078557141 0.611 6521008
-0.11444762 0.078428566 0.61000001 13429247
-0.1131 0.078299999 0.60900003 15005527
-0.11194 0.078299999 0.60900003 14939734
-0.1104162 0.078042865 0.60700005 13100110
-0.10926001 0.078042865 0.60700005 10928941
-0.10792571 0.077914283 0.60600001 8954610
-0.10677142 0.077914283 0.60600001 8494059
-0.10526858 0.077657141 0.60400003 9544917
-0.10377335 0.077400006 0.60200006 10531812
-0.10245619 0.077271432 0.60100001 10596063
-0.10114286 0.077142857 0.60000002 10859235
-0.10000001 0.077142857 0.60000002 10924799
-0.098857142 0.077142857 0.60000002 11714303
-0.09771429 0.077142857 0.60000002 12044031
-0.096571431 0.077142857 0.60000002 12175615
-0.095428571 0.077142857 0.60000002 11979775
-0.094285719 0.077142857 0.60000002 12045567
-0.09314286 0.077142857 0.60000002 12046591
-0.092000008 0.077142857 0.60000002 11915007
-0.090857141 0.077142857 0.60000002 11914751
-0.089714289 0.077142857 0.60000002 11783167
-0.088719048 0.077271432 0.60100001 11716863
-0.087720007 0.077400006 0.60200006 11651071
-0.086717151 0.077528574 0.60300004 11912447
-0.085568577 0.077528574 0.60300004 11649279
-0.084559999 0.077657141 0.60400003 12174075
-0.083409525 0.077657141 0.60400003 11779317
-0.082259052 0.077657141 0.60400003 12368358
-0.08151143 0.078042865 0.60700005 8552364
-0.080619998 0.078299999 0.60900003 9140011
-0.079720952 0.078557141 0.611 10455871
-0.078557141 0.078557141 0.611 10847849
-0.077393331 0.078557141 0.611 10782056
-0.076354288 0.078685716 0.61200005 10123116
-0.075188577 0.078685716 0.61200005 9267807
-0.073901907 0.078557141 0.611 10319940
-0.072738096 0.078557141 0.611 10385733
-0.071574286 0.078557141 0.611 10058022
-0.070410475 0.078557141 0.611 11176503
-0.069246665 0.078557141 0.611 11044736
-0.068082854 0.078557141 0.611 10847357
-0.066919044 0.078557141 0.611 10650507
-0.065647617 0.078428566 0.61000001 10782093
-0.064485714 0.078428566 0.61000001 10651023
-0.063323803 0.078428566 0.61000001 9927300
-0.062161908 0.078428566 0.61000001 10188593
-0.061000001 0.078428566 0.61000001 10912316
-0.059739999 0.078299999 0.60900003 11505271
-0.058580004 0.078299999 0.60900003 11768443
-0.057420004 0.078299999 0.60900003 10979195
-0.056260001 0.078299999 0.60900003 10847609
-0.055190478 0.078428566 0.61000001 11110295
-0.054028571 0.078428566 0.61000001 11044502
-0.052780002 0.078299999 0.60900003 11177092
-0.051620003 0.078299999 0.60900003 12163987
-0.05046 0.078299999 0.60900003 11572604
-0.049380954 0.078428566 0.61000001 8546126
-0.048219047 0.078428566 0.61000001 7693569
-0.047057141 0.078428566 0.61000001 11772735
-0.14698096 0.079590477 0.61000001 8353151
-0.14581905 0.079590477 0.61000001 8617359
-0.14465714 0.079590477 0.61000001 12762318
-0.14349523 0.079590477 0.61000001 13423259
-0.14210001 0.079460002 0.60900003 12699536
-0.14094 0.079460002 0.60900003 12765767
-0.14000954 0.079590477 0.61000001 14607971
-0.13884762 0.079590477 0.61000001 13886883
-0.13768572 0.079590477 0.61000001 11189370
-0.13652381 0.079590477 0.61000001 7048509
-0.13558382 0.079720952 0.611 6587958
-0.13442001 0.079720952 0.611 10921328
-0.1330381 0.079590477 0.61000001 15000494
-0.13187619 0.079590477 0.61000001 13689179
-0.13071428 0.079590477 0.61000001 7767809
-0.12955238 0.079590477 0.61000001 6780268
-0.12839048 0.079590477 0.61000001 5069650
-0.12722857 0.079590477 0.61000001 3692032
-0.12586001 0.079460002 0.60900003 10731883
-0.12470001 0.079460002 0.60900003 10335384
-0.12354001 0.079460002 0.60900003 3953463
-0.12238 0.079460002 0.60900003 8557994
-0.12141905 0.079590477 0.61000001 8886959
-0.12025715 0.079590477 0.61000001 5009300
-0.11909524 0.079590477 0.61000001 5075093
-0.11793333 0.079590477 0.61000001 6852776
-0.11677143 0.079590477 0.61000001 4418435
-0.11560952 0.079590477 0.61000001 7574944
-0.11426 0.079460002 0.60900003 13759486
-0.1131 0.079460002 0.60900003 15005543
-0.1117562 0.079329528 0.60800004 14676578
-0.1104162 0.079199053 0.60700005 13364068
-0.10926001 0.079199053 0.60700005 11521864
-0.10792571 0.079068571 0.60600001 9744819
-0.10677142 0.079068571 0.60600001 8955303
-0.10526858 0.078807622 0.60400003 9281761
-0.10394572 0.078677148 0.60300004 9808105
-0.10262667 0.078546673 0.60200006 10463968
-0.10131142 0.078416191 0.60100001 10727140
-0.10000001 0.078285716 0.60000002 11121909
-0.098857142 0.078285716 0.60000002 11187702
-0.09771429 0.078285716 0.60000002 11647487
-0.096571431 0.078285716 0.60000002 11713279
-0.095428571 0.078285716 0.60000002 12239868
-0.094285719 0.078285716 0.60000002 12239868
-0.09314286 0.078285716 0.60000002 12043518
-0.092000008 0.078285716 0.60000002 12109311
-0.090857141 0.078285716 0.60000002 12241662
-0.089714289 0.078285716 0.60000002 12175869
-0.088719048 0.078416191 0.60100001 11650559
-0.087720007 0.078546673 0.60200006 11716351
-0.086717151 0.078677148 0.60300004 11846655
-0.085568577 0.078677148 0.60300004 11846655
-0.084559999 0.078807622 0.60400003 12107764
-0.083409525 0.078807622 0.60400003 11252455
-0.082531422 0.079068571 0.60600001 10854332
-0.08151143 0.079199053 0.60700005 8354198
-0.080619998 0.079460002 0.60900003 8940836
-0.079590477 0.079590477 0.61000001 11309384
-0.078428566 0.079590477 0.61000001 11112589
-0.077393331 0.079720952 0.611 10981003
-0.07622952 0.079720952 0.611 10716552
-0.075065717 0.079720952 0.611 9861243
-0.073780954 0.079590477 0.61000001 10384729
-0.072619043 0.079590477 0.61000001 10845280
-0.07145714 0.079590477 0.61000001 10451281
-0.070295244 0.079590477 0.61000001 10648660
-0.069246665 0.079720952 0.611 11636864
-0.067971431 0.079590477 0.61000001 12426380
