# .PCD v0.7 - Point Cloud Data file format
VERSION 0.7
FIELDS x y z rgb
SIZE 4 4 4 4
TYPE F F F F
COUNT 1 1 1 1
WIDTH 945
HEIGHT 1
VIEWPOINT 0 0 0 1 0 0 0
POINTS 945
DATA ascii
-0.054954287 -0.06985715 0.97800004 1.1803564e-38
-0.053091429 -0.06985715 0.97800004 1.189576e-38
-0.051228572 -0.06985715 0.97800004 1.1897187e-38
-0.049517147 -0.070071429 0.98100007 1.2265969e-38
-0.047648571 -0.070071429 0.98100007 1.2449637e-38
-0.045919999 -0.070285715 0.98400003 1.2634028e-38
-0.044045717 -0.070285715 0.98400003 1.281699e-38
-0.04217143 -0.070285715 0.98400003 1.3001382e-38
-0.04042 -0.070500001 0.98700005 1.2910259e-38
-0.038618095 -0.070642859 0.98900002 1.3094651e-38
-0.036734283 -0.070642859 0.98900002 1.3370512e-38
-0.034850478 -0.070642859 0.98900002 1.3370512e-38
-0.03296667 -0.070642859 0.98900002 1.346271e-38
-0.031177143 -0.070857145 0.99200004 1.3647101e-38
-0.02928762 -0.070857145 0.99200004 1.3647101e-38
-0.027480954 -0.071071438 0.99500006 1.3647101e-38
-0.025585715 -0.071071438 0.99500006 1.3555632e-38
-0.023690477 -0.071071438 0.99500006 1.3463436e-38
-0.021795239 -0.071071438 0.99500006 1.3555632e-38
-0.0199 -0.071071438 0.99500006 1.3463436e-38
-0.018004762 -0.071071438 0.99500006 1.3371591e-38
-0.016109524 -0.071071438 0.99500006 1.3371591e-38
-0.014171429 -0.070857145 0.99200004 1.3003534e-38
-0.012281906 -0.070857145 0.99200004 1.3280121e-38
-0.010392382 -0.070857145 0.99200004 1.3463436e-38
-0.0085028578 -0.070857145 0.99200004 1.337124e-38
-0.0066133337 -0.070857145 0.99200004 1.2910985e-38
-0.0047095241 -0.070642859 0.98900002 1.281879e-38
-0.0028257142 -0.070642859 0.98900002 1.2725868e-38
-0.00094190479 -0.070642859 0.98900002 1.2725868e-38
0.00094000006 -0.070500001 0.98700005 1.2725148e-38
0.0028200001 -0.070500001 0.98700005 1.2817344e-38
0.0047000004 -0.070500001 0.98700005 1.2909186e-38
0.0065600001 -0.070285715 0.98400003 1.3001382e-38
0.0084085716 -0.070071429 0.98100007 1.3092861e-38
0.010245714 -0.06985715 0.97800004 1.3369448e-38
0.012108572 -0.06985715 0.97800004 1.3647101e-38
0.013928572 -0.069642857 0.97500002 1.3278319e-38
0.015785715 -0.069642857 0.97500002 1.2818064e-38
-0.060357142 -0.067785718 0.97500002 1.2908785e-38
-0.058500003 -0.067785718 0.97500002 1.345913e-38
-0.056817144 -0.067994289 0.97800004 1.4473282e-38
-0.054954287 -0.067994289 0.97800004 1.3646395e-38
-0.053091429 -0.067994289 0.97800004 1.3185417e-38
-0.051228572 -0.067994289 0.97800004 1.2910613e-38
-0.049517147 -0.068202861 0.98100007 1.3002808e-38
-0.047648571 -0.068202861 0.98100007 1.3001729e-38
-0.045919999 -0.068411432 0.98400003 1.3001729e-38
-0.044045717 -0.068411432 0.98400003 1.3001382e-38
-0.04217143 -0.068411432 0.98400003 1.2909186e-38
-0.04042 -0.068620004 0.98700005 1.2725518e-38
-0.038618095 -0.068759046 0.98900002 1.2817713e-38
-0.036734283 -0.068759046 0.98900002 1.2909536e-38
-0.034850478 -0.068759046 0.98900002 1.3093928e-38
-0.03296667 -0.068759046 0.98900002 1.309393e-38
-0.031177143 -0.068967618 0.99200004 1.3278322e-38
-0.02928762 -0.068967618 0.99200004 1.3094298e-38
-0.027480954 -0.06917619 0.99500006 1.3094298e-38
-0.025585715 -0.06917619 0.99500006 1.3186126e-38
-0.023690477 -0.06917619 0.99500006 1.3186126e-38
-0.021795239 -0.06917619 0.99500006 1.3186126e-38
-0.0199 -0.06917619 0.99500006 1.3278322e-38
-0.018004762 -0.06917619 0.99500006 1.3002808e-38
-0.016109524 -0.06917619 0.99500006 1.3002808e-38
-0.014171429 -0.068967618 0.99200004 1.3278689e-38
-0.012281906 -0.068967618 0.99200004 1.3370884e-38
-0.010392382 -0.068967618 0.99200004 1.3370884e-38
-0.0085028578 -0.068967618 0.99200004 1.3370884e-38
-0.0066133337 -0.068967618 0.99200004 1.3555985e-38
-0.0047095241 -0.068759046 0.98900002 1.3555985e-38
-0.0028257142 -0.068759046 0.98900002 1.3740373e-38
-0.00094190479 -0.068759046 0.98900002 1.4109156e-38
0.00093714288 -0.068411432 0.98400003 1.4384316e-38
0.0028114286 -0.068411432 0.98400003 1.4476512e-38
0.0046857144 -0.068411432 0.98400003 1.3649272e-38
0.0065400004 -0.068202861 0.98100007 1.3464881e-38
0.0078857141 -0.063961908 0.92000002 1.2818445e-38
0.0096380953 -0.063961908 0.92000002 1.3187227e-38
0.012108572 -0.067994289 0.97800004 1.3187199e-38
0.013971429 -0.067994289 0.97800004 1.0697917e-38
0.015024763 -0.064518094 0.92800003 9.6859263e-39
-0.05966191 -0.063223809 0.93500006 7.7443713e-39
-0.057880957 -0.063223809 0.93500006 1.2261957e-38
-0.056100003 -0.063223809 0.93500006 1.2722278e-38
-0.053912383 -0.062750474 0.92800003 1.3552039e-38
-0.051976193 -0.062547624 0.92500007 1.2727663e-38
-0.050105717 -0.062412385 0.92300004 1.2819859e-38
-0.048347622 -0.062412385 0.92300004 1.300389e-38
-0.049517147 -0.066334285 0.98100007 1.2911694e-38
-0.047648571 -0.066334285 0.98100007 1.3461991e-38
-0.045919999 -0.066537142 0.98400003 1.3461991e-38
-0.044045717 -0.066537142 0.98400003 1.3185773e-38
-0.04217143 -0.066537142 0.98400003 1.3093577e-38
-0.04042 -0.066740006 0.98700005 1.27266e-38
-0.038540002 -0.066740006 0.98700005 1.2910991e-38
-0.036734283 -0.066875242 0.98900002 1.3002455e-38
-0.034850478 -0.066875242 0.98900002 1.3094651e-38
-0.03296667 -0.066875242 0.98900002 1.3186496e-38
-0.031177143 -0.067078099 0.99200004 1.3186496e-38
-0.02928762 -0.067078099 0.99200004 1.3186846e-38
-0.027480954 -0.067280956 0.99500006 1.3186846e-38
-0.025585715 -0.067280956 0.99500006 1.3369808e-38
-0.023761906 -0.067483813 0.99800003 1.3462004e-38
-0.021795239 -0.067280956 0.99500006 1.3553483e-38
-0.0199 -0.067280956 0.99500006 1.3737875e-38
-0.018004762 -0.067280956 0.99500006 1.3463083e-38
-0.016109524 -0.067280956 0.99500006 1.3463083e-38
-0.014171429 -0.067078099 0.99200004 1.3647477e-38
-0.012281906 -0.067078099 0.99200004 1.3647477e-38
-0.010392382 -0.067078099 0.99200004 1.3831142e-38
-0.0085028578 -0.067078099 0.99200004 1.4199925e-38
-0.0066133337 -0.067078099 0.99200004 1.392478e-38
-0.0047095241 -0.066875242 0.98900002 1.3832584e-38
-0.0028257142 -0.066875242 0.98900002 1.3924774e-38
-0.00094190479 -0.066875242 0.98900002 1.4201361e-38
0.00093714288 -0.066537142 0.98400003 1.420173e-38
0.0028114286 -0.066537142 0.98400003 1.3740752e-38
0.0046857144 -0.066537142 0.98400003 1.3097893e-38
0.0061333333 -0.062209524 0.92000002 1.2360328e-38
0.0078857141 -0.062209524 0.92000002 1.0979521e-38
0.0096380953 -0.062209524 0.92000002 1.1809282e-38
0.011390476 -0.062209524 0.92000002 1.1806095e-38
0.013257143 -0.062750474 0.92800003 7.9338787e-39
0.015024763 -0.062750474 0.92800003 7.841257e-39
-0.061442863 -0.061442863 0.93500006 8.7571681e-39
-0.05966191 -0.061442863 0.93500006 7.3777888e-39
-0.057757143 -0.061311428 0.93300003 8.576332e-39
-0.055800002 -0.061114289 0.93000007 8.2990388e-39
-0.053912383 -0.060982861 0.92800003 7.4692781e-39
-0.051976193 -0.060785718 0.92500007 7.9331528e-39
-0.050105717 -0.06065429 0.92300004 1.1805369e-38
-0.048347622 -0.06065429 0.92300004 1.2725145e-38
-0.046589527 -0.06065429 0.92300004 1.2264167e-38
-0.044831429 -0.06065429 0.92300004 1.3001369e-38
-0.045919999 -0.064662859 0.98400003 1.3646738e-38
-0.044045717 -0.064662859 0.98400003 1.3646751e-38
-0.04217143 -0.064662859 0.98400003 1.4015534e-38
-0.04042 -0.064860001 0.98700005 1.3648906e-38
-0.038540002 -0.064860001 0.98700005 1.4109884e-38
-0.033911429 -0.059997145 0.91300005 1.4201714e-38
-0.032066669 -0.059799999 0.91000003 1.429391e-38
-0.030333333 -0.059799999 0.91000003 1.4201727e-38
-0.0286 -0.059799999 0.91000003 1.4570509e-38
-0.026955239 -0.059997145 0.91300005 1.4570863e-38
-0.02756381 -0.065582857 0.99800003 1.4847449e-38
-0.025662858 -0.065582857 0.99800003 1.5030772e-38
-0.023690477 -0.065385722 0.99500006 1.5307358e-38
-0.021795239 -0.065385722 0.99500006 1.5399201e-38
-0.01984 -0.065188579 0.99200004 1.5767983e-38
-0.017950477 -0.065188579 0.99200004 1.5032206e-38
-0.016109524 -0.065385722 0.99500006 1.4940011e-38
-0.014171429 -0.065188579 0.99200004 1.4111329e-38
-0.012281906 -0.065188579 0.99200004 1.4019134e-38
-0.010392382 -0.065188579 0.99200004 1.4017336e-38
-0.0085028578 -0.065188579 0.99200004 1.4201727e-38
-0.0066133337 -0.065188579 0.99200004 1.4200658e-38
-0.0047095241 -0.064991429 0.98900002 1.3924071e-38
-0.0028257142 -0.064991429 0.98900002 1.3096458e-38
-0.00087428576 -0.060325716 0.91800004 1.2819871e-38
0.00087428576 -0.060325716 0.91800004 1.2450751e-38
0.0026285714 -0.06045714 0.92000002 1.1805382e-38
0.0043809521 -0.06045714 0.92000002 1.0058675e-38
0.0061333333 -0.06045714 0.92000002 7.4771969e-39
0.0078857141 -0.06045714 0.92000002 7.6640096e-39
0.0096380953 -0.06045714 0.92000002 1.1167444e-38
0.011452381 -0.060785718 0.92500007 1.1714243e-38
0.013214286 -0.060785718 0.92500007 6.6434832e-39
0.015024763 -0.060982861 0.92800003 4.8085038e-39
-0.061442863 -0.05966191 0.93500006 9.5872791e-39
-0.059534285 -0.059534285 0.93300003 4.9868359e-39
-0.057571433 -0.059342861 0.93000007 6.0931834e-39
-0.055679999 -0.05921524 0.92800003 6.459808e-39
-0.053912383 -0.05921524 0.92800003 6.0910254e-39
-0.051976193 -0.059023816 0.92500007 5.818386e-39
-0.050214287 -0.059023816 0.92500007 1.079695e-38
-0.048347622 -0.058896191 0.92300004 1.1804641e-38
-0.046589527 -0.058896191 0.92300004 1.0513902e-38
-0.044588573 -0.058577146 0.91800004 1.051384e-38
-0.04260667 -0.058258098 0.91300005 1.2081166e-38
-0.040867623 -0.058258098 0.91300005 1.355419e-38
-0.039128575 -0.058258098 0.91300005 1.3277603e-38
-0.037389524 -0.058258098 0.91300005 1.2359256e-38
-0.035650477 -0.058258098 0.91300005 1.2451452e-38
-0.033911429 -0.058258098 0.91300005 1.2637253e-38
-0.032066669 -0.058066666 0.91000003 1.291384e-38
-0.030333333 -0.058066666 0.91000003 1.3282285e-38
-0.0286 -0.058066666 0.91000003 1.4112045e-38
-0.026955239 -0.058258098 0.91300005 1.4112045e-38
-0.025216192 -0.058258098 0.91300005 1.3835458e-38
-0.023400001 -0.058066666 0.91000003 1.4204569e-38
-0.021666666 -0.058066666 0.91000003 1.4665547e-38
-0.019933334 -0.058066666 0.91000003 1.4664147e-38
-0.01826 -0.058258098 0.91300005 1.4571951e-38
-0.016520953 -0.058258098 0.91300005 1.2916036e-38
-0.014781905 -0.058258098 0.91300005 1.2178471e-38
-0.013042858 -0.058258098 0.91300005 1.1442708e-38
-0.011328571 -0.058385715 0.91500002 1.0889534e-38
-0.010392382 -0.063299052 0.99200004 1.0614364e-38
-0.0085028578 -0.063299052 0.99200004 1.2642667e-38
-0.0066133337 -0.063299052 0.99200004 1.3741843e-38
-0.0047238097 -0.063299052 0.99200004 1.2358909e-38
-0.0026228572 -0.058577146 0.91800004 1.1806789e-38
-0.00087428576 -0.058577146 0.91800004 1.1714593e-38
0.00087428576 -0.058577146 0.91800004 1.1899e-38
0.0026228572 -0.058577146 0.91800004 1.1899e-38
0.0043714289 -0.058577146 0.91800004 1.015123e-38
0.00612 -0.058577146 0.91800004 7.7541439e-39
0.0078857141 -0.05870476 0.92000002 7.1073045e-39
0.0096380953 -0.05870476 0.92000002 1.1163912e-38
0.011390476 -0.05870476 0.92000002 1.1438003e-38
0.013214286 -0.059023816 0.92500007 5.5374831e-39
0.015024763 -0.05921524 0.92800003 1.4999176e-39
-0.05921524 -0.057447623 0.92800003 5.07977e-39
-0.057447623 -0.057447623 0.92800003 5.6329438e-39
-0.055500004 -0.057261907 0.92500007 7.4728809e-39
-0.053738099 -0.057261907 0.92500007 9.9621629e-39
-0.051976193 -0.057261907 0.92500007 1.1157822e-38
-0.050105717 -0.057138097 0.92300004 1.3370517e-38
-0.048347622 -0.057138097 0.92300004 1.1807142e-38
-0.046589527 -0.057138097 0.92300004 6.3675997e-39
-0.044588573 -0.056828573 0.91800004 5.1758654e-39
-0.04260667 -0.056519046 0.91300005 9.50906e-39
-0.040867623 -0.056519046 0.91300005 1.2358165e-38
-0.039128575 -0.056519046 0.91300005 1.2911338e-38
-0.037389524 -0.056519046 0.91300005 1.1532698e-38
-0.035650477 -0.056519046 0.91300005 8.674633e-39
-0.033911429 -0.056519046 0.91300005 8.4931537e-39
-0.032172382 -0.056519046 0.91300005 1.0521458e-38
-0.030433334 -0.056519046 0.91300005 1.3281896e-38
-0.028694287 -0.056519046 0.91300005 1.4203853e-38
-0.026955239 -0.056519046 0.91300005 1.3926209e-38
-0.025216192 -0.056519046 0.91300005 9.9617972e-39
-0.023400001 -0.056333333 0.91000003 9.5958887e-39
-0.021666666 -0.056333333 0.91000003 1.2822736e-38
-0.019933334 -0.056333333 0.91000003 1.392478e-38
-0.01826 -0.056519046 0.91300005 1.3740389e-38
-0.016520953 -0.056519046 0.91300005 1.1443764e-38
-0.014781905 -0.056519046 0.91300005 5.5432439e-39
-0.013042858 -0.056519046 0.91300005 3.255341e-39
-0.011328571 -0.05664286 0.91500002 3.4397323e-39
-0.0095857149 -0.05664286 0.91500002 1.0061881e-38
-0.0078428574 -0.05664286 0.91500002 1.3288728e-38
-0.00612 -0.056828573 0.91800004 1.3926582e-38
-0.0043714289 -0.056828573 0.91800004 1.1806082e-38
-0.0026228572 -0.056828573 0.91800004 8.9548703e-39
-0.00087428576 -0.056828573 0.91800004 8.7704791e-39
0.00087428576 -0.056828573 0.91800004 1.0150532e-38
0.0026228572 -0.056828573 0.91800004 1.2363228e-38
0.0043714289 -0.056828573 0.91800004 1.2729111e-38
0.00612 -0.056828573 0.91800004 1.2452524e-38
0.0078685712 -0.056828573 0.91800004 1.2819859e-38
0.0096380953 -0.05695238 0.92000002 1.0883751e-38
0.011390476 -0.05695238 0.92000002 8.3998384e-39
0.013214286 -0.057261907 0.92500007 4.4354263e-39
0.015024763 -0.057447623 0.92800003 2.3279155e-39
0.016882857 -0.057757143 0.93300003 2.1435242e-39
-0.060785718 -0.055500004 0.92500007 1.1062041e-38
-0.059023816 -0.055500004 0.92500007 5.2630823e-39
-0.057261907 -0.055500004 0.92500007 4.8021041e-39
-0.055500004 -0.055500004 0.92500007 7.1980764e-39
-0.053738099 -0.055500004 0.92500007 1.0517119e-38
-0.051976193 -0.055500004 0.92500007 1.2078356e-38
-0.050105717 -0.055380002 0.92300004 1.2078356e-38
-0.048347622 -0.055380002 0.92300004 1.0056877e-38
-0.046589527 -0.055380002 0.92300004 4.248552e-39
-0.044685714 -0.055200003 0.92000002 1.6839404e-39
-0.04284 -0.055080004 0.91800004 5.3717656e-39
-0.040957142 -0.054899998 0.91500002 1.171277e-38
-0.039214283 -0.054899998 0.91500002 1.3372291e-38
-0.037389524 -0.054780003 0.91300005 1.2178092e-38
-0.035650477 -0.054780003 0.91300005 8.8590495e-39
-0.033911429 -0.054780003 0.91300005 8.5856996e-39
-0.032172382 -0.054780003 0.91300005 1.1074982e-38
-0.030433334 -0.054780003 0.91300005 1.3922619e-38
-0.028694287 -0.054780003 0.91300005 1.4567989e-38
-0.026955239 -0.054780003 0.91300005 1.4200645e-38
-0.025216192 -0.054780003 0.91300005 8.8532986e-39
-0.023477143 -0.054780003 0.91300005 8.8521846e-39
-0.021666666 -0.0546 0.91000003 1.1802445e-38
-0.019933334 -0.0546 0.91000003 1.4842752e-38
-0.01826 -0.054780003 0.91300005 1.5211535e-38
-0.016520953 -0.054780003 0.91300005 1.1813635e-38
-0.014814286 -0.054899998 0.91500002 8.5867884e-39
-0.013071429 -0.054899998 0.91500002 7.5827259e-39
-0.011328571 -0.054899998 0.91500002 7.9515084e-39
-0.0095857149 -0.054899998 0.91500002 1.0982786e-38
-0.0078428574 -0.054899998 0.91500002 1.301109e-38
-0.0061000003 -0.054899998 0.91500002 1.3467399e-38
-0.0043571433 -0.054899998 0.91500002 1.0609334e-38
-0.0026228572 -0.055080004 0.91800004 8.0372202e-39
-0.00087428576 -0.055080004 0.91800004 7.6684377e-39
0.00087428576 -0.055080004 0.91800004 8.7711853e-39
0.0026228572 -0.055080004 0.91800004 1.0246315e-38
0.0043714289 -0.055080004 0.91800004 1.3096095e-38
0.00612 -0.055080004 0.91800004 1.383366e-38
0.0078685712 -0.055080004 0.91800004 1.3372698e-38
0.0096380953 -0.055200003 0.92000002 8.0253512e-39
0.011390476 -0.055200003 0.92000002 6.1868084e-39
0.013214286 -0.055500004 0.92500007 4.6194827e-39
0.015024763 -0.055679999 0.92800003 2.9707738e-39
0.016882857 -0.055980001 0.93300003 2.8785781e-39
0.018700002 -0.056100003 0.93500006 4.6212974e-39
-0.060785718 -0.053738099 0.92500007 1.2168376e-38
-0.059023816 -0.053738099 0.92500007 4.8053775e-39
-0.057261907 -0.053738099 0.92500007 2.5004868e-39
-0.055500004 -0.053738099 0.92500007 5.7247765e-39
-0.053738099 -0.053738099 0.92500007 1.0057971e-38
-0.051976193 -0.053738099 0.92500007 1.0973798e-38
-0.050214287 -0.053738099 0.92500007 7.9313423e-39
-0.048347622 -0.053621907 0.92300004 3.6150544e-39
-0.046589527 -0.053621907 0.92300004 2.969685e-39
-0.044685714 -0.053447623 0.92000002 3.0633576e-39
-0.04284 -0.053331427 0.91800004 2.694575e-39
-0.041091431 -0.053331427 0.91800004 7.5718392e-39
-0.039214283 -0.053157143 0.91500002 1.1444056e-38
-0.037389524 -0.053040955 0.91300005 1.3004628e-38
-0.035650477 -0.053040955 0.91300005 1.3096824e-38
-0.033911429 -0.053040955 0.91300005 1.383473e-38
-0.032172382 -0.053040955 0.91300005 1.5033273e-38
-0.030433334 -0.053040955 0.91300005 1.3925155e-38
-0.028694287 -0.053040955 0.91300005 1.1620265e-38
-0.027014285 -0.053157143 0.91500002 9.5015771e-39
-0.025271429 -0.053157143 0.91500002 7.9342514e-39
-0.02352857 -0.053157143 0.91500002 8.2086509e-39
-0.021738095 -0.053040955 0.91300005 8.3930421e-39
-0.019999048 -0.053040955 0.91300005 1.1435431e-38
-0.018300001 -0.053157143 0.91500002 1.4385691e-38
-0.016557142 -0.053157143 0.91500002 1.3651793e-38
-0.014814286 -0.053157143 0.91500002 1.392838e-38
-0.013071429 -0.053157143 0.91500002 1.2826699e-38
-0.011328571 -0.053157143 0.91500002 1.301109e-38
-0.0095857149 -0.053157143 0.91500002 1.310113e-38
-0.0078428574 -0.053157143 0.91500002 1.1718196e-38
-0.0061000003 -0.053157143 0.91500002 9.7853316e-39
-0.0043571433 -0.053157143 0.91500002 9.0477666e-39
-0.0026228572 -0.053331427 0.91800004 8.4056524e-39
-0.00087428576 -0.053331427 0.91800004 8.2212611e-39
0.00087428576 -0.053331427 0.91800004 8.1283495e-39
0.0026228572 -0.053331427 0.91800004 7.8517626e-39
0.0043714289 -0.053331427 0.91800004 1.1438359e-38
0.00612 -0.053331427 0.91800004 1.3927641e-38
0.0078685712 -0.053331427 0.91800004 1.2635824e-38
0.0096380953 -0.053447623 0.92000002 6.2743251e-39
0.011427619 -0.053621907 0.92300004 2.3265086e-39
0.013214286 -0.053738099 0.92500007 2.6030955e-39
0.015024763 -0.053912383 0.92800003 3.1544518e-39
0.016882857 -0.054202858 0.93300003 4.2607993e-39
0.018700002 -0.05431905 0.93500006 6.9225882e-39
-0.05921524 -0.052144762 0.92800003 8.2118977e-39
-0.057447623 -0.052144762 0.92800003 3.9708987e-39
-0.055500004 -0.051976193 0.92500007 4.1606569e-39
-0.053738099 -0.051976193 0.92500007 9.1392209e-39
-0.051976193 -0.051976193 0.92500007 9.8725134e-39
-0.050214287 -0.051976193 0.92500007 4.7095581e-39
-0.048347622 -0.051863808 0.92300004 1.8665744e-39
-0.046589527 -0.051863808 0.92300004 3.1573132e-39
-0.044685714 -0.051695239 0.92000002 3.5250392e-39
-0.04284 -0.051582858 0.91800004 2.5108872e-39
-0.041091431 -0.051582858 0.91800004 2.6048457e-39
-0.039214283 -0.051414285 0.91500002 6.2926709e-39
-0.037471429 -0.051414285 0.91500002 1.1899688e-38
-0.03572857 -0.051414285 0.91500002 1.3835796e-38
-0.033911429 -0.051301908 0.91300005 1.4662718e-38
-0.032172382 -0.051301908 0.91300005 1.4293935e-38
-0.030433334 -0.051301908 0.91300005 1.2914225e-38
-0.028694287 -0.051301908 0.91300005 8.8576174e-39
-0.027014285 -0.051414285 0.91500002 8.3937806e-39
-0.025271429 -0.051414285 0.91500002 8.5781719e-39
-0.02352857 -0.051414285 0.91500002 8.6696234e-39
-0.021785714 -0.051414285 0.91500002 8.1164496e-39
-0.020042857 -0.051414285 0.91500002 8.3940931e-39
-0.018300001 -0.051414285 0.91500002 1.0975571e-38
-0.016557142 -0.051414285 0.91500002 1.4015506e-38
-0.014814286 -0.051414285 0.91500002 1.5490636e-38
-0.013071429 -0.051414285 0.91500002 1.4847096e-38
-0.011328571 -0.051414285 0.91500002 1.4662705e-38
-0.0095857149 -0.051414285 0.91500002 1.3100071e-38
-0.0078428574 -0.051414285 0.91500002 9.7810282e-39
-0.0061000003 -0.051414285 0.91500002 8.3134414e-39
-0.0043571433 -0.051414285 0.91500002 8.6822239e-39
-0.0026228572 -0.051582858 0.91800004 8.7737133e-39
-0.00087428576 -0.051582858 0.91800004 8.4971264e-39
0.00087428576 -0.051582858 0.91800004 8.2212611e-39
0.0026228572 -0.051582858 0.91800004 7.3915005e-39
0.0043714289 -0.051582858 0.91800004 9.3211221e-39
0.0061333333 -0.051695239 0.92000002 1.2363578e-38
0.0079114288 -0.051863808 0.92300004 1.1623849e-38
0.0096695246 -0.051863808 0.92300004 5.2623508e-39
0.011452381 -0.051976193 0.92500007 1.6840034e-39
0.013214286 -0.051976193 0.92500007 2.0527859e-39
0.015024763 -0.052144762 0.92800003 2.0502622e-39
0.016882857 -0.052425716 0.93300003 4.1707617e-39
0.018700002 -0.052538101 0.93500006 8.1200524e-39
-0.059342861 -0.050485715 0.93000007 8.5799893e-39
-0.057571433 -0.050485715 0.93000007 3.9702079e-39
-0.055679999 -0.050377145 0.92800003 2.965376e-39
-0.053912383 -0.050377145 0.92800003 7.7595487e-39
-0.051976193 -0.050214287 0.92500007 9.136012e-39
-0.050214287 -0.050214287 0.92500007 4.4340348e-39
-0.048347622 -0.050105717 0.92300004 1.2251735e-39
-0.046589527 -0.050105717 0.92300004 2.4237167e-39
-0.044831429 -0.050105717 0.92300004 3.1569755e-39
-0.042933334 -0.049942859 0.92000002 3.2491711e-39
-0.041091431 -0.049834289 0.91800004 3.0647953e-39
-0.039342858 -0.049834289 0.91800004 2.6038171e-39
-0.037471429 -0.04967143 0.91500002 6.9275852e-39
-0.03572857 -0.04967143 0.91500002 1.2551519e-38
-0.033985715 -0.04967143 0.91500002 1.4294286e-38
-0.032172382 -0.04956286 0.91300005 1.1436221e-38
-0.030433334 -0.04956286 0.91300005 7.7516482e-39
-0.028694287 -0.04956286 0.91300005 6.8296919e-39
-0.027014285 -0.04967143 0.91500002 7.9342318e-39
-0.025271429 -0.04967143 0.91500002 8.5796012e-39
-0.02352857 -0.04967143 0.91500002 8.9462159e-39
-0.021785714 -0.04967143 0.91500002 8.9462159e-39
-0.020042857 -0.04967143 0.91500002 8.3937806e-39
-0.018300001 -0.04967143 0.91500002 7.4718243e-39
-0.016557142 -0.04967143 0.91500002 8.2125787e-39
-0.014814286 -0.04967143 0.91500002 1.3098947e-38
-0.013071429 -0.04967143 0.91500002 1.4018067e-38
-0.011328571 -0.04967143 0.91500002 1.374148e-38
-0.0095857149 -0.04967143 0.91500002 1.2272086e-38
-0.0078428574 -0.04967143 0.91500002 9.5984124e-39
-0.0061000003 -0.04967143 0.91500002 8.3141728e-39
-0.0043571433 -0.04967143 0.91500002 8.775151e-39
-0.0026228572 -0.049834289 0.91800004 8.4063685e-39
-0.00087428576 -0.049834289 0.91800004 8.2219772e-39
0.00087428576 -0.049834289 0.91800004 7.9453903e-39
0.0026228572 -0.049834289 0.91800004 7.6688034e-39
0.0043714289 -0.049834289 0.91800004 9.50517e-39
0.0061333333 -0.049942859 0.92000002 1.2086648e-38
0.0079114288 -0.050105717 0.92300004 1.1717117e-38
0.0096904775 -0.050214287 0.92500007 4.8946402e-39
0.011452381 -0.050214287 0.92500007 1.0400788e-39
0.013214286 -0.050214287 0.92500007 1.6854482e-39
0.015057144 -0.050485715 0.93000007 3.9809628e-39
0.016919049 -0.050757144 0.93500006 6.1014623e-39
0.018700002 -0.050757144 0.93500006 8.3977183e-39
-0.059342861 -0.048714291 0.93000007 1.0239478e-38
-0.057571433 -0.048714291 0.93000007 4.7999363e-39
-0.055679999 -0.048609525 0.92800003 3.6085523e-39
-0.053912383 -0.048609525 0.92800003 8.5871164e-39
-0.052144762 -0.048609525 0.92800003 8.9530725e-39
-0.050214287 -0.048452385 0.92500007 4.8042691e-39
-0.048347622 -0.048347622 0.92300004 1.0397004e-39
-0.046589527 -0.048347622 0.92300004 2.3304392e-39
-0.044831429 -0.048347622 0.92300004 3.5250392e-39
-0.042933334 -0.048190478 0.92000002 3.7094304e-39
-0.041091431 -0.048085716 0.91800004 3.0658687e-39
-0.039342858 -0.048085716 0.91800004 1.8673255e-39
-0.037471429 -0.047928572 0.91500002 1.8704994e-39
-0.03572857 -0.047928572 0.91500002 9.4305411e-39
-0.033985715 -0.047928572 0.91500002 1.3926967e-38
-0.032242857 -0.047928572 0.91500002 1.0515729e-38
-0.030433334 -0.047823813 0.91300005 7.3821118e-39
-0.028694287 -0.047823813 0.91300005 7.7508943e-39
-0.027014285 -0.047928572 0.91500002 8.8536671e-39
-0.025271429 -0.047928572 0.91500002 8.9458628e-39
-0.02352857 -0.047928572 0.91500002 8.6710681e-39
-0.021785714 -0.047928572 0.91500002 8.8554594e-39
-0.020042857 -0.047928572 0.91500002 8.7629106e-39
-0.018300001 -0.047928572 0.91500002 7.5643675e-39
-0.016557142 -0.047928572 0.91500002 5.9119745e-39
-0.014814286 -0.047928572 0.91500002 1.1812495e-38
-0.013114286 -0.048085716 0.91800004 1.3100071e-38
-0.011365715 -0.048085716 0.91800004 1.2546897e-38
-0.0096171433 -0.048085716 0.91800004 1.033924e-38
-0.0078685712 -0.048085716 0.91800004 8.771914e-39
-0.00612 -0.048085716 0.91800004 8.314533e-39
-0.0043714289 -0.048085716 0.91800004 8.5911199e-39
-0.0026228572 -0.048085716 0.91800004 8.4067286e-39
-0.00087428576 -0.048085716 0.91800004 8.0379461e-39
0.00087428576 -0.048085716 0.91800004 7.7617123e-39
0.0026285714 -0.048190478 0.92000002 7.4851254e-39
0.0043809521 -0.048190478 0.92000002 9.0467002e-39
0.0061533335 -0.048347622 0.92300004 1.1628178e-38
0.0079114288 -0.048347622 0.92300004 1.153453e-38
0.0096904775 -0.048452385 0.92500007 5.910597e-39
0.011489524 -0.048609525 0.92800003 1.6836503e-39
0.013257143 -0.048609525 0.92800003 2.1446284e-39
0.015057144 -0.048714291 0.93000007 3.9820572e-39
0.016919049 -0.048976194 0.93500006 6.0103611e-39
0.018759999 -0.049133334 0.93800002 8.765419e-39
0.020546667 -0.049133334 0.93800002 1.4942526e-38
-0.059342861 -0.04694286 0.93000007 1.060646e-38
-0.057571433 -0.04694286 0.93000007 5.9966788e-39
-0.055679999 -0.046841905 0.92800003 6.2768558e-39
-0.053912383 -0.046841905 0.92800003 9.7802898e-39
-0.052144762 -0.046841905 0.92800003 1.0514628e-38
-0.050214287 -0.046690479 0.92500007 9.2238888e-39
-0.048452385 -0.046690479 0.92500007 4.7199698e-39
-0.046589527 -0.046589527 0.92300004 3.2448397e-39
-0.044831429 -0.046589527 0.92300004 2.2386346e-39
-0.042933334 -0.046438098 0.92000002 2.6996127e-39
-0.041180953 -0.046438098 0.92000002 2.4226601e-39
-0.039342858 -0.046337146 0.91800004 1.5007038e-39
-0.037471429 -0.046185717 0.91500002 1.8705429e-39
-0.03572857 -0.046185717 0.91500002 8.6008239e-39
-0.033985715 -0.046185717 0.91500002 1.3559595e-38
-0.032242857 -0.046185717 0.91500002 9.5951824e-39
-0.0305 -0.046185717 0.91500002 7.0147838e-39
-0.028757144 -0.046185717 0.91500002 7.2913707e-39
-0.027014285 -0.046185717 0.91500002 8.2108187e-39
-0.025271429 -0.046185717 0.91500002 8.4874056e-39
-0.02352857 -0.046185717 0.91500002 8.6710681e-39
-0.021785714 -0.046185717 0.91500002 8.7632638e-39
-0.020042857 -0.046185717 0.91500002 8.670715e-39
-0.018300001 -0.046185717 0.91500002 7.6565631e-39
-0.016611429 -0.046337146 0.91800004 6.0027899e-39
-0.014862858 -0.046337146 0.91800004 1.1165745e-38
-0.013114286 -0.046337146 0.91800004 1.3284089e-38
-0.011365715 -0.046337146 0.91800004 1.2915307e-38
-0.0096171433 -0.046337146 0.91800004 1.0707666e-38
-0.0078685712 -0.046337146 0.91800004 8.2183843e-39
-0.00612 -0.046337146 0.91800004 7.7628067e-39
-0.0043714289 -0.046337146 0.91800004 8.1315893e-39
-0.0026228572 -0.046337146 0.91800004 8.4059999e-39
-0.00087619049 -0.046438098 0.92000002 8.0372174e-39
0.00087619049 -0.046438098 0.92000002 8.4960306e-39
0.0026285714 -0.046438098 0.92000002 9.5101825e-39
0.0043952381 -0.046589527 0.92300004 1.1532347e-38
0.0061666667 -0.046690479 0.92500007 1.273089e-38
0.0079285717 -0.046690479 0.92500007 1.2361051e-38
0.0096904775 -0.046690479 0.92500007 1.1070313e-38
0.011489524 -0.046841905 0.92800003 7.2975168e-39
0.013285715 -0.04694286 0.93000007 5.2692129e-39
0.015057144 -0.04694286 0.93000007 5.6387381e-39
0.016919049 -0.047195241 0.93500006 6.0075207e-39
0.018700002 -0.047195241 0.93500006 7.8445347e-39
0.020480953 -0.047195241 0.93500006 1.4943598e-38
-0.059342861 -0.045171432 0.93000007 1.060646e-38
-0.057571433 -0.045171432 0.93000007 6.1810701e-39
-0.055800002 -0.045171432 0.93000007 7.6554771e-39
-0.053912383 -0.045074288 0.92800003 1.0052563e-38
-0.052144762 -0.045074288 0.92800003 1.0974504e-38
-0.050377145 -0.045074288 0.92800003 1.1158896e-38
-0.048452385 -0.044928573 0.92500007 6.9291e-39
-0.046690479 -0.044928573 0.92500007 4.1632311e-39
-0.044831429 -0.044831429 0.92300004 1.3181146e-39
-0.043073334 -0.044831429 0.92300004 1.8712884e-39
-0.041180953 -0.044685714 0.92000002 1.6868803e-39
-0.039342858 -0.044588573 0.91800004 1.502489e-39
-0.037594289 -0.044588573 0.91800004 2.6066758e-39
-0.03572857 -0.044442859 0.91500002 9.3369568e-39
-0.033985715 -0.044442859 0.91500002 1.3467058e-38
-0.032242857 -0.044442859 0.91500002 1.1254363e-38
-0.0305 -0.044442859 0.91500002 7.2013611e-39
-0.028757144 -0.044442859 0.91500002 6.5559917e-39
-0.02710286 -0.044588573 0.91800004 8.0256987e-39
-0.025354287 -0.044588573 0.91800004 8.5788725e-39
-0.023605715 -0.044588573 0.91800004 8.8554594e-39
-0.021857142 -0.044588573 0.91800004 8.6710681e-39
-0.020108571 -0.044588573 0.91800004 8.3019325e-39
-0.018360002 -0.044588573 0.91800004 7.6565631e-39
-0.016611429 -0.044588573 0.91800004 6.5556063e-39
-0.014862858 -0.044588573 0.91800004 1.2640518e-38
-0.013114286 -0.044588573 0.91800004 1.3377001e-38
-0.011365715 -0.044588573 0.91800004 1.319261e-38
-0.0096171433 -0.044588573 0.91800004 1.1076461e-38
-0.0078685712 -0.044588573 0.91800004 8.8637663e-39
-0.00612 -0.044588573 0.91800004 7.119224e-39
-0.0043714289 -0.044588573 0.91800004 7.6723978e-39
-0.0026228572 -0.044588573 0.91800004 8.5900311e-39
-0.00087619049 -0.044685714 0.92000002 8.1290529e-39
0.00087619049 -0.044685714 0.92000002 8.8633809e-39
0.0026371428 -0.044831429 0.92300004 1.1076076e-38
0.0043952381 -0.044831429 0.92300004 1.217666e-38
0.0061666667 -0.044928573 0.92500007 1.1439095e-38
0.0079285717 -0.044928573 0.92500007 1.1990436e-38
0.009721905 -0.045074288 0.92800003 1.2359218e-38
0.011489524 -0.045074288 0.92800003 1.1254716e-38
0.013285715 -0.045171432 0.93000007 9.6873907e-39
0.015057144 -0.045171432 0.93000007 6.4702672e-39
0.016919049 -0.045414288 0.93500006 4.9951372e-39
0.018700002 -0.045414288 0.93500006 7.3824873e-39
0.020480953 -0.045414288 0.93500006 1.5219116e-38
-0.059534285 -0.043540001 0.93300003 1.2264164e-38
-0.057571433 -0.043400005 0.93000007 5.9026657e-39
-0.055800002 -0.043400005 0.93000007 6.8275241e-39
-0.053912383 -0.043306667 0.92800003 7.1963066e-39
-0.052144762 -0.043306667 0.92800003 8.9458123e-39
-0.050377145 -0.043306667 0.92800003 1.2357051e-38
-0.048452385 -0.043166671 0.92500007 1.097634e-38
-0.046690479 -0.043166671 0.92500007 7.749493e-39
-0.044831429 -0.043073334 0.92300004 1.9602498e-39
-0.043073334 -0.043073334 0.92300004 1.3148804e-39
-0.041180953 -0.042933334 0.92000002 1.5021205e-39
-0.039428573 -0.042933334 0.92000002 5.5587282e-39
-0.037594289 -0.04284 0.91800004 9.5991579e-39
-0.035845716 -0.04284 0.91800004 1.2641614e-38
-0.034097143 -0.04284 0.91800004 1.3926588e-38
-0.032348573 -0.04284 0.91800004 1.3926588e-38
-0.0305 -0.042700004 0.91500002 1.1069634e-38
-0.028757144 -0.042700004 0.91500002 7.658396e-39
-0.02710286 -0.04284 0.91800004 6.2793824e-39
-0.025354287 -0.04284 0.91800004 7.109143e-39
-0.023605715 -0.04284 0.91800004 8.1182503e-39
-0.021857142 -0.04284 0.91800004 7.933859e-39
-0.020108571 -0.04284 0.91800004 8.3004934e-39
-0.018360002 -0.04284 0.91800004 1.0605384e-38
-0.016611429 -0.04284 0.91800004 1.1989032e-38
-0.014862858 -0.04284 0.91800004 1.4847096e-38
-0.013114286 -0.04284 0.91800004 1.4388266e-38
-0.011365715 -0.04284 0.91800004 1.4480462e-38
-0.0096171433 -0.04284 0.91800004 1.3469572e-38
-0.0078685712 -0.04284 0.91800004 1.1994442e-38
-0.00612 -0.04284 0.91800004 9.419426e-39
-0.0043809521 -0.042933334 0.92000002 8.4052741e-39
-0.0026285714 -0.042933334 0.92000002 8.1294285e-39
-0.00087904767 -0.043073334 0.92300004 8.1294285e-39
0.00087904767 -0.043073334 0.92300004 1.0795884e-38
0.0026428571 -0.043166671 0.92500007 1.2916383e-38
0.0044047623 -0.043166671 0.92500007 1.1898281e-38
0.0061666667 -0.043166671 0.92500007 6.8275213e-39
0.0079285717 -0.043166671 0.92500007 8.2086509e-39
0.009721905 -0.043306667 0.92800003 1.2541845e-38
0.011489524 -0.043306667 0.92800003 1.2541858e-38
0.013285715 -0.043400005 0.93000007 1.1712097e-38
0.015105714 -0.043540001 0.93300003 7.7570432e-39
0.016919049 -0.043633334 0.93500006 4.5301961e-39
0.018700002 -0.043633334 0.93500006 7.4754214e-39
0.020480953 -0.043633334 0.93500006 1.5127659e-38
-0.05966191 -0.041852385 0.93500006 1.2632246e-38
-0.057757143 -0.041762859 0.93300003 6.3629432e-39
-0.055980001 -0.041762859 0.93300003 6.7353229e-39
-0.054028574 -0.041628573 0.93000007 5.9055622e-39
-0.052257147 -0.041628573 0.93000007 5.99662e-39
-0.050377145 -0.041539047 0.92800003 1.0053228e-38
-0.048609525 -0.041539047 0.92800003 1.2356365e-38
-0.046690479 -0.041404765 0.92500007 1.014367e-38
-0.044928573 -0.041404765 0.92500007 5.7298057e-39
-0.043073334 -0.041315239 0.92300004 3.5171106e-39
-0.041315239 -0.041315239 0.92300004 2.9722213e-39
-0.039428573 -0.041180953 0.92000002 8.4117635e-39
-0.037594289 -0.041091431 0.91800004 1.2635493e-38
-0.035845716 -0.041091431 0.91800004 1.3280862e-38
-0.034097143 -0.041091431 0.91800004 1.3281916e-38
-0.032348573 -0.041091431 0.91800004 1.3742894e-38
-0.0306 -0.041091431 0.91800004 1.3190471e-38
-0.028851429 -0.041091431 0.91800004 1.0424603e-38
-0.027161906 -0.041180953 0.92000002 6.9265889e-39
-0.025409523 -0.041180953 0.92000002 6.2812195e-39
-0.023657143 -0.041180953 0.92000002 7.7487237e-39
-0.021857142 -0.041091431 0.91800004 7.6565281e-39
-0.020108571 -0.041091431 0.91800004 7.5658052e-39
-0.018360002 -0.041091431 0.91800004 1.1530217e-38
-0.016611429 -0.041091431 0.91800004 1.3831878e-38
-0.014862858 -0.041091431 0.91800004 1.3831878e-38
-0.013114286 -0.041091431 0.91800004 1.2822363e-38
-0.011365715 -0.041091431 0.91800004 1.3559928e-38
-0.0096171433 -0.041091431 0.91800004 1.429716e-38
-0.0078685712 -0.041091431 0.91800004 1.3467399e-38
-0.0061333333 -0.041180953 0.92000002 1.1444137e-38
-0.0043809521 -0.041180953 0.92000002 9.4158331e-39
-0.0026371428 -0.041315239 0.92300004 7.6688034e-39
-0.00088095246 -0.041404765 0.92500007 8.4985641e-39
0.00088095246 -0.041404765 0.92500007 1.2544003e-38
0.0026428571 -0.041404765 0.92500007 1.2359612e-38
0.0044047623 -0.041404765 0.92500007 1.1342934e-38
0.0061866669 -0.041539047 0.92800003 6.9175435e-39
0.0079542855 -0.041539047 0.92800003 7.1937324e-39
0.009721905 -0.041539047 0.92800003 1.0697166e-38
0.011514287 -0.041628573 0.93000007 1.2999584e-38
0.013328572 -0.041762859 0.93300003 1.2630801e-38
0.015105714 -0.041762859 0.93300003 8.8619362e-39
0.016919049 -0.041852385 0.93500006 5.174111e-39
0.018700002 -0.041852385 0.93500006 8.0282225e-39
0.020480953 -0.041852385 0.93500006 1.5311677e-38
-0.05966191 -0.040071432 0.93500006 1.3369811e-38
-0.057757143 -0.039985713 0.93300003 4.426835e-39
-0.055980001 -0.039985713 0.93300003 1.7632454e-39
-0.054202858 -0.039985713 0.93300003 3.4227668e-39
-0.052425716 -0.039985713 0.93300003 4.4304251e-39
-0.050485715 -0.039857145 0.93000007 6.3665333e-39
-0.048609525 -0.03977143 0.92800003 9.1320085e-39
-0.046690479 -0.039642859 0.92500007 1.2727638e-38
-0.044928573 -0.039642859 0.92500007 1.1347603e-38
-0.043166671 -0.039642859 0.92500007 9.2271034e-39
-0.041315239 -0.039557144 0.92300004 1.0426388e-38
-0.039557144 -0.039557144 0.92300004 1.3192257e-38
-0.037676193 -0.039428573 0.92000002 1.2728407e-38
-0.035923809 -0.039428573 0.92000002 1.0884495e-38
-0.034171429 -0.039428573 0.92000002 9.9678984e-39
-0.032419048 -0.039428573 0.92000002 1.1166442e-38
-0.030666668 -0.039428573 0.92000002 1.2085203e-38
-0.028914286 -0.039428573 0.92000002 1.4297898e-38
-0.027161906 -0.039428573 0.92000002 1.2360358e-38
-0.025409523 -0.039428573 0.92000002 8.3959456e-39
-0.023657143 -0.039428573 0.92000002 7.7526739e-39
-0.021904761 -0.039428573 0.92000002 9.7809778e-39
-0.020108571 -0.039342858 0.91800004 1.245036e-38
-0.018360002 -0.039342858 0.91800004 1.5492816e-38
-0.016611429 -0.039342858 0.91800004 1.4202468e-38
-0.014895238 -0.039428573 0.92000002 1.0145861e-38
-0.013142857 -0.039428573 0.92000002 7.2070434e-39
-0.011390476 -0.039428573 0.92000002 7.3914346e-39
-0.0096380953 -0.039428573 0.92000002 1.1164644e-38
-0.0078857141 -0.039428573 0.92000002 1.4022708e-38
-0.0061333333 -0.039428573 0.92000002 1.3926948e-38
-0.0043952381 -0.039557144 0.92300004 1.3189383e-38
-0.0026371428 -0.039557144 0.92300004 1.227173e-38
-0.00088095246 -0.039642859 0.92500007 1.2640512e-38
0.00088095246 -0.039642859 0.92500007 1.2820237e-38
0.0026428571 -0.039642859 0.92500007 8.8558251e-39
0.0044190479 -0.03977143 0.92800003 6.7367648e-39
0.0061866669 -0.03977143 0.92800003 6.4601779e-39
0.0079542855 -0.03977143 0.92800003 7.1023005e-39
0.009721905 -0.03977143 0.92800003 7.471083e-39
0.011514287 -0.039857145 0.93000007 1.0052545e-38
0.013328572 -0.039985713 0.93300003 1.1343284e-38
0.015138096 -0.040071432 0.93500006 9.3203808e-39
0.016919049 -0.040071432 0.93500006 5.0793818e-39
0.018700002 -0.040071432 0.93500006 8.4902796e-39
0.020480953 -0.040071432 0.93500006 1.5128365e-38
0.022261906 -0.040071432 0.93500006 1.6503008e-38
0.024119999 -0.040200002 0.93800002 1.5857639e-38
-0.057880957 -0.038290478 0.93500006 5.3487885e-39
-0.055980001 -0.03820857 0.93300003 1.0274783e-39
-0.054202858 -0.03820857 0.93300003 3.4245647e-39
-0.052425716 -0.03820857 0.93300003 4.7999083e-39
-0.050485715 -0.038085714 0.93000007 5.5374733e-39
-0.048714291 -0.038085714 0.93000007 7.3795586e-39
-0.046841905 -0.038003813 0.92800003 1.1804949e-38
-0.045074288 -0.038003813 0.92800003 1.2359963e-38
-0.043166671 -0.037880953 0.92500007 1.2175571e-38
-0.041315239 -0.037799049 0.92300004 1.2175954e-38
-0.039557144 -0.037799049 0.92300004 1.2821323e-38
-0.037799049 -0.037799049 0.92300004 1.1809322e-38
-0.035923809 -0.037676193 0.92000002 9.3200403e-39
-0.034171429 -0.037676193 0.92000002 7.5769427e-39
-0.032419048 -0.037676193 0.92000002 8.2223121e-39
-0.030666668 -0.037676193 0.92000002 1.1900424e-38
-0.028914286 -0.037676193 0.92000002 1.4113119e-38
-0.027250476 -0.037799049 0.92300004 1.4663437e-38
-0.025492381 -0.037799049 0.92300004 1.079122e-38
-0.023734286 -0.037799049 0.92300004 8.3980616e-39
-0.021976192 -0.037799049 0.92300004 1.116393e-38
-0.020108571 -0.037594289 0.91800004 1.4567275e-38
-0.018360002 -0.037594289 0.91800004 1.4936058e-38
-0.016647618 -0.037676193 0.92000002 1.3007152e-38
-0.014895238 -0.037676193 0.92000002 7.2910232e-39
-0.013142857 -0.037676193 0.92000002 2.6999378e-39
-0.011390476 -0.037676193 0.92000002 2.6999378e-39
-0.0096380953 -0.037676193 0.92000002 8.5845954e-39
-0.0078857141 -0.037676193 0.92000002 1.1719247e-38
-0.0061533335 -0.037799049 0.92300004 1.4661606e-38
-0.0043952381 -0.037799049 0.92300004 1.4753802e-38
-0.0026428571 -0.037880953 0.92500007 1.4109191e-38
-0.00088095246 -0.037880953 0.92500007 1.3740408e-38
0.00088095246 -0.037880953 0.92500007 1.2544001e-38
0.0026428571 -0.037880953 0.92500007 7.6576323e-39
0.0044190479 -0.038003813 0.92800003 6.1846602e-39
0.0061866669 -0.038003813 0.92800003 7.0144209e-39
0.0079542855 -0.038003813 0.92800003 6.9204204e-39
0.0097428579 -0.038085714 0.93000007 6.6438335e-39
0.01155143 -0.03820857 0.93300003 8.3948372e-39
0.013357143 -0.038290478 0.93500006 1.0699728e-38
0.015138096 -0.038290478 0.93500006 8.3076806e-39
0.016919049 -0.038290478 0.93500006 6.0949855e-39
0.018700002 -0.038290478 0.93500006 9.5951824e-39
0.020480953 -0.038290478 0.93500006 1.5311311e-38
0.022333333 -0.038413331 0.93800002 1.6318617e-38
0.024119999 -0.038413331 0.93800002 1.5857639e-38
-0.057880957 -0.036509525 0.93500006 6.8235556e-39
-0.056100003 -0.036509525 0.93500006 1.5795983e-39
-0.05431905 -0.036509525 0.93500006 3.6079021e-39
-0.052425716 -0.036431432 0.93300003 5.1687006e-39
-0.05064857 -0.036431432 0.93300003 5.7218744e-39
-0.048714291 -0.036314286 0.93000007 5.447098e-39
-0.046841905 -0.036236189 0.92800003 8.3973581e-39
-0.045074288 -0.036236189 0.92800003 1.1435485e-38
-0.043166671 -0.036119051 0.92500007 1.4016963e-38
-0.041404765 -0.036119051 0.92500007 1.2268133e-38
-0.039557144 -0.036040954 0.92300004 1.0239829e-38
-0.037799049 -0.036040954 0.92300004 8.4953117e-39
-0.036040954 -0.036040954 0.92300004 8.4953117e-39
-0.034282859 -0.036040954 0.92300004 8.0368699e-39
-0.032524761 -0.036040954 0.92300004 8.2212611e-39
-0.030766666 -0.036040954 0.92300004 9.5094412e-39
-0.029008573 -0.036040954 0.92300004 1.0892376e-38
-0.027250476 -0.036040954 0.92300004 1.3189733e-38
-0.025547622 -0.036119051 0.92500007 1.4111689e-38
-0.023734286 -0.036040954 0.92300004 1.447937e-38
-0.021976192 -0.036040954 0.92300004 1.5032544e-38
-0.020218095 -0.036040954 0.92300004 1.3282667e-38
-0.0184 -0.035923809 0.92000002 9.7792332e-39
-0.016647618 -0.035923809 0.92000002 4.6313923e-39
-0.014895238 -0.035923809 0.92000002 4.0782185e-39
-0.013142857 -0.035923809 0.92000002 3.2549417e-39
-0.011390476 -0.035923809 0.92000002 2.9783548e-39
-0.0096380953 -0.035923809 0.92000002 4.7221278e-39
-0.0079114288 -0.036040954 0.92300004 5.4596928e-39
-0.0061533335 -0.036040954 0.92300004 1.014976e-38
-0.0044047623 -0.036119051 0.92500007 1.4114172e-38
-0.0026428571 -0.036119051 0.92500007 1.4938576e-38
-0.00088095246 -0.036119051 0.92500007 1.1619533e-38
0.00088095246 -0.036119051 0.92500007 8.8572475e-39
0.0026514288 -0.036236189 0.92800003 6.9211392e-39
0.0044190479 -0.036236189 0.92800003 7.3799762e-39
0.0061866669 -0.036236189 0.92800003 7.7487587e-39
0.0079714293 -0.036314286 0.93000007 7.0122629e-39
0.0097742863 -0.036431432 0.93300003 6.8278716e-39
0.01155143 -0.036431432 0.93300003 8.6710962e-39
0.013357143 -0.036509525 0.93500006 1.0791596e-38
0.015138096 -0.036509525 0.93500006 8.6746709e-39
0.016919049 -0.036509525 0.93500006 6.8307583e-39
0.018700002 -0.036509525 0.93500006 1.0147277e-38
0.020480953 -0.036509525 0.93500006 1.5310232e-38
0.022333333 -0.036626667 0.93800002 1.6226415e-38
0.024119999 -0.036626667 0.93800002 1.5949829e-38
0.025906667 -0.036626667 0.93800002 1.5673247e-38
-0.056100003 -0.034728575 0.93500006 3.5992267e-39
-0.05431905 -0.034728575 0.93500006 5.3509437e-39
-0.052425716 -0.034654286 0.93300003 5.8097694e-39
-0.05064857 -0.034654286 0.93300003 6.8239213e-39
-0.048714291 -0.034542862 0.93000007 5.3552527e-39
-0.04694286 -0.034542862 0.93000007 6.0006221e-39
-0.045171432 -0.034542862 0.93000007 1.0144744e-38
-0.043306667 -0.034468573 0.92800003 1.3832569e-38
-0.041404765 -0.034357145 0.92500007 1.2085196e-38
-0.039642859 -0.034357145 0.92500007 8.8583489e-39
-0.037799049 -0.034282859 0.92300004 7.116696e-39
-0.036040954 -0.034282859 0.92300004 7.7620654e-39
-0.034282859 -0.034282859 0.92300004 8.6800785e-39
-0.032524761 -0.034282859 0.92300004 8.7722741e-39
-0.030766666 -0.034282859 0.92300004 7.8531821e-39
-0.029008573 -0.034282859 0.92300004 8.3141602e-39
-0.027309526 -0.034357145 0.92500007 1.0982063e-38
-0.025547622 -0.034357145 0.92500007 1.3655736e-38
-0.023734286 -0.034282859 0.92300004 1.4940734e-38
-0.021976192 -0.034282859 0.92300004 1.4571951e-38
-0.020218095 -0.034282859 0.92300004 1.1353026e-38
-0.0184 -0.034171429 0.92000002 5.2681143e-39
-0.016647618 -0.034171429 0.92000002 3.0680043e-39
-0.014895238 -0.034171429 0.92000002 4.3587431e-39
-0.013142857 -0.034171429 0.92000002 4.9090582e-39
-0.011390476 -0.034171429 0.92000002 4.7246669e-39
-0.0096695246 -0.034282859 0.92300004 3.1612887e-39
-0.0079114288 -0.034282859 0.92300004 1.7783542e-39
-0.0061533335 -0.034282859 0.92300004 4.6302629e-39
-0.0044047623 -0.034357145 0.92500007 1.1729326e-38
-0.0026428571 -0.034357145 0.92500007 1.4571986e-38
-0.00088380952 -0.034468573 0.92800003 9.9622049e-39
0.00088380952 -0.034468573 0.92800003 7.1977261e-39
0.0026514288 -0.034468573 0.92800003 7.1977261e-39
0.004428572 -0.034542862 0.93000007 8.1164552e-39
0.0062199999 -0.034654286 0.93300003 7.8398683e-39
0.0079971431 -0.034654286 0.93300003 6.735676e-39
0.0097952392 -0.034728575 0.93500006 7.6576323e-39
0.011576191 -0.034728575 0.93500006 9.1331309e-39
0.013400001 -0.034839999 0.93800002 1.0331674e-38
0.015186667 -0.034839999 0.93800002 8.8594153e-39
0.016973333 -0.034839999 0.93800002 7.6608721e-39
0.018800002 -0.034914289 0.94000006 1.0791207e-38
0.020590477 -0.034914289 0.94000006 1.5493185e-38
0.022380954 -0.034914289 0.94000006 1.5950194e-38
0.024248572 -0.035025716 0.94300002 1.5489216e-38
-0.056400005 -0.03312381 0.94000006 3.9727218e-39
-0.054493334 -0.033053335 0.93800002 5.171265e-39
-0.052538101 -0.032947619 0.93500006 6.1807197e-39
-0.050757144 -0.032947619 0.93500006 6.0885241e-39
-0.048871431 -0.032877143 0.93300003 4.2507156e-39
-0.047094285 -0.032877143 0.93300003 4.4351068e-39
-0.045171432 -0.032771431 0.93000007 8.118979e-39
-0.043400005 -0.032771431 0.93000007 1.2913152e-38
-0.041539047 -0.032700956 0.92800003 1.2084815e-38
-0.03977143 -0.032700956 0.92800003 9.042359e-39
-0.037880953 -0.03259524 0.92500007 7.3007314e-39
-0.036119051 -0.03259524 0.92500007 7.7617095e-39
-0.034282859 -0.032524761 0.92300004 8.2205423e-39
-0.032524761 -0.032524761 0.92300004 8.4971292e-39
-0.030766666 -0.032524761 0.92300004 8.313454e-39
-0.029008573 -0.032524761 0.92300004 7.8524758e-39
-0.027309526 -0.03259524 0.92500007 8.5875227e-39
-0.025547622 -0.03259524 0.92500007 1.1906565e-38
-0.023785716 -0.03259524 0.92500007 1.3743989e-38
-0.022023812 -0.03259524 0.92500007 1.1715685e-38
-0.020261906 -0.03259524 0.92500007 7.3922165e-39
-0.018460002 -0.032524761 0.92300004 4.3497608e-39
-0.016701905 -0.032524761 0.92300004 2.8868752e-39
-0.01494381 -0.032524761 0.92300004 3.8088315e-39
-0.013185714 -0.032524761 0.92300004 4.8172129e-39
-0.011427619 -0.032524761 0.92300004 4.7250173e-39
-0.0096904775 -0.03259524 0.92500007 4.3573236e-39
-0.0079285717 -0.03259524 0.92500007 2.6978022e-39
-0.0061666667 -0.03259524 0.92500007 2.8828969e-39
-0.0044047623 -0.03259524 0.92500007 8.9678085e-39
-0.0026428571 -0.03259524 0.92500007 1.4019134e-38
-0.00088380952 -0.032700956 0.92800003 8.7639826e-39
0.00088380952 -0.032700956 0.92800003 5.9095279e-39
0.0026571429 -0.032771431 0.93000007 6.7392885e-39
0.004428572 -0.032771431 0.93000007 7.7487587e-39
0.0062199999 -0.032877143 0.93300003 7.1955849e-39
0.0080142869 -0.032947619 0.93500006 7.4710858e-39
0.0097952392 -0.032947619 0.93500006 1.032915e-38
0.011613334 -0.033053335 0.93800002 1.1067403e-38
0.013400001 -0.033053335 0.93800002 1.0883012e-38
0.015186667 -0.033053335 0.93800002 9.5037029e-39
0.017009525 -0.03312381 0.94000006 8.4895509e-39
0.018859999 -0.033229522 0.94300002 1.134366e-38
0.020656191 -0.033229522 0.94300002 1.5584659e-38
0.022452381 -0.033229522 0.94300002 1.5950547e-38
0.024248572 -0.033229522 0.94300002 1.5397374e-38
-0.056400005 -0.031333335 0.94000006 8.2061397e-39
-0.054493334 -0.031266667 0.93800002 7.3763791e-39
-0.05270667 -0.031266667 0.93800002 5.3541933e-39
-0.050757144 -0.031166669 0.93500006 4.9854108e-39
-0.048871431 -0.031100003 0.93300003 3.6074986e-39
-0.047094285 -0.031100003 0.93300003 4.7138461e-39
-0.045317143 -0.031100003 0.93300003 8.6696262e-39
-0.043540001 -0.031100003 0.93300003 1.2910625e-38
-0.041628573 -0.031000003 0.93000007 1.0979221e-38
-0.03977143 -0.030933332 0.92800003 8.766526e-39
-0.038003813 -0.030933332 0.92800003 7.3918508e-39
-0.036119051 -0.030833337 0.92500007 7.8528289e-39
-0.034357145 -0.030833337 0.92500007 8.0368699e-39
-0.03259524 -0.030833337 0.92500007 8.497848e-39
-0.030766666 -0.030766666 0.92300004 8.6822267e-39
-0.029008573 -0.030766666 0.92300004 8.1290529e-39
-0.027309526 -0.030833337 0.92500007 7.669151e-39
-0.025547622 -0.030833337 0.92500007 1.0988194e-38
-0.023785716 -0.030833337 0.92500007 1.2733096e-38
-0.022023812 -0.030833337 0.92500007 1.0796988e-38
-0.020261906 -0.030833337 0.92500007 5.0930739e-39
-0.0185 -0.030833337 0.92500007 3.7101395e-39
-0.016738096 -0.030833337 0.92500007 4.2654783e-39
-0.014976191 -0.030833337 0.92500007 4.4498695e-39
-0.013214286 -0.030833337 0.92500007 4.5413463e-39
-0.011452381 -0.030833337 0.92500007 4.4491507e-39
-0.0096904775 -0.030833337 0.92500007 4.1729323e-39
-0.0079285717 -0.030833337 0.92500007 2.6978022e-39
-0.0061666667 -0.030833337 0.92500007 1.6883194e-39
-0.0044047623 -0.030833337 0.92500007 8.510796e-39
-0.0026428571 -0.030833337 0.92500007 1.3283749e-38
-0.00088380952 -0.030933332 0.92800003 9.5959237e-39
0.00088380952 -0.030933332 0.92800003 6.5527519e-39
0.0026571429 -0.031000003 0.93000007 6.7371431e-39
0.004428572 -0.031000003 0.93000007 7.3806853e-39
0.0062199999 -0.031100003 0.93300003 7.1040984e-39
0.0080142869 -0.031166669 0.93500006 7.1955849e-39
0.0097952392 -0.031166669 0.93500006 1.088341e-38
0.011613334 -0.031266667 0.93800002 1.0792634e-38
0.013400001 -0.031266667 0.93800002 9.9628733e-39
0.015186667 -0.031266667 0.93800002 9.3203682e-39
0.017009525 -0.031333335 0.94000006 9.2281726e-39
