# .PCD v0.7 - Point Cloud Data file format
VERSION 0.7
FIELDS x y z rgb
SIZE 4 4 4 4
TYPE F F F F
COUNT 1 1 1 1
WIDTH 974
HEIGHT 1
VIEWPOINT 0 0 0 1 0 0 0
POINTS 974
DATA ascii
-0.15968382 -0.07745143 1.0040001 1.7698324e-38
-0.15777142 -0.07745143 1.0040001 1.8528085e-38
-0.15585905 -0.07745143 1.0040001 1.8160724e-38
-0.15394668 -0.07745143 1.0040001 1.8160724e-38
-0.1520343 -0.07745143 1.0040001 1.8160368e-38
-0.15057048 -0.077682868 1.0070001 1.8252564e-38
-0.14909524 -0.077914283 1.01 1.8252198e-38
-0.14717142 -0.077914283 1.01 1.8344394e-38
-0.14567904 -0.078145713 1.013 1.8160371e-38
-0.14374952 -0.078145713 1.013 1.8529154e-38
-0.14182 -0.078145713 1.013 1.8068546e-38
-0.13989046 -0.078145713 1.013 1.7884154e-38
-0.13796096 -0.078145713 1.013 1.7884505e-38
-0.13603143 -0.078145713 1.013 1.7792309e-38
-0.13370477 -0.077914283 1.01 1.7700113e-38
-0.13178095 -0.077914283 1.01 1.7700113e-38
-0.12985715 -0.077914283 1.01 1.7515002e-38
-0.12793334 -0.077914283 1.01 1.7422806e-38
-0.12563524 -0.077682868 1.0070001 1.7238059e-38
-0.12371716 -0.077682868 1.0070001 1.7145863e-38
-0.12179905 -0.077682868 1.0070001 1.7054024e-38
-0.11988096 -0.077682868 1.0070001 1.6961828e-38
-0.11796286 -0.077682868 1.0070001 1.677779e-38
-0.11569905 -0.07745143 1.0040001 1.6593399e-38
-0.11378667 -0.07745143 1.0040001 1.6132067e-38
-0.1118743 -0.07745143 1.0040001 1.6039872e-38
-0.10963333 -0.07722 1.001 1.5577459e-38
-0.10708096 -0.076757148 0.99500006 1.5485263e-38
-0.10486858 -0.076525718 0.99200004 1.5300862e-38
-0.10246 -0.076140001 0.98700005 1.428671e-38
-0.10058001 -0.076140001 0.98700005 1.4653698e-38
-0.098399997 -0.075908571 0.98400003 1.5852241e-38
-0.096525721 -0.075908571 0.98400003 1.529977e-38
-0.094651431 -0.075908571 0.98400003 1.6037335e-38
-0.09277714 -0.075908571 0.98400003 1.6867459e-38
-0.090902865 -0.075908571 0.98400003 1.6683068e-38
-0.089028575 -0.075908571 0.98400003 1.6683071e-38
-0.087154284 -0.075908571 0.98400003 1.6775266e-38
-0.085280001 -0.075908571 0.98400003 1.6683065e-38
-0.18178761 -0.074410483 0.98900002 1.5577086e-38
-0.17990381 -0.074410483 0.98900002 1.548525e-38
-0.17856 -0.074636191 0.99200004 1.613062e-38
-0.17667049 -0.074636191 0.99200004 1.5946592e-38
-0.17530954 -0.074861906 0.99500006 1.6499765e-38
-0.17341429 -0.074861906 0.99500006 1.631574e-38
-0.17151906 -0.074861906 0.99500006 1.6868914e-38
-0.17064667 -0.075313337 1.001 1.6868914e-38
-0.16924572 -0.075539045 1.0040001 1.71455e-38
-0.16733335 -0.075539045 1.0040001 1.71455e-38
-0.16542096 -0.075539045 1.0040001 1.7514283e-38
-0.16350858 -0.075539045 1.0040001 1.7514652e-38
-0.16159619 -0.075539045 1.0040001 1.7422456e-38
-0.15968382 -0.075539045 1.0040001 1.7514646e-38
-0.15777142 -0.075539045 1.0040001 1.7975624e-38
-0.15585905 -0.075539045 1.0040001 1.7883782e-38
-0.15394668 -0.075539045 1.0040001 1.8068173e-38
-0.1520343 -0.075539045 1.0040001 1.8068173e-38
-0.15057048 -0.075764768 1.0070001 1.8068173e-38
-0.14909524 -0.075990476 1.01 1.7975614e-38
-0.14717142 -0.075990476 1.01 1.806781e-38
-0.14567904 -0.076216191 1.013 1.7791589e-38
-0.14374952 -0.076216191 1.013 1.8160371e-38
-0.14182 -0.076216191 1.013 1.7976703e-38
-0.13989046 -0.076216191 1.013 1.7884507e-38
-0.13796096 -0.076216191 1.013 1.7792309e-38
-0.13603143 -0.076216191 1.013 1.7700113e-38
-0.13410191 -0.076216191 1.013 1.7607918e-38
-0.13178095 -0.075990476 1.01 1.7700113e-38
-0.12985715 -0.075990476 1.01 1.7423527e-38
-0.12793334 -0.075990476 1.01 1.714694e-38
-0.12563524 -0.075764768 1.0070001 1.7238415e-38
-0.12371716 -0.075764768 1.0070001 1.7146219e-38
-0.12179905 -0.075764768 1.0070001 1.7146219e-38
-0.11988096 -0.075764768 1.0070001 1.6777437e-38
-0.11796286 -0.075764768 1.0070001 1.6776355e-38
-0.11604477 -0.075764768 1.0070001 1.6776355e-38
-0.11378667 -0.075539045 1.0040001 1.6407575e-38
-0.1118743 -0.075539045 1.0040001 1.6223184e-38
-0.10963333 -0.075313337 1.001 1.5485619e-38
-0.10708096 -0.074861906 0.99500006 1.5301228e-38
-0.10486858 -0.074636191 0.99200004 1.5023909e-38
-0.10246 -0.074260004 0.98700005 1.5023909e-38
-0.10027429 -0.074034289 0.98400003 1.5115389e-38
-0.098399997 -0.074034289 0.98400003 1.5391976e-38
-0.096231431 -0.073808581 0.98100007 1.5391963e-38
-0.094362862 -0.073808581 0.98100007 1.6129528e-38
-0.09277714 -0.074034289 0.98400003 1.67749e-38
-0.090902865 -0.074034289 0.98400003 1.6682705e-38
-0.089028575 -0.074034289 0.98400003 1.6590869e-38
-0.087154284 -0.074034289 0.98400003 1.6590869e-38
-0.18142001 -0.072379999 0.98700005 1.5576027e-38
-0.17954001 -0.072379999 0.98700005 1.5485253e-38
-0.17802 -0.072526664 0.98900002 1.6130623e-38
-0.17667049 -0.072746672 0.99200004 1.6130988e-38
-0.17530954 -0.072966672 0.99500006 1.6499771e-38
-0.17341429 -0.072966672 0.99500006 1.6407935e-38
-0.17151906 -0.072966672 0.99500006 1.6868914e-38
-0.17064667 -0.073406667 1.001 1.6868914e-38
-0.16874 -0.073406667 1.001 1.7237696e-38
-0.16733335 -0.073626675 1.0040001 1.71455e-38
-0.16542096 -0.073626675 1.0040001 1.7514283e-38
-0.16350858 -0.073626675 1.0040001 1.7514286e-38
-0.16159619 -0.073626675 1.0040001 1.7790873e-38
-0.15968382 -0.073626675 1.0040001 1.7699037e-38
-0.15777142 -0.073626675 1.0040001 1.7883428e-38
-0.15585905 -0.073626675 1.0040001 1.7883782e-38
-0.15394668 -0.073626675 1.0040001 1.7883782e-38
-0.15248857 -0.073846675 1.0070001 1.7883784e-38
-0.15057048 -0.073846675 1.0070001 1.7883784e-38
-0.14909524 -0.074066661 1.01 1.7883784e-38
-0.14760856 -0.074286662 1.013 1.797598e-38
-0.14567904 -0.074286662 1.013 1.7791238e-38
-0.14374952 -0.074286662 1.013 1.8160021e-38
-0.14182 -0.074286662 1.013 1.7884861e-38
-0.13989046 -0.074286662 1.013 1.7884861e-38
-0.13796096 -0.074286662 1.013 1.7792665e-38
-0.13603143 -0.074286662 1.013 1.7608274e-38
-0.13410191 -0.074286662 1.013 1.7791589e-38
-0.13178095 -0.074066661 1.01 1.7699393e-38
-0.12985715 -0.074066661 1.01 1.7607195e-38
-0.12793334 -0.074066661 1.01 1.7330608e-38
-0.12563524 -0.073846675 1.0070001 1.7146219e-38
-0.12371716 -0.073846675 1.0070001 1.7146219e-38
-0.12179905 -0.073846675 1.0070001 1.6868914e-38
-0.11988096 -0.073846675 1.0070001 1.6592327e-38
-0.11796286 -0.073846675 1.0070001 1.6499771e-38
-0.11604477 -0.073846675 1.0070001 1.6407575e-38
-0.11378667 -0.073626675 1.0040001 1.5945878e-38
-0.1118743 -0.073626675 1.0040001 1.5853683e-38
-0.10996191 -0.073626675 1.0040001 1.5945868e-38
-0.10740381 -0.073186666 0.99800003 1.5945868e-38
-0.10518572 -0.072966672 0.99500006 1.6960711e-38
-0.10214858 -0.072160006 0.98400003 1.7606081e-38
-0.10027429 -0.072160006 0.98400003 1.705185e-38
-0.098399997 -0.072160006 0.98400003 1.5945503e-38
-0.096231431 -0.071940005 0.98100007 1.5945152e-38
-0.094362862 -0.071940005 0.98100007 1.6682717e-38
-0.09277714 -0.072160006 0.98400003 1.6683421e-38
-0.090902865 -0.072160006 0.98400003 1.649903e-38
-0.18142001 -0.070500001 0.98700005 1.5575301e-38
-0.17954001 -0.070500001 0.98700005 1.5484534e-38
-0.17802 -0.070642859 0.98900002 1.6222099e-38
-0.17667049 -0.070857145 0.99200004 1.6038437e-38
-0.17530954 -0.071071438 0.99500006 1.6499415e-38
-0.17341429 -0.071071438 0.99500006 1.6407935e-38
-0.17151906 -0.071071438 0.99500006 1.6868914e-38
-0.17064667 -0.071500003 1.001 1.6777437e-38
-0.16874 -0.071500003 1.001 1.7054024e-38
-0.16733335 -0.071714289 1.0040001 1.71455e-38
-0.16542096 -0.071714289 1.0040001 1.7422087e-38
-0.16350858 -0.071714289 1.0040001 1.742209e-38
-0.16159619 -0.071714289 1.0040001 1.7698677e-38
-0.15968382 -0.071714289 1.0040001 1.7791589e-38
-0.15777142 -0.071714289 1.0040001 1.7883784e-38
-0.15632477 -0.071928583 1.0070001 1.7883782e-38
-0.15440668 -0.071928583 1.0070001 1.7883782e-38
-0.15248857 -0.071928583 1.0070001 1.7883782e-38
-0.15057048 -0.071928583 1.0070001 1.7975977e-38
-0.1495381 -0.07235714 1.013 1.7975977e-38
-0.14760856 -0.07235714 1.013 1.7975977e-38
-0.14567904 -0.07235714 1.013 1.7699037e-38
-0.14417525 -0.072571434 1.016 1.806782e-38
-0.14224 -0.072571434 1.016 1.7884505e-38
-0.14030477 -0.072571434 1.016 1.7792309e-38
-0.13836953 -0.072571434 1.016 1.7883782e-38
-0.1364343 -0.072571434 1.016 1.7883782e-38
-0.13410191 -0.07235714 1.013 1.7791233e-38
-0.13217239 -0.07235714 1.013 1.7699037e-38
-0.13024285 -0.07235714 1.013 1.7514999e-38
-0.12793334 -0.072142854 1.01 1.7514999e-38
-0.12563524 -0.071928583 1.0070001 1.7146217e-38
-0.12371716 -0.071928583 1.0070001 1.6961825e-38
-0.12179905 -0.071928583 1.0070001 1.6776352e-38
-0.11988096 -0.071928583 1.0070001 1.6684157e-38
-0.11796286 -0.071928583 1.0070001 1.6591235e-38
-0.11604477 -0.071928583 1.0070001 1.6406844e-38
-0.11412667 -0.071928583 1.0070001 1.5853307e-38
-0.1118743 -0.071714289 1.0040001 1.6037698e-38
-0.10963333 -0.071500003 1.001 1.6221739e-38
-0.10740381 -0.07128571 0.99800003 1.6682717e-38
-0.10518572 -0.071071438 0.99500006 1.7972384e-38
-0.10214858 -0.070285715 0.98400003 1.7603602e-38
-0.10027429 -0.070285715 0.98400003 1.6959652e-38
-0.098399997 -0.070285715 0.98400003 1.5853304e-38
-0.096525721 -0.070285715 0.98400003 1.5761109e-38
-0.18044953 -0.068967618 0.99200004 1.5668931e-38
-0.17856 -0.068967618 0.99200004 1.6037714e-38
-0.17667049 -0.068967618 0.99200004 1.6038077e-38
-0.17530954 -0.06917619 0.99500006 1.6683446e-38
-0.17341429 -0.06917619 0.99500006 1.6591967e-38
-0.17151906 -0.06917619 0.99500006 1.6960749e-38
-0.17064667 -0.06959334 1.001 1.6776718e-38
-0.16874 -0.06959334 1.001 1.7237696e-38
-0.16733335 -0.069801912 1.0040001 1.7145856e-38
-0.16542096 -0.069801912 1.0040001 1.7330248e-38
-0.16350858 -0.069801912 1.0040001 1.7422087e-38
-0.16159619 -0.069801912 1.0040001 1.7422087e-38
-0.15968382 -0.069801912 1.0040001 1.7606835e-38
-0.15777142 -0.069801912 1.0040001 1.7883421e-38
-0.15632477 -0.070010483 1.0070001 1.7791586e-38
-0.15440668 -0.070010483 1.0070001 1.7791586e-38
-0.15248857 -0.070010483 1.0070001 1.7791586e-38
-0.15101904 -0.07021904 1.01 1.7883782e-38
-0.1495381 -0.070427619 1.013 1.7975977e-38
-0.14760856 -0.070427619 1.013 1.7975977e-38
-0.14611048 -0.07063619 1.016 1.7700119e-38
-0.14417525 -0.07063619 1.016 1.7976706e-38
-0.14224 -0.07063619 1.016 1.7700116e-38
-0.14030477 -0.07063619 1.016 1.7515725e-38
-0.13836953 -0.07063619 1.016 1.7607195e-38
-0.1364343 -0.07063619 1.016 1.7791586e-38
-0.13410191 -0.070427619 1.013 1.7513933e-38
-0.13217239 -0.070427619 1.013 1.7421737e-38
-0.13024285 -0.070427619 1.013 1.7422443e-38
-0.12793334 -0.07021904 1.01 1.7330248e-38
-0.12563524 -0.070010483 1.0070001 1.686963e-38
-0.12371716 -0.070010483 1.0070001 1.6685238e-38
-0.12179905 -0.070010483 1.0070001 1.6961099e-38
-0.11988096 -0.070010483 1.0070001 1.7053295e-38
-0.11796286 -0.070010483 1.0070001 1.7421349e-38
-0.11604477 -0.070010483 1.0070001 1.7790131e-38
-0.11378667 -0.069801912 1.0040001 1.8158914e-38
-0.10507714 -0.065560959 0.94300002 1.8619892e-38
-0.10328095 -0.065560959 0.94300002 1.8436958e-38
-0.10772667 -0.06959334 1.001 1.8713545e-38
-0.10550286 -0.069384769 0.99800003 1.7422829e-38
-0.10360191 -0.069384769 0.99800003 1.4380373e-38
-0.10170095 -0.069384769 0.99800003 1.2352767e-38
-0.18099526 -0.067280956 0.99500006 1.6406131e-38
-0.17910001 -0.067280956 0.99500006 1.6221739e-38
-0.17720477 -0.067280956 0.99500006 1.5945528e-38
-0.17530954 -0.067280956 0.99500006 1.6590897e-38
-0.17393714 -0.067483813 0.99800003 1.6315377e-38
-0.17203619 -0.067483813 0.99800003 1.6776355e-38
-0.17064667 -0.06768667 1.001 1.6592327e-38
-0.16874 -0.06768667 1.001 1.71455e-38
-0.16733335 -0.067889526 1.0040001 1.7146219e-38
-0.16542096 -0.067889526 1.0040001 1.7238415e-38
-0.16399716 -0.068092391 1.0070001 1.742245e-38
-0.16207907 -0.068092391 1.0070001 1.7330255e-38
-0.16016097 -0.068092391 1.0070001 1.7238052e-38
-0.15824287 -0.068092391 1.0070001 1.769903e-38
-0.15632477 -0.068092391 1.0070001 1.7514639e-38
-0.15440668 -0.068092391 1.0070001 1.7791226e-38
-0.15294285 -0.068295233 1.01 1.7791586e-38
-0.15101904 -0.068295233 1.01 1.7975977e-38
-0.1495381 -0.068498097 1.013 1.7883782e-38
-0.14760856 -0.068498097 1.013 1.7883782e-38
-0.14611048 -0.068700954 1.016 1.7791233e-38
-0.14417525 -0.068700954 1.016 1.7791233e-38
-0.14266001 -0.068903819 1.0190001 1.7607195e-38
-0.14030477 -0.068700954 1.016 1.7514999e-38
-0.13836953 -0.068700954 1.016 1.7514999e-38
-0.1364343 -0.068700954 1.016 1.7514999e-38
-0.12351143 -0.063088574 0.93300003 1.7329529e-38
-0.12173429 -0.063088574 0.93300003 1.7421724e-38
-0.11995714 -0.063088574 0.93300003 1.7145135e-38
-0.1178 -0.062885717 0.93000007 1.723733e-38
-0.11602858 -0.062885717 0.93000007 1.6961462e-38
-0.11462571 -0.063088574 0.93300003 1.6961462e-38
-0.11284857 -0.063088574 0.93300003 1.7053305e-38
-0.11130953 -0.063223809 0.93500006 1.7329892e-38
-0.10988 -0.063426666 0.93800002 1.7973116e-38
-0.10809334 -0.063426666 0.93800002 1.8249703e-38
-0.10630666 -0.063426666 0.93800002 1.8987959e-38
-0.10507714 -0.063764766 0.94300002 1.9264545e-38
-0.10328095 -0.063764766 0.94300002 1.8529874e-38
-0.10148477 -0.063764766 0.94300002 1.7884505e-38
-0.099688575 -0.063764766 0.94300002 1.5860169e-38
-0.09872286 -0.064305715 0.95100003 1.30943e-38
-0.18099526 -0.065385722 0.99500006 1.6958936e-38
-0.17910001 -0.065385722 0.99500006 1.751211e-38
-0.17720477 -0.065385722 0.99500006 1.7328453e-38
-0.1758381 -0.065582857 0.99800003 1.7512844e-38
-0.16348 -0.061639998 0.93800002 1.7329166e-38
-0.16169333 -0.061639998 0.93800002 1.7144775e-38
-0.15990667 -0.061639998 0.93800002 1.6868553e-38
-0.15812001 -0.061639998 0.93800002 1.7052945e-38
-0.15633334 -0.061639998 0.93800002 1.6960759e-38
-0.15454666 -0.061639998 0.93800002 1.7237346e-38
-0.15276001 -0.061639998 0.93800002 1.7237343e-38
-0.15097333 -0.061639998 0.93800002 1.7237343e-38
-0.15968382 -0.065977141 1.0040001 1.6961109e-38
-0.15777142 -0.065977141 1.0040001 1.7606479e-38
-0.15585905 -0.065977141 1.0040001 1.7330611e-38
-0.15394668 -0.065977141 1.0040001 1.7330611e-38
-0.15294285 -0.066371433 1.01 1.7422087e-38
-0.15101904 -0.066371433 1.01 1.7698674e-38
-0.1495381 -0.066568576 1.013 1.7698311e-38
-0.14760856 -0.066568576 1.013 1.7698311e-38
-0.14654191 -0.066962861 1.0190001 1.7606479e-38
-0.14460096 -0.066962861 1.0190001 1.7975261e-38
-0.1302 -0.061114289 0.93000007 1.7975614e-38
-0.12842858 -0.061114289 0.93000007 1.806781e-38
-0.12665714 -0.061114289 0.93000007 1.8251485e-38
-0.1364343 -0.066765718 1.016 1.8435876e-38
-0.12351143 -0.061311428 0.93300003 1.871317e-38
-0.12173429 -0.061311428 0.93300003 1.8897561e-38
-0.11995714 -0.061311428 0.93300003 1.917416e-38
-0.1178 -0.061114289 0.93000007 1.9358552e-38
-0.11602858 -0.061114289 0.93000007 1.9542943e-38
-0.11462571 -0.061311428 0.93300003 1.981953e-38
-0.11284857 -0.061311428 0.93300003 1.9175612e-38
-0.11130953 -0.061442863 0.93500006 1.9083416e-38
-0.10988 -0.061639998 0.93800002 1.7054787e-38
-0.10809334 -0.061639998 0.93800002 1.6317222e-38
-0.10630666 -0.061639998 0.93800002 1.7054724e-38
-0.10507714 -0.061968572 0.94300002 1.7792289e-38
-0.10328095 -0.061968572 0.94300002 1.6226065e-38
-0.10148477 -0.061968572 0.94300002 1.2353849e-38
-0.10053429 -0.062494289 0.95100003 1.263365e-38
-0.09872286 -0.062494289 0.95100003 1.3739998e-38
-0.097217143 -0.062691435 0.95400006 1.2353501e-38
-0.18099526 -0.063490473 0.99500006 1.5668575e-38
-0.17910001 -0.063490473 0.99500006 1.6867119e-38
-0.17720477 -0.063490473 0.99500006 1.6868188e-38
-0.16526666 -0.059853334 0.93800002 1.7605753e-38
-0.16348 -0.059853334 0.93800002 1.7513907e-38
-0.16169333 -0.059853334 0.93800002 1.7421712e-38
-0.15990667 -0.059853334 0.93800002 1.7329169e-38
-0.15812001 -0.059853334 0.93800002 1.7329169e-38
-0.15583335 -0.05966191 0.93500006 1.7052238e-38
-0.15405238 -0.05966191 0.93500006 1.7328825e-38
-0.15227143 -0.05966191 0.93500006 1.7237336e-38
-0.15049049 -0.05966191 0.93500006 1.7421727e-38
-0.14870952 -0.05966191 0.93500006 1.714515e-38
-0.14582857 -0.05921524 0.92800003 1.7513933e-38
-0.14406095 -0.05921524 0.92800003 1.742245e-38
-0.15394668 -0.064064763 1.0040001 1.742245e-38
-0.15248857 -0.064256199 1.0070001 1.7697598e-38
-0.15057048 -0.064256199 1.0070001 1.8066381e-38
-0.13728572 -0.059342861 0.93000007 1.815822e-38
-0.13551429 -0.059342861 0.93000007 1.8342612e-38
-0.14654191 -0.06502191 1.0190001 1.8434813e-38
-0.13197143 -0.059342861 0.93000007 1.8987987e-38
-0.1302 -0.059342861 0.93000007 1.9357132e-38
-0.12842858 -0.059342861 0.93000007 1.9357132e-38
-0.12665714 -0.059342861 0.93000007 1.9449675e-38
-0.12528858 -0.059534285 0.93300003 1.9541871e-38
-0.12351143 -0.059534285 0.93300003 1.9542587e-38
-0.12173429 -0.059534285 0.93300003 1.9911369e-38
-0.11995714 -0.059534285 0.93300003 2.0187603e-38
-0.11818001 -0.059534285 0.93300003 1.9634429e-38
-0.11640286 -0.059534285 0.93300003 1.9728032e-38
-0.11487143 -0.05966191 0.93500006 1.9820228e-38
-0.11345333 -0.059853334 0.93800002 1.8900107e-38
-0.11166666 -0.059853334 0.93800002 1.7885955e-38
-0.10988 -0.059853334 0.93800002 1.4114216e-38
-0.10832381 -0.059980955 0.94000006 1.254689e-38
-0.10653334 -0.059980955 0.94000006 1.4751654e-38
-0.10507714 -0.060172379 0.94300002 1.6411175e-38
-0.10328095 -0.060172379 0.94300002 1.4202796e-38
-0.10180762 -0.060363814 0.94600004 1.033058e-38
-0.10053429 -0.060682859 0.95100003 1.1804613e-38
-0.099034294 -0.060874287 0.95400006 1.3371938e-38
-0.097217143 -0.060874287 0.95400006 1.3734618e-38
-0.095400006 -0.060874287 0.95400006 1.2351684e-38
-0.17786287 -0.05868572 0.94800007 7.3727637e-39
-0.17605716 -0.05868572 0.94800007 7.2805064e-39
-0.17388381 -0.058561906 0.94600004 1.0968332e-38
-0.1720819 -0.058561906 0.94600004 1.0877286e-38
-0.16974001 -0.058376193 0.94300002 1.0047526e-38
-0.16740954 -0.058190476 0.94000006 9.4979702e-39
-0.16526666 -0.058066666 0.93800002 1.2356035e-38
-0.16348 -0.058066666 0.93800002 1.474912e-38
-0.1611762 -0.057880957 0.93500006 1.686962e-38
-0.15939525 -0.057880957 0.93500006 1.7513907e-38
-0.15761429 -0.057880957 0.93500006 1.8251472e-38
-0.15583335 -0.057880957 0.93500006 1.8251851e-38
-0.15405238 -0.057880957 0.93500006 1.8805025e-38
-0.15227143 -0.057880957 0.93500006 1.8529507e-38
-0.14936382 -0.057447623 0.92800003 1.9451463e-38
-0.14759618 -0.057447623 0.92800003 1.9359287e-38
-0.14582857 -0.057447623 0.92800003 1.972807e-38
-0.14406095 -0.057447623 0.92800003 1.9728423e-38
-0.14260001 -0.057571433 0.93000007 2.0281597e-38
-0.14082858 -0.057571433 0.93000007 2.000501e-38
-0.13950571 -0.057757143 0.93300003 2.0465988e-38
-0.13728572 -0.057571433 0.93000007 2.0557828e-38
-0.13551429 -0.057571433 0.93000007 2.1111001e-38
-0.13374287 -0.057571433 0.93000007 2.1019522e-38
-0.13197143 -0.057571433 0.93000007 2.1296109e-38
-0.1302 -0.057571433 0.93000007 2.0005748e-38
-0.12842858 -0.057571433 0.93000007 1.9452574e-38
-0.12665714 -0.057571433 0.93000007 1.871536e-38
-0.12488572 -0.057571433 0.93000007 1.8807555e-38
-0.12351143 -0.057757143 0.93300003 1.9267092e-38
-0.12173429 -0.057757143 0.93300003 1.9820265e-38
-0.11995714 -0.057757143 0.93300003 1.8621372e-38
-0.11818001 -0.057757143 0.93300003 1.5302329e-38
-0.11640286 -0.057757143 0.93300003 1.5578881e-38
-0.11524001 -0.058066666 0.93800002 1.8529141e-38
-0.11345333 -0.058066666 0.93800002 1.8805738e-38
-0.11166666 -0.058066666 0.93800002 1.7054021e-38
-0.11011429 -0.058190476 0.94000006 1.4665167e-38
-0.10832381 -0.058190476 0.94000006 1.2821255e-38
-0.10653334 -0.058190476 0.94000006 1.4295017e-38
-0.10507714 -0.058376193 0.94300002 1.5401365e-38
-0.10328095 -0.058376193 0.94300002 1.3927639e-38
-0.10180762 -0.058561906 0.94600004 1.0977378e-38
-0.10053429 -0.058871429 0.95100003 1.1622751e-38
-0.099034294 -0.059057143 0.95400006 1.226812e-38
-0.097217143 -0.059057143 0.95400006 1.2170176e-38
-0.095400006 -0.059057143 0.95400006 1.1709198e-38
-0.093582861 -0.059057143 0.95400006 1.4563998e-38
-0.17786287 -0.056880001 0.94800007 7.74047e-39
-0.17568572 -0.056760002 0.94600004 6.3578144e-39
-0.17388381 -0.056760002 0.94600004 9.4002576e-39
-0.1720819 -0.056760002 0.94600004 9.2227972e-39
-0.16974001 -0.05658 0.94300002 5.9037545e-39
-0.16740954 -0.056400005 0.94000006 1.1318386e-39
-0.16526666 -0.056280002 0.93800002 7.7699239e-39
-0.16295715 -0.056100003 0.93500006 1.3184676e-38
-0.1611762 -0.056100003 0.93500006 1.5120784e-38
-0.15939525 -0.056100003 0.93500006 1.567143e-38
-0.15761429 -0.056100003 0.93500006 1.6869973e-38
-0.15550001 -0.055980001 0.93300003 1.6963283e-38
-0.15372287 -0.055980001 0.93300003 1.7793043e-38
-0.15194571 -0.055980001 0.93300003 1.7608987e-38
-0.14936382 -0.055679999 0.92800003 1.7977769e-38
-0.14759618 -0.055679999 0.92800003 1.889936e-38
-0.14582857 -0.055679999 0.92800003 1.9913512e-38
-0.14406095 -0.055679999 0.92800003 1.9821342e-38
-0.14260001 -0.055800002 0.93000007 1.9821342e-38
-0.14082858 -0.055800002 0.93000007 1.9728783e-38
-0.13950571 -0.055980001 0.93300003 1.9175609e-38
-0.13728572 -0.055800002 0.93000007 1.8992277e-38
-0.13551429 -0.055800002 0.93000007 1.9729842e-38
-0.13374287 -0.055800002 0.93000007 1.9453997e-38
-0.13239715 -0.055980001 0.93300003 1.917741e-38
-0.13062 -0.055980001 0.93300003 1.7888123e-38
-0.12842858 -0.055800002 0.93000007 1.6228601e-38
-0.12665714 -0.055800002 0.93000007 1.6321851e-38
-0.12488572 -0.055800002 0.93000007 1.7889177e-38
-0.12351143 -0.055980001 0.93300003 1.8531334e-38
-0.12173429 -0.055980001 0.93300003 1.8070356e-38
-0.11995714 -0.055980001 0.93300003 1.7423905e-38
-0.11843334 -0.056100003 0.93500006 1.1892167e-38
-0.11665238 -0.056100003 0.93500006 1.290409e-38
-0.11524001 -0.056280002 0.93800002 1.6499719e-38
-0.11345333 -0.056280002 0.93800002 1.9999587e-38
-0.11166666 -0.056280002 0.93800002 1.9169826e-38
-0.11011429 -0.056400005 0.94000006 1.6779958e-38
-0.10832381 -0.056400005 0.94000006 1.6411175e-38
-0.10653334 -0.056400005 0.94000006 1.5772292e-38
-0.10507714 -0.05658 0.94300002 1.3467402e-38
-0.10360952 -0.056760002 0.94600004 1.2822746e-38
-0.10202286 -0.056880001 0.94800007 1.0794442e-38
-0.10053429 -0.05706 0.95100003 1.0427091e-38
-0.099034294 -0.057240006 0.95400006 1.0888069e-38
-0.097217143 -0.057240006 0.95400006 1.0789377e-38
-0.095400006 -0.057240006 0.95400006 1.1711334e-38
-0.093582861 -0.057240006 0.95400006 1.4747676e-38
-0.091765717 -0.057240006 0.95400006 1.5761828e-38
-0.17966858 -0.055074289 0.94800007 1.3457312e-38
-0.17786287 -0.055074289 0.94800007 7.8333789e-39
-0.17568572 -0.054958098 0.94600004 6.0869925e-39
-0.17388381 -0.054958098 0.94600004 7.6543182e-39
-0.1720819 -0.054958098 0.94600004 8.1171937e-39
-0.1692 -0.054609526 0.94000006 9.5001282e-39
-0.16740954 -0.054609526 0.94000006 9.133456e-39
-0.16526666 -0.054493334 0.93800002 1.2175912e-38
-0.16295715 -0.05431905 0.93500006 1.4289957e-38
-0.16083142 -0.054202858 0.93300003 1.4382153e-38
-0.15905429 -0.054202858 0.93300003 1.3554155e-38
-0.15727715 -0.054202858 0.93300003 1.3830742e-38
-0.15550001 -0.054202858 0.93300003 1.4474348e-38
-0.15372287 -0.054202858 0.93300003 1.3552392e-38
-0.15194571 -0.054202858 0.93300003 1.2170514e-38
-0.14968573 -0.054028574 0.93000007 1.0603188e-38
-0.14791429 -0.054028574 0.93000007 1.4012612e-38
-0.14614287 -0.054028574 0.93000007 1.8345807e-38
-0.14437144 -0.054028574 0.93000007 1.880718e-38
-0.14260001 -0.054028574 0.93000007 1.7424245e-38
-0.14082858 -0.054028574 0.93000007 1.3097219e-38
-0.13950571 -0.054202858 0.93300003 8.8562203e-39
-0.13772857 -0.054202858 0.93300003 9.5948545e-39
-0.13595143 -0.054202858 0.93300003 1.5864157e-38
-0.13417429 -0.054202858 0.93300003 1.8622438e-38
-0.13239715 -0.054202858 0.93300003 1.9452199e-38
-0.13062 -0.054202858 0.93300003 1.8347631e-38
-0.12884286 -0.054202858 0.93300003 1.5673958e-38
-0.12706572 -0.054202858 0.93300003 1.6873933e-38
-0.12528858 -0.054202858 0.93300003 2.0285171e-38
-0.12351143 -0.054202858 0.93300003 2.0374152e-38
-0.12173429 -0.054202858 0.93300003 1.7423892e-38
-0.12021429 -0.05431905 0.93500006 1.4844228e-38
-0.11843334 -0.05431905 0.93500006 1.1156403e-38
-0.11665238 -0.05431905 0.93500006 1.1340753e-38
-0.11524001 -0.054493334 0.93800002 1.2170514e-38
-0.11369524 -0.054609526 0.94000006 1.6130934e-38
-0.11190477 -0.054609526 0.94000006 1.9634368e-38
-0.11011429 -0.054609526 0.94000006 1.8991231e-38
-0.10866953 -0.05478381 0.94300002 1.8991231e-38
-0.10687333 -0.05478381 0.94300002 1.6232189e-38
-0.10541143 -0.054958098 0.94600004 1.2728755e-38
-0.10360952 -0.054958098 0.94600004 1.0890976e-38
-0.10202286 -0.055074289 0.94800007 9.9690194e-39
-0.10085143 -0.055422861 0.95400006 1.134725e-38
-0.099034294 -0.055422861 0.95400006 1.1900424e-38
-0.097217143 -0.055422861 0.95400006 1.1803529e-38
-0.095400006 -0.055422861 0.95400006 1.1711334e-38
-0.093582861 -0.055422861 0.95400006 1.4748757e-38
-0.091765717 -0.055422861 0.95400006 1.5670714e-38
-0.08994858 -0.055422861 0.95400006 1.5943335e-38
-0.17966858 -0.053268574 0.94800007 1.2998136e-38
-0.17786287 -0.053268574 0.94800007 7.7429854e-39
-0.17605716 -0.053268574 0.94800007 4.7955376e-39
-0.17388381 -0.053156193 0.94600004 5.440907e-39
-0.1720819 -0.053156193 0.94600004 8.9422124e-39
-0.1692 -0.052819051 0.94000006 1.1892473e-38
-0.16740954 -0.052819051 0.94000006 1.2445681e-38
-0.16526666 -0.05270667 0.93800002 1.5395942e-38
-0.16295715 -0.052538101 0.93500006 1.4753819e-38
-0.16083142 -0.052425716 0.93300003 1.3002102e-38
-0.15905429 -0.052425716 0.93300003 1.2265224e-38
-0.15727715 -0.052425716 0.93300003 1.254181e-38
-0.15550001 -0.052425716 0.93300003 1.4935682e-38
-0.15372287 -0.052425716 0.93300003 1.4105922e-38
-0.15194571 -0.052425716 0.93300003 1.2079413e-38
-0.14968573 -0.052257147 0.93000007 1.1526239e-38
-0.14791429 -0.052257147 0.93000007 1.5116818e-38
-0.14614287 -0.052257147 0.93000007 1.9542209e-38
-0.14437144 -0.052257147 0.93000007 1.89923e-38
-0.14260001 -0.052257147 0.93000007 1.5673257e-38
-0.14082858 -0.052257147 0.93000007 1.0985675e-38
-0.13950571 -0.052425716 0.93300003 5.5461333e-39
-0.13772857 -0.052425716 0.93300003 7.7598696e-39
-0.13595143 -0.052425716 0.93300003 1.2738434e-38
-0.13417429 -0.052425716 0.93300003 1.9358161e-38
-0.13239715 -0.052425716 0.93300003 2.0648899e-38
-0.13062 -0.052425716 0.93300003 1.9545824e-38
-0.12884286 -0.052425716 0.93300003 1.8255085e-38
-0.12706572 -0.052425716 0.93300003 1.7979242e-38
-0.12528858 -0.052425716 0.93300003 2.0284133e-38
-0.12351143 -0.052425716 0.93300003 2.0557828e-38
-0.12173429 -0.052425716 0.93300003 1.5302677e-38
-0.12021429 -0.052538101 0.93500006 1.2999587e-38
-0.11843334 -0.052538101 0.93500006 1.2169826e-38
-0.11702667 -0.05270667 0.93800002 1.1433687e-38
-0.11524001 -0.05270667 0.93800002 1.0788318e-38
-0.11369524 -0.052819051 0.94000006 1.2259449e-38
-0.11190477 -0.052819051 0.94000006 1.6777035e-38
-0.11011429 -0.052819051 0.94000006 1.8713542e-38
-0.10866953 -0.05298762 0.94300002 1.8805738e-38
-0.10687333 -0.05298762 0.94300002 1.5863779e-38
-0.10541143 -0.053156193 0.94600004 1.1714976e-38
-0.10360952 -0.053156193 0.94600004 9.6960255e-39
-0.10202286 -0.053268574 0.94800007 9.6960255e-39
-0.10085143 -0.053605717 0.95400006 1.1898982e-38
-0.099034294 -0.053605717 0.95400006 1.235996e-38
-0.097217143 -0.053605717 0.95400006 1.2171233e-38
-0.095400006 -0.053605717 0.95400006 1.2079037e-38
-0.093582861 -0.053605717 0.95400006 1.4840234e-38
-0.091765717 -0.053605717 0.95400006 1.5669995e-38
-0.17842571 -0.051625714 0.95100003 9.5854616e-39
-0.17605716 -0.051462859 0.94800007 5.1644e-39
-0.17388381 -0.051354285 0.94600004 4.0580525e-39
-0.1720819 -0.051354285 0.94600004 5.3459144e-39
-0.16974001 -0.051191427 0.94300002 1.1799608e-38
-0.16740954 -0.051028572 0.94000006 1.3641013e-38
-0.16526666 -0.050919998 0.93800002 1.6130295e-38
-0.16295715 -0.050757144 0.93500006 1.4569411e-38
-0.1611762 -0.050757144 0.93500006 1.2080129e-38
-0.15939525 -0.050757144 0.93500006 1.0611848e-38
-0.15761429 -0.050757144 0.93500006 1.0704044e-38
-0.15550001 -0.05064857 0.93300003 1.2636562e-38
-0.15372287 -0.05064857 0.93300003 1.5955605e-38
-0.15194571 -0.05064857 0.93300003 1.7148384e-38
-0.14968573 -0.050485715 0.93000007 1.8070341e-38
-0.14791429 -0.050485715 0.93000007 1.8623167e-38
-0.14614287 -0.050485715 0.93000007 1.8991949e-38
-0.14437144 -0.050485715 0.93000007 1.5957034e-38
-0.14260001 -0.050485715 0.93000007 1.0609687e-38
-0.14082858 -0.050485715 0.93000007 7.3068452e-39
-0.13950571 -0.05064857 0.93300003 7.0302583e-39
-0.13772857 -0.05064857 0.93300003 8.2248555e-39
-0.13595143 -0.05064857 0.93300003 8.2248555e-39
-0.13417429 -0.05064857 0.93300003 1.3652407e-38
-0.13239715 -0.05064857 0.93300003 1.6694863e-38
-0.13062 -0.05064857 0.93300003 1.936107e-38
-0.12884286 -0.05064857 0.93300003 2.166596e-38
-0.12706572 -0.05064857 0.93300003 2.1480853e-38
-0.12528858 -0.05064857 0.93300003 1.8622789e-38
-0.1237762 -0.050757144 0.93500006 1.6224996e-38
-0.12199524 -0.050757144 0.93500006 1.2076193e-38
-0.12021429 -0.050757144 0.93500006 1.1802473e-38
-0.11881334 -0.050919998 0.93800002 1.2540038e-38
-0.11702667 -0.050919998 0.93800002 1.2355296e-38
-0.11548572 -0.051028572 0.94000006 1.1709927e-38
-0.11369524 -0.051028572 0.94000006 1.1339697e-38
-0.11190477 -0.051028572 0.94000006 1.2999218e-38
-0.11046572 -0.051191427 0.94300002 1.7057189e-38
-0.10866953 -0.051191427 0.94300002 1.8347928e-38
-0.10721334 -0.051354285 0.94600004 1.6139983e-38
-0.10563429 -0.051462859 0.94800007 1.199118e-38
-0.10382858 -0.051462859 0.94800007 9.6963912e-39
-0.10234572 -0.051625714 0.95100003 9.6041956e-39
-0.10085143 -0.051788572 0.95400006 1.2083385e-38
-0.099034294 -0.051788572 0.95400006 1.2913146e-38
-0.097217143 -0.051788572 0.95400006 1.3644565e-38
-0.095400006 -0.051788572 0.95400006 1.3552369e-38
-0.093582861 -0.051788572 0.95400006 1.493243e-38
-0.091765717 -0.051788572 0.95400006 1.576219e-38
-0.17605716 -0.049657144 0.94800007 7.8362628e-39
-0.17425145 -0.049657144 0.94800007 4.4250245e-39
-0.1720819 -0.049552381 0.94600004 6.1709149e-39
-0.16974001 -0.049395241 0.94300002 1.1702644e-38
-0.16794381 -0.049395241 0.94300002 1.3640988e-38
-0.16561906 -0.049238101 0.94000006 1.5116118e-38
-0.16348 -0.049133334 0.93800002 1.2361054e-38
-0.1611762 -0.048976194 0.93500006 1.0240555e-38
-0.15939525 -0.048976194 0.93500006 8.6822239e-39
-0.15761429 -0.048976194 0.93500006 8.9588108e-39
-0.15550001 -0.048871431 0.93300003 1.1164303e-38
-0.15372287 -0.048871431 0.93300003 1.3930172e-38
-0.15194571 -0.048871431 0.93300003 1.7241289e-38
-0.14968573 -0.048714291 0.93000007 1.9453984e-38
-0.14791429 -0.048714291 0.93000007 1.8902285e-38
-0.14614287 -0.048714291 0.93000007 1.6136416e-38
-0.14437144 -0.048714291 0.93000007 1.052831e-38
-0.14260001 -0.048714291 0.93000007 6.2873109e-39
-0.14082858 -0.048714291 0.93000007 5.4683402e-39
-0.13950571 -0.048871431 0.93300003 6.6668834e-39
-0.13772857 -0.048871431 0.93300003 6.4814202e-39
-0.13595143 -0.048871431 0.93300003 5.0062901e-39
-0.13417429 -0.048871431 0.93300003 6.5699584e-39
-0.13239715 -0.048871431 0.93300003 8.8748492e-39
-0.13062 -0.048871431 0.93300003 1.6872494e-38
-0.12884286 -0.048871431 0.93300003 2.1758862e-38
-0.12706572 -0.048871431 0.93300003 2.1940427e-38
-0.12528858 -0.048871431 0.93300003 1.6039907e-38
-0.1237762 -0.048976194 0.93500006 1.3368001e-38
-0.12199524 -0.048976194 0.93500006 1.2077262e-38
-0.1206 -0.049133334 0.93800002 1.2354214e-38
-0.11906667 -0.049238101 0.94000006 1.2722997e-38
-0.1172762 -0.049238101 0.94000006 1.2538608e-38
-0.11548572 -0.049238101 0.94000006 1.1985435e-38
-0.11405809 -0.049395241 0.94300002 9.8699673e-39
-0.11226191 -0.049395241 0.94300002 1.1806075e-38
-0.11046572 -0.049395241 0.94300002 1.466196e-38
-0.10866953 -0.049395241 0.94300002 1.7427828e-38
-0.10721334 -0.049552381 0.94600004 1.4575923e-38
-0.10563429 -0.049657144 0.94800007 1.1072489e-38
-0.10382858 -0.049657144 0.94800007 9.5123475e-39
-0.10234572 -0.049814284 0.95100003 9.5123475e-39
-0.10085143 -0.049971428 0.95400006 1.2359612e-38
-0.099034294 -0.049971428 0.95400006 1.282059e-38
-0.097217143 -0.049971428 0.95400006 1.4288453e-38
-0.095400006 -0.049971428 0.95400006 1.4841627e-38
-0.093582861 -0.049971428 0.95400006 1.5208657e-38
-0.091765717 -0.049971428 0.95400006 1.5577439e-38
-0.17661428 -0.048002861 0.95100003 9.3124873e-39
-0.17425145 -0.047851432 0.94800007 3.9651408e-39
-0.1720819 -0.047750477 0.94600004 3.7807271e-39
-0.16974001 -0.047599047 0.94300002 7.6529435e-39
-0.16794381 -0.047599047 0.94300002 1.2077922e-38
-0.16561906 -0.047447622 0.94000006 1.4198421e-38
-0.16348 -0.047346666 0.93800002 1.1900779e-38
-0.16169333 -0.047346666 0.93800002 1.0056867e-38
-0.15939525 -0.047195241 0.93500006 8.9581073e-39
-0.15761429 -0.047195241 0.93500006 9.6034767e-39
-0.15583335 -0.047195241 0.93500006 9.9697285e-39
-0.15372287 -0.047094285 0.93300003 1.0522902e-38
-0.15194571 -0.047094285 0.93300003 1.5397714e-38
-0.15016857 -0.047094285 0.93300003 1.9454322e-38
-0.14791429 -0.04694286 0.93000007 1.788847e-38
-0.14614287 -0.04694286 0.93000007 1.051282e-38
-0.14437144 -0.04694286 0.93000007 2.6175022e-39
-0.14260001 -0.04694286 0.93000007 3.7238498e-39
-0.14082858 -0.04694286 0.93000007 5.6541706e-39
-0.13950571 -0.047094285 0.93300003 6.3917357e-39
-0.13772857 -0.047094285 0.93300003 6.7569309e-39
-0.13595143 -0.047094285 0.93300003 6.5725396e-39
-0.13417429 -0.047094285 0.93300003 6.6632961e-39
-0.13239715 -0.047094285 0.93300003 5.5569486e-39
-0.13062 -0.047094285 0.93300003 1.0149463e-38
-0.12884286 -0.047094285 0.93300003 1.8908048e-38
-0.1273381 -0.047195241 0.93500006 2.0375237e-38
-0.12555715 -0.047195241 0.93500006 1.2354217e-38
-0.12417334 -0.047346666 0.93800002 1.0053652e-38
-0.12238666 -0.047346666 0.93800002 1.1805369e-38
-0.12085715 -0.047447622 0.94000006 1.2354943e-38
-0.11906667 -0.047447622 0.94000006 1.2354943e-38
-0.1172762 -0.047447622 0.94000006 1.2446413e-38
-0.11548572 -0.047447622 0.94000006 1.1616652e-38
-0.11405809 -0.047599047 0.94300002 1.1340065e-38
-0.11226191 -0.047599047 0.94300002 1.4474717e-38
-0.11046572 -0.047599047 0.94300002 1.6595551e-38
-0.10901524 -0.047750477 0.94600004 1.9177029e-38
-0.10744001 -0.047851432 0.94800007 1.7428914e-38
-0.10596858 -0.048002861 0.95100003 1.3003524e-38
-0.10415715 -0.048002861 0.95100003 9.6953066e-39
-0.10266858 -0.048154291 0.95400006 1.0432872e-38
-0.10085143 -0.048154291 0.95400006 1.2729111e-38
-0.099241905 -0.048255239 0.95600003 1.0700807e-38
-0.097420953 -0.048255239 0.95600003 1.1984294e-38
-0.095600002 -0.048255239 0.95600003 1.4842359e-38
-0.09377905 -0.048255239 0.95600003 1.5392329e-38
-0.17661428 -0.046191432 0.95100003 1.0236233e-38
-0.17480285 -0.046191432 0.95100003 4.1513215e-39
-0.17244571 -0.046045717 0.94800007 2.5875369e-39
-0.17028001 -0.045948572 0.94600004 6.7363304e-39
-0.1684781 -0.045948572 0.94600004 1.041951e-38
-0.16614762 -0.045802858 0.94300002 1.3646357e-38
-0.16382857 -0.045657143 0.94000006 1.1439461e-38
-0.16169333 -0.045560002 0.93800002 9.7799394e-39
-0.15990667 -0.045560002 0.93800002 8.7737034e-39
-0.15812001 -0.045560002 0.93800002 9.7878554e-39
-0.15583335 -0.045414288 0.93500006 9.143565e-39
-0.15405238 -0.045414288 0.93500006 9.3279562e-39
-0.15194571 -0.045317143 0.93300003 1.2637263e-38
-0.15016857 -0.045317143 0.93300003 1.8076805e-38
-0.14839143 -0.045317143 0.93300003 1.6418403e-38
-0.1466143 -0.045317143 0.93300003 8.1207965e-39
-0.14437144 -0.045171432 0.93000007 1.4218219e-39
-0.14260001 -0.045171432 0.93000007 3.9111039e-39
-0.14082858 -0.045171432 0.93000007 6.482139e-39
-0.13950571 -0.045317143 0.93300003 6.7587259e-39
-0.13772857 -0.045317143 0.93300003 7.0331548e-39
-0.13595143 -0.045317143 0.93300003 7.2175461e-39
-0.13417429 -0.045317143 0.93300003 5.7460159e-39
-0.13239715 -0.045317143 0.93300003 3.3489296e-39
-0.13090001 -0.045414288 0.93500006 7.5787252e-39
-0.12911905 -0.045414288 0.93500006 1.6982679e-38
-0.1273381 -0.045414288 0.93500006 1.9456177e-38
-0.12596001 -0.045560002 0.93800002 1.2080527e-38
-0.12417334 -0.045560002 0.93800002 1.1247867e-38
-0.12264763 -0.045657143 0.94000006 1.2262019e-38
-0.12085715 -0.045657143 0.94000006 1.2262022e-38
-0.11906667 -0.045657143 0.94000006 1.2446413e-38
-0.1172762 -0.045657143 0.94000006 1.2170176e-38
-0.11548572 -0.045657143 0.94000006 1.1340416e-38
-0.11405809 -0.045802858 0.94300002 1.1523735e-38
-0.11226191 -0.045802858 0.94300002 1.6133516e-38
-0.11081714 -0.045948572 0.94600004 1.7881283e-38
-0.10901524 -0.045948572 0.94600004 1.9172022e-38
-0.10778 -0.046191432 0.95100003 1.7428574e-38
-0.10596858 -0.046191432 0.95100003 1.4754901e-38
-0.10415715 -0.046191432 0.95100003 1.1627837e-38
-0.10266858 -0.046337146 0.95400006 1.199662e-38
-0.10085143 -0.046337146 0.95400006 1.3464515e-38
-0.099241905 -0.046434287 0.95600003 8.5781466e-39
-0.097420953 -0.046434287 0.95600003 1.0505837e-38
-0.095600002 -0.046434287 0.95600003 1.6129748e-38
-0.094563812 -0.046822857 0.96400005 1.5483806e-38
-0.17661428 -0.044380002 0.95100003 1.1432248e-38
-0.17480285 -0.044380002 0.95100003 4.7941629e-39
-0.17244571 -0.044240002 0.94800007 3.2347041e-39
-0.17028001 -0.044146664 0.94600004 7.6600944e-39
-0.1684781 -0.044146664 0.94600004 1.1247138e-38
-0.16614762 -0.044006668 0.94300002 1.4658376e-38
-0.16382857 -0.043866668 0.94000006 1.2912761e-38
-0.1620381 -0.043866668 0.94000006 1.0146892e-38
-0.15990667 -0.043773334 0.93800002 8.4967662e-39
-0.15812001 -0.043773334 0.93800002 9.6031138e-39
-0.15633334 -0.043773334 0.93800002 9.4183666e-39
-0.15405238 -0.043633334 0.93500006 9.8793448e-39
-0.15194571 -0.043540001 0.93300003 1.3097893e-38
-0.15016857 -0.043540001 0.93300003 1.7984262e-38
-0.14839143 -0.043540001 0.93300003 1.7337823e-38
-0.1466143 -0.043540001 0.93300003 1.1252912e-38
-0.14437144 -0.043400005 0.93000007 1.8821106e-39
-0.14260001 -0.043400005 0.93000007 2.8040669e-39
-0.14082858 -0.043400005 0.93000007 5.7456628e-39
-0.13950571 -0.043540001 0.93300003 6.2988366e-39
-0.13772857 -0.043540001 0.93300003 6.481423e-39
-0.13595143 -0.043540001 0.93300003 6.3892274e-39
-0.13417429 -0.043540001 0.93300003 5.3772362e-39
-0.13239715 -0.043540001 0.93300003 5.0084537e-39
-0.13090001 -0.043633334 0.93500006 9.87577e-39
-0.12911905 -0.043633334 0.93500006 1.8265572e-38
-0.1273381 -0.043633334 0.93500006 2.0375244e-38
-0.12596001 -0.043773334 0.93800002 1.7332788e-38
-0.12417334 -0.043773334 0.93800002 1.2357869e-38
-0.12264763 -0.043866668 0.94000006 1.0052978e-38
-0.12085715 -0.043866668 0.94000006 1.0146201e-38
-0.11906667 -0.043866668 0.94000006 1.0699375e-38
-0.1172762 -0.043866668 0.94000006 1.1709198e-38
-0.11585429 -0.044006668 0.94300002 1.2446763e-38
-0.11405809 -0.044006668 0.94300002 1.5024291e-38
-0.11226191 -0.044006668 0.94300002 1.9726268e-38
-0.11081714 -0.044146664 0.94600004 1.7423189e-38
-0.10901524 -0.044146664 0.94600004 1.5302689e-38
-0.10778 -0.044380002 0.95100003 1.632115e-38
-0.10596858 -0.044380002 0.95100003 1.7888476e-38
-0.10415715 -0.044380002 0.95100003 1.7519671e-38
-0.10266858 -0.044520002 0.95400006 1.5306976e-38
-0.10106286 -0.044613335 0.95600003 1.3096436e-38
-0.099241905 -0.044613335 0.95600003 6.366155e-39
-0.097726673 -0.044753335 0.95900005 8.481223e-39
-0.095900007 -0.044753335 0.95900005 1.4750526e-38
-0.094563812 -0.044986669 0.96400005 1.6037333e-38
-0.092727624 -0.044986669 0.96400005 1.5760746e-38
-0.090891428 -0.044986669 0.96400005 1.5577426e-38
-0.17480285 -0.042568572 0.95100003 6.4497284e-39
-0.17244571 -0.04243429 0.94800007 4.8884465e-39
-0.17028001 -0.042344764 0.94600004 1.0420177e-38
-0.1684781 -0.042344764 0.94600004 1.3455514e-38
-0.16614762 -0.042210475 0.94300002 1.5299427e-38
-0.16382857 -0.042076193 0.94000006 1.3004619e-38
-0.1620381 -0.042076193 0.94000006 1.0791924e-38
-0.16024762 -0.042076193 0.94000006 8.9562926e-39
-0.15845715 -0.042076193 0.94000006 9.5094664e-39
-0.15633334 -0.041986667 0.93800002 9.0503029e-39
-0.15454666 -0.041986667 0.93800002 1.0525433e-38
-0.15227143 -0.041852385 0.93500006 1.420174e-38
-0.15049049 -0.041852385 0.93500006 1.798176e-38
-0.14870952 -0.041852385 0.93500006 1.7338536e-38
-0.1466143 -0.041762859 0.93300003 1.4388276e-38
-0.14483716 -0.041762859 0.93300003 7.6760495e-39
-0.14306 -0.041762859 0.93300003 5.0945719e-39
-0.14128286 -0.041762859 0.93300003 4.8247883e-39
-0.13950571 -0.041762859 0.93300003 5.3779621e-39
-0.13772857 -0.041762859 0.93300003 5.8364067e-39
-0.13595143 -0.041762859 0.93300003 5.2832329e-39
-0.13417429 -0.041762859 0.93300003 5.1921135e-39
-0.13268095 -0.041852385 0.93500006 7.7735911e-39
-0.13090001 -0.041852385 0.93500006 1.5582876e-38
-0.12911905 -0.041852385 0.93500006 1.9639484e-38
-0.1273381 -0.041852385 0.93500006 2.0835484e-38
-0.12622857 -0.042076193 0.94000006 1.9360354e-38
-0.1244381 -0.042076193 0.94000006 1.6137873e-38
-0.12264763 -0.042076193 0.94000006 1.2081265e-38
-0.12124286 -0.042210475 0.94300002 9.5026463e-39
-0.11944667 -0.042210475 0.94300002 9.5026463e-39
-0.11765048 -0.042210475 0.94300002 1.1065935e-38
-0.11585429 -0.042210475 0.94300002 1.3463021e-38
-0.11405809 -0.042210475 0.94300002 1.8061386e-38
-0.11226191 -0.042210475 0.94300002 1.9444321e-38
-0.11081714 -0.042344764 0.94600004 1.6137119e-38
-0.10924572 -0.04243429 0.94800007 1.2264903e-38
-0.10778 -0.042568572 0.95100003 1.4110219e-38
-0.10630286 -0.042702857 0.95400006 1.8259023e-38
-0.10448572 -0.042702857 0.95400006 1.9081994e-38
-0.10266858 -0.042702857 0.95400006 1.5855147e-38
-0.10138001 -0.042926669 0.95900005 1.3921518e-38
-0.099553339 -0.042926669 0.95900005 7.2834323e-39
-0.098032385 -0.043060955 0.96200007 8.7541946e-39
-0.096200012 -0.043060955 0.96200007 1.5853258e-38
-0.094563812 -0.043150477 0.96400005 1.6312843e-38
-0.092727624 -0.043150477 0.96400005 1.6036256e-38
-0.17299144 -0.040757146 0.95100003 8.0206541e-39
-0.17064001 -0.040628575 0.94800007 1.3275805e-38
-0.1688343 -0.040628575 0.94800007 1.318254e-38
-0.16667619 -0.04054286 0.94600004 1.2352779e-38
-0.16435143 -0.040414285 0.94300002 1.2265622e-38
-0.1620381 -0.040285718 0.94000006 1.4109534e-38
-0.16024762 -0.040285718 0.94000006 1.1809673e-38
-0.15845715 -0.040285718 0.94000006 1.0057956e-38
-0.15633334 -0.040200002 0.93800002 1.1716413e-38
-0.15454666 -0.040200002 0.93800002 1.5404239e-38
-0.15276001 -0.040200002 0.93800002 1.7241652e-38
-0.15049049 -0.040071432 0.93500006 1.7057261e-38
-0.14870952 -0.040071432 0.93500006 1.8071753e-38
-0.1466143 -0.039985713 0.93300003 1.9546883e-38
-0.14483716 -0.039985713 0.93300003 1.7061233e-38
-0.14306 -0.039985713 0.93300003 1.3004626e-38
-0.14128286 -0.039985713 0.93300003 6.4782224e-39
-0.13980478 -0.040071432 0.93500006 4.2655273e-39
-0.13802381 -0.040071432 0.93500006 2.3423475e-39
-0.13624287 -0.040071432 0.93500006 4.0940644e-39
-0.13446191 -0.040071432 0.93500006 1.0339603e-38
-0.13268095 -0.040071432 0.93500006 1.6424514e-38
-0.13090001 -0.040071432 0.93500006 1.8994114e-38
-0.12953334 -0.040200002 0.93800002 1.8256549e-38
-0.12774667 -0.040200002 0.93800002 1.9455038e-38
-0.12622857 -0.040285718 0.94000006 2.046919e-38
-0.1244381 -0.040285718 0.94000006 1.9637692e-38
-0.12303905 -0.040414285 0.94300002 1.8254757e-38
-0.12124286 -0.040414285 0.94300002 1.4846406e-38
-0.11944667 -0.040414285 0.94300002 1.0881993e-38
-0.11765048 -0.040414285 0.94300002 1.2816246e-38
-0.11585429 -0.040414285 0.94300002 1.8993354e-38
-0.11442096 -0.04054286 0.94600004 1.9360003e-38
-0.11261906 -0.04054286 0.94600004 1.5395591e-38
-0.11105144 -0.040628575 0.94800007 9.1385749e-39
-0.10959143 -0.040757146 0.95100003 5.3585541e-39
-0.10812001 -0.040885717 0.95400006 7.4808066e-39
-0.10630286 -0.040885717 0.95400006 1.3012544e-38
-0.10448572 -0.040885717 0.95400006 1.6316128e-38
-0.10288381 -0.040971428 0.95600003 1.5301976e-38
-0.10138001 -0.041100003 0.95900005 1.3645615e-38
-0.099864773 -0.041228574 0.96200007 7.0075293e-39
-0.098236188 -0.041314285 0.96400005 9.031562e-39
-0.0964 -0.041314285 0.96400005 1.5669647e-38
-0.094563812 -0.041314285 0.96400005 1.6314273e-38
-0.092727624 -0.041314285 0.96400005 1.5761099e-38
-0.17299144 -0.038945716 0.95100003 9.5868811e-39
-0.17118001 -0.038945716 0.95100003 1.3643489e-38
-0.1688343 -0.03882286 0.94800007 1.152877e-38
-0.16667619 -0.038740952 0.94600004 9.0394877e-39
-0.16435143 -0.038618095 0.94300002 1.0056128e-38
-0.16255523 -0.038618095 0.94300002 1.3928345e-38
-0.16024762 -0.038495239 0.94000006 1.3373408e-38
-0.15845715 -0.038495239 0.94000006 1.1529496e-38
-0.15633334 -0.038413331 0.93800002 1.3188301e-38
-0.15454666 -0.038413331 0.93800002 1.6691735e-38
-0.15276001 -0.038413331 0.93800002 1.7793394e-38
-0.15097333 -0.038413331 0.93800002 1.4935329e-38
-0.14918667 -0.038413331 0.93800002 1.5946545e-38
-0.14692858 -0.038290478 0.93500006 1.9449979e-38
-0.14483716 -0.03820857 0.93300003 1.9820625e-38
-0.14306 -0.03820857 0.93300003 1.7239148e-38
-0.14158572 -0.038290478 0.93500006 9.8858664e-39
-0.13980478 -0.038290478 0.93500006 4.261933e-39
-0.13802381 -0.038290478 0.93500006 2.4326836e-39
-0.13624287 -0.038290478 0.93500006 6.3049e-39
-0.13446191 -0.038290478 0.93500006 1.5583229e-38
-0.13310668 -0.038413331 0.93800002 1.9732033e-38
-0.13132 -0.038413331 0.93800002 1.9915698e-38
-0.12953334 -0.038413331 0.93800002 1.6227873e-38
-0.12774667 -0.038413331 0.93800002 1.6505156e-38
-0.12622857 -0.038495239 0.94000006 1.8625656e-38
-0.1244381 -0.038495239 0.94000006 2.0833694e-38
-0.12303905 -0.038618095 0.94300002 2.0003934e-38
-0.12124286 -0.038618095 0.94300002 1.8346577e-38
-0.11944667 -0.038618095 0.94300002 1.4935339e-38
-0.11765048 -0.038618095 0.94300002 1.4565477e-38
-0.11585429 -0.038618095 0.94300002 1.9451846e-38
-0.11442096 -0.038740952 0.94600004 1.8624962e-38
-0.11285715 -0.03882286 0.94800007 1.1157116e-38
-0.11105144 -0.03882286 0.94800007 7.3014502e-39
-0.10959143 -0.038945716 0.95100003 5.2731464e-39
-0.10812001 -0.039068572 0.95400006 5.1859548e-39
-0.10630286 -0.039068572 0.95400006 9.0581712e-39
-0.10448572 -0.039068572 0.95400006 1.484604e-38
-0.10288381 -0.039150476 0.95600003 1.4661649e-38
-0.10138001 -0.039273337 0.95900005 1.1617356e-38
-0.099864773 -0.039396197 0.96200007 7.3763566e-39
-0.098541915 -0.039600953 0.96700007 9.8602408e-39
-0.096700005 -0.039600953 0.96700007 1.6037348e-38
-0.094858103 -0.039600953 0.96700007 1.631392e-38
-0.0930162 -0.039600953 0.96700007 1.5760746e-38
-0.17572191 -0.037329525 0.95600003 8.8496889e-39
-0.17353715 -0.037251431 0.95400006 8.7592911e-39
-0.17172001 -0.037251431 0.95400006 1.0971986e-38
-0.16936858 -0.037134286 0.95100003 6.6456636e-39
-0.16702859 -0.037017144 0.94800007 3.6032078e-39
-0.1648743 -0.036939051 0.94600004 4.069218e-39
-0.16255523 -0.036821906 0.94300002 1.1352673e-38
-0.16024762 -0.036704764 0.94000006 1.4660547e-38
-0.15845715 -0.036704764 0.94000006 1.438396e-38
-0.15666668 -0.036704764 0.94000006 1.5213698e-38
-0.1548762 -0.036704764 0.94000006 1.687322e-38
-0.15276001 -0.036626667 0.93800002 1.4474717e-38
-0.15097333 -0.036626667 0.93800002 9.2195658e-39
-0.14918667 -0.036626667 0.93800002 1.0320878e-38
-0.14692858 -0.036509525 0.93500006 1.6313594e-38
-0.14514764 -0.036509525 0.93500006 1.8067825e-38
-0.14336666 -0.036509525 0.93500006 2.092589e-38
-0.14158572 -0.036509525 0.93500006 1.8259076e-38
-0.14025334 -0.036626667 0.93800002 1.3925881e-38
-0.13846667 -0.036626667 0.93800002 1.2920314e-38
-0.13668001 -0.036626667 0.93800002 1.6700335e-38
-0.13489333 -0.036626667 0.93800002 1.8810432e-38
-0.13339049 -0.036704764 0.94000006 1.8718237e-38
-0.13160001 -0.036704764 0.94000006 1.6693167e-38
-0.12980953 -0.036704764 0.94000006 1.4019494e-38
-0.12801906 -0.036704764 0.94000006 1.3379519e-38
-0.12622857 -0.036704764 0.94000006 1.3932693e-38
-0.12483523 -0.036821906 0.94300002 1.6875027e-38
-0.12303905 -0.036821906 0.94300002 1.8995527e-38
-0.12124286 -0.036821906 0.94300002 1.982206e-38
-0.11944667 -0.036821906 0.94300002 2.0098647e-38
-0.11765048 -0.036821906 0.94300002 1.9914606e-38
-0.11622286 -0.036939051 0.94600004 1.7609716e-38
-0.11442096 -0.036939051 0.94600004 1.3931231e-38
-0.11285715 -0.037017144 0.94800007 8.1229068e-39
-0.11105144 -0.037017144 0.94800007 4.0861443e-39
-0.10993715 -0.037251431 0.95400006 4.915905e-39
-0.10812001 -0.037251431 0.95400006 5.4640341e-39
-0.10652572 -0.037329525 0.95600003 5.6484253e-39
-0.10470476 -0.037329525 0.95600003 1.2728395e-38
