# .PCD v0.7 - Point Cloud Data file format
VERSION 0.7
FIELDS x y z rgb
SIZE 4 4 4 4
TYPE F F F F
COUNT 1 1 1 1
WIDTH 946
HEIGHT 1
VIEWPOINT 0 0 0 1 0 0 0
POINTS 946
DATA ascii
-0.0044761905 -0.052819051 0.94000006 1.603879e-38
-0.0025400002 -0.049953338 0.88900006 1.6313585e-38
-0.00084857148 -0.050065715 0.89100003 1.6958954e-38
0.00084857148 -0.050065715 0.89100003 1.7972737e-38
-0.080859996 -0.05064857 0.93300003 1.6960386e-38
-0.079082862 -0.05064857 0.93300003 1.7144777e-38
-0.077471435 -0.050757144 0.93500006 1.6961112e-38
-0.075933337 -0.050919998 0.93800002 1.7514286e-38
-0.074304767 -0.051028572 0.94000006 1.751393e-38
-0.072745718 -0.051191427 0.94300002 1.8067104e-38
-0.07117524 -0.051354285 0.94600004 1.7884507e-38
-0.069373332 -0.051354285 0.94600004 1.8437681e-38
-0.067714289 -0.051462859 0.94800007 1.8437681e-38
-0.065908574 -0.051462859 0.94800007 1.8990855e-38
-0.064305715 -0.051625714 0.95100003 1.8806464e-38
-0.062691435 -0.051788572 0.95400006 1.8622072e-38
-0.060874287 -0.051788572 0.95400006 1.8990858e-38
-0.059057143 -0.051788572 0.95400006 1.935964e-38
-0.057240006 -0.051788572 0.95400006 1.935964e-38
-0.055422861 -0.051788572 0.95400006 1.935964e-38
-0.053718098 -0.051897142 0.95600003 1.9359284e-38
-0.051897142 -0.051897142 0.95600003 1.9543676e-38
-0.05007619 -0.051897142 0.95600003 1.972842e-38
-0.048255239 -0.051897142 0.95600003 1.9912811e-38
-0.046434287 -0.051897142 0.95600003 1.9820618e-38
-0.044613335 -0.051897142 0.95600003 1.9636227e-38
-0.042792384 -0.051897142 0.95600003 1.9636227e-38
-0.040971428 -0.051897142 0.95600003 1.9912814e-38
-0.039150476 -0.051897142 0.95600003 1.9636227e-38
-0.037329525 -0.051897142 0.95600003 1.9544032e-38
-0.035508573 -0.051897142 0.95600003 1.9544032e-38
-0.033687621 -0.051897142 0.95600003 1.9636227e-38
-0.03186667 -0.051897142 0.95600003 1.9267445e-38
-0.030045714 -0.051897142 0.95600003 1.9175249e-38
-0.028165715 -0.051788572 0.95400006 1.8990858e-38
-0.026348574 -0.051788572 0.95400006 1.8898662e-38
-0.02453143 -0.051788572 0.95400006 1.8713915e-38
-0.022714287 -0.051788572 0.95400006 1.8437328e-38
-0.020897144 -0.051788572 0.95400006 1.8161457e-38
-0.01902 -0.051625714 0.95100003 1.7977066e-38
-0.017208571 -0.051625714 0.95100003 1.7607567e-38
-0.015348572 -0.051462859 0.94800007 1.7423176e-38
-0.013542858 -0.051462859 0.94800007 1.742245e-38
-0.011737144 -0.051462859 0.94800007 1.7514646e-38
-0.0099104764 -0.051354285 0.94600004 1.7515002e-38
-0.0080571435 -0.051028572 0.94000006 1.7791589e-38
-0.0059266672 -0.048260003 0.88900006 1.8528791e-38
-0.0042333333 -0.048260003 0.88900006 1.9266356e-38
-0.0025400002 -0.048260003 0.88900006 1.8806461e-38
-0.00084857148 -0.048368573 0.89100003 1.8068896e-38
0.00084857148 -0.048368573 0.89100003 1.6776731e-38
0.0025457144 -0.048368573 0.89100003 1.4010862e-38
-0.079252385 -0.048976194 0.93500006 1.7421008e-38
-0.077471435 -0.048976194 0.93500006 1.7053671e-38
-0.075933337 -0.049133334 0.93800002 1.7422453e-38
-0.074304767 -0.049238101 0.94000006 1.7422456e-38
-0.072745718 -0.049395241 0.94300002 1.797563e-38
-0.07117524 -0.049552381 0.94600004 1.7975624e-38
-0.069373332 -0.049552381 0.94600004 1.8436602e-38
-0.067714289 -0.049657144 0.94800007 1.8436958e-38
-0.066117145 -0.049814284 0.95100003 1.8713545e-38
-0.064305715 -0.049814284 0.95100003 1.8529877e-38
-0.062691435 -0.049971428 0.95400006 1.8714268e-38
-0.060874287 -0.049971428 0.95400006 1.8898306e-38
-0.059057143 -0.049971428 0.95400006 1.9174893e-38
-0.057240006 -0.049971428 0.95400006 1.9175249e-38
-0.055422861 -0.049971428 0.95400006 1.935964e-38
-0.053718098 -0.05007619 0.95600003 1.9451836e-38
-0.051897142 -0.05007619 0.95600003 1.9451836e-38
-0.05007619 -0.05007619 0.95600003 1.945148e-38
-0.048255239 -0.05007619 0.95600003 1.9635871e-38
-0.046434287 -0.05007619 0.95600003 1.9543676e-38
-0.044613335 -0.05007619 0.95600003 1.9543676e-38
-0.042792384 -0.05007619 0.95600003 1.9544032e-38
-0.040971428 -0.05007619 0.95600003 1.9544032e-38
-0.039150476 -0.05007619 0.95600003 1.9544032e-38
-0.037329525 -0.05007619 0.95600003 1.935964e-38
-0.035508573 -0.05007619 0.95600003 1.9175249e-38
-0.033687621 -0.05007619 0.95600003 1.9175249e-38
-0.03186667 -0.05007619 0.95600003 1.8990858e-38
-0.030045714 -0.05007619 0.95600003 1.9083053e-38
-0.028224763 -0.05007619 0.95600003 1.8622075e-38
-0.026403811 -0.05007619 0.95600003 1.8622075e-38
-0.02453143 -0.049971428 0.95400006 1.8622075e-38
-0.022714287 -0.049971428 0.95400006 1.8437684e-38
-0.020897144 -0.049971428 0.95400006 1.8162173e-38
-0.01902 -0.049814284 0.95100003 1.7885586e-38
-0.017208571 -0.049814284 0.95100003 1.7424248e-38
-0.015397143 -0.049814284 0.95100003 1.7424248e-38
-0.013542858 -0.049657144 0.94800007 1.7513933e-38
-0.011737144 -0.049657144 0.94800007 1.8067106e-38
-0.0099104764 -0.049552381 0.94600004 1.843482e-38
-0.0081085712 -0.049552381 0.94600004 1.8711407e-38
-0.0059266672 -0.046566669 0.88900006 1.9450391e-38
-0.0042333333 -0.046566669 0.88900006 1.9358196e-38
-0.0025400002 -0.046566669 0.88900006 1.8622435e-38
-0.00084857148 -0.046671428 0.89100003 1.6870718e-38
0.00084857148 -0.046671428 0.89100003 1.4661256e-38
0.0025457144 -0.046671428 0.89100003 1.2171974e-38
-0.077885717 -0.047447622 0.94000006 1.7606126e-38
-0.076095238 -0.047447622 0.94000006 1.8251495e-38
-0.074304767 -0.047447622 0.94000006 1.8343333e-38
-0.072745718 -0.047599047 0.94300002 1.861992e-38
-0.07117524 -0.047750477 0.94600004 1.8436242e-38
-0.069373332 -0.047750477 0.94600004 1.8712829e-38
-0.067714289 -0.047851432 0.94800007 1.8620631e-38
-0.065908574 -0.047851432 0.94800007 1.8620631e-38
-0.064305715 -0.048002861 0.95100003 1.8713189e-38
-0.062691435 -0.048154291 0.95400006 1.8805385e-38
-0.060874287 -0.048154291 0.95400006 1.8806467e-38
-0.059057143 -0.048154291 0.95400006 1.8622075e-38
-0.057240006 -0.048154291 0.95400006 1.8621719e-38
-0.055422861 -0.048154291 0.95400006 1.9082698e-38
-0.053605717 -0.048154291 0.95400006 1.8990858e-38
-0.051788572 -0.048154291 0.95400006 1.9083053e-38
-0.05007619 -0.048255239 0.95600003 1.9082698e-38
-0.048255239 -0.048255239 0.95600003 1.9174893e-38
-0.046434287 -0.048255239 0.95600003 1.9082698e-38
-0.044613335 -0.048255239 0.95600003 1.8898306e-38
-0.042792384 -0.048255239 0.95600003 1.8898662e-38
-0.040971428 -0.048255239 0.95600003 1.8990858e-38
-0.039150476 -0.048255239 0.95600003 1.9174173e-38
-0.037329525 -0.048255239 0.95600003 1.9081977e-38
-0.035508573 -0.048255239 0.95600003 1.8714271e-38
-0.033687621 -0.048255239 0.95600003 1.8714271e-38
-0.03186667 -0.048255239 0.95600003 1.8714271e-38
-0.030045714 -0.048255239 0.95600003 1.8714271e-38
-0.028224763 -0.048255239 0.95600003 1.8714271e-38
-0.026403811 -0.048255239 0.95600003 1.8714271e-38
-0.024582857 -0.048255239 0.95600003 1.8898662e-38
-0.022714287 -0.048154291 0.95400006 1.9451836e-38
-0.020897144 -0.048154291 0.95400006 1.9636224e-38
-0.01902 -0.048002861 0.95100003 2.0005007e-38
-0.017208571 -0.048002861 0.95100003 2.0373787e-38
-0.015397143 -0.048002861 0.95100003 2.0650374e-38
-0.013542858 -0.047851432 0.94800007 2.0557474e-38
-0.011006667 -0.044873338 0.88900006 2.064967e-38
-0.0093133338 -0.044873338 0.88900006 1.9451858e-38
-0.0076200003 -0.044873338 0.88900006 1.7976728e-38
-0.0059266672 -0.044873338 0.88900006 1.7332053e-38
-0.0042333333 -0.044873338 0.88900006 1.7147661e-38
-0.0025457144 -0.04497429 0.89100003 1.7055428e-38
-0.00084857148 -0.04497429 0.89100003 1.3828581e-38
0.00084857148 -0.04497429 0.89100003 1.2262359e-38
0.0025457144 -0.04497429 0.89100003 1.1432599e-38
-0.07633809 -0.045802858 0.94300002 1.8529492e-38
-0.074541911 -0.045802858 0.94300002 1.8436605e-38
-0.072745718 -0.045802858 0.94300002 1.8344409e-38
-0.07117524 -0.045948572 0.94600004 1.8528425e-38
-0.069373332 -0.045948572 0.94600004 1.8989403e-38
-0.067714289 -0.046045717 0.94800007 1.889758e-38
-0.065908574 -0.046045717 0.94800007 1.9081972e-38
-0.064305715 -0.046191432 0.95100003 1.9081977e-38
-0.062494289 -0.046191432 0.95100003 1.9358564e-38
-0.060874287 -0.046337146 0.95400006 1.8990502e-38
-0.059057143 -0.046337146 0.95400006 1.8898306e-38
-0.05706 -0.046191432 0.95100003 1.8897233e-38
-0.055248573 -0.046191432 0.95100003 1.917382e-38
-0.053605717 -0.046337146 0.95400006 1.8529524e-38
-0.051788572 -0.046337146 0.95400006 1.9082698e-38
-0.049971428 -0.046337146 0.95400006 1.9082698e-38
-0.048255239 -0.046434287 0.95600003 1.9082698e-38
-0.046434287 -0.046434287 0.95600003 1.8990502e-38
-0.044613335 -0.046434287 0.95600003 1.8990502e-38
-0.042792384 -0.046434287 0.95600003 1.8897583e-38
-0.040971428 -0.046434287 0.95600003 1.9358561e-38
-0.039150476 -0.046434287 0.95600003 1.945076e-38
-0.037329525 -0.046434287 0.95600003 1.9542955e-38
-0.035508573 -0.046434287 0.95600003 1.9451127e-38
-0.033687621 -0.046434287 0.95600003 1.9912105e-38
-0.03186667 -0.046434287 0.95600003 2.0373083e-38
-0.030045714 -0.046434287 0.95600003 2.0280888e-38
-0.028224763 -0.046434287 0.95600003 2.0280888e-38
-0.026403811 -0.046434287 0.95600003 2.0188692e-38
-0.024582857 -0.046434287 0.95600003 2.0096852e-38
-0.022714287 -0.046337146 0.95400006 2.0189048e-38
-0.020897144 -0.046337146 0.95400006 2.0281241e-38
-0.01902 -0.046191432 0.95100003 2.0465632e-38
-0.017208571 -0.046191432 0.95100003 2.1110631e-38
-0.015397143 -0.046191432 0.95100003 2.0741849e-38
-0.013585715 -0.046191432 0.95100003 2.0281957e-38
-0.010957144 -0.042985715 0.88500005 2.0374152e-38
-0.0092714289 -0.042985715 0.88500005 1.835018e-38
-0.0076028574 -0.043082856 0.88700002 1.4477963e-38
-0.0059266672 -0.043180004 0.88900006 1.4200233e-38
-0.004242857 -0.043277144 0.89100003 1.5490972e-38
-0.0025457144 -0.043277144 0.89100003 1.668668e-38
-0.00084857148 -0.043277144 0.89100003 1.438179e-38
0.00084857148 -0.043277144 0.89100003 1.3089596e-38
0.0025457144 -0.043277144 0.89100003 1.2075444e-38
-0.071804762 -0.041393336 0.88700002 1.7145451e-38
-0.070115238 -0.041393336 0.88700002 1.613279e-38
-0.068425715 -0.041393336 0.88700002 1.4842052e-38
-0.066585712 -0.041300002 0.88500005 1.659338e-38
-0.064900003 -0.041300002 0.88500005 1.871388e-38
-0.063214287 -0.041300002 0.88500005 1.9266356e-38
-0.065769531 -0.044146664 0.94600004 1.9450747e-38
-0.063967615 -0.044146664 0.94600004 1.8991584e-38
-0.062494289 -0.044380002 0.95100003 1.9452562e-38
-0.060682859 -0.044380002 0.95100003 1.9544392e-38
-0.058871429 -0.044380002 0.95100003 2.0189761e-38
-0.05706 -0.044380002 0.95100003 2.0557474e-38
-0.055248573 -0.044380002 0.95100003 2.1202844e-38
-0.053437144 -0.044380002 0.95100003 2.1019522e-38
-0.051788572 -0.044520002 0.95400006 2.1296109e-38
-0.049971428 -0.044520002 0.95400006 2.120356e-38
-0.048154291 -0.044520002 0.95400006 2.1664538e-38
-0.046337146 -0.044520002 0.95400006 2.1941481e-38
-0.044613335 -0.044613335 0.95600003 2.258685e-38
-0.042792384 -0.044613335 0.95600003 2.2126232e-38
-0.040971428 -0.044613335 0.95600003 2.2218428e-38
-0.039150476 -0.044613335 0.95600003 2.2218428e-38
-0.037329525 -0.044613335 0.95600003 2.2955993e-38
-0.035508573 -0.044613335 0.95600003 2.3140384e-38
-0.030762859 -0.040739998 0.87300003 2.3324775e-38
-0.029100001 -0.040739998 0.87300003 2.2955993e-38
-0.030140001 -0.044753335 0.95900005 2.2863797e-38
-0.025833335 -0.040833335 0.87500006 2.0927707e-38
-0.024166668 -0.040833335 0.87500006 2.0835512e-38
-0.022500001 -0.040833335 0.87500006 2.0558912e-38
-0.020833336 -0.040833335 0.87500006 2.0743303e-38
-0.019232381 -0.040973332 0.87800002 1.8992312e-38
-0.017600002 -0.041066669 0.88000005 1.6042052e-38
-0.015923811 -0.041066669 0.88000005 1.4478654e-38
-0.01424762 -0.041066669 0.88000005 1.3003524e-38
-0.012571429 -0.041066669 0.88000005 1.54885e-38
-0.01092 -0.041160002 0.88200003 1.8162173e-38
-0.0092714289 -0.041300002 0.88500005 1.706047e-38
-0.0076028574 -0.041393336 0.88700002 8.2096892e-39
-0.0059266672 -0.041486669 0.88900006 6.2876234e-39
-0.004242857 -0.041579999 0.89100003 1.0713014e-38
-0.0025457144 -0.041579999 0.89100003 1.5765465e-38
-0.00084857148 -0.041579999 0.89100003 1.6226443e-38
0.00084857148 -0.041579999 0.89100003 1.3918653e-38
-0.075353332 -0.039793335 0.88900006 1.1803147e-38
-0.073660001 -0.039793335 0.88900006 1.4836644e-38
-0.071804762 -0.039703812 0.88700002 1.723373e-38
-0.070115238 -0.039703812 0.88700002 1.4294639e-38
-0.068425715 -0.039703812 0.88700002 1.1344378e-38
-0.066585712 -0.039614286 0.88500005 1.2541778e-38
-0.064900003 -0.039614286 0.88500005 1.5860821e-38
-0.063000001 -0.039480001 0.88200003 1.8527712e-38
-0.061041906 -0.039300956 0.87800002 1.7974538e-38
-0.059369523 -0.039300956 0.87800002 1.6596999e-38
-0.057697143 -0.039300956 0.87800002 1.6228216e-38
-0.05602476 -0.039300956 0.87800002 1.760934e-38
-0.054166671 -0.03916667 0.87500006 1.9453253e-38
-0.052500002 -0.03916667 0.87500006 1.96366e-38
-0.055248573 -0.042568572 0.95100003 2.0466361e-38
-0.053437144 -0.042568572 0.95100003 2.0283036e-38
-0.051625714 -0.042568572 0.95100003 2.0098645e-38
-0.049971428 -0.042702857 0.95400006 2.0743275e-38
-0.048154291 -0.042702857 0.95400006 2.1849623e-38
-0.046337146 -0.042702857 0.95400006 2.2034756e-38
-0.044613335 -0.042792384 0.95600003 2.194256e-38
-0.042792384 -0.042792384 0.95600003 2.1573775e-38
-0.041100003 -0.042926669 0.95900005 2.1020601e-38
-0.035956193 -0.039300956 0.87800002 2.0560351e-38
-0.034166671 -0.03916667 0.87500006 2.0468156e-38
-0.032500003 -0.03916667 0.87500006 2.0928761e-38
-0.030762859 -0.039077144 0.87300003 2.1389739e-38
-0.029100001 -0.039077144 0.87300003 2.1296837e-38
-0.027437143 -0.039077144 0.87300003 2.0835859e-38
-0.025833335 -0.03916667 0.87500006 1.9546199e-38
-0.024166668 -0.03916667 0.87500006 1.9085221e-38
-0.022500001 -0.03916667 0.87500006 1.917741e-38
-0.020833336 -0.03916667 0.87500006 2.0191562e-38
-0.019232381 -0.039300956 0.87800002 1.715417e-38
-0.01756 -0.039300956 0.87800002 1.3835128e-38
-0.01588762 -0.039300956 0.87800002 1.1629928e-38
-0.014215238 -0.039300956 0.87800002 1.2275297e-38
-0.012571429 -0.039390478 0.88000005 1.5857298e-38
-0.01092 -0.039480001 0.88200003 1.7516819e-38
-0.0092714289 -0.039614286 0.88500005 1.5678277e-38
-0.0076028574 -0.039703812 0.88700002 7.0118873e-39
-0.0059266672 -0.039793335 0.88900006 1.8780833e-39
-0.004242857 -0.039882861 0.89100003 5.4737128e-39
-0.0025400002 -0.039793335 0.88900006 1.4199925e-38
-0.00084666669 -0.039793335 0.88900006 1.5029686e-38
0.00084666669 -0.039793335 0.88900006 1.4470736e-38
-0.075353332 -0.0381 0.88900006 1.5031112e-38
-0.073660001 -0.0381 0.88900006 1.5948049e-38
-0.07196667 -0.0381 0.88900006 1.4380723e-38
-0.070115238 -0.038014285 0.88700002 8.6757877e-39
-0.068425715 -0.038014285 0.88700002 4.61918e-39
-0.066585712 -0.03792857 0.88500005 5.5439851e-39
-0.064900003 -0.03792857 0.88500005 1.1444505e-38
-0.063000001 -0.037800003 0.88200003 1.5856216e-38
-0.061041906 -0.037628572 0.87800002 1.7515738e-38
-0.059369523 -0.037628572 0.87800002 1.5769005e-38
-0.057697143 -0.037628572 0.87800002 1.2726549e-38
-0.05602476 -0.037628572 0.87800002 1.5122932e-38
-0.054166671 -0.037500001 0.87500006 1.7888801e-38
-0.052500002 -0.037500001 0.87500006 1.9083404e-38
-0.050833337 -0.037500001 0.87500006 1.8253643e-38
-0.049166668 -0.037500001 0.87500006 1.4842452e-38
-0.04739143 -0.037414286 0.87300003 1.1984388e-38
-0.045728575 -0.037414286 0.87300003 1.3089644e-38
-0.044065714 -0.037414286 0.87300003 1.9358947e-38
-0.042305715 -0.037328575 0.87100005 1.9728067e-38
-0.040646669 -0.037328575 0.87100005 1.8437328e-38
-0.039077144 -0.037414286 0.87300003 1.6782103e-38
-0.037500001 -0.037500001 0.87500006 1.410843e-38
-0.035956193 -0.037628572 0.87800002 1.3189795e-38
-0.034166671 -0.037500001 0.87500006 1.2544425e-38
-0.032500003 -0.037500001 0.87500006 1.7427813e-38
-0.030833337 -0.037500001 0.87500006 2.0009291e-38
-0.029100001 -0.037414286 0.87300003 2.0098998e-38
-0.027437143 -0.037414286 0.87300003 1.7425324e-38
-0.025833335 -0.037500001 0.87500006 1.475815e-38
-0.024166668 -0.037500001 0.87500006 1.4297172e-38
-0.022500001 -0.037500001 0.87500006 1.5677588e-38
-0.020833336 -0.037500001 0.87500006 1.9457609e-38
-0.019232381 -0.037628572 0.87800002 1.9823508e-38
-0.01756 -0.037628572 0.87800002 1.8163987e-38
-0.01588762 -0.037628572 0.87800002 1.7705842e-38
-0.014215238 -0.037628572 0.87800002 1.9088776e-38
-0.012571429 -0.037714288 0.88000005 1.9269966e-38
-0.010981904 -0.038014285 0.88700002 1.5397749e-38
-0.0092923809 -0.038014285 0.88700002 1.1353354e-38
-0.0076028574 -0.038014285 0.88700002 7.0201592e-39
-0.0059266672 -0.0381 0.88900006 3.9935857e-39
-0.0042333333 -0.0381 0.88900006 3.9013901e-39
-0.0025400002 -0.0381 0.88900006 9.9646838e-39
-0.0008447619 -0.038014285 0.88700002 1.236177e-38
0.0008447619 -0.038014285 0.88700002 1.3918984e-38
-0.077480003 -0.03661143 0.89400005 9.040166e-39
-0.075353332 -0.036406666 0.88900006 1.4756295e-38
-0.073660001 -0.036406666 0.88900006 1.4479774e-38
-0.07196667 -0.036406666 0.88900006 1.0699753e-38
-0.070273332 -0.036406666 0.88900006 5.5529675e-39
-0.068425715 -0.036324766 0.88700002 3.6168592e-39
-0.066736192 -0.036324766 0.88700002 3.8970166e-39
-0.064900003 -0.036242858 0.88500005 6.8472768e-39
-0.063214287 -0.036242858 0.88500005 1.4475758e-38
-0.061180957 -0.036038097 0.88000005 1.7702605e-38
-0.059504766 -0.036038097 0.88000005 1.6875027e-38
-0.057828575 -0.036038097 0.88000005 1.4938919e-38
-0.05602476 -0.035956193 0.87800002 1.5769055e-38
-0.05435238 -0.035956193 0.87800002 1.8534924e-38
-0.052680001 -0.035956193 0.87800002 1.9636227e-38
-0.050833337 -0.035833336 0.87500006 1.6593771e-38
-0.049166668 -0.035833336 0.87500006 1.4475064e-38
-0.04739143 -0.035751428 0.87300003 1.1156022e-38
-0.045728575 -0.035751428 0.87300003 1.2628942e-38
-0.044065714 -0.035751428 0.87300003 1.751531e-38
-0.042305715 -0.035669528 0.87100005 2.0556016e-38
-0.040646669 -0.035669528 0.87100005 1.9818451e-38
-0.039077144 -0.035751428 0.87300003 1.7427495e-38
-0.037500001 -0.035833336 0.87500006 1.6413343e-38
-0.035956193 -0.035956193 0.87800002 1.5497501e-38
-0.034166671 -0.035833336 0.87500006 1.5497501e-38
-0.032500003 -0.035833336 0.87500006 1.8532035e-38
-0.030833337 -0.035833336 0.87500006 2.0929121e-38
-0.029166669 -0.035833336 0.87500006 2.0284834e-38
-0.027500002 -0.035833336 0.87500006 1.67814e-38
-0.025833335 -0.035833336 0.87500006 1.3198741e-38
-0.024166668 -0.035833336 0.87500006 1.2737762e-38
-0.022500001 -0.035833336 0.87500006 1.4852491e-38
-0.020833336 -0.035833336 0.87500006 1.7433969e-38
-0.019232381 -0.035956193 0.87800002 2.0467783e-38
-0.01756 -0.035956193 0.87800002 2.0559979e-38
-0.015923811 -0.036038097 0.88000005 1.9360729e-38
-0.01424762 -0.036038097 0.88000005 2.0282685e-38
-0.012571429 -0.036038097 0.88000005 1.8719316e-38
-0.010981904 -0.036324766 0.88700002 1.06061e-38
-0.0092923809 -0.036324766 0.88700002 6.936255e-39
-0.0076028574 -0.036324766 0.88700002 6.19869e-39
-0.0059266672 -0.036406666 0.88900006 4.179056e-39
-0.0042333333 -0.036406666 0.88900006 3.3492953e-39
-0.0025400002 -0.036406666 0.88900006 8.3087568e-39
-0.0008447619 -0.036324766 0.88700002 1.0798039e-38
0.0008447619 -0.036324766 0.88700002 1.2721167e-38
-0.079182863 -0.034908574 0.89400005 1.0878343e-38
-0.077480003 -0.034908574 0.89400005 9.1309575e-39
-0.075522862 -0.034791429 0.89100003 1.3279761e-38
-0.073825717 -0.034791429 0.89100003 1.2361051e-38
-0.072128572 -0.034791429 0.89100003 7.7512698e-39
-0.070273332 -0.034713335 0.88900006 3.8988565e-39
-0.068580002 -0.034713335 0.88900006 4.7286172e-39
-0.066736192 -0.034635238 0.88700002 5.7384629e-39
-0.064900003 -0.034557145 0.88500005 5.1852892e-39
-0.063214287 -0.034557145 0.88500005 9.5994508e-39
-0.061319999 -0.034440003 0.88200003 1.5131189e-38
-0.059504766 -0.034361906 0.88000005 1.7886684e-38
-0.057828575 -0.034361906 0.88000005 2.0099379e-38
-0.05602476 -0.034283809 0.87800002 2.0006099e-38
-0.05435238 -0.034283809 0.87800002 1.9452925e-38
-0.052680001 -0.034283809 0.87800002 1.7516451e-38
-0.050833337 -0.034166671 0.87500006 1.3183256e-38
-0.049166668 -0.034166671 0.87500006 1.2173048e-38
-0.047500003 -0.034166671 0.87500006 1.2080852e-38
-0.045833338 -0.034166671 0.87500006 1.2630082e-38
-0.044166669 -0.034166671 0.87500006 1.4289604e-38
-0.042500004 -0.034166671 0.87500006 1.8067069e-38
-0.040833335 -0.034166671 0.87500006 2.2308068e-38
-0.03916667 -0.034166671 0.87500006 2.1572711e-38
-0.037500001 -0.034166671 0.87500006 2.0189777e-38
-0.035956193 -0.034283809 0.87800002 2.0562474e-38
-0.034166671 -0.034166671 0.87500006 2.1853213e-38
-0.032500003 -0.034166671 0.87500006 2.120644e-38
-0.030833337 -0.034166671 0.87500006 1.9270331e-38
-0.029166669 -0.034166671 0.87500006 1.6879003e-38
-0.027594287 -0.034283809 0.87800002 1.5496068e-38
-0.025833335 -0.034166671 0.87500006 1.3568971e-38
-0.024166668 -0.034166671 0.87500006 1.3568971e-38
-0.022577144 -0.034283809 0.87800002 1.421074e-38
-0.020904763 -0.034283809 0.87800002 1.3841958e-38
-0.019232381 -0.034283809 0.87800002 1.6969722e-38
-0.017600002 -0.034361906 0.88000005 1.9919982e-38
-0.015923811 -0.034361906 0.88000005 2.0928771e-38
-0.01424762 -0.034361906 0.88000005 1.8716076e-38
-0.012642858 -0.034557145 0.88500005 1.5498542e-38
-0.010981904 -0.034635238 0.88700002 7.5697176e-39
-0.0092923809 -0.034635238 0.88700002 3.444365e-39
-0.0076200003 -0.034713335 0.88900006 4.7351038e-39
-0.0059400005 -0.034791429 0.89100003 4.8226331e-39
-0.004242857 -0.034791429 0.89100003 3.6240899e-39
-0.0025400002 -0.034713335 0.88900006 9.3207816e-39
-0.00084666669 -0.034713335 0.88900006 1.2639824e-38
0.00084666669 -0.034713335 0.88900006 1.3918984e-38
-0.079182863 -0.033205714 0.89400005 1.1890693e-38
-0.077480003 -0.033205714 0.89400005 9.2227481e-39
-0.075777143 -0.033205714 0.89400005 1.318716e-38
-0.074074291 -0.033205714 0.89400005 1.1533827e-38
-0.072128572 -0.033094287 0.89100003 6.8318499e-39
-0.070431434 -0.033094287 0.89100003 2.5206038e-39
-0.068580002 -0.033020001 0.88900006 4.2723208e-39
-0.066736192 -0.032945715 0.88700002 5.0052167e-39
-0.065046668 -0.032945715 0.88700002 3.9910648e-39
-0.063357145 -0.032945715 0.88700002 5.8306011e-39
-0.061319999 -0.032760002 0.88200003 9.6106219e-39
-0.059640002 -0.032760002 0.88200003 1.7057621e-38
-0.057828575 -0.032685716 0.88000005 2.0837642e-38
-0.056152385 -0.032685716 0.88000005 2.0743313e-38
-0.05435238 -0.03261143 0.87800002 1.7332075e-38
-0.052680001 -0.03261143 0.87800002 1.3741112e-38
-0.051007621 -0.03261143 0.87800002 1.1436221e-38
-0.049335238 -0.03261143 0.87800002 1.2262372e-38
-0.047500003 -0.032500003 0.87500006 1.3368719e-38
-0.045833338 -0.032500003 0.87500006 1.2816625e-38
-0.044166669 -0.032500003 0.87500006 1.207906e-38
-0.042500004 -0.032500003 0.87500006 1.4102659e-38
-0.040833335 -0.032500003 0.87500006 1.8896832e-38
-0.03916667 -0.032500003 0.87500006 2.1663449e-38
-0.037500001 -0.032500003 0.87500006 2.2216623e-38
-0.035956193 -0.03261143 0.87800002 2.1758169e-38
-0.034283809 -0.03261143 0.87800002 2.2034756e-38
-0.032500003 -0.032500003 0.87500006 2.0562512e-38
-0.030833337 -0.032500003 0.87500006 1.65981e-38
-0.029266668 -0.03261143 0.87800002 1.3660438e-38
-0.027594287 -0.03261143 0.87800002 1.3660438e-38
-0.025980955 -0.032685716 0.88000005 1.2926485e-38
-0.024304764 -0.032685716 0.88000005 1.3110876e-38
-0.022628574 -0.032685716 0.88000005 1.2833566e-38
-0.020952383 -0.032685716 0.88000005 1.1819414e-38
-0.019276192 -0.032685716 0.88000005 1.2921768e-38
-0.01764 -0.032760002 0.88200003 1.7715941e-38
-0.016014285 -0.032871433 0.88500005 1.9643102e-38
-0.014328572 -0.032871433 0.88500005 1.6785037e-38
-0.012671429 -0.032945715 0.88700002 1.126585e-38
-0.010981904 -0.032945715 0.88700002 5.9185032e-39
-0.0093133338 -0.033020001 0.88900006 4.2719649e-39
-0.0076200003 -0.033020001 0.88900006 5.1939212e-39
-0.0059400005 -0.033094287 0.89100003 3.903188e-39
-0.004257143 -0.033205714 0.89400005 3.9953836e-39
-0.0025657145 -0.03335429 0.89800006 1.162278e-38
-0.00085333333 -0.03328 0.89600003 1.3466693e-38
0.00085333333 -0.03328 0.89600003 1.4102303e-38
-0.079182863 -0.031502858 0.89400005 1.2535343e-38
-0.077480003 -0.031502858 0.89400005 1.0696476e-38
-0.075946666 -0.031573333 0.89600003 1.355454e-38
-0.074239999 -0.031573333 0.89600003 1.2178102e-38
-0.072371431 -0.031502858 0.89400005 8.2136899e-39
-0.070668571 -0.031502858 0.89400005 3.7159044e-39
-0.068734288 -0.031397145 0.89100003 4.3612738e-39
-0.066886671 -0.031326666 0.88900006 4.7297088e-39
-0.065193333 -0.031326666 0.88900006 5.0984913e-39
-0.063500002 -0.031326666 0.88900006 5.0052013e-39
-0.061528575 -0.031185716 0.88500005 3.9910494e-39
-0.059842858 -0.031185716 0.88500005 1.410911e-38
-0.05796 -0.031080002 0.88200003 2.0654999e-38
-0.056152385 -0.031009525 0.88000005 2.0557432e-38
-0.054476194 -0.031009525 0.88000005 1.2536413e-38
-0.052800003 -0.031009525 0.88000005 1.1158542e-38
-0.051123813 -0.031009525 0.88000005 1.2172694e-38
-0.049335238 -0.030939048 0.87800002 1.2724079e-38
-0.047662858 -0.030939048 0.87800002 1.3277253e-38
-0.045990478 -0.030939048 0.87800002 1.3185057e-38
-0.044318095 -0.030939048 0.87800002 1.2631883e-38
-0.042645715 -0.030939048 0.87800002 1.2998492e-38
-0.040973332 -0.030939048 0.87800002 1.3090688e-38
-0.039300956 -0.030939048 0.87800002 1.548672e-38
-0.037628572 -0.030939048 0.87800002 2.2401393e-38
-0.035956193 -0.030939048 0.87800002 2.2035118e-38
-0.034283809 -0.030939048 0.87800002 1.9822423e-38
-0.03261143 -0.030939048 0.87800002 1.6694977e-38
-0.030939048 -0.030939048 0.87800002 1.494326e-38
-0.029266668 -0.030939048 0.87800002 1.3294179e-38
-0.027657144 -0.031009525 0.88000005 1.3570766e-38
-0.025980955 -0.031009525 0.88000005 1.3294545e-38
-0.024360001 -0.031080002 0.88200003 1.3202349e-38
-0.022680001 -0.031080002 0.88200003 1.3200911e-38
-0.021000002 -0.031080002 0.88200003 1.2647737e-38
-0.019320002 -0.031080002 0.88200003 1.2830677e-38
-0.017700002 -0.031185716 0.88500005 1.5780937e-38
-0.016014285 -0.031185716 0.88500005 1.8537455e-38
-0.014360953 -0.031256191 0.88700002 1.5679391e-38
-0.012671429 -0.031256191 0.88700002 1.0621206e-38
-0.011006667 -0.031326666 0.88900006 5.6426422e-39
-0.0093133338 -0.031326666 0.88900006 2.986998e-39
-0.0076371427 -0.031397145 0.89100003 3.3557805e-39
-0.0059400005 -0.031397145 0.89100003 5.5569331e-39
-0.004257143 -0.031502858 0.89400005 8.7837802e-39
-0.0025657145 -0.031643812 0.89800006 1.5032188e-38
-0.00085333333 -0.031573333 0.89600003 1.5400971e-38
0.00085333333 -0.031573333 0.89600003 1.5209014e-38
-0.077653334 -0.029866667 0.89600003 1.1156715e-38
-0.075946666 -0.029866667 0.89600003 1.3645997e-38
-0.074239999 -0.029866667 0.89600003 1.2916736e-38
-0.072371431 -0.0298 0.89400005 1.051965e-38
-0.070668571 -0.0298 0.89400005 4.0839975e-39
-0.068734288 -0.029700002 0.89100003 3.9918019e-39
-0.067037143 -0.029700002 0.89100003 3.9935829e-39
-0.065193333 -0.029633334 0.88900006 5.0999305e-39
-0.063500002 -0.029633334 0.88900006 3.4447181e-39
-0.061667617 -0.029566666 0.88700002 1.7851968e-39
-0.059842858 -0.029500002 0.88500005 9.8760531e-39
-0.05796 -0.0294 0.88200003 1.8265855e-38
-0.056280002 -0.0294 0.88200003 1.8530268e-38
-0.0546 -0.0294 0.88200003 1.1799987e-38
-0.052800003 -0.029333334 0.88000005 1.0881602e-38
-0.051123813 -0.029333334 0.88000005 1.2356733e-38
-0.049447622 -0.029333334 0.88000005 1.2907391e-38
-0.047771432 -0.029333334 0.88000005 1.3460565e-38
-0.046095241 -0.029333334 0.88000005 1.3277253e-38
-0.04441905 -0.029333334 0.88000005 1.3369448e-38
-0.042645715 -0.029266668 0.87800002 1.2908818e-38
-0.040973332 -0.029266668 0.87800002 1.1064905e-38
-0.039300956 -0.029266668 0.87800002 1.2541447e-38
-0.037628572 -0.029266668 0.87800002 2.1392228e-38
-0.035956193 -0.029266668 0.87800002 2.2128046e-38
-0.034283809 -0.029266668 0.87800002 1.9177785e-38
-0.03261143 -0.029266668 0.87800002 1.4580599e-38
-0.030939048 -0.029266668 0.87800002 1.3750838e-38
-0.029266668 -0.029266668 0.87800002 1.3478933e-38
-0.027657144 -0.029333334 0.88000005 1.3663324e-38
-0.025980955 -0.029333334 0.88000005 1.3477498e-38
-0.024360001 -0.0294 0.88200003 1.3477498e-38
-0.022680001 -0.0294 0.88200003 1.3293107e-38
-0.021000002 -0.0294 0.88200003 1.2647737e-38
-0.019320002 -0.0294 0.88200003 1.2095273e-38
-0.017700002 -0.029500002 0.88500005 1.532212e-38
-0.016050477 -0.029566666 0.88700002 1.7801698e-38
-0.014360953 -0.029566666 0.88700002 1.6603155e-38
-0.012700001 -0.029633334 0.88900006 9.9780298e-39
-0.011006667 -0.029633334 0.88900006 4.7228789e-39
-0.0093342857 -0.029700002 0.89100003 2.1586709e-39
-0.0076371427 -0.029700002 0.89100003 1.9742796e-39
-0.0059400005 -0.029700002 0.89100003 6.2894633e-39
-0.004257143 -0.0298 0.89400005 1.1821201e-38
-0.0025657145 -0.029933335 0.89800006 1.4939668e-38
-0.00085523812 -0.029933335 0.89800006 1.4109907e-38
0.00085523812 -0.029933335 0.89800006 1.4749118e-38
-0.075946666 -0.02816 0.89600003 1.3276862e-38
-0.074239999 -0.02816 0.89600003 1.3649597e-38
-0.072533339 -0.02816 0.89600003 1.4479358e-38
-0.070668571 -0.028097145 0.89400005 1.0156297e-38
-0.068965718 -0.028097145 0.89400005 5.4543203e-39
-0.067037143 -0.028002858 0.89100003 2.1554339e-39
-0.065340005 -0.028002858 0.89100003 3.4461727e-39
-0.063500002 -0.027940001 0.88900006 2.7993585e-39
-0.061667617 -0.027877143 0.88700002 2.5227716e-39
-0.059842858 -0.027814288 0.88500005 9.8743281e-39
-0.058157146 -0.027814288 0.88500005 1.8540717e-38
-0.05647143 -0.027814288 0.88500005 1.9638738e-38
-0.0546 -0.027720001 0.88200003 1.1986501e-38
-0.052920002 -0.027720001 0.88200003 1.014728e-38
-0.051240001 -0.027720001 0.88200003 1.162241e-38
-0.049560003 -0.027720001 0.88200003 1.2815918e-38
-0.047880001 -0.027720001 0.88200003 1.3184701e-38
-0.0462 -0.027720001 0.88200003 1.3368013e-38
-0.044520002 -0.027720001 0.88200003 1.36446e-38
-0.042742856 -0.027657144 0.88000005 1.3092861e-38
-0.041066669 -0.027657144 0.88000005 1.1064557e-38
-0.039300956 -0.027594287 0.87800002 1.1711716e-38
-0.037628572 -0.027594287 0.87800002 2.0101519e-38
-0.035956193 -0.027594287 0.87800002 2.1668497e-38
-0.034283809 -0.027594287 0.87800002 1.8902628e-38
-0.03261143 -0.027594287 0.87800002 1.4672091e-38
-0.030939048 -0.027594287 0.87800002 1.3750135e-38
-0.029266668 -0.027594287 0.87800002 1.3203069e-38
-0.027657144 -0.027657144 0.88000005 1.3571852e-38
-0.026040001 -0.027720001 0.88200003 1.3662245e-38
-0.024360001 -0.027720001 0.88200003 1.3662245e-38
-0.022680001 -0.027720001 0.88200003 1.3477854e-38
-0.021000002 -0.027720001 0.88200003 1.2832485e-38
-0.019385716 -0.027814288 0.88500005 1.4578428e-38
-0.017700002 -0.027814288 0.88500005 1.7897471e-38
-0.016050477 -0.027877143 0.88700002 1.9732749e-38
-0.014360953 -0.027877143 0.88700002 2.0193727e-38
-0.012700001 -0.027940001 0.88900006 1.6052151e-38
-0.011006667 -0.027940001 0.88900006 8.676501e-39
-0.0093342857 -0.028002858 0.89100003 1.5118959e-39
-0.0076628574 -0.028097145 0.89400005 1.6040916e-39
-0.0059600002 -0.028097145 0.89400005 8.3127603e-39
-0.0042666667 -0.02816 0.89600003 1.4397672e-38
-0.0025657145 -0.028222859 0.89800006 1.540062e-38
-0.00085523812 -0.028222859 0.89800006 1.2634752e-38
0.00085523812 -0.028222859 0.89800006 1.3645641e-38
-0.076370478 -0.026600951 0.90100002 1.2907e-38
-0.074239999 -0.026453335 0.89600003 1.3093147e-38
-0.072533339 -0.026453335 0.89600003 1.5859016e-38
-0.070826672 -0.026453335 0.89600003 1.3192998e-38
-0.068965718 -0.026394285 0.89400005 7.6612602e-39
-0.067037143 -0.026305715 0.89100003 1.3285346e-39
-0.065340005 -0.026305715 0.89100003 1.6051215e-39
-0.063642859 -0.026305715 0.89100003 1.7873576e-39
-0.061667617 -0.026187621 0.88700002 4.922009e-39
-0.059978094 -0.026187621 0.88700002 1.4018768e-38
-0.058157146 -0.026128573 0.88500005 1.9181723e-38
-0.05647143 -0.026128573 0.88500005 1.927141e-38
-0.054785714 -0.026128573 0.88500005 1.4385042e-38
-0.052920002 -0.026040001 0.88200003 1.115822e-38
-0.051240001 -0.026040001 0.88200003 1.1527003e-38
-0.049560003 -0.026040001 0.88200003 1.2540038e-38
-0.047880001 -0.026040001 0.88200003 1.3001016e-38
-0.0462 -0.026040001 0.88200003 1.3367653e-38
-0.044520002 -0.026040001 0.88200003 1.3552044e-38
-0.042742856 -0.025980955 0.88000005 1.2540754e-38
-0.041066669 -0.025980955 0.88000005 1.1803189e-38
-0.039390478 -0.025980955 0.88000005 1.2265619e-38
-0.037628572 -0.025921905 0.87800002 2.047103e-38
-0.035956193 -0.025921905 0.87800002 2.1760336e-38
-0.034283809 -0.025921905 0.87800002 2.0193011e-38
-0.03261143 -0.025921905 0.87800002 1.4307288e-38
-0.030939048 -0.025921905 0.87800002 1.2739962e-38
-0.029333334 -0.025980955 0.88000005 1.246622e-38
-0.027657144 -0.025980955 0.88000005 1.3203785e-38
-0.026040001 -0.026040001 0.88200003 1.3753722e-38
-0.024360001 -0.026040001 0.88200003 1.3661526e-38
-0.022757143 -0.026128573 0.88500005 1.320162e-38
-0.02107143 -0.026128573 0.88500005 1.320162e-38
-0.019385716 -0.026128573 0.88500005 1.66914e-38
-0.01774 -0.026187621 0.88700002 1.9180682e-38
-0.016050477 -0.026187621 0.88700002 2.0375938e-38
-0.014360953 -0.026187621 0.88700002 2.0929111e-38
-0.012700001 -0.026246669 0.88900006 1.9181745e-38
-0.011031428 -0.026305715 0.89100003 1.4110986e-38
-0.0093657151 -0.026394285 0.89400005 5.5612856e-39
-0.0076800003 -0.026453335 0.89600003 4.7315249e-39
-0.0059733335 -0.026453335 0.89600003 1.1074291e-38
-0.0042666667 -0.026453335 0.89600003 1.466992e-38
-0.0025657145 -0.026512383 0.89800006 1.5216229e-38
-0.00085523812 -0.026512383 0.89800006 1.1528404e-38
0.00085809524 -0.026600951 0.90100002 1.2265224e-38
-0.076370478 -0.024884764 0.90100002 9.9556833e-39
-0.074405722 -0.024801906 0.89800006 9.8652239e-39
-0.072533339 -0.024746668 0.89600003 1.521257e-38
-0.070826672 -0.024746668 0.89600003 1.4846759e-38
-0.068965718 -0.024691431 0.89400005 1.3279433e-38
-0.067262866 -0.024691431 0.89400005 6.4760336e-39
-0.065340005 -0.024608571 0.89100003 4.2633385e-39
-0.063642859 -0.024608571 0.89100003 7.6677469e-39
-0.061667617 -0.024498096 0.88700002 1.5043397e-38
-0.059978094 -0.024498096 0.88700002 1.8534896e-38
-0.058157146 -0.024442857 0.88500005 1.8719288e-38
-0.05647143 -0.024442857 0.88500005 1.9085574e-38
-0.054785714 -0.024442857 0.88500005 1.8808987e-38
-0.052920002 -0.024360001 0.88200003 1.5399232e-38
-0.051240001 -0.024360001 0.88200003 1.1158233e-38
-0.049560003 -0.024360001 0.88200003 1.0884107e-38
-0.047880001 -0.024360001 0.88200003 1.1621672e-38
-0.0462 -0.024360001 0.88200003 1.2354943e-38
-0.044520002 -0.024360001 0.88200003 1.1801769e-38
-0.04284 -0.024360001 0.88200003 1.2908082e-38
-0.041066669 -0.024304764 0.88000005 1.7149081e-38
-0.039390478 -0.024304764 0.88000005 1.8899391e-38
-0.037714288 -0.024304764 0.88000005 2.1941847e-38
-0.036038097 -0.024304764 0.88000005 2.2034753e-38
-0.034361906 -0.024304764 0.88000005 2.231134e-38
-0.032685716 -0.024304764 0.88000005 1.9825683e-38
-0.031009525 -0.024304764 0.88000005 1.7244205e-38
-0.029333334 -0.024304764 0.88000005 1.3753722e-38
-0.027720001 -0.024360001 0.88200003 1.3477135e-38
-0.026040001 -0.024360001 0.88200003 1.3017605e-38
-0.024360001 -0.024360001 0.88200003 1.2833213e-38
-0.022757143 -0.024442857 0.88500005 1.4671703e-38
-0.02107143 -0.024442857 0.88500005 1.7806354e-38
-0.019385716 -0.024442857 0.88500005 2.0284483e-38
-0.01774 -0.024498096 0.88700002 1.7703006e-38
-0.016050477 -0.024498096 0.88700002 1.8347222e-38
-0.014393334 -0.024553334 0.88900006 1.9545765e-38
-0.012728572 -0.024608571 0.89100003 1.9823858e-38
-0.011031428 -0.024608571 0.89100003 2.000825e-38
-0.0093657151 -0.024691431 0.89400005 1.6971199e-38
-0.0076800003 -0.024746668 0.89600003 1.4389721e-38
-0.0059733335 -0.024746668 0.89600003 1.4483361e-38
-0.0042761909 -0.024801906 0.89800006 1.3930188e-38
-0.0025657145 -0.024801906 0.89800006 1.2731266e-38
-0.00085523812 -0.024801906 0.89800006 1.0610766e-38
0.00085809524 -0.024884764 0.90100002 1.2449259e-38
0.0025800001 -0.024940003 0.90300006 1.4016585e-38
-0.076540001 -0.023220003 0.90300006 8.6635025e-39
-0.074405722 -0.02309143 0.89800006 8.7545057e-39
-0.07269524 -0.02309143 0.89800006 1.3548667e-38
-0.070826672 -0.02304 0.89600003 1.640757e-38
-0.069120005 -0.02304 0.89600003 1.6038787e-38
-0.067262866 -0.022988571 0.89400005 1.0706565e-38
-0.065560006 -0.022988571 0.89400005 8.678261e-39
-0.063642859 -0.022911429 0.89100003 1.2821326e-38
-0.061806668 -0.022860002 0.88900006 1.7892086e-38
-0.059978094 -0.022808572 0.88700002 1.9085574e-38
-0.058288574 -0.022808572 0.88700002 1.7610444e-38
-0.05647143 -0.022757143 0.88500005 1.8162889e-38
-0.054785714 -0.022757143 0.88500005 1.9730215e-38
-0.053100005 -0.022757143 0.88500005 1.9084871e-38
-0.051414289 -0.022757143 0.88500005 1.5120459e-38
-0.049728576 -0.022757143 0.88500005 1.1160022e-38
-0.04804286 -0.022757143 0.88500005 1.0606848e-38
-0.0462 -0.022680001 0.88200003 1.0975908e-38
-0.044520002 -0.022680001 0.88200003 1.1805669e-38
-0.04284 -0.022680001 0.88200003 1.3646385e-38
-0.041160002 -0.022680001 0.88200003 1.9085928e-38
-0.039480001 -0.022680001 0.88200003 2.1019534e-38
-0.037800003 -0.022680001 0.88200003 2.0374165e-38
-0.036038097 -0.022628574 0.88000005 2.0559234e-38
-0.034361906 -0.022628574 0.88000005 2.2403147e-38
-0.032685716 -0.022628574 0.88000005 2.2035837e-38
-0.031009525 -0.022628574 0.88000005 2.0007533e-38
-0.0294 -0.022680001 0.88200003 1.5134522e-38
-0.027720001 -0.022680001 0.88200003 1.329061e-38
-0.026128573 -0.022757143 0.88500005 1.2097788e-38
-0.024442857 -0.022757143 0.88500005 1.2282179e-38
-0.022757143 -0.022757143 0.88500005 1.6049968e-38
-0.021119049 -0.022808572 0.88700002 1.9645598e-38
-0.019429525 -0.022808572 0.88700002 2.166562e-38
-0.01774 -0.022808572 0.88700002 1.5211926e-38
-0.016050477 -0.022808572 0.88700002 1.4656183e-38
-0.014393334 -0.022860002 0.88900006 1.705327e-38
-0.012728572 -0.022911429 0.89100003 1.9819514e-38
-0.011068572 -0.022988571 0.89400005 2.1202449e-38
-0.0093657151 -0.022988571 0.89400005 2.0098297e-38
-0.0076800003 -0.02304 0.89600003 1.834658e-38
-0.0059866668 -0.02309143 0.89800006 1.5129813e-38
-0.0042761909 -0.02309143 0.89800006 1.1626379e-38
-0.0025657145 -0.02309143 0.89800006 1.0890237e-38
-0.00085809524 -0.023168571 0.90100002 1.0337063e-38
0.00085809524 -0.023168571 0.90100002 1.2632934e-38
0.0025800001 -0.023220003 0.90300006 1.420026e-38
-0.076540001 -0.021500001 0.90300006 8.8475435e-39
-0.074654289 -0.021452382 0.90100002 8.1132e-39
-0.07269524 -0.021380953 0.89800006 9.2195476e-39
-0.070826672 -0.021333335 0.89600003 1.2443864e-38
-0.069120005 -0.021333335 0.89600003 1.7883406e-38
-0.067262866 -0.021285716 0.89400005 1.6873235e-38
-0.065560006 -0.021285716 0.89400005 1.6504453e-38
-0.063857146 -0.021285716 0.89400005 1.7151271e-38
-0.061806668 -0.021166669 0.88900006 1.7981032e-38
-0.060113337 -0.021166669 0.88900006 1.5217709e-38
-0.058288574 -0.021119049 0.88700002 1.3465992e-38
-0.056599047 -0.021119049 0.88700002 1.4112065e-38
-0.054785714 -0.02107143 0.88500005 1.7892086e-38
-0.053100005 -0.02107143 0.88500005 1.9730231e-38
-0.051414289 -0.02107143 0.88500005 2.0099013e-38
-0.049728576 -0.02107143 0.88500005 1.6597409e-38
-0.04804286 -0.02107143 0.88500005 1.1342258e-38
-0.046357144 -0.02107143 0.88500005 1.1621306e-38
-0.044671431 -0.02107143 0.88500005 1.7153044e-38
-0.04284 -0.021000002 0.88200003 2.0744705e-38
-0.041160002 -0.021000002 0.88200003 2.2865204e-38
-0.039480001 -0.021000002 0.88200003 2.0561446e-38
-0.037800003 -0.021000002 0.88200003 1.4937512e-38
-0.036120001 -0.021000002 0.88200003 1.3469861e-38
-0.034440003 -0.021000002 0.88200003 1.6788904e-38
-0.032760002 -0.021000002 0.88200003 2.000825e-38
-0.031080002 -0.021000002 0.88200003 2.2774118e-38
-0.0294 -0.021000002 0.88200003 2.1576661e-38
-0.027720001 -0.021000002 0.88200003 1.8718597e-38
-0.026128573 -0.02107143 0.88500005 1.7157725e-38
-0.024442857 -0.02107143 0.88500005 1.7710899e-38
-0.022808572 -0.021119049 0.88700002 1.9824591e-38
-0.021119049 -0.021119049 0.88700002 2.0562156e-38
-0.019429525 -0.021119049 0.88700002 1.9639429e-38
-0.01774 -0.021119049 0.88700002 1.2724757e-38
-0.016086668 -0.021166669 0.88900006 1.0972727e-38
-0.014393334 -0.021166669 0.88900006 1.0972727e-38
-0.012771429 -0.021285716 0.89400005 1.4473583e-38
-0.011068572 -0.021285716 0.89400005 1.9359951e-38
-0.0093657151 -0.021285716 0.89400005 1.9176338e-38
-0.0076800003 -0.021333335 0.89600003 1.8623164e-38
-0.0059866668 -0.021380953 0.89800006 1.540387e-38
-0.0042761909 -0.021380953 0.89800006 1.1623849e-38
-0.0025657145 -0.021380953 0.89800006 1.0338511e-38
-0.00085809524 -0.021452382 0.90100002 1.0338511e-38
0.00085809524 -0.021452382 0.90100002 1.3092133e-38
0.0025742857 -0.021452382 0.90100002 1.4475067e-38
-0.076540001 -0.019780001 0.90300006 8.3880045e-39
-0.074654289 -0.019736189 0.90100002 7.2866595e-39
-0.072938092 -0.019736189 0.90100002 7.655442e-39
-0.070826672 -0.019626666 0.89600003 1.0598848e-38
-0.069120005 -0.019626666 0.89600003 1.6960347e-38
-0.067262866 -0.019582856 0.89400005 1.7793015e-38
-0.065560006 -0.019582856 0.89400005 1.8899363e-38
-0.063857146 -0.019582856 0.89400005 1.7704808e-38
-0.061945714 -0.019517142 0.89100003 1.6045286e-38
-0.060248572 -0.019517142 0.89100003 1.3103298e-38
-0.058420002 -0.019473333 0.88900006 1.1812559e-38
-0.056599047 -0.019429525 0.88700002 1.2366809e-38
-0.054909527 -0.019429525 0.88700002 1.4948287e-38
-0.05322 -0.019429525 0.88700002 1.8993732e-38
-0.051414289 -0.019385716 0.88500005 2.0561058e-38
-0.049728576 -0.019385716 0.88500005 1.9730606e-38
-0.04804286 -0.019385716 0.88500005 1.438326e-38
-0.046357144 -0.019385716 0.88500005 1.3186143e-38
-0.044671431 -0.019385716 0.88500005 1.9732033e-38
-0.042985715 -0.019385716 0.88500005 2.1665973e-38
-0.041300002 -0.019385716 0.88500005 2.1481582e-38
-0.039614286 -0.019385716 0.88500005 1.8814042e-38
-0.03792857 -0.019385716 0.88500005 1.0332044e-38
-0.036120001 -0.019320002 0.88200003 7.8563686e-39
-0.034440003 -0.019320002 0.88200003 1.0714433e-38
-0.032760002 -0.019320002 0.88200003 1.8162151e-38
-0.031080002 -0.019320002 0.88200003 2.1942172e-38
-0.029500002 -0.019385716 0.88500005 2.2956712e-38
-0.027814288 -0.019385716 0.88500005 2.1665973e-38
-0.026128573 -0.019385716 0.88500005 1.8537452e-38
-0.024442857 -0.019385716 0.88500005 1.9828191e-38
-0.022808572 -0.019429525 0.88700002 2.1206437e-38
-0.021119049 -0.019429525 0.88700002 1.8440568e-38
-0.019429525 -0.019429525 0.88700002 1.6318261e-38
-0.01778 -0.019473333 0.88900006 1.2630436e-38
-0.016086668 -0.019473333 0.88900006 1.1619167e-38
-0.014425715 -0.019517142 0.89100003 1.1065994e-38
-0.012771429 -0.019582856 0.89400005 1.1617664e-38
-0.011068572 -0.019582856 0.89400005 1.6596228e-38
-0.0093866661 -0.019626666 0.89600003 1.8531322e-38
-0.0076800003 -0.019626666 0.89600003 1.8254735e-38
-0.0059866668 -0.019670477 0.89800006 1.4760301e-38
-0.0042761909 -0.019670477 0.89800006 1.1349063e-38
-0.0025742857 -0.019736189 0.90100002 1.089024e-38
-0.00085809524 -0.019736189 0.90100002 1.0798044e-38
0.00086000003 -0.019780001 0.90300006 1.3276161e-38
0.0025885713 -0.019845715 0.90600002 1.4474704e-38
-0.074820004 -0.018060001 0.90300006 7.381739e-39
-0.072938092 -0.01802 0.90100002 7.9349128e-39
-0.070984766 -0.017960001 0.89800006 9.4032102e-39
-0.069120005 -0.01792 0.89600003 1.299884e-38
-0.067413338 -0.01792 0.89600003 1.6317133e-38
-0.06570667 -0.01792 0.89600003 1.9083002e-38
-0.063857146 -0.017880002 0.89400005 1.7152681e-38
-0.062154286 -0.017880002 0.89400005 1.3741442e-38
-0.060248572 -0.017820001 0.89100003 1.1447742e-38
-0.058551431 -0.017820001 0.89100003 1.2000916e-38
-0.056726668 -0.01778 0.88900006 1.2185317e-38
-0.054909527 -0.01774 0.88700002 1.2277513e-38
-0.05322 -0.01774 0.88700002 1.5405267e-38
-0.051530477 -0.01774 0.88700002 1.807894e-38
-0.049728576 -0.017700002 0.88500005 1.9822439e-38
-0.04804286 -0.017700002 0.88500005 2.0375613e-38
-0.046357144 -0.017700002 0.88500005 2.083621e-38
-0.044671431 -0.017700002 0.88500005 2.1850361e-38
-0.042985715 -0.017700002 0.88500005 1.9456177e-38
-0.041300002 -0.017700002 0.88500005 1.4569809e-38
-0.039614286 -0.017700002 0.88500005 7.6764055e-39
-0.03792857 -0.017700002 0.88500005 6.4778623e-39
-0.036242858 -0.017700002 0.88500005 6.4828649e-39
-0.034557145 -0.017700002 0.88500005 6.9438431e-39
-0.032871433 -0.017700002 0.88500005 1.0894884e-38
-0.031185716 -0.017700002 0.88500005 1.3568557e-38
-0.029500002 -0.017700002 0.88500005 1.8534193e-38
-0.027814288 -0.017700002 0.88500005 2.2406409e-38
-0.026187621 -0.01774 0.88700002 2.2864519e-38
-0.024498096 -0.01774 0.88700002 2.1758171e-38
-0.022808572 -0.01774 0.88700002 1.982313e-38
-0.021119049 -0.01774 0.88700002 1.2816262e-38
-0.019473333 -0.01778 0.88900006 1.1895387e-38
-0.01778 -0.01778 0.88900006 1.2632952e-38
-0.016122857 -0.017820001 0.89100003 1.2908836e-38
-0.014425715 -0.017820001 0.89100003 1.2447858e-38
-0.012771429 -0.017880002 0.89400005 1.1802826e-38
-0.011068572 -0.017880002 0.89400005 1.3646738e-38
-0.0093866661 -0.01792 0.89600003 1.7058312e-38
-0.0076800003 -0.01792 0.89600003 1.7611485e-38
-0.0059866668 -0.017960001 0.89800006 1.5127273e-38
-0.0042904764 -0.01802 0.90100002 1.1808231e-38
-0.0025742857 -0.01802 0.90100002 1.0706572e-38
-0.00086000003 -0.018060001 0.90300006 1.0798768e-38
0.00086285715 -0.01812 0.90600002 1.3552745e-38
0.0025885713 -0.01812 0.90600002 1.4659093e-38
-0.074820004 -0.016340001 0.90300006 8.1149979e-39
-0.073100001 -0.016340001 0.90300006 8.7603673e-39
-0.07122191 -0.016303809 0.90100002 8.9436697e-39
-0.069274291 -0.016249524 0.89800006 1.0603191e-38
-0.067413338 -0.016213333 0.89600003 1.4565442e-38
-0.06570667 -0.016213333 0.89600003 1.8161072e-38
-0.064000003 -0.016213333 0.89600003 1.5495352e-38
-0.062154286 -0.016177142 0.89400005 1.2637288e-38
-0.060248572 -0.016122857 0.89100003 1.0988912e-38
-0.058551431 -0.016122857 0.89100003 1.209526e-38
-0.056726668 -0.016086668 0.88900006 1.2002368e-38
-0.055033337 -0.016086668 0.88900006 1.1725781e-38
-0.05322 -0.016050477 0.88700002 1.2461153e-38
-0.051530477 -0.016050477 0.88700002 1.4489457e-38
-0.049840953 -0.016050477 0.88700002 1.8994098e-38
-0.04804286 -0.016014285 0.88500005 2.1575575e-38
-0.046357144 -0.016014285 0.88500005 2.2310992e-38
-0.044671431 -0.016014285 0.88500005 2.129684e-38
-0.042985715 -0.016014285 0.88500005 1.5411792e-38
-0.041300002 -0.016014285 0.88500005 7.5751631e-39
-0.039614286 -0.016014285 0.88500005 5.0120677e-39
-0.03792857 -0.016014285 0.88500005 6.4871977e-39
-0.036242858 -0.016014285 0.88500005 6.3939091e-39
-0.034557145 -0.016014285 0.88500005 6.2095178e-39
-0.032871433 -0.016014285 0.88500005 4.1880285e-39
-0.031185716 -0.016014285 0.88500005 4.7412023e-39
-0.029500002 -0.016014285 0.88500005 1.4482955e-38
-0.027814288 -0.016014285 0.88500005 2.1489464e-38
-0.026187621 -0.016050477 0.88700002 2.3141466e-38
-0.024498096 -0.016050477 0.88700002 2.1389749e-38
-0.022860002 -0.016086668 0.88900006 1.7060495e-38
-0.021166669 -0.016086668 0.88900006 1.1620953e-38
-0.019473333 -0.016086668 0.88900006 1.171029e-38
-0.01778 -0.016086668 0.88900006 1.318542e-38
-0.016122857 -0.016122857 0.89100003 1.3276897e-38
-0.014474287 -0.016177142 0.89400005 1.2723723e-38
-0.012771429 -0.016177142 0.89400005 1.0699362e-38
-0.011068572 -0.016177142 0.89400005 1.3557427e-38
-0.0093866661 -0.016213333 0.89600003 1.5860169e-38
-0.0076971436 -0.016249524 0.89800006 1.7150908e-38
-0.0059866668 -0.016249524 0.89800006 1.365468e-38
-0.0042904764 -0.016303809 0.90100002 1.0796615e-38
-0.0025800001 -0.016340001 0.90300006 1.0338511e-38
-0.00086000003 -0.016340001 0.90300006 1.0799489e-38
0.00086285715 -0.016394285 0.90600002 1.3737837e-38
0.0025942859 -0.016430477 0.90800005 1.4475402e-38
-0.076540001 -0.01462 0.90300006 1.2260198e-38
-0.074820004 -0.01462 0.90300006 8.5778187e-39
-0.072938092 -0.014587619 0.90100002 8.024645e-39
-0.07122191 -0.014587619 0.90100002 8.1153832e-39
-0.069274291 -0.014539048 0.89800006 9.4061221e-39
-0.067563809 -0.014539048 0.89800006 1.3828966e-38
-0.06570667 -0.014506667 0.89600003 1.7701183e-38
-0.064000003 -0.014506667 0.89600003 1.5586819e-38
-0.062154286 -0.014474287 0.89400005 1.282095e-38
-0.060451429 -0.014474287 0.89400005 1.089708e-38
