# .PCD v0.7 - Point Cloud Data file format
VERSION 0.7
FIELDS x y z rgb
SIZE 4 4 4 4
TYPE F F F F
COUNT 1 1 1 1
WIDTH 974
HEIGHT 1
VIEWPOINT 0 0 0 1 0 0 0
POINTS 974
DATA ascii
-0.13927905 0.030345716 0.81700003 7.7519733e-39
-0.13738571 0.03027143 0.81500006 1.3375907e-38
-0.13550001 0.030197144 0.81300002 1.6042377e-38
-0.13395143 0.030197144 0.81300002 1.576579e-38
-0.13207716 0.030122858 0.81100005 1.539805e-38
-0.13021049 0.030048572 0.80900002 1.6688789e-38
-0.12835144 0.029974287 0.80700004 1.5216636e-38
-0.12681429 0.029974287 0.80700004 1.2542962e-38
-0.12496667 0.029900001 0.80500007 6.1108482e-39
-0.12343334 0.029900001 0.80500007 4.8201094e-39
-0.12190001 0.029900001 0.80500007 3.0795594e-39
-0.12036668 0.029900001 0.80500007 2.8029725e-39
-0.1185381 0.029825715 0.80300003 5.0999179e-39
-0.11700858 0.029825715 0.80300003 9.5253081e-39
-0.11533524 0.029788572 0.80200005 1.5217726e-38
-0.11380763 0.029788572 0.80200005 2.1671382e-38
-0.11228 0.029788572 0.80200005 2.2587929e-38
-0.11075239 0.029788572 0.80200005 1.9729865e-38
-0.10895238 0.029714286 0.80000001 1.4479089e-38
-0.10742857 0.029714286 0.80000001 1.1989807e-38
-0.10590477 0.029714286 0.80000001 1.2911714e-38
-0.10438095 0.029714286 0.80000001 1.4018062e-38
-0.10285714 0.029714286 0.80000001 1.4844578e-38
-0.10158667 0.029788572 0.80200005 1.4844578e-38
-0.10005905 0.029788572 0.80200005 1.4567638e-38
-0.098531432 0.029788572 0.80200005 1.3645682e-38
-0.09700381 0.029788572 0.80200005 1.4475417e-38
-0.095476195 0.029788572 0.80200005 2.0560329e-38
-0.094065718 0.029825715 0.80300003 2.2495734e-38
-0.092536189 0.029825715 0.80300003 2.3048907e-38
-0.091006674 0.029825715 0.80300003 2.2681204e-38
-0.089700006 0.029900001 0.80500007 2.2865595e-38
-0.088166669 0.029900001 0.80500007 2.1208247e-38
-0.086848572 0.029974287 0.80700004 1.8811161e-38
-0.085311428 0.029974287 0.80700004 1.5503284e-38
-0.083774291 0.029974287 0.80700004 1.3843762e-38
-0.082440957 0.030048572 0.80900002 1.3477498e-38
-0.080899999 0.030048572 0.80900002 1.5413606e-38
-0.079359047 0.030048572 0.80900002 1.9456878e-38
-0.078010477 0.030122858 0.81100005 2.0563225e-38
-0.076654285 0.030197144 0.81300002 1.9362486e-38
-0.075475238 0.030345716 0.81700003 1.1249271e-38
-0.07391905 0.030345716 0.81700003 1.097269e-38
-0.072540008 0.030420002 0.81900007 1.3830754e-38
-0.071153335 0.030494286 0.82100004 1.6039168e-38
-0.069589525 0.030494286 0.82100004 1.7790885e-38
-0.068191424 0.030568572 0.82300001 1.6134225e-38
-0.066623807 0.030568572 0.82300001 1.3276161e-38
-0.13927905 0.031901907 0.81700003 8.3936811e-39
-0.13738571 0.03182381 0.81500006 1.5031766e-38
-0.13583335 0.03182381 0.81500006 1.7052967e-38
-0.13395143 0.031745713 0.81300002 1.4655881e-38
-0.13207716 0.031667624 0.81100005 1.2905869e-38
-0.13053238 0.031667624 0.81100005 1.4565391e-38
-0.12866952 0.031589523 0.80900002 1.7148387e-38
-0.12681429 0.03151143 0.80700004 1.6318626e-38
-0.12527715 0.03151143 0.80700004 9.9751796e-39
-0.12374 0.03151143 0.80700004 5.2732024e-39
-0.12220286 0.03151143 0.80700004 1.5150615e-39
-0.12036668 0.031433333 0.80500007 1.9760396e-39
-0.11883334 0.031433333 0.80500007 8.133013e-39
-0.11700858 0.031355239 0.80300003 1.4402316e-38
-0.11547905 0.031355239 0.80300003 2.0097581e-38
-0.11380763 0.031316195 0.80200005 2.2033689e-38
-0.11228 0.031316195 0.80200005 2.1942913e-38
-0.11075239 0.031316195 0.80200005 2.0928761e-38
-0.10922477 0.031316195 0.80200005 1.8534581e-38
-0.10769715 0.031316195 0.80200005 1.4477973e-38
-0.10616953 0.031316195 0.80200005 1.2543313e-38
-0.10464191 0.031316195 0.80200005 1.3373073e-38
-0.10311429 0.031316195 0.80200005 1.4658386e-38
-0.10158667 0.031316195 0.80200005 1.4842778e-38
-0.10005905 0.031316195 0.80200005 1.4015534e-38
-0.098531432 0.031316195 0.80200005 1.429212e-38
-0.09700381 0.031316195 0.80200005 1.5582509e-38
-0.095595248 0.031355239 0.80300003 2.2589377e-38
-0.094065718 0.031355239 0.80300003 2.3234378e-38
-0.092536189 0.031355239 0.80300003 2.1390465e-38
-0.091006674 0.031355239 0.80300003 2.1205689e-38
-0.089700006 0.031433333 0.80500007 2.3233992e-38
-0.088385724 0.03151143 0.80700004 2.3234018e-38
-0.086848572 0.03151143 0.80700004 2.1482301e-38
-0.085311428 0.03151143 0.80700004 1.6424897e-38
-0.083981901 0.031589523 0.80900002 1.3290245e-38
-0.082440957 0.031589523 0.80900002 1.3934148e-38
-0.080899999 0.031589523 0.80900002 1.7621973e-38
-0.079555243 0.031667624 0.81100005 2.1113525e-38
-0.078010477 0.031667624 0.81100005 1.890083e-38
-0.076654285 0.031745713 0.81300002 1.6870706e-38
-0.075475238 0.031901907 0.81700003 1.1892142e-38
-0.07410001 0.03198 0.81900007 1.0329482e-38
-0.072540008 0.03198 0.81900007 1.0882656e-38
-0.071153335 0.032058097 0.82100004 1.4749836e-38
-0.069759049 0.032136191 0.82300001 1.7239118e-38
-0.068357147 0.032214288 0.82500005 1.567362e-38
-0.066785723 0.032214288 0.82500005 1.3184338e-38
-0.065372378 0.032292381 0.82700002 1.4380335e-38
-0.13927905 0.033458095 0.81700003 8.4855264e-39
-0.13738571 0.033376191 0.81500006 1.4017264e-38
-0.13583335 0.033376191 0.81500006 1.4749506e-38
-0.13428096 0.033376191 0.81500006 1.0600702e-38
-0.13240287 0.033294287 0.81300002 9.0362157e-39
-0.13053238 0.033212382 0.81100005 1.041915e-38
-0.12898763 0.033212382 0.81100005 1.3552748e-38
-0.12712857 0.033130478 0.80900002 1.9453268e-38
-0.12527715 0.03304857 0.80700004 1.6233659e-38
-0.12374 0.03304857 0.80700004 1.0056552e-38
-0.12220286 0.03304857 0.80700004 6.3888322e-39
-0.12066572 0.03304857 0.80700004 1.0629831e-38
-0.11883334 0.03296667 0.80500007 1.7614032e-38
-0.1173 0.03296667 0.80500007 2.1117466e-38
-0.11547905 0.032884765 0.80300003 2.1020967e-38
-0.11394952 0.032884765 0.80300003 1.9084858e-38
-0.11242001 0.032884765 0.80300003 2.0192969e-38
-0.11089048 0.032884765 0.80300003 2.1944686e-38
-0.10922477 0.03284381 0.80200005 2.1666704e-38
-0.10769715 0.03284381 0.80200005 2.0744748e-38
-0.10616953 0.03284381 0.80200005 1.7612265e-38
-0.10464191 0.03284381 0.80200005 1.3555657e-38
-0.10311429 0.03284381 0.80200005 1.272696e-38
-0.10158667 0.03284381 0.80200005 1.2634764e-38
-0.10005905 0.03284381 0.80200005 1.5026796e-38
-0.098531432 0.03284381 0.80200005 2.1019512e-38
-0.09700381 0.03284381 0.80200005 2.3325835e-38
-0.095595248 0.032884765 0.80300003 2.3509867e-38
-0.094065718 0.032884765 0.80300003 2.2775195e-38
-0.092536189 0.032884765 0.80300003 1.4477588e-38
-0.091233335 0.03296667 0.80500007 1.291814e-38
-0.089700006 0.03296667 0.80500007 1.6882552e-38
-0.088385724 0.03304857 0.80700004 2.0929843e-38
-0.086848572 0.03304857 0.80700004 2.3234375e-38
-0.085311428 0.03304857 0.80700004 2.2498255e-38
-0.083981901 0.033130478 0.80900002 1.9455799e-38
-0.082440957 0.033130478 0.80900002 1.9917493e-38
-0.080899999 0.033130478 0.80900002 2.166921e-38
-0.079555243 0.033212382 0.81100005 2.0928774e-38
-0.078202859 0.033294287 0.81300002 1.4290688e-38
-0.076842859 0.033376191 0.81500006 1.1616672e-38
-0.075660005 0.033540003 0.81900007 1.2354237e-38
-0.07410001 0.033540003 0.81900007 1.1894681e-38
-0.072717145 0.033621907 0.82100004 1.106492e-38
-0.071326666 0.033703808 0.82300001 1.3368344e-38
-0.069928572 0.033785716 0.82500005 1.6963973e-38
-0.068357147 0.033785716 0.82500005 1.6041324e-38
-0.066947617 0.03386762 0.82700002 1.3644237e-38
-0.065372378 0.03386762 0.82700002 1.4197389e-38
-0.13927905 0.035014287 0.81700003 7.6550343e-39
-0.13772286 0.035014287 0.81700003 1.3278968e-38
-0.13583335 0.034928575 0.81500006 1.3185054e-38
-0.13428096 0.034928575 0.81500006 9.1284464e-39
-0.13240287 0.03484286 0.81300002 8.7599791e-39
-0.13053238 0.034757145 0.81100005 9.1287616e-39
-0.12898763 0.034757145 0.81100005 1.3087039e-38
-0.12712857 0.034671426 0.80900002 1.9448537e-38
-0.12527715 0.034585718 0.80700004 1.8350893e-38
-0.12374 0.034585718 0.80700004 1.2450373e-38
-0.12220286 0.034585718 0.80700004 1.0982057e-38
-0.12066572 0.034585718 0.80700004 1.577623e-38
-0.11883334 0.034500003 0.80500007 2.019013e-38
-0.1173 0.034500003 0.80500007 2.1849651e-38
-0.11547905 0.034414288 0.80300003 2.0377758e-38
-0.11394952 0.034414288 0.80300003 1.6874324e-38
-0.11242001 0.034414288 0.80300003 1.7151612e-38
-0.11089048 0.034414288 0.80300003 1.9456502e-38
-0.10922477 0.034371432 0.80200005 2.2126588e-38
-0.10769715 0.034371432 0.80200005 2.2218784e-38
-0.10616953 0.034371432 0.80200005 2.0837307e-38
-0.10464191 0.034371432 0.80200005 1.5950938e-38
-0.10311429 0.034371432 0.80200005 1.337267e-38
-0.10158667 0.034371432 0.80200005 1.3741452e-38
-0.10005905 0.034371432 0.80200005 1.6041689e-38
-0.098531432 0.034371432 0.80200005 2.3232944e-38
-0.09700381 0.034371432 0.80200005 2.3326213e-38
-0.095595248 0.034414288 0.80300003 2.3234018e-38
-0.094300009 0.034500003 0.80500007 1.9553755e-38
-0.092766672 0.034500003 0.80500007 9.8732141e-39
-0.091233335 0.034500003 0.80500007 7.5841104e-39
-0.08992286 0.034585718 0.80700004 1.0349979e-38
-0.088385724 0.034585718 0.80700004 1.8254712e-38
-0.086848572 0.034585718 0.80700004 2.231132e-38
-0.08552286 0.034671426 0.80900002 2.3418043e-38
-0.083981901 0.034671426 0.80900002 2.2496087e-38
-0.082440957 0.034671426 0.80900002 2.1666349e-38
-0.081100002 0.034757145 0.81100005 2.1942935e-38
-0.079555243 0.034757145 0.81100005 2.0007531e-38
-0.078202859 0.03484286 0.81300002 1.263188e-38
-0.076842859 0.034928575 0.81500006 1.1158542e-38
-0.075660005 0.035100002 0.81900007 1.2541477e-38
-0.07410001 0.035100002 0.81900007 1.2724426e-38
-0.072717145 0.035185717 0.82100004 1.1894666e-38
-0.071500003 0.035357147 0.82500005 1.2632231e-38
-0.069928572 0.035357147 0.82500005 1.6320056e-38
-0.068522863 0.035442855 0.82700002 1.5673635e-38
-0.066947617 0.035442855 0.82700002 1.3737527e-38
-0.065372378 0.035442855 0.82700002 1.4934225e-38
-0.13772286 0.036570478 0.81700003 1.097522e-38
-0.13616668 0.036570478 0.81700003 1.1342904e-38
-0.13428096 0.036480956 0.81500006 8.7614267e-39
-0.13240287 0.03639143 0.81300002 9.2209951e-39
-0.13085429 0.03639143 0.81300002 9.8663645e-39
-0.12898763 0.036301903 0.81100005 1.087797e-38
-0.12712857 0.036212385 0.80900002 1.3920426e-38
-0.12558763 0.036212385 0.80900002 1.5582844e-38
-0.12374 0.036122859 0.80700004 1.86253e-38
-0.12220286 0.036122859 0.80700004 1.9270682e-38
-0.12066572 0.036122859 0.80700004 2.0745812e-38
-0.11912858 0.036122859 0.80700004 2.028412e-38
-0.1173 0.036033336 0.80500007 1.8993382e-38
-0.11576667 0.036033336 0.80500007 1.6140732e-38
-0.11423334 0.036033336 0.80500007 1.5034384e-38
-0.11270001 0.036033336 0.80500007 1.4669557e-38
-0.11116667 0.036033336 0.80500007 1.5314927e-38
-0.10936096 0.03594381 0.80300003 1.8350508e-38
-0.10783143 0.03594381 0.80300003 2.1392964e-38
-0.10630191 0.03594381 0.80300003 2.2403548e-38
-0.10464191 0.035899047 0.80200005 2.2034765e-38
-0.10311429 0.035899047 0.80200005 2.0284108e-38
-0.10171334 0.03594381 0.80300003 1.982313e-38
-0.10018381 0.03594381 0.80300003 2.1758169e-38
-0.098654293 0.03594381 0.80300003 2.341769e-38
-0.097124763 0.03594381 0.80300003 2.2589361e-38
-0.095833339 0.036033336 0.80500007 1.650445e-38
-0.094300009 0.036033336 0.80500007 9.3348324e-39
-0.092997141 0.036122859 0.80700004 7.3065285e-39
-0.091460004 0.036122859 0.80700004 7.5888523e-39
-0.08992286 0.036122859 0.80700004 7.5888523e-39
-0.088385724 0.036122859 0.80700004 1.0159502e-38
-0.087063812 0.036212385 0.80900002 1.2280002e-38
-0.08552286 0.036212385 0.80900002 1.8166094e-38
-0.083981901 0.036212385 0.80900002 2.2866995e-38
-0.082644768 0.036301903 0.81100005 2.2956715e-38
-0.081100002 0.036301903 0.81100005 1.8900107e-38
-0.079751432 0.03639143 0.81300002 1.62275e-38
-0.07839524 0.036480956 0.81500006 1.2447479e-38
-0.077031434 0.036570478 0.81700003 1.2447852e-38
-0.075660005 0.036660004 0.81900007 1.3093221e-38
-0.074280955 0.036749527 0.82100004 1.2263804e-38
-0.072894283 0.036839046 0.82300001 1.2079413e-38
-0.071500003 0.036928572 0.82500005 1.3551e-38
-0.070098102 0.037018094 0.82700002 1.6870043e-38
-0.068522863 0.037018094 0.82700002 1.6595213e-38
-0.067109525 0.03710762 0.82900006 1.4105931e-38
-0.065530479 0.03710762 0.82900006 1.4749834e-38
-0.14132477 0.038686667 0.82900006 9.1327105e-39
-0.13806 0.038220003 0.81900007 1.0700036e-38
-0.13616668 0.038126666 0.81700003 1.1250391e-38
-0.13461047 0.038126666 0.81700003 9.2220867e-39
-0.13272858 0.038033333 0.81500006 9.5883301e-39
-0.13085429 0.037940003 0.81300002 1.0694678e-38
-0.12930572 0.037940003 0.81300002 1.0235848e-38
-0.12744285 0.03784667 0.81100005 1.0512435e-38
-0.12558763 0.037753332 0.80900002 1.4563971e-38
-0.12404668 0.037753332 0.80900002 2.0187904e-38
-0.12220286 0.037660003 0.80700004 2.1295023e-38
-0.12066572 0.037660003 0.80700004 2.1479414e-38
-0.11912858 0.037660003 0.80700004 1.9548357e-38
-0.11759143 0.037660003 0.80700004 1.6690293e-38
-0.11576667 0.037566669 0.80500007 1.3934864e-38
-0.11423334 0.037566669 0.80500007 1.4027059e-38
-0.11270001 0.037566669 0.80500007 1.3386011e-38
-0.11116667 0.037566669 0.80500007 1.3109425e-38
-0.10963334 0.037566669 0.80500007 1.476317e-38
-0.10783143 0.037473332 0.80300003 1.7621234e-38
-0.10630191 0.037473332 0.80300003 2.1850361e-38
-0.10477238 0.037473332 0.80300003 2.2495731e-38
-0.10324286 0.037473332 0.80300003 2.1758169e-38
-0.10171334 0.037473332 0.80300003 2.2680125e-38
-0.10018381 0.037473332 0.80300003 2.3049989e-38
-0.098900005 0.037566669 0.80500007 2.2773402e-38
-0.097366676 0.037566669 0.80500007 1.9276087e-38
-0.096071437 0.037660003 0.80700004 1.1347262e-38
-0.094534285 0.037660003 0.80700004 6.3013477e-39
-0.092997141 0.037660003 0.80700004 7.0389128e-39
-0.091460004 0.037660003 0.80700004 7.5917334e-39
-0.090145715 0.037753332 0.80900002 7.3151465e-39
-0.088604763 0.037753332 0.80900002 5.568449e-39
-0.087063812 0.037753332 0.80900002 3.7245364e-39
-0.08552286 0.037753332 0.80900002 1.2551498e-38
-0.083981901 0.037753332 0.80900002 2.1213941e-38
-0.082644768 0.03784667 0.81100005 2.3142182e-38
-0.081300005 0.037940003 0.81300002 1.7887031e-38
-0.079947628 0.038033333 0.81500006 1.2728382e-38
-0.07839524 0.038033333 0.81500006 1.1898621e-38
-0.077031434 0.038126666 0.81700003 1.3276171e-38
-0.075844765 0.038313333 0.82100004 1.2999584e-38
-0.074280955 0.038313333 0.82100004 1.2446397e-38
-0.072894283 0.038406666 0.82300001 1.429031e-38
-0.071500003 0.038500004 0.82500005 1.5580345e-38
-0.070098102 0.038593337 0.82700002 1.6871084e-38
-0.068522863 0.038593337 0.82700002 1.7332062e-38
-0.067109525 0.038686667 0.82900006 1.4658389e-38
-0.065530479 0.038686667 0.82900006 1.4565798e-38
-0.14324857 0.040362857 0.83100003 1.2905924e-38
-0.14132477 0.040265717 0.82900006 1.1065601e-38
-0.1387343 0.039974283 0.82300001 1.2540731e-38
-0.13650002 0.039780006 0.81900007 1.2724814e-38
-0.13461047 0.039682858 0.81700003 1.0327728e-38
-0.13272858 0.039585717 0.81500006 9.314983e-39
-0.13085429 0.039488573 0.81300002 1.0236939e-38
-0.12930572 0.039488573 0.81300002 1.0511381e-38
-0.12744285 0.039391432 0.81100005 9.958207e-39
-0.12589811 0.039391432 0.81100005 1.0325166e-38
-0.12404668 0.039294288 0.80900002 1.7147643e-38
-0.12220286 0.039197143 0.80700004 1.9729121e-38
-0.12066572 0.039197143 0.80700004 1.9636925e-38
-0.11912858 0.039197143 0.80700004 1.7522199e-38
-0.11759143 0.039197143 0.80700004 1.4848526e-38
-0.1160543 0.039197143 0.80700004 1.2923611e-38
-0.11423334 0.039100002 0.80500007 1.3845567e-38
-0.11270001 0.039100002 0.80500007 1.3754441e-38
-0.11144286 0.039197143 0.80700004 1.4031028e-38
-0.10963334 0.039100002 0.80500007 1.4581325e-38
-0.10810001 0.039100002 0.80500007 1.4581325e-38
-0.10656668 0.039100002 0.80500007 1.7891325e-38
-0.10503335 0.039100002 0.80500007 2.0472802e-38
-0.10350001 0.039100002 0.80500007 2.194221e-38
-0.10196667 0.039100002 0.80500007 2.3417333e-38
-0.10043334 0.039100002 0.80500007 2.2773046e-38
-0.098900005 0.039100002 0.80500007 1.6780331e-38
-0.097366676 0.039100002 0.80500007 9.4263148e-39
-0.096071437 0.039197143 0.80700004 8.3199672e-39
-0.094534285 0.039197143 0.80700004 7.3169318e-39
-0.092997141 0.039197143 0.80700004 7.6857143e-39
-0.091460004 0.039197143 0.80700004 8.419692e-39
-0.090145715 0.039294288 0.80900002 8.419692e-39
-0.088604763 0.039294288 0.80900002 7.8672441e-39
-0.087063812 0.039294288 0.80900002 5.1013752e-39
-0.08552286 0.039294288 0.80900002 9.4251615e-39
-0.084189527 0.039391432 0.81100005 1.6247638e-38
-0.082644768 0.039391432 0.81100005 2.1852159e-38
-0.081300005 0.039488573 0.81300002 1.6043835e-38
-0.079947628 0.039585717 0.81500006 1.1898634e-38
-0.07839524 0.039585717 0.81500006 1.1437656e-38
-0.077031434 0.039682858 0.81700003 1.281699e-38
-0.075844765 0.039877143 0.82100004 1.198723e-38
-0.0744619 0.039974283 0.82300001 1.2813748e-38
-0.073071435 0.040071428 0.82500005 1.6685964e-38
-0.071500003 0.040071428 0.82500005 1.6595567e-38
-0.070098102 0.040168572 0.82700002 1.6042393e-38
-0.068522863 0.040168572 0.82700002 1.6227866e-38
-0.067109525 0.040265717 0.82900006 1.5121518e-38
-0.065688573 0.040362857 0.83100003 1.5301565e-38
-0.064105719 0.040362857 0.83100003 1.5762544e-38
-0.14324857 0.041945718 0.83100003 1.3641691e-38
-0.14132477 0.041844767 0.82900006 1.1801356e-38
-0.13907143 0.04164286 0.82500005 1.4014051e-38
-0.13683334 0.041440953 0.82100004 1.3649269e-38
-0.13461047 0.041239049 0.81700003 1.1805357e-38
-0.13272858 0.041138098 0.81500006 9.2238916e-39
-0.1311762 0.041138098 0.81500006 9.5926741e-39
-0.12930572 0.041037142 0.81300002 1.0693974e-38
-0.12775715 0.041037142 0.81300002 1.0325192e-38
-0.12589811 0.040936191 0.81100005 9.959953e-39
-0.12435335 0.040936191 0.81100005 1.613706e-38
-0.12220286 0.040734287 0.80700004 1.7979933e-38
-0.12066572 0.040734287 0.80700004 1.8625302e-38
-0.11912858 0.040734287 0.80700004 1.50387e-38
-0.11759143 0.040734287 0.80700004 1.3379179e-38
-0.1160543 0.040734287 0.80700004 1.2741005e-38
-0.11423334 0.040633336 0.80500007 1.3755157e-38
-0.11270001 0.040633336 0.80500007 1.3846637e-38
-0.11144286 0.040734287 0.80700004 1.4215419e-38
-0.10990572 0.040734287 0.80700004 1.4030672e-38
-0.10810001 0.040633336 0.80500007 1.3754085e-38
-0.10656668 0.040633336 0.80500007 1.4580937e-38
-0.10503335 0.040633336 0.80500007 1.6701436e-38
-0.10350001 0.040633336 0.80500007 2.1574859e-38
-0.10196667 0.040633336 0.80500007 2.3234379e-38
-0.10043334 0.040633336 0.80500007 2.1946163e-38
-0.098900005 0.040633336 0.80500007 1.2818795e-38
-0.097366676 0.040633336 0.80500007 4.7401485e-39
-0.096071437 0.040734287 0.80700004 6.1230829e-39
-0.094534285 0.040734287 0.80700004 8.3274936e-39
-0.093227617 0.040835235 0.80900002 8.4196892e-39
-0.091686666 0.040835235 0.80900002 8.3274936e-39
-0.090145715 0.040835235 0.80900002 8.4196892e-39
-0.088604763 0.040835235 0.80900002 7.8683231e-39
-0.087063812 0.040835235 0.80900002 5.4712367e-39
-0.085734285 0.040936191 0.81100005 4.7379653e-39
-0.084189527 0.040936191 0.81100005 1.3588746e-38
-0.082848579 0.041037142 0.81300002 2.0749074e-38
-0.081300005 0.041037142 0.81300002 1.6784662e-38
-0.079947628 0.041138098 0.81500006 1.2083411e-38
-0.078587621 0.041239049 0.81700003 1.1069259e-38
-0.077220008 0.041340005 0.81900007 1.2447839e-38
-0.076029524 0.041541904 0.82300001 1.180247e-38
-0.074642867 0.04164286 0.82500005 1.2814123e-38
-0.073071435 0.04164286 0.82500005 1.7331709e-38
-0.071673334 0.041743811 0.82700002 1.5954523e-38
-0.070098102 0.041743811 0.82700002 1.3465241e-38
-0.068522863 0.041743811 0.82700002 1.4664115e-38
-0.067109525 0.041844767 0.82900006 1.4940702e-38
-0.065688573 0.041945718 0.83100003 1.5669985e-38
-0.064105719 0.041945718 0.83100003 1.5854376e-38
-0.14324857 0.043528572 0.83100003 1.4101943e-38
-0.14166573 0.043528572 0.83100003 1.336582e-38
-0.13907143 0.043214288 0.82500005 1.4472168e-38
-0.13716668 0.043109521 0.82300001 1.3923297e-38
-0.13526952 0.043004762 0.82100004 1.4199884e-38
-0.13338001 0.0429 0.81900007 1.2262407e-38
-0.1314981 0.042795237 0.81700003 9.8653206e-39
-0.12962382 0.042690478 0.81500006 9.4979702e-39
-0.12807143 0.042690478 0.81500006 9.5901658e-39
-0.12620857 0.042585716 0.81300002 9.5000903e-39
-0.12466 0.042585716 0.81300002 1.5124024e-38
-0.12311143 0.042585716 0.81300002 1.7795902e-38
-0.12126382 0.042480957 0.81100005 1.890225e-38
-0.11971906 0.042480957 0.81100005 1.6418388e-38
-0.11788286 0.042376194 0.80900002 1.4113497e-38
-0.1160543 0.042271432 0.80700004 1.2741005e-38
-0.11451714 0.042271432 0.80700004 1.3662961e-38
-0.11298 0.042271432 0.80700004 1.3845918e-38
-0.11144286 0.042271432 0.80700004 1.4306896e-38
-0.10990572 0.042271432 0.80700004 1.4490927e-38
-0.10836858 0.042271432 0.80700004 1.4583123e-38
-0.10656668 0.042166673 0.80500007 1.42147e-38
-0.10503335 0.042166673 0.80500007 1.4675678e-38
-0.10350001 0.042166673 0.80500007 2.0561771e-38
-0.10222001 0.042271432 0.80700004 2.3050694e-38
-0.10068286 0.042271432 0.80700004 2.1208945e-38
-0.099145718 0.042271432 0.80700004 9.776687e-39
-0.097608574 0.042271432 0.80700004 2.0758471e-39
-0.096071437 0.042271432 0.80700004 4.841716e-39
-0.094768576 0.042376194 0.80900002 8.4200521e-39
-0.093227617 0.042376194 0.80900002 8.3278565e-39
-0.091686666 0.042376194 0.80900002 8.235298e-39
-0.090368576 0.042480957 0.81100005 8.4196892e-39
-0.088823818 0.042480957 0.81100005 7.2240467e-39
-0.087279052 0.042480957 0.81100005 4.2737866e-39
-0.085945718 0.042585716 0.81300002 9.5173795e-39
-0.084397145 0.042585716 0.81300002 1.7999377e-38
-0.083052389 0.042690478 0.81500006 2.2036203e-38
-0.081500001 0.042690478 0.81500006 2.0284486e-38
-0.080143809 0.042795237 0.81700003 1.5399619e-38
-0.07878001 0.0429 0.81900007 1.1619598e-38
-0.077408575 0.043004762 0.82100004 1.0149075e-38
-0.076029524 0.043109521 0.82300001 1.1163227e-38
-0.074642867 0.043214288 0.82500005 1.4011623e-38
-0.073248573 0.043319046 0.82700002 1.8529208e-38
-0.071673334 0.043319046 0.82700002 1.4850331e-38
-0.070098102 0.043319046 0.82700002 6.8293107e-39
-0.068522863 0.043319046 0.82700002 9.6895389e-39
-0.067109525 0.043423809 0.82900006 1.3377364e-38
-0.065530479 0.043423809 0.82900006 1.5577436e-38
-0.14324857 0.045111429 0.83100003 1.4009385e-38
-0.14166573 0.045111429 0.83100003 1.3733877e-38
-0.13940857 0.044894286 0.82700002 1.3733877e-38
-0.13750002 0.044785716 0.82500005 1.3276136e-38
-0.13559905 0.044677142 0.82300001 1.4566874e-38
-0.13370572 0.044568572 0.82100004 1.3463108e-38
-0.1314981 0.044351429 0.81700003 9.498696e-39
-0.12994191 0.044351429 0.81700003 9.1291498e-39
-0.12807143 0.044242859 0.81500006 9.4057367e-39
-0.12651907 0.044242859 0.81500006 9.3167879e-39
-0.12496667 0.044242859 0.81500006 1.6415851e-38
-0.12311143 0.044134285 0.81300002 1.7612962e-38
-0.12156286 0.044134285 0.81300002 1.8534919e-38
-0.12001429 0.044134285 0.81300002 1.6511315e-38
-0.11788286 0.043917142 0.80900002 1.4114228e-38
-0.1163419 0.043917142 0.80900002 1.2923954e-38
-0.11480095 0.043917142 0.80900002 1.3845911e-38
-0.11326 0.043917142 0.80900002 1.3753722e-38
-0.11171905 0.043917142 0.80900002 1.4306896e-38
-0.1101781 0.043917142 0.80900002 1.4766795e-38
-0.10836858 0.043808572 0.80700004 1.4858991e-38
-0.10683143 0.043808572 0.80700004 1.3479656e-38
-0.10529429 0.043808572 0.80700004 1.3756243e-38
-0.10375715 0.043808572 0.80700004 1.9180288e-38
-0.10222001 0.043808572 0.80700004 2.27752e-38
-0.10068286 0.043808572 0.80700004 1.9922548e-38
-0.099145718 0.043808572 0.80700004 9.8732239e-39
-0.097608574 0.043808572 0.80700004 4.5546894e-39
-0.09630952 0.043917142 0.80900002 6.5829933e-39
-0.094768576 0.043917142 0.80900002 8.4189731e-39
-0.093227617 0.043917142 0.80900002 8.4189731e-39
-0.091686666 0.043917142 0.80900002 8.6030043e-39
-0.090368576 0.044025715 0.81100005 8.3264174e-39
-0.089042857 0.044134285 0.81300002 4.8327113e-39
-0.087494291 0.044134285 0.81300002 4.3717331e-39
-0.086157143 0.044242859 0.81500006 1.4022749e-38
-0.08460477 0.044242859 0.81500006 2.0568639e-38
-0.083052389 0.044242859 0.81500006 2.3140384e-38
-0.081700005 0.044351429 0.81700003 2.1941841e-38
-0.080143809 0.044351429 0.81700003 1.9179956e-38
-0.07878001 0.044460002 0.81900007 1.4477979e-38
-0.077408575 0.044568572 0.82100004 1.134582e-38
-0.076214284 0.044785716 0.82500005 1.2636559e-38
-0.074823812 0.044894286 0.82700002 1.6500163e-38
-0.073248573 0.044894286 0.82700002 1.6684555e-38
-0.071673334 0.044894286 0.82700002 1.4110948e-38
-0.070098102 0.044894286 0.82700002 7.6572539e-39
-0.068522863 0.044894286 0.82700002 1.0241255e-38
-0.067109525 0.045002859 0.82900006 1.3652494e-38
-0.065530479 0.045002859 0.82900006 1.5393042e-38
-0.14324857 0.04669429 0.83100003 1.3916107e-38
-0.14166573 0.04669429 0.83100003 1.2996319e-38
-0.13940857 0.046469525 0.82700002 1.2535341e-38
-0.13750002 0.046357144 0.82500005 1.171063e-38
-0.13559905 0.046244759 0.82300001 1.4292108e-38
-0.13370572 0.046132382 0.82100004 1.438361e-38
-0.13182001 0.046020001 0.81900007 1.2078719e-38
-0.13026001 0.046020001 0.81900007 1.060569e-38
-0.12807143 0.04579524 0.81500006 1.0697885e-38
-0.12651907 0.04579524 0.81500006 1.2168796e-38
-0.12496667 0.04579524 0.81500006 1.9452251e-38
-0.12341429 0.04579524 0.81500006 1.9637316e-38
-0.12156286 0.045682859 0.81300002 2.019049e-38
-0.12001429 0.045682859 0.81300002 1.8905139e-38
-0.11817429 0.045570478 0.81100005 1.6600248e-38
-0.11662953 0.045570478 0.81100005 1.4121053e-38
-0.11480095 0.045458097 0.80900002 1.4121053e-38
-0.11326 0.045458097 0.80900002 1.384592e-38
-0.11171905 0.045458097 0.80900002 1.4214703e-38
-0.1101781 0.045458097 0.80900002 1.4306896e-38
-0.10863714 0.045458097 0.80900002 1.4030309e-38
-0.10683143 0.045345716 0.80700004 1.5132328e-38
-0.10529429 0.045345716 0.80700004 1.7713805e-38
-0.10375715 0.045345716 0.80700004 2.1390818e-38
-0.10222001 0.045345716 0.80700004 2.3234372e-38
-0.10068286 0.045345716 0.80700004 2.3142182e-38
-0.099145718 0.045345716 0.80700004 1.8808987e-38
-0.097608574 0.045345716 0.80700004 9.154795e-39
-0.09630952 0.045458097 0.80900002 5.7435567e-39
-0.094768576 0.045458097 0.80900002 3.0871222e-39
-0.093227617 0.045458097 0.80900002 4.4700566e-39
-0.091913335 0.045570478 0.81100005 6.395721e-39
-0.090368576 0.045570478 0.81100005 4.8283953e-39
-0.089042857 0.045682859 0.81300002 8.8752569e-39
-0.087494291 0.045682859 0.81300002 1.514456e-38
-0.086157143 0.04579524 0.81500006 2.0839447e-38
-0.08460477 0.04579524 0.81500006 2.0655055e-38
-0.083052389 0.04579524 0.81500006 2.1574844e-38
-0.081700005 0.04590762 0.81700003 2.2035822e-38
-0.080340005 0.046020001 0.81900007 2.1851083e-38
-0.078972384 0.046132382 0.82100004 2.0560344e-38
-0.077597149 0.046244759 0.82300001 1.9178476e-38
-0.076214284 0.046357144 0.82500005 1.7426759e-38
-0.074823812 0.046469525 0.82700002 1.7427508e-38
-0.073425718 0.046581909 0.82900006 1.4016269e-38
-0.071846671 0.046581909 0.82900006 8.9570059e-39
-0.070267625 0.046581909 0.82900006 6.4677239e-39
-0.068688571 0.046581909 0.82900006 1.1161432e-38
-0.067109525 0.046581909 0.82900006 1.4019496e-38
-0.14324857 0.048277143 0.83100003 1.4008303e-38
-0.14166573 0.048277143 0.83100003 1.2813362e-38
-0.13940857 0.048044764 0.82700002 1.1983602e-38
-0.13750002 0.047928575 0.82500005 1.060787e-38
-0.13559905 0.04781238 0.82300001 1.2543978e-38
-0.13370572 0.047696192 0.82100004 1.4660184e-38
-0.13214192 0.047696192 0.82100004 1.2816272e-38
-0.13026001 0.047580004 0.81900007 1.1708454e-38
-0.12838572 0.047463812 0.81700003 1.2814802e-38
-0.12682953 0.047463812 0.81700003 1.7510703e-38
-0.12527333 0.047463812 0.81700003 2.1014137e-38
-0.12371714 0.047463812 0.81700003 1.9361433e-38
-0.12186191 0.047347624 0.81500006 1.9361433e-38
-0.12030953 0.047347624 0.81500006 1.9181004e-38
-0.11846571 0.047231432 0.81300002 1.8074657e-38
-0.11662953 0.04711524 0.81100005 1.4856129e-38
-0.11508477 0.04711524 0.81100005 1.4026368e-38
-0.11326 0.046999045 0.80900002 1.3385658e-38
-0.11171905 0.046999045 0.80900002 1.3846637e-38
-0.1101781 0.046999045 0.80900002 1.3478214e-38
-0.10863714 0.046999045 0.80900002 1.3662605e-38
-0.1070962 0.046999045 0.80900002 1.6327284e-38
-0.10555524 0.046999045 0.80900002 1.9922913e-38
-0.10375715 0.046882857 0.80700004 2.2219147e-38
-0.10222001 0.046882857 0.80700004 2.2864516e-38
-0.10093238 0.046999045 0.80900002 2.3141103e-38
-0.099145718 0.046882857 0.80700004 2.1389386e-38
-0.097608574 0.046882857 0.80700004 1.5689144e-38
-0.09630952 0.046999045 0.80900002 9.0510582e-39
-0.094768576 0.046999045 0.80900002 1.889686e-39
-0.093227617 0.046999045 0.80900002 2.8116423e-39
-0.091913335 0.04711524 0.81100005 2.9945202e-39
-0.090591431 0.047231432 0.81300002 2.9023245e-39
-0.089042857 0.047231432 0.81300002 1.0990374e-38
-0.087709531 0.047347624 0.81500006 1.8826275e-38
-0.086157143 0.047347624 0.81500006 2.1578103e-38
-0.08460477 0.047347624 0.81500006 1.8443452e-38
-0.083256193 0.047463812 0.81700003 1.8717864e-38
-0.081700005 0.047463812 0.81700003 2.0377385e-38
-0.080340005 0.047580004 0.81900007 2.2126585e-38
-0.078972384 0.047696192 0.82100004 2.1665607e-38
-0.077597149 0.04781238 0.82300001 2.1112086e-38
-0.076399051 0.048044764 0.82700002 2.0005738e-38
-0.074823812 0.048044764 0.82700002 1.7247079e-38
-0.073425718 0.048160955 0.82900006 9.5026463e-39
-0.071846671 0.048160955 0.82900006 6.6564185e-39
-0.070437141 0.048277143 0.83100003 6.8408098e-39
-0.068854287 0.048277143 0.83100003 1.1252909e-38
-0.067271426 0.048277143 0.83100003 1.4295365e-38
-0.14359334 0.049980003 0.83300006 1.3639513e-38
-0.14200668 0.049980003 0.83300006 1.2536422e-38
-0.13974573 0.049740005 0.82900006 1.2352031e-38
-0.13783334 0.049620003 0.82700002 1.0516766e-38
-0.13592857 0.049500003 0.82500005 1.0793353e-38
-0.13403143 0.049379997 0.82300001 1.2081227e-38
-0.13214192 0.049260002 0.82100004 1.4939292e-38
-0.13026001 0.049140003 0.81900007 1.6408289e-38
-0.1287 0.049140003 0.81900007 1.8805375e-38
-0.12682953 0.04902 0.81700003 1.8714634e-38
-0.12527333 0.04902 0.81700003 1.8253656e-38
-0.12371714 0.04902 0.81700003 1.374328e-38
-0.12186191 0.048900004 0.81500006 1.2452541e-38
-0.12030953 0.048900004 0.81500006 1.549391e-38
-0.11846571 0.048780002 0.81300002 2.056467e-38
-0.11691714 0.048780002 0.81300002 1.9825673e-38
-0.11508477 0.048660003 0.81100005 1.6967608e-38
-0.11354001 0.048660003 0.81100005 1.393739e-38
-0.11199524 0.048660003 0.81100005 1.3384216e-38
-0.11045048 0.048660003 0.81100005 1.4671715e-38
-0.10863714 0.048540004 0.80900002 1.7714171e-38
-0.1070962 0.048540004 0.80900002 2.1851796e-38
-0.10555524 0.048540004 0.80900002 2.3234372e-38
-0.10401428 0.048540004 0.80900002 2.1481947e-38
-0.10247333 0.048540004 0.80900002 1.8347296e-38
-0.10093238 0.048540004 0.80900002 2.0191196e-38
-0.099391431 0.048540004 0.80900002 2.3418043e-38
-0.097850479 0.048540004 0.80900002 2.3142182e-38
-0.09630952 0.048540004 0.80900002 2.1021683e-38
-0.094768576 0.048540004 0.80900002 1.4125052e-38
-0.093458101 0.048660003 0.81100005 7.2103798e-39
-0.091913335 0.048660003 0.81100005 6.0268964e-39
-0.090591431 0.048780002 0.81300002 1.1835221e-38
-0.089261912 0.048900004 0.81500006 2.0011487e-38
-0.087709531 0.048900004 0.81500006 2.2407855e-38
-0.086157143 0.048900004 0.81500006 2.1208592e-38
-0.08481238 0.04902 0.81700003 1.6783202e-38
-0.083256193 0.04902 0.81700003 1.5039041e-38
-0.081900008 0.049140003 0.81900007 1.5131236e-38
-0.080340005 0.049140003 0.81900007 1.7428564e-38
-0.079164766 0.049379997 0.82300001 2.0102237e-38
-0.077597149 0.049379997 0.82300001 2.102025e-38
-0.076399051 0.049620003 0.82700002 2.0098294e-38
-0.075004764 0.049740005 0.82900006 1.6326179e-38
-0.073602863 0.049860001 0.83100003 7.6597903e-39
-0.072020002 0.049860001 0.83100003 3.7173463e-39
-0.070437141 0.049860001 0.83100003 4.8236939e-39
-0.069020011 0.049980003 0.83300006 1.1436962e-38
-0.067433342 0.049980003 0.83300006 1.4756005e-38
-0.14132477 0.051319048 0.82900006 1.2811921e-38
-0.13974573 0.051319048 0.82900006 1.2719725e-38
-0.13816668 0.051319048 0.82900006 1.042457e-38
-0.13592857 0.051071431 0.82500005 9.5026141e-39
-0.13403143 0.050947621 0.82300001 1.1436915e-38
-0.13214192 0.050823811 0.82100004 1.4663762e-38
-0.1305781 0.050823811 0.82100004 1.7052945e-38
-0.1287 0.050700005 0.81900007 1.9542227e-38
-0.12682953 0.050576191 0.81700003 1.8072862e-38
-0.12527333 0.050576191 0.81700003 1.4661623e-38
-0.12371714 0.050576191 0.81700003 9.5144859e-39
-0.12216096 0.050576191 0.81700003 8.1315514e-39
-0.12030953 0.050452381 0.81500006 1.4570451e-38
-0.11846571 0.050328571 0.81300002 2.0194384e-38
-0.11691714 0.050328571 0.81300002 2.1482301e-38
-0.11536857 0.050328571 0.81300002 1.8808627e-38
-0.11354001 0.050204765 0.81100005 1.4949021e-38
-0.11199524 0.050204765 0.81100005 1.3566087e-38
-0.11045048 0.050204765 0.81100005 1.5223091e-38
-0.10890572 0.050204765 0.81100005 1.9925068e-38
-0.10736095 0.050204765 0.81100005 2.2496815e-38
-0.1058162 0.050204765 0.81100005 2.2220229e-38
-0.10401428 0.050080951 0.80900002 2.0284836e-38
-0.10247333 0.050080951 0.80900002 1.6228229e-38
-0.10093238 0.050080951 0.80900002 1.7884475e-38
-0.099391431 0.050080951 0.80900002 2.304743e-38
-0.097850479 0.050080951 0.80900002 2.341769e-38
-0.09630952 0.050080951 0.80900002 2.341769e-38
-0.094768576 0.050080951 0.80900002 1.9831083e-38
-0.093458101 0.050204765 0.81100005 1.2271042e-38
-0.091913335 0.050204765 0.81100005 9.9765528e-39
-0.090814285 0.050452381 0.81500006 1.6891225e-38
-0.089261912 0.050452381 0.81500006 2.2588292e-38
-0.087709531 0.050452381 0.81500006 2.2035118e-38
-0.086368576 0.050576191 0.81700003 1.9458323e-38
-0.08481238 0.050576191 0.81700003 1.5862693e-38
-0.083460003 0.050700005 0.81900007 1.3294892e-38
-0.082100004 0.050823811 0.82100004 1.2649523e-38
-0.080536194 0.050823811 0.82100004 1.4761731e-38
-0.079164766 0.050947621 0.82300001 1.7619795e-38
-0.077785715 0.051071431 0.82500005 2.0745108e-38
-0.07658381 0.051319048 0.82900006 1.9638761e-38
-0.075185716 0.051442858 0.83100003 1.4946119e-38
-0.073780008 0.051566672 0.83300006 7.1094906e-39
-0.072193339 0.051566672 0.83300006 3.9020809e-39
-0.070606671 0.051566672 0.83300006 5.9303848e-39
-0.069020011 0.051566672 0.83300006 1.3004263e-38
-0.067433342 0.051566672 0.83300006 1.4940371e-38
-0.14200668 0.053153336 0.83300006 1.3088144e-38
-0.14042 0.053153336 0.83300006 1.3456927e-38
-0.13816668 0.052898098 0.82900006 1.1527678e-38
-0.1362581 0.052770477 0.82700002 1.0329135e-38
-0.13403143 0.052515239 0.82300001 1.0517852e-38
-0.13246381 0.052515239 0.82300001 1.3191525e-38
-0.1305781 0.052387621 0.82100004 1.604203e-38
-0.1287 0.052260004 0.81900007 1.7885942e-38
-0.12714 0.052260004 0.81900007 1.5494599e-38
-0.12558001 0.052260004 0.81900007 8.5799263e-39
-0.12371714 0.052132383 0.81700003 4.0875666e-39
-0.12216096 0.052132383 0.81700003 3.7187841e-39
-0.12030953 0.052004766 0.81500006 9.2349969e-39
-0.11875715 0.052004766 0.81500006 1.3291605e-38
-0.11720477 0.052004766 0.81500006 1.834835e-38
-0.11536857 0.051877145 0.81300002 2.1759588e-38
-0.11382 0.051877145 0.81300002 2.0654705e-38
-0.11227143 0.051877145 0.81300002 1.9271771e-38
-0.11072286 0.051877145 0.81300002 2.111495e-38
-0.10917429 0.051877145 0.81300002 2.3142537e-38
-0.10762572 0.051877145 0.81300002 2.2403891e-38
-0.10607715 0.051877145 0.81300002 1.714874e-38
-0.10427143 0.051749524 0.81100005 1.3370928e-38
-0.10272667 0.051749524 0.81100005 1.2633363e-38
-0.10118191 0.051749524 0.81100005 1.3736783e-38
-0.099637143 0.051749524 0.81100005 1.7609e-38
-0.098092392 0.051749524 0.81100005 2.1294995e-38
-0.096547626 0.051749524 0.81100005 2.3509851e-38
-0.09500286 0.051749524 0.81100005 2.3234378e-38
-0.093458101 0.051749524 0.81100005 2.1298269e-38
-0.092140004 0.051877145 0.81300002 2.1484816e-38
-0.090814285 0.052004766 0.81500006 2.2867033e-38
-0.089261912 0.052004766 0.81500006 2.1576664e-38
-0.087709531 0.052004766 0.81500006 1.7888839e-38
-0.086368576 0.052132383 0.81700003 1.4764643e-38
-0.08481238 0.052132383 0.81700003 1.4672447e-38
-0.083460003 0.052260004 0.81900007 1.3571129e-38
-0.082100004 0.052387621 0.82100004 1.3386737e-38
-0.080732383 0.052515239 0.82300001 1.4120344e-38
-0.079357147 0.05264286 0.82500005 1.4489126e-38
-0.077974282 0.052770477 0.82700002 1.7615479e-38
-0.07658381 0.052898098 0.82900006 1.6877914e-38
-0.075185716 0.053025715 0.83100003 1.3934115e-38
-0.073780008 0.053153336 0.83300006 6.3740737e-39
-0.072193339 0.053153336 0.83300006 5.0970466e-39
-0.070606671 0.053153336 0.83300006 8.6926762e-39
-0.069020011 0.053153336 0.83300006 1.3740389e-38
-0.067433342 0.053153336 0.83300006 1.5123323e-38
-0.14042 0.054740004 0.83300006 1.3824268e-38
-0.13816668 0.054477148 0.82900006 1.198757e-38
-0.1362581 0.054345712 0.82700002 1.0973418e-38
-0.13435715 0.054214288 0.82500005 1.0058672e-38
-0.13246381 0.054082859 0.82300001 1.2271367e-38
-0.1308962 0.054082859 0.82300001 1.4849245e-38
-0.1290143 0.053951431 0.82100004 1.5402418e-38
-0.12714 0.053820003 0.81900007 1.282562e-38
-0.12558001 0.053820003 0.81900007 6.8329037e-39
-0.12402001 0.053820003 0.81900007 3.260687e-39
-0.12216096 0.053688571 0.81700003 4.3670346e-39
-0.12060476 0.053688571 0.81700003 6.1111635e-39
-0.11875715 0.053557146 0.81500006 7.8628805e-39
-0.11720477 0.053557146 0.81500006 1.5400578e-38
-0.11536857 0.053425714 0.81300002 2.0194751e-38
-0.11382 0.053425714 0.81300002 2.2403172e-38
-0.11227143 0.053425714 0.81300002 2.203439e-38
-0.11072286 0.053425714 0.81300002 2.2219157e-38
-0.10917429 0.053425714 0.81300002 2.2219157e-38
-0.10762572 0.053425714 0.81300002 2.0375953e-38
-0.10607715 0.053425714 0.81300002 1.410665e-38
-0.10452858 0.053425714 0.81300002 1.3183965e-38
-0.10298 0.053425714 0.81300002 1.4105922e-38
-0.10143144 0.053425714 0.81300002 1.401478e-38
-0.099882863 0.053425714 0.81300002 1.4752345e-38
-0.098334283 0.053425714 0.81300002 1.7881228e-38
-0.096785717 0.053425714 0.81300002 2.1845641e-38
-0.095237143 0.053425714 0.81300002 2.3325492e-38
-0.09368857 0.053425714 0.81300002 2.3417687e-38
-0.092366673 0.053557146 0.81500006 2.3326213e-38
-0.091037147 0.053688571 0.81700003 2.3326213e-38
-0.089480951 0.053688571 0.81700003 1.9920743e-38
-0.087924771 0.053688571 0.81700003 1.5495352e-38
-0.086368576 0.053688571 0.81700003 1.3019397e-38
-0.085020006 0.053820003 0.81900007 1.3756962e-38
-0.083663814 0.053951431 0.82100004 1.3755157e-38
-0.0823 0.054082859 0.82300001 1.3755157e-38
-0.080928579 0.054214288 0.82500005 1.2650249e-38
-0.079357147 0.054214288 0.82500005 1.283464e-38
-0.077974282 0.054345712 0.82700002 1.6512747e-38
-0.07676857 0.054608572 0.83100003 1.7065921e-38
-0.075366676 0.054740004 0.83300006 1.2555529e-38
-0.073780008 0.054740004 0.83300006 5.2720744e-39
-0.07236667 0.054871429 0.83500004 4.9126077e-39
-0.070776194 0.054871429 0.83500004 9.5223892e-39
-0.069185719 0.054871429 0.83500004 1.4107363e-38
-0.067595243 0.054871429 0.83500004 1.4937124e-38
-0.14109428 0.056597143 0.83700001 1.3179618e-38
-0.13883334 0.056326672 0.83300006 1.1803173e-38
-0.1362581 0.055920955 0.82700002 1.1803173e-38
-0.13435715 0.055785719 0.82500005 1.0334543e-38
-0.13278572 0.055785719 0.82500005 1.1164303e-38
-0.1308962 0.055650476 0.82300001 1.4756671e-38
-0.1290143 0.055515241 0.82100004 1.5494236e-38
-0.12714 0.055380005 0.81900007 1.2640865e-38
-0.12558001 0.055380005 0.81900007 7.6623014e-39
-0.12402001 0.055380005 0.81900007 4.2734068e-39
-0.12216096 0.055244766 0.81700003 5.9329281e-39
-0.12060476 0.055244766 0.81700003 7.4923281e-39
-0.11875715 0.055109527 0.81500006 6.2937849e-39
-0.11720477 0.055109527 0.81500006 9.9714857e-39
-0.11565238 0.055109527 0.81500006 1.430468e-38
-0.11410001 0.055109527 0.81500006 2.1389327e-38
-0.11227143 0.054974288 0.81300002 2.3509831e-38
-0.11072286 0.054974288 0.81300002 2.2310626e-38
-0.10944287 0.055109527 0.81500006 1.6778889e-38
-0.10789049 0.055109527 0.81500006 1.3278364e-38
-0.1063381 0.055109527 0.81500006 1.3186168e-38
-0.10452858 0.054974288 0.81300002 1.3832216e-38
-0.10298 0.054974288 0.81300002 1.4477585e-38
-0.10143144 0.054974288 0.81300002 1.4935695e-38
-0.099882863 0.054974288 0.81300002 1.4474717e-38
-0.098334283 0.054974288 0.81300002 1.4749118e-38
-0.096785717 0.054974288 0.81300002 1.5855465e-38
-0.095237143 0.054974288 0.81300002 1.8529151e-38
-0.093919054 0.055109527 0.81500006 2.3509156e-38
-0.092366673 0.055109527 0.81500006 2.3326213e-38
-0.091037147 0.055244766 0.81700003 2.0099366e-38
-0.089480951 0.055244766 0.81700003 1.6237243e-38
-0.087924771 0.055244766 0.81700003 1.4854309e-38
-0.086580001 0.055380005 0.81900007 1.3664403e-38
-0.085227624 0.055515241 0.82100004 1.4033186e-38
-0.083663814 0.055515241 0.82100004 1.3846999e-38
-0.0823 0.055650476 0.82300001 1.3662608e-38
-0.080928579 0.055785719 0.82500005 1.3845195e-38
-0.079357147 0.055785719 0.82500005 1.4674955e-38
-0.077974282 0.055920955 0.82700002 1.8444161e-38
-0.07676857 0.056191429 0.83100003 1.9827095e-38
-0.075366676 0.056326672 0.83300006 1.6971912e-38
-0.073957145 0.056461908 0.83500004 7.3835663e-39
-0.07236667 0.056461908 0.83500004 6.6603688e-39
-0.070776194 0.056461908 0.83500004 1.0901368e-38
-0.069185719 0.056461908 0.83500004 1.5028238e-38
-0.067919046 0.056732383 0.83900005 1.4751651e-38
-0.066320956 0.056732383 0.83900005 1.5577086e-38
-0.13940857 0.057496194 0.82700002 1.2903748e-38
-0.13783334 0.057496194 0.82700002 1.1894277e-38
-0.1362581 0.057496194 0.82700002 1.1986473e-38
-0.13435715 0.057357144 0.82500005 1.0518934e-38
-0.13278572 0.057357144 0.82500005 1.1348694e-38
-0.1308962 0.057218097 0.82300001 1.3283005e-38
-0.1290143 0.057079051 0.82100004 1.4758135e-38
-0.12745048 0.057079051 0.82100004 1.2272471e-38
-0.12588666 0.057079051 0.82100004 7.4782983e-39
-0.12402001 0.056940004 0.81900007 3.8135077e-39
-0.12246001 0.056940004 0.81900007 5.8418115e-39
-0.12090001 0.056940004 0.81900007 6.7587259e-39
-0.11904858 0.056800954 0.81700003 5.6523784e-39
-0.11749239 0.056800954 0.81700003 6.2037095e-39
-0.11565238 0.056661908 0.81500006 8.1398177e-39
-0.11410001 0.056661908 0.81500006 1.7978836e-38
-0.11254763 0.056661908 0.81500006 2.29574e-38
-0.11099524 0.056661908 0.81500006 2.1758178e-38
-0.10944287 0.056661908 0.81500006 1.3644963e-38
-0.10789049 0.056661908 0.81500006 1.3368719e-38
-0.1063381 0.056661908 0.81500006 1.4475067e-38
-0.10478573 0.056661908 0.81500006 1.429212e-38
-0.10323334 0.056661908 0.81500006 1.493749e-38
-0.10168096 0.056661908 0.81500006 1.5304477e-38
-0.10012858 0.056661908 0.81500006 1.4935695e-38
-0.098576196 0.056661908 0.81500006 1.3648178e-38
-0.097023815 0.056661908 0.81500006 1.2357439e-38
-0.095471434 0.056661908 0.81500006 1.5582442e-38
-0.093919054 0.056661908 0.81500006 2.3509832e-38
-0.092366673 0.056661908 0.81500006 2.3234378e-38
-0.091037147 0.056800954 0.81700003 1.9269966e-38
-0.089480951 0.056800954 0.81700003 1.4582038e-38
-0.088140003 0.056940004 0.81900007 1.4397647e-38
-0.086580001 0.056940004 0.81900007 1.4215782e-38
-0.085227624 0.057079051 0.82100004 1.4307978e-38
-0.083867624 0.057218097 0.82300001 1.3847716e-38
-0.082500003 0.057357144 0.82500005 1.3294542e-38
-0.080928579 0.057357144 0.82500005 1.4396563e-38
-0.079357147 0.057357144 0.82500005 1.5963889e-38
-0.077974282 0.057496194 0.82700002 1.9453641e-38
-0.07676857 0.057774287 0.83100003 2.0652184e-38
-0.075366676 0.057913337 0.83300006 1.862713e-38
-0.073957145 0.058052383 0.83500004 1.1159284e-38
-0.07236667 0.058052383 0.83500004 9.5080161e-39
-0.070945717 0.05819143 0.83700001 1.2734863e-38
-0.069351427 0.05819143 0.83700001 1.6133497e-38
-0.067919046 0.058330476 0.83900005 1.521154e-38
-0.066320956 0.058330476 0.83900005 1.5392692e-38
-0.13816668 0.059214287 0.82900006 1.1525845e-38
-0.13658762 0.059214287 0.82900006 1.1710236e-38
-0.13435715 0.058928575 0.82500005 1.1162505e-38
-0.13278572 0.058928575 0.82500005 1.2637635e-38
-0.1308962 0.058785714 0.82300001 1.5675758e-38
-0.12932856 0.058785714 0.82300001 1.8441627e-38
-0.12745048 0.058642861 0.82100004 1.56808e-38
-0.12588666 0.058642861 0.82100004 7.9363674e-39
-0.12432285 0.058642861 0.82100004 2.4345431e-39
-0.12246001 0.058500003 0.81900007 4.8316295e-39
-0.12090001 0.058500003 0.81900007 7.0338709e-39
-0.11904858 0.058357142 0.81700003 7.0338709e-39
-0.11749239 0.058357142 0.81700003 5.9300415e-39
-0.11593619 0.058357142 0.81700003 4.8236939e-39
-0.11438 0.058357142 0.81700003 1.5954821e-38
-0.11254763 0.058214288 0.81500006 2.2131929e-38
-0.11099524 0.058214288 0.81500006 2.1111705e-38
-0.10944287 0.058214288 0.81500006 1.2906294e-38
-0.10789049 0.058214288 0.81500006 1.2358533e-38
-0.1063381 0.058214288 0.81500006 1.3833663e-38
-0.10478573 0.058214288 0.81500006 1.4567635e-38
-0.10323334 0.058214288 0.81500006 1.5028614e-38
-0.10168096 0.058214288 0.81500006 1.5212282e-38
-0.10012858 0.058214288 0.81500006 1.5120086e-38
-0.098576196 0.058214288 0.81500006 1.4568004e-38
-0.097023815 0.058214288 0.81500006 1.2908483e-38
-0.095471434 0.058214288 0.81500006 1.4201332e-38
-0.094149522 0.058357142 0.81700003 2.268333e-38
-0.092593342 0.058357142 0.81700003 2.2774842e-38
-0.091260001 0.058500003 0.81900007 1.8902625e-38
-0.089700006 0.058500003 0.81900007 1.4031403e-38
-0.088140003 0.058500003 0.81900007 1.3570425e-38
-0.086791433 0.058642861 0.82100004 1.375589e-38
-0.085435241 0.058785714 0.82300001 1.3940281e-38
-0.083867624 0.058785714 0.82300001 1.3663327e-38
-0.082500003 0.058928575 0.82500005 1.3202349e-38
-0.080928579 0.058928575 0.82500005 1.6234713e-38
-0.079549521 0.059071429 0.82700002 1.9000581e-38
-0.077974282 0.059071429 0.82700002 1.9452925e-38
-0.07676857 0.059357144 0.83100003 1.9176338e-38
-0.075366676 0.059500005 0.83300006 1.8994468e-38
-0.073957145 0.059642859 0.83500004 1.788812e-38
-0.07254 0.059785716 0.83700001 1.7522542e-38
-0.07111524 0.059928574 0.83900005 1.5402043e-38
-0.069517143 0.059928574 0.83900005 1.4659095e-38
-0.067919046 0.059928574 0.83900005 1.4935682e-38
-0.066320956 0.059928574 0.83900005 1.5669282e-38
-0.13783334 0.060646668 0.82700002 1.0971944e-38
-0.13468286 0.060646668 0.82700002 1.1713511e-38
-0.13278572 0.060500003 0.82500005 1.4663771e-38
-0.13121429 0.060500003 0.82500005 1.6135314e-38
-0.12932856 0.060353335 0.82300001 1.7794836e-38
-0.12745048 0.06020667 0.82100004 1.5496782e-38
-0.12588666 0.06020667 0.82100004 1.0518218e-38
-0.12432285 0.06020667 0.82100004 2.8937514e-39
-0.12275905 0.06020667 0.82100004 4.9220553e-39
-0.12119524 0.06020667 0.82100004 7.7689024e-39
-0.11934 0.060060002 0.81900007 7.7689024e-39
-0.11749239 0.059913337 0.81700003 3.0827824e-39
-0.11593619 0.059913337 0.81700003 1.8842392e-39
-0.11438 0.059913337 0.81700003 1.3653938e-38
-0.11282381 0.059913337 0.81700003 2.0937393e-38
-0.11126762 0.059913337 0.81700003 1.9824231e-38
-0.10944287 0.059766669 0.81500006 1.2632972e-38
-0.10789049 0.059766669 0.81500006 1.3091779e-38
-0.10659905 0.059913337 0.81700003 1.4382518e-38
-0.10478573 0.059766669 0.81500006 1.447544e-38
-0.10323334 0.059766669 0.81500006 1.5028614e-38
-0.10168096 0.059766669 0.81500006 1.5212279e-38
-0.10012858 0.059766669 0.81500006 1.5027888e-38
-0.098818094 0.059913337 0.81700003 1.4199569e-38
-0.097261913 0.059913337 0.81700003 1.3093221e-38
-0.095705718 0.059913337 0.81700003 1.4292841e-38
-0.094149522 0.059913337 0.81700003 2.2590447e-38
-0.092593342 0.059913337 0.81700003 2.2683365e-38
-0.091260001 0.060060002 0.81900007 1.98253e-38
-0.089700006 0.060060002 0.81900007 1.4216522e-38
-0.088355243 0.06020667 0.82100004 1.320237e-38
-0.086791433 0.06020667 0.82100004 1.3479656e-38
-0.085435241 0.060353335 0.82300001 1.338746e-38
-0.084071428 0.060500003 0.82500005 1.2927542e-38
-0.082500003 0.060500003 0.82500005 1.3296324e-38
-0.080928579 0.060500003 0.82500005 1.7704823e-38
-0.079549521 0.060646668 0.82700002 1.945654e-38
-0.078162864 0.060793336 0.82900006 1.9268887e-38
-0.076953337 0.061086673 0.83300006 1.7793757e-38
-0.075366676 0.061086673 0.83300006 1.8440899e-38
-0.073957145 0.061233338 0.83500004 1.9455051e-38
-0.07254 0.061379995 0.83700001 1.9176704e-38
-0.07111524 0.061526671 0.83900005 1.5304487e-38
-0.069682859 0.061673336 0.84100002 1.4198099e-38
-0.068080954 0.061673336 0.84100002 1.502786e-38
-0.06647905 0.061673336 0.84100002 1.5761474e-38
-0.13468286 0.062221903 0.82700002 1.2447111e-38
