# .PCD v0.7 - Point Cloud Data file format
VERSION 0.7
FIELDS x y z rgba
SIZE 4 4 4 4
TYPE F F F U
COUNT 1 1 1 1
WIDTH 1151
HEIGHT 1
VIEWPOINT 0 0 0 1 0 0 0
POINTS 1151
DATA ascii
-0.10066667 0.18733335 0.70000005 4867708
-0.099475242 0.18760096 0.70100003 5130880
-0.098420002 0.18813619 0.70300001 3887239
-0.097080946 0.18813619 0.70300001 2834551
-0.095741905 0.18813619 0.70300001 3358842
-0.16020761 0.18812761 0.69800001 7696988
-0.1588781 0.18812761 0.69800001 7236199
-0.15709715 0.18758859 0.69600004 4209721
-0.1553238 0.18704952 0.69400001 4338247
-0.15378001 0.18678001 0.69300002 4798798
-0.15202002 0.18624096 0.69100004 5323089
-0.15048572 0.18597144 0.69000006 6375777
-0.14873905 0.18543239 0.68800002 6113366
-0.14742857 0.18543239 0.68800002 5652815
-0.14590572 0.18516286 0.68700004 5518184
-0.14438668 0.18489334 0.68600005 5189219
-0.14308001 0.18489334 0.68600005 5385302
-0.14177334 0.18489334 0.68600005 5516888
-0.14046668 0.18489334 0.68600005 5647452
-0.13875428 0.18435429 0.68400002 5581659
-0.13745143 0.18435429 0.68400002 5516116
-0.13614857 0.18435429 0.68400002 5713495
-0.13464858 0.18408476 0.68300003 5517397
-0.13334762 0.18408476 0.68300003 5648983
-0.13204667 0.18408476 0.68300003 5648482
-0.13093714 0.18435429 0.68400002 5845861
-0.12963428 0.18435429 0.68400002 5912692
-0.12833142 0.18435429 0.68400002 7162759
-0.12702857 0.18435429 0.68400002 6835828
-0.12572572 0.18435429 0.68400002 5914726
-0.12478668 0.18489334 0.68600005 6110052
-0.12348001 0.18489334 0.68600005 6175845
-0.12217335 0.18489334 0.68600005 6044772
-0.12086668 0.18489334 0.68600005 6307944
-0.11956001 0.18489334 0.68600005 6373485
-0.11842572 0.18516286 0.68700004 6307692
-0.11711715 0.18516286 0.68700004 6571625
-0.11580858 0.18516286 0.68700004 6900590
-0.1145 0.18516286 0.68700004 6770283
-0.11319143 0.18516286 0.68700004 6901869
-0.11204571 0.18543239 0.68800002 7099511
-0.11073524 0.18543239 0.68800002 7033718
-0.10942476 0.18543239 0.68800002 6968691
-0.10842858 0.18597144 0.69000006 7100277
-0.10726953 0.18624096 0.69100004 7230834
-0.10626 0.18678001 0.69300002 6243939
-0.1053943 0.18758859 0.69600004 6375014
-0.10406857 0.18758859 0.69600004 5651291
-0.10303809 0.18812761 0.69800001 5126475
-0.10200001 0.18866667 0.70000005 5915991
-0.10066667 0.18866667 0.70000005 5000067
-0.099475242 0.1889362 0.70100003 4539516
-0.098420002 0.18947524 0.70300001 3492229
-0.097080946 0.18947524 0.70300001 2768506
-0.095741905 0.18947524 0.70300001 3227258
-0.15709715 0.1889143 0.69600004 4209989
-0.1553238 0.18837143 0.69400001 4993356
-0.15378001 0.1881 0.69300002 5256528
-0.15202002 0.18755715 0.69100004 5257039
-0.15048572 0.18728572 0.69000006 6441313
-0.14873905 0.18674286 0.68800002 6378337
-0.14742857 0.18674286 0.68800002 5983579
-0.1461181 0.18674286 0.68800002 6045803
-0.14459716 0.18647143 0.68700004 5453666
-0.14328857 0.18647143 0.68700004 5714776
-0.14177334 0.18620001 0.68600005 5648983
-0.14046668 0.18620001 0.68600005 5648213
-0.13916001 0.18620001 0.68600005 5648213
-0.13785335 0.18620001 0.68600005 5779547
-0.13614857 0.18565714 0.68400002 5845340
-0.1348457 0.18565714 0.68400002 5911387
-0.13354285 0.18565714 0.68400002 5977180
-0.13224 0.18565714 0.68400002 6042980
-0.13093714 0.18565714 0.68400002 6174566
-0.12963428 0.18565714 0.68400002 5717098
-0.12833142 0.18565714 0.68400002 7625095
-0.12702857 0.18565714 0.68400002 7234451
-0.12609334 0.18620001 0.68600005 6247556
-0.12478668 0.18620001 0.68600005 6045552
-0.12348001 0.18620001 0.68600005 6242931
-0.12217335 0.18620001 0.68600005 6111081
-0.12086668 0.18620001 0.68600005 6505839
-0.11973429 0.18647143 0.68700004 7164793
-0.11842572 0.18647143 0.68700004 7033207
-0.11711715 0.18647143 0.68700004 6639484
-0.11580858 0.18647143 0.68700004 6639484
-0.1145 0.18647143 0.68700004 6508651
-0.11319143 0.18647143 0.68700004 7166581
-0.11204571 0.18674286 0.68800002 7364751
-0.11073524 0.18674286 0.68800002 6641028
-0.10942476 0.18674286 0.68800002 6576247
-0.10842858 0.18728572 0.69000006 6905212
-0.10758 0.1881 0.69300002 7165828
-0.10641333 0.18837143 0.69400001 5981554
-0.1053943 0.1889143 0.69600004 6440037
-0.10406857 0.1889143 0.69600004 5189970
-0.10303809 0.18945715 0.69800001 4401228
-0.10200001 0.19000001 0.70000005 6638190
-0.10066667 0.19000001 0.70000005 5264781
-0.099475242 0.19027144 0.70100003 4343679
-0.098420002 0.19081429 0.70300001 3492227
-0.097080946 0.19081429 0.70300001 2702711
-0.095878102 0.19108573 0.70400006 2965369
-0.1553238 0.18969335 0.69400001 4535642
-0.15378001 0.18942 0.69300002 4535642
-0.15202002 0.18887335 0.69100004 5125469
-0.15048572 0.18860002 0.69000006 6375536
-0.14917144 0.18860002 0.69000006 6313048
-0.14785716 0.18860002 0.69000006 6576220
-0.1461181 0.18805334 0.68800002 6838138
-0.14459716 0.18778001 0.68700004 6772345
-0.14328857 0.18778001 0.68700004 6837359
-0.14177334 0.18750668 0.68600005 6705773
-0.14046668 0.18750668 0.68600005 6639712
-0.13916001 0.18750668 0.68600005 6902884
-0.13785335 0.18750668 0.68600005 7034484
-0.13614857 0.18696 0.68400002 7100277
-0.1348457 0.18696 0.68400002 7034997
-0.13354285 0.18696 0.68400002 7034997
-0.13224 0.18696 0.68400002 7230843
-0.13132001 0.18750668 0.68600005 6967671
-0.13001333 0.18750668 0.68600005 6443378
-0.12870668 0.18750668 0.68600005 7825031
-0.1274 0.18750668 0.68600005 7826331
-0.12609334 0.18750668 0.68600005 7234194
-0.12478668 0.18750668 0.68600005 7560847
-0.12348001 0.18750668 0.68600005 7560847
-0.12217335 0.18750668 0.68600005 7693188
-0.12104286 0.18778001 0.68700004 7890567
-0.11973429 0.18778001 0.68700004 7692682
-0.11842572 0.18778001 0.68700004 7758475
-0.11711715 0.18778001 0.68700004 7889812
-0.11580858 0.18778001 0.68700004 7626640
-0.1145 0.18778001 0.68700004 7232376
-0.11319143 0.18778001 0.68700004 7890306
-0.11204571 0.18805334 0.68800002 7823760
-0.11073524 0.18805334 0.68800002 6047349
-0.10942476 0.18805334 0.68800002 6441857
-0.10842858 0.18860002 0.69000006 7955096
-0.10758 0.18942 0.69300002 7559810
-0.10641333 0.18969335 0.69400001 6178157
-0.1053943 0.19024001 0.69600004 5584739
-0.10406857 0.19024001 0.69600004 4795223
-0.10303809 0.19078667 0.69800001 4076130
-0.10200001 0.19133334 0.70000005 6642057
-0.10081048 0.19160667 0.70100003 5528448
-0.09975905 0.19215333 0.70300001 4344174
-0.098560005 0.19242668 0.70400006 3361667
-0.097219057 0.19242668 0.70400006 2637944
-0.15577143 0.19156572 0.69600004 5392466
-0.15444572 0.19156572 0.69600004 4537157
-0.15246001 0.19074 0.69300002 5125199
-0.15070382 0.19018954 0.69100004 6309473
-0.14917144 0.1899143 0.69000006 5721688
-0.14785716 0.1899143 0.69000006 6248032
-0.14654286 0.1899143 0.69000006 6642810
-0.14480762 0.18936381 0.68800002 6313845
-0.14328857 0.18908858 0.68700004 6182509
-0.14198001 0.18908858 0.68700004 6050923
-0.14046668 0.18881334 0.68600005 5984360
-0.13916001 0.18881334 0.68600005 6642290
-0.13785335 0.18881334 0.68600005 6643326
-0.13654667 0.18881334 0.68600005 6380154
-0.1348457 0.18826286 0.68400002 6445427
-0.13354285 0.18826286 0.68400002 6642806
-0.13224 0.18826286 0.68400002 6774144
-0.13132001 0.18881334 0.68600005 6708351
-0.13001333 0.18881334 0.68600005 6313841
-0.12870668 0.18881334 0.68600005 7234943
-0.1274 0.18881334 0.68600005 7433113
-0.12609334 0.18881334 0.68600005 6906769
-0.12478668 0.18881334 0.68600005 7103368
-0.12366 0.18908858 0.68700004 7234954
-0.12235144 0.18908858 0.68700004 7367301
-0.12104286 0.18908858 0.68700004 7235715
-0.11973429 0.18908858 0.68700004 6971785
-0.11842572 0.18908858 0.68700004 7103371
-0.11711715 0.18908858 0.68700004 7759509
-0.11580858 0.18908858 0.68700004 7167372
-0.11466667 0.18936381 0.68800002 6247282
-0.11335619 0.18936381 0.68800002 7299970
-0.11237144 0.1899143 0.69000006 7824009
-0.11105715 0.1899143 0.69000006 6179184
-0.10974286 0.1899143 0.69000006 6440308
-0.10858572 0.19018954 0.69100004 7558789
-0.10773524 0.19101523 0.69400001 7559803
-0.10672001 0.19156572 0.69600004 5520220
-0.1053943 0.19156572 0.69600004 5387351
-0.1042181 0.19184096 0.69700003 5979488
-0.10303809 0.19211619 0.69800001 5326463
-0.10200001 0.19266668 0.70000005 6115979
-0.10081048 0.1929419 0.70100003 5134733
-0.09975905 0.19349238 0.70300001 4016252
-0.098560005 0.19376762 0.70400006 3164545
-0.15599525 0.19316858 0.69700003 5131350
-0.15444572 0.19289143 0.69600004 4078662
-0.15246001 0.19206001 0.69300002 4862790
-0.15070382 0.19150572 0.69100004 5323341
-0.14938763 0.19150572 0.69100004 5720402
-0.14785716 0.1912286 0.69000006 5983574
-0.14654286 0.1912286 0.69000006 6114658
-0.14480762 0.19067429 0.68800002 6114658
-0.14349715 0.19067429 0.68800002 5918567
-0.14198001 0.19039714 0.68700004 5918567
-0.14067143 0.19039714 0.68700004 5984360
-0.13916001 0.19012001 0.68600005 6773876
-0.13785335 0.19012001 0.68600005 6905214
-0.13654667 0.19012001 0.68600005 6510456
-0.13524002 0.19012001 0.68600005 6510704
-0.13354285 0.18956572 0.68400002 6642290
-0.13224 0.18956572 0.68400002 7036546
-0.13132001 0.19012001 0.68600005 7431304
-0.13001333 0.19012001 0.68600005 6511220
-0.12870668 0.19012001 0.68600005 6511220
-0.1274 0.19012001 0.68600005 6773900
-0.12609334 0.19012001 0.68600005 6708107
-0.12478668 0.19012001 0.68600005 6708351
-0.12366 0.19039714 0.68700004 6774144
-0.12235144 0.19039714 0.68700004 7037050
-0.12104286 0.19039714 0.68700004 7102843
-0.11973429 0.19039714 0.68700004 7037050
-0.1185981 0.19067429 0.68800002 6247534
-0.11728762 0.19067429 0.68800002 6377606
-0.11597715 0.19067429 0.68800002 6180227
-0.11466667 0.19067429 0.68800002 5915237
-0.11335619 0.19067429 0.68800002 5981030
-0.11237144 0.1912286 0.69000006 6046060
-0.1112181 0.19150572 0.69100004 5914474
-0.10990191 0.19150572 0.69100004 6111345
-0.1089 0.19206001 0.69300002 6308724
-0.10773524 0.19233714 0.69400001 6112103
-0.10672001 0.19289143 0.69600004 4533071
-0.10554572 0.19316858 0.69700003 4601437
-0.1042181 0.19316858 0.69700003 6443641
-0.10333334 0.19400001 0.70000005 5396362
-0.10214572 0.19427715 0.70100003 4146295
-0.10109809 0.19483143 0.70300001 3163784
-0.09975905 0.19483143 0.70300001 2900612
-0.098560005 0.19510858 0.70400006 2835330
-0.15466762 0.1944962 0.69700003 4210502
-0.15267999 0.19365904 0.69400001 4733525
-0.15114 0.19338001 0.69300002 4930904
-0.14938763 0.19282192 0.69100004 5520218
-0.14807144 0.19282192 0.69100004 5651804
-0.14675523 0.19282192 0.69100004 5520218
-0.14522858 0.19254287 0.69000006 5783390
-0.14349715 0.19198476 0.68800002 6245731
-0.14218667 0.19198476 0.68800002 6114145
-0.14067143 0.19170573 0.68700004 5851234
-0.13936286 0.19170573 0.68700004 6574957
-0.13785335 0.19142668 0.68600005 6313845
-0.13654667 0.19142668 0.68600005 6116466
-0.13524002 0.19142668 0.68600005 6115948
-0.13393334 0.19142668 0.68600005 6247534
-0.13262668 0.19142668 0.68600005 6444661
-0.13132001 0.19142668 0.68600005 6510454
-0.13001333 0.19142668 0.68600005 6313845
-0.12870668 0.19142668 0.68600005 6379638
-0.1274 0.19142668 0.68600005 6576765
-0.12627715 0.19170573 0.68700004 6576765
-0.12496858 0.19170573 0.68700004 6708097
-0.12366 0.19170573 0.68700004 6181753
-0.12235144 0.19170573 0.68700004 6180208
-0.12104286 0.19170573 0.68700004 6509173
-0.11990858 0.19198476 0.68800002 7232126
-0.1185981 0.19198476 0.68800002 6574196
-0.11728762 0.19198476 0.68800002 6442114
-0.11597715 0.19198476 0.68800002 6376321
-0.11500001 0.19254287 0.69000006 5848422
-0.11368572 0.19254287 0.69000006 6045801
-0.11253429 0.19282192 0.69100004 5584231
-0.1112181 0.19282192 0.69100004 6242161
-0.10990191 0.19282192 0.69100004 6245236
-0.1089 0.19338001 0.69300002 6179443
-0.10804572 0.19421715 0.69600004 5982318
-0.10672001 0.19421715 0.69600004 5192802
-0.10554572 0.1944962 0.69700003 4799862
-0.1042181 0.1944962 0.69700003 5918343
-0.10348096 0.19561239 0.70100003 4609933
-0.10214572 0.19561239 0.70100003 2833522
-0.10109809 0.19617048 0.70300001 1916554
-0.099900961 0.19644953 0.70400006 2245519
-0.098560005 0.19644953 0.70400006 2638464
-0.15488952 0.19610476 0.69800001 3948879
-0.15334 0.19582382 0.69700003 4210019
-0.15179428 0.19554286 0.69600004 4473191
-0.14982 0.19470002 0.69300002 4995942
-0.14807144 0.19413811 0.69100004 5193321
-0.14675523 0.19413811 0.69100004 5062236
-0.14522858 0.19385716 0.69000006 5062236
-0.1439143 0.19385716 0.69000006 4931415
-0.14218667 0.19329524 0.68800002 4405071
-0.14087619 0.19329524 0.68800002 4666979
-0.13936286 0.19301429 0.68700004 4535393
-0.13805428 0.19301429 0.68700004 4667226
-0.13674572 0.19301429 0.68700004 4667226
-0.13524002 0.19273335 0.68600005 5061473
-0.13393334 0.19273335 0.68600005 4995680
-0.13262668 0.19273335 0.68600005 5127768
-0.13151143 0.19301429 0.68700004 5259354
-0.13020287 0.19301429 0.68700004 5326182
-0.12889428 0.19301429 0.68700004 4997217
-0.12758572 0.19301429 0.68700004 5458016
-0.12627715 0.19301429 0.68700004 5523809
-0.12496858 0.19301429 0.68700004 5655930
-0.12366 0.19301429 0.68700004 5590137
-0.12235144 0.19301429 0.68700004 5721723
-0.12104286 0.19301429 0.68700004 5787516
-0.11990858 0.19329524 0.68800002 5984379
-0.1185981 0.19329524 0.68800002 5984379
-0.11728762 0.19329524 0.68800002 6050170
-0.11597715 0.19329524 0.68800002 6115963
-0.11500001 0.19385716 0.69000006 6708599
-0.11385048 0.19413811 0.69100004 6774392
-0.11253429 0.19413811 0.69100004 7038336
-0.11154 0.19470002 0.69300002 7169922
-0.11022 0.19470002 0.69300002 7763594
-0.10905714 0.19498095 0.69400001 7960973
-0.10804572 0.19554286 0.69600004 7960973
-0.10672001 0.19554286 0.69600004 7237250
-0.10554572 0.19582382 0.69700003 5791629
-0.10436761 0.19610476 0.69800001 5002113
-0.10333334 0.19666667 0.70000005 4215688
-0.10214572 0.19694763 0.70100003 2636656
-0.10109809 0.19750953 0.70300001 1850509
-0.099900961 0.1977905 0.70400006 2047888
-0.098560005 0.1977905 0.70400006 2506878
-0.15599905 0.19884858 0.70300001 3685955
-0.15356 0.19743428 0.69800001 4080994
-0.15201239 0.19715142 0.69700003 4607338
-0.15003619 0.19630285 0.69400001 5327977
-0.14807144 0.1954543 0.69100004 5459563
-0.14675523 0.1954543 0.69100004 5721958
-0.14543906 0.1954543 0.69100004 5524579
-0.1439143 0.19517145 0.69000006 4932188
-0.14218667 0.19460572 0.68800002 4932188
-0.14087619 0.19460572 0.68800002 5393007
-0.13936286 0.19432287 0.68700004 5393007
-0.13805428 0.19432287 0.68700004 5458534
-0.13674572 0.19432287 0.68700004 5524327
-0.13524002 0.19404002 0.68600005 5653372
-0.13393334 0.19404002 0.68600005 5390200
-0.13262668 0.19404002 0.68600005 5587047
-0.13151143 0.19432287 0.68700004 6047598
-0.13020287 0.19432287 0.68700004 5785469
-0.12889428 0.19432287 0.68700004 5522297
-0.12758572 0.19432287 0.68700004 5918065
-0.12627715 0.19432287 0.68700004 6181237
-0.12496858 0.19432287 0.68700004 5853313
-0.12366 0.19432287 0.68700004 5721727
-0.12235144 0.19432287 0.68700004 5854340
-0.12104286 0.19432287 0.68700004 5525375
-0.11990858 0.19460572 0.68800002 5459313
-0.1185981 0.19460572 0.68800002 5656692
-0.11762858 0.19517145 0.69000006 5853822
-0.1163143 0.19517145 0.69000006 5853822
-0.11516668 0.1954543 0.69100004 6645638
-0.11385048 0.1954543 0.69100004 7500947
-0.11286 0.19601999 0.69300002 6846366
-0.11154 0.19601999 0.69300002 7043745
-0.11022 0.19601999 0.69300002 6978715
-0.10905714 0.19630285 0.69400001 7044508
-0.10804572 0.19686857 0.69600004 7372190
-0.10672001 0.19686857 0.69600004 6319502
-0.10554572 0.19715142 0.69700003 5136529
-0.10436761 0.19743428 0.69800001 4215427
-0.10333334 0.19800001 0.70000005 3757195
-0.10214572 0.19828287 0.70100003 2704507
-0.10109809 0.19884858 0.70300001 2047622
-0.099900961 0.19913144 0.70400006 1981829
-0.098560005 0.19913144 0.70400006 2440831
-0.096695244 0.20082858 0.71000004 3618918
-0.15356 0.19876382 0.69800001 3292531
-0.15201239 0.19847906 0.69700003 4279426
-0.15068477 0.19847906 0.69700003 5329776
-0.1485 0.19734 0.69300002 6974601
-0.14718001 0.19734 0.69300002 7236726
-0.14543906 0.19677049 0.69100004 7039347
-0.1439143 0.19648573 0.69000006 6250355
-0.14260001 0.19648573 0.69000006 5987183
-0.14087619 0.19591619 0.68800002 6315150
-0.13956572 0.19591619 0.68800002 6446736
-0.13805428 0.19563143 0.68700004 6381185
-0.13674572 0.19563143 0.68700004 6710150
-0.13543716 0.19563143 0.68700004 6643858
-0.13412857 0.19563143 0.68700004 5854342
-0.13282001 0.19563143 0.68700004 5854342
-0.13151143 0.19563143 0.68700004 7104409
-0.13020287 0.19563143 0.68700004 6709908
-0.12889428 0.19563143 0.68700004 5986185
-0.12758572 0.19563143 0.68700004 6183307
-0.12646097 0.19591619 0.68800002 7499167
-0.12515049 0.19591619 0.68800002 6381185
-0.12384 0.19591619 0.68800002 5723255
-0.12252953 0.19591619 0.68800002 5065862
-0.12121905 0.19591619 0.68800002 4934276
-0.12025715 0.19648573 0.69000006 4671597
-0.11894286 0.19648573 0.69000006 4803183
-0.11779906 0.19677049 0.69100004 4737406
-0.11648286 0.19677049 0.69100004 4605820
-0.11516668 0.19677049 0.69100004 6053257
-0.11418 0.19734 0.69300002 8224426
-0.11286 0.19734 0.69300002 8159398
-0.11154 0.19734 0.69300002 7830433
-0.11037905 0.19762476 0.69400001 7306128
-0.10937143 0.1981943 0.69600004 7503507
-0.10820096 0.19847906 0.69700003 7438486
-0.10687333 0.19847906 0.69700003 6056833
-0.10569715 0.19876382 0.69800001 4347788
-0.10436761 0.19876382 0.69800001 3887237
-0.10348096 0.1996181 0.70100003 3822986
-0.10214572 0.1996181 0.70100003 3165056
-0.10124191 0.2004724 0.70400006 2574216
-0.099900961 0.2004724 0.70400006 2376837
-0.098840006 0.20104191 0.70600003 2704255
-0.098047622 0.20218095 0.71000004 1783153
-0.095342867 0.20218095 0.71000004 6448789
-0.15356 0.20009334 0.69800001 3161697
-0.15201239 0.19980668 0.69700003 3490662
-0.15068477 0.19980668 0.69700003 5264233
-0.14914286 0.19952002 0.69600004 6777472
-0.14739239 0.19894665 0.69400001 6581637
-0.14586 0.19866 0.69300002 6318465
-0.14412287 0.19808668 0.69100004 5661305
-0.14260001 0.19780001 0.69000006 5332340
-0.14128572 0.19780001 0.69000006 5528966
-0.13956572 0.19722667 0.68800002 5331587
-0.13825524 0.19722667 0.68800002 5134462
-0.13694477 0.19722667 0.68800002 5463427
-0.13543716 0.19694002 0.68700004 5332607
-0.13412857 0.19694002 0.68700004 4674677
-0.13282001 0.19694002 0.68700004 4477318
-0.13151143 0.19694002 0.68700004 5464213
-0.13039239 0.19722667 0.68800002 5399423
-0.12908192 0.19722667 0.68800002 4609907
-0.12777144 0.19722667 0.68800002 4740999
-0.12646097 0.19722667 0.68800002 6320031
-0.12515049 0.19722667 0.68800002 5333136
-0.1242 0.19780001 0.69000006 4477827
-0.12288573 0.19780001 0.69000006 4081790
-0.12157144 0.19780001 0.69000006 4344962
-0.12025715 0.19780001 0.69000006 3556203
-0.11911524 0.19808668 0.69100004 4016754
-0.11779906 0.19808668 0.69100004 3950972
-0.11648286 0.19808668 0.69100004 4016765
-0.1155 0.19866 0.69300002 5594241
-0.11418 0.19866 0.69300002 7896996
-0.11302286 0.19894665 0.69400001 7897507
-0.11170095 0.19894665 0.69400001 7568542
-0.11037905 0.19894665 0.69400001 7502737
-0.10937143 0.19952002 0.69600004 7765909
-0.10820096 0.19980668 0.69700003 7634594
-0.10687333 0.19980668 0.69700003 5989769
-0.10569715 0.20009334 0.69800001 3954311
-0.10436761 0.20009334 0.69800001 2967416
-0.10377619 0.20152666 0.70300001 2837129
-0.10243714 0.20152666 0.70300001 2771336
-0.10124191 0.20181336 0.70400006 2837127
-0.099900961 0.20181336 0.70400006 2442369
-0.098980002 0.20267333 0.70700002 2704255
-0.098047622 0.20353334 0.71000004 1717360
-0.096695244 0.20353334 0.71000004 3290473
-0.095342867 0.20353334 0.71000004 6514330
-0.094387628 0.20439336 0.71300006 7959920
-0.15201239 0.20113429 0.69700003 3228252
-0.15068477 0.20113429 0.69700003 4870499
-0.14914286 0.20084573 0.69600004 6515324
-0.14739239 0.20026857 0.69400001 6843528
-0.14586 0.19998001 0.69300002 6382977
-0.14412287 0.19940287 0.69100004 5660785
-0.14280666 0.19940287 0.69100004 4871269
-0.14128572 0.19911431 0.69000006 4804984
-0.13956572 0.19853714 0.68800002 4212847
-0.13825524 0.19853714 0.68800002 3885688
-0.13694477 0.19853714 0.68800002 3556723
-0.13563429 0.19853714 0.68800002 3623762
-0.13412857 0.19824858 0.68700004 4018520
-0.13282001 0.19824858 0.68700004 4608900
-0.13151143 0.19824858 0.68700004 4345728
-0.13039239 0.19853714 0.68800002 3624284
-0.12908192 0.19853714 0.68800002 3229526
-0.12777144 0.19853714 0.68800002 5068931
-0.12646097 0.19853714 0.68800002 6647963
-0.12515049 0.19853714 0.68800002 5990537
-0.1242 0.19911431 0.69000006 4740470
-0.12288573 0.19911431 0.69000006 5068681
-0.12157144 0.19911431 0.69000006 5266060
-0.12043144 0.19940287 0.69100004 5330819
-0.11911524 0.19940287 0.69100004 5396612
-0.11779906 0.19940287 0.69100004 5200003
-0.11648286 0.19940287 0.69100004 4673659
-0.1155 0.19998001 0.69300002 5593991
-0.11418 0.19998001 0.69300002 6778265
-0.11302286 0.20026857 0.69400001 7106700
-0.11170095 0.20026857 0.69400001 6909321
-0.11069715 0.20084573 0.69600004 7108231
-0.10937143 0.20084573 0.69600004 7897747
-0.10820096 0.20113429 0.69700003 7765918
-0.10687333 0.20113429 0.69700003 5989507
-0.10569715 0.20142286 0.69800001 3822214
-0.10466667 0.20200002 0.70000005 2572147
-0.10377619 0.20286572 0.70300001 2179469
-0.10258286 0.2031543 0.70400006 1587332
-0.10124191 0.2031543 0.70400006 1718153
-0.10018477 0.20373145 0.70600003 2376083
-0.098980002 0.20402001 0.70700002 2704253
-0.098047622 0.20488572 0.71000004 1914737
-0.096695244 0.20488572 0.71000004 3421807
-0.09574572 0.20575145 0.71300006 6645664
-0.094387628 0.20575145 0.71300006 8025199
-0.15201239 0.20246191 0.69700003 3294045
-0.15068477 0.20246191 0.69700003 4935781
-0.14914286 0.20217144 0.69600004 6514813
-0.14739239 0.20159048 0.69400001 6384517
-0.14607048 0.20159048 0.69400001 5989759
-0.14412287 0.20071906 0.69100004 5266549
-0.14280666 0.20071906 0.69100004 4740205
-0.14128572 0.20042858 0.69000006 5066865
-0.13956572 0.19984762 0.68800002 5066865
-0.13825524 0.19984762 0.68800002 5527416
-0.13694477 0.19984762 0.68800002 5066865
-0.13563429 0.19984762 0.68800002 4541795
-0.13432382 0.19984762 0.68800002 5199725
-0.13282001 0.19955714 0.68700004 5791627
-0.13151143 0.19955714 0.68700004 5133697
-0.13039239 0.19984762 0.68800002 3951464
-0.12945715 0.20042858 0.69000006 4148843
-0.12814288 0.20042858 0.69000006 5396869
-0.12682858 0.20042858 0.69000006 6778522
-0.1255143 0.20042858 0.69000006 6517151
-0.1242 0.20042858 0.69000006 5596049
-0.12306382 0.20071906 0.69100004 5266314
-0.12174763 0.20071906 0.69100004 5397900
-0.12043144 0.20071906 0.69100004 5003140
-0.11911524 0.20071906 0.69100004 4937347
-0.11779906 0.20071906 0.69100004 5265287
-0.11682 0.20130001 0.69300002 5133701
-0.1155 0.20130001 0.69300002 5528448
-0.11434477 0.20159048 0.69400001 5594241
-0.11302286 0.20159048 0.69400001 5528446
-0.11170095 0.20159048 0.69400001 5791618
-0.11069715 0.20217144 0.69600004 6842501
-0.10937143 0.20217144 0.69600004 8092568
-0.10820096 0.20246191 0.69700003 7634594
-0.10702667 0.20275238 0.69800001 5858183
-0.10569715 0.20275238 0.69800001 3560838
-0.10466667 0.20333335 0.70000005 2442357
-0.10392382 0.20449525 0.70400006 2572939
-0.10258286 0.20449525 0.70400006 1915009
-0.10124191 0.20449525 0.70400006 1980291
-0.10032666 0.20536667 0.70700002 2243463
-0.099120006 0.20565714 0.708 2506876
-0.098047622 0.20623811 0.71000004 1585774
-0.097103812 0.20710953 0.71300006 3619436
-0.09574572 0.20710953 0.71300006 6843293
-0.09452001 0.20740001 0.71400005 7959922
-0.15201239 0.20378953 0.69700003 3424869
-0.15068477 0.20378953 0.69700003 4214377
-0.14914286 0.20349716 0.69600004 5332858
-0.14781715 0.20349716 0.69600004 5529201
-0.14607048 0.20291238 0.69400001 5200236
-0.14454 0.20262 0.69300002 4608118
-0.14280666 0.20203525 0.69100004 4279153
-0.14128572 0.20174287 0.69000006 4148584
-0.13997145 0.20174287 0.69000006 4609135
-0.13865715 0.20174287 0.69000006 5002355
-0.13734286 0.20174287 0.69000006 5594492
-0.13563429 0.20115809 0.68800002 5463425
-0.13432382 0.20115809 0.68800002 5463425
-0.13301334 0.20115809 0.68800002 5594502
-0.13170287 0.20115809 0.68800002 5462916
-0.13077144 0.20174287 0.69000006 5331839
-0.12945715 0.20174287 0.69000006 5266046
-0.12814288 0.20174287 0.69000006 5265796
-0.12682858 0.20174287 0.69000006 7173793
-0.1255143 0.20174287 0.69000006 7502245
-0.12438001 0.20203525 0.69100004 6515350
-0.12306382 0.20203525 0.69100004 5990285
-0.12174763 0.20203525 0.69100004 5924492
-0.12043144 0.20203525 0.69100004 5463943
-0.11911524 0.20203525 0.69100004 4740220
-0.11814 0.20262 0.69300002 5067656
-0.11682 0.20262 0.69300002 5133449
-0.1155 0.20262 0.69300002 5462906
-0.11434477 0.20291238 0.69400001 5397113
-0.11334857 0.20349716 0.69600004 5331069
-0.11202286 0.20349716 0.69600004 5660034
-0.11069715 0.20349716 0.69600004 6318724
-0.10952857 0.20378953 0.69700003 6516103
-0.10820096 0.20378953 0.69700003 5925775
-0.10702667 0.20408191 0.69800001 4938880
-0.10600001 0.20466667 0.70000005 4347788
-0.1048162 0.20495906 0.70100003 3031928
-0.10392382 0.20583621 0.70400006 2769805
-0.10287429 0.20642096 0.70600003 1914496
-0.10152952 0.20642096 0.70600003 1653123
-0.10046858 0.20700571 0.708 1718916
-0.099399999 0.20759049 0.71000004 1981052
-0.098185718 0.20788287 0.71100003 1520501
-0.097103812 0.20846763 0.71300006 3619688
-0.09574572 0.20846763 0.71300006 6909338
-0.09452001 0.20876001 0.71400005 7894642
-0.093160003 0.20876001 0.71400005 7960435
-0.15312001 0.20482287 0.69600004 3425123
-0.15179428 0.20482287 0.69600004 3490916
-0.15046857 0.20482287 0.69600004 3820130
-0.14914286 0.20482287 0.69600004 4872818
-0.14781715 0.20482287 0.69600004 5332342
-0.14607048 0.20423429 0.69400001 5069170
-0.14474858 0.20423429 0.69400001 3821169
-0.14280666 0.20335144 0.69100004 3821169
-0.14149047 0.20335144 0.69100004 4214126
-0.13997145 0.20305716 0.69000006 4543091
-0.13865715 0.20305716 0.69000006 4345971
-0.13734286 0.20305716 0.69000006 5069694
-0.13602859 0.20305716 0.69000006 5266816
-0.13471429 0.20305716 0.69000006 5332609
-0.13301334 0.20246857 0.68800002 5332357
-0.13170287 0.20246857 0.68800002 5266564
-0.13077144 0.20305716 0.69000006 5463425
-0.12945715 0.20305716 0.69000006 5331839
-0.12832858 0.20335144 0.69100004 5593991
-0.12701239 0.20335144 0.69100004 7173023
-0.1256962 0.20335144 0.69100004 7108516
-0.12438001 0.20335144 0.69100004 6121621
-0.12306382 0.20335144 0.69100004 5727372
-0.12174763 0.20335144 0.69100004 5793165
-0.12043144 0.20335144 0.69100004 5792906
-0.11911524 0.20335144 0.69100004 5069183
-0.11814 0.20394 0.69300002 4674177
-0.11682 0.20394 0.69300002 4871556
-0.1155 0.20394 0.69300002 5527668
-0.11434477 0.20423429 0.69400001 5725047
-0.11334857 0.20482287 0.69600004 5463423
-0.11202286 0.20482287 0.69600004 5726595
-0.11085619 0.20511714 0.69700003 5530767
-0.10952857 0.20511714 0.69700003 5333388
-0.10835619 0.20541143 0.69800001 4611473
-0.10733334 0.20600002 0.70000005 4479887
-0.10615143 0.2062943 0.70100003 4545428
-0.10511524 0.20688286 0.70300001 3163775
-0.10392382 0.20717715 0.70400006 2442380
-0.10287429 0.20776571 0.70600003 1718657
-0.10167333 0.20806001 0.70700002 1718916
-0.10046858 0.20835428 0.708 1718916
-0.099399999 0.20894288 0.71000004 1981302
-0.098461911 0.20982572 0.71300006 1323372
-0.097103812 0.20982572 0.71300006 3751528
-0.095880002 0.21012001 0.71400005 6843799
-0.094784766 0.21070857 0.71600002 7893877
-0.093420953 0.21070857 0.71600002 7828084
-0.15444572 0.20614858 0.69600004 5658689
-0.15312001 0.20614858 0.69600004 3621996
-0.15179428 0.20614858 0.69600004 2635101
-0.15046857 0.20614858 0.69600004 2766705
-0.14935715 0.20644477 0.69700003 4016772
-0.14802952 0.20644477 0.69700003 4805487
-0.14649144 0.20614858 0.69600004 4739694
-0.14474858 0.20555618 0.69400001 4280952
-0.14321999 0.20526001 0.69300002 4280952
-0.14149047 0.20466763 0.69100004 4346493
-0.13997145 0.20437144 0.69000006 4478079
-0.13865715 0.20437144 0.69000006 4543109
-0.13734286 0.20437144 0.69000006 4937867
-0.13602859 0.20437144 0.69000006 5201023
-0.13471429 0.20437144 0.69000006 5332609
-0.13340001 0.20437144 0.69000006 5463943
-0.13208573 0.20437144 0.69000006 5398150
-0.13096096 0.20466763 0.69100004 5463689
-0.12964478 0.20466763 0.69100004 5463689
-0.12832858 0.20466763 0.69100004 5397646
-0.12701239 0.20466763 0.69100004 5792404
-0.1256962 0.20466763 0.69100004 5858708
-0.12438001 0.20466763 0.69100004 5595536
-0.12306382 0.20466763 0.69100004 5727626
-0.1221 0.20526001 0.69300002 5793419
-0.12078 0.20526001 0.69300002 6055303
-0.11946 0.20526001 0.69300002 6055303
-0.11814 0.20526001 0.69300002 6053758
-0.11682 0.20526001 0.69300002 5527414
-0.11566667 0.20555618 0.69400001 5461873
-0.11434477 0.20555618 0.69400001 5725045
-0.11334857 0.20614858 0.69600004 5332357
-0.11202286 0.20614858 0.69600004 5529736
-0.11085619 0.20644477 0.69700003 5398931
-0.10952857 0.20644477 0.69700003 5333138
-0.10835619 0.20674095 0.69800001 4743318
-0.10733334 0.20733334 0.70000005 3559044
-0.10645428 0.2082219 0.70300001 3231383
-0.10526477 0.2085181 0.70400006 2573453
-0.10392382 0.2085181 0.70400006 2508936
-0.10287429 0.20911048 0.70600003 2114178
-0.10167333 0.20940666 0.70700002 1981829
-0.10046858 0.20970286 0.708 1850243
-0.099540003 0.21059144 0.71100003 1981302
-0.098461911 0.21118382 0.71300006 1389165
-0.097240001 0.21148001 0.71400005 3488102
-0.096148573 0.21207239 0.71600002 6646166
-0.094784766 0.21207239 0.71600002 7762543
-0.093420953 0.21207239 0.71600002 7630957
-0.15400191 0.2068781 0.69400001 5790529
-0.15267999 0.2068781 0.69400001 4409957
-0.15179428 0.20747429 0.69600004 2896718
-0.15046857 0.20747429 0.69600004 2570850
-0.14935715 0.20777239 0.69700003 3491952
-0.14824191 0.20807047 0.69800001 4412018
-0.1467019 0.20777239 0.69700003 4543604
-0.14516573 0.20747429 0.69600004 4412795
-0.14342667 0.2068781 0.69400001 4478588
-0.1419 0.20658001 0.69300002 4478336
-0.1401743 0.20598383 0.69100004 4609922
-0.13885811 0.20598383 0.69100004 4741258
-0.13754191 0.20598383 0.69100004 4872844
-0.13622572 0.20598383 0.69100004 5003910
-0.13490954 0.20598383 0.69100004 5267082
-0.13359334 0.20598383 0.69100004 5398411
-0.13227715 0.20598383 0.69100004 5398411
-0.13096096 0.20598383 0.69100004 5397646
-0.12964478 0.20598383 0.69100004 5463439
-0.1287 0.20658001 0.69300002 5463700
-0.12738001 0.20658001 0.69300002 5726872
-0.12606001 0.20658001 0.69300002 5728155
-0.12474 0.20658001 0.69300002 5464983
-0.12342 0.20658001 0.69300002 5858962
-0.12227619 0.2068781 0.69400001 6056341
-0.12095428 0.2068781 0.69400001 6384008
-0.11963238 0.2068781 0.69400001 6515594
-0.11831047 0.2068781 0.69400001 6514050
-0.11698857 0.2068781 0.69400001 6119292
-0.11566667 0.2068781 0.69400001 5790840
-0.11467429 0.20747429 0.69600004 5856633
-0.11351143 0.20777239 0.69700003 5463943
-0.11218382 0.20777239 0.69700003 5529736
-0.11085619 0.20777239 0.69700003 5136788
-0.10968572 0.20807047 0.69800001 5070995
-0.10866667 0.20866668 0.70000005 4481686
-0.10748667 0.20896477 0.70100003 3757963
-0.10645428 0.20956095 0.70300001 3230608
-0.10526477 0.20985906 0.70400006 2572678
-0.10392382 0.20985906 0.70400006 2311055
-0.10302 0.21075334 0.70700002 1982090
-0.10167333 0.21075334 0.70700002 2178949
-0.10075239 0.21164763 0.71000004 1915777
-0.099540003 0.21194573 0.71100003 1915257
-0.098461911 0.21254192 0.71300006 1257327
-0.097240001 0.21284001 0.71400005 3422309
-0.096148573 0.21343619 0.71600002 6382994
-0.095181912 0.21433048 0.71900004 7696498
-0.093812384 0.21433048 0.71900004 7828084
-0.15400191 0.20819999 0.69400001 5987138
-0.15267999 0.20819999 0.69400001 4082537
-0.15179428 0.2088 0.69600004 2306126
-0.15046857 0.2088 0.69600004 2177380
-0.15000001 0.21000001 0.70000005 3098482
-0.14824191 0.20940001 0.69800001 4281451
-0.1467019 0.20910001 0.69700003 4478830
-0.14516573 0.2088 0.69600004 4478840
-0.14384001 0.2088 0.69600004 4478840
-0.14210476 0.20819999 0.69400001 4544644
-0.14058001 0.20790002 0.69300002 4610437
-0.13926001 0.20790002 0.69300002 5003921
-0.13794 0.20790002 0.69300002 4806542
-0.13622572 0.20730001 0.69100004 4741512
-0.13490954 0.20730001 0.69100004 4741512
-0.13359334 0.20730001 0.69100004 4741260
-0.13227715 0.20730001 0.69100004 4872846
-0.13134 0.20790002 0.69300002 4806801
-0.13001999 0.20790002 0.69300002 4938387
-0.1287 0.20790002 0.69300002 5003417
-0.12738001 0.20790002 0.69300002 5200796
-0.12606001 0.20790002 0.69300002 4742044
-0.12474 0.20790002 0.69300002 3755149
-0.12342 0.20790002 0.69300002 5003417
-0.12227619 0.20819999 0.69400001 6714035
-0.12095428 0.20819999 0.69400001 7238275
-0.11963238 0.20819999 0.69400001 6711931
-0.11831047 0.20819999 0.69400001 6776447
-0.11732572 0.2088 0.69600004 6381689
-0.11600001 0.2088 0.69600004 5792123
-0.11467429 0.2088 0.69600004 5660537
-0.11351143 0.20910001 0.69700003 5201548
-0.11218382 0.20910001 0.69700003 5398927
-0.11101524 0.20940001 0.69800001 5268374
-0.10968572 0.20940001 0.69800001 5202581
-0.10866667 0.21000001 0.70000005 4810394
-0.10748667 0.21030001 0.70100003 4744601
-0.10645428 0.21090001 0.70300001 4217744
-0.10526477 0.21120003 0.70400006 3099263
-0.10392382 0.21120003 0.70400006 3033488
-0.10287429 0.21180001 0.70600003 2375558
-0.10167333 0.2121 0.70700002 2244742
-0.10075239 0.213 0.71000004 2113156
-0.09982001 0.21390001 0.71300006 2243713
-0.098600008 0.21420002 0.71400005 1717369
-0.097512379 0.2148 0.71600002 2898025
-0.096282855 0.21509999 0.71700001 5661331
-0.095181912 0.21570002 0.71900004 7697002
-0.093812384 0.21570002 0.71900004 7894381
-0.1573381 0.21223904 0.70300001 7237205
-0.15599905 0.21223904 0.70300001 6316103
-0.15466 0.21223904 0.70300001 4543074
-0.15288477 0.21163525 0.70100003 2569284
-0.15133335 0.21133333 0.70000005 2375013
-0.15000001 0.21133333 0.70000005 3164529
-0.14866666 0.21133333 0.70000005 3296365
-0.1467019 0.21042763 0.69700003 3888502
-0.14537428 0.21042763 0.69700003 3888513
-0.14384001 0.21012573 0.69600004 4020099
-0.14210476 0.2095219 0.69400001 4216715
-0.14078286 0.2095219 0.69400001 4085129
-0.13926001 0.20921999 0.69300002 4216463
-0.13794 0.20921999 0.69300002 4150670
-0.13662 0.20921999 0.69300002 4019336
-0.1353 0.20921999 0.69300002 4085129
-0.13398001 0.20921999 0.69300002 4478349
-0.13266 0.20921999 0.69300002 4675728
-0.13134 0.20921999 0.69300002 4479374
-0.13020761 0.2095219 0.69400001 4610960
-0.12888572 0.2095219 0.69400001 4806799
-0.1275638 0.2095219 0.69400001 5201557
-0.12624191 0.2095219 0.69400001 4545185
-0.12492 0.2095219 0.69400001 3163532
-0.12359809 0.2095219 0.69400001 4281479
-0.12227619 0.2095219 0.69400001 6518441
-0.12095428 0.2095219 0.69400001 7500947
-0.11997715 0.21012573 0.69600004 6645638
-0.11865143 0.21012573 0.69600004 6644607
-0.11732572 0.21012573 0.69600004 6315642
-0.11600001 0.21012573 0.69600004 5726330
-0.11483905 0.21042763 0.69700003 5265779
-0.11351143 0.21042763 0.69700003 4741001
-0.11218382 0.21042763 0.69700003 5333138
-0.11101524 0.21072952 0.69800001 5334165
-0.10968572 0.21072952 0.69800001 5465751
-0.10866667 0.21133333 0.70000005 5334937
-0.10748667 0.21163525 0.70100003 5269144
-0.10645428 0.21223904 0.70300001 4613526
-0.10526477 0.21254097 0.70400006 3429252
-0.10392382 0.21254097 0.70400006 3427985
-0.10287429 0.21314476 0.70600003 2506883
-0.10167333 0.21344666 0.70700002 2178949
-0.10075239 0.21435238 0.71000004 1981570
-0.09982001 0.21525811 0.71300006 2177918
-0.098600008 0.21556 0.71400005 1585781
-0.097240001 0.21556 0.71400005 2898025
-0.096148573 0.21616381 0.71600002 5463952
-0.094917141 0.21646571 0.71700001 7499119
-0.093551435 0.21646571 0.71700001 7893877
-0.1573381 0.21357809 0.70300001 7368021
-0.15599905 0.21357809 0.70300001 6710091
-0.15466 0.21357809 0.70300001 5133410
-0.15288477 0.2129705 0.70100003 3093827
-0.15154953 0.2129705 0.70100003 2375785
-0.15021428 0.2129705 0.70100003 2902129
-0.14866666 0.21266668 0.70000005 3032943
-0.14691238 0.21205905 0.69800001 2967150
-0.14537428 0.21175523 0.69700003 2901373
-0.14404668 0.21175523 0.69700003 3032959
-0.1425143 0.21145144 0.69600004 2704773
-0.14078286 0.2108438 0.69400001 2441601
-0.13946095 0.2108438 0.69400001 2573712
-0.13813905 0.2108438 0.69400001 3429021
-0.13681714 0.2108438 0.69400001 3888011
-0.1353 0.21054 0.69300002 4085390
-0.13398001 0.21054 0.69300002 4610446
-0.13266 0.21054 0.69300002 4873618
-0.13152952 0.2108438 0.69400001 5268367
-0.13020761 0.2108438 0.69400001 5728918
-0.12888572 0.2108438 0.69400001 5728407
-0.1275638 0.2108438 0.69400001 6123165
-0.12660572 0.21145144 0.69600004 5467300
-0.12528001 0.21145144 0.69600004 3493510
-0.12395429 0.21145144 0.69600004 4806801
-0.12262858 0.21145144 0.69600004 6583212
-0.12130286 0.21145144 0.69600004 7630993
-0.11997715 0.21145144 0.69600004 6709891
-0.11865143 0.21145144 0.69600004 6513023
-0.11732572 0.21145144 0.69600004 6513023
-0.11616667 0.21175523 0.69700003 5464178
-0.11483905 0.21175523 0.69700003 4543076
-0.11351143 0.21175523 0.69700003 4150679
-0.11234476 0.21205905 0.69800001 5071781
-0.11101524 0.21205905 0.69800001 5465751
-0.10968572 0.21205905 0.69800001 6321060
-0.10882191 0.2129705 0.70100003 6387086
-0.10779333 0.21357809 0.70300001 5531777
-0.10645428 0.21357809 0.70300001 4677523
-0.10526477 0.21388192 0.70400006 3756421
-0.10421906 0.21448952 0.70600003 3494030
-0.10287429 0.21448952 0.70600003 2441342
-0.10167333 0.21479334 0.70700002 2112906
-0.10075239 0.21570477 0.71000004 2178699
-0.09982001 0.21661621 0.71300006 2309758
-0.098600008 0.21692002 0.71400005 1783414
-0.097240001 0.21692002 0.71400005 2963568
-0.096148573 0.21752763 0.71600002 5397909
-0.094917141 0.21783143 0.71700001 7433578
-0.093551435 0.21783143 0.71700001 7828336
-0.1573381 0.21491715 0.70300001 7564119
-0.15466 0.21491715 0.70300001 5330789
-0.15332095 0.21491715 0.70300001 3028034
-0.15154953 0.21430573 0.70100003 2309990
-0.15021428 0.21430573 0.70100003 2902127
-0.14866666 0.21400002 0.70000005 2573932
-0.14691238 0.21338856 0.69800001 2442346
-0.14537428 0.21308286 0.69700003 2704759
-0.14404668 0.21308286 0.69700003 2967931
-0.1425143 0.21277715 0.69600004 2442623
-0.14118858 0.21277715 0.69600004 1982072
-0.13986287 0.21277715 0.69600004 2180482
-0.13813905 0.21216571 0.69400001 3167377
-0.13681714 0.21216571 0.69400001 3691400
-0.13549525 0.21216571 0.69400001 3822986
-0.13417333 0.21216571 0.69400001 4479374
-0.13285144 0.21216571 0.69400001 4742546
-0.13152952 0.21216571 0.69400001 4874384
-0.13058287 0.21277715 0.69600004 5400728
-0.12925714 0.21277715 0.69600004 5334933
-0.12793143 0.21277715 0.69600004 5598105
-0.12660572 0.21277715 0.69600004 5204898
-0.12546 0.21308286 0.69700003 4086417
-0.12413239 0.21308286 0.69700003 5397905
-0.12262858 0.21277715 0.69600004 6845351
-0.12130286 0.21277715 0.69600004 7630986
-0.12014953 0.21308286 0.69700003 6644091
-0.11882191 0.21308286 0.69700003 6512253
-0.11749429 0.21308286 0.69700003 6643839
-0.11616667 0.21308286 0.69700003 5398649
-0.11483905 0.21308286 0.69700003 4148582
-0.11367428 0.21338856 0.69800001 3625607
-0.11234476 0.21338856 0.69800001 4875674
-0.11101524 0.21338856 0.69800001 5269140
-0.10968572 0.21338856 0.69800001 6058656
-0.10882191 0.21430573 0.70100003 6584225
-0.10779333 0.21491715 0.70300001 5663123
-0.10645428 0.21491715 0.70300001 4611473
-0.10526477 0.21522288 0.70400006 3492992
-0.10421906 0.21583429 0.70600003 3625359
-0.10302 0.21614 0.70700002 2704257
-0.10181714 0.21644571 0.708 2243204
-0.10089429 0.21736285 0.71100003 2243204
-0.09982001 0.21797431 0.71300006 2309758
-0.098600008 0.21828002 0.71400005 1783414
-0.097240001 0.21828002 0.71400005 2963568
-0.096148573 0.21889144 0.71600002 5266323
-0.094784766 0.21889144 0.71600002 6908015
-0.093420953 0.21889144 0.71600002 7763324
-0.15466 0.21625619 0.70300001 5462368
-0.15332095 0.21625619 0.70300001 3093820
-0.15198191 0.21625619 0.70300001 2506086
-0.15064286 0.21625619 0.70300001 3098223
-0.14887907 0.21564095 0.70100003 2573932
-0.14691238 0.2147181 0.69800001 2442346
-0.14537428 0.21441048 0.69700003 2967416
-0.14404668 0.21441048 0.69700003 3296381
-0.14271906 0.21441048 0.69700003 2836609
-0.14118858 0.21410286 0.69600004 2441851
-0.13986287 0.21410286 0.69600004 2443143
-0.13813905 0.21348763 0.69400001 3232659
-0.13681714 0.21348763 0.69400001 3822214
-0.13549525 0.21348763 0.69400001 3888007
-0.13417333 0.21348763 0.69400001 4544392
-0.13285144 0.21348763 0.69400001 4873357
-0.13152952 0.21348763 0.69400001 5201550
-0.13058287 0.21410286 0.69600004 5398929
-0.12925714 0.21410286 0.69600004 5596560
-0.12793143 0.21410286 0.69600004 5728146
-0.12660572 0.21410286 0.69600004 5662612
-0.12546 0.21441048 0.69700003 5399440
-0.12413239 0.21441048 0.69700003 5792658
-0.12280477 0.21441048 0.69700003 6582174
-0.12147714 0.21441048 0.69700003 7105664
-0.12014953 0.21441048 0.69700003 6316148
-0.11882191 0.21441048 0.69700003 6315644
-0.11749429 0.21441048 0.69700003 6447230
-0.11616667 0.21441048 0.69700003 5923455
-0.11500382 0.2147181 0.69800001 5791869
-0.11367428 0.2147181 0.69800001 5531017
-0.11234476 0.2147181 0.69800001 5728396
-0.11133334 0.21533336 0.70000005 5728405
-0.11000001 0.21533336 0.70000005 6320542
-0.10882191 0.21564095 0.70100003 6649759
-0.10779333 0.21625619 0.70300001 5728657
-0.10660572 0.21656382 0.70400006 4611473
-0.10526477 0.21656382 0.70400006 3164027
-0.10436667 0.21748666 0.70700002 3296653
-0.10316571 0.21779428 0.708 3165067
-0.10210477 0.21840954 0.71000004 2836609
-0.10089429 0.21871716 0.71100003 1981300
-0.099960007 0.21964 0.71400005 1785213
-0.098600008 0.21964 0.71400005 1456248
-0.097240001 0.21964 0.71400005 2504044
-0.095880002 0.21964 0.71400005 4609420
-0.094784766 0.22025524 0.71600002 6907502
-0.093420953 0.22025524 0.71600002 7894397
-0.15488 0.21790478 0.70400006 5528159
-0.15353906 0.21790478 0.70400006 3159611
-0.15198191 0.21759523 0.70300001 2571879
-0.15064286 0.21759523 0.70300001 2835051
-0.14887907 0.2169762 0.70100003 2507371
-0.14691238 0.21604763 0.69800001 3033715
-0.14558285 0.21604763 0.69800001 3099754
-0.14425333 0.21604763 0.69800001 3297133
-0.14271906 0.2157381 0.69700003 3362419
-0.14118858 0.21542858 0.69600004 3099247
-0.13986287 0.21542858 0.69600004 2968186
-0.13813905 0.21480952 0.69400001 3362944
-0.13681714 0.21480952 0.69400001 3428732
-0.13549525 0.21480952 0.69400001 3691904
-0.13417333 0.21480952 0.69400001 4544129
-0.13285144 0.21480952 0.69400001 4938887
-0.13190858 0.21542858 0.69600004 5398150
-0.13058287 0.21542858 0.69600004 5529736
-0.12925714 0.21542858 0.69600004 5727362
-0.12811525 0.2157381 0.69700003 5858948
-0.12678762 0.2157381 0.69700003 6120846
-0.12546 0.2157381 0.69700003 6449811
-0.12413239 0.2157381 0.69700003 6712973
-0.12280477 0.2157381 0.69700003 6712973
-0.12147714 0.2157381 0.69700003 6777726
-0.12014953 0.2157381 0.69700003 6185589
-0.11882191 0.2157381 0.69700003 6447228
-0.11749429 0.2157381 0.69700003 6447228
-0.11616667 0.2157381 0.69700003 6251130
-0.11500382 0.21604763 0.69800001 6448509
-0.11367428 0.21604763 0.69800001 6121604
-0.11234476 0.21604763 0.69800001 6121604
-0.11133334 0.21666668 0.70000005 6122633
-0.11000001 0.21666668 0.70000005 6385805
-0.10882191 0.2169762 0.70100003 6583192
-0.10779333 0.21759523 0.70300001 5793676
-0.10660572 0.21790478 0.70400006 5004171
-0.10556381 0.21852382 0.70600003 3490932
-0.10451429 0.21914285 0.708 2377870
-0.10345715 0.21976192 0.71000004 2575249
-0.10210477 0.21976192 0.71000004 2837379
-0.10089429 0.22007143 0.71100003 1784691
-0.09982001 0.22069049 0.71300006 1588345
-0.098600008 0.22100002 0.71400005 1193587
-0.097240001 0.22100002 0.71400005 2438255
-0.095880002 0.22100002 0.71400005 4543631
-0.09452001 0.22100002 0.71400005 6578537
-0.093160003 0.22100002 0.71400005 7828604
-0.15532002 0.21986859 0.70600003 5528159
-0.15353906 0.21924573 0.70400006 3028025
-0.15219811 0.21924573 0.70400006 2637674
-0.15064286 0.21893428 0.70300001 2703467
-0.14887907 0.21831143 0.70100003 3228012
-0.14733334 0.21800001 0.70000005 4412286
-0.14558285 0.21737714 0.69800001 5594717
-0.14425333 0.21737714 0.69800001 5792096
-0.14271906 0.21706572 0.69700003 5331820
-0.14139143 0.21706572 0.69700003 5200234
-0.13986287 0.21675429 0.69600004 5331570
-0.13853714 0.21675429 0.69600004 5397363
-0.13721143 0.21675429 0.69600004 5528949
-0.13588572 0.21675429 0.69600004 5726328
-0.13417333 0.21613143 0.69400001 5792123
-0.13285144 0.21613143 0.69400001 5792123
-0.13190858 0.21675429 0.69600004 5857664
-0.13077047 0.21706572 0.69700003 5791871
-0.12944287 0.21706572 0.69700003 5857916
-0.12811525 0.21706572 0.69700003 6186881
-0.12678762 0.21706572 0.69700003 6317962
-0.12546 0.21706572 0.69700003 6581134
-0.12413239 0.21706572 0.69700003 6647428
-0.12280477 0.21706572 0.69700003 6647428
-0.12147714 0.21706572 0.69700003 6711931
-0.12014953 0.21706572 0.69700003 6251380
-0.11882191 0.21706572 0.69700003 6447228
-0.11766286 0.21737714 0.69800001 6710400
-0.11633334 0.21737714 0.69800001 7105660
-0.11500382 0.21737714 0.69800001 7368832
-0.11367428 0.21737714 0.69800001 6909569
-0.11266667 0.21800001 0.70000005 6777983
-0.11149239 0.21831143 0.70100003 6450819
-0.11015715 0.21831143 0.70100003 6187647
-0.10913239 0.21893428 0.70300001 6122372
-0.10794667 0.21924573 0.70400006 5924993
-0.10660572 0.21924573 0.70400006 5005193
-0.10556381 0.21986859 0.70600003 2768231
-0.10451429 0.22049144 0.708 1722255
-0.10345715 0.22111429 0.71000004 2182806
-0.10224857 0.22142573 0.71100003 3033979
-0.10089429 0.22142573 0.71100003 2112877
-0.09982001 0.22204858 0.71300006 1915259
-0.098600008 0.22236001 0.71400005 1454708
-0.097240001 0.22236001 0.71400005 2176119
-0.095880002 0.22236001 0.71400005 4149909
-0.09452001 0.22236001 0.71400005 6513509
-0.093160003 0.22236001 0.71400005 7829369
-0.15576001 0.22184001 0.708 5790556
-0.15397525 0.22121334 0.70600003 3356215
-0.15263048 0.22121334 0.70600003 3030379
-0.15085715 0.22058667 0.70400006 3030379
-0.14887907 0.21964668 0.70100003 3685733
-0.14733334 0.21933335 0.70000005 5462144
-0.14558285 0.21870667 0.69800001 6249831
-0.14425333 0.21870667 0.69800001 6249831
-0.14271906 0.21839334 0.69700003 6117995
-0.14139143 0.21839334 0.69700003 6183788
-0.13986287 0.21808 0.69600004 6183788
-0.13853714 0.21808 0.69600004 6249581
-0.13721143 0.21808 0.69600004 6315122
-0.13588572 0.21808 0.69600004 6578294
-0.13456 0.21808 0.69600004 6513527
-0.13323429 0.21808 0.69600004 6447734
-0.13209809 0.21839334 0.69700003 6250878
-0.13077047 0.21839334 0.69700003 6316671
-0.12944287 0.21839334 0.69700003 6711933
-0.12811525 0.21839334 0.69700003 6711933
-0.12678762 0.21839334 0.69700003 6647178
-0.12546 0.21839334 0.69700003 6712971
-0.12413239 0.21839334 0.69700003 7041159
-0.12280477 0.21839334 0.69700003 6646401
-0.12147714 0.21839334 0.69700003 6710652
-0.12014953 0.21839334 0.69700003 6250101
-0.11899238 0.21870667 0.69800001 6314872
-0.11766286 0.21870667 0.69800001 6841216
-0.11633334 0.21870667 0.69800001 7237248
-0.11500382 0.21870667 0.69800001 7237248
-0.114 0.21933335 0.70000005 6974851
-0.11266667 0.21933335 0.70000005 6843265
-0.11149239 0.21964668 0.70100003 6450053
-0.11015715 0.21964668 0.70100003 6384260
-0.10913239 0.22027333 0.70300001 6318465
-0.10794667 0.22058667 0.70400006 6318465
-0.10660572 0.22058667 0.70400006 5334660
-0.10556381 0.22121334 0.70600003 3624042
-0.10451429 0.22184001 0.708 2051215
-0.10345715 0.22246668 0.71000004 1985422
-0.10224857 0.22278 0.71100003 2704507
-0.1011781 0.22340669 0.71300006 2112370
-0.09982001 0.22340669 0.71300006 1915257
-0.098600008 0.22372001 0.71400005 1388913
-0.097240001 0.22372001 0.71400005 1716336
-0.095880002 0.22372001 0.71400005 4019091
-0.09452001 0.22372001 0.71400005 6448236
-0.093160003 0.22372001 0.71400005 7698303
-0.15688667 0.22287333 0.70700002 7301978
-0.15554 0.22287333 0.70700002 5856349
-0.15419333 0.22287333 0.70700002 3290422
-0.15263048 0.2225581 0.70600003 3227240
-0.15085715 0.22192763 0.70400006 3621998
-0.14930381 0.22161239 0.70300001 4409187
-0.14733334 0.22066668 0.70000005 5593461
-0.146 0.22066668 0.70000005 5987165
-0.14425333 0.22003619 0.69800001 5987165
-0.14271906 0.21972096 0.69700003 6381671
-0.14139143 0.21972096 0.69700003 6710636
-0.13986287 0.21940573 0.69600004 6974060
