# .PCD v0.7 - Point Cloud Data file format
VERSION 0.7
FIELDS x y z rgba
SIZE 4 4 4 4
TYPE F F F U
COUNT 1 1 1 1
WIDTH 1097
HEIGHT 1
VIEWPOINT 0 0 0 1 0 0 0
POINTS 1097
DATA ascii
-0.071286663 0.058107618 0.62900001 16645627
-0.069977149 0.058015238 0.62800002 16645627
-0.068780951 0.058015238 0.62800002 16711420
-0.067584768 0.058015238 0.62800002 16711420
-0.066282853 0.057922859 0.62700003 16711420
-0.06508857 0.057922859 0.62700003 16711420
-0.063894287 0.057922859 0.62700003 16711422
-0.062700003 0.057922859 0.62700003 16711422
-0.061603814 0.058015238 0.62800002 16711422
-0.060311433 0.057922859 0.62700003 16711422
-0.059117146 0.057922859 0.62700003 16711422
-0.058015238 0.058015238 0.62800002 16711422
-0.057000004 0.058200005 0.63000005 16711422
-0.055800002 0.058200005 0.63000005 16711422
-0.054600004 0.058200005 0.63000005 16711422
-0.053400002 0.058200005 0.63000005 16711422
-0.052200004 0.058200005 0.63000005 16711422
-0.050919048 0.058107618 0.62900001 16711422
-0.049720954 0.058107618 0.62900001 16711422
-0.048522856 0.058107618 0.62900001 16711422
-0.047249526 0.058015238 0.62800002 16711422
-0.046053335 0.058015238 0.62800002 16711422
-0.044857144 0.058015238 0.62800002 16711422
-0.043730475 0.058107618 0.62900001 16711422
-0.042464763 0.058015238 0.62800002 16711422
-0.041268572 0.058015238 0.62800002 16711422
-0.040008575 0.057922859 0.62700003 16711422
-0.038814288 0.057922859 0.62700003 16579836
-0.037680004 0.058015238 0.62800002 16446967
-0.036483813 0.058015238 0.62800002 16249588
-0.03523143 0.057922859 0.62700003 16248561
-0.034037143 0.057922859 0.62700003 16577526
-0.032842856 0.057922859 0.62700003 16644859
-0.031648573 0.057922859 0.62700003 16447480
-0.030454287 0.057922859 0.62700003 16381174
-0.02926 0.057922859 0.62700003 16644346
-0.028065715 0.057922859 0.62700003 16710909
-0.026914285 0.058015238 0.62800002 16710909
-0.025677145 0.057922859 0.62700003 16711422
-0.024482857 0.057922859 0.62700003 13027014
-0.023288572 0.057922859 0.62700003 11575466
-0.12400286 0.059305713 0.62900001 9861724
-0.12280477 0.059305713 0.62900001 11440756
-0.12160667 0.059305713 0.62900001 16176968
-0.12040857 0.059305713 0.62900001 16769876
-0.11921048 0.059305713 0.62900001 16440030
-0.11801238 0.059305713 0.62900001 16242651
-0.11700001 0.059400007 0.63000005 16111324
-0.11598381 0.059494291 0.63100004 15848152
-0.11478192 0.059494291 0.63100004 16046301
-0.11358001 0.059494291 0.63100004 16243680
-0.11237811 0.059494291 0.63100004 16176097
-0.1111762 0.059494291 0.63100004 15386581
-0.10997429 0.059494291 0.63100004 15839959
-0.10860001 0.059400007 0.63000005 14918857
-0.10740001 0.059400007 0.63000005 15309511
-0.10620001 0.059400007 0.63000005 15177925
-0.105 0.059400007 0.63000005 15111364
-0.10380001 0.059400007 0.63000005 14979778
-0.10260001 0.059400007 0.63000005 14846402
-0.10123905 0.059305713 0.62900001 14385851
-0.10004095 0.059305713 0.62900001 14582460
-0.099000007 0.059400007 0.63000005 14648253
-0.097800009 0.059400007 0.63000005 14516156
-0.096600004 0.059400007 0.63000005 14318777
-0.095400006 0.059400007 0.63000005 14252479
-0.094200008 0.059400007 0.63000005 14055100
-0.09300001 0.059400007 0.63000005 14252219
-0.091654286 0.059305713 0.62900001 14318012
-0.090312384 0.059211429 0.62800002 13529017
-0.08897429 0.059117146 0.62700003 12015778
-0.087780006 0.059117146 0.62700003 11297708
-0.086585723 0.059117146 0.62700003 16626941
-0.085527621 0.059211429 0.62800002 16711420
-0.08433143 0.059211429 0.62800002 16711420
-0.08313524 0.059211429 0.62800002 16645627
-0.082069524 0.059305713 0.62900001 16645627
-0.080871426 0.059305713 0.62900001 16645627
-0.079673328 0.059305713 0.62900001 16645627
-0.078600004 0.059400007 0.63000005 16645627
-0.077400006 0.059400007 0.63000005 16645627
-0.076079048 0.059305713 0.62900001 16645627
-0.07488095 0.059305713 0.62900001 16645627
-0.07368286 0.059305713 0.62900001 16645627
-0.072484761 0.059305713 0.62900001 16645627
-0.071286663 0.059305713 0.62900001 16645627
-0.069977149 0.059211429 0.62800002 16645627
-0.068780951 0.059211429 0.62800002 16711420
-0.067584768 0.059211429 0.62800002 16711420
-0.066282853 0.059117146 0.62700003 16711420
-0.06508857 0.059117146 0.62700003 9934741
-0.063894287 0.059117146 0.62700003 12085647
-0.062700003 0.059117146 0.62700003 11756682
-0.061701905 0.059305713 0.62900001 13394099
-0.06040762 0.059211429 0.62800002 13788857
-0.059211429 0.059211429 0.62800002 13657005
-0.058107618 0.059305713 0.62900001 13459626
-0.057000004 0.059400007 0.63000005 13655978
-0.055800002 0.059400007 0.63000005 13655978
-0.054600004 0.059400007 0.63000005 13721258
-0.053400002 0.059400007 0.63000005 13721258
-0.052200004 0.059400007 0.63000005 13589163
-0.050919048 0.059305713 0.62900001 13325991
-0.049720954 0.059305713 0.62900001 13589672
-0.048522856 0.059305713 0.62900001 14050223
-0.047249526 0.059211429 0.62800002 13721509
-0.046053335 0.059211429 0.62800002 13392544
-0.044928569 0.059305713 0.62900001 13654435
-0.043730475 0.059305713 0.62900001 13654435
-0.042464763 0.059211429 0.62800002 13455003
-0.041268572 0.059211429 0.62800002 12928659
-0.040072381 0.059211429 0.62800002 13385883
-0.038876191 0.059211429 0.62800002 13385883
-0.037680004 0.059211429 0.62800002 13578910
-0.036483813 0.059211429 0.62800002 13052566
-0.03523143 0.059117146 0.62700003 13975197
-0.034037143 0.059117146 0.62700003 15356850
-0.032842856 0.059117146 0.62700003 14374565
-0.031648573 0.059117146 0.62700003 13519256
-0.030454287 0.059117146 0.62700003 13714078
-0.02926 0.059117146 0.62700003 13911457
-0.028110476 0.059211429 0.62800002 13255592
-0.026914285 0.059211429 0.62800002 13781936
-0.025718097 0.059211429 0.62800002 13142689
-0.024482857 0.059117146 0.62700003 14655928
-0.023288572 0.059117146 0.62700003 12102319
-0.022094287 0.059117146 0.62700003 11115424
-0.12400286 0.060503807 0.62900001 10322024
-0.12280477 0.060503807 0.62900001 10124645
-0.12160667 0.060503807 0.62900001 13265482
-0.12040857 0.060503807 0.62900001 14120791
-0.11921048 0.060503807 0.62900001 15360665
-0.11801238 0.060503807 0.62900001 15426458
-0.11700001 0.060600005 0.63000005 15427993
-0.11580001 0.060600005 0.63000005 14967442
-0.11478192 0.060696192 0.63100004 15226512
-0.1134 0.060600005 0.63000005 15358098
-0.11220001 0.060600005 0.63000005 15292312
-0.11100001 0.060600005 0.63000005 15226519
-0.1098 0.060600005 0.63000005 15291808
-0.10860001 0.060600005 0.63000005 14041741
-0.10740001 0.060600005 0.63000005 14751882
-0.10620001 0.060600005 0.63000005 14949261
-0.105 0.060600005 0.63000005 14883729
-0.10380001 0.060600005 0.63000005 14620557
-0.10260001 0.060600005 0.63000005 14750099
-0.10140001 0.060600005 0.63000005 14552720
-0.1002 0.060600005 0.63000005 14683788
-0.098842859 0.060503807 0.62900001 14881167
-0.097644761 0.060503807 0.62900001 14750867
-0.096600004 0.060600005 0.63000005 14685074
-0.095400006 0.060600005 0.63000005 14749590
-0.094200008 0.060600005 0.63000005 14749590
-0.09300001 0.060600005 0.63000005 14684308
-0.091654286 0.060503807 0.62900001 14486929
-0.090312384 0.06040762 0.62800002 14290316
-0.08897429 0.060311433 0.62700003 16728512
-0.087780006 0.060311433 0.62700003 13923183
-0.086585723 0.060311433 0.62700003 16759478
-0.08566381 0.060503807 0.62900001 16711420
-0.08433143 0.06040762 0.62800002 16711420
-0.08313524 0.06040762 0.62800002 16645627
-0.081939049 0.06040762 0.62800002 16645627
-0.081128575 0.060696192 0.63100004 16645627
-0.07992667 0.060696192 0.63100004 16645627
-0.078724764 0.060696192 0.63100004 16645627
-0.077522859 0.060696192 0.63100004 16645627
-0.073901907 0.058772378 0.611 16645627
-0.072738096 0.058772378 0.611 16645627
-0.071574286 0.058772378 0.611 16645627
-0.070064768 0.058483813 0.60800004 16645627
-0.068906672 0.058483813 0.60800004 16645627
-0.070088573 0.060503807 0.62900001 16645627
-0.068780951 0.06040762 0.62800002 16711420
-0.067584768 0.06040762 0.62800002 16711420
-0.066282853 0.060311433 0.62700003 16711420
-0.06508857 0.060311433 0.62700003 12961219
-0.063690476 0.060119048 0.625 14702275
-0.0625 0.060119048 0.625 11610004
-0.061505716 0.060311433 0.62700003 14356111
-0.06040762 0.06040762 0.62800002 14685076
-0.059211429 0.06040762 0.62800002 14816162
-0.058107618 0.060503807 0.62900001 14684576
-0.057000004 0.060600005 0.63000005 14683795
-0.055800002 0.060600005 0.63000005 14749588
-0.054600004 0.060600005 0.63000005 14749338
-0.053400002 0.060600005 0.63000005 14749338
-0.052200004 0.060600005 0.63000005 14683806
-0.050919048 0.060503807 0.62900001 14683806
-0.049720954 0.060503807 0.62900001 14683806
-0.048522856 0.060503807 0.62900001 14683806
-0.047249526 0.06040762 0.62800002 14749338
-0.046053335 0.06040762 0.62800002 14749338
-0.044928569 0.060503807 0.62900001 14683795
-0.043660954 0.06040762 0.62800002 14683795
-0.042464763 0.06040762 0.62800002 14684045
-0.041268572 0.06040762 0.62800002 14684045
-0.040072381 0.06040762 0.62800002 14683784
-0.038876191 0.06040762 0.62800002 14749577
-0.037680004 0.06040762 0.62800002 14749336
-0.036483813 0.06040762 0.62800002 14683543
-0.03523143 0.060311433 0.62700003 14683797
-0.034037143 0.060311433 0.62700003 15341727
-0.032842856 0.060311433 0.62700003 14951841
-0.031648573 0.060311433 0.62700003 14557083
-0.030454287 0.060311433 0.62700003 14749336
-0.02926 0.060311433 0.62700003 14815129
-0.028110476 0.06040762 0.62800002 14683552
-0.026914285 0.06040762 0.62800002 14749345
-0.025718097 0.06040762 0.62800002 12798340
-0.024482857 0.060311433 0.62700003 13587856
-0.023288572 0.060311433 0.62700003 11836339
-0.022094287 0.060311433 0.62700003 11573167
-0.12400286 0.061701905 0.62900001 10518882
-0.12280477 0.061701905 0.62900001 8479299
-0.12160667 0.061701905 0.62900001 11538993
-0.12040857 0.061701905 0.62900001 12262716
-0.11921048 0.061701905 0.62900001 13766249
-0.11801238 0.061701905 0.62900001 13766249
-0.11681429 0.061701905 0.62900001 13766242
-0.11580001 0.061800007 0.63000005 13766242
-0.11460001 0.061800007 0.63000005 13700708
-0.1134 0.061800007 0.63000005 13634915
-0.11220001 0.061800007 0.63000005 13831785
-0.11100001 0.061800007 0.63000005 13963371
-0.1098 0.061800007 0.63000005 14290549
-0.10842761 0.061701905 0.62900001 14290549
-0.10722952 0.061701905 0.62900001 14290549
-0.10620001 0.061800007 0.63000005 14356342
-0.105 0.061800007 0.63000005 14421627
-0.10363524 0.061701905 0.62900001 14487420
-0.10243714 0.061701905 0.62900001 14487166
-0.10123905 0.061701905 0.62900001 14487166
-0.10004095 0.061701905 0.62900001 14487166
-0.098842859 0.061701905 0.62900001 14487166
-0.097644761 0.061701905 0.62900001 14487166
-0.096600004 0.061800007 0.63000005 14552959
-0.095400006 0.061800007 0.63000005 14552709
-0.094200008 0.061800007 0.63000005 14486916
-0.09300001 0.061800007 0.63000005 14290813
-0.091654286 0.061701905 0.62900001 13896055
-0.090456195 0.061701905 0.62900001 14572430
-0.089116193 0.061603814 0.62800002 16765439
-0.087780006 0.061505716 0.62700003 16711422
-0.086585723 0.061505716 0.62700003 16711422
-0.085391432 0.061505716 0.62700003 16711420
-0.08110857 0.059249524 0.60400003 16645627
-0.080487624 0.059641909 0.60800004 16645627
-0.079329528 0.059641909 0.60800004 16645627
-0.078171432 0.059641909 0.60800004 16645627
-0.077013336 0.059641909 0.60800004 16645627
-0.07585524 0.059641909 0.60800004 16645627
-0.074697152 0.059641909 0.60800004 16645627
-0.073539048 0.059641909 0.60800004 16645627
-0.072499998 0.059739999 0.60900003 16645627
-0.071340002 0.059739999 0.60900003 16645627
-0.070064768 0.059641909 0.60800004 16645627
-0.068906672 0.059641909 0.60800004 16645627
-0.067748569 0.059641909 0.60800004 16645627
-0.068780951 0.061603814 0.62800002 16711420
-0.067477144 0.061505716 0.62700003 16645627
-0.066282853 0.061505716 0.62700003 16711420
-0.064880952 0.061309524 0.625 16711420
-0.063690476 0.061309524 0.625 16374271
-0.0625 0.061309524 0.625 11176626
-0.061505716 0.061505716 0.62700003 13897116
-0.06040762 0.061603814 0.62800002 14094495
-0.059211429 0.061603814 0.62800002 14552995
-0.058107618 0.061701905 0.62900001 14487202
-0.057000004 0.061800007 0.63000005 14487699
-0.055800002 0.061800007 0.63000005 14750871
-0.054600004 0.061800007 0.63000005 14486945
-0.053400002 0.061800007 0.63000005 14486945
-0.052200004 0.061800007 0.63000005 14552738
-0.050919048 0.061701905 0.62900001 14618531
-0.049720954 0.061701905 0.62900001 14552995
-0.048522856 0.061701905 0.62900001 14618788
-0.047324762 0.061701905 0.62900001 14553249
-0.046053335 0.061603814 0.62800002 14487456
-0.044857144 0.061603814 0.62800002 14553497
-0.043660954 0.061603814 0.62800002 14619290
-0.042464763 0.061603814 0.62800002 14553488
-0.041202858 0.061505716 0.62700003 14421902
-0.040008575 0.061505716 0.62700003 14487177
-0.038814288 0.061505716 0.62700003 14552970
-0.037620004 0.061505716 0.62700003 14552729
-0.036425717 0.061505716 0.62700003 14552729
-0.03523143 0.061505716 0.62700003 14552479
-0.034037143 0.061505716 0.62700003 14947237
-0.032842856 0.061505716 0.62700003 14818979
-0.031648573 0.061505716 0.62700003 14950565
-0.030454287 0.061505716 0.62700003 14954662
-0.02926 0.061505716 0.62700003 15678385
-0.028065715 0.061505716 0.62700003 15088047
-0.026914285 0.061603814 0.62800002 14890668
-0.025718097 0.061603814 0.62800002 11556759
-0.024521906 0.061603814 0.62800002 8727660
-0.023325715 0.061603814 0.62800002 6644928
-0.022129524 0.061603814 0.62800002 8552925
-0.12380572 0.062800005 0.62800002 11042926
-0.12260953 0.062800005 0.62800002 9792859
-0.12141334 0.062800005 0.62800002 13056908
-0.12021714 0.062800005 0.62800002 13846424
-0.11921048 0.062899999 0.62900001 15019960
-0.11801238 0.062899999 0.62900001 15283132
-0.11681429 0.062899999 0.62900001 15088047
-0.11561619 0.062899999 0.62900001 15351219
-0.1144181 0.062899999 0.62900001 15155126
-0.11322001 0.062899999 0.62900001 14891954
-0.11220001 0.063000008 0.63000005 15021489
-0.1108238 0.062899999 0.62900001 15153075
-0.10962571 0.062899999 0.62900001 15088567
-0.10842761 0.062899999 0.62900001 15220153
-0.10722952 0.062899999 0.62900001 15090362
-0.10603143 0.062899999 0.62900001 14827190
-0.10483333 0.062899999 0.62900001 15020989
-0.10363524 0.062899999 0.62900001 15152575
-0.10243714 0.062899999 0.62900001 15087552
-0.10123905 0.062899999 0.62900001 14890173
-0.10004095 0.062899999 0.62900001 15018945
-0.098842859 0.062899999 0.62900001 15150531
-0.097644761 0.062899999 0.62900001 15086530
-0.096600004 0.063000008 0.63000005 15152323
-0.095400006 0.063000008 0.63000005 15154628
-0.094200008 0.063000008 0.63000005 14694077
-0.09300001 0.063000008 0.63000005 14952623
-0.091654286 0.062899999 0.62900001 16730576
-0.090312384 0.062800005 0.62800002 14587555
-0.08897429 0.062700003 0.62700003 16771060
-0.087780006 0.062700003 0.62700003 16711422
-0.086723812 0.062800005 0.62800002 16711422
-0.085527621 0.062800005 0.62800002 16645627
-0.08110857 0.060400002 0.60400003 16645627
-0.079958096 0.060400002 0.60400003 16645627
-0.079199053 0.060700003 0.60700005 16645627
-0.078042865 0.060700003 0.60700005 16645627
-0.076886676 0.060700003 0.60700005 16645627
-0.07573048 0.060700003 0.60700005 16645627
-0.074574292 0.060700003 0.60700005 16645627
-0.073539048 0.060800005 0.60800004 16645627
-0.07238096 0.060800005 0.60800004 16645627
-0.071222864 0.060800005 0.60800004 16645627
-0.070064768 0.060800005 0.60800004 16645627
-0.068793342 0.060700003 0.60700005 16645627
-0.067637146 0.060700003 0.60700005 16645627
-0.066480957 0.060700003 0.60700005 16711420
-0.065324761 0.060700003 0.60700005 16645627
-0.06416858 0.060700003 0.60700005 16645627
-0.064880952 0.0625 0.625 16711420
-0.063690476 0.0625 0.625 16711422
-0.0625 0.0625 0.625 13487565
-0.061309524 0.0625 0.625 15231148
-0.060311433 0.062700003 0.62700003 15691699
-0.059117146 0.062700003 0.62700003 15558876
-0.057922859 0.062700003 0.62700003 15558876
-0.056819052 0.062800005 0.62800002 15559639
-0.055622861 0.062800005 0.62800002 15493846
-0.054513335 0.062899999 0.62900001 15492826
-0.053315237 0.062899999 0.62900001 15755998
-0.052117143 0.062899999 0.62900001 15561186
-0.050919048 0.062899999 0.62900001 15561186
-0.049720954 0.062899999 0.62900001 15560673
-0.048445713 0.062800005 0.62800002 15626466
-0.047249526 0.062800005 0.62800002 15626466
-0.046053335 0.062800005 0.62800002 15494880
-0.044857144 0.062800005 0.62800002 15560927
-0.043660954 0.062800005 0.62800002 15560927
-0.042397145 0.062700003 0.62700003 15560666
-0.041202858 0.062700003 0.62700003 15560666
-0.040008575 0.062700003 0.62700003 15560925
-0.038814288 0.062700003 0.62700003 15429339
-0.037620004 0.062700003 0.62700003 15559396
-0.036309522 0.0625 0.625 15888361
-0.035119046 0.0625 0.625 15694316
-0.033928569 0.0625 0.625 16089074
-0.032738093 0.0625 0.625 15829750
-0.031547617 0.0625 0.625 16158715
-0.030357143 0.0625 0.625 15965439
-0.029166667 0.0625 0.625 16294399
-0.028065715 0.062700003 0.62700003 16099583
-0.026914285 0.062800005 0.62800002 16691711
-0.025718097 0.062800005 0.62800002 11766504
-0.12380572 0.063996188 0.62800002 9797227
-0.12241429 0.063894287 0.62700003 11573638
-0.12122001 0.063894287 0.62700003 13805274
-0.12021714 0.063996188 0.62800002 15384306
-0.11902096 0.063996188 0.62800002 15578879
-0.11782476 0.063996188 0.62800002 16236799
-0.11662858 0.063996188 0.62800002 15713023
-0.11543238 0.063996188 0.62800002 15844607
-0.1144181 0.064098097 0.62900001 15779071
-0.11322001 0.064098097 0.62900001 15647487
-0.11202191 0.064098097 0.62900001 15844351
-0.1108238 0.064098097 0.62900001 15975935
-0.10962571 0.064098097 0.62900001 15909631
-0.10842761 0.064098097 0.62900001 15843839
-0.10705905 0.063996188 0.62800002 15975167
-0.10586286 0.063996188 0.62800002 16106751
-0.10483333 0.064098097 0.62900001 16106751
-0.10363524 0.064098097 0.62900001 16040959
-0.10227428 0.063996188 0.62800002 16236799
-0.1010781 0.063996188 0.62800002 16171007
-0.09988191 0.063996188 0.62800002 16170495
-0.098842859 0.064098097 0.62900001 16104703
-0.097644761 0.064098097 0.62900001 16236287
-0.096446671 0.064098097 0.62900001 16367871
-0.095248573 0.064098097 0.62900001 16303103
-0.094200008 0.064200006 0.63000005 15710970
-0.09300001 0.064200006 0.63000005 16307188
-0.091654286 0.064098097 0.62900001 16773119
-0.090312384 0.063996188 0.62800002 16711420
-0.08897429 0.063894287 0.62700003 16711420
-0.087780006 0.063894287 0.62700003 16711420
-0.083823815 0.061856195 0.60700005 16645627
-0.082667626 0.061856195 0.60700005 16645627
-0.08110857 0.061550479 0.60400003 16645627
-0.079958096 0.061550479 0.60400003 16645627
-0.079199053 0.061856195 0.60700005 16645627
-0.078042865 0.061856195 0.60700005 16645627
-0.076886676 0.061856195 0.60700005 16645627
-0.07573048 0.061856195 0.60700005 16645627
-0.074574292 0.061856195 0.60700005 16645627
-0.073418096 0.061856195 0.60700005 16645627
-0.07238096 0.061958101 0.60800004 16645627
-0.071222864 0.061958101 0.60800004 16645627
-0.06994953 0.061856195 0.60700005 16645627
-0.068793342 0.061856195 0.60700005 16645627
-0.067525715 0.061754286 0.60600001 16645627
-0.066371433 0.061754286 0.60600001 16711420
-0.065217145 0.061754286 0.60600001 16645627
-0.064062856 0.061754286 0.60600001 16645627
-0.062908575 0.061754286 0.60600001 16645627
-0.063690476 0.063690476 0.625 16711420
-0.0625 0.063690476 0.625 16711420
-0.061309524 0.063690476 0.625 16711422
-0.060311433 0.063894287 0.62700003 15921906
-0.059117146 0.063894287 0.62700003 16575743
-0.057922859 0.063894287 0.62700003 16773631
-0.056819052 0.063996188 0.62800002 16643326
-0.055622861 0.063996188 0.62800002 16577533
-0.054513335 0.064098097 0.62900001 16643326
-0.053315237 0.064098097 0.62900001 16577533
-0.052117143 0.064098097 0.62900001 16643071
-0.050838094 0.063996188 0.62800002 16577278
-0.049641903 0.063996188 0.62800002 16643071
-0.048445713 0.063996188 0.62800002 16577278
-0.047249526 0.063996188 0.62800002 16577278
-0.046053335 0.063996188 0.62800002 16511485
-0.044857144 0.063996188 0.62800002 16643071
-0.043591432 0.063894287 0.62700003 16708863
-0.042397145 0.063894287 0.62700003 16643071
-0.041202858 0.063894287 0.62700003 16511485
-0.039880954 0.063690476 0.625 16576767
-0.038690478 0.063690476 0.625 16510974
-0.037499998 0.063690476 0.625 16509439
-0.036309522 0.063690476 0.625 16443646
-0.035119046 0.063690476 0.625 16508927
-0.033928569 0.063690476 0.625 16443135
-0.032685712 0.063588567 0.62400001 16508159
-0.031497143 0.063588567 0.62400001 16442367
-0.030357143 0.063690476 0.625 15784703
-0.02912 0.063588567 0.62400001 15718911
-0.027931429 0.063588567 0.62400001 15124479
-0.02687143 0.063894287 0.62700003 15256063
-0.025718097 0.063996188 0.62800002 10657279
-0.12400286 0.065296195 0.62900001 8289898
-0.12241429 0.06508857 0.62700003 10329481
-0.12122001 0.06508857 0.62700003 10726655
-0.12002572 0.06508857 0.62700003 10924031
-0.11883143 0.06508857 0.62700003 10073855
-0.11763714 0.06508857 0.62700003 10600191
-0.11644286 0.06508857 0.62700003 10601215
-0.11488095 0.064880952 0.625 10798591
-0.11369047 0.064880952 0.625 11257599
-0.1125 0.064880952 0.625 11257599
-0.11130952 0.064880952 0.625 11585791
-0.11047143 0.06508857 0.62700003 11585791
-0.10945143 0.065192387 0.62800002 11716607
-0.10825524 0.065192387 0.62800002 11716607
-0.10705905 0.065192387 0.62800002 12570367
-0.10586286 0.065192387 0.62800002 12570367
-0.10466667 0.065192387 0.62800002 13293567
-0.10347048 0.065192387 0.62800002 13030399
-0.10227428 0.065192387 0.62800002 12833535
-0.1010781 0.065192387 0.62800002 12767743
-0.09988191 0.065192387 0.62800002 12899327
-0.098685719 0.065192387 0.62800002 12833535
-0.097489528 0.065192387 0.62800002 13030399
-0.096293338 0.065192387 0.62800002 13030399
-0.095248573 0.065296195 0.62900001 13095935
-0.094200008 0.065400004 0.63000005 11911664
-0.09300001 0.065400004 0.63000005 13817073
-0.088302858 0.062908575 0.60600001 16382975
-0.086860955 0.062700957 0.60400003 16711420
-0.085710481 0.062700957 0.60400003 16711420
-0.08484 0.062908575 0.60600001 16645627
-0.083685718 0.062908575 0.60600001 16645627
-0.082531422 0.062908575 0.60600001 16645627
-0.081377141 0.062908575 0.60600001 16645627
-0.08022286 0.062908575 0.60600001 16645627
-0.079199053 0.063012384 0.60700005 16645627
-0.078042865 0.063012384 0.60700005 16645627
-0.076760001 0.062908575 0.60600001 16645627
-0.075605713 0.062908575 0.60600001 16645627
-0.074082859 0.062597148 0.60300004 16645627
-0.072934292 0.062597148 0.60300004 16645627
-0.072261915 0.063012384 0.60700005 16645627
-0.071105719 0.063012384 0.60700005 16645627
-0.069603816 0.062700957 0.60400003 16645627
-0.068453342 0.062700957 0.60400003 16645627
-0.06730286 0.062700957 0.60400003 16645627
-0.066152386 0.062700957 0.60400003 16711420
-0.065001912 0.062700957 0.60400003 16645627
-0.063851431 0.062700957 0.60400003 16645627
-0.062597148 0.062597148 0.60300004 16645627
-0.061448574 0.062597148 0.60300004 16711420
-0.0625 0.064880952 0.625 16711420
-0.06121143 0.064777143 0.62400001 16252670
-0.060022857 0.064777143 0.62400001 11515574
-0.058834285 0.064777143 0.62400001 9094655
-0.058015238 0.065192387 0.62800002 9752575
-0.056819052 0.065192387 0.62800002 9950207
-0.055622861 0.065192387 0.62800002 9687039
-0.05442667 0.065192387 0.62800002 9293567
-0.053230479 0.065192387 0.62800002 9227775
-0.052034285 0.065192387 0.62800002 9292799
-0.050757144 0.06508857 0.62700003 9161215
-0.04956286 0.06508857 0.62700003 9029887
-0.048368573 0.06508857 0.62700003 9095679
-0.047174286 0.06508857 0.62700003 9226751
-0.045980003 0.06508857 0.62700003 9292543
-0.044642858 0.064880952 0.625 9358591
-0.043382857 0.064777143 0.62400001 9424383
-0.042194284 0.064777143 0.62400001 9423871
-0.041005712 0.064777143 0.62400001 9226495
-0.039880954 0.064880952 0.625 8898047
-0.038690478 0.064880952 0.625 9095423
-0.037499998 0.064880952 0.625 9226751
-0.036309522 0.064880952 0.625 8897791
-0.035119046 0.064880952 0.625 8176383
-0.033928569 0.064880952 0.625 8242175
-0.032685712 0.064777143 0.62400001 8373503
-0.031497143 0.064777143 0.62400001 8110335
-0.030308573 0.064777143 0.62400001 7322879
-0.02912 0.064777143 0.62400001 7125503
-0.027931429 0.064777143 0.62400001 8175359
-0.02687143 0.06508857 0.62700003 7977983
-0.12202381 0.066071428 0.625 8360324
-0.12083333 0.066071428 0.625 8561919
-0.11964285 0.066071428 0.625 7838206
-0.11845238 0.066071428 0.625 6790399
-0.1172619 0.066071428 0.625 6593023
-0.11607143 0.066071428 0.625 6725631
-0.11488095 0.066071428 0.625 6791423
-0.11350857 0.065965712 0.62400001 7120639
-0.11232001 0.065965712 0.62400001 7318015
-0.11113143 0.065965712 0.62400001 7186431
-0.10994286 0.065965712 0.62400001 7120639
-0.10875428 0.065965712 0.62400001 7645439
-0.10756572 0.065965712 0.62400001 7711231
-0.10637714 0.065965712 0.62400001 8236543
-0.10535714 0.066071428 0.625 8565503
-0.10466667 0.06638857 0.62800002 8697087
-0.10347048 0.06638857 0.62800002 8697087
-0.10178571 0.066071428 0.625 8696575
-0.10059524 0.066071428 0.625 8630783
-0.09940476 0.066071428 0.625 8565247
-0.098214284 0.066071428 0.625 8565247
-0.097023807 0.066071428 0.625 8893183
-0.096140005 0.066282853 0.62700003 8827391
-0.094945721 0.066282853 0.62700003 8629759
-0.093751431 0.066282853 0.62700003 9287679
-0.089457139 0.064062856 0.60600001 14278389
-0.088302858 0.064062856 0.60600001 16317951
-0.086860955 0.063851431 0.60400003 16711420
-0.085710481 0.063851431 0.60400003 16645627
-0.084559999 0.063851431 0.60400003 16645627
-0.083685718 0.064062856 0.60600001 16645627
-0.082531422 0.064062856 0.60600001 16645627
-0.08110857 0.063851431 0.60400003 16645627
-0.079958096 0.063851431 0.60400003 16645627
-0.078807622 0.063851431 0.60400003 16645627
-0.077657141 0.063851431 0.60400003 16645627
-0.076380007 0.063745722 0.60300004 16645627
-0.075231433 0.063745722 0.60300004 16645627
-0.074082859 0.063745722 0.60300004 16645627
-0.072934292 0.063745722 0.60300004 16645627
-0.071785718 0.063745722 0.60300004 16645627
-0.070637152 0.063745722 0.60300004 16645627
-0.069488578 0.063745722 0.60300004 16645627
-0.068340003 0.063745722 0.60300004 16645627
-0.067191429 0.063745722 0.60300004 16645627
-0.066042863 0.063745722 0.60300004 16711420
-0.064894289 0.063745722 0.60300004 16645627
-0.063745722 0.063745722 0.60300004 16645627
-0.062597148 0.063745722 0.60300004 16645627
-0.061448574 0.063745722 0.60300004 16711420
-0.062400002 0.065965712 0.62400001 16711420
-0.061113339 0.065859996 0.62300003 16252668
-0.059830479 0.065754294 0.62200004 9936540
-0.058645718 0.065754294 0.62200004 6929407
-0.057460956 0.065754294 0.62200004 7521535
-0.056276195 0.065754294 0.62200004 7651839
-0.055180002 0.065859996 0.62300003 7454463
-0.053993333 0.065859996 0.62300003 7323391
-0.052806668 0.065859996 0.62300003 6994431
-0.051620003 0.065859996 0.62300003 6731775
-0.050433334 0.065859996 0.62300003 6665983
-0.049246669 0.065859996 0.62300003 6928383
-0.04806 0.065859996 0.62300003 6994175
-0.046798099 0.065754294 0.62200004 6928895
-0.045613337 0.065754294 0.62200004 7586815
-0.044428572 0.065754294 0.62200004 7651583
-0.043243811 0.065754294 0.62200004 7519999
-0.042059049 0.065754294 0.62200004 7585791
-0.040874287 0.065754294 0.62200004 7519999
-0.039753333 0.065859996 0.62300003 7650815
-0.038566668 0.065859996 0.62300003 7650815
-0.037379999 0.065859996 0.62300003 7191295
-0.036193334 0.065859996 0.62300003 6928127
-0.035006665 0.065859996 0.62300003 6994687
-0.033765715 0.065754294 0.62200004 7060479
-0.032580953 0.065754294 0.62200004 7191807
-0.031396192 0.065754294 0.62200004 7323391
-0.03016286 0.065648578 0.62100005 7125759
-0.028980002 0.065648578 0.62100005 7257343
-0.027797144 0.065648578 0.62100005 8963583
-0.026614288 0.065648578 0.62100005 7647731
-0.025431432 0.065648578 0.62100005 4952827
-0.12182858 0.067154288 0.62400001 6589083
-0.12044667 0.067046665 0.62300003 5741311
-0.11926001 0.067046665 0.62300003 5214975
-0.11807334 0.067046665 0.62300003 4168191
-0.11688667 0.067046665 0.62300003 4102399
-0.11570001 0.067046665 0.62300003 3643391
-0.11451334 0.067046665 0.62300003 3972351
-0.11314477 0.066939048 0.62200004 3972607
-0.11196 0.066939048 0.62200004 4104191
-0.11077525 0.066939048 0.62200004 4694783
-0.10959049 0.066939048 0.62200004 4694783
-0.10840572 0.066939048 0.62200004 4826623
-0.10704858 0.066831432 0.62100005 4958207
-0.10586572 0.066831432 0.62100005 4826623
-0.10485144 0.066939048 0.62200004 5023999
-0.10366667 0.066939048 0.62200004 6270719
-0.10264667 0.067046665 0.62300003 6139135
-0.10162286 0.067154288 0.62400001 5614847
-0.10027333 0.067046665 0.62300003 5483263
-0.099086672 0.067046665 0.62300003 5483519
-0.097900003 0.067046665 0.62300003 5417727
-0.096713334 0.067046665 0.62300003 5089535
-0.095526665 0.067046665 0.62300003 4497407
-0.09449143 0.067154288 0.62400001 5679359
-0.093302861 0.067154288 0.62400001 8442623
-0.089457139 0.065217145 0.60600001 15332088
-0.088011429 0.065001912 0.60400003 16252927
-0.086717151 0.064894289 0.60300004 16711420
-0.085568577 0.064894289 0.60300004 16645627
-0.084280007 0.064786673 0.60200006 16645627
-0.08313334 0.064786673 0.60200006 16645627
-0.082122862 0.064894289 0.60300004 16645627
-0.080974288 0.064894289 0.60300004 16645627
-0.079825722 0.064894289 0.60300004 16645627
-0.078677148 0.064894289 0.60300004 16645627
-0.077528574 0.064894289 0.60300004 16645627
-0.076380007 0.064894289 0.60300004 16645627
-0.075106673 0.064786673 0.60200006 16645627
-0.073960006 0.064786673 0.60200006 16645627
-0.07281334 0.064786673 0.60200006 16645627
-0.071785718 0.064894289 0.60300004 16645627
-0.070637152 0.064894289 0.60300004 16645627
-0.069488578 0.064894289 0.60300004 16645627
-0.068340003 0.064894289 0.60300004 16645627
-0.067191429 0.064894289 0.60300004 16645627
-0.066042863 0.064894289 0.60300004 16711420
-0.064894289 0.064894289 0.60300004 16645627
-0.063745722 0.064894289 0.60300004 16645627
-0.062493335 0.064786673 0.60200006 16645627
-0.061346676 0.064786673 0.60200006 16711420
-0.062400002 0.067154288 0.62400001 16711420
-0.061113339 0.067046665 0.62300003 16514813
-0.059830479 0.066939048 0.62200004 10527650
-0.058645718 0.066939048 0.62200004 6667519
-0.057460956 0.066939048 0.62200004 6996479
-0.056276195 0.066939048 0.62200004 6799615
-0.055091433 0.066939048 0.62200004 6668031
-0.053906672 0.066939048 0.62200004 6668543
-0.052721906 0.066939048 0.62200004 6207999
-0.051537145 0.066939048 0.62200004 5879551
-0.050352383 0.066939048 0.62200004 5945343
-0.049167622 0.066939048 0.62200004 6207999
-0.04798286 0.066939048 0.62200004 6142207
-0.046722863 0.066831432 0.62100005 6076671
-0.045540005 0.066831432 0.62100005 6471423
-0.044357147 0.066831432 0.62100005 6668799
-0.043243811 0.066939048 0.62200004 6668799
-0.042059049 0.066939048 0.62200004 6603007
-0.040874287 0.066939048 0.62200004 6603007
-0.039689526 0.066939048 0.62200004 6930943
-0.038504764 0.066939048 0.62200004 6536191
-0.037319999 0.066939048 0.62200004 6600447
-0.036135238 0.066939048 0.62200004 6732031
-0.034950476 0.066939048 0.62200004 6863359
-0.033765715 0.066939048 0.62200004 6863359
-0.032528572 0.066831432 0.62100005 6798335
-0.031345718 0.066831432 0.62100005 6732543
-0.030114286 0.066723809 0.62 6732543
-0.028933333 0.066723809 0.62 7127295
-0.027752381 0.066723809 0.62 9423615
-0.026571428 0.066723809 0.62 8107762
-0.025390476 0.066723809 0.62 5148409
-0.024209524 0.066723809 0.62 1529794
-0.1214381 0.068123817 0.62200004 7247041
-0.12025334 0.068123817 0.62200004 6137343
-0.11906858 0.068123817 0.62200004 5216253
-0.11788382 0.068123817 0.62200004 4430591
-0.11669905 0.068123817 0.62200004 4627967
-0.11551429 0.068123817 0.62200004 4956671
-0.11432952 0.068123817 0.62200004 5154047
-0.11296286 0.068014294 0.62100005 5023231
-0.11178001 0.068014294 0.62100005 5023231
-0.11059715 0.068014294 0.62100005 5745663
-0.10941429 0.068014294 0.62100005 5745663
-0.10823144 0.068014294 0.62100005 5746175
-0.10687619 0.067904763 0.62 5811967
-0.10569524 0.067904763 0.62 5811455
-0.10468286 0.068014294 0.62100005 5614079
-0.10350001 0.068014294 0.62100005 6271231
-0.10231715 0.068014294 0.62100005 6534399
-0.10113429 0.068014294 0.62100005 6337535
-0.10011239 0.068123817 0.62200004 5811199
-0.098927625 0.068123817 0.62200004 6271743
-0.097742863 0.068123817 0.62200004 6337535
-0.096558101 0.068123817 0.62200004 6074879
-0.09537334 0.068123817 0.62200004 4759032
-0.09449143 0.068342857 0.62400001 6793983
-0.090162858 0.066042863 0.60300004 10873087
-0.089014292 0.066042863 0.60300004 16646142
-0.088011429 0.066152386 0.60400003 16646142
-0.086717151 0.066042863 0.60300004 16711420
-0.085568577 0.066042863 0.60300004 16645627
-0.084280007 0.065933339 0.60200006 16645627
-0.08313334 0.065933339 0.60200006 16645627
-0.082122862 0.066042863 0.60300004 16645627
-0.080974288 0.066042863 0.60300004 16645627
-0.07969334 0.065933339 0.60200006 16645627
-0.078546673 0.065933339 0.60200006 16645627
-0.077400006 0.065933339 0.60200006 16645627
-0.07625334 0.065933339 0.60200006 16645627
-0.075106673 0.065933339 0.60200006 16645627
-0.073960006 0.065933339 0.60200006 16645627
-0.07281334 0.065933339 0.60200006 16645627
-0.071666673 0.065933339 0.60200006 16645627
-0.070520006 0.065933339 0.60200006 16645627
-0.069373339 0.065933339 0.60200006 16645627
-0.068226673 0.065933339 0.60200006 16645627
-0.067080006 0.065933339 0.60200006 16645627
-0.065933339 0.065933339 0.60200006 16711420
-0.064786673 0.065933339 0.60200006 16645627
-0.063534282 0.065823808 0.60100001 16645627
-0.062389527 0.065823808 0.60100001 16645627
-0.061346676 0.065933339 0.60200006 16711420
-0.0623 0.068233334 0.62300003 16711420
-0.061015241 0.068123817 0.62200004 16449279
-0.059830479 0.068123817 0.62200004 10198944
-0.058645718 0.068123817 0.62200004 6405631
-0.057368573 0.068014294 0.62100005 6931967
-0.056185719 0.068014294 0.62100005 6865663
-0.055091433 0.068123817 0.62200004 6799871
-0.053906672 0.068123817 0.62200004 6734335
-0.052637149 0.068014294 0.62100005 6273791
-0.051454291 0.068014294 0.62100005 6142463
-0.050271433 0.068014294 0.62100005 6208255
-0.049088575 0.068014294 0.62100005 6208511
-0.047905717 0.068014294 0.62100005 6208511
-0.046647619 0.067904763 0.62 6339839
-0.045466669 0.067904763 0.62 6734591
-0.044285715 0.067904763 0.62 6996735
-0.043104764 0.067904763 0.62 7194111
-0.04192381 0.067904763 0.62 6603007
-0.040742856 0.067904763 0.62 6208255
-0.039561905 0.067904763 0.62 6339583
-0.038380951 0.067904763 0.62 6273791
-0.037260003 0.068014294 0.62100005 6404607
-0.036077145 0.068014294 0.62100005 6470399
-0.034894288 0.068014294 0.62100005 6404607
-0.03371143 0.068014294 0.62100005 6470399
-0.03247619 0.067904763 0.62 6535679
-0.03129524 0.067904763 0.62 6667263
-0.030065713 0.067795239 0.61900002 6732543
-0.028840002 0.067685723 0.61800003 7127295
-0.027662858 0.067685723 0.61800003 9357567
-0.026528573 0.067795239 0.61900002 8107508
-0.025349524 0.067795239 0.61900002 4427262
-0.02413143 0.067685723 0.61800003 1334991
-0.022954287 0.067685723 0.61800003 1009115
-0.12418858 0.068862855 0.61800003 9144950
-0.12301143 0.068862855 0.61800003 9539708
-0.12183429 0.068862855 0.61800003 5866948
-0.12085238 0.068974286 0.61900002 6722257
-0.11986667 0.069085717 0.62 5809407
-0.11868571 0.069085717 0.62 5085695
-0.1176943 0.069197148 0.62100005 4102911
-0.11651144 0.069197148 0.62100005 4431871
-0.11532858 0.069197148 0.62100005 5416447
-0.11414573 0.069197148 0.62100005 5350655
-0.11296286 0.069197148 0.62100005 4957695
-0.1116 0.069085717 0.62 5155071
-0.11041905 0.069085717 0.62 5745663
-0.1092381 0.069085717 0.62 5548287
-0.10805714 0.069085717 0.62 4959487
-0.10687619 0.069085717 0.62 5091071
-0.10569524 0.069085717 0.62 6008319
-0.10451429 0.069085717 0.62 5942527
-0.10333333 0.069085717 0.62 5746175
-0.10215238 0.069085717 0.62 6206719
-0.10097143 0.069085717 0.62 6403327
-0.099790476 0.069085717 0.62 6403327
-0.098609522 0.069085717 0.62 6337535
-0.097585723 0.069197148 0.62100005 6337535
-0.096402861 0.069197148 0.62100005 6468863
-0.09537334 0.069308572 0.62200004 5218808
-0.091160007 0.067080006 0.60200006 6727423
-0.089863814 0.066968575 0.60100001 11135487
-0.088719048 0.066968575 0.60100001 16646142
-0.087720007 0.067080006 0.60200006 16646142
-0.08657334 0.067080006 0.60200006 16645627
-0.085426673 0.067080006 0.60200006 16645627
-0.084280007 0.067080006 0.60200006 16645627
-0.08313334 0.067080006 0.60200006 16645627
-0.081986673 0.067080006 0.60200006 16645627
-0.080840006 0.067080006 0.60200006 16645627
-0.07969334 0.067080006 0.60200006 16645627
-0.078546673 0.067080006 0.60200006 16645627
-0.077400006 0.067080006 0.60200006 16645627
-0.07625334 0.067080006 0.60200006 16645627
-0.074981906 0.066968575 0.60100001 16645627
-0.073837139 0.066968575 0.60100001 16645627
-0.072692387 0.066968575 0.60100001 16645627
-0.071666673 0.067080006 0.60200006 16645627
-0.070520006 0.067080006 0.60200006 16645627
-0.069258094 0.066968575 0.60100001 16645627
-0.068113334 0.066968575 0.60100001 16645627
-0.066968575 0.066968575 0.60100001 16645627
-0.065823808 0.066968575 0.60100001 16711420
-0.064571433 0.066857144 0.60000002 16645627
-0.063428573 0.066857144 0.60000002 16645627
-0.062285714 0.066857144 0.60000002 16645627
-0.063486665 0.069420002 0.62300003 16711420
-0.0623 0.069420002 0.62300003 16711420
-0.061015241 0.069308572 0.62200004 16449533
-0.059830479 0.069308572 0.62200004 11186093
-0.058551431 0.069197148 0.62100005 5815295
-0.057368573 0.069197148 0.62100005 6473215
-0.056185719 0.069197148 0.62100005 6734335
-0.055002861 0.069197148 0.62100005 6734335
-0.053820003 0.069197148 0.62100005 6603007
-0.05255238 0.069085717 0.62 6274047
-0.051371425 0.069085717 0.62 6274303
-0.050190475 0.069085717 0.62 6274303
-0.049009521 0.069085717 0.62 6142975
-0.047828574 0.069085717 0.62 6208767
-0.04657238 0.068974286 0.61900002 6405119
-0.045393337 0.068974286 0.61900002 6536703
-0.04421429 0.068974286 0.61900002 6339839
-0.043035239 0.068974286 0.61900002 6603007
-0.041856192 0.068974286 0.61900002 6274303
-0.040677145 0.068974286 0.61900002 6142719
-0.039434288 0.068862855 0.61800003 6273791
-0.038257144 0.068862855 0.61800003 6339583
-0.037140001 0.068974286 0.61900002 6404607
-0.035960954 0.068974286 0.61900002 6470399
-0.034725714 0.068862855 0.61800003 6273791
-0.033548571 0.068862855 0.61800003 6207999
-0.032266673 0.068640009 0.61600006 6404095
-0.031093335 0.068640009 0.61600006 6864639
-0.029920002 0.068640009 0.61600006 6995711
-0.028746668 0.068640009 0.61600006 7193087
-0.027573336 0.068640009 0.61600006 9292287
-0.026528573 0.068974286 0.61900002 7976435
-0.025349524 0.068974286 0.61900002 4230398
-0.02413143 0.068862855 0.61800003 1467092
-0.022954287 0.068862855 0.61800003 1140955
-0.12418858 0.07004001 0.61800003 8882298
-0.12301143 0.07004001 0.61800003 9013884
-0.12183429 0.07004001 0.61800003 5473748
-0.12065715 0.07004001 0.61800003 6526436
-0.11967333 0.070153333 0.61900002 5875711
-0.11849429 0.070153333 0.61900002 5349375
-0.11731524 0.070153333 0.61900002 4760319
-0.11613619 0.070153333 0.61900002 4826111
-0.11495715 0.070153333 0.61900002 5022975
-0.1137781 0.070153333 0.61900002 4957183
-0.11259905 0.070153333 0.61900002 4630271
-0.11142001 0.070153333 0.61900002 4893439
-0.11024096 0.070153333 0.61900002 5417727
-0.10906191 0.070153333 0.61900002 5220351
-0.10788286 0.070153333 0.61900002 4631039
-0.10670381 0.070153333 0.61900002 4499455
-0.10552476 0.070153333 0.61900002 5287423
-0.10417714 0.07004001 0.61800003 5484799
-0.10300001 0.07004001 0.61800003 5811967
-0.10198762 0.070153333 0.61900002 6140927
-0.10080858 0.070153333 0.61900002 6732543
-0.099629521 0.070153333 0.61900002 6732543
-0.098450474 0.070153333 0.61900002 6141183
-0.097271428 0.070153333 0.61900002 6075391
-0.096247613 0.070266664 0.62 6009855
-0.094913334 0.070153333 0.61900002 4891386
-0.091160007 0.068226673 0.60200006 7054847
-0.089863814 0.068113334 0.60100001 10739199
-0.088719048 0.068113334 0.60100001 16711422
-0.087720007 0.068226673 0.60200006 16711422
-0.08657334 0.068226673 0.60200006 16711420
-0.085426673 0.068226673 0.60200006 16645627
-0.084140003 0.068113334 0.60100001 16645627
-0.082995243 0.068113334 0.60100001 16645627
-0.081850477 0.068113334 0.60100001 16645627
-0.080705717 0.068113334 0.60100001 16645627
-0.07956095 0.068113334 0.60100001 16645627
-0.078416191 0.068113334 0.60100001 16645627
-0.077271432 0.068113334 0.60100001 16645627
-0.076126665 0.068113334 0.60100001 16645627
-0.074857146 0.068000004 0.60000002 16645627
-0.073714286 0.068000004 0.60000002 16645627
-0.072692387 0.068113334 0.60100001 16645627
-0.07154762 0.068113334 0.60100001 16645627
-0.070402861 0.068113334 0.60100001 16645627
-0.069258094 0.068113334 0.60100001 16645627
-0.068000004 0.068000004 0.60000002 16645627
-0.066857144 0.068000004 0.60000002 16645627
-0.065604761 0.067886673 0.59900004 16711420
-0.064463809 0.067886673 0.59900004 16645627
-0.063322864 0.067886673 0.59900004 16645627
-0.062181905 0.067886673 0.59900004 16711420
-0.061040953 0.067886673 0.59900004 16711420
-0.0623 0.070606664 0.62300003 16711420
-0.061015241 0.07049334 0.62200004 16121597
-0.059734289 0.07038001 0.62100005 12897740
-0.058551431 0.07038001 0.62100005 8177663
-0.057276189 0.070266664 0.62 7914495
-0.056095239 0.070266664 0.62 7588607
-0.054914284 0.070266664 0.62 6996479
-0.053733334 0.070266664 0.62 6406143
-0.052467622 0.070153333 0.61900002 6340351
-0.051288571 0.070153333 0.61900002 6274303
-0.050109524 0.070153333 0.61900002 6142719
-0.048930477 0.070153333 0.61900002 5683711
-0.047751427 0.070153333 0.61900002 5815295
-0.046497144 0.07004001 0.61800003 6208511
-0.04532 0.07004001 0.61800003 6208511
-0.044142857 0.07004001 0.61800003 6339583
-0.042965718 0.07004001 0.61800003 6668543
-0.041788574 0.07004001 0.61800003 6471423
-0.040611431 0.07004001 0.61800003 6274047
-0.039434288 0.07004001 0.61800003 6339583
-0.038257144 0.07004001 0.61800003 6405375
-0.037080001 0.07004001 0.61800003 6339327
-0.03578667 0.069813341 0.61600006 6339327
-0.034613334 0.069813341 0.61600006 6076671
-0.033440001 0.069813341 0.61600006 6208255
-0.032214288 0.069699995 0.61500001 6929663
-0.031042857 0.069699995 0.61500001 7850751
-0.029871428 0.069699995 0.61500001 7916031
-0.0287 0.069699995 0.61500001 7981823
-0.027528571 0.069699995 0.61500001 9686783
-0.026400004 0.069813341 0.61600006 8173551
-0.025308572 0.07004001 0.61800003 3640063
-0.02413143 0.07004001 0.61800003 1139931
-0.022954287 0.07004001 0.61800003 1075428
-0.12496001 0.070986666 0.61600006 10129274
-0.12378668 0.070986666 0.61600006 8424053
-0.12261335 0.070986666 0.61600006 8358260
-0.12144001 0.070986666 0.61600006 4950503
-0.12026668 0.070986666 0.61600006 6003191
-0.11948001 0.071217142 0.61800003 5285119
-0.11849429 0.07133238 0.61900002 4956159
-0.11712572 0.071217142 0.61800003 4760831
-0.11594857 0.071217142 0.61800003 4695039
-0.11477143 0.071217142 0.61800003 4563967
-0.11359429 0.071217142 0.61800003 4761343
-0.11241715 0.071217142 0.61800003 4958207
-0.11124 0.071217142 0.61800003 4958207
-0.11006287 0.071217142 0.61800003 4565247
-0.10888571 0.071217142 0.61800003 4696831
-0.10770858 0.071217142 0.61800003 4565759
-0.10653143 0.071217142 0.61800003 4434175
-0.10501334 0.070986666 0.61600006 4959487
-0.10384001 0.070986666 0.61600006 5222655
-0.10266668 0.070986666 0.61600006 5484543
-0.10149334 0.070986666 0.61600006 6076671
-0.10032 0.070986666 0.61600006 6339327
-0.099146679 0.070986666 0.61600006 6207743
-0.097973339 0.070986666 0.61600006 6010367
-0.096800007 0.070986666 0.61600006 5944575
-0.095626675 0.070986666 0.61600006 5944575
-0.094453342 0.070986666 0.61600006 4957692
-0.09328001 0.070986666 0.61600006 7316735
-0.089863814 0.069258094 0.60100001 9751039
-0.088719048 0.069258094 0.60100001 16185080
-0.087574288 0.069258094 0.60100001 16711423
-0.086429521 0.069258094 0.60100001 16711420
-0.085142858 0.069142863 0.60000002 16645627
-0.084000006 0.069142863 0.60000002 16645627
-0.082857139 0.069142863 0.60000002 16645627
-0.081714287 0.069142863 0.60000002 16645627
-0.080705717 0.069258094 0.60100001 16645627
-0.079428568 0.069142863 0.60000002 16645627
-0.078285716 0.069142863 0.60000002 16645627
-0.077142857 0.069142863 0.60000002 16645627
-0.076000005 0.069142863 0.60000002 16645627
-0.074732378 0.069027625 0.59900004 16645627
-0.073591433 0.069027625 0.59900004 16645627
-0.072450481 0.069027625 0.59900004 16645627
-0.071309529 0.069027625 0.59900004 16645627
-0.070285715 0.069142863 0.60000002 16645627
-0.069142863 0.069142863 0.60000002 16645627
-0.067886673 0.069027625 0.59900004 16645627
-0.066745721 0.069027625 0.59900004 16645627
-0.065604761 0.069027625 0.59900004 16711420
-0.064356193 0.068912387 0.59800005 16645627
-0.063217148 0.068912387 0.59800005 16645627
-0.0620781 0.068912387 0.59800005 16711420
-0.060939051 0.068912387 0.59800005 16711420
-0.059800003 0.068912387 0.59800005 16711420
-0.061015241 0.071678095 0.62200004 15464185
-0.059638094 0.071447626 0.62 13621981
-0.05836286 0.07133238 0.61900002 10870527
-0.057183813 0.07133238 0.61900002 9094121
-0.055914287 0.071217142 0.61800003 7457791
-0.054737143 0.071217142 0.61800003 6997247
-0.053560004 0.071217142 0.61800003 6536703
-0.05238286 0.071217142 0.61800003 6470911
-0.051205717 0.071217142 0.61800003 6274815
-0.050028574 0.071217142 0.61800003 6077439
-0.04885143 0.071217142 0.61800003 5355519
-0.047520004 0.070986666 0.61600006 5750271
-0.046346672 0.070986666 0.61600006 6274303
-0.045173336 0.070986666 0.61600006 6274303
-0.044000003 0.070986666 0.61600006 6274303
-0.042826667 0.070986666 0.61600006 6603263
-0.041653335 0.070986666 0.61600006 6734335
-0.040480006 0.070986666 0.61600006 6471167
-0.03930667 0.070986666 0.61600006 6340095
-0.038133338 0.070986666 0.61600006 6340095
-0.036960002 0.070986666 0.61600006 6470911
-0.03578667 0.070986666 0.61600006 6405119
-0.034557141 0.070871428 0.61500001 6076159
-0.033331428 0.070756197 0.61400002 6339327
-0.032161906 0.070756197 0.61400002 6733311
-0.030941907 0.070640959 0.61300004 7720191
-0.029774288 0.070640959 0.61300004 7850751
-0.028653333 0.070756197 0.61400002 7784959
-0.027483812 0.070756197 0.61400002 9818623
-0.026357144 0.070871428 0.61500001 8042219
-0.025308572 0.071217142 0.61800003 3182078
-0.12496001 0.072160006 0.61600006 10195069
-0.12378668 0.072160006 0.61600006 7899260
-0.12261335 0.072160006 0.61600006 8162432
-0.12124286 0.07204286 0.61500001 4623359
-0.12007143 0.07204286 0.61500001 6070783
-0.11909334 0.072160006 0.61600006 6073599
-0.11792001 0.072160006 0.61600006 5810431
-0.11674668 0.072160006 0.61600006 5351935
-0.11557335 0.072160006 0.61600006 5022975
-0.11440001 0.072160006 0.61600006 4958207
-0.11322667 0.072160006 0.61600006 5089791
-0.11205334 0.072160006 0.61600006 4434175
-0.11124 0.072394289 0.61800003 4434175
-0.10970668 0.072160006 0.61600006 4631039
-0.10835715 0.07204286 0.61500001 4762623
-0.10718571 0.07204286 0.61500001 4566271
-0.10601429 0.07204286 0.61500001 4566271
-0.10484286 0.07204286 0.61500001 5091071
-0.10367143 0.07204286 0.61500001 5222655
-0.1025 0.07204286 0.61500001 5222911
-0.10132857 0.07204286 0.61500001 5946623
-0.10015714 0.07204286 0.61500001 6405119
-0.098985717 0.07204286 0.61500001 6076159
-0.097814284 0.07204286 0.61500001 6010367
-0.096642852 0.07204286 0.61500001 6010367
-0.095471427 0.07204286 0.61500001 5945087
-0.094453342 0.072160006 0.61600006 5550335
-0.09328001 0.072160006 0.61600006 6924287
-0.09210667 0.072160006 0.61600006 7450623
-0.088423818 0.07016857 0.59900004 13817327
-0.087282859 0.07016857 0.59900004 16383231
-0.086285718 0.070285715 0.60000002 16711420
-0.085000955 0.07016857 0.59900004 16645627
-0.08386001 0.07016857 0.59900004 16645627
-0.08271905 0.07016857 0.59900004 16645627
-0.081578098 0.07016857 0.59900004 16645627
-0.080437146 0.07016857 0.59900004 16645627
-0.079296194 0.07016857 0.59900004 16645627
-0.078024767 0.070051439 0.59800005 16645627
-0.076885715 0.070051439 0.59800005 16645627
-0.07574667 0.070051439 0.59800005 16645627
