# .PCD v0.7 - Point Cloud Data file format
VERSION 0.7
FIELDS x y z rgba
SIZE 4 4 4 4
TYPE F F F U
COUNT 1 1 1 1
WIDTH 1118
HEIGHT 1
VIEWPOINT 0 0 0 1 0 0 0
POINTS 1118
DATA ascii
-0.017119048 0.18967906 0.71900004 10263916
-0.015705716 0.18915144 0.71700001 11575413
-0.01432 0.18888761 0.71600002 13022859
-0.012920001 0.18836001 0.71400005 13087891
-0.011511429 0.18756858 0.71100003 12956305
-0.010157143 0.18756858 0.71100003 11182202
-0.0088028572 0.18756858 0.71100003 10195307
-0.0074380958 0.18730478 0.71000004 9671292
-0.0060857143 0.18730478 0.71000004 8487018
-0.0047333334 0.18730478 0.71000004 8028009
-0.0033714285 0.18677714 0.708 8356974
-0.00202 0.18651333 0.70700002 8224616
-0.00067333336 0.18651333 0.70700002 7895651
0.00067333336 0.18651333 0.70700002 8551765
0.0020171429 0.18624954 0.70600003 9867625
0.003361905 0.18624954 0.70600003 8617309
0.0047066668 0.18624954 0.70600003 8090965
0.0060514286 0.18624954 0.70600003 8813383
0.0073961904 0.18624954 0.70600003 11116138
0.0087533332 0.18651333 0.70700002 9603940
0.010100001 0.18651333 0.70700002 8419666
0.011446667 0.18651333 0.70700002 8089415
0.012793333 0.18651333 0.70700002 8221001
0.01414 0.18651333 0.70700002 8614999
0.015508572 0.18677714 0.708 8417620
0.016857143 0.18677714 0.708 7233550
0.018205713 0.18677714 0.708 10720579
0.019609524 0.18730478 0.71000004 10916713
0.020961907 0.18730478 0.71000004 12890503
0.022345716 0.18756858 0.71100003 12563073
0.023700001 0.18756858 0.71100003 12628866
0.025054287 0.18756858 0.71100003 12366737
0.02648286 0.18809621 0.71300006 11050877
0.027880002 0.18836001 0.71400005 10461286
0.029321905 0.18888761 0.71600002 7895359
0.030814288 0.18967906 0.71900004 7633496
0.03222857 0.18994285 0.72000003 7699289
0.033693336 0.19047049 0.72200006 7698783
0.035117142 0.1907343 0.72300005 8488299
0.036494289 0.1907343 0.72300005 9473138
0.037871432 0.1907343 0.72300005 15262922
0.039465718 0.19178954 0.72700006 16512950
-0.027040001 0.19344001 0.72800004 16579533
-0.025653334 0.19344001 0.72800004 16777169
-0.024266668 0.19344001 0.72800004 15460273
-0.022848573 0.1931743 0.72700006 9933661
-0.021404762 0.19264287 0.72500002 8686198
-0.020023812 0.19264287 0.72500002 8028268
-0.01859143 0.19211143 0.72300005 8553070
-0.017142856 0.19131429 0.72000003 9539965
-0.015749523 0.19104858 0.71900004 11575165
-0.01434 0.19051714 0.71700001 13285783
-0.012920001 0.18972 0.71400005 12759930
-0.011511429 0.18892285 0.71100003 11180898
-0.010157143 0.18892285 0.71100003 10260575
-0.0088028572 0.18892285 0.71100003 9668438
-0.0074485713 0.18892285 0.71100003 9603700
-0.0060857143 0.18865715 0.71000004 8945770
-0.0047333334 0.18865715 0.71000004 9735790
-0.0033809526 0.18865715 0.71000004 10196341
-0.0020228571 0.18812571 0.708 9669484
-0.00067428569 0.18812571 0.708 9406312
0.00067333336 0.18786 0.70700002 10064473
0.00202 0.18786 0.70700002 10525024
0.0033666666 0.18786 0.70700002 8682859
0.0047133337 0.18786 0.70700002 8090722
0.0060514286 0.18759429 0.70600003 9077097
0.0073961904 0.18759429 0.70600003 11248266
0.0087533332 0.18786 0.70700002 10919518
0.010100001 0.18786 0.70700002 9801037
0.011446667 0.18786 0.70700002 8748382
0.012793333 0.18786 0.70700002 8485210
0.01414 0.18786 0.70700002 8945511
0.015508572 0.18812571 0.708 9406062
0.016904762 0.18865715 0.71000004 8944743
0.018257145 0.18865715 0.71000004 10457982
0.019609524 0.18865715 0.71000004 10851170
0.020961907 0.18865715 0.71000004 11509100
0.022345716 0.18892285 0.71100003 12496476
0.023700001 0.18892285 0.71100003 12825441
0.025124764 0.1894543 0.71300006 12365692
0.02648286 0.1894543 0.71300006 11181418
0.027880002 0.18972 0.71400005 10461018
0.029362857 0.19051714 0.71700001 7763505
0.030814288 0.19104858 0.71900004 6450515
0.032318097 0.19184573 0.72200006 6516308
0.033740003 0.19211143 0.72300005 7304027
0.035117142 0.19211143 0.72300005 8619887
0.03659524 0.19264287 0.72500002 9670517
0.038080957 0.1931743 0.72700006 15591887
0.039465718 0.1931743 0.72700006 16513213
-0.025653334 0.19482668 0.72800004 16776408
-0.024266668 0.19482668 0.72800004 15855040
-0.022848573 0.19455907 0.72700006 10657393
-0.021404762 0.19402382 0.72500002 8948343
-0.020023812 0.19402382 0.72500002 8356206
-0.01859143 0.19348858 0.72300005 8882539
-0.017190477 0.19322097 0.72200006 9277297
-0.01577143 0.19268572 0.72000003 11575161
-0.01434 0.19188286 0.71700001 12627849
-0.012956191 0.19161524 0.71600002 12167809
-0.01156 0.19108002 0.71400005 10325605
-0.010185715 0.19081239 0.71300006 9669726
-0.0088028572 0.19027714 0.71100003 9472347
-0.0074485713 0.19027714 0.71100003 10195060
-0.0060942858 0.19027714 0.71100003 9602923
-0.0047333334 0.19000953 0.71000004 10655335
-0.0033809526 0.19000953 0.71000004 10786921
-0.0020285714 0.19000953 0.71000004 10457452
-0.00067428569 0.18947428 0.708 10457452
0.00067428569 0.18947428 0.708 10721137
0.00202 0.18920667 0.70700002 10655344
0.0033666666 0.18920667 0.70700002 8947823
0.0047133337 0.18920667 0.70700002 8421479
0.00606 0.18920667 0.70700002 10065014
0.0074066669 0.18920667 0.70700002 11051909
0.0087657142 0.18947428 0.708 11051381
0.010114285 0.18947428 0.708 10393451
0.011462857 0.18947428 0.708 9472860
0.012811428 0.18947428 0.708 9472860
0.01416 0.18947428 0.708 9143914
0.015552383 0.19000953 0.71000004 9143914
0.016904762 0.19000953 0.71000004 9010510
0.018257145 0.19000953 0.71000004 9931612
0.019609524 0.19000953 0.71000004 10127190
0.020991428 0.19027714 0.71100003 10324569
0.022345716 0.19027714 0.71100003 10719048
0.023766669 0.19081239 0.71300006 12758631
0.025124764 0.19081239 0.71300006 12365190
0.026520003 0.19108002 0.71400005 11246709
0.027958095 0.19161524 0.71600002 9343582
0.029444763 0.19241811 0.71900004 7435585
0.030857144 0.19268572 0.72000003 6121298
0.032318097 0.19322097 0.72200006 6187091
0.033740003 0.19348858 0.72300005 7040855
0.035117142 0.19348858 0.72300005 8422508
0.03659524 0.19402382 0.72500002 9867896
0.038080957 0.19455907 0.72700006 15986645
0.039465718 0.19455907 0.72700006 16512961
0.040906668 0.19482668 0.72800004 16644547
-0.025653334 0.19621335 0.72800004 16579807
-0.024266668 0.19621335 0.72800004 15987146
-0.022848573 0.19594382 0.72700006 11118464
-0.021463811 0.19594382 0.72700006 8817282
-0.02007905 0.19594382 0.72700006 7369836
-0.01859143 0.19486572 0.72300005 8027239
-0.017190477 0.1945962 0.72200006 8685169
-0.01577143 0.19405715 0.72000003 10459737
-0.014380001 0.19378762 0.71900004 11512425
-0.012956191 0.19297905 0.71600002 11445860
-0.01156 0.19244 0.71400005 9866828
-0.010185715 0.1921705 0.71300006 9735277
-0.0088276202 0.1921705 0.71300006 9011554
-0.0074485713 0.19163144 0.71100003 9142892
-0.0060942858 0.19163144 0.71100003 8813927
-0.0047400002 0.19163144 0.71100003 10261572
-0.0033809526 0.1913619 0.71000004 10919502
-0.0020285714 0.1913619 0.71000004 10128746
-0.00067428569 0.19082285 0.708 10194539
0.00067428569 0.19082285 0.708 9866865
0.0020228571 0.19082285 0.708 9669486
0.0033714285 0.19082285 0.708 9143914
0.0047199996 0.19082285 0.708 8749156
0.0060685715 0.19082285 0.708 9735025
0.0074171429 0.19082285 0.708 11511436
0.0087657142 0.19082285 0.708 11116659
0.010114285 0.19082285 0.708 10787694
0.011462857 0.19082285 0.708 9867609
0.012811428 0.19082285 0.708 9867609
0.01416 0.19082285 0.708 9538660
0.015552383 0.1913619 0.71000004 9143902
0.016904762 0.1913619 0.71000004 9536854
0.018257145 0.1913619 0.71000004 9800026
0.019637143 0.19163144 0.71100003 9996124
0.020991428 0.19163144 0.71100003 10061917
0.022345716 0.19163144 0.71100003 10325067
0.023766669 0.1921705 0.71300006 11575134
0.025160002 0.19244 0.71400005 11312752
0.026594287 0.19297905 0.71600002 10391650
0.027958095 0.19297905 0.71600002 9409111
0.029362857 0.19324857 0.71700001 7566907
0.030857144 0.19405715 0.72000003 6187881
0.032318097 0.1945962 0.72200006 5990502
0.033740003 0.19486572 0.72300005 6910039
0.035214286 0.19540477 0.72500002 8028520
0.03659524 0.19540477 0.72500002 10064503
0.038080957 0.19594382 0.72700006 16578010
0.039520003 0.19621335 0.72800004 16645319
0.040906668 0.19621335 0.72800004 16513733
-0.027337145 0.19977143 0.73600006 16579811
-0.025759049 0.1984143 0.73100001 16645604
-0.024266668 0.19760001 0.72800004 16184782
-0.022880001 0.19760001 0.72800004 11381893
-0.021463811 0.1973286 0.72700006 8817795
-0.02007905 0.1973286 0.72700006 7501935
-0.018642858 0.19678572 0.72500002 7764820
-0.017214287 0.19624287 0.72300005 7830613
-0.015815239 0.19597144 0.72200006 8815446
-0.014400001 0.19542858 0.72000003 10131306
-0.012974286 0.19461429 0.71700001 10262883
-0.011592381 0.19434287 0.71600002 9736539
-0.010200001 0.19380002 0.71400005 9866855
-0.0088400003 0.19380002 0.71400005 9801062
-0.0074695242 0.19352859 0.71300006 9735277
-0.0061114291 0.19352859 0.71300006 9603691
-0.0047400002 0.19298573 0.71100003 9669465
-0.0033857143 0.19298573 0.71100003 10064223
-0.0020285714 0.19271429 0.71000004 9143895
-0.00067619048 0.19271429 0.71000004 9078102
0.00067619048 0.19271429 0.71000004 8880980
0.0020285714 0.19271429 0.71000004 9209945
0.0033809526 0.19271429 0.71000004 9144915
0.0047199996 0.19217142 0.708 8815950
0.0060685715 0.19217142 0.708 9208414
0.0074171429 0.19217142 0.708 10721653
0.0087904762 0.19271429 0.71000004 10721387
0.010142857 0.19271429 0.71000004 10589801
0.011495238 0.19271429 0.71000004 9801562
0.01284762 0.19271429 0.71000004 9867355
0.014200001 0.19271429 0.71000004 9472364
0.015552383 0.19271429 0.71000004 9143399
0.016928572 0.19298573 0.71100003 9471313
0.018282857 0.19298573 0.71100003 9800278
0.019637143 0.19298573 0.71100003 9931353
0.020991428 0.19298573 0.71100003 9997146
0.022408573 0.19352859 0.71300006 9931344
0.023800001 0.19380002 0.71400005 10194516
0.025160002 0.19380002 0.71400005 9735267
0.026594287 0.19434287 0.71600002 9603681
0.027958095 0.19434287 0.71600002 8554598
0.029362857 0.19461429 0.71700001 7172945
0.030857144 0.19542858 0.72000003 6450024
0.032318097 0.19597144 0.72200006 6384231
0.033740003 0.19624287 0.72300005 6910293
0.035214286 0.19678572 0.72500002 7765602
0.036696192 0.1973286 0.72700006 10326905
0.038133334 0.19760001 0.72800004 16775133
0.039520003 0.19760001 0.72800004 16645067
0.040906668 0.19760001 0.72800004 16513481
-0.027337145 0.20117335 0.73600006 16579811
-0.025759049 0.19980666 0.73100001 16711397
-0.024366667 0.19980666 0.73100001 16184777
-0.022880001 0.19898668 0.72800004 11974025
-0.021463811 0.19871335 0.72700006 9146501
-0.02007905 0.19871335 0.72700006 7567469
-0.018642858 0.19816668 0.72500002 7436887
-0.017214287 0.19762 0.72300005 7568473
-0.015815239 0.19734669 0.72200006 7830641
-0.014400001 0.19680001 0.72000003 9212294
-0.012974286 0.19598 0.71700001 9802843
-0.011592381 0.19570667 0.71600002 9868636
-0.010228572 0.19570667 0.71600002 9539171
-0.0088400003 0.19516002 0.71400005 9604964
-0.0074695242 0.19488667 0.71300006 9670246
-0.0061114291 0.19488667 0.71300006 10130797
-0.0047400002 0.19434001 0.71100003 10261874
-0.0033857143 0.19434001 0.71100003 10196081
-0.0020285714 0.19406667 0.71000004 9735780
-0.00067619048 0.19406667 0.71000004 9933159
0.00067619048 0.19406667 0.71000004 9934424
0.0020285714 0.19406667 0.71000004 10131803
0.0033809526 0.19406667 0.71000004 9539923
0.0047333334 0.19406667 0.71000004 9605716
0.0060857143 0.19406667 0.71000004 9932907
0.0074380958 0.19406667 0.71000004 9932907
0.0087904762 0.19406667 0.71000004 9866853
0.010142857 0.19406667 0.71000004 9735267
0.011495238 0.19406667 0.71000004 10326877
0.01284762 0.19406667 0.71000004 10590049
0.01422 0.19434001 0.71100003 10720626
0.015574286 0.19434001 0.71100003 10325868
0.016928572 0.19434001 0.71100003 10456671
0.018282857 0.19434001 0.71100003 10654050
0.019692382 0.19488667 0.71300006 10457177
0.021050479 0.19488667 0.71300006 10062419
0.022408573 0.19488667 0.71300006 9538138
0.023800001 0.19516002 0.71400005 9669724
0.025230477 0.19570667 0.71600002 9145699
0.026594287 0.19570667 0.71600002 8487769
0.027958095 0.19570667 0.71600002 7240812
0.029444763 0.19652668 0.71900004 6385503
0.030857144 0.19680001 0.72000003 6385510
0.032318097 0.19734669 0.72200006 6648682
0.033833336 0.19816668 0.72500002 6844750
0.035311431 0.19871335 0.72700006 7765852
0.036696192 0.19871335 0.72700006 10392700
0.038133334 0.19898668 0.72800004 16775392
0.039520003 0.19898668 0.72800004 16645067
0.040906668 0.19898668 0.72800004 16645067
-0.027337145 0.20257525 0.73600006 16513246
-0.025759049 0.20119905 0.73100001 16644832
-0.024366667 0.20119905 0.73100001 16315848
-0.022880001 0.20037334 0.72800004 12170889
-0.021463811 0.2000981 0.72700006 9474692
-0.02007905 0.2000981 0.72700006 7566695
-0.018642858 0.19954762 0.72500002 6648407
-0.017214287 0.19899715 0.72300005 6845786
-0.015815239 0.19872192 0.72200006 7634023
-0.014400001 0.19817142 0.72000003 8884090
-0.012974286 0.1973457 0.71700001 8819051
-0.011592381 0.19707048 0.71600002 8819051
-0.010228572 0.19707048 0.71600002 8948843
-0.0088400003 0.19652 0.71400005 9146222
-0.0074800006 0.19652 0.71400005 9604470
-0.0061114291 0.19624478 0.71300006 9604470
-0.0047400002 0.19569428 0.71100003 9801338
-0.0033857143 0.19569428 0.71100003 9735545
-0.0020314287 0.19569428 0.71100003 9406822
-0.00067619048 0.19541906 0.71000004 9933166
0.00067619048 0.19541906 0.71000004 10067053
0.0020285714 0.19541906 0.71000004 9803881
0.0033809526 0.19541906 0.71000004 8949342
0.0047333334 0.19541906 0.71000004 9344100
0.0060857143 0.19541906 0.71000004 10000768
0.0074380958 0.19541906 0.71000004 9145459
0.0087904762 0.19541906 0.71000004 8750945
0.010157143 0.19569428 0.71100003 8750945
0.011511429 0.19569428 0.71100003 10523999
0.012865715 0.19569428 0.71100003 11313515
0.01422 0.19569428 0.71100003 11509109
0.015574286 0.19569428 0.71100003 11048558
0.016976191 0.19624478 0.71300006 10719075
0.018334286 0.19624478 0.71300006 10850661
0.019692382 0.19624478 0.71300006 10391909
0.021050479 0.19624478 0.71300006 9865565
0.022440001 0.19652 0.71400005 9014117
0.023866668 0.19707048 0.71600002 9145703
0.025230477 0.19707048 0.71600002 8687211
0.026594287 0.19707048 0.71600002 8358246
0.027997142 0.1973457 0.71700001 6387300
0.029444763 0.1978962 0.71900004 5992542
0.030942859 0.19872192 0.72200006 6386016
0.03236286 0.19899715 0.72300005 6320223
0.033833336 0.19954762 0.72500002 6581057
0.035311431 0.2000981 0.72700006 7831124
0.03674667 0.20037334 0.72800004 10392448
0.038133334 0.20037334 0.72800004 16774883
0.039520003 0.20037334 0.72800004 16644815
0.040906668 0.20037334 0.72800004 16710608
-0.027337145 0.20397717 0.73600006 16382178
-0.025829526 0.20314573 0.73300004 16513764
-0.024366667 0.20259143 0.73100001 16446923
-0.022880001 0.20176001 0.72800004 12433550
-0.021493334 0.20176001 0.72800004 9540489
-0.02007905 0.20148288 0.72700006 7500906
-0.018642858 0.20092857 0.72500002 6714981
-0.017214287 0.20037431 0.72300005 6846567
-0.015815239 0.20009716 0.72200006 7437421
-0.014400001 0.19954287 0.72000003 7832179
-0.012974286 0.19871143 0.71700001 8620389
-0.011608572 0.19871143 0.71700001 8751975
-0.010228572 0.19843429 0.71600002 8750953
-0.0088400003 0.19788001 0.71400005 8487781
-0.0074800006 0.19788001 0.71400005 8224118
-0.0061114291 0.19760287 0.71300006 8158325
-0.0047533335 0.19760287 0.71300006 8224366
-0.0033952384 0.19760287 0.71300006 8290159
-0.0020314287 0.19704857 0.71100003 8224359
-0.00067714287 0.19704857 0.71100003 8487531
0.00067714287 0.19704857 0.71100003 8619857
0.0020314287 0.19704857 0.71100003 8751443
0.0033857143 0.19704857 0.71100003 8422247
0.0047333334 0.19677144 0.71000004 8159075
0.0060857143 0.19677144 0.71000004 9014374
0.0074380958 0.19677144 0.71000004 8422237
0.0088028572 0.19704857 0.71100003 8290915
0.010157143 0.19704857 0.71100003 8422501
0.011511429 0.19704857 0.71100003 10392915
0.012865715 0.19704857 0.71100003 11248224
0.01422 0.19704857 0.71100003 11639648
0.015574286 0.19704857 0.71100003 11310683
0.016976191 0.19760287 0.71300006 10653028
0.018334286 0.19760287 0.71300006 10653028
0.019720001 0.19788001 0.71400005 9865826
0.02108 0.19788001 0.71400005 9471068
0.022502856 0.19843429 0.71600002 8816748
0.023866668 0.19843429 0.71600002 9540471
0.025230477 0.19843429 0.71600002 9080942
0.026594287 0.19843429 0.71600002 9212528
0.027997142 0.19871143 0.71700001 8095088
0.029444763 0.19926573 0.71900004 6647642
0.030942859 0.20009716 0.72200006 6189153
0.03236286 0.20037431 0.72300005 6781290
0.033926666 0.20148288 0.72700006 7305296
0.035311431 0.20148288 0.72700006 7765847
0.03674667 0.20176001 0.72800004 10392194
0.038133334 0.20176001 0.72800004 16774115
0.039628573 0.20231429 0.73000002 16644813
0.041019049 0.20231429 0.73000002 16776399
-0.025829526 0.20454192 0.73300004 16710366
-0.024366667 0.2039838 0.73100001 16578259
-0.022942858 0.20370476 0.73000002 12893851
-0.021493334 0.20314668 0.72800004 10394247
-0.020106668 0.20314668 0.72800004 7565148
-0.018694287 0.20286763 0.72700006 7042652
-0.017214287 0.20175144 0.72300005 7305824
-0.015815239 0.2014724 0.72200006 7305583
-0.014400001 0.20091429 0.72000003 7502962
-0.013010478 0.20063524 0.71900004 8028501
-0.011608572 0.20007715 0.71700001 8028501
-0.010242857 0.20007715 0.71700001 8027239
-0.0088400003 0.19924001 0.71400005 7500895
-0.0074800006 0.19924001 0.71400005 7238234
-0.0061200005 0.19924001 0.71400005 7238234
-0.0047533335 0.19896096 0.71300006 7435883
-0.0033952384 0.19896096 0.71300006 7435883
-0.0020314287 0.19840287 0.71100003 7765089
-0.00067714287 0.19840287 0.71100003 8291433
0.00067714287 0.19840287 0.71100003 8357468
0.0020314287 0.19840287 0.71100003 8489054
0.0033857143 0.19840287 0.71100003 8422499
0.0047400002 0.19840287 0.71100003 8751464
0.0060942858 0.19840287 0.71100003 9277558
0.0074485713 0.19840287 0.71100003 8422249
0.0088028572 0.19840287 0.71100003 7699259
0.010157143 0.19840287 0.71100003 8554568
0.011511429 0.19840287 0.71100003 10195045
0.012865715 0.19840287 0.71100003 11181940
0.01422 0.19840287 0.71100003 11114092
0.015574286 0.19840287 0.71100003 11048299
0.016976191 0.19896096 0.71300006 10587750
0.018334286 0.19896096 0.71300006 10456164
0.019720001 0.19924001 0.71400005 9406041
0.02108 0.19924001 0.71400005 8748111
0.022502856 0.19979811 0.71600002 8224348
0.023866668 0.19979811 0.71600002 9540208
0.025230477 0.19979811 0.71600002 9277308
0.02663143 0.20007715 0.71700001 9408894
0.027997142 0.20007715 0.71700001 9080690
0.029444763 0.20063524 0.71900004 7435865
0.030942859 0.2014724 0.72200006 5925715
0.03236286 0.20175144 0.72300005 6386266
0.033926666 0.20286763 0.72700006 7501905
0.035311431 0.20286763 0.72700006 7830870
0.03674667 0.20314668 0.72800004 10326655
0.038133334 0.20314668 0.72800004 16774369
0.039520003 0.20314668 0.72800004 16578509
0.040906668 0.20314668 0.72800004 16776145
-0.025829526 0.2059381 0.73300004 16777177
-0.024366667 0.20537619 0.73100001 16644316
-0.022974286 0.20537619 0.73100001 13091494
-0.021493334 0.20453334 0.72800004 10263179
-0.020106668 0.20453334 0.72800004 6644564
-0.018694287 0.20425239 0.72700006 7108193
-0.017214287 0.20312859 0.72300005 8095088
-0.015815239 0.20284763 0.72200006 7963236
-0.014440001 0.20284763 0.72200006 6121032
-0.013028571 0.20228572 0.72000003 5859922
-0.011640953 0.20200478 0.71900004 6912610
-0.010242857 0.20144285 0.71700001 7174499
-0.0088647623 0.20116191 0.71600002 6319190
-0.0075009526 0.20116191 0.71600002 6252893
-0.0061371429 0.20116191 0.71600002 6713444
-0.0047599999 0.20060001 0.71400005 6844780
-0.0034 0.20060001 0.71400005 6778987
-0.0020371431 0.20031907 0.71300006 7896423
-0.00067714287 0.19975714 0.71100003 8488560
0.00067714287 0.19975714 0.71100003 8357989
0.0020314287 0.19975714 0.71100003 8884333
0.0033857143 0.19975714 0.71100003 8883050
0.0047400002 0.19975714 0.71100003 9343601
0.0060942858 0.19975714 0.71100003 9474937
0.0074485713 0.19975714 0.71100003 9211765
0.0088028572 0.19975714 0.71100003 8488275
0.010157143 0.19975714 0.71100003 9211998
0.011511429 0.19975714 0.71100003 10655092
0.012865715 0.19975714 0.71100003 11378815
0.01422 0.19975714 0.71100003 11178356
0.015618097 0.20031907 0.71300006 11046770
0.016976191 0.20031907 0.71300006 10324593
0.018360002 0.20060001 0.71400005 10193007
0.019775238 0.20116191 0.71600002 8421225
0.021139048 0.20116191 0.71600002 8092260
0.022502856 0.20116191 0.71600002 8421486
0.0239 0.20144285 0.71700001 10526862
0.025265714 0.20144285 0.71700001 10657671
0.02663143 0.20144285 0.71700001 9999741
0.027997142 0.20144285 0.71700001 8818269
0.029485716 0.20228572 0.72000003 8094546
0.030985717 0.20312859 0.72300005 6648934
0.032452382 0.20369047 0.72500002 6385762
0.033926666 0.20425239 0.72700006 6647642
0.035311431 0.20425239 0.72700006 7371365
0.03674667 0.20453334 0.72800004 9998199
0.038133334 0.20453334 0.72800004 16774878
0.039520003 0.20453334 0.72800004 16578509
-0.024366667 0.20676856 0.73100001 16644573
-0.022974286 0.20676856 0.73100001 13091751
-0.021493334 0.20592001 0.72800004 10789255
-0.020106668 0.20592001 0.72800004 7696984
-0.018694287 0.20563716 0.72700006 7435863
-0.017261904 0.20507143 0.72500002 8488551
-0.015837144 0.20450573 0.72300005 8290920
-0.014440001 0.20422287 0.72200006 6382923
-0.013028571 0.20365715 0.72000003 5663043
-0.011640953 0.2033743 0.71900004 7110489
-0.010242857 0.20280857 0.71700001 7242343
-0.0088647623 0.20252572 0.71600002 6058069
-0.0075009526 0.20252572 0.71600002 5399619
-0.0061371429 0.20252572 0.71600002 6123342
-0.0047599999 0.20196001 0.71400005 6648155
-0.0034 0.20196001 0.71400005 6845534
-0.0020400002 0.20196001 0.71400005 7961948
-0.00067904766 0.20167716 0.71300006 8027741
0.00067904766 0.20167716 0.71300006 8225633
0.0020371431 0.20167716 0.71300006 8488805
0.0033952384 0.20167716 0.71300006 8553313
0.0047400002 0.20111144 0.71100003 8882278
0.0060942858 0.20111144 0.71100003 9539956
0.0074485713 0.20111144 0.71100003 9210991
0.0088028572 0.20111144 0.71100003 8685116
0.010157143 0.20111144 0.71100003 9606218
0.011511429 0.20111144 0.71100003 11114610
0.012865715 0.20111144 0.71100003 11048817
0.01422 0.20111144 0.71100003 11046761
0.015618097 0.20167716 0.71300006 11112554
0.017000001 0.20196001 0.71400005 10062694
0.018360002 0.20196001 0.71400005 9667936
0.019775238 0.20252572 0.71600002 7634007
0.021139048 0.20252572 0.71600002 7634007
0.022534285 0.20280857 0.71700001 9341790
0.0239 0.20280857 0.71700001 10855029
0.025265714 0.20280857 0.71700001 10657412
0.02663143 0.20280857 0.71700001 9933689
0.028075241 0.2033743 0.71900004 8752747
0.029567622 0.20422287 0.72200006 7634266
0.031071428 0.20507143 0.72500002 7043946
0.032541908 0.20563716 0.72700006 6451809
0.033973332 0.20592001 0.72800004 6384972
0.035360001 0.20592001 0.72800004 7371867
0.03674667 0.20592001 0.72800004 9734775
0.038133334 0.20592001 0.72800004 16182489
-0.024366667 0.20816095 0.73100001 16578521
-0.022974286 0.20816095 0.73100001 13288871
-0.021552382 0.20787619 0.73000002 10855050
-0.020106668 0.20730668 0.72800004 7894365
-0.018720001 0.20730668 0.72800004 7765593
-0.017309524 0.20702192 0.72700006 8686695
-0.015837144 0.20588288 0.72300005 8094558
-0.014440001 0.20559812 0.72200006 6120768
-0.013064764 0.20559812 0.72200006 6712160
-0.011657143 0.20502858 0.72000003 9409673
-0.010271429 0.20474382 0.71900004 9933920
-0.0088647623 0.20388952 0.71600002 9275990
-0.0075009526 0.20388952 0.71600002 8092512
-0.0061371429 0.20388952 0.71600002 7697754
-0.0047733332 0.20388952 0.71600002 8091492
-0.003409524 0.20388952 0.71600002 8881008
-0.0020400002 0.20332001 0.71400005 8617309
-0.00068000006 0.20332001 0.71400005 8551516
0.00068000006 0.20332001 0.71400005 8946024
0.0020400002 0.20332001 0.71400005 9472368
0.0034 0.20332001 0.71400005 9208933
0.0047533335 0.20303525 0.71300006 9208933
0.0061114291 0.20303525 0.71300006 9867364
0.0074695242 0.20303525 0.71300006 10327915
0.0088276202 0.20303525 0.71300006 10459469
0.010157143 0.20246571 0.71100003 11117399
0.011511429 0.20246571 0.71100003 11312223
0.012865715 0.20246571 0.71100003 11049051
0.014260001 0.20303525 0.71300006 11243877
0.015618097 0.20303525 0.71300006 11507049
0.017000001 0.20332001 0.71400005 10653548
0.01841143 0.20388952 0.71600002 10719341
0.019775238 0.20388952 0.71600002 10130284
0.021168573 0.20417428 0.71700001 9932905
0.022534285 0.20417428 0.71700001 10196068
0.0239 0.20417428 0.71700001 11248756
0.025265714 0.20417428 0.71700001 10788727
0.026705716 0.20474382 0.71900004 9933418
0.028114285 0.20502858 0.72000003 8159854
0.029608574 0.20588288 0.72300005 7172959
0.031157147 0.20702192 0.72700006 7108706
0.032586671 0.20730668 0.72800004 7042913
0.033973332 0.20730668 0.72800004 7042906
0.035360001 0.20730668 0.72800004 7569250
0.036847621 0.20787619 0.73000002 9274994
0.038238097 0.20787619 0.73000002 15393743
-0.024366667 0.20955333 0.73100001 16578008
-0.022974286 0.20955333 0.73100001 13683116
-0.021552382 0.20926668 0.73000002 11446667
-0.020106668 0.20869334 0.72800004 7893845
-0.018720001 0.20869334 0.72800004 7634523
-0.017309524 0.20840667 0.72700006 8358246
-0.015880954 0.20783333 0.72500002 6847317
-0.01446 0.20726001 0.72300005 6649938
-0.013064764 0.20697336 0.72200006 8748641
-0.011657143 0.20639999 0.72000003 10459259
-0.010271429 0.20611334 0.71900004 11048810
-0.0088771433 0.20554 0.71700001 10522466
-0.0075114286 0.20554 0.71700001 10127708
-0.0061371429 0.20525333 0.71600002 9996122
-0.0047733332 0.20525333 0.71600002 10062948
-0.003409524 0.20525333 0.71600002 9865569
-0.0020457143 0.20525333 0.71600002 9930070
-0.00068000006 0.20468001 0.71400005 10061656
0.00068000006 0.20468001 0.71400005 10522468
0.0020400002 0.20468001 0.71400005 10456675
0.0034 0.20468001 0.71400005 10522725
0.0047533335 0.20439336 0.71300006 10456932
0.0061114291 0.20439336 0.71300006 10326109
0.0074695242 0.20439336 0.71300006 10852453
0.0088276202 0.20439336 0.71300006 10918230
0.010185715 0.20439336 0.71300006 11444574
0.01154381 0.20439336 0.71300006 11640163
0.012901906 0.20439336 0.71300006 10850647
0.014260001 0.20439336 0.71300006 11243093
0.01564 0.20468001 0.71400005 10979921
0.017000001 0.20468001 0.71400005 10783589
0.01841143 0.20525333 0.71600002 11244140
0.019775238 0.20525333 0.71600002 11048551
0.021168573 0.20554 0.71700001 11180137
0.022534285 0.20554 0.71700001 11378288
0.0239 0.20554 0.71700001 11444081
0.025336191 0.20611334 0.71900004 10788727
0.026742859 0.20639999 0.72000003 10591348
0.028192384 0.20697336 0.72200006 7832168
0.029690476 0.20783333 0.72500002 6911066
0.031157147 0.20840667 0.72700006 7108699
0.032586671 0.20869334 0.72800004 7042906
0.033973332 0.20869334 0.72800004 7239258
0.035457142 0.20926668 0.73000002 7239258
0.036847621 0.20926668 0.73000002 9077104
0.038238097 0.20926668 0.73000002 15327439
-0.024366667 0.21094571 0.73100001 16447194
-0.022974286 0.21094571 0.73100001 13618095
-0.021552382 0.21065715 0.73000002 10658698
-0.020161904 0.21065715 0.73000002 7303255
-0.018720001 0.21008001 0.72800004 7503457
-0.017309524 0.20979145 0.72700006 8424559
-0.015880954 0.20921429 0.72500002 8357219
-0.01446 0.20863715 0.72300005 8883563
-0.013064764 0.20834859 0.72200006 10260085
-0.011657143 0.20777144 0.72000003 11115394
-0.010271429 0.20748286 0.71900004 11377003
-0.0088771433 0.20690572 0.71700001 11705968
-0.0075114286 0.20690572 0.71700001 11444322
-0.0061457143 0.20690572 0.71700001 10983771
-0.0047733332 0.20661715 0.71600002 10852203
-0.003409524 0.20661715 0.71600002 10786410
-0.0020457143 0.20661715 0.71600002 11312484
-0.00068000006 0.20604001 0.71400005 11444070
0.00068000006 0.20604001 0.71400005 11048299
0.0020400002 0.20604001 0.71400005 11179885
0.0034 0.20604001 0.71400005 11312493
0.0047533335 0.20575145 0.71300006 11246700
0.0061114291 0.20575145 0.71300006 11247211
0.0074695242 0.20575145 0.71300006 11313004
0.0088276202 0.20575145 0.71300006 11378286
0.010185715 0.20575145 0.71300006 11378286
0.01154381 0.20575145 0.71300006 11640163
0.012901906 0.20575145 0.71300006 10719061
0.014260001 0.20575145 0.71300006 10718030
0.01564 0.20604001 0.71400005 10454858
0.017047618 0.20661715 0.71600002 10783848
0.01841143 0.20661715 0.71600002 12099708
0.019802855 0.20690572 0.71700001 11574884
0.021168573 0.20690572 0.71700001 11574884
0.022534285 0.20690572 0.71700001 11378284
0.023966668 0.20748286 0.71900004 10983526
0.02537143 0.20777144 0.72000003 10919282
0.026817145 0.20834859 0.72200006 11116661
0.028231429 0.20863715 0.72300005 8487549
0.029690476 0.20921429 0.72500002 6974310
0.031157147 0.20979145 0.72700006 6582864
0.032586671 0.21008001 0.72800004 6780243
0.034066666 0.21065715 0.73000002 7172441
0.035457142 0.21065715 0.73000002 7304027
0.036847621 0.21065715 0.73000002 8814447
0.038238097 0.21065715 0.73000002 15196368
-0.024366667 0.21233809 0.73100001 16315867
-0.022974286 0.21233809 0.73100001 13289389
-0.021581903 0.21233809 0.73100001 10396296
-0.020161904 0.21204762 0.73000002 7435611
-0.018720001 0.21146667 0.72800004 7306589
-0.017333334 0.21146667 0.72800004 7832933
-0.015924763 0.2111762 0.72700006 8946773
-0.01446 0.2100143 0.72300005 10196840
-0.013064764 0.20972383 0.72200006 11114092
-0.011689525 0.20972383 0.72200006 11377264
-0.010285715 0.20914286 0.72000003 11508066
-0.0088771433 0.20827143 0.71700001 11902824
-0.0075114286 0.20827143 0.71700001 11640945
-0.0061457143 0.20827143 0.71700001 11509359
-0.0047800001 0.20827143 0.71700001 11377764
-0.003409524 0.20798096 0.71600002 11706729
-0.0020457143 0.20798096 0.71600002 11772522
-0.00068190478 0.20798096 0.71600002 11772522
0.00068190478 0.20798096 0.71600002 11113819
0.0020400002 0.20740001 0.71400005 11311198
0.0034 0.20740001 0.71400005 11443811
0.0047599999 0.20740001 0.71400005 11509604
0.0061114291 0.20710953 0.71300006 11444079
0.0074695242 0.20710953 0.71300006 11444079
0.0088276202 0.20710953 0.71300006 11509361
0.010185715 0.20710953 0.71300006 11443568
0.01154381 0.20710953 0.71300006 11574884
0.012901906 0.20710953 0.71300006 10587989
0.014260001 0.20710953 0.71300006 10849623
0.01564 0.20740001 0.71400005 10915416
0.017047618 0.20798096 0.71600002 11178604
0.01841143 0.20798096 0.71600002 11375983
0.019802855 0.20827143 0.71700001 11179626
0.021168573 0.20827143 0.71700001 11771763
0.022597143 0.2088524 0.71900004 11575152
0.023966668 0.2088524 0.71900004 11114601
0.02537143 0.20914286 0.72000003 11048812
0.026817145 0.20972383 0.72200006 11640949
0.028231429 0.2100143 0.72300005 9276534
0.029690476 0.21059524 0.72500002 7565916
0.031157147 0.2111762 0.72700006 6516821
0.032586671 0.21146667 0.72800004 6648407
0.034066666 0.21204762 0.73000002 6711883
0.035505716 0.21233809 0.73100001 6975055
0.036898095 0.21233809 0.73100001 8617327
0.038290478 0.21233809 0.73100001 15262420
-0.024433333 0.21431524 0.73300004 16578780
-0.023037143 0.21431524 0.73300004 13354923
-0.021581903 0.21373048 0.73100001 10133639
-0.020189524 0.21373048 0.73100001 7304540
-0.018771429 0.21343809 0.73000002 7306857
-0.017333334 0.21285334 0.72800004 8227959
-0.015924763 0.21256097 0.72700006 9998432
-0.014500001 0.2119762 0.72500002 11248499
-0.013082858 0.21139143 0.72300005 11837281
-0.011689525 0.21109907 0.72200006 11837281
-0.010285715 0.21051429 0.72000003 11771234
-0.0089019043 0.21022192 0.71900004 11837027
-0.0075323815 0.21022192 0.71900004 11771761
-0.0061457143 0.20963715 0.71700001 11837554
-0.0047800001 0.20963715 0.71700001 11970144
-0.0034142856 0.20963715 0.71700001 12299109
-0.0020457143 0.20934477 0.71600002 12102493
-0.00068190478 0.20934477 0.71600002 12168286
0.00068190478 0.20934477 0.71600002 11838828
0.0020457143 0.20934477 0.71600002 11904621
0.0034 0.20876001 0.71400005 11378007
0.0047599999 0.20876001 0.71400005 11509593
0.0061200005 0.20876001 0.71400005 11443566
0.0074800006 0.20876001 0.71400005 11443566
0.0088400003 0.20876001 0.71400005 11377777
0.010200001 0.20876001 0.71400005 11180398
0.011592381 0.20934477 0.71600002 11311446
0.012956191 0.20934477 0.71600002 10587723
0.01432 0.20934477 0.71600002 10849373
0.015683809 0.20934477 0.71600002 11112545
0.017071428 0.20963715 0.71700001 11178595
0.018437143 0.20963715 0.71700001 11310181
0.019858096 0.21022192 0.71900004 11244651
0.021227621 0.21022192 0.71900004 11968374
0.022628572 0.21051429 0.72000003 11640945
0.024066668 0.21109907 0.72200006 11575152
0.025477143 0.21139143 0.72300005 11641215
0.026854288 0.21139143 0.72300005 12233352
0.028231429 0.21139143 0.72300005 10788475
0.029690476 0.2119762 0.72500002 9735787
0.031157147 0.21256097 0.72700006 7830902
0.032586671 0.21285334 0.72800004 6844007
0.034066666 0.21343809 0.73000002 6712408
0.035505716 0.21373048 0.73100001 6712408
0.036999051 0.21431524 0.73300004 8551021
0.038395241 0.21431524 0.73300004 15590872
-0.024466667 0.21600573 0.73400003 16644573
-0.023068571 0.21600573 0.73400003 13486509
-0.021640953 0.21571143 0.73300004 10067333
-0.020189524 0.21512285 0.73100001 7304027
-0.018771429 0.21482858 0.73000002 7371094
-0.017333334 0.21424001 0.72800004 9015919
-0.015946668 0.21424001 0.72800004 10588768
-0.014540001 0.21394573 0.72700006 11575663
-0.013082858 0.21276858 0.72300005 11769955
-0.011705714 0.21276858 0.72300005 11967334
-0.010314287 0.2124743 0.72200006 11771488
-0.0089142863 0.21188572 0.72000003 11837281
-0.0075323815 0.21159144 0.71900004 11771497
-0.0061628572 0.21159144 0.71900004 12034669
-0.0047800001 0.21100286 0.71700001 11970162
-0.0034142856 0.21100286 0.71700001 11904369
-0.0020485714 0.21100286 0.71700001 11641958
-0.00068190478 0.21070857 0.71600002 11707751
0.00068190478 0.21070857 0.71600002 11707512
0.0020457143 0.21070857 0.71600002 11641719
0.003409524 0.21070857 0.71600002 11246961
0.0047733332 0.21070857 0.71600002 11312754
0.0061200005 0.21012001 0.71400005 11377775
0.0074800006 0.21012001 0.71400005 11246189
0.0088647623 0.21070857 0.71600002 11180137
0.010228572 0.21070857 0.71600002 10851172
0.011592381 0.21070857 0.71600002 11047774
0.012956191 0.21070857 0.71600002 10455637
0.01432 0.21070857 0.71600002 10454615
0.015705716 0.21100286 0.71700001 10717787
0.017071428 0.21100286 0.71700001 10848603
0.018488573 0.21159144 0.71900004 10914396
0.019858096 0.21159144 0.71900004 10651731
0.021257143 0.21188572 0.72000003 12099177
0.022691431 0.2124743 0.72200006 11641197
0.024066668 0.2124743 0.72200006 11641197
0.025477143 0.21276858 0.72300005 11640695
0.026854288 0.21276858 0.72300005 11903867
0.028309524 0.21335715 0.72500002 11445887
0.029690476 0.21335715 0.72500002 11380094
0.031157147 0.21394573 0.72700006 8423030
0.032586671 0.21424001 0.72800004 6580826
0.034066666 0.21482858 0.73000002 6581578
0.03560286 0.21571143 0.73300004 6647371
0.037049524 0.21600573 0.73400003 8550503
0.038657144 0.21718286 0.73800004 15392975
0.04006286 0.21718286 0.73800004 16578259
-0.023068571 0.21740381 0.73400003 13749420
-0.021640953 0.21710762 0.73300004 10264201
-0.020244764 0.21710762 0.73300004 7566688
-0.018771429 0.21621904 0.73000002 8158055
-0.017380953 0.21621904 0.73000002 10000259
-0.015946668 0.21562669 0.72800004 10982999
-0.014540001 0.21533048 0.72700006 11509343
-0.013082858 0.21414572 0.72300005 11638889
-0.011705714 0.21414572 0.72300005 11573096
-0.010314287 0.21384954 0.72200006 11442262
-0.0089390483 0.21384954 0.72200006 11508055
-0.007542857 0.21325715 0.72000003 11376485
-0.0061628572 0.21296096 0.71900004 11310692
-0.0047933338 0.21296096 0.71900004 11180389
-0.0034142856 0.21236856 0.71700001 11180389
-0.0020485714 0.21236856 0.71700001 11312223
-0.00068285712 0.21236856 0.71700001 11575395
0.00068285712 0.21236856 0.71700001 11706749
0.0020457143 0.21207239 0.71600002 11838335
0.003409524 0.21207239 0.71600002 11575171
0.0047733332 0.21207239 0.71600002 11443585
0.0061371429 0.21207239 0.71600002 11508848
0.0075009526 0.21207239 0.71600002 11311469
0.0088647623 0.21207239 0.71600002 11180389
0.010228572 0.21207239 0.71600002 10390873
0.011592381 0.21207239 0.71600002 10587237
0.012956191 0.21207239 0.71600002 10389858
0.01432 0.21207239 0.71600002 10717033
0.015705716 0.21236856 0.71700001 10848619
0.017071428 0.21236856 0.71700001 10849130
0.018488573 0.21296096 0.71900004 11770232
0.019885715 0.21325715 0.72000003 11574382
0.021257143 0.21325715 0.72000003 12100726
0.022691431 0.21384954 0.72200006 12036709
0.024066668 0.21384954 0.72200006 12102502
0.025477143 0.21414572 0.72300005 11509872
0.026854288 0.21414572 0.72300005 11509872
0.028309524 0.2147381 0.72500002 11773548
0.029690476 0.2147381 0.72500002 12036720
0.031157147 0.21533048 0.72700006 10065004
0.032586671 0.21562669 0.72800004 6841147
0.034113333 0.21651524 0.73100001 6383695
0.03560286 0.21710762 0.73300004 7239004
0.037049524 0.21740381 0.73400003 8748141
0.038552385 0.21799621 0.73600006 14866890
0.03995429 0.21799621 0.73600006 16578504
-0.02313143 0.21939811 0.73600006 13683880
-0.021670477 0.2188019 0.73400003 10723466
-0.020244764 0.21850382 0.73300004 7960160
-0.018797142 0.21790762 0.73100001 8549968
-0.017380953 0.21760952 0.73000002 10194793
-0.015946668 0.21701334 0.72800004 10850136
-0.014540001 0.21671526 0.72700006 11705445
-0.013082858 0.21552287 0.72300005 11442269
-0.011705714 0.21552287 0.72300005 11442269
-0.010328572 0.21552287 0.72300005 11442273
-0.0089390483 0.21522479 0.72200006 11376480
-0.0075638103 0.21522479 0.72200006 10982231
-0.0061714291 0.21462858 0.72000003 10982231
-0.0047933338 0.21433048 0.71900004 10915934
-0.0034238098 0.21433048 0.71900004 10850141
-0.0020485714 0.21373428 0.71700001 11113556
-0.00068285712 0.21373428 0.71700001 11245142
0.00068285712 0.21373428 0.71700001 10982506
0.0020457143 0.21343619 0.71600002 11377264
0.003409524 0.21343619 0.71600002 11641208
0.0047733332 0.21343619 0.71600002 11443829
0.0061371429 0.21343619 0.71600002 11443566
0.0075009526 0.21343619 0.71600002 11443566
0.0088647623 0.21343619 0.71600002 11574895
0.010228572 0.21343619 0.71600002 10653793
0.011592381 0.21343619 0.71600002 10981729
0.012956191 0.21343619 0.71600002 10652764
0.01432 0.21343619 0.71600002 10783587
0.015705716 0.21373428 0.71700001 10849380
0.017119048 0.21433048 0.71900004 11244651
0.018488573 0.21433048 0.71900004 11705202
0.019885715 0.21462858 0.72000003 11574382
0.021316191 0.21522479 0.72200006 12100726
0.022691431 0.21522479 0.72200006 12036466
0.024066668 0.21522479 0.72200006 11904880
0.025477143 0.21552287 0.72300005 11116395
0.026854288 0.21552287 0.72300005 11379567
0.028309524 0.21611905 0.72500002 11772533
0.029690476 0.21611905 0.72500002 11969912
0.031157147 0.21671526 0.72700006 10589803
0.032586671 0.21701334 0.72800004 7563325
0.034113333 0.21790762 0.73100001 6054193
0.03560286 0.21850382 0.73300004 7567432
0.037049524 0.2188019 0.73400003 9012337
0.038552385 0.21939811 0.73600006 14407363
0.03995429 0.21939811 0.73600006 15328442
0.041356195 0.21939811 0.73600006 16775888
-0.024533335 0.22080003 0.73600006 16578770
-0.02313143 0.22080003 0.73600006 13552292
-0.021670477 0.2202 0.73400003 10985362
-0.020244764 0.21990001 0.73300004 8287849
-0.018797142 0.2193 0.73100001 9009754
-0.017380953 0.21900001 0.73000002 10062442
-0.015946668 0.2184 0.72800004 10850143
-0.014540001 0.21810001 0.72700006 12034417
-0.013119048 0.2175 0.72500002 11837531
-0.011705714 0.21690001 0.72300005 11903324
-0.010328572 0.21690001 0.72300005 11770995
-0.0089390483 0.21660002 0.72200006 11705202
-0.0075638103 0.21660002 0.72200006 11377757
-0.0061714291 0.21600001 0.72000003 11311964
-0.0047999998 0.21600001 0.72000003 10784614
-0.0034238098 0.21570002 0.71900004 10587235
-0.0020542857 0.21570002 0.71900004 10850132
-0.00068285712 0.21509999 0.71700001 11244890
0.00068285712 0.21509999 0.71700001 10785379
0.0020485714 0.21509999 0.71700001 9930070
0.0034142856 0.21509999 0.71700001 10588239
0.0047733332 0.2148 0.71600002 10982997
0.0061371429 0.2148 0.71600002 11311964
0.0075009526 0.2148 0.71600002 11575136
0.0088647623 0.2148 0.71600002 11378007
0.010228572 0.2148 0.71600002 10522698
0.011592381 0.2148 0.71600002 10784852
0.012956191 0.2148 0.71600002 11048024
0.01432 0.2148 0.71600002 11047786
0.015705716 0.21509999 0.71700001 12034681
0.017119048 0.21570002 0.71900004 11772792
0.018514287 0.21600001 0.72000003 11575413
0.019885715 0.21600001 0.72000003 11575145
0.021316191 0.21660002 0.72200006 11443559
0.022691431 0.21660002 0.72200006 11311971
0.024100002 0.21690001 0.72300005 11114592
0.025477143 0.21690001 0.72300005 11312482
0.026854288 0.21690001 0.72300005 12299377
0.028309524 0.2175 0.72500002 11838333
0.029772382 0.21810001 0.72700006 11772540
0.031200001 0.2184 0.72800004 10458715
0.032586671 0.2184 0.72800004 7892788
0.034113333 0.2193 0.73100001 6316619
0.03560286 0.21990001 0.73300004 7632479
0.037049524 0.2202 0.73400003 8617057
0.038552385 0.22080003 0.73600006 13090981
0.03995429 0.22080003 0.73600006 15590569
0.041356195 0.22080003 0.73600006 16776385
-0.024700001 0.22371145 0.74100006 16578770
-0.02313143 0.22220191 0.73600006 13486499
-0.021729525 0.22220191 0.73600006 11576981
-0.020272382 0.2215981 0.73400003 8879468
-0.018848572 0.22129619 0.73300004 9468506
-0.017380953 0.22039048 0.73000002 10389608
-0.015946668 0.21978667 0.72800004 10719332
-0.014540001 0.21948478 0.72700006 11377262
-0.013119048 0.21888097 0.72500002 11508573
-0.011705714 0.21827716 0.72300005 11508573
-0.010328572 0.21827716 0.72300005 11639409
-0.0089390483 0.21797526 0.72200006 11770995
-0.0075638103 0.21797526 0.72200006 11443550
-0.0061885719 0.21797526 0.72200006 11311964
-0.0047999998 0.21737143 0.72000003 10653539
-0.0034238098 0.21706954 0.71900004 10653539
-0.0020542857 0.21706954 0.71900004 10850395
-0.00068476191 0.21706954 0.71900004 11113567
0.00068476191 0.21706954 0.71900004 10785125
0.0020485714 0.21646571 0.71700001 10653539
0.0034142856 0.21646571 0.71700001 10654547
0.0047800001 0.21646571 0.71700001 10654547
0.0061457143 0.21646571 0.71700001 10851172
0.0075114286 0.21646571 0.71700001 10916965
0.0088771433 0.21646571 0.71700001 10719325
0.010242857 0.21646571 0.71700001 10521946
0.011608572 0.21646571 0.71700001 10258256
0.012974286 0.21646571 0.71700001 11113565
0.01434 0.21646571 0.71700001 10982747
0.015749523 0.21706954 0.71900004 11772263
0.017142856 0.21737143 0.72000003 11707510
0.018514287 0.21737143 0.72000003 11641717
0.019885715 0.21737143 0.72000003 11378536
0.021316191 0.21797526 0.72200006 10917985
0.022691431 0.21797526 0.72200006 11244899
0.024100002 0.21827716 0.72300005 11442278
0.025477143 0.21827716 0.72300005 11378018
0.026928572 0.21888097 0.72500002 11706983
0.028309524 0.21888097 0.72500002 11706999
0.029772382 0.21948478 0.72700006 11706999
0.031200001 0.21978667 0.72800004 10261861
0.03267619 0.22039048 0.73000002 7827520
0.034113333 0.22069238 0.73100001 6710079
0.03565143 0.2215981 0.73400003 6512700
0.03715048 0.22220191 0.73600006 7825993
0.038552385 0.22220191 0.73600006 13352605
0.03995429 0.22220191 0.73600006 14998448
0.041524764 0.22310762 0.73900002 16775373
0.043048576 0.22371145 0.74100006 16380871
-0.024700001 0.22512287 0.74100006 16578772
-0.023225715 0.22451524 0.73900002 13420708
-0.021788571 0.22421144 0.73800004 11445397
-0.020382857 0.22421144 0.73800004 9997951
-0.018848572 0.22269239 0.73300004 9731177
-0.017380953 0.22178096 0.73000002 10257521
-0.015946668 0.22117335 0.72800004 11047004
-0.014560001 0.22117335 0.72800004 11704934
-0.013119048 0.22026192 0.72500002 11704410
-0.011705714 0.21965429 0.72300005 11309652
-0.010328572 0.21965429 0.72300005 11441256
-0.0089514283 0.21965429 0.72300005 11638635
-0.0075742863 0.21965429 0.72300005 11377755
-0.0061885719 0.2193505 0.72200006 11377755
-0.0048133335 0.2193505 0.72200006 11048812
-0.0034285716 0.21874286 0.72000003 11443570
-0.0020542857 0.21843906 0.71900004 11575154
-0.00068476191 0.21843906 0.71900004 11706740
0.00068476191 0.21843906 0.71900004 11049328
0.0020485714 0.21783143 0.71700001 10588777
0.0034142856 0.21783143 0.71700001 10523495
0.0047800001 0.21783143 0.71700001 9799772
0.0061457143 0.21783143 0.71700001 10257787
0.0075114286 0.21783143 0.71700001 10849924
0.0088771433 0.21783143 0.71700001 10785129
0.010242857 0.21783143 0.71700001 10719336
0.011608572 0.21783143 0.71700001 10719332
0.012974286 0.21783143 0.71700001 11640434
0.014380001 0.21843906 0.71900004 11444061
0.01577143 0.21874286 0.72000003 11378268
0.017142856 0.21874286 0.72000003 11707746
0.018514287 0.21874286 0.72000003 11773539
0.019940954 0.2193505 0.72200006 11378268
0.021316191 0.2193505 0.72200006 10522959
0.022722857 0.21965429 0.72300005 10915684
0.024100002 0.21965429 0.72300005 11507821
0.025477143 0.21965429 0.72300005 11377759
0.026928572 0.22026192 0.72500002 11706724
0.028387621 0.22086954 0.72700006 11510113
0.029772382 0.22086954 0.72700006 10917976
0.031200001 0.22117335 0.72800004 10260836
0.03267619 0.22178096 0.73000002 8221253
0.034113333 0.22208476 0.73100001 7039058
0.03565143 0.22299621 0.73400003 6315335
0.037049524 0.22299621 0.73400003 7168841
0.038552385 0.22360383 0.73600006 13156004
0.04006286 0.22421144 0.73800004 14866096
0.041524764 0.22451524 0.73900002 16775892
0.043048576 0.22512287 0.74100006 16512718
0.044460002 0.22512287 0.74100006 16381132
-0.024700001 0.22653431 0.74100006 16578770
-0.023225715 0.22592287 0.73900002 12960155
-0.021729525 0.22500572 0.73600006 11182466
-0.02032762 0.22500572 0.73600006 9274469
-0.018848572 0.22408858 0.73300004 9928019
-0.017380953 0.22317143 0.73000002 10059605
-0.015946668 0.22256002 0.72800004 10320719
-0.014560001 0.22256002 0.72800004 10847063
-0.013155239 0.22225431 0.72700006 11176796
-0.011705714 0.22103144 0.72300005 11045210
-0.010328572 0.22103144 0.72300005 10717013
-0.0089514283 0.22103144 0.72300005 11045978
-0.0075742863 0.22103144 0.72300005 11048792
-0.0061885719 0.22072573 0.72200006 10982999
-0.0048133335 0.22072573 0.72200006 10785386
-0.0034285716 0.22011429 0.72000003 11377523
-0.002057143 0.22011429 0.72000003 11510653
-0.00068476191 0.21980858 0.71900004 11379067
0.00068476191 0.21980858 0.71900004 10722421
0.0020485714 0.21919714 0.71700001 10525042
0.0034142856 0.21919714 0.71700001 10327649
0.0047800001 0.21919714 0.71700001 9538133
0.0061457143 0.21919714 0.71700001 10126422
0.0075114286 0.21919714 0.71700001 10981731
0.0088771433 0.21919714 0.71700001 10784868
0.010242857 0.21919714 0.71700001 10850661
0.011608572 0.21919714 0.71700001 10850659
0.013010478 0.21980858 0.71900004 11508589
0.014380001 0.21980858 0.71900004 11378781
0.015815239 0.22072573 0.72200006 11510367
0.017190477 0.22072573 0.72200006 11378027
0.018565716 0.22072573 0.72200006 11312234
0.019940954 0.22072573 0.72200006 11114333
0.021316191 0.22072573 0.72200006 10522196
0.022722857 0.22103144 0.72300005 10453843
0.024100002 0.22103144 0.72300005 10980187
0.025477143 0.22103144 0.72300005 10849623
0.026928572 0.22164287 0.72500002 11178588
0.028387621 0.22225431 0.72700006 11049062
0.029813336 0.22256002 0.72800004 10917476
0.031285714 0.22317143 0.73000002 9932385
0.03267619 0.22317143 0.73000002 8024388
0.034113333 0.22347714 0.73100001 7039572
0.03565143 0.22439429 0.73400003 5921091
0.037049524 0.22439429 0.73400003 6314043
0.038552385 0.22500572 0.73600006 12630171
0.03995429 0.22500572 0.73600006 14667947
0.041356195 0.22500572 0.73600006 16774094
0.042932384 0.22592287 0.73900002 16445903
0.044340003 0.22592287 0.73900002 16577489
-0.023194287 0.22702286 0.73800004 12499858
-0.021729525 0.22640765 0.73600006 10853489
-0.02032762 0.22640765 0.73600006 9142871
-0.018848572 0.22548477 0.73300004 9731149
-0.017380953 0.22456191 0.73000002 10060114
-0.015946668 0.22394668 0.72800004 10517594
-0.014560001 0.22394668 0.72800004 10451801
-0.013155239 0.22363906 0.72700006 10517594
-0.011738095 0.22302382 0.72500002 10780766
-0.010328572 0.22240859 0.72300005 10453841
-0.0089514283 0.22240859 0.72300005 10585427
-0.0075742863 0.22240859 0.72300005 10455889
-0.0061885719 0.22210097 0.72200006 11048026
-0.0048133335 0.22210097 0.72200006 10916720
-0.0034380956 0.22210097 0.72200006 11311478
-0.002057143 0.22148572 0.72000003 11640954
-0.0006857143 0.22148572 0.72000003 11706747
0.00068476191 0.2211781 0.71900004 10853750
0.0020542857 0.2211781 0.71900004 10787957
