# .PCD v0.7 - Point Cloud Data file format
VERSION 0.7
FIELDS x y z rgba
SIZE 4 4 4 4
TYPE F F F U
COUNT 1 1 1 1
WIDTH 1174
HEIGHT 1
VIEWPOINT 0 0 0 1 0 0 0
POINTS 1174
DATA ascii
-0.063149519 0.061079051 1.087 15127674
-0.060910482 0.060910482 1.0840001 16114317
-0.058845717 0.060910482 1.0840001 16443282
-0.056571428 0.060685717 1.08 16377750
-0.054514285 0.060685717 1.08 16774564
-0.052311432 0.060517143 1.077 15588797
-0.050260004 0.060517143 1.077 15194039
-0.048208572 0.060517143 1.077 15522986
-0.046157144 0.060517143 1.077 16773567
-0.044105716 0.060517143 1.077 16511410
-0.042054288 0.060517143 1.077 16642996
-0.04000286 0.060517143 1.077 16445619
-0.13145715 0.062161908 1.0700001 13943166
-0.12941904 0.062161908 1.0700001 13877625
-0.1277381 0.062336192 1.0730001 14140797
-0.12569429 0.062336192 1.0730001 13615734
-0.12445715 0.062742859 1.08 13615734
-0.12319333 0.063149519 1.087 13351554
-0.12112286 0.063149519 1.087 13680519
-0.11905239 0.063149519 1.087 13877121
-0.11730476 0.063323811 1.09 13745535
-0.11522858 0.063323811 1.09 13549439
-0.11315238 0.063323811 1.09 13286267
-0.11148382 0.063556202 1.0940001 13679213
-0.10940001 0.063556202 1.0940001 13942385
-0.10761047 0.063730478 1.097 13942128
-0.10552095 0.063730478 1.097 14139507
-0.10343143 0.063730478 1.097 14073730
-0.1013419 0.063730478 1.097 14073730
-0.09925238 0.063730478 1.097 14074234
-0.097162858 0.063730478 1.097 14140027
-0.095073335 0.063730478 1.097 14205566
-0.092983812 0.063730478 1.097 14073980
-0.090894289 0.063730478 1.097 13613924
-0.088804767 0.063730478 1.097 14271854
-0.086715236 0.063730478 1.097 14206079
-0.084625714 0.063730478 1.097 14271872
-0.082536191 0.063730478 1.097 14469755
-0.080740005 0.063962862 1.1010001 14403962
-0.07864286 0.063962862 1.1010001 14272374
-0.076267622 0.063730478 1.097 14535546
-0.074178092 0.063730478 1.097 14601866
-0.072088569 0.063730478 1.097 14404487
-0.069807619 0.063556202 1.0940001 14273151
-0.067723818 0.063556202 1.0940001 14470530
-0.065400004 0.063323811 1.09 15191682
-0.063323811 0.063323811 1.09 15783819
-0.061079051 0.063149519 1.087 16442035
-0.058845717 0.062975243 1.0840001 16442035
-0.056571428 0.062742859 1.08 16377509
-0.054514285 0.062742859 1.08 16443302
-0.052311432 0.062568568 1.077 14998448
-0.050260004 0.062568568 1.077 14472104
-0.048208572 0.062568568 1.077 15129752
-0.046157144 0.062568568 1.077 16774577
-0.044105716 0.062568568 1.077 16510381
-0.042054288 0.062568568 1.077 16641967
-0.04000286 0.062568568 1.077 16445358
-0.13145715 0.064200006 1.0700001 16180396
-0.12941904 0.064200006 1.0700001 15786415
-0.1277381 0.064380005 1.0730001 15589036
-0.12569429 0.064380005 1.0730001 15390864
-0.12445715 0.064800002 1.08 14535555
-0.12319333 0.065219998 1.087 14074788
-0.12112286 0.065219998 1.087 13943202
-0.11938096 0.065400004 1.09 13614726
-0.11730476 0.065400004 1.09 13285761
-0.11565144 0.065640002 1.0940001 13614476
-0.11356763 0.065640002 1.0940001 13877648
-0.11148382 0.065640002 1.0940001 14074745
-0.10969999 0.065820001 1.097 14140538
-0.10761047 0.065820001 1.097 14139766
-0.10552095 0.065820001 1.097 14271352
-0.10343143 0.065820001 1.097 14205566
-0.10171143 0.066060007 1.1010001 14666117
-0.099614292 0.066060007 1.1010001 14404219
-0.097162858 0.065820001 1.097 14338426
-0.095073335 0.065820001 1.097 14403717
-0.092983812 0.065820001 1.097 14469510
-0.090894289 0.065820001 1.097 14666371
-0.089128576 0.066060007 1.1010001 15390094
-0.087031431 0.066060007 1.1010001 15521178
-0.084934294 0.066060007 1.1010001 15455385
-0.082837142 0.066060007 1.1010001 16245140
-0.080740005 0.066060007 1.1010001 16574105
-0.07864286 0.066060007 1.1010001 16114853
-0.076267622 0.065820001 1.097 16246439
-0.074178092 0.065820001 1.097 15589281
-0.072088569 0.065820001 1.097 15589281
-0.069807619 0.065640002 1.0940001 15524008
-0.067723818 0.065640002 1.0940001 16050352
-0.065400004 0.065400004 1.09 15391128
-0.063323811 0.065400004 1.09 15588507
-0.057426669 0.061319999 1.0220001 14864806
-0.055480003 0.061319999 1.0220001 14075290
-0.056780957 0.065040007 1.0840001 13484657
-0.054716196 0.065040007 1.0840001 13089899
-0.049931429 0.06168 1.028 13090158
-0.047973335 0.06168 1.028 13090158
-0.13182572 0.066423811 1.0730001 16443302
-0.12978192 0.066423811 1.0730001 16115393
-0.1277381 0.066423811 1.0730001 15654842
-0.12569429 0.066423811 1.0730001 15851438
-0.12445715 0.066857144 1.08 15588266
-0.12319333 0.067290477 1.087 15391668
-0.12112286 0.067290477 1.087 14733738
-0.11938096 0.067476191 1.09 14075781
-0.11730476 0.067476191 1.09 14075781
-0.11565144 0.067723818 1.0940001 14338176
-0.11387905 0.067909524 1.097 14272383
-0.11178952 0.067909524 1.097 14272124
-0.10969999 0.067909524 1.097 14206331
-0.10761047 0.067909524 1.097 14074745
-0.10552095 0.067909524 1.097 14272124
-0.10343143 0.067909524 1.097 14272131
-0.10171143 0.068157144 1.1010001 14732682
-0.099614292 0.068157144 1.1010001 14536591
-0.097162858 0.067909524 1.097 14733970
-0.095073335 0.067909524 1.097 15062928
-0.092983812 0.067909524 1.097 15523479
-0.090894289 0.067909524 1.097 16048024
-0.089128576 0.068157144 1.1010001 16773289
-0.086715236 0.067909524 1.097 16577998
-0.084625714 0.067909524 1.097 16577998
-0.082837142 0.068157144 1.1010001 16578259
-0.080740005 0.068157144 1.1010001 15788743
-0.07864286 0.068157144 1.1010001 16049076
-0.076267622 0.067909524 1.097 15588525
-0.068903819 0.063080952 1.0190001 15326118
-0.066962861 0.063080952 1.0190001 15391911
-0.064830475 0.062895238 1.016 15391900
-0.062895238 0.062895238 1.016 15326107
-0.061140005 0.063080952 1.0190001 14406295
-0.05919905 0.063080952 1.0190001 14208916
-0.057426669 0.063266672 1.0220001 13880217
-0.055480003 0.063266672 1.0220001 13288080
-0.054004762 0.063823812 1.031 12237679
-0.052040953 0.063823812 1.031 11513956
-0.049931429 0.063638091 1.028 12038466
-0.047973335 0.063638091 1.028 12893775
-0.13182572 0.068467624 1.0730001 14074997
-0.12978192 0.068467624 1.0730001 13877123
-0.1277381 0.068467624 1.0730001 13482365
-0.12569429 0.068467624 1.0730001 14207628
-0.12445715 0.068914287 1.08 15326109
-0.12319333 0.069360957 1.087 15456930
-0.12112286 0.069360957 1.087 16049067
-0.11938096 0.069552377 1.09 16049548
-0.11730476 0.069552377 1.09 16246927
-0.11596857 0.069999047 1.097 15983997
-0.11387905 0.069999047 1.097 16115583
-0.11178952 0.069999047 1.097 15522954
-0.10969999 0.069999047 1.097 15457161
-0.10800286 0.070254289 1.1010001 15522954
-0.10590572 0.070254289 1.1010001 16509849
-0.10380858 0.070254289 1.1010001 16378261
-0.10171143 0.070254289 1.1010001 16773533
-0.099614292 0.070254289 1.1010001 16511144
-0.097162858 0.069999047 1.097 16642730
-0.095073335 0.069999047 1.097 16379538
-0.092983812 0.069999047 1.097 16511124
-0.090894289 0.069999047 1.097 16445083
-0.088804767 0.069999047 1.097 16708255
-0.086715236 0.069999047 1.097 16445844
-0.084625714 0.069999047 1.097 15985293
-0.082837142 0.070254289 1.1010001 16180378
-0.074286662 0.064639047 1.013 14930311
-0.07235714 0.064639047 1.013 13351315
-0.07063619 0.064830475 1.016 12890764
-0.068700954 0.064830475 1.016 13220981
-0.066962861 0.06502191 1.0190001 13549946
-0.064830475 0.064830475 1.016 14404961
-0.062895238 0.064830475 1.016 14668133
-0.061140005 0.06502191 1.0190001 12433527
-0.05919905 0.06502191 1.0190001 10788702
-0.057426669 0.065213338 1.0220001 11248765
-0.055642862 0.065404765 1.0250001 12630418
-0.054004762 0.065787621 1.031 12827481
-0.052040953 0.065787621 1.031 11314242
-0.049931429 0.065596186 1.028 11379288
-0.047833338 0.065404765 1.0250001 12958320
-0.045880955 0.065404765 1.0250001 14602643
-0.13097334 0.067948572 1.034 13814151
-0.12862952 0.06775143 1.031 13153877
-0.12629715 0.067554288 1.028 13548635
-0.12397621 0.067357145 1.0250001 13023100
-0.12202382 0.067357145 1.0250001 12562549
-0.12007144 0.067357145 1.0250001 12695652
-0.11811905 0.067357145 1.0250001 13221996
-0.12353334 0.071628571 1.09 14074752
-0.12145714 0.071628571 1.09 14403717
-0.11981906 0.071891434 1.0940001 14798475
-0.11773524 0.071891434 1.0940001 14864268
-0.11596857 0.072088569 1.097 14799495
-0.11387905 0.072088569 1.097 14865288
-0.11178952 0.072088569 1.097 14273673
-0.11010001 0.072351426 1.1010001 14207880
-0.10800286 0.072351426 1.1010001 14207628
-0.10590572 0.072351426 1.1010001 14207628
-0.10380858 0.072351426 1.1010001 14337676
-0.10171143 0.072351426 1.1010001 14929813
-0.091923811 0.066765718 1.016 14733468
-0.089722857 0.066568576 1.013 14667675
-0.087793328 0.066568576 1.013 14864772
-0.085609525 0.066371433 1.01 14996358
-0.083685718 0.066371433 1.01 14602384
-0.081761904 0.066371433 1.01 14207626
-0.079838097 0.066371433 1.01 14010999
-0.078145713 0.066568576 1.013 14142585
-0.076216191 0.066568576 1.013 14339986
-0.074286662 0.066568576 1.013 14142607
-0.07235714 0.066568576 1.013 12630654
-0.07063619 0.066765718 1.016 12170103
-0.068700954 0.066765718 1.016 12563784
-0.066962861 0.066962861 1.0190001 13353300
-0.064830475 0.066765718 1.016 13549437
-0.062895238 0.066765718 1.016 13088886
-0.061140005 0.066962861 1.0190001 11315814
-0.059373334 0.067160003 1.0220001 9144645
-0.057595242 0.067357145 1.0250001 10065990
-0.055642862 0.067357145 1.0250001 12829296
-0.054004762 0.06775143 1.031 13286785
-0.052192383 0.067948572 1.034 10852444
-0.049931429 0.067554288 1.028 10983468
-0.047833338 0.067357145 1.0250001 14075739
-0.045880955 0.067357145 1.0250001 14603149
-0.13097334 0.069918096 1.034 14537622
-0.12862952 0.069715239 1.031 13353337
-0.12629715 0.069512382 1.028 11905891
-0.12397621 0.069309533 1.0250001 9475168
-0.12202382 0.069309533 1.0250001 7632964
-0.12007144 0.069309533 1.0250001 9933913
-0.11777334 0.069106668 1.0220001 12631426
-0.11582667 0.069106668 1.0220001 12497271
-0.11354572 0.068903819 1.0190001 11839341
-0.11094762 0.068498097 1.013 12694389
-0.10901809 0.068498097 1.013 13615491
-0.11639144 0.074448578 1.1010001 13615473
-0.1142943 0.074448578 1.1010001 12694371
-0.11219715 0.074448578 1.1010001 12694637
-0.1016 0.068700954 1.016 13220981
-0.099664763 0.068700954 1.016 13483142
-0.097729526 0.068700954 1.016 14009486
-0.095794283 0.068700954 1.016 12170110
-0.093859047 0.068700954 1.016 9867355
-0.091923811 0.068700954 1.016 10133586
-0.089722857 0.068498097 1.013 9673035
-0.087793328 0.068498097 1.013 11773555
-0.085609525 0.068295233 1.01 14076310
-0.083685718 0.068295233 1.01 13352578
-0.081761904 0.068295233 1.01 12036718
-0.079838097 0.068295233 1.01 11644259
-0.078145713 0.068498097 1.013 11710052
-0.076216191 0.068498097 1.013 12365694
-0.07450667 0.068700954 1.016 13549968
-0.072571434 0.068700954 1.016 13221224
-0.07063619 0.068700954 1.016 9931574
-0.068903819 0.068903819 1.0190001 11707182
-0.066962861 0.068903819 1.0190001 13615179
-0.06502191 0.068903819 1.0190001 12891777
-0.063080952 0.068903819 1.0190001 10523229
-0.061319999 0.069106668 1.0220001 7174993
-0.059373334 0.069106668 1.0220001 5595961
-0.057595242 0.069309533 1.0250001 7502393
-0.055805713 0.069512382 1.028 11186801
-0.054004762 0.069715239 1.031 11905636
-0.052192383 0.069918096 1.034 10129225
-0.050077144 0.069715239 1.031 10195793
-0.047973335 0.069512382 1.028 13945994
-0.046015237 0.069512382 1.028 14866576
-0.13097334 0.07188762 1.034 14538397
-0.12862952 0.071679048 1.031 13355658
-0.12629715 0.071470477 1.028 10855524
-0.12397621 0.071261905 1.0250001 8164432
-0.12202382 0.071261905 1.0250001 6256435
-0.12007144 0.071261905 1.0250001 9015078
-0.11777334 0.071053334 1.0220001 11383626
-0.11582667 0.071053334 1.0220001 12235117
-0.11354572 0.070844762 1.0190001 11840359
-0.11094762 0.070427619 1.013 12432505
-0.10901809 0.070427619 1.013 13550986
-0.10740571 0.07063619 1.016 13419139
-0.10547048 0.07063619 1.016 10458454
-0.10353524 0.07063619 1.016 10851131
-0.1016 0.07063619 1.016 11443268
-0.099664763 0.07063619 1.016 13218412
-0.097729526 0.07063619 1.016 13547377
-0.095794283 0.07063619 1.016 11450230
-0.093859047 0.07063619 1.016 9542233
-0.091923811 0.07063619 1.016 8628065
-0.089722857 0.070427619 1.013 8628065
-0.087793328 0.070427619 1.013 11184219
-0.085863806 0.070427619 1.013 13158009
-0.083934292 0.070427619 1.013 13025158
-0.082004763 0.070427619 1.013 10525024
-0.080075242 0.070427619 1.013 10198346
-0.078145713 0.070427619 1.013 10264139
-0.076216191 0.070427619 1.013 12036707
-0.07450667 0.07063619 1.016 12892016
-0.072571434 0.07063619 1.016 13484668
-0.07063619 0.07063619 1.016 12103015
-0.068903819 0.070844762 1.0190001 11772251
-0.066962861 0.070844762 1.0190001 13351283
-0.06502191 0.070844762 1.0190001 12432253
-0.063080952 0.070844762 1.0190001 8287294
-0.061319999 0.071053334 1.0220001 6847291
-0.059373334 0.071053334 1.0220001 6123568
-0.057595242 0.071261905 1.0250001 7043614
-0.055805713 0.071470477 1.028 10399057
-0.054004762 0.071679048 1.031 10920826
-0.052192383 0.07188762 1.034 8683864
-0.050417144 0.07216572 1.0380001 8617506
-0.048440006 0.07216572 1.0380001 13946739
-0.046597145 0.072374292 1.041 15195813
-0.13097334 0.073857144 1.034 14735776
-0.12862952 0.073642857 1.031 13553296
-0.12629715 0.073428571 1.028 10526818
-0.12397621 0.073214293 1.0250001 7045986
-0.12202382 0.073214293 1.0250001 5795919
-0.12007144 0.073214293 1.0250001 7371852
-0.11811905 0.073214293 1.0250001 9937779
-0.11582667 0.073000006 1.0220001 12629337
-0.11354572 0.072785713 1.0190001 13879404
-0.11160477 0.072785713 1.0190001 13352067
-0.10966381 0.072785713 1.0190001 12628344
-0.10740571 0.072571434 1.016 11312993
-0.10547048 0.072571434 1.016 9010238
-0.10353524 0.072571434 1.016 8945449
-0.1016 0.072571434 1.016 8748070
-0.099664763 0.072571434 1.016 10719561
-0.097729526 0.072571434 1.016 13022316
-0.095794283 0.072571434 1.016 12170364
-0.093859047 0.072571434 1.016 12367743
-0.091923811 0.072571434 1.016 12107126
-0.089988574 0.072571434 1.016 12238712
-0.087793328 0.07235714 1.013 12302200
-0.085863806 0.07235714 1.013 11775856
-0.083934292 0.07235714 1.013 10986610
-0.082004763 0.07235714 1.013 10197094
-0.080075242 0.07235714 1.013 9476690
-0.07837715 0.072571434 1.016 9410897
-0.076441906 0.072571434 1.016 10066512
-0.07450667 0.072571434 1.016 10921821
-0.072785713 0.072785713 1.0190001 12497787
-0.070844762 0.072785713 1.0190001 13879440
-0.068903819 0.072785713 1.0190001 13682045
-0.067160003 0.073000006 1.0220001 11971427
-0.065213338 0.073000006 1.0220001 9934931
-0.063266672 0.073000006 1.0220001 7566383
-0.061319999 0.073000006 1.0220001 6389076
-0.059547622 0.073214293 1.0250001 6125904
-0.057595242 0.073214293 1.0250001 6913084
-0.055805713 0.073428571 1.028 9413218
-0.054004762 0.073642857 1.031 10789729
-0.052192383 0.073857144 1.034 8750146
-0.050417144 0.074142866 1.0380001 8945763
-0.048440006 0.074142866 1.0380001 13814445
-0.046597145 0.074357137 1.041 15524524
-0.13097334 0.075826667 1.034 15328428
-0.12862952 0.075606667 1.031 13357968
-0.12629715 0.075386666 1.028 10199904
-0.12397621 0.075166672 1.0250001 7504458
-0.12202382 0.075166672 1.0250001 6254391
-0.12007144 0.075166672 1.0250001 6650153
-0.11811905 0.075166672 1.0250001 7900220
-0.11582667 0.074946672 1.0220001 12364886
-0.11388 0.074946672 1.0220001 14272883
-0.11160477 0.074726671 1.0190001 13745308
-0.10966381 0.074726671 1.0190001 11574139
-0.10740571 0.07450667 1.016 10129991
-0.10547048 0.07450667 1.016 8879924
-0.10353524 0.07450667 1.016 8879935
-0.1016 0.07450667 1.016 8682556
-0.099664763 0.07450667 1.016 8814106
-0.097729526 0.07450667 1.016 10853689
-0.095794283 0.07450667 1.016 12562015
-0.093859047 0.07450667 1.016 13483117
-0.091923811 0.07450667 1.016 13745287
-0.089988574 0.07450667 1.016 13745287
-0.088053331 0.07450667 1.016 12498814
-0.086118095 0.07450667 1.016 10656610
-0.084182858 0.07450667 1.016 10002525
-0.082247622 0.07450667 1.016 9739353
-0.080312386 0.07450667 1.016 9346137
-0.07837715 0.07450667 1.016 9280344
-0.076441906 0.07450667 1.016 9148749
-0.074726671 0.074726671 1.0190001 9280335
-0.072785713 0.074726671 1.0190001 11445603
-0.071053334 0.074946672 1.0220001 14011530
-0.069106668 0.074946672 1.0220001 13354673
-0.067160003 0.074946672 1.0220001 9801851
-0.065213338 0.074946672 1.0220001 7505196
-0.063266672 0.074946672 1.0220001 6518301
-0.061500005 0.075166672 1.0250001 5732930
-0.059547622 0.075166672 1.0250001 5667137
-0.057763807 0.075386666 1.028 6978616
-0.055805713 0.075386666 1.028 10334059
-0.054161906 0.075826667 1.034 10988409
-0.052192383 0.075826667 1.034 8554068
-0.050417144 0.076120012 1.0380001 9470498
-0.048579998 0.076339997 1.041 14997110
-0.046731427 0.076559998 1.044 15524776
-0.044871431 0.076779999 1.0470001 16774843
-0.13097334 0.077796191 1.034 15985068
-0.12862952 0.077570483 1.031 14671241
-0.12629715 0.07734476 1.028 11447384
-0.12433904 0.07734476 1.028 7570036
-0.12238095 0.07734476 1.028 6056797
-0.12007144 0.077119052 1.0250001 5994567
-0.11811905 0.077119052 1.0250001 5994567
-0.11582667 0.076893337 1.0220001 10721580
-0.11388 0.076893337 1.0220001 13945437
-0.11193334 0.076893337 1.0220001 13219709
-0.10966381 0.076667622 1.0190001 9337922
-0.10772286 0.076667622 1.0190001 8748851
-0.10578191 0.076667622 1.0190001 8683058
-0.10384095 0.076667622 1.0190001 8879431
-0.1019 0.076667622 1.0190001 9076810
-0.099959053 0.076667622 1.0190001 9142094
-0.098018102 0.076667622 1.0190001 9010508
-0.096077144 0.076667622 1.0190001 9930811
-0.094136193 0.076667622 1.0190001 12562531
-0.092195243 0.076667622 1.0190001 13089656
-0.089988574 0.076441906 1.016 12563312
-0.088053331 0.076441906 1.016 11447654
-0.086118095 0.076441906 1.016 9868622
-0.084182858 0.076441906 1.016 9280846
-0.082247622 0.076441906 1.016 9544018
-0.080312386 0.076441906 1.016 9543003
-0.078608572 0.076667622 1.0190001 9477210
-0.076667622 0.076667622 1.0190001 9411167
-0.074726671 0.076667622 1.0190001 9411167
-0.073000006 0.076893337 1.0220001 10328417
-0.071053334 0.076893337 1.0220001 12368000
-0.069106668 0.076893337 1.0220001 12369285
-0.067160003 0.076893337 1.0220001 8487498
-0.065404765 0.077119052 1.0250001 6390572
-0.063452385 0.077119052 1.0250001 5469470
-0.061500005 0.077119052 1.0250001 5667362
-0.059721906 0.07734476 1.028 5535776
-0.057763807 0.07734476 1.028 7174709
-0.055968571 0.077570483 1.031 10793324
-0.054161906 0.077796191 1.034 12302200
-0.052394293 0.07809715 1.0380001 11907442
-0.050562855 0.078322858 1.041 12103515
-0.048579998 0.078322858 1.041 15195786
-0.046865717 0.078774288 1.0470001 16445349
-0.044871431 0.078774288 1.0470001 16774571
-0.13097334 0.079765722 1.034 16577730
-0.12862952 0.079534285 1.031 14933409
-0.12629715 0.079302855 1.028 11906931
-0.12433904 0.079302855 1.028 9280118
-0.12238095 0.079302855 1.028 6582605
-0.12007144 0.07907144 1.0250001 5733187
-0.11811905 0.07907144 1.0250001 5272636
-0.11616668 0.07907144 1.0250001 8356368
-0.11388 0.078840002 1.0220001 12896085
-0.11193334 0.078840002 1.0220001 12300421
-0.10998667 0.078840002 1.0220001 9208150
-0.10772286 0.078608572 1.0190001 8749119
-0.10578191 0.078608572 1.0190001 8749119
-0.10384095 0.078608572 1.0190001 8813631
-0.1019 0.078608572 1.0190001 9274182
-0.099959053 0.078608572 1.0190001 9142607
-0.098018102 0.078608572 1.0190001 8682056
-0.096077144 0.078608572 1.0190001 8683280
-0.094136193 0.078608572 1.0190001 12104516
-0.092195243 0.078608572 1.0190001 12368774
-0.089988574 0.07837715 1.016 11776637
-0.088053331 0.07837715 1.016 10331740
-0.086118095 0.07837715 1.016 9410638
-0.084182858 0.07837715 1.016 9280081
-0.082247622 0.07837715 1.016 9345874
-0.080312386 0.07837715 1.016 9345626
-0.078608572 0.078608572 1.0190001 9477212
-0.076667622 0.078608572 1.0190001 9476962
-0.074946672 0.078840002 1.0220001 9345376
-0.073000006 0.078840002 1.0220001 9935437
-0.071053334 0.078840002 1.0220001 12830329
-0.069106668 0.078840002 1.0220001 11846805
-0.067357145 0.07907144 1.0250001 8754534
-0.065404765 0.07907144 1.0250001 6193715
-0.063452385 0.07907144 1.0250001 5272613
-0.061500005 0.07907144 1.0250001 5469184
-0.059721906 0.079302855 1.028 5929735
-0.057932384 0.079534285 1.031 7371595
-0.055968571 0.079534285 1.031 11187589
-0.054371431 0.080074295 1.0380001 13222021
-0.052394293 0.080074295 1.0380001 12629884
-0.050562855 0.08030571 1.041 12497262
-0.048579998 0.08030571 1.041 15260568
-0.046731427 0.080537148 1.044 16511146
-0.044871431 0.080768578 1.0470001 16774575
-0.042877145 0.080768578 1.0470001 16446648
-0.13097334 0.081735246 1.034 16511946
-0.12900382 0.081735246 1.034 15458481
-0.12629715 0.081260949 1.028 12497796
-0.12433904 0.081260949 1.028 9935495
-0.12238095 0.081260949 1.028 7040603
-0.12007144 0.081023812 1.0250001 5995321
-0.11811905 0.081023812 1.0250001 6061114
-0.11616668 0.081023812 1.0250001 8880231
-0.11388 0.080786668 1.0220001 13683120
-0.11193334 0.080786668 1.0220001 13024633
-0.10998667 0.080786668 1.0220001 9340225
-0.10804 0.080786668 1.0220001 8552269
-0.10578191 0.080549523 1.0190001 8618062
-0.10384095 0.080549523 1.0190001 8945744
-0.1019 0.080549523 1.0190001 9208916
-0.099959053 0.080549523 1.0190001 9076814
-0.098018102 0.080549523 1.0190001 8747849
-0.096077144 0.080549523 1.0190001 8944967
-0.094136193 0.080549523 1.0190001 12037238
-0.092195243 0.080549523 1.0190001 12696445
-0.089988574 0.080312386 1.016 12235894
-0.088053331 0.080312386 1.016 10726255
-0.086118095 0.080312386 1.016 9476188
-0.084182858 0.080312386 1.016 8756058
-0.082247622 0.080312386 1.016 8756058
-0.080312386 0.080312386 1.016 9214306
-0.078608572 0.080549523 1.0190001 9345892
-0.076667622 0.080549523 1.0190001 9607783
-0.074946672 0.080786668 1.0220001 10002541
-0.073000006 0.080786668 1.0220001 11117672
-0.071053334 0.080786668 1.0220001 13552013
-0.069106668 0.080786668 1.0220001 13091723
-0.067357145 0.081023812 1.0250001 12433793
-0.065404765 0.081023812 1.0250001 8755323
-0.063452385 0.081023812 1.0250001 6320982
-0.061500005 0.081023812 1.0250001 6126891
-0.059721906 0.081260949 1.028 7705923
-0.057932384 0.081498094 1.031 9541511
-0.05613143 0.081735246 1.034 11383715
-0.054371431 0.082051434 1.0380001 12762717
-0.052394293 0.082051434 1.0380001 13025889
-0.050417144 0.082051434 1.0380001 12892295
-0.048579998 0.082288571 1.041 14800292
-0.046731427 0.082525715 1.044 16445860
-0.044742856 0.082525715 1.044 16776110
-0.042754289 0.082525715 1.044 16513213
-0.12900382 0.08370477 1.034 15853243
-0.12666573 0.083461903 1.031 12234628
-0.12433904 0.083219044 1.028 11447157
-0.12238095 0.083219044 1.028 7894335
-0.12042286 0.083219044 1.028 7307017
-0.11846476 0.083219044 1.028 7635982
-0.11616668 0.0829762 1.0250001 11641442
-0.11421429 0.0829762 1.0250001 13746818
-0.11193334 0.082733333 1.0220001 13155721
-0.10998667 0.082733333 1.0220001 10721380
-0.10804 0.082733333 1.0220001 8815198
-0.10609334 0.082733333 1.0220001 8815198
-0.10414667 0.082733333 1.0220001 9208398
-0.1022 0.082733333 1.0220001 9011019
-0.10025334 0.082733333 1.0220001 8879433
-0.098306671 0.082733333 1.0220001 8682054
-0.096360005 0.082733333 1.0220001 9076546
-0.09441334 0.082733333 1.0220001 13089919
-0.092466667 0.082733333 1.0220001 13353600
-0.090254292 0.082490481 1.0190001 13287807
-0.088313334 0.082490481 1.0190001 11252867
-0.086372383 0.082490481 1.0190001 9805421
-0.084431432 0.082490481 1.0190001 8756567
-0.082490481 0.082490481 1.0190001 8822360
-0.080549523 0.082490481 1.0190001 9345874
-0.078840002 0.082733333 1.0220001 9345874
-0.076893337 0.082733333 1.0220001 9345372
-0.074946672 0.082733333 1.0220001 10200681
-0.073214293 0.0829762 1.0250001 12365683
-0.071261905 0.0829762 1.0250001 13484164
-0.069309533 0.0829762 1.0250001 13615473
-0.067357145 0.0829762 1.0250001 13483887
-0.065404765 0.0829762 1.0250001 11712139
-0.063452385 0.0829762 1.0250001 8159317
-0.06168 0.083219044 1.028 7045376
-0.059721906 0.083219044 1.028 9348126
-0.057932384 0.083461903 1.031 11842178
-0.05613143 0.08370477 1.034 10921076
-0.054371431 0.084028579 1.0380001 11051066
-0.052394293 0.084028579 1.0380001 12761684
-0.050417144 0.084028579 1.0380001 12301941
-0.048579998 0.084271431 1.041 14736282
-0.046731427 0.08451429 1.044 16315562
-0.044742856 0.08451429 1.044 16776370
-0.042754289 0.08451429 1.044 16446905
-0.12900382 0.085674286 1.034 15656637
-0.12666573 0.085425712 1.031 10919541
-0.1247019 0.085425712 1.031 10789218
-0.12238095 0.085177138 1.028 10855011
-0.12042286 0.085177138 1.028 11250516
-0.11846476 0.085177138 1.028 12697962
-0.11616668 0.08492858 1.0250001 12958840
-0.11421429 0.08492858 1.0250001 12958840
-0.11193334 0.084680006 1.0220001 12958081
-0.10998667 0.084680006 1.0220001 13089667
-0.10804 0.084680006 1.0220001 11445904
-0.10609334 0.084680006 1.0220001 9406321
-0.10414667 0.084680006 1.0220001 8618062
-0.1022 0.084680006 1.0220001 8289097
-0.10025334 0.084680006 1.0220001 9075538
-0.098306671 0.084680006 1.0220001 11115121
-0.096360005 0.084680006 1.0220001 12233075
-0.09441334 0.084680006 1.0220001 13483142
-0.092195243 0.084431432 1.0190001 13287537
-0.090254292 0.084431432 1.0190001 13484916
-0.088313334 0.084431432 1.0190001 12434065
-0.086372383 0.084431432 1.0190001 11973514
-0.084431432 0.084431432 1.0190001 10595439
-0.082490481 0.084431432 1.0190001 9674337
-0.080786668 0.084680006 1.0220001 9346387
-0.078840002 0.084680006 1.0220001 9806938
-0.076893337 0.084680006 1.0220001 11118703
-0.075166672 0.08492858 1.0250001 12697735
-0.073214293 0.08492858 1.0250001 12497782
-0.071261905 0.08492858 1.0250001 10721371
-0.069309533 0.08492858 1.0250001 12233552
-0.067357145 0.08492858 1.0250001 13615205
-0.065596186 0.085177138 1.028 13024644
-0.063638091 0.085177138 1.028 12695679
-0.061860003 0.085425712 1.031 12171879
-0.059896193 0.085425712 1.031 12237672
-0.058100954 0.085674286 1.034 11646062
-0.056348577 0.086005718 1.0380001 10395995
-0.054371431 0.086005718 1.0380001 10527061
-0.052394293 0.086005718 1.0380001 11974507
-0.050562855 0.086254284 1.041 12170337
-0.048579998 0.086254284 1.041 14933643
-0.046731427 0.086502858 1.044 16446896
-0.044871431 0.086751431 1.0470001 16776118
-0.042877145 0.086751431 1.0470001 16513470
-0.12666573 0.087389529 1.031 10656880
-0.1247019 0.087389529 1.031 10460212
-0.12273809 0.087389529 1.031 11710279
-0.12042286 0.087135233 1.028 12628092
-0.11846476 0.087135233 1.028 13680780
-0.11616668 0.08688096 1.0250001 13485193
-0.11421429 0.08688096 1.0250001 11971954
-0.11193334 0.086626671 1.0220001 12365161
-0.10998667 0.086626671 1.0220001 13088884
-0.10804 0.086626671 1.0220001 13023643
-0.10609334 0.086626671 1.0220001 10984060
-0.10414667 0.086626671 1.0220001 8881995
-0.1022 0.086626671 1.0220001 8750409
-0.10025334 0.086626671 1.0220001 9930570
-0.098306671 0.086626671 1.0220001 12496497
-0.096360005 0.086626671 1.0220001 13219972
-0.094136193 0.086372383 1.0190001 12693628
-0.092195243 0.086372383 1.0190001 12168297
-0.090254292 0.086372383 1.0190001 12760434
-0.088313334 0.086372383 1.0190001 13220999
-0.086372383 0.086372383 1.0190001 13089413
-0.084431432 0.086372383 1.0190001 12106363
-0.082490481 0.086372383 1.0190001 10593124
-0.080786668 0.086626671 1.0220001 9346117
-0.078840002 0.086626671 1.0220001 10004047
-0.076893337 0.086626671 1.0220001 12366203
-0.075166672 0.08688096 1.0250001 13024133
-0.073214293 0.08688096 1.0250001 12760452
-0.071261905 0.08688096 1.0250001 9141837
-0.069309533 0.08688096 1.0250001 9733142
-0.067554288 0.087135233 1.028 11509553
-0.065596186 0.087135233 1.028 13613172
-0.063638091 0.087135233 1.028 14139516
-0.061860003 0.087389529 1.031 13812105
-0.059896193 0.087389529 1.031 13088382
-0.058100954 0.08764381 1.034 11645812
-0.056348577 0.087982871 1.0380001 10066780
-0.054371431 0.087982871 1.0380001 10002516
-0.052394293 0.087982871 1.0380001 10397274
-0.050562855 0.088237144 1.041 11116863
-0.048579998 0.088237144 1.041 15590787
-0.046597145 0.088237144 1.041 16578486
-0.1247019 0.08935333 1.031 10525264
-0.12273809 0.08935333 1.031 12104296
-0.12077429 0.08935333 1.031 12957840
-0.11881047 0.08935333 1.031 13286805
-0.11650667 0.089093328 1.028 11974507
-0.11421429 0.08883334 1.0250001 10132303
-0.11226191 0.08883334 1.0250001 10722923
-0.11030953 0.08883334 1.0250001 11972990
-0.10835715 0.08883334 1.0250001 12563584
-0.10609334 0.088573337 1.0220001 13287307
-0.10414667 0.088573337 1.0220001 12234365
-0.1022 0.088573337 1.0220001 11115884
-0.10025334 0.088573337 1.0220001 12036727
-0.098306671 0.088573337 1.0220001 13615759
-0.096360005 0.088573337 1.0220001 12301941
-0.094136193 0.088313334 1.0190001 9275463
-0.092195243 0.088313334 1.0190001 7567439
-0.090254292 0.088313334 1.0190001 7106888
-0.088313334 0.088313334 1.0190001 9210186
-0.086372383 0.088313334 1.0190001 12368250
-0.084431432 0.088313334 1.0190001 12500079
-0.082733333 0.088573337 1.0220001 12697458
-0.080786668 0.088573337 1.0220001 12566126
-0.078840002 0.088573337 1.0220001 12829298
-0.076893337 0.088573337 1.0220001 12432773
-0.075166672 0.08883334 1.0250001 10853741
-0.073214293 0.08883334 1.0250001 9535588
-0.071261905 0.08883334 1.0250001 9009244
-0.069309533 0.08883334 1.0250001 9141815
-0.067554288 0.089093328 1.028 8812850
-0.065596186 0.089093328 1.028 10587707
-0.063638091 0.089093328 1.028 13745771
-0.061860003 0.08935333 1.031 13155206
-0.059896193 0.08935333 1.031 11970932
-0.058100954 0.089613333 1.034 10790501
-0.056348577 0.089960009 1.0380001 10066778
-0.054528572 0.090220004 1.041 10133348
-0.052545715 0.090220004 1.041 11580794
-0.050562855 0.090220004 1.041 12302189
-0.048579998 0.090220004 1.041 15723425
-0.046597145 0.090220004 1.041 16578493
-0.1247019 0.091317147 1.031 10917431
-0.12273809 0.091317147 1.031 12299084
-0.12077429 0.091317147 1.031 12827277
-0.11881047 0.091317147 1.031 12235140
-0.11650667 0.091051422 1.028 10463585
-0.11454857 0.091051422 1.028 9608276
-0.11226191 0.090785727 1.0250001 9674071
-0.11030953 0.090785727 1.0250001 10200415
-0.10835715 0.090785727 1.0250001 12168036
-0.10640477 0.090785727 1.0250001 13286517
-0.10414667 0.090520002 1.0220001 13417608
-0.1022 0.090520002 1.0220001 13088643
-0.10025334 0.090520002 1.0220001 12957836
-0.098306671 0.090520002 1.0220001 12826250
-0.096360005 0.090520002 1.0220001 10791807
-0.09441334 0.090520002 1.0220001 6844227
-0.092466667 0.090520002 1.0220001 5535803
-0.090254292 0.090254292 1.0190001 5206838
-0.088313334 0.090254292 1.0190001 6977280
-0.086372383 0.090254292 1.0190001 10069548
-0.084680006 0.090520002 1.0220001 12695400
-0.082733333 0.090520002 1.0220001 13419123
-0.080786668 0.090520002 1.0220001 13483651
-0.078840002 0.090520002 1.0220001 13352065
-0.076893337 0.090520002 1.0220001 12695427
-0.075166672 0.090785727 1.0250001 9011019
-0.073214293 0.090785727 1.0250001 9206086
-0.071261905 0.090785727 1.0250001 9469258
-0.069309533 0.090785727 1.0250001 9469510
-0.067554288 0.091051422 1.028 8745787
-0.065596186 0.091051422 1.028 8681472
-0.063823812 0.091317147 1.031 13089596
-0.061860003 0.091317147 1.031 12761995
-0.059896193 0.091317147 1.031 11314549
-0.058100954 0.091582857 1.034 10265438
-0.056348577 0.091937155 1.0380001 9870680
-0.054528572 0.092202857 1.041 10132305
-0.052545715 0.092202857 1.041 11777130
-0.050562855 0.092202857 1.041 12893560
-0.048720002 0.092468575 1.044 16512175
-0.046731427 0.092468575 1.044 16578754
-0.12506478 0.093552381 1.034 10919791
-0.12273809 0.093280949 1.031 11117170
-0.12077429 0.093280949 1.031 11578988
-0.11881047 0.093280949 1.031 11052644
-0.11650667 0.093009517 1.028 10398312
-0.11454857 0.093009517 1.028 9871968
-0.11226191 0.092738099 1.0250001 9740645
-0.11030953 0.092738099 1.0250001 9609059
-0.10835715 0.092738099 1.0250001 10723659
-0.10640477 0.092738099 1.0250001 11973726
-0.10445239 0.092738099 1.0250001 13023602
-0.10250001 0.092738099 1.0250001 14076290
-0.10054763 0.092738099 1.0250001 12498823
-0.098306671 0.092466667 1.0220001 8814415
-0.096360005 0.092466667 1.0220001 6913870
-0.09441334 0.092466667 1.0220001 6190147
-0.092466667 0.092466667 1.0220001 5864526
-0.090520002 0.092466667 1.0220001 5403975
-0.088573337 0.092466667 1.0220001 6059074
-0.086626671 0.092466667 1.0220001 6322246
-0.084680006 0.092466667 1.0220001 9408564
-0.082733333 0.092466667 1.0220001 12764007
-0.080786668 0.092466667 1.0220001 13024887
-0.07907144 0.092738099 1.0250001 11577441
-0.077119052 0.092738099 1.0250001 10524492
-0.075166672 0.092738099 1.0250001 9142839
-0.073214293 0.092738099 1.0250001 9011035
-0.071470477 0.093009517 1.028 9076828
-0.069512382 0.093009517 1.028 9208139
-0.067554288 0.093009517 1.028 8747588
-0.065787621 0.093280949 1.031 9076303
-0.063823812 0.093280949 1.031 11905402
-0.061860003 0.093280949 1.031 12368736
-0.059896193 0.093280949 1.031 10921290
-0.058100954 0.093552381 1.034 10134381
-0.056348577 0.093914293 1.0380001 9739623
-0.054528572 0.094185717 1.041 10329689
-0.052545715 0.094185717 1.041 11645549
-0.050562855 0.094185717 1.041 13484932
-0.048720002 0.094457142 1.044 16776638
-0.046731427 0.094457142 1.044 16579524
-0.12506478 0.095521905 1.034 11775343
-0.12309524 0.095521905 1.034 11841136
-0.12112572 0.095521905 1.034 11579767
-0.1191562 0.095521905 1.034 11316595
-0.11718667 0.095521905 1.034 10332787
-0.11454857 0.094967619 1.028 9806443
-0.11226191 0.094690487 1.0250001 9806695
-0.11030953 0.094690487 1.0250001 9411937
-0.10835715 0.094690487 1.0250001 9805385
-0.10640477 0.094690487 1.0250001 10397522
-0.10445239 0.094690487 1.0250001 12365935
-0.10250001 0.094690487 1.0250001 14142346
-0.10054763 0.094690487 1.0250001 11711878
-0.098306671 0.09441334 1.0220001 6908989
-0.096360005 0.09441334 1.0220001 5469765
-0.09441334 0.09441334 1.0220001 5930316
-0.092466667 0.09441334 1.0220001 6323532
-0.090520002 0.09441334 1.0220001 5862981
-0.088573337 0.09441334 1.0220001 5535531
-0.086626671 0.09441334 1.0220001 4877601
-0.084680006 0.09441334 1.0220001 5796096
-0.082733333 0.09441334 1.0220001 11256900
-0.080786668 0.09441334 1.0220001 12763289
-0.07907144 0.094690487 1.0250001 11052671
-0.077119052 0.094690487 1.0250001 9604160
-0.075166672 0.094690487 1.0250001 9077816
-0.073214293 0.094690487 1.0250001 9142871
-0.071470477 0.094967619 1.028 9077078
-0.069512382 0.094967619 1.028 9077064
-0.067554288 0.094967619 1.028 8813892
-0.065787621 0.095244765 1.031 9274184
-0.063823812 0.095244765 1.031 12892799
-0.061860003 0.095244765 1.031 12106624
-0.059896193 0.095244765 1.031 11251315
-0.058100954 0.095521905 1.034 10266737
-0.056348577 0.095891438 1.0380001 9871979
-0.054528572 0.09616857 1.041 10789729
-0.052545715 0.09616857 1.041 11447659
-0.050708573 0.096445717 1.044 14011010
-0.048860002 0.096722864 1.0470001 16775858
-0.046865717 0.096722864 1.0470001 16578491
-0.12506478 0.097491436 1.034 11841156
-0.12309524 0.097491436 1.034 11906949
-0.12112572 0.097491436 1.034 11973501
-0.1191562 0.097491436 1.034 12105087
-0.11718667 0.097491436 1.034 11120502
-0.11488286 0.097208567 1.031 10002021
-0.11259048 0.096925713 1.028 9609316
-0.11030953 0.096642859 1.0250001 9609316
-0.10835715 0.096642859 1.0250001 9740121
-0.10640477 0.096642859 1.0250001 10003293
-0.10445239 0.096642859 1.0250001 11972976
-0.10250001 0.096642859 1.0250001 13815180
-0.10054763 0.096642859 1.0250001 11908734
-0.098306671 0.096360005 1.0220001 6382122
-0.096360005 0.096360005 1.0220001 5142863
-0.09441334 0.096360005 1.0220001 5537621
-0.092466667 0.096360005 1.0220001 6061641
-0.090520002 0.096360005 1.0220001 6061641
-0.088573337 0.096360005 1.0220001 5733432
-0.086626671 0.096360005 1.0220001 5338674
-0.084680006 0.096360005 1.0220001 6190901
-0.0829762 0.096642859 1.0250001 10270067
-0.081023812 0.096642859 1.0250001 12500349
-0.07907144 0.096642859 1.0250001 10658145
-0.077119052 0.096642859 1.0250001 9603926
-0.075166672 0.096642859 1.0250001 8814410
-0.073428571 0.096925713 1.028 9011798
-0.071470477 0.096925713 1.028 9011798
-0.069512382 0.096925713 1.028 9076803
-0.06775143 0.097208567 1.031 9011010
-0.065787621 0.097208567 1.031 10193733
-0.063823812 0.097208567 1.031 13417590
-0.061860003 0.097208567 1.031 13155208
-0.060070477 0.097491436 1.034 13681552
-0.058100954 0.097491436 1.034 12566653
-0.056348577 0.097868577 1.0380001 11382379
-0.054528572 0.098151423 1.041 11381877
-0.052545715 0.098151423 1.041 10789740
-0.050708573 0.098434284 1.044 11971445
-0.048860002 0.098717146 1.0470001 16775362
-0.047000002 0.099000007 1.0500001 16579517
-0.045171428 0.09937714 1.054 16777155
-0.13062572 0.10071143 1.0470001 16579524
-0.12554859 0.099845722 1.0380001 13089924
-0.12309524 0.099460959 1.034 13089924
-0.12112572 0.099460959 1.034 13354386
-0.1191562 0.099460959 1.034 12235905
-0.11718667 0.099460959 1.034 11579254
-0.11521715 0.099460959 1.034 10329187
-0.11259048 0.098883808 1.028 9279831
-0.11063238 0.098883808 1.028 9740382
-0.10835715 0.098595247 1.0250001 9543768
-0.10640477 0.098595247 1.0250001 9938526
-0.10445239 0.098595247 1.0250001 11972722
-0.10250001 0.098595247 1.0250001 13749133
-0.10054763 0.098595247 1.0250001 11384196
-0.098595247 0.098595247 1.0250001 6647100
-0.096360005 0.098306671 1.0220001 5733456
-0.09441334 0.098306671 1.0220001 6062421
-0.092466667 0.098306671 1.0220001 5931338
-0.090785727 0.098595247 1.0250001 5602373
-0.08883334 0.098595247 1.0250001 5601846
-0.08688096 0.098595247 1.0250001 5272881
-0.08492858 0.098595247 1.0250001 6191392
-0.0829762 0.098595247 1.0250001 10731109
-0.081023812 0.098595247 1.0250001 12500097
-0.07907144 0.098595247 1.0250001 11513202
-0.077119052 0.098595247 1.0250001 9932371
-0.075386666 0.098883808 1.028 8813890
-0.073428571 0.098883808 1.028 9076810
-0.071470477 0.098883808 1.028 8945224
-0.069512382 0.098883808 1.028 9076535
-0.06775143 0.099172384 1.031 9668672
-0.065787621 0.099172384 1.031 11441778
-0.063823812 0.099172384 1.031 13547154
-0.061860003 0.099172384 1.031 13285502
-0.060070477 0.099460959 1.034 13680260
-0.058100954 0.099460959 1.034 13156757
-0.056348577 0.099845722 1.0380001 12761999
-0.054528572 0.10013428 1.041 12368779
-0.052545715 0.10013428 1.041 10658161
-0.050708573 0.10042286 1.044 11905625
-0.048860002 0.10071143 1.0470001 16776106
-0.047000002 0.10100001 1.0500001 16579776
-0.045171428 0.10138477 1.054 16513983
-0.04316381 0.10138477 1.054 16513220
-0.13062572 0.10270572 1.0470001 16579015
-0.12826286 0.10241143 1.044 15394741
-0.12554859 0.10182287 1.0380001 13946269
-0.12357144 0.10182287 1.0380001 12959374
-0.12112572 0.10143048 1.034 11973242
-0.1191562 0.10143048 1.034 11644277
-0.11718667 0.10143048 1.034 11382640
-0.11521715 0.10143048 1.034 11053675
-0.11291905 0.10113619 1.031 9937259
-0.11063238 0.10084191 1.028 9739880
-0.10867429 0.10084191 1.028 10397024
-0.10640477 0.10054763 1.0250001 11976056
-0.10445239 0.10054763 1.0250001 13419636
-0.10250001 0.10054763 1.0250001 13945980
-0.10054763 0.10054763 1.0250001 12302218
-0.098595247 0.10054763 1.0250001 10196842
-0.096642859 0.10054763 1.0250001 6652027
-0.094690487 0.10054763 1.0250001 5928304
-0.092738099 0.10054763 1.0250001 4684097
-0.090785727 0.10054763 1.0250001 4486718
-0.08883334 0.10054763 1.0250001 5863724
-0.08688096 0.10054763 1.0250001 7837514
-0.08492858 0.10054763 1.0250001 10067557
-0.0829762 0.10054763 1.0250001 12567691
-0.081023812 0.10054763 1.0250001 13156984
-0.079302855 0.10084191 1.028 13485949
-0.07734476 0.10084191 1.028 11906688
-0.075386666 0.10084191 1.028 10196070
-0.073428571 0.10084191 1.028 8748892
-0.071470477 0.10084191 1.028 8485720
-0.069512382 0.10084191 1.028 9734231
-0.06775143 0.10113619 1.031 12629123
-0.065787621 0.10113619 1.031 12497537
-0.063823812 0.10113619 1.031 11247470
-0.061860003 0.10113619 1.031 10656085
-0.060070477 0.10143048 1.034 10656085
-0.058325719 0.10182287 1.0380001 12102531
-0.056348577 0.10182287 1.0380001 13747356
-0.054528572 0.10211714 1.041 12631154
-0.052697144 0.10241143 1.044 9209918
-0.050708573 0.10241143 1.044 11907192
-0.048860002 0.10270572 1.0470001 16776131
-0.047000002 0.10300001 1.0500001 16579765
-0.045171428 0.10339238 1.054 16579765
-0.04316381 0.10339238 1.054 16447688
-0.13062572 0.10470001 1.0470001 16579024
-0.12826286 0.1044 1.044 15592129
-0.12591143 0.1041 1.041 14867371
-0.12357144 0.10380001 1.0380001 11972479
-0.12159429 0.10380001 1.0380001 11381591
-0.11961716 0.10380001 1.0380001 11184212
-0.11718667 0.10340001 1.034 11186792
-0.11521715 0.10340001 1.034 11120999
-0.11324762 0.10340001 1.034 10528871
-0.11095524 0.1031 1.031 10265699
-0.10867429 0.1028 1.028 11184491
-0.10671619 0.1028 1.028 12829316
-0.10445239 0.10250001 1.0250001 13813140
-0.10250001 0.10250001 1.0250001 13221003
-0.10054763 0.10250001 1.0250001 12892027
-0.098595247 0.10250001 1.0250001 11905132
-0.096642859 0.10250001 1.0250001 10330999
-0.094690487 0.10250001 1.0250001 7567693
-0.092738099 0.10250001 1.0250001 4356365
-0.090785727 0.10250001 1.0250001 4553744
-0.08883334 0.10250001 1.0250001 6650657
-0.08688096 0.10250001 1.0250001 9940307
-0.08492858 0.10250001 1.0250001 12235392
-0.083219044 0.1028 1.028 13156494
-0.081260949 0.1028 1.028 13156219
-0.079302855 0.1028 1.028 13287805
-0.07734476 0.1028 1.028 13156748
-0.075386666 0.1028 1.028 11840888
-0.073428571 0.1028 1.028 10329934
-0.071679048 0.1031 1.031 9079867
-0.069715239 0.1031 1.031 10260566
-0.06775143 0.1031 1.031 13023872
-0.065787621 0.1031 1.031 13025178
-0.064009525 0.10340001 1.034 8682840
-0.062040005 0.10340001 1.034 8094244
-0.060070477 0.10340001 1.034 8160037
-0.058325719 0.10380001 1.0380001 11706195
-0.056511428 0.1041 1.041 13087848
-0.054685716 0.1044 1.044 12299631
-0.052697144 0.1044 1.044 10654806
-0.050854288 0.10470001 1.0470001 12170364
-0.048860002 0.10470001 1.0470001 16776388
-0.047000002 0.105 1.0500001 16579256
-0.045171428 0.1054 1.054 16447670
-0.04316381 0.1054 1.054 16446905
-0.13262001 0.10669429 1.0470001 16579013
-0.13062572 0.10669429 1.0470001 16579015
-0.12826286 0.10638857 1.044 15723706
-0.12591143 0.10608286 1.041 15064479
-0.12309524 0.10536952 1.034 11774829
-0.12112572 0.10536952 1.034 9081682
-0.1191562 0.10536952 1.034 6910513
-0.11718667 0.10536952 1.034 9343066
-0.11521715 0.10536952 1.034 12501130
-0.11324762 0.10536952 1.034 12695677
-0.11095524 0.10506381 1.031 12893056
-0.10899143 0.10506381 1.031 13024131
-0.10671619 0.1047581 1.028 13155717
-0.1047581 0.1047581 1.028 11641484
-0.10250001 0.10445239 1.0250001 9799280
-0.10054763 0.10445239 1.0250001 10851672
-0.098595247 0.10445239 1.0250001 13417599
-0.096642859 0.10445239 1.0250001 12368000
-0.094690487 0.10445239 1.0250001 11973242
-0.092738099 0.10445239 1.0250001 9216607
-0.090785727 0.10445239 1.0250001 8032333
-0.08883334 0.10445239 1.0250001 10001780
-0.08688096 0.10445239 1.0250001 13028258
-0.08492858 0.10445239 1.0250001 12696454
-0.083219044 0.1047581 1.028 11643766
-0.081260949 0.1047581 1.028 11250523
-0.079302855 0.1047581 1.028 11053144
-0.07734476 0.1047581 1.028 12039267
-0.075386666 0.1047581 1.028 13355127
-0.073428571 0.1047581 1.028 13024617
-0.071679048 0.10506381 1.031 13024617
-0.069715239 0.10506381 1.031 12695425
-0.067948572 0.10536952 1.034 12498046
-0.065979049 0.10536952 1.034 10659160
-0.064009525 0.10536952 1.034 7172131
-0.062040005 0.10536952 1.034 6322739
-0.060302865 0.10577715 1.0380001 5862188
-0.058325719 0.10577715 1.0380001 8617783
-0.056674287 0.10638857 1.044 11710054
-0.054685716 0.10638857 1.044 11314792
-0.052848574 0.10669429 1.0470001 10327897
-0.050854288 0.10669429 1.0470001 12302466
-0.049000002 0.10700001 1.0500001 16776904
-0.047000002 0.10700001 1.0500001 16645567
-0.045171428 0.10740761 1.054 16448188
-0.043286666 0.10771334 1.057 16513220
-0.041273333 0.10771334 1.057 16644806
-0.13262001 0.10868858 1.0470001 16381125
-0.13062572 0.10868858 1.0470001 16380612
-0.12826286 0.10837714 1.044 16577991
-0.12591143 0.10806572 1.041 14933920
-0.12309524 0.10733905 1.034 11249512
-0.12112572 0.10733905 1.034 8819775
-0.1191562 0.10733905 1.034 6714399
-0.11764001 0.1077543 1.0380001 8881674
-0.11521715 0.10733905 1.034 11513394
-0.11324762 0.10733905 1.034 13482097
-0.11095524 0.10702762 1.031 14271613
-0.10899143 0.10702762 1.031 14075799
-0.10671619 0.10671619 1.028 12036216
-0.1047581 0.10671619 1.028 10787180
-0.10250001 0.10640477 1.0250001 9142355
-0.10054763 0.10640477 1.0250001 10061613
-0.098595247 0.10640477 1.0250001 12035403
-0.096642859 0.10640477 1.0250001 13220211
-0.094690487 0.10640477 1.0250001 13088625
-0.092738099 0.10640477 1.0250001 11317876
-0.090785727 0.10640477 1.0250001 11054704
-0.08883334 0.10640477 1.0250001 11907978
-0.08688096 0.10640477 1.0250001 12763287
-0.08492858 0.10640477 1.0250001 12368261
-0.083219044 0.10671619 1.028 10526057
-0.081260949 0.10671619 1.028 9543248
-0.079302855 0.10671619 1.028 9543248
-0.07734476 0.10671619 1.028 10920524
-0.075606667 0.10702762 1.031 12104798
-0.073642857 0.10702762 1.031 14008178
-0.071679048 0.10702762 1.031 14666108
-0.069918096 0.10733905 1.034 13616543
-0.067948572 0.10733905 1.034 10261100
-0.065979049 0.10733905 1.034 8555338
-0.064009525 0.10733905 1.034 6976306
-0.062280003 0.1077543 1.0380001 5929528
-0.060302865 0.1077543 1.0380001 5666356
-0.058494285 0.10806572 1.041 7700765
-0.056674287 0.10837714 1.044 10858829
-0.054685716 0.10837714 1.044 10922332
-0.052848574 0.10868858 1.0470001 10461781
-0.050854288 0.10868858 1.0470001 12499840
-0.049000002 0.109 1.0500001 16776899
-0.047000002 0.109 1.0500001 16645576
-0.045171428 0.10941524 1.054 16448197
-0.043286666 0.10972667 1.057 16579011
-0.041273333 0.10972667 1.057 16644804
-0.13262001 0.11068286 1.0470001 16381132
-0.13062572 0.11068286 1.0470001 16578763
-0.12826286 0.11036572 1.044 16776399
-0.12591143 0.11004857 1.041 15131560
-0.12357144 0.10973144 1.0380001 10986601
-0.12159429 0.10973144 1.0380001 8623972
-0.11961716 0.10973144 1.0380001 6518596
-0.11764001 0.10973144 1.0380001 7372086
-0.11521715 0.10930857 1.034 8556360
-0.11324762 0.10930857 1.034 12564290
-0.11127809 0.10930857 1.034 13880150
-0.10899143 0.10899143 1.031 13549928
-0.10702762 0.10899143 1.031 9470762
-0.1047581 0.10867429 1.028 9339723
-0.1028 0.10867429 1.028 9273930
-0.10054763 0.10835715 1.0250001 9536080
-0.098595247 0.10835715 1.0250001 9075529
-0.096642859 0.10835715 1.0250001 11312431
-0.094690487 0.10835715 1.0250001 13615186
-0.092738099 0.10835715 1.0250001 12828031
-0.090785727 0.10835715 1.0250001 13617547
-0.08883334 0.10835715 1.0250001 12631694
-0.08688096 0.10835715 1.0250001 11118455
-0.085177138 0.10867429 1.028 10330711
-0.083219044 0.10867429 1.028 10264918
-0.081260949 0.10867429 1.028 9543523
-0.079302855 0.10867429 1.028 9477730
-0.077570483 0.10899143 1.031 10067557
-0.075606667 0.10899143 1.031 10264936
-0.073642857 0.10899143 1.031 12629080
-0.071679048 0.10899143 1.031 14208112
-0.069918096 0.10930857 1.034 12959369
-0.067948572 0.10930857 1.034 7761722
-0.065979049 0.10930857 1.034 6257480
-0.064009525 0.10930857 1.034 6389066
-0.062280003 0.10973144 1.0380001 6192970
-0.060302865 0.10973144 1.0380001 5995591
-0.058494285 0.11004857 1.041 8620111
-0.056674287 0.11036572 1.044 12238726
-0.05484286 0.11068286 1.0470001 12104794
-0.052848574 0.11068286 1.0470001 11052106
-0.050854288 0.11068286 1.0470001 12828290
-0.049000002 0.11100001 1.0500001 16776127
-0.047179051 0.11142286 1.054 16645576
-0.045300003 0.11174 1.057 16513990
-0.13062572 0.11267715 1.0470001 16645074
-0.12826286 0.11235429 1.044 16776660
-0.12591143 0.11203143 1.041 15132862
-0.12357144 0.11170858 1.0380001 11053696
-0.12159429 0.11170858 1.0380001 9871729
-0.11961716 0.11170858 1.0380001 6976837
-0.11764001 0.11170858 1.0380001 5930023
-0.11521715 0.11127809 1.034 6193195
-0.11324762 0.11127809 1.034 11052106
-0.11127809 0.11127809 1.034 12762724
-0.10930857 0.11127809 1.034 12563044
-0.10702762 0.11095524 1.031 9602359
-0.10506381 0.11095524 1.031 9273934
-0.1028 0.11063238 1.028 9471313
-0.10084191 0.11063238 1.028 9274191
-0.098595247 0.11030953 1.0250001 8813640
-0.096642859 0.11030953 1.0250001 9667869
-0.094690487 0.11030953 1.0250001 11575866
-0.093009517 0.11063238 1.028 13351533
-0.090785727 0.11030953 1.0250001 13877877
-0.08883334 0.11030953 1.0250001 12631703
-0.087135233 0.11063238 1.028 9934190
-0.085177138 0.11063238 1.028 9477453
