# .PCD v0.7 - Point Cloud Data file format
VERSION 0.7
FIELDS x y z rgba
SIZE 4 4 4 4
TYPE F F F U
COUNT 1 1 1 1
WIDTH 1117
HEIGHT 1
VIEWPOINT 0 0 0 1 0 0 0
POINTS 1117
DATA ascii
-0.098984763 0.16959812 0.66200006 7499066
-0.097723819 0.16959812 0.66200006 8089651
-0.096317142 0.16934191 0.66100001 8023858
-0.094626673 0.16857335 0.65800005 8745249
-0.093373336 0.16857335 0.65800005 10850625
-0.092120007 0.16857335 0.65800005 11444079
-0.090866677 0.16857335 0.65800005 11444079
-0.089477144 0.16831714 0.65700001 9542011
-0.087957144 0.16780476 0.65500003 7765600
-0.086709529 0.16780476 0.65500003 4483137
-0.085461907 0.16780476 0.65500003 3693621
-0.084214285 0.16780476 0.65500003 5070117
-0.08296667 0.16780476 0.65500003 6780735
-0.081594288 0.16754858 0.65400004 9275209
-0.080348574 0.16754858 0.65400004 11248999
-0.079102859 0.16754858 0.65400004 11446137
-0.077857152 0.16754858 0.65400004 10722414
-0.076611437 0.16754858 0.65400004 10262363
-0.075365715 0.16754858 0.65400004 10130777
-0.07412 0.16754858 0.65400004 10656096
-0.072874293 0.16754858 0.65400004 11182440
-0.071628578 0.16754858 0.65400004 11510131
-0.070382863 0.16754858 0.65400004 10852201
-0.069137141 0.16754858 0.65400004 9735762
-0.067995243 0.16780476 0.65500003 8683074
-0.066747628 0.16780476 0.65500003 7696458
-0.065499999 0.16780476 0.65500003 6314805
-0.064252384 0.16780476 0.65500003 7037184
-0.063004769 0.16780476 0.65500003 8221456
-0.061945714 0.16831714 0.65700001 10060891
-0.060786668 0.16857335 0.65800005 11837302
-0.059623811 0.16882953 0.65900004 11642237
-0.058368575 0.16882953 0.65900004 10128998
-0.057286669 0.16934191 0.66100001 7896927
-0.056027621 0.16934191 0.66100001 5659965
-0.05476857 0.16934191 0.66100001 4021540
-0.05359048 0.16959812 0.66200006 4745263
-0.052408572 0.1698543 0.66300005 5072418
-0.051222861 0.17011048 0.66400003 5006625
-0.049958095 0.17011048 0.66400003 8354828
-0.048840001 0.17062286 0.66600001 10262825
-0.047571428 0.17062286 0.66600001 12232298
-0.046372388 0.17087907 0.66700006 12824435
-0.045169525 0.17113525 0.66800004 11380344
-0.044028569 0.17164762 0.67000002 8090694
-0.042816192 0.17190382 0.671 7696179
-0.041600004 0.17216001 0.67200005 8288316
-0.040440001 0.17267238 0.67400002 8484175
-0.039272383 0.17318477 0.67600006 8221003
-0.037984762 0.17318477 0.67600006 8616011
-0.036860004 0.17395334 0.67900002 11181938
-0.03561905 0.17420952 0.68000001 12102527
-0.034475237 0.17497809 0.68300003 15721142
-0.033320002 0.17574668 0.68600005 16116663
-0.032060001 0.17600286 0.68700004 16775621
-0.10864286 0.17421429 0.67500001 7500627
-0.10688 0.17344001 0.67200005 7634486
-0.10544286 0.17318191 0.671 9871448
-0.10400952 0.17292382 0.67000002 10394219
-0.10181334 0.17137524 0.66400003 9933668
-0.10039715 0.17111716 0.66300005 9274959
-0.098984763 0.17085907 0.66200006 7498548
-0.097723819 0.17085907 0.66200006 7761220
-0.096317142 0.17060095 0.66100001 8024392
-0.094626673 0.16982667 0.65800005 8220733
-0.093373336 0.16982667 0.65800005 8352319
-0.092120007 0.16982667 0.65800005 10128192
-0.090866677 0.16982667 0.65800005 11575638
-0.089477144 0.16956857 0.65700001 10525042
-0.088225715 0.16956857 0.65700001 10196077
-0.086974286 0.16956857 0.65700001 6977651
-0.085461907 0.16905238 0.65500003 6451307
-0.084214285 0.16905238 0.65500003 8027489
-0.08296667 0.16905238 0.65500003 10527623
-0.081719048 0.16905238 0.65500003 11050602
-0.080348574 0.16879429 0.65400004 11313774
-0.079102859 0.16879429 0.65400004 10920547
-0.077857152 0.16879429 0.65400004 9407308
-0.076611437 0.16879429 0.65400004 8290626
-0.075365715 0.16879429 0.65400004 8224833
-0.07412 0.16879429 0.65400004 8947018
-0.072874293 0.16879429 0.65400004 9999706
-0.071628578 0.16879429 0.65400004 11116120
-0.070490479 0.16905238 0.65500003 11576671
-0.069242857 0.16905238 0.65500003 10919768
-0.067995243 0.16905238 0.65500003 11051354
-0.066747628 0.16905238 0.65500003 9802343
-0.065700002 0.16956857 0.65700001 7960139
-0.064448565 0.16956857 0.65700001 8289079
-0.063197143 0.16956857 0.65700001 10920799
-0.062040005 0.16982667 0.65800005 11050868
-0.060879052 0.17008476 0.65900004 11050868
-0.059623811 0.17008476 0.65900004 10131040
-0.058368575 0.17008476 0.65900004 6446632
-0.057286669 0.17060095 0.66100001 5530677
-0.056027621 0.17060095 0.66100001 5596470
-0.054851435 0.17085907 0.66200006 4546370
-0.053671431 0.17111716 0.66300005 5138507
-0.052408572 0.17111716 0.66300005 5466426
-0.051222861 0.17137524 0.66400003 5071668
-0.050108574 0.17189144 0.66600001 6186540
-0.048840001 0.17189144 0.66600001 7831365
-0.047642861 0.17214954 0.66700006 11116098
-0.046372388 0.17214954 0.66700006 12629337
-0.045169525 0.17240763 0.66800004 11708235
-0.043897144 0.17240763 0.66800004 7958034
-0.042816192 0.17318191 0.671 7761997
-0.041600004 0.17344001 0.67200005 8485720
-0.040440001 0.1739562 0.67400002 8222297
-0.039272383 0.17447239 0.67600006 8024918
-0.037984762 0.17447239 0.67600006 8879706
-0.036860004 0.17524667 0.67900002 11182461
-0.03561905 0.17550476 0.68000001 11577198
-0.034525711 0.17653714 0.68400002 15393192
-0.033320002 0.17705333 0.68600005 15788475
-0.032060001 0.17731145 0.68700004 16775884
-0.10864286 0.17550001 0.67500001 8026201
-0.1071981 0.17524001 0.67400002 6650624
-0.10560001 0.17472 0.67200005 9413928
-0.10400952 0.1742 0.67000002 9935476
-0.10181334 0.17264 0.66400003 9343339
-0.10039715 0.17238 0.66300005 8419909
-0.098984763 0.17212 0.66200006 7696186
-0.097723819 0.17212 0.66200006 7761220
-0.096317142 0.17185999 0.66100001 7892806
-0.094770476 0.17134 0.65900004 7761981
-0.093515247 0.17134 0.65900004 7959360
-0.092260011 0.17134 0.65900004 9009443
-0.091004767 0.17134 0.65900004 10588475
-0.08974953 0.17134 0.65900004 11772535
-0.088225715 0.17082001 0.65700001 11114605
-0.086709529 0.17030001 0.65500003 9407826
-0.085461907 0.17030001 0.65500003 9013068
-0.084214285 0.17030001 0.65500003 9998182
-0.08296667 0.17030001 0.65500003 11182456
-0.081719048 0.17030001 0.65500003 11246450
-0.080471434 0.17030001 0.65500003 11049071
-0.079102859 0.17004001 0.65400004 10132071
-0.077857152 0.17004001 0.65400004 8289867
-0.076728575 0.17030001 0.65500003 7437611
-0.075480953 0.17030001 0.65500003 7569197
-0.07412 0.17004001 0.65400004 8289858
-0.072874293 0.17004001 0.65400004 9079374
-0.071738102 0.17030001 0.65500003 10129502
-0.070490479 0.17030001 0.65500003 10458467
-0.069242857 0.17030001 0.65500003 11049823
-0.067995243 0.17030001 0.65500003 11312995
-0.066747628 0.17030001 0.65500003 10591346
-0.065700002 0.17082001 0.65700001 9538658
-0.064448565 0.17082001 0.65700001 9012816
-0.063197143 0.17082001 0.65700001 10789227
-0.062040005 0.17108001 0.65800005 11182466
-0.060879052 0.17134 0.65900004 10261364
-0.059623811 0.17134 0.65900004 8160330
-0.058368575 0.17134 0.65900004 5528610
-0.057286669 0.17185999 0.66100001 5137459
-0.056027621 0.17185999 0.66100001 5334838
-0.054851435 0.17212 0.66200006 4546603
-0.053671431 0.17238 0.66300005 5336119
-0.052487623 0.17264 0.66400003 5598523
-0.051222861 0.17264 0.66400003 5269558
-0.050108574 0.17316 0.66600001 4350464
-0.048840001 0.17316 0.66600001 5929494
-0.047642861 0.17342001 0.66700006 9012548
-0.046372388 0.17342001 0.66700006 12039026
-0.045169525 0.17368001 0.66800004 10656882
-0.043897144 0.17368001 0.66800004 7959369
-0.042816192 0.17445999 0.671 7105841
-0.041600004 0.17472 0.67200005 8092736
-0.0405 0.17550001 0.67500001 8288852
-0.039272383 0.17576002 0.67600006 8420438
-0.038097143 0.17628001 0.67800003 9537130
-0.036914289 0.1768 0.68000001 10984576
-0.035723813 0.17732 0.68200004 10854491
-0.034525711 0.17784001 0.68400002 14802071
-0.033320002 0.17836002 0.68600005 15657398
-0.10864286 0.17678571 0.67500001 8881243
-0.1071981 0.17652382 0.67400002 7898943
-0.10560001 0.17600001 0.67200005 9280596
-0.10416476 0.17573808 0.671 9935726
-0.10212 0.17442858 0.66600001 9212003
-0.10054857 0.17390476 0.66400003 8354888
-0.099134296 0.17364287 0.66300005 7696958
-0.097723819 0.17338097 0.66200006 7892554
-0.096317142 0.17311905 0.66100001 7892554
-0.094770476 0.17259525 0.65900004 7958599
-0.093515247 0.17259525 0.65900004 8550736
-0.092260011 0.17259525 0.65900004 8681786
-0.091004767 0.17259525 0.65900004 8615993
-0.08974953 0.17259525 0.65900004 10325591
-0.088225715 0.17207143 0.65700001 11773037
-0.086709529 0.17154764 0.65500003 11183190
-0.085461907 0.17154764 0.65500003 11183190
-0.084214285 0.17154764 0.65500003 11051379
-0.08296667 0.17154764 0.65500003 10656621
-0.081719048 0.17154764 0.65500003 9866615
-0.080471434 0.17154764 0.65500003 9011306
-0.079223812 0.17154764 0.65500003 8226121
-0.077976197 0.17154764 0.65500003 7831363
-0.076728575 0.17154764 0.65500003 7503674
-0.075480953 0.17154764 0.65500003 7635260
-0.074233338 0.17154764 0.65500003 8159308
-0.072985716 0.17154764 0.65500003 8422480
-0.071738102 0.17154764 0.65500003 8880227
-0.070490479 0.17154764 0.65500003 9143399
-0.069242857 0.17154764 0.65500003 9997664
-0.067995243 0.17154764 0.65500003 11050352
-0.066747628 0.17154764 0.65500003 10788702
-0.065700002 0.17207143 0.65700001 11051874
-0.064448565 0.17207143 0.65700001 10854009
-0.063197143 0.17207143 0.65700001 10854009
-0.062040005 0.17233334 0.65800005 10064510
-0.060879052 0.17259525 0.65900004 7169618
-0.059623811 0.17259525 0.65900004 5794065
-0.058545712 0.17311905 0.66100001 5465100
-0.057286669 0.17311905 0.66100001 5138488
-0.056112386 0.17338097 0.66200006 5072695
-0.054934289 0.17364287 0.66300005 5073197
-0.053752381 0.17390476 0.66400003 5402162
-0.052487623 0.17390476 0.66400003 5401914
-0.05137714 0.17442858 0.66600001 5467707
-0.050108574 0.17442858 0.66600001 5270578
-0.048913337 0.17469049 0.66700006 6125887
-0.047642861 0.17469049 0.66700006 9013079
-0.046372388 0.17469049 0.66700006 11842178
-0.045169525 0.17495239 0.66800004 11578223
-0.044028569 0.17547619 0.67000002 8091194
-0.042816192 0.17573808 0.671 7632437
-0.04172381 0.17652382 0.67400002 7895609
-0.0405 0.17678571 0.67500001 8353873
-0.039446667 0.17783333 0.67900002 9603940
-0.038153335 0.17783333 0.67900002 10196087
-0.036914289 0.17809524 0.68000001 10261880
-0.03561905 0.17809524 0.68000001 10394444
-0.11041714 0.17886287 0.67800003 15066807
-0.10864286 0.17807144 0.67500001 9671781
-0.1071981 0.17780763 0.67400002 7899418
-0.10560001 0.17728001 0.67200005 9478450
-0.10416476 0.1770162 0.671 10592644
-0.10227334 0.17596097 0.66700006 10197886
-0.10054857 0.17516953 0.66400003 8159294
-0.099283814 0.17516953 0.66400003 7435571
-0.097871438 0.17490573 0.66300005 8024140
-0.096462868 0.17464192 0.66200006 8089933
-0.095058098 0.1743781 0.66100001 7761722
-0.093799047 0.1743781 0.66100001 7827515
-0.092539996 0.1743781 0.66100001 7629866
-0.091004767 0.17385049 0.65900004 7366694
-0.08974953 0.17385049 0.65900004 9272129
-0.088360004 0.17358668 0.65800005 11180126
-0.086974286 0.17332286 0.65700001 11839330
-0.085722856 0.17332286 0.65700001 11905123
-0.084214285 0.17279525 0.65500003 11051640
-0.08296667 0.17279525 0.65500003 9867366
-0.081719048 0.17279525 0.65500003 9145951
-0.080471434 0.17279525 0.65500003 8027470
-0.079223812 0.17279525 0.65500003 7636044
-0.077976197 0.17279525 0.65500003 7438665
-0.076728575 0.17279525 0.65500003 7174196
-0.075480953 0.17279525 0.65500003 7437368
-0.074233338 0.17279525 0.65500003 7896908
-0.072985716 0.17279525 0.65500003 7831115
-0.071738102 0.17279525 0.65500003 7567171
-0.070490479 0.17279525 0.65500003 7764550
-0.069242857 0.17279525 0.65500003 9734222
-0.068202853 0.17332286 0.65700001 10721117
-0.066951431 0.17332286 0.65700001 11050602
-0.065800004 0.17358668 0.65800005 11379567
-0.064546667 0.17358668 0.65800005 11511171
-0.063293338 0.17358668 0.65800005 10721655
-0.062134288 0.17385049 0.65900004 8948572
-0.060879052 0.17385049 0.65900004 5922094
-0.059804764 0.1743781 0.66100001 4612905
-0.058545712 0.1743781 0.66100001 4941870
-0.057373337 0.17464192 0.66200006 5073216
-0.056197144 0.17490573 0.66300005 4941630
-0.055017143 0.17516953 0.66400003 5073214
-0.053752381 0.17516953 0.66400003 5139007
-0.052487623 0.17516953 0.66400003 4219430
-0.05137714 0.17569715 0.66600001 4943153
-0.050108574 0.17569715 0.66600001 5138740
-0.048913337 0.17596097 0.66700006 6586186
-0.047642861 0.17596097 0.66700006 9078620
-0.046372388 0.17596097 0.66700006 11776133
-0.045169525 0.17622477 0.66800004 11446667
-0.044028569 0.17675239 0.67000002 8880740
-0.042816192 0.1770162 0.671 7828276
-0.04172381 0.17780763 0.67400002 7894069
-0.040560003 0.17833525 0.67600006 8222239
-0.039446667 0.17912666 0.67900002 10656580
-0.038153335 0.17912666 0.67900002 10656899
-0.036860004 0.17912666 0.67900002 9143660
-0.03561905 0.17939048 0.68000001 9341492
-0.11187334 0.18042001 0.67900002 16775634
-0.11041714 0.18015428 0.67800003 15525805
-0.10880382 0.17962287 0.67600006 10854502
-0.10735714 0.17935714 0.67500001 10264670
-0.10591429 0.17909144 0.67400002 11119979
-0.10432001 0.17856 0.67200005 11446916
-0.10242667 0.17749715 0.66800004 10657400
-0.10085143 0.17696571 0.66600001 9144904
-0.099283814 0.17643429 0.66400003 7829044
-0.097871438 0.17616859 0.66300005 7959889
-0.096462868 0.17590287 0.66200006 7894096
-0.09520191 0.17590287 0.66200006 7761990
-0.093940958 0.17590287 0.66200006 7564611
-0.092539996 0.17563714 0.66100001 7563825
-0.091280952 0.17563714 0.66100001 7366446
-0.08974953 0.17510572 0.65900004 7759430
-0.088494293 0.17510572 0.65900004 9733220
-0.086974286 0.17457429 0.65700001 11642194
-0.085722856 0.17457429 0.65700001 11971159
-0.084471427 0.17457429 0.65700001 10920034
-0.08296667 0.17404287 0.65500003 8880451
-0.081719048 0.17404287 0.65500003 7766344
-0.080471434 0.17404287 0.65500003 7766344
-0.079223812 0.17404287 0.65500003 7832396
-0.077976197 0.17404287 0.65500003 7700810
-0.076728575 0.17404287 0.65500003 7371089
-0.075480953 0.17404287 0.65500003 7371089
-0.074233338 0.17404287 0.65500003 7699536
-0.072985716 0.17404287 0.65500003 7896915
-0.071738102 0.17404287 0.65500003 7437638
-0.070490479 0.17404287 0.65500003 7174466
-0.069242857 0.17404287 0.65500003 8816695
-0.068202853 0.17457429 0.65700001 9277246
-0.06705334 0.17484002 0.65800005 10326879
-0.065800004 0.17484002 0.65800005 11247981
-0.064644769 0.17510572 0.65900004 11182692
-0.063389532 0.17510572 0.65900004 9472074
-0.062134288 0.17510572 0.65900004 7371818
-0.061063815 0.17563714 0.66100001 5069063
-0.059804764 0.17563714 0.66100001 4546879
-0.058634292 0.17590287 0.66200006 4744258
-0.057373337 0.17590287 0.66200006 4744510
-0.056197144 0.17616859 0.66300005 4941889
-0.055017143 0.17643429 0.66400003 5204550
-0.053752381 0.17643429 0.66400003 5204550
-0.052645713 0.17696571 0.66600001 4876096
-0.05137714 0.17696571 0.66600001 4876096
-0.050108574 0.17696571 0.66600001 5532203
-0.048913337 0.17723145 0.66700006 8163923
-0.047642861 0.17723145 0.66700006 9867385
-0.046372388 0.17723145 0.66700006 12038554
-0.04530476 0.17802858 0.67000002 12038032
-0.044094287 0.17829429 0.671 11380102
-0.042880002 0.17856 0.67200005 10065517
-0.041785713 0.17935714 0.67500001 8683864
-0.040560003 0.17962287 0.67600006 9273930
-0.039388571 0.18015428 0.67800003 11839857
-0.038097143 0.18015428 0.67800003 10658413
-0.036860004 0.18042001 0.67900002 7960900
-0.03561905 0.18068571 0.68000001 8816485
-0.11187334 0.18171334 0.67900002 16577482
-0.11041714 0.18144572 0.67800003 15723204
-0.10880382 0.18091048 0.67600006 11183487
-0.10735714 0.18064286 0.67500001 11115868
-0.10607143 0.18064286 0.67500001 11971177
-0.10463049 0.18037525 0.67400002 12365699
-0.10242667 0.17876953 0.66800004 11444597
-0.10115429 0.17876953 0.66800004 10000483
-0.099283814 0.17769906 0.66400003 7895107
-0.097871438 0.17743143 0.66300005 8025680
-0.096608579 0.17743143 0.66300005 8157266
-0.09520191 0.17716382 0.66200006 7761997
-0.093940958 0.17716382 0.66200006 7630411
-0.092680007 0.17716382 0.66200006 7433268
-0.091280952 0.17689618 0.66100001 7235889
-0.08974953 0.17636096 0.65900004 7431969
-0.088494293 0.17636096 0.65900004 9668931
-0.087239049 0.17636096 0.65900004 10917976
-0.085722856 0.17582572 0.65700001 11575906
-0.084471427 0.17582572 0.65700001 9934440
-0.083220005 0.17582572 0.65700001 8355408
-0.081719048 0.17529048 0.65500003 6847557
-0.080471434 0.17529048 0.65500003 7308108
-0.079223812 0.17529048 0.65500003 7700556
-0.077976197 0.17529048 0.65500003 7700556
-0.076728575 0.17529048 0.65500003 8028762
-0.075480953 0.17529048 0.65500003 7568211
-0.074233338 0.17529048 0.65500003 7633993
-0.072985716 0.17529048 0.65500003 7831372
-0.071957141 0.17582572 0.65700001 7438667
-0.070705712 0.17582572 0.65700001 7043909
-0.06945429 0.17582572 0.65700001 7569735
-0.06830667 0.17609334 0.65800005 7569735
-0.06705334 0.17609334 0.65800005 9472336
-0.065800004 0.17609334 0.65800005 11314540
-0.064644769 0.17636096 0.65900004 10855031
-0.063389532 0.17636096 0.65900004 8815448
-0.062322859 0.17689618 0.66100001 6124309
-0.061063815 0.17689618 0.66100001 5071621
-0.059804764 0.17689618 0.66100001 5203252
-0.058634292 0.17716382 0.66200006 5269045
-0.057373337 0.17716382 0.66200006 5072444
-0.056197144 0.17743143 0.66300005 5204030
-0.055017143 0.17769906 0.66400003 5139009
-0.053752381 0.17769906 0.66400003 5073216
-0.052645713 0.17823428 0.66600001 4941628
-0.05137714 0.17823428 0.66600001 4744249
-0.050108574 0.17823428 0.66600001 6187814
-0.048913337 0.17850192 0.66700006 9938015
-0.047714286 0.17876953 0.66800004 11051129
-0.046441909 0.17876953 0.66800004 11972231
-0.045372378 0.17957237 0.671 12103554
-0.044160005 0.17984001 0.67200005 12103554
-0.04300762 0.18037525 0.67400002 11643777
-0.041785713 0.18064286 0.67500001 10130538
-0.040560003 0.18091048 0.67600006 9471050
-0.039388571 0.18144572 0.67800003 11708012
-0.038097143 0.18144572 0.67800003 10986608
-0.036860004 0.18171334 0.67900002 8157509
-0.03561905 0.18198095 0.68000001 8619357
-0.11058 0.18300667 0.67900002 16117720
-0.10912572 0.18273714 0.67800003 13288621
-0.1075162 0.18219811 0.67600006 11971979
-0.10607143 0.18192858 0.67500001 12169358
-0.10463049 0.18165904 0.67400002 12037479
-0.10273334 0.18058094 0.67000002 11247963
-0.10115429 0.18004191 0.66800004 10722932
-0.099582858 0.17950284 0.66600001 9209693
-0.098019049 0.17896381 0.66400003 8091473
-0.096608579 0.17869429 0.66300005 8091473
-0.095345721 0.17869429 0.66300005 7695953
-0.094082862 0.17869429 0.66300005 7695953
-0.092820004 0.17869429 0.66300005 7498307
-0.091419049 0.17842478 0.66200006 7498307
-0.090021908 0.17815524 0.66100001 7892281
-0.088494293 0.17761619 0.65900004 9668692
-0.087239049 0.17761619 0.65900004 10852183
-0.085853338 0.17734668 0.65800005 11444320
-0.084600009 0.17734668 0.65800005 10329441
-0.083220005 0.17707714 0.65700001 8487237
-0.081968568 0.17707714 0.65700001 7110230
-0.080717139 0.17707714 0.65700001 7307609
-0.079465717 0.17707714 0.65700001 7569233
-0.078214288 0.17707714 0.65700001 7503440
-0.076962851 0.17707714 0.65700001 7765588
-0.075711429 0.17707714 0.65700001 7568209
-0.07446 0.17707714 0.65700001 7699536
-0.07320857 0.17707714 0.65700001 7831122
-0.071957141 0.17707714 0.65700001 7569483
-0.070705712 0.17707714 0.65700001 7503690
-0.06945429 0.17707714 0.65700001 7438163
-0.06830667 0.17734668 0.65800005 7240784
-0.06705334 0.17734668 0.65800005 9275990
-0.065800004 0.17734668 0.65800005 11183987
-0.064644769 0.17761619 0.65900004 10855272
-0.063389532 0.17761619 0.65900004 9078861
-0.062322859 0.17815524 0.66100001 6124097
-0.061063815 0.17815524 0.66100001 4610858
-0.059895243 0.17842478 0.66200006 4678698
-0.058634292 0.17842478 0.66200006 5139249
-0.057460003 0.17869429 0.66300005 5072949
-0.056281909 0.17896381 0.66400003 5138742
-0.055017143 0.17896381 0.66400003 5138488
-0.053752381 0.17896381 0.66400003 4809523
-0.052645713 0.17950284 0.66600001 5072448
-0.05137714 0.17950284 0.66600001 6059343
-0.050108574 0.17950284 0.66600001 8026721
-0.048913337 0.17977239 0.66700006 11579543
-0.047714286 0.18004191 0.66800004 11051118
-0.046580952 0.18058094 0.67000002 10393188
-0.045372378 0.18085048 0.671 11643230
-0.044160005 0.18112001 0.67200005 12498539
-0.04307143 0.18192858 0.67500001 12497787
-0.04184762 0.18219811 0.67600006 12497787
-0.040679999 0.18273714 0.67800003 12366446
-0.039446667 0.18300667 0.67900002 11116379
-0.038153335 0.18300667 0.67900002 10001748
-0.036914289 0.18327619 0.68000001 7501614
-0.03561905 0.18327619 0.68000001 8619369
-0.10912572 0.18402858 0.67800003 13683108
-0.1075162 0.18348573 0.67600006 12826511
-0.10607143 0.18321428 0.67500001 11905409
-0.10463049 0.18294287 0.67400002 11577450
-0.10273334 0.18185715 0.67000002 11051106
-0.10115429 0.18131429 0.66800004 10789236
-0.099582858 0.18077143 0.66600001 10262892
-0.098019049 0.18022858 0.66400003 8617566
-0.09675429 0.18022858 0.66400003 7959636
-0.095345721 0.17995715 0.66300005 7695953
-0.094082862 0.17995715 0.66300005 7630160
-0.092820004 0.17995715 0.66300005 7629364
-0.091419049 0.17968573 0.66200006 7695157
-0.090021908 0.17941429 0.66100001 7892554
-0.088762857 0.17941429 0.66100001 9932137
-0.087503813 0.17941429 0.66100001 10457693
-0.085983813 0.17887144 0.65900004 11313002
-0.084600009 0.17860001 0.65800005 10394982
-0.083346672 0.17860001 0.65800005 8684364
-0.081968568 0.17832856 0.65700001 7176023
-0.080717139 0.17832856 0.65700001 7307609
-0.079465717 0.17832856 0.65700001 7635026
-0.078214288 0.17832856 0.65700001 7437647
-0.076962851 0.17832856 0.65700001 7634506
-0.075711429 0.17832856 0.65700001 7766092
-0.07446 0.17832856 0.65700001 7962699
-0.07320857 0.17832856 0.65700001 7699527
-0.071957141 0.17832856 0.65700001 7371075
-0.070705712 0.17832856 0.65700001 7831626
-0.06945429 0.17832856 0.65700001 7438163
-0.06830667 0.17860001 0.65800005 7503956
-0.06705334 0.17860001 0.65800005 9473117
-0.065900005 0.17887144 0.65900004 11117942
-0.064644769 0.17887144 0.65900004 10920804
-0.063581906 0.17941429 0.66100001 9933909
-0.062322859 0.17941429 0.66100001 7307858
-0.061156195 0.17968573 0.66200006 5334068
-0.059895243 0.17968573 0.66200006 4219414
-0.058722861 0.17995715 0.66300005 4679965
-0.057460003 0.17995715 0.66300005 4808485
-0.056281909 0.18022858 0.66400003 5400622
-0.055017143 0.18022858 0.66400003 5664309
-0.053752381 0.18022858 0.66400003 5269551
-0.052645713 0.18077143 0.66600001 5465881
-0.05137714 0.18077143 0.66600001 7571257
-0.050108574 0.18077143 0.66600001 10129773
-0.048913337 0.18104286 0.66700006 11708805
-0.047714286 0.18131429 0.66800004 10920306
-0.046580952 0.18185715 0.67000002 9670239
-0.04544 0.18240002 0.67200005 10000204
-0.044291429 0.18294287 0.67400002 10658134
-0.043135241 0.18348573 0.67600006 12035685
-0.04197143 0.18402858 0.67800003 13022580
-0.040739998 0.18429999 0.67900002 12367248
-0.039446667 0.18429999 0.67900002 10327665
-0.038153335 0.18429999 0.67900002 9016393
-0.036914289 0.18457143 0.68000001 7568947
-0.035723813 0.18511429 0.68200004 8684385
-0.10912572 0.18532 0.67800003 13880467
-0.1075162 0.18477336 0.67600006 12893844
-0.10607143 0.18450001 0.67500001 11380605
-0.10463049 0.18422666 0.67400002 9802101
-0.10288666 0.18340667 0.671 9538929
-0.10115429 0.18258668 0.66800004 10328680
-0.099732392 0.18231335 0.66700006 11381368
-0.098314285 0.18203999 0.66600001 10393458
-0.097045712 0.18203999 0.66600001 8156496
-0.095489532 0.18149334 0.66400003 7499607
-0.094224766 0.18149334 0.66400003 7499607
-0.092820004 0.18122002 0.66300005 7761718
-0.091419049 0.18094668 0.66200006 7827511
-0.090158105 0.18094668 0.66200006 8220777
-0.088762857 0.18067333 0.66100001 10984083
-0.087503813 0.18067333 0.66100001 11510385
-0.085983813 0.18012668 0.65900004 11510385
-0.084728576 0.18012668 0.65900004 10855006
-0.083346672 0.17985334 0.65800005 9736525
-0.082093336 0.17985334 0.65800005 7765861
-0.080839999 0.17985334 0.65800005 7634275
-0.079586677 0.17985334 0.65800005 7569751
-0.078333341 0.17985334 0.65800005 7569751
-0.076962851 0.17958 0.65700001 7634506
-0.075711429 0.17958 0.65700001 7766092
-0.07446 0.17958 0.65700001 7962438
-0.073320009 0.17985334 0.65800005 7699266
-0.072066672 0.17985334 0.65800005 7371089
-0.070813335 0.17985334 0.65800005 7765847
-0.069559999 0.17985334 0.65800005 7700565
-0.06830667 0.17985334 0.65800005 8621667
-0.067155235 0.18012668 0.65900004 9932907
-0.065900005 0.18012668 0.65900004 11248767
-0.064644769 0.18012668 0.65900004 11445085
-0.063581906 0.18067333 0.66100001 11708257
-0.062322859 0.18067333 0.66100001 9277556
-0.061156195 0.18094668 0.66200006 8027489
-0.05998572 0.18122002 0.66300005 5862465
-0.058722861 0.18122002 0.66300005 4875570
-0.057460003 0.18122002 0.66300005 5072949
-0.056281909 0.18149334 0.66400003 5072949
-0.055017143 0.18149334 0.66400003 4876588
-0.053914286 0.18203999 0.66600001 5797690
-0.052645713 0.18203999 0.66600001 7897399
-0.05137714 0.18203999 0.66600001 10463326
-0.050183814 0.18231335 0.66700006 11379833
-0.04898667 0.18258668 0.66800004 11379833
-0.047857143 0.18313333 0.67000002 10132071
-0.046650477 0.18340667 0.671 8553039
-0.04544 0.18368001 0.67200005 8619857
-0.044291429 0.18422666 0.67400002 9409373
-0.043135241 0.18477336 0.67600006 10459210
-0.04197143 0.18532 0.67800003 12564586
-0.040739998 0.18559334 0.67900002 12105073
-0.039446667 0.18559334 0.67900002 9736525
-0.038209524 0.18586667 0.68000001 8687424
-0.037022859 0.18641333 0.68200004 7963701
-0.035723813 0.18641333 0.68200004 9670759
-0.10928667 0.18688667 0.67900002 14078366
-0.1075162 0.18606097 0.67600006 12960657
-0.10607143 0.18578571 0.67500001 10592109
-0.10463049 0.18551049 0.67400002 9081434
-0.10334668 0.18551049 0.67400002 9147227
-0.10145715 0.18440953 0.67000002 10262624
-0.09988191 0.18385907 0.66800004 11315312
-0.098461911 0.18358383 0.66700006 11182734
-0.097191438 0.18358383 0.66700006 8682600
-0.095777147 0.18330857 0.66600001 7761220
-0.094508573 0.18330857 0.66600001 7761220
-0.09296 0.18275811 0.66400003 7893556
-0.091557153 0.18248287 0.66300005 8156728
-0.090294287 0.18248287 0.66300005 9930331
-0.088897154 0.18220764 0.66200006 11575156
-0.087636195 0.18220764 0.66200006 11839098
-0.086244762 0.18193239 0.66100001 11378547
-0.084985711 0.18193239 0.66100001 10920547
-0.083473332 0.18138191 0.65900004 10657375
-0.082218096 0.18138191 0.65900004 8423782
-0.080962859 0.18138191 0.65900004 7700059
-0.079586677 0.18110669 0.65800005 7569483
-0.078333341 0.18110669 0.65800005 7635276
-0.077080004 0.18110669 0.65800005 7700549
-0.075826667 0.18110669 0.65800005 7700549
-0.074573338 0.18110669 0.65800005 7897417
-0.073320009 0.18110669 0.65800005 7634245
-0.072066672 0.18110669 0.65800005 7436618
-0.070813335 0.18110669 0.65800005 7699790
-0.069559999 0.18110669 0.65800005 7700551
-0.068410479 0.18138191 0.65900004 9213790
-0.067155235 0.18138191 0.65900004 10655862
-0.066100001 0.18193239 0.66100001 11379585
-0.06484095 0.18193239 0.66100001 11706981
-0.063678101 0.18220764 0.66200006 11838567
-0.06241715 0.18220764 0.66200006 10722932
-0.061156195 0.18220764 0.66200006 9538658
-0.05998572 0.18248287 0.66300005 7373661
-0.058722861 0.18248287 0.66300005 5728836
-0.057460003 0.18248287 0.66300005 4875575
-0.056281909 0.18275811 0.66400003 4678196
-0.055017143 0.18275811 0.66400003 3235584
-0.053914286 0.18330857 0.66600001 5472539
-0.052645713 0.18330857 0.66600001 8554847
-0.051454291 0.18358383 0.66700006 11186567
-0.050183814 0.18358383 0.66700006 11578756
-0.049133334 0.18440953 0.67000002 10262896
-0.047928572 0.18468477 0.671 9212768
-0.046720002 0.18496001 0.67200005 8489045
-0.04544 0.18496001 0.67200005 8292938
-0.044291429 0.18551049 0.67400002 8292938
-0.043135241 0.18606097 0.67600006 9474873
-0.04197143 0.18661144 0.67800003 11975007
-0.040739998 0.18688667 0.67900002 11907988
-0.039504763 0.18716191 0.68000001 9407854
-0.038209524 0.18716191 0.68000001 7240223
-0.037022859 0.18771239 0.68200004 7569188
-0.035723813 0.18771239 0.68200004 10262385
-0.10928667 0.18818 0.67900002 14472865
-0.10783429 0.18790285 0.67800003 13289867
-0.10622858 0.18734859 0.67600006 10263389
-0.10478572 0.18707143 0.67500001 9278067
-0.1035 0.18707143 0.67500001 9278067
-0.10206286 0.18679428 0.67400002 10131810
-0.10018095 0.18568571 0.67000002 10460775
-0.098609529 0.18513145 0.66800004 10787715
-0.097337149 0.18513145 0.66800004 10129785
-0.095920965 0.1848543 0.66700006 8617566
-0.094650485 0.1848543 0.66700006 8420187
-0.09324 0.18457714 0.66600001 9406806
-0.091695242 0.18402287 0.66400003 11446389
-0.090294287 0.18374573 0.66300005 11576167
-0.089031436 0.18374573 0.66300005 11576167
-0.087768577 0.18374573 0.66300005 10985311
-0.086244762 0.18319142 0.66100001 9669451
-0.084985711 0.18319142 0.66100001 9933409
-0.083726667 0.18319142 0.66100001 10986097
-0.082218096 0.18263716 0.65900004 10131290
-0.080962859 0.18263716 0.65900004 9012809
-0.079707623 0.18263716 0.65900004 8094537
-0.078452386 0.18263716 0.65900004 7633986
-0.077080004 0.18236001 0.65800005 7437629
-0.075826667 0.18236001 0.65800005 7503422
-0.074573338 0.18236001 0.65800005 7699786
-0.073320009 0.18236001 0.65800005 7962958
-0.072066672 0.18236001 0.65800005 7831122
-0.070813335 0.18236001 0.65800005 8094294
-0.069559999 0.18236001 0.65800005 9276753
-0.068410479 0.18263716 0.65900004 11053164
-0.067155235 0.18263716 0.65900004 10919284
-0.066100001 0.18319142 0.66100001 9998182
-0.06484095 0.18319142 0.66100001 10851672
-0.063678101 0.18346858 0.66200006 11049051
-0.062511429 0.18374573 0.66300005 10917994
-0.061248574 0.18374573 0.66300005 11641717
-0.05998572 0.18374573 0.66300005 10460786
-0.05881143 0.18402287 0.66400003 9539684
-0.057546668 0.18402287 0.66400003 7504486
-0.056281909 0.18402287 0.66400003 5925454
-0.055017143 0.18402287 0.66400003 6189638
-0.053914286 0.18457714 0.66600001 8492393
-0.052645713 0.18457714 0.66600001 10394487
-0.051454291 0.1848543 0.66700006 11447175
-0.050183814 0.1848543 0.66700006 10855517
-0.049133334 0.18568571 0.67000002 8881727
-0.048000004 0.18624002 0.67200005 8555099
-0.046859052 0.18679428 0.67400002 8555099
-0.045575239 0.18679428 0.67400002 8424020
-0.044357143 0.18707143 0.67500001 8358227
-0.043262858 0.18790285 0.67800003 9146943
-0.042033333 0.18818 0.67900002 10791768
-0.040800001 0.18845715 0.68000001 11119493
-0.039504763 0.18845715 0.68000001 9014117
-0.038321909 0.18901142 0.68200004 7306585
-0.037022859 0.18901142 0.68200004 6977620
-0.10799333 0.18947333 0.67900002 13487773
-0.10622858 0.18863621 0.67600006 10198123
-0.10478572 0.18835714 0.67500001 9607783
-0.1035 0.18835714 0.67500001 9213025
-0.10221429 0.18835714 0.67500001 9738601
-0.10018095 0.1869619 0.67000002 9870187
-0.098904766 0.1869619 0.67000002 10591089
-0.097337149 0.18640383 0.66800004 10196331
-0.095920965 0.18612477 0.66700006 9669715
-0.094650485 0.18612477 0.66700006 9472336
-0.09324 0.18584572 0.66600001 10260834
-0.091971427 0.18584572 0.66600001 11642487
-0.090430476 0.18528764 0.66400003 11969399
-0.089165725 0.18528764 0.66400003 11772020
-0.087768577 0.18500859 0.66300005 10328435
-0.086375244 0.18472955 0.66200006 7959887
-0.085114293 0.18472955 0.66200006 8486433
-0.083726667 0.18445048 0.66100001 10328637
-0.082467623 0.18445048 0.66100001 11183478
-0.081208572 0.18445048 0.66100001 10064997
-0.079707623 0.18389238 0.65900004 8424022
-0.078452386 0.18389238 0.65900004 7766092
-0.077197149 0.18389238 0.65900004 7174466
-0.075941913 0.18389238 0.65900004 7240259
-0.074686669 0.18389238 0.65900004 7436600
-0.073431432 0.18389238 0.65900004 7897151
-0.072176196 0.18389238 0.65900004 7962451
-0.070920952 0.18389238 0.65900004 8751967
-0.069665715 0.18389238 0.65900004 10524524
-0.068410479 0.18389238 0.65900004 11116661
-0.067359053 0.18445048 0.66100001 10919032
-0.066100001 0.18445048 0.66100001 8550484
-0.064939052 0.18472955 0.66200006 9271091
-0.063774288 0.18500859 0.66300005 10257986
-0.062511429 0.18500859 0.66300005 11310685
-0.061340958 0.18528764 0.66400003 11968615
-0.060076192 0.18528764 0.66400003 11510651
-0.05881143 0.18528764 0.66400003 11115893
-0.057546668 0.18528764 0.66400003 9541742
-0.056451429 0.18584572 0.66600001 7173194
-0.055182859 0.18584572 0.66600001 7763246
-0.053914286 0.18584572 0.66600001 10460759
-0.052645713 0.18584572 0.66600001 11510905
-0.05153143 0.18640383 0.66800004 10787182
-0.050409522 0.1869619 0.67000002 9999697
-0.049206667 0.18724094 0.671 8947009
-0.048000004 0.18752001 0.67200005 8489306
-0.046859052 0.18807811 0.67400002 8555099
-0.045642857 0.18835714 0.67500001 8555606
-0.044422861 0.18863621 0.67600006 8489813
-0.043326665 0.18947333 0.67900002 9015371
-0.04209524 0.18975239 0.68000001 10725989
-0.040800001 0.18975239 0.68000001 10660233
-0.039620955 0.19031049 0.68200004 8686443
-0.038378097 0.19058953 0.68300003 7372327
-0.037077144 0.19058953 0.68300003 7503913
-0.10622858 0.18992382 0.67600006 10460542
-0.10478572 0.18964286 0.67500001 9541992
-0.1035 0.18964286 0.67500001 8752476
-0.10221429 0.18964286 0.67500001 9081443
-0.10033047 0.18851905 0.671 9015650
-0.098904766 0.1882381 0.67000002 9868116
-0.097337149 0.18767621 0.66800004 11118183
-0.095920965 0.18739524 0.66700006 11182954
-0.094650485 0.18739524 0.66700006 11314540
-0.09324 0.18711428 0.66600001 11641465
-0.091971427 0.18711428 0.66600001 11707258
-0.090702854 0.18711428 0.66600001 11116145
-0.089165725 0.18655239 0.66400003 9405527
-0.087900959 0.18655239 0.66400003 7106918
-0.086505719 0.18627143 0.66300005 5264714
-0.085114293 0.1859905 0.66200006 5857064
-0.083853334 0.1859905 0.66200006 8554577
-0.082467623 0.18570954 0.66100001 10196320
-0.081208572 0.18570954 0.66100001 10854250
-0.079949521 0.18570954 0.66100001 10394712
-0.078690477 0.18570954 0.66100001 9736782
-0.077197149 0.18514763 0.65900004 8356967
-0.075941913 0.18514763 0.65900004 7699037
-0.074686669 0.18514763 0.65900004 7896658
-0.073431432 0.18514763 0.65900004 9080932
-0.072176196 0.18514763 0.65900004 10130536
-0.070920952 0.18514763 0.65900004 11051638
-0.069665715 0.18514763 0.65900004 10984557
-0.068618096 0.18570954 0.66100001 10524006
-0.067359053 0.18570954 0.66100001 9603672
-0.066100001 0.18570954 0.66100001 7432503
-0.064939052 0.1859905 0.66200006 7826207
-0.063774288 0.18627143 0.66300005 7957793
-0.062511429 0.18627143 0.66300005 9469256
-0.061340958 0.18655239 0.66400003 10785116
-0.060076192 0.18655239 0.66400003 11246698
-0.05881143 0.18655239 0.66400003 11707249
-0.057719998 0.18711428 0.66600001 11182706
-0.056451429 0.18711428 0.66600001 11051120
-0.055182859 0.18711428 0.66600001 11051120
-0.053914286 0.18711428 0.66600001 11643257
-0.052724764 0.18739524 0.66700006 11116911
-0.05153143 0.18767621 0.66800004 9669465
-0.050409522 0.1882381 0.67000002 8619593
-0.049206667 0.18851905 0.671 8619593
-0.048142858 0.1893619 0.67400002 8489306
-0.046928573 0.18964286 0.67500001 8489306
-0.045642857 0.18964286 0.67500001 8423518
-0.044422861 0.18992382 0.67600006 8818276
-0.043326665 0.19076668 0.67900002 8949846
-0.04209524 0.19104762 0.68000001 10923636
-0.040920004 0.19160953 0.68200004 11119491
-0.039620955 0.19160953 0.68200004 10593147
-0.038378097 0.19189049 0.68300003 9148245
-0.037077144 0.19189049 0.68300003 9279831
-0.035828575 0.19217142 0.68400002 11446909
-0.10478572 0.19092858 0.67500001 10134381
-0.1035 0.19092858 0.67500001 8950107
-0.10221429 0.19092858 0.67500001 8818780
-0.10033047 0.18979715 0.671 8687194
-0.098904766 0.18951429 0.67000002 9277253
-0.097337149 0.18894859 0.66800004 10264148
-0.095920965 0.18866573 0.66700006 11445358
-0.094650485 0.18866573 0.66700006 11774323
-0.09324 0.18838286 0.66600001 12036218
-0.091971427 0.18838286 0.66600001 11246702
-0.090702854 0.18838286 0.66600001 9999463
-0.089165725 0.18781714 0.66400003 7762501
-0.087900959 0.18781714 0.66400003 5532747
-0.086505719 0.18753429 0.66300005 4480059
-0.08524286 0.18753429 0.66300005 5069313
-0.083853334 0.18725143 0.66200006 7240482
-0.08259239 0.18725143 0.66200006 9143623
-0.081208572 0.18696856 0.66100001 10459483
-0.079949521 0.18696856 0.66100001 11050852
-0.078690477 0.18696856 0.66100001 10721887
-0.077431425 0.18696856 0.66100001 9014634
-0.076172382 0.18696856 0.66100001 7632981
-0.074913338 0.18696856 0.66100001 8289606
-0.073654287 0.18696856 0.66100001 9671259
-0.072395235 0.18696856 0.66100001 10850927
-0.071136191 0.18696856 0.66100001 11508857
-0.069877148 0.18696856 0.66100001 11180914
-0.068618096 0.18696856 0.66100001 9799261
-0.067460962 0.18725143 0.66200006 8485965
-0.06620001 0.18725143 0.66200006 7367484
-0.065037146 0.18753429 0.66300005 7564077
-0.063870475 0.18781714 0.66400003 7432491
-0.062605716 0.18781714 0.66400003 7694380
-0.061340958 0.18781714 0.66400003 9207619
-0.060076192 0.18781714 0.66400003 10325067
-0.05881143 0.18781714 0.66400003 11048790
-0.057719998 0.18838286 0.66600001 11772526
-0.056451429 0.18838286 0.66600001 11904112
-0.055182859 0.18838286 0.66600001 11706738
-0.05399524 0.18866573 0.66700006 11706738
-0.052803814 0.18894859 0.66800004 10855006
-0.051685713 0.18951429 0.67000002 9078595
-0.050484762 0.18979715 0.671 8160580
-0.049280003 0.19008002 0.67200005 8357959
-0.048142858 0.19064572 0.67400002 8423252
-0.046928573 0.19092858 0.67500001 8489045
-0.045642857 0.19092858 0.67500001 8292427
-0.044554286 0.19177715 0.67800003 8687185
-0.043326665 0.19206001 0.67900002 8884051
-0.04209524 0.19234286 0.68000001 10989427
-0.040920004 0.19290859 0.68200004 11578756
-0.039620955 0.19290859 0.68200004 11052412
-0.038378097 0.19319144 0.68300003 9803847
-0.037077144 0.19319144 0.68300003 9935433
-0.035828575 0.19347429 0.68400002 12168824
-0.034525711 0.19347429 0.68400002 16774848
-0.10494096 0.19249907 0.67600006 10330475
-0.1035 0.19221428 0.67500001 9146201
-0.10221429 0.19221428 0.67500001 8884825
-0.10077905 0.19192952 0.67400002 8819032
-0.099052377 0.19107524 0.671 9080912
-0.097628571 0.19079047 0.67000002 9278291
-0.096064761 0.19022097 0.66800004 11248222
-0.094650485 0.18993621 0.66700006 12366703
-0.09324 0.18965143 0.66600001 11445351
-0.091971427 0.18965143 0.66600001 8484666
-0.090702854 0.18965143 0.66600001 5988669
-0.089165725 0.18908191 0.66400003 5791290
-0.087900959 0.18908191 0.66400003 5334332
-0.086505719 0.18879716 0.66300005 5202746
-0.08524286 0.18879716 0.66300005 5267002
-0.083853334 0.1885124 0.66200006 5267002
-0.08259239 0.1885124 0.66200006 7697920
-0.081331439 0.1885124 0.66200006 8684813
-0.080070481 0.1885124 0.66200006 9866819
-0.07880953 0.1885124 0.66200006 10985300
-0.077431425 0.18822762 0.66100001 10197344
-0.076172382 0.18822762 0.66100001 9539414
-0.074913338 0.18822762 0.66100001 9933159
-0.073654287 0.18822762 0.66100001 11051640
-0.072395235 0.18822762 0.66100001 11181407
-0.071136191 0.18822762 0.66100001 10391891
-0.069877148 0.18822762 0.66100001 9537104
-0.068618096 0.18822762 0.66100001 7694900
-0.067460962 0.1885124 0.66200006 7367473
-0.06620001 0.1885124 0.66200006 7433266
-0.065037146 0.18879716 0.66300005 7366469
-0.063870475 0.18908191 0.66400003 7234883
-0.062605716 0.18908191 0.66400003 7760198
-0.061340958 0.18908191 0.66400003 7891784
-0.060076192 0.18908191 0.66400003 8681255
-0.05881143 0.18908191 0.66400003 9799736
-0.057719998 0.18965143 0.66600001 10390376
-0.056451429 0.18965143 0.66600001 12166787
-0.055265717 0.18993621 0.66700006 11839852
-0.05399524 0.18993621 0.66700006 11116129
-0.052803814 0.19022097 0.66800004 10066753
-0.051685713 0.19079047 0.67000002 8816686
-0.050484762 0.19107524 0.671 8160596
-0.049280003 0.19136001 0.67200005 8489561
-0.048142858 0.19192952 0.67400002 8555349
-0.046928573 0.19221428 0.67500001 9147486
-0.045710482 0.19249907 0.67600006 8489552
-0.044554286 0.19306858 0.67800003 8621138
-0.043326665 0.19335334 0.67900002 9737050
-0.04209524 0.1936381 0.68000001 11974012
-0.040920004 0.19420762 0.68200004 12235644
-0.039620955 0.19420762 0.68200004 12498816
-0.038321909 0.19420762 0.68200004 12039289
-0.037022859 0.19420762 0.68200004 11447152
-0.035723813 0.19420762 0.68200004 12629884
-0.034424767 0.19420762 0.68200004 16775100
-0.1035 0.1935 0.67500001 9605466
-0.10206286 0.19321334 0.67400002 9147743
-0.10077905 0.19321334 0.67400002 9016157
-0.099052377 0.19235334 0.671 9213779
-0.097628571 0.19206667 0.67000002 8884814
-0.096064761 0.19149333 0.66800004 10328671
-0.094792388 0.19149333 0.66800004 11776117
-0.093380012 0.19120668 0.66700006 10592874
-0.091971427 0.19092 0.66600001 6776880
-0.090702854 0.19092 0.66600001 5071146
-0.089434281 0.19092 0.66600001 5400111
-0.087900959 0.19034667 0.66400003 5400125
-0.086636193 0.19034667 0.66400003 5334332
-0.08524286 0.19006002 0.66300005 5202743
-0.083980009 0.19006002 0.66300005 4807985
-0.08259239 0.18977335 0.66200006 5398016
-0.081331439 0.18977335 0.66200006 5792768
-0.080070481 0.18977335 0.66200006 8287519
-0.07880953 0.18977335 0.66200006 10392895
-0.077548578 0.18977335 0.66200006 10985327
-0.07628762 0.18977335 0.66200006 10722155
-0.074913338 0.18948667 0.66100001 10327406
-0.073654287 0.18948667 0.66100001 11051129
-0.072504766 0.18977335 0.66200006 10919282
-0.071243815 0.18977335 0.66200006 9208664
-0.069982864 0.18977335 0.66200006 8420674
-0.068721905 0.18977335 0.66200006 7039021
-0.067460962 0.18977335 0.66200006 7235880
-0.066300005 0.19006002 0.66300005 7433259
-0.065037146 0.19006002 0.66300005 7563073
-0.063870475 0.19034667 0.66400003 7628866
-0.062605716 0.19034667 0.66400003 7629380
-0.061340958 0.19034667 0.66400003 7366208
-0.060076192 0.19034667 0.66400003 7169299
-0.058988571 0.19092 0.66600001 7958815
-0.057806671 0.19120668 0.66700006 9930570
-0.056536198 0.19120668 0.66700006 12035946
-0.055265717 0.19120668 0.66700006 11775111
-0.054076191 0.19149333 0.66800004 10590837
-0.052803814 0.19149333 0.66800004 9081414
-0.051685713 0.19206667 0.67000002 8555070
-0.050484762 0.19235334 0.671 8160582
-0.049280003 0.19264002 0.67200005 8621133
-0.048214287 0.1935 0.67500001 8621142
-0.046998098 0.19378668 0.67600006 8621142
-0.045710482 0.19378668 0.67600006 8555099
-0.044554286 0.19436 0.67800003 9081443
-0.043326665 0.19464667 0.67900002 10328417
-0.04209524 0.19493334 0.68000001 11512691
-0.040920004 0.19550668 0.68200004 12102504
-0.039620955 0.19550668 0.68200004 12760434
-0.038321909 0.19550668 0.68200004 12760963
-0.037022859 0.19550668 0.68200004 12366205
-0.035723813 0.19550668 0.68200004 13418119
-0.1035 0.19478571 0.67500001 9868640
-0.10206286 0.19449714 0.67400002 9213279
-0.10077905 0.19449714 0.67400002 8621142
-0.099052377 0.19363143 0.671 8621644
-0.097628571 0.19334286 0.67000002 8490058
-0.096064761 0.19276571 0.66800004 10131038
-0.094792388 0.19276571 0.66800004 11710070
-0.093520008 0.19276571 0.66800004 10460773
-0.092109531 0.19247715 0.66700006 6447400
-0.090702854 0.19218858 0.66600001 5137219
-0.089434281 0.19218858 0.66600001 5400391
-0.087900959 0.19161144 0.66400003 5400125
-0.086636193 0.19161144 0.66400003 5334332
-0.08524286 0.19132286 0.66300005 5268788
-0.083980009 0.19132286 0.66300005 5005616
-0.08259239 0.1910343 0.66200006 5267498
-0.081331439 0.1910343 0.66200006 5135912
-0.080070481 0.1910343 0.66200006 6382899
-0.07880953 0.1910343 0.66200006 8093517
-0.077548578 0.1910343 0.66200006 9669969
-0.07628762 0.1910343 0.66200006 10985829
-0.075026676 0.1910343 0.66200006 11116145
-0.073765725 0.1910343 0.66200006 10524008
-0.072504766 0.1910343 0.66200006 9274961
-0.071243815 0.1910343 0.66200006 7498550
-0.069982864 0.1910343 0.66200006 7038499
-0.068721905 0.1910343 0.66200006 6972706
-0.067460962 0.1910343 0.66200006 7104294
-0.066300005 0.19132286 0.66300005 7367466
-0.065037146 0.19132286 0.66300005 7694911
-0.063870475 0.19161144 0.66400003 7760704
-0.062605716 0.19161144 0.66400003 7629632
-0.061340958 0.19161144 0.66400003 7563839
-0.060257144 0.19218858 0.66600001 7694659
-0.058988571 0.19218858 0.66600001 7760452
-0.057806671 0.19247715 0.66700006 8220733
-0.056536198 0.19247715 0.66700006 11576176
-0.055348575 0.19276571 0.66800004 11578227
-0.054076191 0.19276571 0.66800004 10130781
-0.052961905 0.19334286 0.67000002 8949844
-0.051685713 0.19334286 0.67000002 8555086
-0.050484762 0.19363143 0.671 8292936
-0.049426667 0.19449714 0.67400002 8753487
-0.048214287 0.19478571 0.67500001 8423770
-0.046998098 0.1950743 0.67600006 8029012
-0.045845713 0.19565143 0.67800003 8947819
-0.04462 0.19594 0.67900002 10329472
-0.043390475 0.19622858 0.68000001 10787934
-0.04209524 0.19622858 0.68000001 10458969
-0.040920004 0.19680572 0.68200004 11444552
-0.039620955 0.19680572 0.68200004 12102482
-0.038378097 0.19709429 0.68300003 11839366
-0.037077144 0.19709429 0.68300003 12497296
-0.035776194 0.19709429 0.68300003 13747604
-0.10206286 0.19578096 0.67400002 9606238
-0.10077905 0.19578096 0.67400002 9014101
-0.099052377 0.19490953 0.671 8752465
-0.097628571 0.19461904 0.67000002 8686672
-0.096064761 0.19403809 0.66800004 9868116
-0.094792388 0.19403809 0.66800004 11381355
-0.093520008 0.19403809 0.66800004 9805155
-0.092109531 0.19374762 0.66700006 6581298
-0.090702854 0.19345714 0.66600001 5071666
-0.089434281 0.19345714 0.66600001 5269045
-0.087900959 0.19287619 0.66400003 5334332
-0.086636193 0.19287619 0.66400003 5400125
-0.08524286 0.19258572 0.66300005 5334840
-0.083980009 0.19258572 0.66300005 5005875
-0.08259239 0.19229525 0.66200006 5071150
-0.081331439 0.19229525 0.66200006 4939564
-0.080070481 0.19229525 0.66200006 5004322
-0.07880953 0.19229525 0.66200006 5333287
-0.077548578 0.19229525 0.66200006 8090669
-0.07628762 0.19229525 0.66200006 11182940
-0.075026676 0.19229525 0.66200006 11313792
-0.073765725 0.19229525 0.66200006 10326897
-0.072504766 0.19229525 0.66200006 8485702
-0.071243815 0.19229525 0.66200006 6840877
-0.069982864 0.19229525 0.66200006 7300903
-0.068721905 0.19229525 0.66200006 7432489
-0.067562856 0.19258572 0.66300005 7432489
-0.066300005 0.19258572 0.66300005 7564075
-0.065135241 0.19287619 0.66400003 7498307
-0.063870475 0.19287619 0.66400003 7564100
-0.062605716 0.19287619 0.66400003 7695427
-0.061340958 0.19287619 0.66400003 7761220
-0.060257144 0.19345714 0.66600001 7892036
-0.058988571 0.19345714 0.66600001 7628864
-0.057806671 0.19374762 0.66700006 8221208
-0.056536198 0.19374762 0.66700006 11905616
-0.055348575 0.19403809 0.66800004 11446907
-0.054076191 0.19403809 0.66800004 10328426
-0.052961905 0.19461904 0.67000002 8752976
-0.051762857 0.19490953 0.671 8424011
-0.050560005 0.19520003 0.67200005 8424785
-0.049500003 0.19607143 0.67500001 8358992
-0.048285719 0.19636193 0.67600006 8357725
-0.047137145 0.19694287 0.67800003 8226139
-0.045845713 0.19694287 0.67800003 9210206
-0.04462 0.19723333 0.67900002 11249789
-0.043390475 0.19752382 0.68000001 11183726
-0.04221905 0.19810477 0.68200004 8880971
-0.040920004 0.19810477 0.68200004 9732646
-0.039620955 0.19810477 0.68200004 10324783
-0.038378097 0.19839524 0.68300003 11509863
-0.037077144 0.19839524 0.68300003 12628344
-0.035776194 0.19839524 0.68300003 14011537
-0.10221429 0.19735715 0.67500001 9870185
-0.10077905 0.19706477 0.67400002 9080669
-0.099052377 0.19618762 0.671 9080427
-0.097628571 0.19589524 0.67000002 9738357
-0.096064761 0.19531049 0.66800004 10657116
-0.094792388 0.19531049 0.66800004 11578218
-0.093520008 0.19531049 0.66800004 10987873
-0.092109531 0.1950181 0.66700006 7500844
-0.090702854 0.19472572 0.66600001 4940090
-0.089434281 0.19472572 0.66600001 5071676
-0.088165708 0.19472572 0.66600001 5006655
-0.086636193 0.19414096 0.66400003 5006655
-0.085371435 0.19414096 0.66400003 4875570
-0.083980009 0.19384858 0.66300005 4809777
-0.08259239 0.1935562 0.66200006 4940595
-0.081331439 0.1935562 0.66200006 4874802
-0.080191433 0.19384858 0.66300005 4940090
-0.078928575 0.19384858 0.66300005 4808504
-0.077548578 0.1935562 0.66200006 7170607
-0.07628762 0.1935562 0.66200006 10855015
-0.075026676 0.1935562 0.66200006 10853741
-0.073877148 0.19384858 0.66300005 9472088
-0.07261429 0.19384858 0.66300005 7892305
-0.071351431 0.19384858 0.66300005 6905410
-0.070088573 0.19384858 0.66300005 7365440
-0.068825722 0.19384858 0.66300005 7694405
-0.067562856 0.19384858 0.66300005 7563825
-0.066399999 0.19414096 0.66400003 7629618
-0.065135241 0.19414096 0.66400003 7498307
