# .PCD v0.7 - Point Cloud Data file format
VERSION 0.7
FIELDS x y z rgba
SIZE 4 4 4 4
TYPE F F F U
COUNT 1 1 1 1
WIDTH 1084
HEIGHT 1
VIEWPOINT 0 0 0 1 0 0 0
POINTS 1084
DATA ascii
-0.090348572 0.075445719 0.97800004 14140547
-0.088214286 0.075214282 0.97500002 13943670
-0.086357147 0.075214282 0.97500002 13812084
-0.0845 0.075214282 0.97500002 13549941
-0.082642861 0.075214282 0.97500002 13549941
-0.080785714 0.075214282 0.97500002 13812334
-0.078928567 0.075214282 0.97500002 14009713
-0.077071428 0.075214282 0.97500002 14140027
-0.075214282 0.075214282 0.97500002 13942648
-0.073582858 0.075445719 0.97800004 14007930
-0.071719997 0.075445719 0.97800004 14336895
-0.06985715 0.075445719 0.97800004 14271359
-0.067994289 0.075445719 0.97800004 14337152
-0.066131428 0.075445719 0.97800004 14403456
-0.064268574 0.075445719 0.97800004 14206077
-0.062405713 0.075445719 0.97800004 13943407
-0.060542859 0.075445719 0.97800004 14009200
-0.058500003 0.075214282 0.97500002 14139775
-0.05664286 0.075214282 0.97500002 14139775
-0.054785714 0.075214282 0.97500002 14139489
-0.052928571 0.075214282 0.97500002 14534247
-0.050966669 0.075060003 0.97300005 14272356
-0.049113337 0.075060003 0.97300005 14601321
-0.047260001 0.075060003 0.97300005 14469996
-0.045266669 0.074828573 0.97000003 14733168
-0.043284763 0.074597143 0.96700007 16310656
-0.04144286 0.074597143 0.96700007 16772749
-0.039600953 0.074597143 0.96700007 16511673
-0.037876189 0.074828573 0.97000003 16776644
-0.036028571 0.074828573 0.97000003 16711622
-0.10590953 0.076439053 0.96700007 13484717
-0.10406763 0.076439053 0.96700007 13221545
-0.10222572 0.076439053 0.96700007 13877641
-0.10100667 0.076913334 0.97300005 13482883
-0.099357143 0.077071428 0.97500002 13811053
-0.097800002 0.077308573 0.97800004 14074225
-0.09593714 0.077308573 0.97800004 14074234
-0.094074294 0.077308573 0.97800004 14205820
-0.092211433 0.077308573 0.97800004 14206072
-0.090348572 0.077308573 0.97800004 14535037
-0.088214286 0.077071428 0.97500002 14337917
-0.086357147 0.077071428 0.97500002 14206331
-0.0845 0.077071428 0.97500002 13943934
-0.082642861 0.077071428 0.97500002 13943934
-0.081034288 0.077308573 0.97800004 14140795
-0.079171434 0.077308573 0.97800004 14535553
-0.077308573 0.077308573 0.97800004 14600837
-0.075445719 0.077308573 0.97800004 14798216
-0.073582858 0.077308573 0.97800004 14534040
-0.071719997 0.077308573 0.97800004 14468247
-0.06985715 0.077308573 0.97800004 14468749
-0.067994289 0.077308573 0.97800004 14534542
-0.066131428 0.077308573 0.97800004 14666632
-0.064268574 0.077308573 0.97800004 14798218
-0.062405713 0.077308573 0.97800004 14535296
-0.060357142 0.077071428 0.97500002 14601089
-0.058500003 0.077071428 0.97500002 14600844
-0.05664286 0.077071428 0.97500002 14535051
-0.054785714 0.077071428 0.97500002 14535296
-0.052820001 0.076913334 0.97300005 14469503
-0.050966669 0.076913334 0.97300005 14403958
-0.048961904 0.07667619 0.97000003 14667130
-0.047114287 0.07667619 0.97000003 14469510
-0.045266669 0.07667619 0.97000003 14140545
-0.043284763 0.076439053 0.96700007 14535266
-0.04144286 0.076439053 0.96700007 14601059
-0.039600953 0.076439053 0.96700007 14535285
-0.037641905 0.076201908 0.96400005 14403699
-0.035805713 0.076201908 0.96400005 15523722
-0.033969525 0.076201908 0.96400005 16777132
-0.11452381 0.077876195 0.96200007 16514776
-0.11269144 0.077876195 0.96200007 16644827
-0.11108953 0.078038096 0.96400005 16381655
-0.10925333 0.078038096 0.96400005 15260584
-0.10775144 0.078280956 0.96700007 14207896
-0.10590953 0.078280956 0.96700007 14008702
-0.10406763 0.078280956 0.96700007 14008702
-0.10222572 0.078280956 0.96700007 14139777
-0.10069524 0.078523815 0.97000003 13613433
-0.09915334 0.078766666 0.97300005 13743725
-0.097499996 0.078928567 0.97500002 14138483
-0.095642857 0.078928567 0.97500002 14138742
-0.094074294 0.079171434 0.97800004 14072949
-0.092211433 0.079171434 0.97800004 13876596
-0.090348572 0.079171434 0.97800004 14402940
-0.088485718 0.079171434 0.97800004 14271359
-0.086622857 0.079171434 0.97800004 14139773
-0.084760003 0.079171434 0.97800004 14008187
-0.082897149 0.079171434 0.97800004 14337152
-0.081034288 0.079171434 0.97800004 14337663
-0.079171434 0.079171434 0.97800004 14535042
-0.077308573 0.079171434 0.97800004 14140795
-0.075445719 0.079171434 0.97800004 14403967
-0.073582858 0.079171434 0.97800004 14337676
-0.071719997 0.079171434 0.97800004 14337676
-0.06985715 0.079171434 0.97800004 14600585
-0.067994289 0.079171434 0.97800004 14600585
-0.066131428 0.079171434 0.97800004 14797714
-0.064268574 0.079171434 0.97800004 14863507
-0.062405713 0.079171434 0.97800004 14666119
-0.060357142 0.078928567 0.97500002 14863498
-0.058500003 0.078928567 0.97500002 14601364
-0.05664286 0.078928567 0.97500002 14732950
-0.054785714 0.078928567 0.97500002 14667909
-0.052820001 0.078766666 0.97300005 14536323
-0.050966669 0.078766666 0.97300005 14667645
-0.048961904 0.078523815 0.97000003 14601852
-0.047114287 0.078523815 0.97000003 14600837
-0.045266669 0.078523815 0.97000003 14600837
-0.043284763 0.078280956 0.96700007 14666353
-0.041314285 0.078038096 0.96400005 14600560
-0.039478097 0.078038096 0.96400005 14272115
-0.037563812 0.077876195 0.96200007 14272115
-0.035731431 0.077876195 0.96200007 14403921
-0.03389905 0.077876195 0.96200007 16640883
-0.032066669 0.077876195 0.96200007 16646097
-0.11452381 0.079708576 0.96200007 14277030
-0.11269144 0.079708576 0.96200007 14075286
-0.11108953 0.079874292 0.96400005 13812114
-0.10925333 0.079874292 0.96400005 14337413
-0.10741714 0.079874292 0.96400005 14337413
-0.10558096 0.079874292 0.96400005 14272385
-0.10406763 0.080122858 0.96700007 14667143
-0.10222572 0.080122858 0.96700007 14468738
-0.10069524 0.080371425 0.97000003 13810808
-0.09915334 0.080619998 0.97300005 13876103
-0.097499996 0.080785714 0.97500002 14468240
-0.095642857 0.080785714 0.97500002 14271363
-0.093785718 0.080785714 0.97500002 14205570
-0.092211433 0.081034288 0.97800004 14139782
-0.090348572 0.081034288 0.97800004 14534540
-0.088485718 0.081034288 0.97800004 14272133
-0.086622857 0.081034288 0.97800004 14008961
-0.084760003 0.081034288 0.97800004 14139784
-0.082897149 0.081034288 0.97800004 14534542
-0.081034288 0.081034288 0.97800004 14338178
-0.079171434 0.081034288 0.97800004 14732936
-0.077308573 0.081034288 0.97800004 14535807
-0.075445719 0.081034288 0.97800004 14535807
-0.073582858 0.081034288 0.97800004 14535303
-0.071719997 0.081034288 0.97800004 14601096
-0.06985715 0.081034288 0.97800004 14404235
-0.067994289 0.081034288 0.97800004 14601614
-0.066131428 0.081034288 0.97800004 14667164
-0.064268574 0.081034288 0.97800004 14601371
-0.062405713 0.081034288 0.97800004 14601110
-0.060357142 0.080785714 0.97500002 14601110
-0.058500003 0.080785714 0.97500002 14995604
-0.05664286 0.080785714 0.97500002 14995604
-0.054785714 0.080785714 0.97500002 14864252
-0.052820001 0.080619998 0.97300005 14864252
-0.050966669 0.080619998 0.97300005 14667134
-0.048961904 0.080371425 0.97000003 14535548
-0.047114287 0.080371425 0.97000003 14864009
-0.045126669 0.080122858 0.96700007 15061388
-0.043284763 0.080122858 0.96700007 14930297
-0.041314285 0.079874292 0.96400005 14601332
-0.039478097 0.079874292 0.96400005 14535303
-0.037563812 0.079708576 0.96200007 14666889
-0.035731431 0.079708576 0.96200007 14207360
-0.033793334 0.079460002 0.95900005 14667911
-0.031966668 0.079460002 0.95900005 16513945
-0.024660001 0.079460002 0.95900005 16646109
-0.11452381 0.081540957 0.96200007 13748381
-0.11269144 0.081540957 0.96200007 14403199
-0.11085905 0.081540957 0.96200007 14140027
-0.10925333 0.08171048 0.96400005 14403206
-0.10741714 0.08171048 0.96400005 14468999
-0.10558096 0.08171048 0.96400005 14337665
-0.10406763 0.081964761 0.96700007 14732423
-0.10222572 0.081964761 0.96700007 14534531
-0.10069524 0.082219049 0.97000003 14139773
-0.09915334 0.082473338 0.97300005 14139773
-0.097499996 0.082642861 0.97500002 14337152
-0.095642857 0.082642861 0.97500002 14205827
-0.093785718 0.082642861 0.97500002 14205827
-0.091928571 0.082642861 0.97500002 14140297
-0.090348572 0.082897149 0.97800004 14469262
-0.088485718 0.082897149 0.97800004 14404235
-0.086622857 0.082897149 0.97800004 14272649
-0.084760003 0.082897149 0.97800004 14469512
-0.082897149 0.082897149 0.97800004 14403719
-0.081034288 0.082897149 0.97800004 14337665
-0.079171434 0.082897149 0.97800004 14666630
-0.077308573 0.082897149 0.97800004 14601600
-0.075445719 0.082897149 0.97800004 14733186
-0.073582858 0.082897149 0.97800004 14733186
-0.071940005 0.08315143 0.98100007 14733186
-0.070071429 0.08315143 0.98100007 14272899
-0.067994289 0.082897149 0.97800004 14338692
-0.066131428 0.082897149 0.97800004 14667407
-0.064268574 0.082897149 0.97800004 14601614
-0.062405713 0.082897149 0.97800004 14666889
-0.060542859 0.082897149 0.97800004 14930061
-0.058500003 0.082642861 0.97500002 15127958
-0.05664286 0.082642861 0.97500002 14470028
-0.054785714 0.082642861 0.97500002 14731644
-0.052928571 0.082642861 0.97500002 14863230
-0.050966669 0.082473338 0.97300005 14600326
-0.048961904 0.082219049 0.97000003 14600326
-0.047114287 0.082219049 0.97000003 14798477
-0.045126669 0.081964761 0.96700007 14798477
-0.043150477 0.08171048 0.96400005 14864261
-0.041314285 0.08171048 0.96400005 14732675
-0.039396197 0.081540957 0.96200007 14798477
-0.037563812 0.081540957 0.96200007 14666891
-0.035731431 0.081540957 0.96200007 13813883
-0.033793334 0.081286669 0.95900005 14734985
-0.031966668 0.081286669 0.95900005 16051361
-0.11720572 0.082680002 0.95400006 14014383
-0.11538857 0.082680002 0.95400006 14075801
-0.11452381 0.083373338 0.96200007 14010008
-0.11269144 0.083373338 0.96200007 14009477
-0.11085905 0.083373338 0.96200007 13877891
-0.10925333 0.083546676 0.96400005 14074500
-0.10741714 0.083546676 0.96400005 14206086
-0.10558096 0.083546676 0.96400005 14337665
-0.10406763 0.083806671 0.96700007 14995595
-0.10222572 0.083806671 0.96700007 14468990
-0.10069524 0.084066667 0.97000003 14205818
-0.09915334 0.08432667 0.97300005 14140288
-0.097499996 0.0845 0.97500002 14469253
-0.095642857 0.0845 0.97500002 14272133
-0.093785718 0.0845 0.97500002 14206340
-0.091928571 0.0845 0.97500002 14140561
-0.090348572 0.084760003 0.97800004 14469526
-0.088485718 0.084760003 0.97800004 14404487
-0.086622857 0.084760003 0.97800004 14207108
-0.084760003 0.084760003 0.97800004 14600328
-0.082897149 0.084760003 0.97800004 14929293
-0.081034288 0.084760003 0.97800004 14732416
-0.079171434 0.084760003 0.97800004 14666623
-0.077308573 0.084760003 0.97800004 14666621
-0.075445719 0.084760003 0.97800004 14929793
-0.073808581 0.085020006 0.98100007 14864502
-0.071940005 0.085020006 0.98100007 15193467
-0.070071429 0.085020006 0.98100007 14601600
-0.067994289 0.084760003 0.97800004 14404221
-0.066131428 0.084760003 0.97800004 14732927
-0.064268574 0.084760003 0.97800004 15127685
-0.062405713 0.084760003 0.97800004 15061638
-0.060542859 0.084760003 0.97800004 15456396
-0.058500003 0.0845 0.97500002 14996104
-0.05664286 0.0845 0.97500002 14469760
-0.054785714 0.0845 0.97500002 14666380
-0.052928571 0.0845 0.97500002 14995345
-0.050966669 0.08432667 0.97300005 14995102
-0.048961904 0.084066667 0.97000003 15324067
-0.047114287 0.084066667 0.97000003 14798477
-0.045126669 0.083806671 0.96700007 14798477
-0.043150477 0.083546676 0.96400005 14864011
-0.041314285 0.083546676 0.96400005 14732425
-0.039396197 0.083373338 0.96200007 14797975
-0.037563812 0.083373338 0.96200007 14929561
-0.035731431 0.083373338 0.96200007 14667657
-0.033793334 0.083113335 0.95900005 16773804
-0.031966668 0.083113335 0.95900005 16645324
-0.11720572 0.084497146 0.95400006 14145451
-0.11538857 0.084497146 0.95400006 14141061
-0.11357144 0.084497146 0.95400006 14206854
-0.11198857 0.084674291 0.95600003 14009990
-0.11051334 0.084940001 0.95900005 13746818
-0.10902668 0.085205719 0.96200007 14140288
-0.10741714 0.085382864 0.96400005 14271874
-0.10558096 0.085382864 0.96400005 14271872
-0.10406763 0.085648574 0.96700007 14864009
-0.10222572 0.085648574 0.96700007 14403969
-0.10069524 0.085914284 0.97000003 14075004
-0.09915334 0.086180001 0.97300005 13943670
-0.097499996 0.086357147 0.97500002 14206842
-0.095642857 0.086357147 0.97500002 14141574
-0.093785718 0.086357147 0.97500002 14075781
-0.092211433 0.086622857 0.97800004 14075270
-0.090348572 0.086622857 0.97800004 14338442
-0.088485718 0.086622857 0.97800004 14469755
-0.086622857 0.086622857 0.97800004 14403962
-0.084760003 0.086622857 0.97800004 14600569
-0.082897149 0.086622857 0.97800004 14929534
-0.081034288 0.086622857 0.97800004 14994557
-0.079171434 0.086622857 0.97800004 14928764
-0.077308573 0.086622857 0.97800004 14600306
-0.075445719 0.086622857 0.97800004 14863478
-0.073808581 0.086888582 0.98100007 14600558
-0.071940005 0.086888582 0.98100007 15126902
-0.070071429 0.086888582 0.98100007 14995584
-0.068202861 0.086888582 0.98100007 14863998
-0.066131428 0.086622857 0.97800004 14798205
-0.064268574 0.086622857 0.97800004 15192963
-0.062405713 0.086622857 0.97800004 14799493
-0.060542859 0.086622857 0.97800004 15062665
-0.058500003 0.086357147 0.97500002 14602114
-0.05664286 0.086357147 0.97500002 14733700
-0.054785714 0.086357147 0.97500002 14930577
-0.052928571 0.086357147 0.97500002 14930577
-0.051071428 0.086357147 0.97500002 14863757
-0.048961904 0.085914284 0.97000003 14863757
-0.047114287 0.085914284 0.97000003 14929289
-0.045126669 0.085648574 0.96700007 14995082
-0.043284763 0.085648574 0.96700007 15126661
-0.041314285 0.085382864 0.96400005 14995075
-0.039396197 0.085205719 0.96200007 14929795
-0.037563812 0.085205719 0.96200007 15061381
-0.035731431 0.085205719 0.96200007 15192202
-0.03389905 0.085205719 0.96200007 16773290
-0.11864857 0.086042859 0.95100003 16644806
-0.11683714 0.086042859 0.95100003 14342051
-0.11538857 0.086314291 0.95400006 14207378
-0.11357144 0.086314291 0.95400006 14733722
-0.11198857 0.086495236 0.95600003 14207374
-0.11051334 0.086766668 0.95900005 13878409
-0.10902668 0.0870381 0.96200007 14206077
-0.10741714 0.087219052 0.96400005 14600835
-0.10558096 0.087219052 0.96400005 14469249
-0.10406763 0.087490484 0.96700007 14929800
-0.10254286 0.087761909 0.97000003 14667132
-0.10069524 0.087761909 0.97000003 14403960
-0.09915334 0.088033341 0.97300005 13943670
-0.097499996 0.088214286 0.97500002 14272635
-0.095642857 0.088214286 0.97500002 14207106
-0.093785718 0.088214286 0.97500002 14601864
-0.092211433 0.088485718 0.97800004 14601350
-0.090348572 0.088485718 0.97800004 14732936
-0.088485718 0.088485718 0.97800004 14864250
-0.086622857 0.088485718 0.97800004 14995836
-0.084760003 0.088485718 0.97800004 15061118
-0.082897149 0.088485718 0.97800004 15258497
-0.081034288 0.088485718 0.97800004 15258240
-0.079171434 0.088485718 0.97800004 15587205
-0.077308573 0.088485718 0.97800004 15258240
-0.075445719 0.088485718 0.97800004 15587205
-0.073808581 0.08875715 0.98100007 15192956
-0.071940005 0.08875715 0.98100007 15127163
-0.070071429 0.08875715 0.98100007 15192958
-0.068202861 0.08875715 0.98100007 15258751
-0.066131428 0.088485718 0.97800004 15061638
-0.064268574 0.088485718 0.97800004 15390603
-0.062405713 0.088485718 0.97800004 15193483
-0.060542859 0.088485718 0.97800004 15325069
-0.058680002 0.088485718 0.97800004 15259276
-0.05664286 0.088214286 0.97500002 15522448
-0.054785714 0.088214286 0.97500002 15061640
-0.052928571 0.088214286 0.97500002 14995847
-0.051071428 0.088214286 0.97500002 14732673
-0.048961904 0.087761909 0.97000003 14601087
-0.047114287 0.087761909 0.97000003 14798218
-0.045266669 0.087761909 0.97000003 15258769
-0.043284763 0.087490484 0.96700007 15455108
-0.041314285 0.087219052 0.96400005 16113038
-0.039478097 0.087219052 0.96400005 16379029
-0.037641905 0.087219052 0.96400005 16776357
-0.035805713 0.087219052 0.96400005 16579004
-0.11864857 0.087854289 0.95100003 16512448
-0.11683714 0.087854289 0.95100003 14670244
-0.11538857 0.088131428 0.95400006 14338190
-0.11357144 0.088131428 0.95400006 14535569
-0.11198857 0.088316195 0.95600003 14404485
-0.11051334 0.088593334 0.95900005 14075520
-0.10925333 0.08905524 0.96400005 14271613
-0.10741714 0.08905524 0.96400005 14403199
-0.10558096 0.08905524 0.96400005 14205818
-0.10406763 0.089332387 0.96700007 14732162
-0.10254286 0.089609526 0.97000003 14666628
-0.10069524 0.089609526 0.97000003 14403456
-0.09915334 0.089886673 0.97300005 13416797
-0.097499996 0.090071432 0.97500002 14535278
-0.095642857 0.090071432 0.97500002 14337665
-0.093785718 0.090071432 0.97500002 14600837
-0.092211433 0.090348572 0.97800004 14600835
-0.090348572 0.090348572 0.97800004 14864007
-0.088485718 0.090348572 0.97800004 14863741
-0.086622857 0.090348572 0.97800004 15126913
-0.084760003 0.090348572 0.97800004 15126913
-0.082897149 0.090348572 0.97800004 15126913
-0.081034288 0.090348572 0.97800004 15060866
-0.079171434 0.090348572 0.97800004 15126659
-0.077308573 0.090348572 0.97800004 14863482
-0.075445719 0.090348572 0.97800004 15324033
-0.073808581 0.090625718 0.98100007 15258245
-0.071940005 0.090625718 0.98100007 15192452
-0.070071429 0.090625718 0.98100007 15192452
-0.068202861 0.090625718 0.98100007 15258245
-0.066131428 0.090348572 0.97800004 14996099
-0.064268574 0.090348572 0.97800004 14996099
-0.062405713 0.090348572 0.97800004 14930311
-0.060542859 0.090348572 0.97800004 15325069
-0.058680002 0.090348572 0.97800004 15259276
-0.05664286 0.090071432 0.97500002 15193483
-0.054785714 0.090071432 0.97500002 14995575
-0.052928571 0.090071432 0.97500002 15061368
-0.051071428 0.090071432 0.97500002 14732916
-0.048961904 0.089609526 0.97000003 14732916
-0.047114287 0.089609526 0.97000003 14865020
-0.045126669 0.089332387 0.96700007 15062399
-0.043284763 0.089332387 0.96700007 15651724
-0.04144286 0.089332387 0.96700007 16375447
-0.039600953 0.089332387 0.96700007 16510651
-0.035650477 0.084343813 0.91300005 16774337
-0.033911429 0.084343813 0.91300005 16644563
-0.11720572 0.08994858 0.95400006 16642757
-0.11538857 0.08994858 0.95400006 16378295
-0.11357144 0.08994858 0.95400006 15654572
-0.11198857 0.090137146 0.95600003 15456646
-0.11051334 0.09042 0.95900005 14535544
-0.10925333 0.090891428 0.96400005 14141061
-0.10741714 0.090891428 0.96400005 14338440
-0.10558096 0.090891428 0.96400005 14600319
-0.10406763 0.091174297 0.96700007 14600319
-0.10254286 0.091457151 0.97000003 14665858
-0.10100667 0.091740005 0.97300005 14600065
-0.09915334 0.091740005 0.97300005 14402434
-0.097499996 0.091928571 0.97500002 14731399
-0.095642857 0.091928571 0.97500002 14535305
-0.093785718 0.091928571 0.97500002 14535305
-0.092211433 0.092211433 0.97800004 14798475
-0.090348572 0.092211433 0.97800004 15127440
-0.088485718 0.092211433 0.97800004 14864259
-0.086622857 0.092211433 0.97800004 14864259
-0.084760003 0.092211433 0.97800004 14929541
-0.082897149 0.092211433 0.97800004 14995334
-0.081034288 0.092211433 0.97800004 15126663
-0.079171434 0.092211433 0.97800004 15126663
-0.077308573 0.092211433 0.97800004 15191943
-0.075445719 0.092211433 0.97800004 15191943
-0.073808581 0.092494287 0.98100007 15126659
-0.071940005 0.092494287 0.98100007 15126659
-0.070071429 0.092494287 0.98100007 15192454
-0.068202861 0.092494287 0.98100007 15587212
-0.066131428 0.092211433 0.97800004 15259017
-0.064268574 0.092211433 0.97800004 15259017
-0.062405713 0.092211433 0.97800004 15324558
-0.060542859 0.092211433 0.97800004 15390351
-0.058680002 0.092211433 0.97800004 15390092
-0.05664286 0.091928571 0.97500002 15390092
-0.054785714 0.091928571 0.97500002 15982974
-0.052928571 0.091928571 0.97500002 16311939
-0.050966669 0.091740005 0.97300005 16445851
-0.048961904 0.091457151 0.97000003 16643230
-0.046968576 0.091174297 0.96700007 16511151
-0.04214 0.085140005 0.90300006 16576944
-0.04042 0.085140005 0.90300006 15982767
-0.04144286 0.091174297 0.96700007 15982767
-0.039600953 0.091174297 0.96700007 14601634
-0.035650477 0.086082861 0.91300005 14338462
-0.033911429 0.086082861 0.91300005 13879413
-0.11563048 0.091958091 0.95600003 16511169
-0.11380953 0.091958091 0.95600003 15721653
-0.11234 0.092246674 0.95900005 16180382
-0.11085905 0.09253525 0.96200007 14930315
-0.10925333 0.092727624 0.96400005 14206856
-0.10741714 0.092727624 0.96400005 14272649
-0.10590953 0.0930162 0.96700007 14600569
-0.10406763 0.0930162 0.96700007 14732155
-0.10286 0.093593337 0.97300005 14861956
-0.10100667 0.093593337 0.97300005 14796163
-0.099357143 0.093785718 0.97500002 14401907
-0.097499996 0.093785718 0.97500002 14796665
-0.095642857 0.093785718 0.97500002 14468999
-0.093785718 0.093785718 0.97500002 14600585
-0.092211433 0.094074294 0.97800004 14864016
-0.090348572 0.094074294 0.97800004 14864016
-0.088485718 0.094074294 0.97800004 14798218
-0.086622857 0.094074294 0.97800004 14798218
-0.084760003 0.094074294 0.97800004 14797703
-0.082897149 0.094074294 0.97800004 14995082
-0.081034288 0.094074294 0.97800004 15587214
-0.079171434 0.094074294 0.97800004 15126663
-0.077308573 0.094074294 0.97800004 15257468
-0.075677149 0.094362862 0.98100007 15389054
-0.073808581 0.094362862 0.98100007 15520647
-0.071940005 0.094362862 0.98100007 15454854
-0.070071429 0.094362862 0.98100007 15258236
-0.068202861 0.094362862 0.98100007 15652994
-0.066131428 0.094074294 0.97800004 15456148
-0.064268574 0.094074294 0.97800004 15324562
-0.062405713 0.094074294 0.97800004 15521669
-0.060542859 0.094074294 0.97800004 15521669
-0.058680002 0.094074294 0.97800004 15587464
-0.05664286 0.093785718 0.97500002 15916429
-0.054785714 0.093785718 0.97500002 16378034
-0.052928571 0.093785718 0.97500002 16509620
-0.050966669 0.093593337 0.97300005 16512200
-0.048961904 0.093304761 0.97000003 16446407
-0.046968576 0.0930162 0.96700007 16578504
-0.04214 0.086860001 0.90300006 16381125
-0.04042 0.086860001 0.90300006 15655092
-0.038914286 0.087340958 0.90800005 14733990
-0.037266668 0.087533332 0.91000003 13814651
-0.035650477 0.087821908 0.91300005 13354100
-0.033911429 0.087821908 0.91300005 12892761
-0.032172382 0.087821908 0.91300005 13484898
-0.030433334 0.087821908 0.91300005 14801807
-0.11563048 0.09377905 0.95600003 14536059
-0.11380953 0.09377905 0.95600003 15654540
-0.11234 0.09407334 0.95900005 15982479
-0.11085905 0.094367623 0.96200007 16640409
-0.10959334 0.094858103 0.96700007 16181191
-0.10775144 0.094858103 0.96700007 15983812
-0.10590953 0.094858103 0.96700007 16378286
-0.10439047 0.095152386 0.97000003 16773301
-0.10286 0.095446669 0.97300005 16377784
-0.10100667 0.095446669 0.97300005 15325096
-0.099357143 0.095642857 0.97500002 15980169
-0.097499996 0.095642857 0.97500002 15782790
-0.095642857 0.095642857 0.97500002 15519634
-0.093785718 0.095642857 0.97500002 15388048
-0.092211433 0.09593714 0.97800004 15388820
-0.090348572 0.09593714 0.97800004 15388820
-0.088485718 0.09593714 0.97800004 15586201
-0.086622857 0.09593714 0.97800004 15915166
-0.084760003 0.09593714 0.97800004 15981738
-0.082897149 0.09593714 0.97800004 15981738
-0.081034288 0.09593714 0.97800004 16377241
-0.079171434 0.09593714 0.97800004 16377241
-0.077545717 0.096231431 0.98100007 16445081
-0.075677149 0.096231431 0.98100007 16708253
-0.073808581 0.096231431 0.98100007 16511410
-0.071940005 0.096231431 0.98100007 16777153
-0.06985715 0.09593714 0.97800004 16646068
-0.067994289 0.09593714 0.97800004 16777144
-0.066131428 0.09593714 0.97800004 16512209
-0.064268574 0.09593714 0.97800004 15985865
-0.062405713 0.09593714 0.97800004 16511153
-0.060357142 0.095642857 0.97500002 16708532
-0.058500003 0.095642857 0.97500002 16510901
-0.05664286 0.095642857 0.97500002 16774073
-0.054785714 0.095642857 0.97500002 15984575
-0.052928571 0.095642857 0.97500002 15524024
-0.050966669 0.095446669 0.97300005 14471327
-0.049113337 0.095446669 0.97300005 13813397
-0.044005714 0.088874288 0.90600002 14667132
-0.04228 0.088874288 0.90600002 15259269
-0.040554285 0.088874288 0.90600002 14471550
-0.038914286 0.089070477 0.90800005 11708244
-0.037266668 0.089266665 0.91000003 11972985
-0.035650477 0.089560956 0.91300005 13617810
-0.033911429 0.089560956 0.91300005 13813111
-0.032172382 0.089560956 0.91300005 13615732
-0.030433334 0.089560956 0.91300005 14538649
-0.11006667 0.091000006 0.91000003 12827488
-0.10833333 0.091000006 0.91000003 13024867
-0.1066 0.091000006 0.91000003 13942878
-0.10440572 0.090600006 0.90600002 16771977
-0.10268001 0.090600006 0.90600002 16115914
-0.10775144 0.096700005 0.96700007 15984328
-0.10590953 0.096700005 0.96700007 16576455
-0.10406763 0.096700005 0.96700007 16379076
-0.10286 0.097300008 0.97300005 16378304
-0.10100667 0.097300008 0.97300005 16312511
-0.099357143 0.097499996 0.97500002 16444088
-0.097499996 0.097499996 0.97500002 16180916
-0.095642857 0.097499996 0.97500002 16377007
-0.094074294 0.097800002 0.97800004 16508593
-0.092211433 0.097800002 0.97800004 16510667
-0.090348572 0.097800002 0.97800004 16379081
-0.088485718 0.097800002 0.97800004 16444356
-0.086622857 0.097800002 0.97800004 16575942
-0.084760003 0.097800002 0.97800004 16576981
-0.08315143 0.098100007 0.98100007 16313809
-0.081282862 0.098100007 0.98100007 16510408
-0.079414286 0.098100007 0.98100007 16247236
-0.077545717 0.098100007 0.98100007 16511169
-0.075677149 0.098100007 0.98100007 16379583
-0.073808581 0.098100007 0.98100007 16443834
-0.071719997 0.097800002 0.97800004 16443834
-0.06985715 0.097800002 0.97800004 16378027
-0.067994289 0.097800002 0.97800004 16774327
-0.066131428 0.097800002 0.97800004 16577749
-0.064071432 0.097499996 0.97500002 16314577
-0.062214289 0.097499996 0.97500002 16512198
-0.055776194 0.090100005 0.90100002 16380612
-0.054060001 0.090100005 0.90100002 16379585
-0.052343812 0.090100005 0.90100002 16050620
-0.050627619 0.090100005 0.90100002 14407583
-0.049020004 0.090300001 0.90300006 13289102
-0.047457144 0.090600006 0.90600002 13221235
-0.045731429 0.090600006 0.90600002 13089649
-0.044005714 0.090600006 0.90600002 13811580
-0.04228 0.090600006 0.90600002 14864268
-0.040554285 0.090600006 0.90600002 13617565
-0.038914286 0.090800002 0.90800005 9669985
-0.037389524 0.091300003 0.91300005 10722838
-0.03572857 0.091500007 0.91500002 13288765
-0.033985715 0.091500007 0.91500002 14337658
-0.032242857 0.091500007 0.91500002 13942900
-0.11006667 0.092733338 0.91000003 12104310
-0.10833333 0.092733338 0.91000003 11380587
-0.1066 0.092733338 0.91000003 13482599
-0.10440572 0.092325717 0.90600002 15193217
-0.10234001 0.092020005 0.90300006 14271883
-0.10062001 0.092020005 0.90300006 12956023
-0.098352388 0.091510482 0.89800006 13285783
-0.096641913 0.091510482 0.89800006 14535850
-0.094931439 0.091510482 0.89800006 14864513
-0.093220957 0.091510482 0.89800006 15127685
-0.099357143 0.099357143 0.97500002 15324551
-0.097499996 0.099357143 0.97500002 15390344
-0.095642857 0.099357143 0.97500002 15915909
-0.094074294 0.099662863 0.97800004 16047495
-0.092211433 0.099662863 0.97800004 15850391
-0.090348572 0.099662863 0.97800004 15324047
-0.088485718 0.099662863 0.97800004 15586192
-0.086622857 0.099662863 0.97800004 15783571
-0.084760003 0.099662863 0.97800004 14730649
-0.08315143 0.099968582 0.98100007 14467477
-0.081282862 0.099968582 0.98100007 14402958
-0.079414286 0.099968582 0.98100007 14402958
-0.077545717 0.099968582 0.98100007 14601612
-0.075677149 0.099968582 0.98100007 14996370
-0.073808581 0.099968582 0.98100007 14337940
-0.071719997 0.099662863 0.97800004 14140561
-0.06985715 0.099662863 0.97800004 14534020
-0.067994289 0.099662863 0.97800004 15257743
-0.065928571 0.099357143 0.97500002 14864000
-0.064071432 0.099357143 0.97500002 14535035
-0.057492379 0.091816194 0.90100002 14273921
-0.055776194 0.091816194 0.90100002 14405507
-0.054060001 0.091816194 0.90100002 14011021
-0.052343812 0.091816194 0.90100002 13682056
-0.050627619 0.091816194 0.90100002 12959605
-0.049020004 0.092020005 0.90300006 11117401
-0.047457144 0.092325717 0.90600002 11051888
-0.045731429 0.092325717 0.90600002 11183474
-0.044102859 0.092529528 0.90800005 12760693
-0.042373337 0.092529528 0.90800005 12892279
-0.040643811 0.092529528 0.90800005 10986888
-0.039000001 0.092733338 0.91000003 6841929
-0.037389524 0.093039051 0.91300005 7830066
-0.03572857 0.093242854 0.91500002 11580267
-0.033985715 0.093242854 0.91500002 12233845
-0.032242857 0.093242854 0.91500002 13352326
-0.11241429 0.094985716 0.91500002 12698255
-0.11042953 0.094778098 0.91300005 11908203
-0.10869049 0.094778098 0.91300005 12237168
-0.1066 0.094466671 0.91000003 13745276
-0.10463619 0.094259053 0.90800005 14666378
-0.10234001 0.093740009 0.90300006 13878931
-0.10062001 0.093740009 0.90300006 12365692
-0.098352388 0.093220957 0.89800006 12957804
-0.096641913 0.093220957 0.89800006 13549941
-0.094931439 0.093220957 0.89800006 13812611
-0.093220957 0.093220957 0.89800006 13549439
-0.09915334 0.10100667 0.97300005 13616259
-0.097300008 0.10100667 0.97300005 13616259
-0.095642857 0.10121429 0.97500002 13813100
-0.094074294 0.10152572 0.97800004 13878893
-0.092211433 0.10152572 0.97800004 13746816
-0.090348572 0.10152572 0.97800004 13812609
-0.08875715 0.10183715 0.98100007 14009477
-0.086622857 0.10152572 0.97800004 13680512
-0.084760003 0.10152572 0.97800004 13352056
-0.075522862 0.092494287 0.89100003 13944193
-0.073825717 0.092494287 0.89100003 13747343
-0.072128572 0.092494287 0.89100003 12892034
-0.070431434 0.092494287 0.89100003 12695661
-0.068734288 0.092494287 0.89100003 12432489
-0.067037143 0.092494287 0.89100003 12104562
-0.071719997 0.10152572 0.97800004 11907183
-0.063857146 0.092805721 0.89400005 12563296
-0.062154286 0.092805721 0.89400005 14273914
-0.060451429 0.092805721 0.89400005 14142344
-0.059011433 0.093220957 0.89800006 13813379
-0.057300955 0.093220957 0.89800006 13157770
-0.055776194 0.093532376 0.90100002 13026184
-0.054180004 0.093740009 0.90300006 13419400
-0.052343812 0.093532376 0.90100002 13550986
-0.050627619 0.093532376 0.90100002 12828801
-0.049020004 0.093740009 0.90300006 10789218
-0.047457144 0.094051436 0.90600002 10986340
-0.045731429 0.094051436 0.90600002 11907442
-0.044102859 0.094259053 0.90800005 12893826
-0.042373337 0.094259053 0.90800005 10722657
-0.040643811 0.094259053 0.90800005 9673069
-0.039000001 0.094466671 0.91000003 7041349
-0.037389524 0.094778098 0.91300005 7438102
-0.03572857 0.094985716 0.91500002 10661959
-0.034097143 0.095297143 0.91800004 11512673
-0.032348573 0.095297143 0.91800004 13486463
-0.11241429 0.096728571 0.91500002 13093013
-0.11042953 0.096517146 0.91300005 12368252
-0.10869049 0.096517146 0.91300005 12960389
-0.10695143 0.096517146 0.91300005 13484189
-0.10486667 0.096200004 0.91000003 12760466
-0.10268001 0.095777147 0.90600002 9801853
-0.10062001 0.095460005 0.90300006 7828063
-0.098680958 0.095248573 0.90100002 9867334
-0.096641913 0.094931439 0.89800006 13222777
-0.094931439 0.094931439 0.89800006 13155460
-0.093220957 0.094931439 0.89800006 12168565
-0.091306664 0.094719999 0.89600003 11906429
-0.089600004 0.094719999 0.89600003 11380085
-0.087893337 0.094719999 0.89600003 12695134
-0.094074294 0.10338858 0.97800004 13879408
-0.092211433 0.10338858 0.97800004 14009479
-0.090348572 0.10338858 0.97800004 13680514
-0.08875715 0.10370572 0.98100007 11772540
-0.079360001 0.094719999 0.89600003 10654059
-0.077480003 0.094508581 0.89400005 11574650
-0.075522862 0.094191432 0.89100003 14337956
-0.073825717 0.094191432 0.89100003 14142087
-0.072128572 0.094191432 0.89100003 13220985
-0.070431434 0.094191432 0.89100003 12169074
-0.068734288 0.094191432 0.89100003 11247972
-0.067037143 0.094191432 0.89100003 11051638
-0.065340005 0.094191432 0.89100003 10920052
-0.063857146 0.094508581 0.89400005 12694646
-0.062154286 0.094508581 0.89400005 14010506
-0.060451429 0.094508581 0.89400005 13419130
-0.059011433 0.094931439 0.89800006 11511133
-0.057300955 0.094931439 0.89800006 10527854
-0.055776194 0.095248573 0.90100002 10133096
-0.054180004 0.095460005 0.90300006 10854511
-0.052460004 0.095460005 0.90300006 12367750
-0.050740004 0.095460005 0.90300006 12629634
-0.049020004 0.095460005 0.90300006 12958599
-0.047457144 0.095777147 0.90600002 13156219
-0.045731429 0.095777147 0.90600002 13616770
-0.044005714 0.095777147 0.90600002 12040813
-0.042373337 0.095988572 0.90800005 8027440
-0.040643811 0.095988572 0.90800005 6718024
-0.039128575 0.096517146 0.91300005 6257473
-0.037471429 0.096728571 0.91500002 7569735
-0.035845716 0.097045712 0.91800004 10201455
-0.034171429 0.097257145 0.92000002 11314540
-0.032419048 0.097257145 0.92000002 14275225
-0.030766666 0.097574286 0.92300004 14341799
-0.11478096 0.099009521 0.92000002 16646101
-0.11241429 0.098471433 0.91500002 13159072
-0.11042953 0.098256193 0.91300005 12695670
-0.10869049 0.098256193 0.91300005 13287807
-0.10695143 0.098256193 0.91300005 13486499
-0.10486667 0.097933337 0.91000003 9933677
-0.10290667 0.097718097 0.90800005 8490063
-0.10095429 0.097502857 0.90600002 6450480
-0.098900005 0.097180009 0.90300006 7699968
-0.096964762 0.096964762 0.90100002 10989608
-0.094931439 0.096641913 0.89800006 13221253
-0.093220957 0.096641913 0.89800006 12365944
-0.091306664 0.096426666 0.89600003 12103283
-0.089600004 0.096426666 0.89600003 11971697
-0.087893337 0.096426666 0.89600003 12957289
-0.08618667 0.096426666 0.89600003 14075770
-0.084480003 0.096426666 0.89600003 14009745
-0.082588576 0.096211433 0.89400005 12759678
-0.080885723 0.096211433 0.89400005 11181927
-0.079182863 0.096211433 0.89400005 9931860
-0.077480003 0.096211433 0.89400005 10916420
-0.075777143 0.096211433 0.89400005 13087589
-0.074074291 0.096211433 0.89400005 13878400
-0.072371431 0.096211433 0.89400005 13417849
-0.070668571 0.096211433 0.89400005 12235117
-0.068734288 0.095888577 0.89100003 12103531
-0.067037143 0.095888577 0.89100003 11907442
-0.065340005 0.095888577 0.89100003 11973235
-0.063857146 0.096211433 0.89400005 13024126
-0.062154286 0.096211433 0.89400005 13353091
-0.060586669 0.096426666 0.89600003 12566144
-0.059011433 0.096641913 0.89800006 10000217
-0.057492379 0.096964762 0.90100002 9476708
-0.055776194 0.096964762 0.90100002 9476708
-0.054180004 0.097180009 0.90300006 10330461
-0.052460004 0.097180009 0.90300006 10791012
-0.050740004 0.097180009 0.90300006 12891757
-0.049020004 0.097180009 0.90300006 13747066
-0.047457144 0.097502857 0.90600002 14009493
-0.045731429 0.097502857 0.90600002 13746321
-0.044005714 0.097502857 0.90600002 10332521
-0.042373337 0.097718097 0.90800005 6845492
-0.040733334 0.097933337 0.91000003 5865016
-0.039128575 0.098256193 0.91300005 5996602
-0.037471429 0.098471433 0.91500002 7569733
-0.035923809 0.099009521 0.92000002 10135660
-0.034171429 0.099009521 0.92000002 10986065
-0.032524761 0.099332385 0.92300004 14538887
-0.030766666 0.099332385 0.92300004 14408105
-0.11478096 0.10076191 0.92000002 16646101
-0.11241429 0.10021429 0.91500002 14474932
-0.11067143 0.10021429 0.91500002 12368268
-0.10869049 0.099995241 0.91300005 12434061
-0.10695143 0.099995241 0.91300005 11778427
-0.10486667 0.09966667 0.91000003 8357191
-0.10290667 0.099447623 0.90800005 6454867
-0.10095429 0.099228576 0.90600002 6060109
-0.098900005 0.098900005 0.90300006 6453814
-0.096964762 0.098680958 0.90100002 6256435
-0.095248573 0.098680958 0.90100002 10327633
-0.093220957 0.098352388 0.89800006 12893560
-0.091510482 0.098352388 0.89800006 13615739
-0.089800008 0.098352388 0.89800006 13944704
-0.087893337 0.098133333 0.89600003 13879172
-0.08618667 0.098133333 0.89600003 13221242
-0.084480003 0.098133333 0.89600003 12102002
-0.082588576 0.097914286 0.89400005 9865040
-0.080885723 0.097914286 0.89400005 9536591
-0.079182863 0.097914286 0.89400005 8878661
-0.077480003 0.097914286 0.89400005 9141576
-0.075777143 0.097914286 0.89400005 9799506
-0.074074291 0.097914286 0.89400005 11970373
-0.072371431 0.097914286 0.89400005 13812577
-0.070826672 0.098133333 0.89600003 13088886
-0.069120005 0.098133333 0.89600003 12957300
-0.067413338 0.098133333 0.89600003 13353055
-0.06570667 0.098133333 0.89600003 13550434
-0.064000003 0.098133333 0.89600003 12499075
-0.062293336 0.098133333 0.89600003 11643766
-0.060721908 0.098352388 0.89800006 9936743
-0.059208572 0.098680958 0.90100002 9476192
-0.057492379 0.098680958 0.90100002 9280367
-0.055900004 0.098900005 0.90300006 9477746
-0.054180004 0.098900005 0.90300006 9871468
-0.052460004 0.098900005 0.90300006 9739882
-0.050740004 0.098900005 0.90300006 11052374
-0.049020004 0.098900005 0.90300006 13026164
-0.047457144 0.099228576 0.90600002 13221773
-0.045731429 0.099228576 0.90600002 11905913
-0.044102859 0.099447623 0.90800005 9279579
-0.042466667 0.09966667 0.91000003 6911031
-0.040867623 0.099995241 0.91300005 5931068
-0.039128575 0.099995241 0.91300005 6391619
-0.037471429 0.10021429 0.91500002 7964743
-0.035845716 0.10054287 0.91800004 11385979
-0.034171429 0.10076191 0.92000002 12696695
-0.032419048 0.10076191 0.92000002 14867864
-0.030766666 0.10109048 0.92300004 14604740
-0.11478096 0.10251428 0.92000002 16646113
-0.11278286 0.10229144 0.91800004 14540737
-0.11103429 0.10229144 0.91800004 13486731
-0.10892857 0.10195714 0.91500002 12302457
-0.10718572 0.10195714 0.91500002 10990451
-0.10521238 0.10173429 0.91300005 7766594
-0.10347334 0.10173429 0.91300005 6324288
-0.10117715 0.10117715 0.90800005 6258495
-0.099228576 0.10095429 0.90600002 5995323
-0.097180009 0.10062001 0.90300006 5468979
-0.095460005 0.10062001 0.90300006 8552464
-0.093532376 0.10039714 0.90100002 11710528
-0.091816194 0.10039714 0.90100002 14075004
-0.090100005 0.10039714 0.90100002 14601348
-0.088089526 0.10006286 0.89800006 14076308
-0.086379051 0.10006286 0.89800006 11773553
-0.084480003 0.09984 0.89600003 10918244
-0.082773335 0.09984 0.89600003 9010247
-0.081066668 0.09984 0.89600003 9142346
-0.079360001 0.09984 0.89600003 9076553
-0.077653334 0.09984 0.89600003 8813622
-0.075946666 0.09984 0.89600003 8682036
-0.074239999 0.09984 0.89600003 9733633
-0.072533339 0.09984 0.89600003 11641630
-0.070826672 0.09984 0.89600003 13678706
-0.069120005 0.09984 0.89600003 14139257
-0.067413338 0.09984 0.89600003 14206088
-0.06570667 0.09984 0.89600003 13942916
-0.06414286 0.10006286 0.89800006 12236925
-0.062432382 0.10006286 0.89800006 10394721
-0.060721908 0.10006286 0.89800006 8951879
-0.059208572 0.10039714 0.90100002 9215051
-0.057492379 0.10039714 0.90100002 9411426
-0.055900004 0.10062001 0.90300006 9477219
-0.054180004 0.10062001 0.90300006 9345633
-0.052460004 0.10062001 0.90300006 9016668
-0.050740004 0.10062001 0.90300006 9936709
-0.049182858 0.10095429 0.90600002 12107878
-0.047457144 0.10095429 0.90600002 12435610
-0.045731429 0.10095429 0.90600002 10988164
-0.044102859 0.10117715 0.90800005 8162120
-0.042466667 0.1014 0.91000003 6846260
-0.040867623 0.10173429 0.91300005 5930559
-0.039128575 0.10173429 0.91300005 6259524
-0.037471429 0.10195714 0.91500002 7702861
-0.035845716 0.10229144 0.91800004 11453062
-0.034171429 0.10251428 0.92000002 13617281
-0.032419048 0.10251428 0.92000002 16117415
-0.030766666 0.10284857 0.92300004 15592377
-0.11478096 0.10426667 0.92000002 16646120
-0.11278286 0.10404 0.91800004 15067088
-0.11103429 0.10404 0.91800004 13486490
-0.10892857 0.1037 0.91500002 12696974
-0.10718572 0.1037 0.91500002 11976572
-0.10521238 0.10347334 0.91300005 8950094
-0.10347334 0.10347334 0.91300005 6324055
-0.10117715 0.10290667 0.90800005 6324055
-0.099228576 0.10268001 0.90600002 6521422
-0.097502857 0.10268001 0.90600002 6324043
-0.095460005 0.10234001 0.90300006 7634745
-0.093740009 0.10234001 0.90300006 9082191
-0.092020005 0.10234001 0.90300006 13615920
-0.090100005 0.10211334 0.90100002 14865987
-0.088383809 0.10211334 0.90100002 14141784
-0.08666762 0.10211334 0.90100002 9273102
-0.084668577 0.10177334 0.89800006 9207887
-0.082958095 0.10177334 0.89800006 9142094
-0.08124762 0.10177334 0.89800006 9208398
-0.079360001 0.10154667 0.89600003 9208398
-0.077653334 0.10154667 0.89600003 8879937
-0.075946666 0.10154667 0.89600003 9077316
-0.074239999 0.10154667 0.89600003 9274175
-0.072533339 0.10154667 0.89600003 9142589
-0.070984766 0.10177334 0.89800006 10652253
-0.069274291 0.10177334 0.89800006 13941903
-0.067563809 0.10177334 0.89800006 13878652
-0.066073328 0.10211334 0.90100002 12496999
-0.064357147 0.10211334 0.90100002 10526827
-0.062640958 0.10211334 0.90100002 10197862
-0.061060004 0.10234001 0.90300006 9478225
-0.059340004 0.10234001 0.90300006 9544018
-0.057620004 0.10234001 0.90300006 9674848
-0.055900004 0.10234001 0.90300006 9806434
-0.054180004 0.10234001 0.90300006 9215078
-0.052460004 0.10234001 0.90300006 8754527
-0.050740004 0.10234001 0.90300006 9739853
-0.049182858 0.10268001 0.90600002 11582057
-0.047457144 0.10268001 0.90600002 12632196
-0.045731429 0.10268001 0.90600002 11316336
-0.044102859 0.10290667 0.90800005 8096616
-0.042466667 0.10313334 0.91000003 5991240
-0.040867623 0.10347334 0.91300005 5405774
-0.039214283 0.1037 0.91500002 5866325
-0.037471429 0.1037 0.91500002 8292721
-0.035845716 0.10404 0.91800004 11977129
-0.034171429 0.10426667 0.92000002 13353843
-0.032524761 0.10460667 0.92300004 16775336
-0.030766666 0.10460667 0.92300004 16381364
-0.11653333 0.10601905 0.92000002 16646111
-0.11478096 0.10601905 0.92000002 16711650
-0.11278286 0.10578857 0.91800004 15922390
-0.11103429 0.10578857 0.91800004 14473637
-0.10892857 0.10544286 0.91500002 13157777
-0.10718572 0.10544286 0.91500002 12699547
-0.10544286 0.10544286 0.91500002 10396792
-0.10347334 0.10521238 0.91300005 7703901
-0.1014 0.10486667 0.91000003 6717006
-0.099447623 0.10463619 0.90800005 6324823
-0.097502857 0.10440572 0.90600002 6127444
-0.095777147 0.10440572 0.90600002 6455354
-0.093740009 0.10406001 0.90300006 6915905
-0.092020005 0.10406001 0.90300006 11380035
-0.090300001 0.10406001 0.90300006 14340720
-0.088383809 0.10382953 0.90100002 11971438
-0.08666762 0.10382953 0.90100002 9076546
-0.084951431 0.10382953 0.90100002 8945742
-0.082958095 0.10348381 0.89800006 9143121
-0.08124762 0.10348381 0.89800006 9274961
-0.079537146 0.10348381 0.89800006 8880203
-0.077826671 0.10348381 0.89800006 8748088
-0.076116197 0.10348381 0.89800006 9406018
-0.074405722 0.10348381 0.89800006 9274695
-0.07269524 0.10348381 0.89800006 8814144
-0.070984766 0.10348381 0.89800006 9798950
-0.069505714 0.10382953 0.90100002 13812323
-0.067789525 0.10382953 0.90100002 13879442
-0.066073328 0.10382953 0.90100002 12563582
-0.064357147 0.10382953 0.90100002 9870928
-0.062780008 0.10406001 0.90300006 9805135
-0.061060004 0.10406001 0.90300006 9675352
-0.059340004 0.10406001 0.90300006 9675352
-0.057620004 0.10406001 0.90300006 9609316
-0.055900004 0.10406001 0.90300006 9609316
-0.054180004 0.10406001 0.90300006 9346921
-0.052460004 0.10406001 0.90300006 9017956
-0.050908573 0.10440572 0.90600002 9608769
-0.049182858 0.10440572 0.90600002 12372075
-0.047457144 0.10440572 0.90600002 12764302
-0.045731429 0.10440572 0.90600002 12303751
-0.044102859 0.10463619 0.90800005 9215344
-0.042466667 0.10486667 0.91000003 6188866
-0.040867623 0.10521238 0.91300005 5733144
-0.039214283 0.10544286 0.91500002 6851625
-0.037594289 0.10578857 0.91800004 10658161
-0.035845716 0.10578857 0.91800004 11908228
-0.034282859 0.10636476 0.92300004 12563557
-0.03259524 0.10659525 0.92500007 16775080
-0.030833337 0.10659525 0.92500007 16513220
-0.02907143 0.10659525 0.92500007 16777165
-0.11478096 0.10777143 0.92000002 16646104
-0.11241429 0.10718572 0.91500002 16383444
-0.11067143 0.10718572 0.91500002 15854770
-0.10892857 0.10718572 0.91500002 13486222
-0.10718572 0.10718572 0.91500002 13289104
-0.10544286 0.10718572 0.91500002 12565381
-0.10347334 0.10695143 0.91300005 9609603
-0.1014 0.1066 0.91000003 6780504
-0.099447623 0.10636572 0.90800005 5537108
-0.097502857 0.10613143 0.90600002 5537108
-0.095777147 0.10613143 0.90600002 5930030
-0.094051436 0.10613143 0.90600002 6653753
-0.092020005 0.10578001 0.90300006 11248481
-0.090300001 0.10578001 0.90300006 14143373
-0.088580005 0.10578001 0.90300006 12892268
-0.08666762 0.10554572 0.90100002 9076274
-0.084951431 0.10554572 0.90100002 8749146
-0.082958095 0.10519429 0.89800006 9143904
-0.08124762 0.10519429 0.89800006 9339723
-0.079802856 0.10554572 0.90100002 9010758
-0.077826671 0.10519429 0.89800006 9011021
-0.076116197 0.10519429 0.89800006 9603158
-0.074405722 0.10519429 0.89800006 9078352
-0.07269524 0.10519429 0.89800006 8749387
-0.07122191 0.10554572 0.90100002 9930320
-0.069660008 0.10578001 0.90300006 13483142
-0.067940004 0.10578001 0.90300006 13616761
-0.066220008 0.10578001 0.90300006 12629866
-0.064500004 0.10578001 0.90300006 9936741
-0.062780008 0.10578001 0.90300006 9344604
-0.061060004 0.10578001 0.90300006 9543775
-0.059340004 0.10578001 0.90300006 9609568
-0.057620004 0.10578001 0.90300006 9543775
-0.055900004 0.10578001 0.90300006 9543775
-0.054360002 0.10613143 0.90600002 9805927
-0.052634288 0.10613143 0.90600002 9937513
-0.050908573 0.10613143 0.90600002 10987605
-0.049182858 0.10613143 0.90600002 13158774
-0.047457144 0.10613143 0.90600002 13485184
-0.045832384 0.10636572 0.90800005 13945735
-0.044199999 0.1066 0.91000003 12236934
-0.04260667 0.10695143 0.91300005 10328937
-0.040867623 0.10695143 0.91300005 9675350
-0.039214283 0.10718572 0.91500002 10464866
-0.037594289 0.10753714 0.91800004 10791555
-0.036040954 0.10812286 0.92300004 10988934
-0.034282859 0.10812286 0.92300004 11972724
-0.03259524 0.10835715 0.92500007 16512441
-0.030833337 0.10835715 0.92500007 16578511
-0.02907143 0.10835715 0.92500007 16777175
-0.11415715 0.10892857 0.91500002 16646106
-0.11241429 0.10892857 0.91500002 16711643
-0.11067143 0.10892857 0.91500002 15920581
-0.10892857 0.10892857 0.91500002 12828310
-0.10718572 0.10892857 0.91500002 13089388
-0.10521238 0.10869049 0.91300005 13418353
-0.10347334 0.10869049 0.91300005 11318170
-0.1014 0.10833333 0.91000003 7370590
-0.09966667 0.10833333 0.91000003 5667376
-0.097718097 0.10809524 0.90800005 5601583
-0.095777147 0.10785715 0.90600002 5207300
-0.094051436 0.10785715 0.90600002 6917918
-0.092020005 0.10750001 0.90300006 11511133
-0.090300001 0.10750001 0.90300006 14142853
-0.088580005 0.10750001 0.90300006 12302720
-0.086860001 0.10750001 0.90300006 9342035
-0.084951431 0.1072619 0.90100002 8551999
-0.083235241 0.1072619 0.90100002 8880964
-0.081519045 0.1072619 0.90100002 9142335
-0.079802856 0.1072619 0.90100002 9208128
-0.078086674 0.1072619 0.90100002 9209166
-0.076370478 0.1072619 0.90100002 9077580
-0.074654289 0.1072619 0.90100002 8618303
-0.072938092 0.1072619 0.90100002 8947268
-0.07122191 0.1072619 0.90100002 10128208
-0.069660008 0.10750001 0.90300006 13549444
-0.067940004 0.10750001 0.90300006 13551229
-0.066220008 0.10750001 0.90300006 13090678
-0.064500004 0.10750001 0.90300006 10266245
-0.062780008 0.10750001 0.90300006 9410936
-0.061060004 0.10750001 0.90300006 9477732
-0.059340004 0.10750001 0.90300006 9543525
-0.057620004 0.10750001 0.90300006 9543768
-0.055900004 0.10750001 0.90300006 9477975
-0.054360002 0.10785715 0.90600002 9871450
-0.052634288 0.10785715 0.90600002 10792552
-0.050908573 0.10785715 0.90600002 12301435
-0.049182858 0.10785715 0.90600002 12893572
-0.047561906 0.10809524 0.90800005 13549155
-0.045933332 0.10833333 0.91000003 14404464
-0.044199999 0.10833333 0.91000003 13944983
-0.04260667 0.10869049 0.91300005 12497537
-0.040867623 0.10869049 0.91300005 10789731
-0.039214283 0.10892857 0.91500002 11513454
-0.037799049 0.10988096 0.92300004 11515271
-0.036040954 0.10988096 0.92300004 10659962
-0.034282859 0.10988096 0.92300004 11513456
-0.03259524 0.11011905 0.92500007 15987380
-0.030833337 0.11011905 0.92500007 16578770
-0.02907143 0.11011905 0.92500007 16777177
-0.11241429 0.11067143 0.91500002 16711643
-0.11067143 0.11067143 0.91500002 16249546
-0.10892857 0.11067143 0.91500002 11644036
-0.10718572 0.11067143 0.91500002 12169780
-0.10521238 0.11042953 0.91300005 12893503
-0.10347334 0.11042953 0.91300005 11908743
-0.1014 0.11006667 0.91000003 10132332
-0.09966667 0.11006667 0.91000003 7046487
-0.097718097 0.10982477 0.90800005 6520143
-0.095988572 0.10982477 0.90800005 8094803
-0.094051436 0.10958286 0.90600002 12305555
-0.092325717 0.10958286 0.90600002 13550986
