# .PCD v0.7 - Point Cloud Data file format
VERSION 0.7
FIELDS x y z rgba
SIZE 4 4 4 4
TYPE F F F U
COUNT 1 1 1 1
WIDTH 1111
HEIGHT 1
VIEWPOINT 0 0 0 1 0 0 0
POINTS 1111
DATA ascii
-0.065454289 0.12738952 0.73900002 14534281
-0.064046666 0.12738952 0.73900002 14403985
-0.062808573 0.1277343 0.74100006 14798743
-0.061231427 0.12738952 0.73900002 14733216
-0.059823811 0.12738952 0.73900002 14470044
-0.058337145 0.12721714 0.73800004 14140288
-0.056931432 0.12721714 0.73800004 14271874
-0.055525716 0.12721714 0.73800004 14009225
-0.054193333 0.12738952 0.73900002 13482881
-0.052785717 0.12738952 0.73900002 12826495
-0.051378097 0.12738952 0.73900002 12629116
-0.049970478 0.12738952 0.73900002 12497791
-0.048562858 0.12738952 0.73900002 12037240
-0.04728286 0.1277343 0.74100006 12167791
-0.045871433 0.1277343 0.74100006 12430963
-0.044460002 0.1277343 0.74100006 13089674
-0.043048576 0.1277343 0.74100006 12826502
-0.041693337 0.12790667 0.74200004 12104571
-0.040497147 0.1285962 0.74600005 8485956
-0.039128575 0.12876858 0.74700004 9732126
-0.037705716 0.12876858 0.74700004 11179572
-0.036428574 0.12928572 0.75000006 12691802
-0.035093337 0.12963048 0.75200003 13415525
-0.033750474 0.12997523 0.75400001 12825991
-0.032357145 0.13014764 0.75500005 11970682
-0.031082857 0.13083716 0.75900006 11053153
-0.029637145 0.13083716 0.75900006 9934672
-0.028265715 0.13118191 0.76100004 9607004
-0.026921906 0.13169906 0.76400006 13620377
-0.025566667 0.1322162 0.76700002 14276267
-0.10481429 0.13228287 0.75900006 10525526
-0.10309619 0.13193429 0.75700003 9997898
-0.10165429 0.13193429 0.75700003 8484659
-0.099550486 0.13106287 0.75200003 8682068
-0.098118097 0.13106287 0.75200003 9603170
-0.096300006 0.13054 0.74900001 11247186
-0.094620004 0.13019143 0.74700004 12497253
-0.093072385 0.13001715 0.74600005 10789715
-0.09165144 0.13001715 0.74600005 9013304
-0.089746676 0.12932001 0.74200004 10591825
-0.088333338 0.12932001 0.74200004 12894580
-0.086802863 0.12914573 0.74100006 12760945
-0.085391432 0.12914573 0.74100006 12300394
-0.083980009 0.12914573 0.74100006 11051892
-0.082568578 0.12914573 0.74100006 10657134
-0.081157148 0.12914573 0.74100006 11247715
-0.079745725 0.12914573 0.74100006 12563575
-0.078334294 0.12914573 0.74100006 12759419
-0.076922864 0.12914573 0.74100006 12298868
-0.075307623 0.12879714 0.73900002 11905112
-0.073899999 0.12879714 0.73900002 10852424
-0.072394282 0.12862286 0.73800004 11246173
-0.070988573 0.12862286 0.73800004 11377759
-0.069582857 0.12862286 0.73800004 11836743
-0.068269521 0.12879714 0.73900002 12034122
-0.066771425 0.12862286 0.73800004 12823908
-0.065365717 0.12862286 0.73800004 12758115
-0.064046666 0.12879714 0.73900002 12430683
-0.062554292 0.12862286 0.73800004 12430683
-0.061148573 0.12862286 0.73800004 11510633
-0.05974286 0.12862286 0.73800004 10523738
-0.058337145 0.12862286 0.73800004 11180380
-0.056931432 0.12862286 0.73800004 12825205
-0.055525716 0.12862286 0.73800004 12693365
-0.054193333 0.12879714 0.73900002 12627572
-0.052785717 0.12879714 0.73900002 11248758
-0.051378097 0.12879714 0.73900002 9998691
-0.049970478 0.12879714 0.73900002 10000217
-0.04869429 0.12914573 0.74100006 10131803
-0.04728286 0.12914573 0.74100006 10787428
-0.045871433 0.12914573 0.74100006 12366460
-0.044460002 0.12914573 0.74100006 12497276
-0.043048576 0.12914573 0.74100006 11181416
-0.041693337 0.12932001 0.74200004 10063959
-0.040497147 0.13001715 0.74600005 7958583
-0.039128575 0.13019143 0.74700004 8483637
-0.037705716 0.13019143 0.74700004 8746809
-0.03638 0.13054 0.74900001 10127156
-0.035093337 0.13106287 0.75200003 12627290
-0.033750474 0.13141142 0.75400001 12037511
-0.03244286 0.13193429 0.75700003 11708546
-0.031082857 0.13228287 0.75900006 10593608
-0.02971524 0.13263142 0.76100004 9672506
-0.028302858 0.13280571 0.76200002 9935451
-0.026992382 0.13350287 0.76600003 14146203
-0.025566667 0.13367715 0.76700002 14737079
-0.10509048 0.13408096 0.76100004 10197864
-0.10336858 0.13372858 0.75900006 9932101
-0.10165429 0.13337618 0.75700003 8813620
-0.099815235 0.13284762 0.75400001 8681797
-0.098118097 0.13249524 0.75200003 8616004
-0.096428581 0.13214287 0.75000006 10521144
-0.094873339 0.13196667 0.74900001 12231762
-0.093197145 0.1316143 0.74700004 11576169
-0.091774292 0.1316143 0.74700004 10720860
-0.089988567 0.13108571 0.74400002 10591582
-0.088333338 0.13073334 0.74200004 12565372
-0.086802863 0.13055715 0.74100006 12826754
-0.085391432 0.13055715 0.74100006 12300410
-0.083980009 0.13055715 0.74100006 10462322
-0.082568578 0.13055715 0.74100006 9409634
-0.081157148 0.13055715 0.74100006 10130777
-0.079745725 0.13055715 0.74100006 11512430
-0.078334294 0.13055715 0.74100006 12760452
-0.076922864 0.13055715 0.74100006 12234108
-0.075307623 0.13020477 0.73900002 11709034
-0.073800005 0.13002859 0.73800004 9998416
-0.072394282 0.13002859 0.73800004 10260548
-0.070988573 0.13002859 0.73800004 10194755
-0.069582857 0.13002859 0.73800004 10523188
-0.068269521 0.13020477 0.73900002 12365392
-0.066771425 0.13002859 0.73800004 12497017
-0.065365717 0.13002859 0.73800004 12431224
-0.063960001 0.13002859 0.73800004 12365170
-0.062554292 0.13002859 0.73800004 11444068
-0.061148573 0.13002859 0.73800004 10459751
-0.05974286 0.13002859 0.73800004 9801821
-0.058337145 0.13002859 0.73800004 10525003
-0.056931432 0.13002859 0.73800004 11906656
-0.055525716 0.13002859 0.73800004 12824951
-0.054193333 0.13020477 0.73900002 12693365
-0.052785717 0.13020477 0.73900002 11052923
-0.051378097 0.13020477 0.73900002 9671270
-0.049970478 0.13020477 0.73900002 8489795
-0.04869429 0.13055715 0.74100006 9345104
-0.04728286 0.13055715 0.74100006 10329171
-0.045871433 0.13055715 0.74100006 12039789
-0.044460002 0.13055715 0.74100006 12563080
-0.043106668 0.13073334 0.74200004 9733981
-0.041805714 0.13108571 0.74400002 9601096
-0.040497147 0.13143811 0.74600005 8745787
-0.039128575 0.1316143 0.74700004 8352828
-0.037705716 0.1316143 0.74700004 8155449
-0.03638 0.13196667 0.74900001 8287752
-0.035093337 0.13249524 0.75200003 12103746
-0.033750474 0.13284762 0.75400001 11447168
-0.03244286 0.13337618 0.75700003 11118203
-0.031082857 0.13372858 0.75900006 9805387
-0.02971524 0.13408096 0.76100004 9476422
-0.028377144 0.13460954 0.76400006 10002016
-0.026992382 0.1349619 0.76600003 14212768
-0.025566667 0.13513809 0.76700002 15066294
-0.10884096 0.13659905 0.76700002 16579531
-0.10724001 0.13642095 0.76600003 14670516
-0.10522857 0.13570857 0.76200002 10393971
-0.10364096 0.13553049 0.76100004 9866855
-0.10192287 0.1351743 0.75900006 8748374
-0.099815235 0.13428381 0.75400001 8615761
-0.098379053 0.13428381 0.75400001 8352589
-0.096685715 0.13392763 0.75200003 9074250
-0.095253341 0.13392763 0.75200003 11640177
-0.093820952 0.13392763 0.75200003 11904126
-0.092142865 0.13357145 0.75000006 13088400
-0.09023048 0.13285907 0.74600005 12300412
-0.088333338 0.13214667 0.74200004 12168826
-0.086802863 0.13196859 0.74100006 10920306
-0.085391432 0.13196859 0.74100006 10064997
-0.083980009 0.13196859 0.74100006 8620888
-0.082568578 0.13196859 0.74100006 8226130
-0.081157148 0.13196859 0.74100006 8816986
-0.079745725 0.13196859 0.74100006 9672295
-0.078334294 0.13196859 0.74100006 11313776
-0.076922864 0.13196859 0.74100006 12037499
-0.075307623 0.13161239 0.73900002 11971427
-0.073800005 0.13143429 0.73800004 9866051
-0.072394282 0.13143429 0.73800004 9339957
-0.070988573 0.13143429 0.73800004 8945199
-0.069582857 0.13143429 0.73800004 10720329
-0.068269521 0.13161239 0.73900002 12694119
-0.066861905 0.13161239 0.73900002 12563062
-0.065365717 0.13143429 0.73800004 11641960
-0.063960001 0.13143429 0.73800004 10656108
-0.06263905 0.13161239 0.73900002 7827009
-0.061231427 0.13161239 0.73900002 6516257
-0.059823811 0.13161239 0.73900002 5792534
-0.058416191 0.13161239 0.73900002 6777405
-0.056931432 0.13143429 0.73800004 8948574
-0.055525716 0.13143429 0.73800004 10918226
-0.054193333 0.13161239 0.73900002 12431465
-0.052785717 0.13161239 0.73900002 11906186
-0.051378097 0.13161239 0.73900002 11577221
-0.049970478 0.13161239 0.73900002 11118955
-0.04869429 0.13196859 0.74100006 11118955
-0.04728286 0.13196859 0.74100006 11709050
-0.045871433 0.13196859 0.74100006 12038015
-0.044520002 0.13214667 0.74200004 11313254
-0.04322286 0.13250287 0.74400002 8352569
-0.041805714 0.13250287 0.74400002 8353341
-0.040497147 0.13285907 0.74600005 8550720
-0.039128575 0.13303715 0.74700004 8419398
-0.037806667 0.13339333 0.74900001 8550984
-0.036428574 0.13357145 0.75000006 8681543
-0.035093337 0.13392763 0.75200003 10984298
-0.033795241 0.13446191 0.75500005 11511653
-0.03244286 0.13481809 0.75700003 11314274
-0.031082857 0.1351743 0.75900006 10002016
-0.02971524 0.13553049 0.76100004 9541465
-0.028302858 0.13570857 0.76200002 10264157
-0.026921906 0.13606477 0.76400006 14803874
-0.025566667 0.13659905 0.76700002 15986606
-0.10884096 0.13806 0.76700002 16579531
-0.10724001 0.13788 0.76600003 14999220
-0.10550477 0.13752002 0.76400006 10788468
-0.10364096 0.13698001 0.76100004 11378545
-0.10192287 0.13662001 0.75900006 9141583
-0.099947624 0.13590001 0.75500005 8748365
-0.098379053 0.13572 0.75400001 8353607
-0.096685715 0.13536 0.75200003 8615734
-0.095253341 0.13536 0.75200003 9800008
-0.093820952 0.13536 0.75200003 12035444
-0.092142865 0.13500002 0.75000006 13219718
-0.090351433 0.13446002 0.74700004 12563087
-0.08892858 0.13446002 0.74700004 11181434
-0.087505721 0.13446002 0.74700004 9607258
-0.08550667 0.13356 0.74200004 8817742
-0.08409334 0.13356 0.74200004 8227908
-0.082568578 0.13338001 0.74100006 8491080
-0.081157148 0.13338001 0.74100006 8686674
-0.079745725 0.13338001 0.74100006 8752467
-0.078334294 0.13338001 0.74100006 10459994
-0.076922864 0.13338001 0.74100006 11315303
-0.075307623 0.13302 0.73900002 12103022
-0.073899999 0.13302 0.73900002 10129232
-0.072492383 0.13302 0.73900002 9929775
-0.07108476 0.13302 0.73900002 10061361
-0.069677144 0.13302 0.73900002 11640663
-0.068269521 0.13302 0.73900002 12824937
-0.066861905 0.13302 0.73900002 12497789
-0.065454289 0.13302 0.73900002 11379308
-0.064046666 0.13302 0.73900002 9540970
-0.06263905 0.13302 0.73900002 6185527
-0.061231427 0.13302 0.73900002 4613648
-0.059823811 0.13302 0.73900002 4811027
-0.058416191 0.13302 0.73900002 5465615
-0.057008572 0.13302 0.73900002 5991959
-0.055600952 0.13302 0.73900002 9011753
-0.054193333 0.13302 0.73900002 10853957
-0.052928574 0.13338001 0.74100006 12299640
-0.051517144 0.13338001 0.74100006 12299640
-0.050105717 0.13338001 0.74100006 11972208
-0.048760001 0.13356 0.74200004 12301173
-0.04734667 0.13356 0.74200004 12300937
-0.045933336 0.13356 0.74200004 10524526
-0.044640001 0.13392 0.74400002 9864525
-0.04322286 0.13392 0.74400002 8482872
-0.041805714 0.13392 0.74400002 8418880
-0.040497147 0.13428 0.74600005 8682052
-0.039128575 0.13446002 0.74700004 8550984
-0.037857145 0.13500002 0.75000006 8287812
-0.036525715 0.13536 0.75200003 8155201
-0.035186667 0.13572 0.75400001 11247472
-0.033795241 0.13590001 0.75500005 11512423
-0.03244286 0.13626 0.75700003 11380837
-0.031082857 0.13662001 0.75900006 9673567
-0.02971524 0.13698001 0.76100004 9344602
-0.028302858 0.13716 0.76200002 10526046
-0.026921906 0.13752002 0.76400006 14934177
-0.025566667 0.13806 0.76700002 16183737
-0.1103019 0.13952096 0.76700002 16513740
-0.10884096 0.13952096 0.76700002 16579533
-0.10724001 0.13933904 0.76600003 16446394
-0.10578096 0.13933904 0.76600003 13090951
-0.10364096 0.13842954 0.76100004 11183233
-0.10219143 0.13842954 0.76100004 8748892
-0.099947624 0.13733812 0.75500005 8485972
-0.098379053 0.1371562 0.75400001 8485972
-0.096942857 0.1371562 0.75400001 8682056
-0.095253341 0.13679238 0.75200003 8616263
-0.093820952 0.13679238 0.75200003 11640915
-0.092142865 0.13642858 0.75000006 13417326
-0.090714291 0.13642858 0.75000006 12300412
-0.089166664 0.13624667 0.74900001 9734485
-0.087505721 0.13588285 0.74700004 8622155
-0.085967623 0.13570096 0.74600005 8490569
-0.084546678 0.13570096 0.74600005 8490565
-0.082680002 0.13497335 0.74200004 8687944
-0.081157148 0.13479143 0.74100006 8752726
-0.079745725 0.13479143 0.74100006 8160589
-0.078334294 0.13479143 0.74100006 9869383
-0.076922864 0.13479143 0.74100006 10198348
-0.075307623 0.13442762 0.73900002 11248483
-0.073899999 0.13442762 0.73900002 12432757
-0.072492383 0.13442762 0.73900002 12168311
-0.07108476 0.13442762 0.73900002 12299897
-0.069677144 0.13442762 0.73900002 12299888
-0.068269521 0.13442762 0.73900002 11773544
-0.066861905 0.13442762 0.73900002 10196570
-0.065454289 0.13442762 0.73900002 7301678
-0.064046666 0.13442762 0.73900002 6187828
-0.06263905 0.13442762 0.73900002 5464105
-0.061231427 0.13442762 0.73900002 5072949
-0.059823811 0.13442762 0.73900002 5336121
-0.058416191 0.13442762 0.73900002 5466678
-0.057008572 0.13442762 0.73900002 5006127
-0.055600952 0.13442762 0.73900002 6516257
-0.054340001 0.13479143 0.74100006 7042601
-0.052928574 0.13479143 0.74100006 9734724
-0.051517144 0.13479143 0.74100006 12300651
-0.050105717 0.13479143 0.74100006 12365424
-0.048760001 0.13497335 0.74200004 13023354
-0.04734667 0.13497335 0.74200004 12431985
-0.046057142 0.13533714 0.74400002 8944956
-0.044640001 0.13533714 0.74400002 8088906
-0.043339051 0.13570096 0.74600005 8220492
-0.041918099 0.13570096 0.74600005 8616511
-0.040551431 0.13588285 0.74700004 8682304
-0.039233334 0.13624667 0.74900001 8550984
-0.037958097 0.13679238 0.75200003 8353605
-0.036525715 0.13679238 0.75200003 8483921
-0.035186667 0.1371562 0.75400001 11444606
-0.033795241 0.13733812 0.75500005 12301160
-0.032528572 0.13806573 0.75900006 12366953
-0.031164765 0.13842954 0.76100004 10330234
-0.02971524 0.13842954 0.76100004 9540718
-0.028302858 0.13861144 0.76200002 10789227
-0.026921906 0.13897525 0.76400006 14605221
-0.11205429 0.14134952 0.76900005 16251094
-0.1103019 0.14098191 0.76700002 16513220
-0.10884096 0.14098191 0.76700002 16710599
-0.10724001 0.14079811 0.76600003 16512200
-0.10578096 0.14079811 0.76600003 13222550
-0.10404953 0.14043048 0.76400006 11840384
-0.10219143 0.13987905 0.76100004 8945492
-0.10047715 0.13951144 0.75900006 9208398
-0.098509528 0.1387762 0.75500005 8747847
-0.096942857 0.13859238 0.75400001 8682306
-0.095253341 0.13822477 0.75200003 8682306
-0.093820952 0.13822477 0.75200003 10522959
-0.092142865 0.13785715 0.75000006 13088886
-0.090714291 0.13785715 0.75000006 11775624
-0.089166664 0.13767333 0.74900001 9209697
-0.087505721 0.13730572 0.74700004 8491089
-0.085967623 0.13712192 0.74600005 8622675
-0.084546678 0.13712192 0.74600005 8753489
-0.082902864 0.13675429 0.74400002 8687696
-0.081485718 0.13675429 0.74400002 8752728
-0.080068566 0.13675429 0.74400002 8489556
-0.078440003 0.13638668 0.74200004 8752717
-0.077026673 0.13638668 0.74200004 8555338
-0.075511433 0.13620287 0.74100006 9802316
-0.073899999 0.13583523 0.73900002 11249762
-0.072492383 0.13583523 0.73900002 12299379
-0.07108476 0.13583523 0.73900002 12759930
-0.069677144 0.13583523 0.73900002 12432507
-0.068269521 0.13583523 0.73900002 10195545
-0.066861905 0.13583523 0.73900002 8947527
-0.065454289 0.13583523 0.73900002 6184221
-0.064046666 0.13583523 0.73900002 4941363
-0.06263905 0.13583523 0.73900002 5138742
-0.061231427 0.13583523 0.73900002 5401387
-0.059823811 0.13583523 0.73900002 5401387
-0.058416191 0.13583523 0.73900002 5466678
-0.057008572 0.13583523 0.73900002 5335092
-0.055600952 0.13583523 0.73900002 5270560
-0.054340001 0.13620287 0.74100006 4744216
-0.052928574 0.13620287 0.74100006 8091913
-0.051586669 0.13638668 0.74200004 11842114
-0.050173335 0.13638668 0.74200004 12693628
-0.048891429 0.13675429 0.74400002 12759421
-0.047474284 0.13675429 0.74400002 11379049
-0.046057142 0.13675429 0.74400002 8352571
-0.044760004 0.13712192 0.74600005 7892790
-0.043339051 0.13712192 0.74600005 8484927
-0.041974287 0.13730572 0.74700004 8879181
-0.040660001 0.13767333 0.74900001 8747595
-0.039285716 0.13785715 0.75000006 8747597
-0.037958097 0.13822477 0.75200003 8484425
-0.036622856 0.13859238 0.75400001 8418884
-0.035233337 0.1387762 0.75500005 11511155
-0.033884764 0.13914382 0.75700003 12761209
-0.032528572 0.13951144 0.75900006 12827002
-0.031164765 0.13987905 0.76100004 11382915
-0.029754287 0.14006287 0.76200002 10461813
-0.028302858 0.14006287 0.76200002 10987623
-0.11205429 0.14281429 0.76900005 16381914
-0.1103019 0.14244285 0.76700002 16513472
-0.10884096 0.14244285 0.76700002 16710851
-0.10738 0.14244285 0.76700002 16512700
-0.10578096 0.14225715 0.76600003 12828292
-0.10404953 0.14188573 0.76400006 11578243
-0.10232572 0.1415143 0.76200002 10393969
-0.10074191 0.14132857 0.76100004 8553296
-0.098509528 0.14021429 0.75500005 7763780
-0.096942857 0.14002857 0.75400001 8223302
-0.095253341 0.13965714 0.75200003 8552267
-0.093820952 0.13965714 0.75200003 10654556
-0.092142865 0.13928573 0.75000006 13220483
-0.090714291 0.13928573 0.75000006 11709820
-0.089166664 0.1391 0.74900001 9341272
-0.087505721 0.13872857 0.74700004 8425810
-0.085967623 0.13854288 0.74600005 8623189
-0.084546678 0.13854288 0.74600005 8621651
-0.082902864 0.13817143 0.74400002 8621651
-0.081485718 0.13817143 0.74400002 8686933
-0.080068566 0.13817143 0.74400002 8489554
-0.078651428 0.13817143 0.74400002 8423509
-0.077026673 0.13780001 0.74200004 8160337
-0.075613335 0.13780001 0.74200004 8881493
-0.07410001 0.13761429 0.74100006 10460525
-0.07268858 0.13761429 0.74100006 11905625
-0.071277149 0.13761429 0.74100006 12892520
-0.069865718 0.13761429 0.74100006 11775077
-0.068454288 0.13761429 0.74100006 8024876
-0.067042857 0.13761429 0.74100006 5728560
-0.065454289 0.13724287 0.73900002 5531181
-0.064046666 0.13724287 0.73900002 5466685
-0.06263905 0.13724287 0.73900002 5532478
-0.061231427 0.13724287 0.73900002 5270292
-0.059823811 0.13724287 0.73900002 5336085
-0.058416191 0.13724287 0.73900002 5336371
-0.057008572 0.13724287 0.73900002 5204785
-0.055600952 0.13724287 0.73900002 5336869
-0.054340001 0.13761429 0.74100006 5007904
-0.052928574 0.13761429 0.74100006 6252340
-0.051586669 0.13780001 0.74200004 9147232
-0.050173335 0.13780001 0.74200004 11510376
-0.048891429 0.13817143 0.74400002 11641962
-0.047474284 0.13817143 0.74400002 10918489
-0.046180952 0.13854288 0.74600005 7957804
-0.044760004 0.13854288 0.74600005 8023891
-0.043397143 0.13872857 0.74700004 8681821
-0.042086668 0.1391 0.74900001 8747847
-0.040660001 0.1391 0.74900001 8024124
-0.039285716 0.13928573 0.75000006 8154205
-0.037958097 0.13965714 0.75200003 9075307
-0.036622856 0.14002857 0.75400001 9273430
-0.035233337 0.14021429 0.75500005 11773564
-0.033884764 0.14058572 0.75700003 12761184
-0.032614287 0.14132857 0.76100004 13616493
-0.031205716 0.1415143 0.76200002 12761988
-0.029754287 0.1415143 0.76200002 12235644
-0.028302858 0.1415143 0.76200002 12037999
-0.1103019 0.14390381 0.76700002 16645830
-0.10884096 0.14390381 0.76700002 16777161
-0.10738 0.14390381 0.76700002 16513481
-0.10578096 0.1437162 0.76600003 12894866
-0.10404953 0.14334096 0.76400006 11907717
-0.10232572 0.1429657 0.76200002 10986615
-0.10074191 0.1427781 0.76100004 9342035
-0.098509528 0.14165239 0.75500005 8157761
-0.096942857 0.14146475 0.75400001 8290594
-0.095506661 0.14146475 0.75400001 8619559
-0.093820952 0.14108953 0.75200003 10786399
-0.092142865 0.1407143 0.75000006 12957568
-0.090714291 0.1407143 0.75000006 11382138
-0.089166664 0.14052667 0.74900001 9145176
-0.087505721 0.14015144 0.74700004 8753489
-0.086082861 0.14015144 0.74700004 8621903
-0.084546678 0.13996382 0.74600005 8621131
-0.082902864 0.13958858 0.74400002 8752717
-0.081485718 0.13958858 0.74400002 8818008
-0.080068566 0.13958858 0.74400002 8554836
-0.078651428 0.13958858 0.74400002 8160589
-0.077026673 0.13921334 0.74200004 8226382
-0.075613335 0.13921334 0.74200004 8357191
-0.07410001 0.13902572 0.74100006 9936223
-0.07268858 0.13902572 0.74100006 11182179
-0.071277149 0.13902572 0.74100006 12432246
-0.069865718 0.13902572 0.74100006 10790503
-0.068454288 0.13902572 0.74100006 6645544
-0.067042857 0.13902572 0.74100006 4745252
-0.065454289 0.13865048 0.73900002 5008424
-0.064046666 0.13865048 0.73900002 5400633
-0.06263905 0.13865048 0.73900002 5334840
-0.061397146 0.13902572 0.74100006 5269549
-0.05998572 0.13902572 0.74100006 5466928
-0.058574289 0.13902572 0.74100006 5204794
-0.057162859 0.13902572 0.74100006 5270587
-0.055751432 0.13902572 0.74100006 5270835
-0.054340001 0.13902572 0.74100006 5007663
-0.052928574 0.13902572 0.74100006 5399080
-0.051586669 0.13921334 0.74200004 8754523
-0.050308574 0.13958858 0.74400002 10197344
-0.048891429 0.13958858 0.74400002 10986860
-0.047601905 0.13996382 0.74600005 10130266
-0.046180952 0.13996382 0.74600005 7695925
-0.044760004 0.13996382 0.74600005 7695175
-0.043397143 0.14015144 0.74700004 8550484
-0.042086668 0.14052667 0.74900001 8617029
-0.040660001 0.14052667 0.74900001 7893306
-0.039285716 0.1407143 0.75000006 8154429
-0.038059048 0.14146475 0.75400001 9996633
-0.03667143 0.14165239 0.75500005 10391671
-0.035326667 0.14202763 0.75700003 11378566
-0.03397429 0.14240287 0.75900006 11510349
-0.032614287 0.1427781 0.76100004 12365658
-0.031205716 0.1429657 0.76200002 12957048
-0.029832384 0.14334096 0.76400006 12759669
-0.028377144 0.14334096 0.76400006 12364650
-0.1103019 0.14536478 0.76700002 16580035
-0.10884096 0.14536478 0.76700002 16777160
-0.10738 0.14536478 0.76700002 16579274
-0.10578096 0.14517525 0.76600003 13289624
-0.10404953 0.14479619 0.76400006 11841408
-0.10232572 0.14441714 0.76200002 11972994
-0.10074191 0.14422762 0.76100004 9933428
-0.099031433 0.14384858 0.75900006 8288603
-0.097071439 0.14309049 0.75500005 9143625
-0.095506661 0.14290096 0.75400001 11512173
-0.093820952 0.14252192 0.75200003 12695159
-0.092142865 0.14214288 0.75000006 13024124
-0.090714291 0.14214288 0.75000006 11972981
-0.089166664 0.14195333 0.74900001 10525535
-0.087505721 0.14157429 0.74700004 9278809
-0.086082861 0.14157429 0.74700004 8686672
-0.084546678 0.14138477 0.74600005 8687192
-0.083125718 0.14138477 0.74600005 9081950
-0.081485718 0.14100571 0.74400002 8686935
-0.080068566 0.14100571 0.74400002 8621142
-0.078651428 0.14100571 0.74400002 8489813
-0.077234283 0.14100571 0.74400002 8555606
-0.075613335 0.14062667 0.74200004 8686672
-0.074200004 0.14062667 0.74200004 9805153
-0.072786666 0.14062667 0.74200004 10985586
-0.071277149 0.14043716 0.74100006 12169860
-0.069865718 0.14043716 0.74100006 11053164
-0.068454288 0.14043716 0.74100006 6381861
-0.067042857 0.14043716 0.74100006 4679739
-0.065454289 0.1400581 0.73900002 4811325
-0.064046666 0.1400581 0.73900002 5204030
-0.062808573 0.14043716 0.74100006 5138237
-0.061397146 0.14043716 0.74100006 5138488
-0.05998572 0.14043716 0.74100006 5270074
-0.058574289 0.14043716 0.74100006 5138761
-0.057162859 0.14043716 0.74100006 5204554
-0.055751432 0.14043716 0.74100006 5204802
-0.054413334 0.14062667 0.74200004 4810044
-0.052999999 0.14062667 0.74200004 5859133
-0.051586669 0.14062667 0.74200004 9346162
-0.050308574 0.14100571 0.74400002 11709536
-0.048891429 0.14100571 0.74400002 12564845
-0.047601905 0.14138477 0.74600005 11446126
-0.046180952 0.14138477 0.74600005 8419648
-0.044819999 0.14157429 0.74700004 8026450
-0.043397143 0.14157429 0.74700004 8092243
-0.042086668 0.14195333 0.74900001 8289093
-0.04071429 0.14214288 0.75000006 8157507
-0.039390475 0.14252192 0.75200003 9076044
-0.038059048 0.14290096 0.75400001 11970936
-0.03667143 0.14309049 0.75500005 11708284
-0.035326667 0.14346953 0.75700003 10260838
-0.03397429 0.14384858 0.75900006 9538858
-0.032614287 0.14422762 0.76100004 9407272
-0.031205716 0.14441714 0.76200002 10852696
-0.029832384 0.14479619 0.76400006 12826486
-0.028377144 0.14479619 0.76400006 12430965
-0.10884096 0.14682572 0.76700002 16776392
-0.10738 0.14682572 0.76700002 16644815
-0.10578096 0.14663428 0.76600003 13486751
-0.1043219 0.14663428 0.76600003 11709302
-0.10232572 0.14586857 0.76200002 11972474
-0.10087429 0.14586857 0.76200002 11446650
-0.099031433 0.14529429 0.75900006 9275481
-0.097071439 0.14452857 0.75500005 10259010
-0.095506661 0.14433715 0.75400001 13153902
-0.093820952 0.14395429 0.75200003 12957570
-0.092142865 0.14357144 0.75000006 12497019
-0.090714291 0.14357144 0.75000006 11842140
-0.089166664 0.14338 0.74900001 11381589
-0.087505721 0.14299715 0.74700004 10002039
-0.086082861 0.14299715 0.74700004 9080937
-0.084546678 0.14280573 0.74600005 8885336
-0.083125718 0.14280573 0.74600005 8819543
-0.081704766 0.14280573 0.74600005 8555606
-0.080283813 0.14280573 0.74600005 8621399
-0.078651428 0.14242285 0.74400002 8424533
-0.077234283 0.14242285 0.74400002 8358740
-0.075817145 0.14242285 0.74400002 8555606
-0.074200004 0.14204001 0.74200004 10003052
-0.072786666 0.14204001 0.74200004 11183208
-0.071373336 0.14204001 0.74200004 12170103
-0.069865718 0.14184858 0.74100006 10988657
-0.068454288 0.14184858 0.74100006 7238456
-0.067042857 0.14184858 0.74100006 5138237
-0.065631427 0.14184858 0.74100006 5072444
-0.064220004 0.14184858 0.74100006 5270074
-0.062808573 0.14184858 0.74100006 5138488
-0.061397146 0.14184858 0.74100006 5270074
-0.05998572 0.14184858 0.74100006 5204281
-0.058574289 0.14184858 0.74100006 4679218
-0.057162859 0.14184858 0.74100006 5205562
-0.055751432 0.14184858 0.74100006 5205042
-0.054413334 0.14204001 0.74200004 4744491
-0.052999999 0.14204001 0.74200004 6318626
-0.051725715 0.14242285 0.74400002 10726757
-0.050443813 0.14280573 0.74600005 12037238
-0.049022861 0.14280573 0.74600005 12629375
-0.047601905 0.14280573 0.74600005 11840886
-0.046242859 0.14299715 0.74700004 9538131
-0.044819999 0.14299715 0.74700004 8092497
-0.043397143 0.14299715 0.74700004 7829325
-0.042142861 0.14357144 0.75000006 7237395
-0.04071429 0.14357144 0.75000006 8092704
-0.039390475 0.14395429 0.75200003 9011285
-0.038059048 0.14433715 0.75400001 11971970
-0.03667143 0.14452857 0.75500005 11973262
-0.035326667 0.14491144 0.75700003 8223061
-0.03397429 0.14529429 0.75900006 7240223
-0.032614287 0.14567715 0.76100004 6911258
-0.031205716 0.14586857 0.76200002 9867064
-0.029832384 0.14625144 0.76400006 11511889
-0.02845143 0.14663428 0.76600003 11838560
-0.027239049 0.1479743 0.77300006 15917726
-0.10884096 0.14828667 0.76700002 16645328
-0.10738 0.14828667 0.76700002 16578511
-0.10591905 0.14828667 0.76700002 13946791
-0.1043219 0.14809333 0.76600003 11578001
-0.10259429 0.14770667 0.76400006 11183243
-0.10087429 0.14732 0.76200002 11511930
-0.099292383 0.14712666 0.76100004 11906688
-0.097071439 0.14596668 0.75500005 12563564
-0.095506661 0.14577332 0.75400001 13418873
-0.093820952 0.14538667 0.75200003 12302448
-0.09238857 0.14538667 0.75200003 8486454
-0.090714291 0.14500001 0.75000006 9472588
-0.089166664 0.14480667 0.74900001 12104308
-0.087505721 0.14442 0.74700004 11971954
-0.086082861 0.14442 0.74700004 10063957
-0.084546678 0.14422667 0.74600005 9343568
-0.083125718 0.14422667 0.74600005 8948810
-0.081704766 0.14422667 0.74600005 8555608
-0.080283813 0.14422667 0.74600005 8555608
-0.078862861 0.14422667 0.74600005 8621138
-0.077441908 0.14422667 0.74600005 8884310
-0.075817145 0.14384 0.74400002 9801329
-0.0744 0.14384 0.74400002 11906705
-0.072982863 0.14384 0.74400002 12299888
-0.071565717 0.14384 0.74400002 12694646
-0.069960006 0.14345334 0.74200004 11973235
-0.068546675 0.14345334 0.74200004 10657375
-0.067042857 0.14326 0.74100006 6452593
-0.065631427 0.14326 0.74100006 4873561
-0.064220004 0.14326 0.74100006 4482609
-0.062808573 0.14326 0.74100006 4679988
-0.061397146 0.14326 0.74100006 5007421
-0.05998572 0.14326 0.74100006 5139007
-0.058574289 0.14326 0.74100006 5007917
-0.057162859 0.14326 0.74100006 5205296
-0.055751432 0.14326 0.74100006 5861668
-0.054413334 0.14345334 0.74200004 7506493
-0.053142861 0.14384 0.74400002 9999706
-0.051725715 0.14384 0.74400002 12434047
-0.050443813 0.14422667 0.74600005 12497530
-0.049022861 0.14422667 0.74600005 12431737
-0.047601905 0.14422667 0.74600005 12235110
-0.046242859 0.14442 0.74700004 12366696
-0.044819999 0.14442 0.74700004 10854528
-0.043513332 0.14480667 0.74900001 9012324
-0.042142861 0.14500001 0.75000006 8881716
-0.04082286 0.14538667 0.75200003 9013302
-0.039390475 0.14538667 0.75200003 9865077
-0.038059048 0.14577332 0.75400001 12365211
-0.03667143 0.14596668 0.75500005 11447641
-0.035326667 0.14635333 0.75700003 7697440
-0.03397429 0.14674 0.75900006 6584658
-0.032614287 0.14712666 0.76100004 6321486
-0.031287622 0.14770667 0.76400006 8159560
-0.029910479 0.14809333 0.76600003 10462315
-0.028488571 0.14828667 0.76700002 11445344
-0.027239049 0.14944667 0.77300006 16182440
-0.10738 0.14974762 0.76700002 16447175
-0.10578096 0.14955239 0.76600003 14341799
-0.1043219 0.14955239 0.76600003 12762515
-0.10259429 0.14916192 0.76400006 10591346
-0.10087429 0.14877144 0.76200002 11117401
-0.099292383 0.1485762 0.76100004 12828019
-0.097585723 0.14818573 0.75900006 13023874
-0.095633343 0.14740478 0.75500005 13023874
-0.094070479 0.14720953 0.75400001 10857339
-0.09238857 0.14681906 0.75200003 6712380
-0.090714291 0.14642859 0.75000006 8420871
-0.089166664 0.14623334 0.74900001 11578935
-0.087505721 0.14584287 0.74700004 12628351
-0.086082861 0.14584287 0.74700004 11707249
-0.084660001 0.14584287 0.74700004 9278311
-0.083125718 0.14564763 0.74600005 8620381
-0.081704766 0.14564763 0.74600005 8424265
-0.080283813 0.14564763 0.74600005 8490058
-0.078862861 0.14564763 0.74600005 8817488
-0.077441908 0.14564763 0.74600005 9409625
-0.076020956 0.14564763 0.74600005 11377782
-0.0744 0.14525715 0.74400002 12627849
-0.072982863 0.14525715 0.74400002 12562553
-0.071565717 0.14525715 0.74400002 12430967
-0.069960006 0.14486668 0.74200004 12300662
-0.068546675 0.14486668 0.74200004 11774318
-0.067133337 0.14486668 0.74200004 9279096
-0.065631427 0.14467144 0.74100006 6713169
-0.064220004 0.14467144 0.74100006 4352052
-0.062808573 0.14467144 0.74100006 4286259
-0.061397146 0.14467144 0.74100006 4810034
-0.05998572 0.14467144 0.74100006 4810034
-0.058653336 0.14486668 0.74200004 4810795
-0.057240006 0.14486668 0.74200004 4876588
-0.055826671 0.14486668 0.74200004 6188832
-0.054560002 0.14525715 0.74400002 9281103
-0.053142861 0.14525715 0.74400002 11380094
-0.051864766 0.14564763 0.74600005 12038024
-0.050443813 0.14564763 0.74600005 11971968
-0.049022861 0.14564763 0.74600005 11971968
-0.047601905 0.14564763 0.74600005 12366446
-0.046242859 0.14584287 0.74700004 12695411
-0.044819999 0.14584287 0.74700004 12301707
-0.043513332 0.14623334 0.74900001 10920054
-0.042142861 0.14642859 0.75000006 9802316
-0.04082286 0.14681906 0.75200003 9999695
-0.039495237 0.14720953 0.75400001 11442805
-0.038109526 0.14740478 0.75500005 11179633
-0.03667143 0.14740478 0.75500005 10130266
-0.035420001 0.14818573 0.75900006 7761718
-0.03397429 0.14818573 0.75900006 6257233
-0.032657143 0.14877144 0.76200002 6257233
-0.031369522 0.14955239 0.76600003 7831874
-0.029949524 0.14974762 0.76700002 10200422
-0.028562859 0.1501381 0.76900005 11183710
-0.027344763 0.15150476 0.77600002 16249771
-0.10578096 0.15101144 0.76600003 14999983
-0.10404953 0.15061715 0.76400006 12698274
-0.10259429 0.15061715 0.76400006 9803382
-0.10087429 0.15022287 0.76200002 10854493
-0.099292383 0.15002573 0.76100004 13025662
-0.097842865 0.15002573 0.76100004 12498550
-0.095633343 0.14884287 0.75500005 9143107
-0.094070479 0.14864571 0.75400001 6714448
-0.09238857 0.14825143 0.75200003 5595967
-0.090956196 0.14825143 0.75200003 6581578
-0.089166664 0.14766 0.74900001 8884333
-0.087739997 0.14766 0.74900001 11379292
-0.086082861 0.14726573 0.74700004 12760945
-0.084660001 0.14726573 0.74700004 11183735
-0.083237141 0.14726573 0.74700004 9670496
-0.081814289 0.14726573 0.74700004 9147979
-0.080283813 0.14706858 0.74600005 9411151
-0.078862861 0.14706858 0.74600005 10657645
-0.077441908 0.14706858 0.74600005 11776126
-0.076020956 0.14706858 0.74600005 12299901
-0.074600004 0.14706858 0.74600005 11839350
-0.073179051 0.14706858 0.74600005 10522216
-0.071565717 0.14667429 0.74400002 9995872
-0.070148572 0.14667429 0.74400002 10654815
-0.068731427 0.14667429 0.74400002 12694398
-0.067133337 0.14628001 0.74200004 11644531
-0.065720007 0.14628001 0.74200004 10986601
-0.064306669 0.14628001 0.74200004 8490348
-0.062893331 0.14628001 0.74200004 6187593
-0.061480001 0.14628001 0.74200004 3891772
-0.06006667 0.14628001 0.74200004 3628600
-0.058653336 0.14628001 0.74200004 5598253
-0.057394285 0.14667429 0.74400002 7901008
-0.055977143 0.14667429 0.74400002 10723670
-0.05470667 0.14706858 0.74600005 12236909
-0.053285718 0.14706858 0.74600005 11577221
-0.051864766 0.14706858 0.74600005 10261361
-0.050443813 0.14706858 0.74600005 10064993
-0.049022861 0.14706858 0.74600005 9867614
-0.047665719 0.14726573 0.74700004 11051608
-0.046242859 0.14726573 0.74700004 12235882
-0.044819999 0.14726573 0.74700004 12431985
-0.043513332 0.14766 0.74900001 12892536
-0.042255241 0.14825143 0.75200003 12235642
-0.04082286 0.14825143 0.75200003 12104056
-0.039495237 0.14864571 0.75400001 11907192
-0.038109526 0.14884287 0.75500005 8683335
-0.03667143 0.14884287 0.75500005 7765570
-0.035326667 0.14923714 0.75700003 7239226
-0.03397429 0.14963144 0.75900006 6191958
-0.032657143 0.15022287 0.76200002 6586716
-0.031410474 0.15120856 0.76700002 8226384
-0.030027622 0.15160286 0.76900005 10660725
-0.028637143 0.15199713 0.77100003 11971429
-0.027344763 0.15298286 0.77600002 16774832
-0.10578096 0.15247048 0.76600003 15724483
-0.10404953 0.15207238 0.76400006 12896934
-0.10259429 0.15207238 0.76400006 9541491
-0.10087429 0.1516743 0.76200002 10723679
-0.099292383 0.15147525 0.76100004 12500090
-0.097842865 0.15147525 0.76100004 11973755
-0.096140005 0.15107715 0.75900006 7631417
-0.094070479 0.1500819 0.75400001 5731386
-0.092634283 0.1500819 0.75400001 5468214
-0.090956196 0.14968382 0.75200003 5598003
-0.089285724 0.14928573 0.75000006 6190140
-0.087739997 0.14908667 0.74900001 9471786
-0.086082861 0.14868857 0.74700004 12103506
-0.084660001 0.14868857 0.74700004 12235664
-0.083237141 0.14868857 0.74700004 10261874
-0.081814289 0.14868857 0.74700004 9672013
-0.080283813 0.14848953 0.74600005 9935185
-0.078862861 0.14848953 0.74600005 11576178
-0.077441908 0.14848953 0.74600005 12431487
-0.076020956 0.14848953 0.74600005 12496778
-0.074600004 0.14848953 0.74600005 10983539
-0.073179051 0.14848953 0.74600005 9865551
-0.071758099 0.14848953 0.74600005 9470793
-0.070148572 0.14809144 0.74400002 10062374
-0.068731427 0.14809144 0.74400002 12101957
-0.067314282 0.14809144 0.74400002 12693876
-0.065720007 0.14769334 0.74200004 12562290
-0.064306669 0.14769334 0.74200004 10527352
-0.062893331 0.14769334 0.74200004 8158804
-0.061480001 0.14769334 0.74200004 5272102
-0.06006667 0.14769334 0.74200004 4548379
-0.05881143 0.14809144 0.74400002 6517029
-0.057394285 0.14809144 0.74400002 9938265
-0.055977143 0.14809144 0.74400002 11838846
-0.05470667 0.14848953 0.74600005 12167811
-0.053285718 0.14848953 0.74600005 11511421
-0.051864766 0.14848953 0.74600005 9471838
-0.050443813 0.14848953 0.74600005 8752215
-0.049022861 0.14848953 0.74600005 8620629
-0.047665719 0.14868857 0.74700004 10196563
-0.046242859 0.14868857 0.74700004 10920286
-0.044939999 0.14908667 0.74900001 11970405
-0.043571431 0.14928573 0.75000006 13154679
-0.042255241 0.14968382 0.75200003 12892306
-0.04093143 0.1500819 0.75400001 12431755
-0.039495237 0.1500819 0.75400001 11317120
-0.038109526 0.15028097 0.75500005 7303747
-0.03667143 0.15028097 0.75500005 6191676
-0.035326667 0.15067905 0.75700003 6454848
-0.03397429 0.15107715 0.75900006 5402943
-0.032614287 0.15147525 0.76100004 6389838
-0.031574287 0.15346572 0.77100003 8816720
-0.030183813 0.15386382 0.77300006 11382647
-0.028711431 0.15386382 0.77300006 13087096
-0.027344763 0.15446095 0.77600002 16773817
-0.10578096 0.15392953 0.76600003 15987900
-0.1043219 0.15392953 0.76600003 14146473
-0.10259429 0.15352763 0.76400006 9804135
-0.10113905 0.15352763 0.76400006 10461288
-0.099422857 0.1531257 0.76200002 11974527
-0.097971432 0.1531257 0.76200002 11185000
-0.096140005 0.15252288 0.75900006 6842662
-0.094195247 0.15171905 0.75500005 5862983
-0.092634283 0.15151809 0.75400001 6060362
-0.091198094 0.15151809 0.75400001 5598540
-0.089523815 0.15111621 0.75200003 5072196
-0.08785715 0.15071429 0.75000006 7763744
-0.08631333 0.15051334 0.74900001 9803327
-0.08488667 0.15051334 0.74900001 10984825
-0.083237141 0.15011144 0.74700004 12103306
-0.081814289 0.15011144 0.74700004 11906681
-0.080391429 0.15011144 0.74700004 12630404
-0.078968577 0.15011144 0.74700004 12432487
-0.077545717 0.15011144 0.74700004 11379799
-0.076020956 0.14991048 0.74600005 10128741
-0.074600004 0.14991048 0.74600005 8220744
-0.073179051 0.14991048 0.74600005 8089910
-0.071758099 0.14991048 0.74600005 7760945
-0.070337147 0.14991048 0.74600005 9076243
-0.068916194 0.14991048 0.74600005 10523689
-0.067314282 0.14950858 0.74400002 11904831
-0.065897144 0.14950858 0.74400002 12957519
-0.064479999 0.14950858 0.74400002 11971956
-0.063062862 0.14950858 0.74400002 11774577
-0.061645716 0.14950858 0.74400002 9410656
-0.060228571 0.14950858 0.74400002 7897417
-0.058969527 0.14991048 0.74600005 9013362
-0.057548571 0.14991048 0.74600005 12105633
-0.056127623 0.14991048 0.74600005 11445376
-0.05470667 0.14991048 0.74600005 10524274
-0.053285718 0.14991048 0.74600005 9277273
-0.051864766 0.14991048 0.74600005 8685136
-0.050443813 0.14991048 0.74600005 8687192
-0.049022861 0.14991048 0.74600005 8621399
-0.047665719 0.15011144 0.74700004 8883551
-0.046366669 0.15051334 0.74900001 8949344
-0.045000002 0.15071429 0.75000006 10260829
-0.043687619 0.15111621 0.75200003 12103033
-0.042255241 0.15111621 0.75200003 11971730
-0.04093143 0.15151809 0.75400001 11840144
-0.039547618 0.15171905 0.75500005 10792518
-0.038109526 0.15171905 0.75500005 6252801
-0.03667143 0.15171905 0.75500005 5600068
-0.035326667 0.15212096 0.75700003 6192205
-0.03397429 0.15252288 0.75900006 5995080
-0.032614287 0.15292478 0.76100004 6521424
-0.031410474 0.15413047 0.76700002 9671257
-0.030105716 0.15493429 0.77100003 12895114
-0.028711431 0.1553362 0.77300006 13549203
-0.027344763 0.15593906 0.77600002 16775116
-0.10578096 0.15538858 0.76600003 16777165
-0.1043219 0.15538858 0.76600003 14277567
-0.10259429 0.15498286 0.76400006 10001022
-0.10113905 0.15498286 0.76400006 9278277
-0.099683814 0.15498286 0.76400006 11646825
-0.097971432 0.15457714 0.76200002 10265713
-0.096393339 0.15437429 0.76100004 6778684
-0.094444767 0.15356287 0.75700003 5665604
-0.092757143 0.15315716 0.75500005 5994569
-0.091198094 0.1529543 0.75400001 5863245
-0.089523815 0.15254858 0.75200003 5205315
-0.08785715 0.15214287 0.75000006 6254625
-0.086428575 0.15214287 0.75000006 7373106
-0.08488667 0.15194 0.74900001 10390869
-0.083460003 0.15194 0.74900001 12562038
-0.081814289 0.15153429 0.74700004 12693115
-0.080391429 0.15153429 0.74700004 13087873
-0.078968577 0.15153429 0.74700004 12432505
-0.077545717 0.15153429 0.74700004 9932371
-0.076122858 0.15153429 0.74700004 8879949
-0.074600004 0.15133144 0.74600005 7893054
-0.073179051 0.15133144 0.74600005 8155708
-0.071758099 0.15133144 0.74600005 8089915
-0.070337147 0.15133144 0.74600005 8550924
-0.068916194 0.15133144 0.74600005 9340440
-0.067495242 0.15133144 0.74600005 10259242
-0.066074289 0.15133144 0.74600005 11706688
-0.064653337 0.15133144 0.74600005 12495720
-0.063232385 0.15133144 0.74600005 12561513
-0.061811436 0.15133144 0.74600005 11314812
-0.06039048 0.15133144 0.74600005 10920054
-0.058969527 0.15133144 0.74600005 10985334
-0.057548571 0.15133144 0.74600005 11577471
-0.056127623 0.15133144 0.74600005 11182967
-0.05470667 0.15133144 0.74600005 9406556
-0.053285718 0.15133144 0.74600005 8358479
-0.051934287 0.15153429 0.74700004 8621651
-0.050511431 0.15153429 0.74700004 8687705
-0.049088575 0.15153429 0.74700004 8687705
-0.047665719 0.15153429 0.74700004 8030550
-0.046366669 0.15194 0.74900001 8162136
-0.045000002 0.15214287 0.75000006 9277003
-0.043687619 0.15254858 0.75200003 11250793
-0.042255241 0.15254858 0.75200003 11446146
-0.04093143 0.1529543 0.75400001 11314560
-0.039547618 0.15315716 0.75500005 9082965
-0.038109526 0.15315716 0.75500005 5924901
-0.036768574 0.15356287 0.75700003 5009455
-0.035326667 0.15356287 0.75700003 5798971
-0.03397429 0.15396857 0.75900006 5994826
-0.032828573 0.15538858 0.76600003 7508065
-0.031410474 0.15559143 0.76700002 10460525
-0.030105716 0.15640286 0.77100003 12631694
-0.028711431 0.15680858 0.77300006 13615761
-0.027274288 0.15701143 0.77400005 16775624
-0.025800001 0.15701143 0.77400005 16644817
-0.10591905 0.15705238 0.76700002 16711626
-0.1043219 0.15684763 0.76600003 15066306
-0.10286286 0.15684763 0.76600003 10658175
-0.10113905 0.1564381 0.76400006 11183987
-0.099683814 0.1564381 0.76400006 12499847
-0.097971432 0.15602857 0.76200002 11909236
-0.096393339 0.15582381 0.76100004 7237933
-0.094444767 0.15500477 0.75700003 5665854
-0.092757143 0.15459524 0.75500005 5929026
-0.091198094 0.15439047 0.75400001 5797190
-0.089523815 0.15398096 0.75200003 5599811
-0.088091433 0.15398096 0.75200003 6058822
-0.086428575 0.15357144 0.75000006 5532478
-0.085000008 0.15357144 0.75000006 7498559
-0.083571434 0.15357144 0.75000006 11709311
-0.082033336 0.15336667 0.74900001 12299377
-0.080606669 0.15336667 0.74900001 11707240
-0.078968577 0.15295716 0.74700004 10523972
-0.077545717 0.15295716 0.74700004 8089631
-0.076122858 0.15295716 0.74700004 8090692
-0.074600004 0.1527524 0.74600005 8156485
-0.073179051 0.1527524 0.74600005 8222269
-0.071758099 0.1527524 0.74600005 8090683
-0.070337147 0.1527524 0.74600005 8354084
-0.068916194 0.1527524 0.74600005 8288291
-0.067495242 0.1527524 0.74600005 9207076
-0.066074289 0.1527524 0.74600005 9667627
-0.064653337 0.1527524 0.74600005 10653500
-0.063232385 0.1527524 0.74600005 12627290
-0.061811436 0.1527524 0.74600005 12167809
-0.06039048 0.1527524 0.74600005 12562567
-0.058969527 0.1527524 0.74600005 11511419
-0.057548571 0.1527524 0.74600005 10327145
-0.056127623 0.1527524 0.74600005 9408089
-0.054780003 0.15295716 0.74700004 9013331
-0.053357143 0.15295716 0.74700004 8490065
-0.051934287 0.15295716 0.74700004 8884823
-0.050511431 0.15295716 0.74700004 8753239
-0.049088575 0.15295716 0.74700004 8621653
-0.047793336 0.15336667 0.74900001 8687705
-0.046428576 0.15357144 0.75000006 8621912
-0.045120001 0.15398096 0.75200003 9080408
-0.043687619 0.15398096 0.75200003 10725233
-0.042367619 0.15439047 0.75400001 11183474
-0.04093143 0.15439047 0.75400001 10920302
-0.039547618 0.15459524 0.75500005 9147745
-0.038210478 0.15500477 0.75700003 6252853
-0.036768574 0.15500477 0.75700003 5140539
-0.035420001 0.1554143 0.75900006 5732676
-0.034063812 0.15582381 0.76100004 6650189
-0.032871429 0.15705238 0.76700002 9216116
-0.031410474 0.15705238 0.76700002 10263933
-0.029949524 0.15705238 0.76700002 11711379
-0.028711431 0.15828095 0.77300006 13090183
-0.027239049 0.15828095 0.77300006 16777161
-0.025766669 0.15828095 0.77300006 16580560
-0.10591905 0.15851334 0.76700002 16645839
-0.1043219 0.15830666 0.76600003 15066306
-0.10286286 0.15830666 0.76600003 11381898
-0.10113905 0.15789334 0.76400006 11249251
-0.099683814 0.15789334 0.76400006 12696697
-0.097971432 0.15748 0.76200002 12236943
-0.096393339 0.15727334 0.76100004 8157777
-0.094694294 0.15686001 0.75900006 6321476
-0.093002863 0.15644668 0.75700003 6124097
-0.091319054 0.15603334 0.75500005 5468223
-0.089761905 0.15582666 0.75400001 5599809
-0.088091433 0.15541334 0.75200003 5730625
-0.086659051 0.15541334 0.75200003 5072695
-0.085000008 0.15500002 0.75000006 6055697
-0.083571434 0.15500002 0.75000006 10595414
-0.082033336 0.15479334 0.74900001 11840906
-0.080606669 0.15479334 0.74900001 11117183
-0.078968577 0.15438001 0.74700004 9341492
-0.077545717 0.15438001 0.74700004 7959839
-0.076122858 0.15438001 0.74700004 8156485
-0.074700005 0.15438001 0.74700004 8156485
-0.073179051 0.15417333 0.74600005 7958583
-0.071758099 0.15417333 0.74600005 7958583
-0.070337147 0.15417333 0.74600005 8090669
-0.068916194 0.15417333 0.74600005 8353841
-0.067495242 0.15417333 0.74600005 8419375
-0.066074289 0.15417333 0.74600005 8090410
-0.064653337 0.15417333 0.74600005 9534739
-0.063232385 0.15417333 0.74600005 12429631
-0.061811436 0.15417333 0.74600005 12561529
-0.06039048 0.15417333 0.74600005 12956287
-0.059048574 0.15438001 0.74700004 11315071
-0.057625718 0.15438001 0.74700004 9078109
-0.056202862 0.15438001 0.74700004 8752465
-0.054780003 0.15438001 0.74700004 8818258
-0.053357143 0.15438001 0.74700004 8555349
-0.051934287 0.15438001 0.74700004 8555349
-0.050646666 0.15479334 0.74900001 8752728
-0.049219999 0.15479334 0.74900001 8884314
-0.047793336 0.15479334 0.74900001 8819802
-0.046428576 0.15500002 0.75000006 8622423
-0.045120001 0.15541334 0.75200003 8423759
-0.043687619 0.15541334 0.75200003 10331756
-0.042367619 0.15582666 0.75400001 11052403
-0.04093143 0.15582666 0.75400001 11183989
-0.039547618 0.15603334 0.75500005 9081971
-0.038210478 0.15644668 0.75700003 6187079
-0.036865719 0.15686001 0.75900006 5402902
-0.035420001 0.15686001 0.75900006 5929246
-0.034108575 0.15748 0.76200002 7567941
-0.032871429 0.15851334 0.76700002 11054970
-0.031410474 0.15851334 0.76700002 10791028
-0.029949524 0.15851334 0.76700002 10396270
-0.028711431 0.15975334 0.77300006 12499840
-0.027239049 0.15975334 0.77300006 16777157
-0.025766669 0.15975334 0.77300006 16579020
-0.10591905 0.15997429 0.76700002 16710601
-0.10445809 0.15997429 0.76700002 16381634
-0.10286286 0.15976572 0.76600003 12236675
-0.10140382 0.15976572 0.76600003 12170355
-0.099944763 0.15976572 0.76600003 12565113
-0.098228574 0.15934858 0.76400006 12433534
-0.096519999 0.15893143 0.76200002 10722916
-0.094694294 0.15830572 0.75900006 7504488
-0.093002863 0.15788858 0.75700003 6057042
-0.091560952 0.15788858 0.75700003 5336647
-0.089880958 0.15747145 0.75500005 5402440
-0.088325717 0.15726286 0.75400001 5468223
-0.086659051 0.15684572 0.75200003 5139258
-0.08522667 0.15684572 0.75200003 6055735
-0.083571434 0.15642859 0.75000006 10003315
-0.082033336 0.15622 0.74900001 11447166
-0.080606669 0.15622 0.74900001 10131306
-0.078968577 0.15580286 0.74700004 8682824
-0.077545717 0.15580286 0.74700004 8024894
-0.076122858 0.15580286 0.74700004 8155724
-0.074700005 0.15580286 0.74700004 8221517
-0.073277146 0.15580286 0.74700004 8155458
-0.071854293 0.15580286 0.74700004 8155458
-0.070337147 0.15559429 0.74600005 7959099
-0.068916194 0.15559429 0.74600005 8222271
-0.067495242 0.15559429 0.74600005 8222269
-0.066074289 0.15559429 0.74600005 7761718
-0.064653337 0.15559429 0.74600005 8285000
-0.063232385 0.15559429 0.74600005 11114099
-0.06189429 0.15580286 0.74700004 12102493
-0.06047143 0.15580286 0.74700004 12628837
-0.059048574 0.15580286 0.74700004 11249773
-0.057625718 0.15580286 0.74700004 9078604
-0.056202862 0.15580286 0.74700004 8686931
-0.054780003 0.15580286 0.74700004 8884310
-0.0535 0.15622 0.74900001 8489302
-0.052073333 0.15622 0.74900001 8357716
-0.050646666 0.15622 0.74900001 8424022
-0.049219999 0.15622 0.74900001 8818780
-0.047857147 0.15642859 0.75000006 8753239
-0.046428576 0.15642859 0.75000006 8621653
-0.045120001 0.15684572 0.75200003 8818262
-0.043687619 0.15684572 0.75200003 10857845
-0.042367619 0.15726286 0.75400001 12038517
-0.04093143 0.15726286 0.75400001 12433275
-0.039547618 0.15747145 0.75500005 10921359
-0.038210478 0.15788858 0.75700003 8355432
-0.036865719 0.15830572 0.75900006 5600574
-0.035513334 0.15872286 0.76100004 5271609
-0.03428762 0.15976572 0.76600003 7240031
-0.032871429 0.15997429 0.76700002 11384990
-0.031410474 0.15997429 0.76700002 11316327
-0.030105716 0.16080856 0.77100003 10592604
-0.028711431 0.16122574 0.77300006 12763269
-0.027274288 0.16143429 0.77400005 16777159
-0.025800001 0.16143429 0.77400005 16579283
-0.10445809 0.16143525 0.76700002 16512977
-0.10286286 0.16122477 0.76600003 13157534
-0.10140382 0.16122477 0.76600003 13155721
-0.099944763 0.16122477 0.76600003 11839861
-0.098228574 0.16080381 0.76400006 12036693
-0.096519999 0.16038287 0.76200002 12168279
