# .PCD v0.7 - Point Cloud Data file format
VERSION 0.7
FIELDS x y z rgb
SIZE 4 4 4 4
TYPE F F F F
COUNT 1 1 1 1
WIDTH 1016
HEIGHT 1
VIEWPOINT 0 0 0 1 0 0 0
POINTS 1016
DATA ascii
-0.12214001 0.15591143 0.59100002 2.3326213e-38
-0.12101429 0.15591143 0.59100002 2.3326213e-38
-0.12009143 0.15617524 0.59200001 2.3141822e-38
-0.11896381 0.15617524 0.59200001 1.9736011e-38
-0.11783619 0.15617524 0.59200001 1.5310621e-38
-0.11670857 0.15617524 0.59200001 1.4019494e-38
-0.1157762 0.15643907 0.59300005 1.4019494e-38
-0.11464668 0.15643907 0.59300005 1.7426438e-38
-0.11351715 0.15643907 0.59300005 2.2958155e-38
-0.11238763 0.15643907 0.59300005 2.341769e-38
-0.1112581 0.15643907 0.59300005 2.341769e-38
-0.11012858 0.15643907 0.59300005 2.2499336e-38
-0.10899906 0.15643907 0.59300005 1.3832947e-38
-0.10805143 0.15670286 0.59400004 8.5108086e-39
-0.10728 0.15723048 0.59600002 9.0639824e-39
-0.10650096 0.1577581 0.59800005 8.9728798e-39
-0.1055381 0.15802191 0.59900004 8.6962929e-39
-0.10457143 0.15828572 0.60000002 8.3282251e-39
-0.10360095 0.15854953 0.60100001 6.2999212e-39
-0.10262667 0.15881334 0.60200006 9.3347609e-39
-0.10164858 0.15907715 0.60300004 1.5696259e-38
-0.10066667 0.15934096 0.60400003 2.1760339e-38
-0.099516191 0.15934096 0.60400003 2.0653992e-38
-0.098691426 0.15986857 0.60600001 1.7059801e-38
-0.097859055 0.1603962 0.60800004 1.2634411e-38
-0.096859999 0.16066001 0.60900003 1.3003196e-38
-0.095700003 0.16066001 0.60900003 1.3371979e-38
-0.094540007 0.16066001 0.60900003 1.3096461e-38
-0.095066667 0.16356191 0.62 1.7245265e-38
-0.093885712 0.16356191 0.62 1.6969455e-38
-0.092704765 0.16356191 0.62 1.2175283e-38
-0.091523804 0.16356191 0.62 1.1716e-38
-0.090488575 0.16382572 0.62100005 1.531163e-38
-0.15819047 0.16049144 0.60400003 1.4937134e-38
-0.15704001 0.16049144 0.60400003 1.502933e-38
-0.15588953 0.16049144 0.60400003 1.2639096e-38
-0.15473905 0.16049144 0.60400003 9.4122485e-39
-0.15333429 0.16022572 0.60300004 8.4034818e-39
-0.15193334 0.15996002 0.60200006 1.2552285e-38
-0.15053619 0.15969428 0.60100001 1.6228601e-38
-0.14914286 0.15942858 0.60000002 1.5491036e-38
-0.14750668 0.15889715 0.59800005 1.3923673e-38
-0.14612286 0.15863143 0.597 1.1803173e-38
-0.1445 0.15810001 0.59500003 1.2264562e-38
-0.14336666 0.15810001 0.59500003 1.2080171e-38
-0.1419943 0.15783429 0.59400004 1.4013698e-38
-0.14086287 0.15783429 0.59400004 1.6595176e-38
-0.13973144 0.15783429 0.59400004 1.9361773e-38
-0.13836668 0.15756859 0.59300005 2.2957403e-38
-0.13723716 0.15756859 0.59300005 2.0382098e-38
-0.13610762 0.15756859 0.59300005 1.61411e-38
-0.13475049 0.15730286 0.59200001 1.2653804e-38
-0.13362285 0.15730286 0.59200001 1.4682107e-38
-0.13249524 0.15730286 0.59200001 2.0656869e-38
-0.13136762 0.15730286 0.59200001 2.2499695e-38
-0.12980001 0.15677144 0.59000003 2.3326213e-38
-0.12867619 0.15677144 0.59000003 2.3326213e-38
-0.12755239 0.15677144 0.59000003 2.2314229e-38
-0.12642857 0.15677144 0.59000003 1.8626404e-38
-0.12572953 0.15730286 0.59200001 1.6790767e-38
-0.12418097 0.15677144 0.59000003 1.7067354e-38
-0.12305715 0.15677144 0.59000003 2.0195525e-38
-0.12214001 0.15703715 0.59100002 2.2316024e-38
-0.12121905 0.15730286 0.59200001 2.3326213e-38
-0.12009143 0.15730286 0.59200001 2.3326213e-38
-0.11916477 0.15756859 0.59300005 2.3326213e-38
-0.11803525 0.15756859 0.59300005 2.2496453e-38
-0.11690573 0.15756859 0.59300005 2.0839449e-38
-0.1157762 0.15756859 0.59300005 2.0286276e-38
-0.11464668 0.15756859 0.59300005 2.2219878e-38
-0.11351715 0.15756859 0.59300005 2.323402e-38
-0.11257715 0.15783429 0.59400004 2.3326213e-38
-0.11144572 0.15783429 0.59400004 1.9269606e-38
-0.11031429 0.15783429 0.59400004 1.2834652e-38
-0.10936667 0.15810001 0.59500003 9.7921966e-39
-0.10841525 0.15836573 0.59600002 8.6058881e-39
-0.10782 0.15916288 0.59900004 8.882475e-39
-0.10685714 0.15942858 0.60000002 9.3413064e-39
-0.10571429 0.15942858 0.60000002 9.2491108e-39
-0.10474572 0.15969428 0.60100001 9.3409435e-39
-0.10377335 0.15996002 0.60200006 8.1424003e-39
-0.10262667 0.15996002 0.60200006 8.9689001e-39
-0.10181715 0.16049144 0.60400003 1.3117703e-38
-0.10066667 0.16049144 0.60400003 2.0286992e-38
-0.099516191 0.16049144 0.60400003 2.1024557e-38
-0.098854296 0.16128857 0.60700005 1.7705539e-38
-0.097859055 0.16155429 0.60800004 1.1528432e-38
-0.097178094 0.16235141 0.611 1.0612597e-38
-0.096014284 0.16235141 0.611 1.1257966e-38
-0.095005721 0.16261716 0.61200005 1.346201e-38
-0.094913334 0.16447714 0.61900002 1.8901552e-38
-0.093734287 0.16447714 0.61900002 1.7798464e-38
-0.092704765 0.16474286 0.62 1.1252574e-38
-0.091523804 0.16474286 0.62 9.9704642e-39
-0.090342857 0.16474286 0.62 1.4119268e-38
-0.15871429 0.16217713 0.60600001 1.4938213e-38
-0.15756001 0.16217713 0.60600001 1.4938213e-38
-0.15640572 0.16217713 0.60600001 1.3374863e-38
-0.15525143 0.16217713 0.60600001 1.0332407e-38
-0.15358858 0.16164191 0.60400003 8.404551e-39
-0.15218572 0.16137429 0.60300004 1.1631398e-38
-0.15078668 0.16110668 0.60200006 1.4943623e-38
-0.14939143 0.16083904 0.60100001 1.4482645e-38
-0.148 0.16057143 0.60000002 1.2267417e-38
-0.14636764 0.16003619 0.59800005 1.1529852e-38
-0.14498572 0.15976857 0.597 1.2817716e-38
-0.14360763 0.15950094 0.59600002 1.2541129e-38
-0.14247239 0.15950094 0.59600002 1.2724426e-38
-0.14133714 0.15950094 0.59600002 1.4291752e-38
-0.13973144 0.15896572 0.59400004 1.6869595e-38
-0.13860001 0.15896572 0.59400004 2.1663767e-38
-0.13746858 0.15896572 0.59400004 2.2865242e-38
-0.13633715 0.15896572 0.59400004 1.890083e-38
-0.13497812 0.1586981 0.59300005 1.6971196e-38
-0.13384858 0.1586981 0.59300005 1.982926e-38
-0.13271905 0.1586981 0.59300005 2.3234378e-38
-0.13158953 0.1586981 0.59300005 2.3234378e-38
-0.13046001 0.1586981 0.59300005 2.3326213e-38
-0.12911239 0.15843047 0.59200001 2.2957431e-38
-0.12798476 0.15843047 0.59200001 1.9738159e-38
-0.12707144 0.1586981 0.59300005 1.7064486e-38
-0.12572953 0.15843047 0.59200001 1.5138452e-38
-0.1246019 0.15843047 0.59200001 1.5230647e-38
-0.12347428 0.15843047 0.59200001 1.817154e-38
-0.12234667 0.15843047 0.59200001 2.0015452e-38
-0.12121905 0.15843047 0.59200001 2.2681204e-38
-0.1202943 0.1586981 0.59300005 2.3234378e-38
-0.11916477 0.1586981 0.59300005 2.341769e-38
-0.11803525 0.1586981 0.59300005 2.341769e-38
-0.11690573 0.1586981 0.59300005 2.2497529e-38
-0.1157762 0.1586981 0.59300005 2.2958507e-38
-0.11464668 0.1586981 0.59300005 2.3326213e-38
-0.11370858 0.15896572 0.59400004 2.3326213e-38
-0.11257715 0.15896572 0.59400004 2.3142182e-38
-0.11163334 0.15923333 0.59500003 1.5028967e-38
-0.11050001 0.15923333 0.59500003 9.9805381e-39
-0.10955048 0.15950094 0.59600002 9.6117556e-39
-0.10859714 0.15976857 0.597 9.1579829e-39
-0.108 0.16057143 0.60000002 9.2501786e-39
-0.10685714 0.16057143 0.60000002 9.3416623e-39
-0.10589048 0.16083904 0.60100001 9.1572711e-39
-0.10474572 0.16083904 0.60100001 9.1576312e-39
-0.10377335 0.16110668 0.60200006 8.1434793e-39
-0.10279715 0.16137429 0.60300004 7.3151465e-39
-0.10181715 0.16164191 0.60400003 1.293908e-38
-0.10066667 0.16164191 0.60400003 1.9367932e-38
-0.099845707 0.16217713 0.60600001 2.0566475e-38
-0.098854296 0.16244477 0.60700005 1.881226e-38
-0.098180957 0.16324762 0.61000001 1.3003935e-38
-0.097178094 0.16351523 0.611 1.1345869e-38
-0.096014284 0.16351523 0.611 1.1806848e-38
-0.095005721 0.16378286 0.61200005 1.2819524e-38
-0.094913334 0.16565619 0.61900002 1.8351262e-38
-0.093734287 0.16565619 0.61900002 1.7616218e-38
-0.092704765 0.1659238 0.62 1.0056176e-38
-0.091523804 0.1659238 0.62 9.6956401e-39
-0.090342857 0.1659238 0.62 1.4397617e-38
-0.1595 0.16414 0.60900003 1.5397749e-38
-0.15834001 0.16414 0.60900003 1.5121162e-38
-0.15666382 0.16360097 0.60700005 1.3926948e-38
-0.15525143 0.16333143 0.60600001 1.2175231e-38
-0.15409714 0.16333143 0.60600001 9.696366e-39
-0.1524381 0.16279238 0.60400003 1.024954e-38
-0.15103714 0.16252287 0.60300004 1.4667371e-38
-0.14964001 0.16225335 0.60200006 1.512835e-38
-0.14849335 0.16225335 0.60200006 1.3371989e-38
-0.14710191 0.16198382 0.60100001 1.1343685e-38
-0.14522858 0.16117525 0.59800005 1.2173789e-38
-0.14408953 0.16117525 0.59800005 1.3003549e-38
-0.14271143 0.16090572 0.597 1.3185793e-38
-0.14157428 0.16090572 0.597 1.2724814e-38
-0.14020191 0.16063619 0.59600002 1.4566869e-38
-0.13883334 0.16036667 0.59500003 1.7424933e-38
-0.13770001 0.16036667 0.59500003 1.92696e-38
-0.13633715 0.16009715 0.59400004 2.2312056e-38
-0.13520572 0.16009715 0.59400004 2.2773765e-38
-0.1340743 0.16009715 0.59400004 2.3142544e-38
-0.13271905 0.15982763 0.59300005 2.3326213e-38
-0.13158953 0.15982763 0.59300005 2.3141822e-38
-0.13046001 0.15982763 0.59300005 2.0932021e-38
-0.12933049 0.15982763 0.59300005 1.8166152e-38
-0.12820096 0.15982763 0.59300005 1.5964262e-38
-0.12707144 0.15982763 0.59300005 1.6056458e-38
-0.12594192 0.15982763 0.59300005 1.5691628e-38
-0.12481239 0.15982763 0.59300005 1.5691628e-38
-0.12347428 0.15955809 0.59200001 1.6793297e-38
-0.12234667 0.15955809 0.59200001 1.651671e-38
-0.12121905 0.15955809 0.59200001 1.8077912e-38
-0.1202943 0.15982763 0.59300005 1.9829629e-38
-0.11916477 0.15982763 0.59300005 2.2496815e-38
-0.11803525 0.15982763 0.59300005 2.3234379e-38
-0.11690573 0.15982763 0.59300005 2.341769e-38
-0.1157762 0.15982763 0.59300005 2.341769e-38
-0.11484001 0.16009715 0.59400004 2.3326213e-38
-0.11390001 0.16036667 0.59500003 2.2035474e-38
-0.11276667 0.16036667 0.59500003 1.8539593e-38
-0.11182095 0.16063619 0.59600002 1.1256139e-38
-0.11068571 0.16063619 0.59600002 7.5935425e-39
-0.10973428 0.16090572 0.597 8.69989e-39
-0.10877906 0.16117525 0.59800005 9.6186009e-39
-0.108 0.16171429 0.60000002 9.5264053e-39
-0.10703523 0.16198382 0.60100001 9.3423742e-39
-0.10589048 0.16198382 0.60100001 9.2501786e-39
-0.10492001 0.16225335 0.60200006 9.1576312e-39
-0.10377335 0.16225335 0.60200006 7.4059142e-39
-0.10279715 0.16252287 0.60300004 8.1413101e-39
-0.10181715 0.16279238 0.60400003 1.4779395e-38
-0.10066667 0.16279238 0.60400003 2.259045e-38
-0.099845707 0.16333143 0.60600001 2.2958873e-38
-0.098854296 0.16360097 0.60700005 2.2128766e-38
-0.098341905 0.16467904 0.611 1.908631e-38
-0.097178094 0.16467904 0.611 1.4482714e-38
-0.096171439 0.16494858 0.61200005 1.1809041e-38
-0.095005721 0.16494858 0.61200005 1.3190145e-38
-0.094913334 0.16683523 0.61900002 1.7984318e-38
-0.093885712 0.16710477 0.62 1.6236147e-38
-0.092704765 0.16710477 0.62 8.2151277e-39
-0.09167143 0.1673743 0.62100005 9.6041956e-39
-0.090488575 0.1673743 0.62100005 1.4398368e-38
-0.1586 0.16557144 0.61000001 1.5213361e-38
-0.15666382 0.16475715 0.60700005 1.4386481e-38
-0.15550764 0.16475715 0.60700005 1.272696e-38
-0.15409714 0.16448572 0.60600001 1.0246666e-38
-0.1524381 0.16394287 0.60400003 1.1445209e-38
-0.15103714 0.16367143 0.60300004 1.521804e-38
-0.14988858 0.16367143 0.60300004 1.5863409e-38
-0.14849335 0.16340002 0.60200006 1.4568737e-38
-0.14710191 0.16312857 0.60100001 1.1895064e-38
-0.14571428 0.16285715 0.60000002 1.1621691e-38
-0.14433049 0.16258572 0.59900004 1.2820234e-38
-0.14318953 0.16258572 0.59900004 1.3003199e-38
-0.14157428 0.16204286 0.597 1.2726612e-38
-0.14020191 0.16177143 0.59600002 1.3186827e-38
-0.13906667 0.16177143 0.59600002 1.4200979e-38
-0.13770001 0.16150001 0.59500003 1.7607169e-38
-0.13656667 0.16150001 0.59500003 2.2309147e-38
-0.13520572 0.16122858 0.59400004 2.341769e-38
-0.1340743 0.16122858 0.59400004 2.341769e-38
-0.13271905 0.16095716 0.59300005 2.3326213e-38
-0.13158953 0.16095716 0.59300005 2.1758888e-38
-0.13046001 0.16095716 0.59300005 1.8356304e-38
-0.12933049 0.16095716 0.59300005 1.6328e-38
-0.12820096 0.16095716 0.59300005 1.4954433e-38
-0.12707144 0.16095716 0.59300005 1.5599802e-38
-0.12594192 0.16095716 0.59300005 1.6150808e-38
-0.12481239 0.16095716 0.59300005 1.6243004e-38
-0.12368286 0.16095716 0.59300005 1.6058978e-38
-0.12255335 0.16095716 0.59300005 1.5598e-38
-0.12142382 0.16095716 0.59300005 1.6332319e-38
-0.1202943 0.16095716 0.59300005 1.6977688e-38
-0.11936572 0.16122858 0.59400004 2.0562862e-38
-0.11823429 0.16122858 0.59400004 2.2406775e-38
-0.11710286 0.16122858 0.59400004 2.341769e-38
-0.11597144 0.16122858 0.59400004 2.341769e-38
-0.11484001 0.16122858 0.59400004 2.3326213e-38
-0.11390001 0.16150001 0.59500003 1.8716432e-38
-0.1129562 0.16177143 0.59600002 1.5040476e-38
-0.11182095 0.16177143 0.59600002 1.0615085e-38
-0.11087143 0.16204286 0.597 8.4215081e-39
-0.10973428 0.16204286 0.597 9.1590731e-39
-0.10877906 0.1623143 0.59800005 9.4345698e-39
-0.108 0.16285715 0.60000002 9.4345698e-39
-0.10703523 0.16312857 0.60100001 9.3423742e-39
-0.10589048 0.16312857 0.60100001 9.3423742e-39
-0.10492001 0.16340002 0.60200006 8.882475e-39
-0.10377335 0.16340002 0.60200006 6.9463668e-39
-0.10279715 0.16367143 0.60300004 8.6015721e-39
-0.10181715 0.16394287 0.60400003 1.7265072e-38
-0.10116667 0.16475715 0.60700005 2.2315305e-38
-0.10017524 0.16502859 0.60800004 2.2683366e-38
-0.09934286 0.16557144 0.61000001 2.3142182e-38
-0.098341905 0.16584285 0.611 2.1759248e-38
-0.097178094 0.16584285 0.611 1.9182124e-38
-0.096171439 0.1661143 0.61200005 1.715382e-38
-0.095005721 0.1661143 0.61200005 1.4669591e-38
-0.094913334 0.16801429 0.61900002 1.5775939e-38
-0.094037145 0.16855715 0.62100005 1.5497135e-38
-0.092854291 0.16855715 0.62100005 1.0057593e-38
-0.09167143 0.16855715 0.62100005 1.089026e-38
-0.15473905 0.16509333 0.60400003 1.3464162e-38
-0.15358858 0.16509333 0.60400003 1.2455057e-38
-0.1524381 0.16509333 0.60400003 1.4852144e-38
-0.15103714 0.16482002 0.60300004 1.7889186e-38
-0.14988858 0.16482002 0.60300004 1.8350165e-38
-0.14874001 0.16482002 0.60300004 1.7243467e-38
-0.14734669 0.16454668 0.60200006 1.189612e-38
-0.14595714 0.16427334 0.60100001 1.1255067e-38
-0.14457142 0.164 0.60000002 1.245361e-38
-0.14318953 0.16372667 0.59900004 1.3187227e-38
-0.14181143 0.16345334 0.59800005 1.3279423e-38
-0.14043714 0.16318001 0.597 1.3555281e-38
-0.13906667 0.16290666 0.59600002 1.2356738e-38
-0.13793144 0.16290666 0.59600002 1.3090723e-38
-0.13679619 0.16290666 0.59600002 1.9452221e-38
-0.13543333 0.16263334 0.59500003 2.2956696e-38
-0.13429999 0.16263334 0.59500003 2.350987e-38
-0.13294287 0.16236001 0.59400004 2.2957794e-38
-0.13181144 0.16236001 0.59400004 1.8440208e-38
-0.13068001 0.16236001 0.59400004 1.559584e-38
-0.12954858 0.16236001 0.59400004 1.5780231e-38
-0.12820096 0.16208668 0.59300005 1.5690922e-38
-0.12707144 0.16208668 0.59300005 1.5875313e-38
-0.12594192 0.16208668 0.59300005 1.6151174e-38
-0.12502286 0.16236001 0.59400004 1.624337e-38
-0.12368286 0.16208668 0.59300005 1.624337e-38
-0.12255335 0.16208668 0.59300005 1.624337e-38
-0.12142382 0.16208668 0.59300005 1.651888e-38
-0.12049715 0.16236001 0.59400004 1.6242294e-38
-0.11956667 0.16263334 0.59500003 1.7710571e-38
-0.11843333 0.16263334 0.59500003 1.9185701e-38
-0.1173 0.16263334 0.59500003 2.3417687e-38
-0.11655714 0.16318001 0.597 2.3417687e-38
-0.11542 0.16318001 0.597 2.3326213e-38
-0.1144743 0.16345334 0.59800005 1.6964715e-38
-0.11314572 0.16318001 0.597 8.5126163e-39
-0.11200857 0.16318001 0.597 7.7750513e-39
-0.11087143 0.16318001 0.597 9.1576312e-39
-0.1099181 0.16345334 0.59800005 9.5264137e-39
-0.10896096 0.16372667 0.59900004 9.3420225e-39
-0.10818 0.16427334 0.60100001 9.3420225e-39
-0.10703523 0.16427334 0.60100001 9.3427301e-39
-0.10606667 0.16454668 0.60200006 9.0661432e-39
-0.10492001 0.16454668 0.60200006 7.9615977e-39
-0.10394572 0.16482002 0.60300004 7.8694021e-39
-0.10296762 0.16509333 0.60400003 1.255452e-38
-0.10215428 0.16564 0.60600001 2.0111972e-38
-0.10116667 0.16591334 0.60700005 2.2498255e-38
-0.10034 0.16646001 0.60900003 2.111532e-38
-0.09934286 0.16673334 0.61000001 2.20362e-38
-0.098341905 0.16700666 0.611 2.2589374e-38
-0.097178094 0.16700666 0.611 2.2497178e-38
-0.096171439 0.16728 0.61200005 2.1575222e-38
-0.095005721 0.16728 0.61200005 2.1115683e-38
-0.094913334 0.16919333 0.61900002 1.6505902e-38
-0.094188571 0.17001334 0.62200004 1.1262988e-38
-0.093003817 0.17001334 0.62200004 8.7737062e-39
-0.15409714 0.16679429 0.60600001 1.3465957e-38
-0.15294285 0.16679429 0.60600001 1.7153782e-38
-0.15128762 0.16624382 0.60400003 1.8257987e-38
-0.14988858 0.16596858 0.60300004 1.8165791e-38
-0.14874001 0.16596858 0.60300004 1.770482e-38
-0.14734669 0.16569334 0.60200006 1.327943e-38
-0.14595714 0.1654181 0.60100001 1.1438394e-38
-0.14481239 0.1654181 0.60100001 1.2268155e-38
-0.14342858 0.16514286 0.60000002 1.3279773e-38
-0.14204858 0.16486762 0.59900004 1.3371969e-38
-0.14067239 0.1645924 0.59800005 1.3554925e-38
-0.1393 0.16431715 0.597 1.2448578e-38
-0.13816285 0.16431715 0.597 1.2725495e-38
-0.13702571 0.16431715 0.597 1.7888451e-38
-0.13566095 0.16404191 0.59600002 2.0928761e-38
-0.13452572 0.16404191 0.59600002 2.3418043e-38
-0.13316667 0.16376667 0.59500003 2.2129482e-38
-0.13203335 0.16376667 0.59500003 1.7335309e-38
-0.13090001 0.16376667 0.59500003 1.4860798e-38
-0.12954858 0.16349144 0.59400004 1.5598363e-38
-0.12841715 0.16349144 0.59400004 1.587459e-38
-0.12728572 0.16349144 0.59400004 1.6058981e-38
-0.12615429 0.16349144 0.59400004 1.5967146e-38
-0.12502286 0.16349144 0.59400004 1.6059341e-38
-0.12389144 0.16349144 0.59400004 1.6243373e-38
-0.12276001 0.16349144 0.59400004 1.6335568e-38
-0.12162858 0.16349144 0.59400004 1.6336284e-38
-0.12049715 0.16349144 0.59400004 1.5875306e-38
-0.11956667 0.16376667 0.59500003 1.5873859e-38
-0.11843333 0.16376667 0.59500003 1.6703619e-38
-0.1173 0.16376667 0.59500003 2.1851806e-38
-0.11655714 0.16431715 0.597 2.3142544e-38
-0.11542 0.16431715 0.597 2.3050705e-38
-0.1144743 0.1645924 0.59800005 1.6504816e-38
-0.11333524 0.1645924 0.59800005 8.2371028e-39
-0.1121962 0.1645924 0.59800005 7.7761247e-39
-0.11105715 0.1645924 0.59800005 8.6073301e-39
-0.1099181 0.1645924 0.59800005 8.883917e-39
-0.10896096 0.16486762 0.59900004 9.2498268e-39
-0.10818 0.1654181 0.60100001 9.2498268e-39
-0.10721334 0.16569334 0.60200006 9.4342069e-39
-0.10606667 0.16569334 0.60200006 8.6966418e-39
-0.10509429 0.16596858 0.60300004 7.0407232e-39
-0.10394572 0.16596858 0.60300004 1.0728548e-38
-0.10296762 0.16624382 0.60400003 1.899774e-38
-0.10215428 0.16679429 0.60600001 2.2132353e-38
-0.10133334 0.16734476 0.60800004 2.1945081e-38
-0.10066953 0.16817047 0.611 2.028556e-38
-0.099505715 0.16817047 0.611 2.0470314e-38
-0.098502867 0.16844572 0.61200005 2.1668857e-38
-0.097337149 0.16844572 0.61200005 2.2681207e-38
-0.096328571 0.16872096 0.61300004 2.2773402e-38
-0.095160954 0.16872096 0.61300004 2.1760348e-38
-0.094913334 0.17037238 0.61900002 1.4937872e-38
-0.094188571 0.1711981 0.62200004 8.8716444e-39
-0.093003817 0.1711981 0.62200004 8.8716444e-39
-0.15435144 0.16822572 0.60700005 1.4017333e-38
-0.15319525 0.16822572 0.60700005 1.7612962e-38
-0.15178858 0.16794857 0.60600001 1.7704813e-38
-0.15013716 0.1673943 0.60400003 1.7059444e-38
-0.14898667 0.1673943 0.60400003 1.7153079e-38
-0.14759144 0.16711715 0.60300004 1.6415514e-38
-0.1462 0.16684002 0.60200006 1.3926247e-38
-0.14505334 0.16684002 0.60200006 1.1529161e-38
-0.14366761 0.16656286 0.60100001 1.2267782e-38
-0.14228572 0.16628572 0.60000002 1.3005347e-38
-0.14090762 0.16600858 0.59900004 1.3463812e-38
-0.13953334 0.16573144 0.59800005 1.2541855e-38
-0.1383943 0.16573144 0.59800005 1.1897575e-38
-0.13702571 0.16545428 0.597 1.5954182e-38
-0.13588856 0.16545428 0.597 2.0100433e-38
-0.13452572 0.16517715 0.59600002 2.3234367e-38
-0.13339047 0.16517715 0.59600002 2.1762134e-38
-0.13225523 0.16517715 0.59600002 1.6691375e-38
-0.13112001 0.16517715 0.59600002 1.4401981e-38
-0.12998477 0.16517715 0.59600002 1.5323937e-38
-0.12863334 0.1649 0.59500003 1.5966783e-38
-0.1275 0.1649 0.59500003 1.5966783e-38
-0.12657905 0.16517715 0.59600002 1.5783473e-38
-0.12544382 0.16517715 0.59600002 1.5967865e-38
-0.12410001 0.1649 0.59500003 1.6243373e-38
-0.12276001 0.16462287 0.59400004 1.6335568e-38
-0.12162858 0.16462287 0.59400004 1.6519954e-38
-0.12090286 0.16517715 0.59600002 1.6243367e-38
-0.11976762 0.16517715 0.59600002 1.5966783e-38
-0.11863238 0.16517715 0.59600002 1.6612152e-38
-0.11769429 0.16545428 0.597 2.1575945e-38
-0.11675239 0.16573144 0.59800005 2.2958873e-38
-0.11561334 0.16573144 0.59800005 2.3234378e-38
-0.1144743 0.16573144 0.59800005 1.9915335e-38
-0.11352476 0.16600858 0.59900004 8.7900005e-39
-0.11238381 0.16600858 0.59900004 5.4709579e-39
-0.11124286 0.16600858 0.59900004 3.7353741e-39
-0.11010192 0.16600858 0.59900004 5.3948954e-39
-0.10914286 0.16628572 0.60000002 8.422943e-39
-0.10836001 0.16684002 0.60200006 8.422943e-39
-0.10721334 0.16684002 0.60200006 8.4215081e-39
-0.10606667 0.16684002 0.60200006 6.4853999e-39
-0.10509429 0.16711715 0.60300004 1.1452068e-38
-0.10394572 0.16711715 0.60300004 1.8550769e-38
-0.10296762 0.1673943 0.60400003 2.2497901e-38
-0.10249143 0.16850287 0.60800004 2.148375e-38
-0.10166667 0.16905715 0.61000001 1.8168682e-38
-0.10066953 0.16933428 0.611 1.632477e-38
-0.099505715 0.16933428 0.611 1.5868101e-38
-0.098502867 0.16961144 0.61200005 1.7251035e-38
-0.097337149 0.16961144 0.61200005 2.0101171e-38
-0.096328571 0.16988859 0.61300004 2.2313866e-38
-0.096092381 0.17155142 0.61900002 2.130043e-38
-0.095066667 0.17182857 0.62 1.3095019e-38
-0.094037145 0.17210573 0.62100005 7.7678458e-39
-0.092854291 0.17210573 0.62100005 8.3210196e-39
-0.15435144 0.16938192 0.60700005 1.5028591e-38
-0.15319525 0.16938192 0.60700005 1.7978851e-38
-0.15203905 0.16938192 0.60700005 1.6416956e-38
-0.15063429 0.16910285 0.60600001 1.5494999e-38
-0.14948 0.16910285 0.60600001 1.6508776e-38
-0.14783619 0.16854477 0.60400003 1.7522928e-38
-0.14668572 0.16854477 0.60400003 1.5678714e-38
-0.14505334 0.16798668 0.60200006 1.217528e-38
-0.14390668 0.16798668 0.60200006 1.1531293e-38
-0.14252286 0.16770762 0.60100001 1.2361054e-38
-0.14114286 0.16742857 0.60000002 1.3187578e-38
-0.13976666 0.16714953 0.59900004 1.2357817e-38
-0.1383943 0.16687049 0.59800005 1.0610795e-38
-0.13725525 0.16687049 0.59800005 1.6511315e-38
-0.13588856 0.16659144 0.597 1.9180657e-38
-0.13475142 0.16659144 0.597 2.2407501e-38
-0.13361429 0.16659144 0.597 2.1302601e-38
-0.13247713 0.16659144 0.597 1.6969406e-38
-0.13134 0.16659144 0.597 1.5319621e-38
-0.12998477 0.16631238 0.59600002 1.5964991e-38
-0.12884954 0.16631238 0.59600002 1.5966423e-38
-0.12792857 0.16659144 0.597 1.5966423e-38
-0.12657905 0.16631238 0.59600002 1.5783473e-38
-0.12544382 0.16631238 0.59600002 1.5967865e-38
-0.12430857 0.16631238 0.59600002 1.6059341e-38
-0.12317333 0.16631238 0.59600002 1.6243733e-38
-0.1220381 0.16631238 0.59600002 1.6612152e-38
-0.12110572 0.16659144 0.597 1.6151174e-38
-0.11996857 0.16659144 0.597 1.5323569e-38
-0.11883143 0.16659144 0.597 1.7167481e-38
-0.11789144 0.16687049 0.59800005 2.1945444e-38
-0.11675239 0.16687049 0.59800005 2.2867037e-38
-0.11561334 0.16687049 0.59800005 2.3326213e-38
-0.11466572 0.16714953 0.59900004 2.1482301e-38
-0.11352476 0.16714953 0.59900004 1.6519609e-38
-0.11238381 0.16714953 0.59900004 1.1080067e-38
-0.11124286 0.16714953 0.59900004 5.3884508e-39
-0.11028571 0.16742857 0.60000002 5.9416246e-39
-0.10914286 0.16742857 0.60000002 8.6055392e-39
-0.10836001 0.16798668 0.60200006 8.3289523e-39
-0.10721334 0.16798668 0.60200006 6.3989384e-39
-0.10624287 0.16826573 0.60300004 5.8457646e-39
-0.10509429 0.16826573 0.60300004 1.411964e-38
-0.10394572 0.16826573 0.60300004 2.057115e-38
-0.10347905 0.16938192 0.60700005 2.2774842e-38
-0.10249143 0.16966096 0.60800004 1.9363603e-38
-0.10166667 0.17021905 0.61000001 1.7157751e-38
-0.10066953 0.17049809 0.611 1.5682621e-38
-0.099505715 0.17049809 0.611 1.4490571e-38
-0.098502867 0.17077716 0.61200005 1.4582767e-38
-0.097337149 0.17077716 0.61200005 1.8259416e-38
-0.096328571 0.1710562 0.61300004 2.1578459e-38
-0.096092381 0.17273048 0.61900002 2.1024579e-38
-0.095066667 0.17300953 0.62 1.235819e-38
-0.094037145 0.17328858 0.62100005 5.7463719e-39
-0.15344763 0.17081906 0.60800004 1.5859799e-38
-0.15228952 0.17081906 0.60800004 1.4482282e-38
-0.15088287 0.17053811 0.60700005 1.3191543e-38
-0.14972667 0.17053811 0.60700005 1.3746159e-38
-0.14832571 0.17025715 0.60600001 1.7618376e-38
-0.14717142 0.17025715 0.60600001 1.8901922e-38
-0.14529429 0.1694143 0.60300004 1.5029705e-38
-0.14390668 0.16913334 0.60200006 1.1345493e-38
-0.14276001 0.16913334 0.60200006 1.1161101e-38
-0.1413781 0.16885237 0.60100001 1.1621709e-38
-0.14 0.16857143 0.60000002 1.1806101e-38
-0.13862573 0.1682905 0.59900004 1.2448277e-38
-0.13725525 0.16800953 0.59800005 1.9916104e-38
-0.13611621 0.16800953 0.59800005 2.2681204e-38
-0.13497715 0.16800953 0.59800005 2.3234378e-38
-0.13361429 0.16772857 0.597 2.2591169e-38
-0.13247713 0.16772857 0.597 2.0378474e-38
-0.13134 0.16772857 0.597 1.642563e-38
-0.13020286 0.16772857 0.597 1.5134891e-38
-0.12906571 0.16772857 0.597 1.4679647e-38
-0.12792857 0.16772857 0.597 1.5140625e-38
-0.12679142 0.16772857 0.597 1.5507607e-38
-0.12565428 0.16772857 0.597 1.5691998e-38
-0.12451714 0.16772857 0.597 1.6059341e-38
-0.12338 0.16772857 0.597 1.6151537e-38
-0.12224285 0.16772857 0.597 1.5967512e-38
-0.12110572 0.16772857 0.597 1.495336e-38
-0.11996857 0.16772857 0.597 1.7252111e-38
-0.11903048 0.16800953 0.59800005 2.0662985e-38
-0.11789144 0.16800953 0.59800005 2.3326213e-38
-0.11675239 0.16800953 0.59800005 2.3326213e-38
-0.11561334 0.16800953 0.59800005 2.341769e-38
-0.11466572 0.1682905 0.59900004 2.341769e-38
-0.11352476 0.1682905 0.59900004 2.1763576e-38
-0.11238381 0.1682905 0.59900004 2.0196251e-38
-0.11142858 0.16857143 0.60000002 1.3943927e-38
-0.11028571 0.16857143 0.60000002 1.0348306e-38
-0.10914286 0.16857143 0.60000002 2.6308664e-39
-0.10836001 0.16913334 0.60200006 1.8011057e-39
-0.10739144 0.1694143 0.60300004 5.7525068e-39
-0.10624287 0.1694143 0.60300004 1.2390592e-38
-0.10526858 0.16969524 0.60400003 2.1762487e-38
-0.10446286 0.17025715 0.60600001 2.2683366e-38
-0.10347905 0.17053811 0.60700005 2.2867037e-38
-0.10249143 0.17081906 0.60800004 1.8072864e-38
-0.10166667 0.17138095 0.61000001 1.5135933e-38
-0.10066953 0.1716619 0.611 1.4951542e-38
-0.099668577 0.17194286 0.61200005 1.4951562e-38
-0.098502867 0.17194286 0.61200005 1.4121801e-38
-0.097496189 0.17222382 0.61300004 1.6049981e-38
-0.096328571 0.17222382 0.61300004 1.9737806e-38
-0.096247613 0.17419046 0.62 2.0012585e-38
-0.095066667 0.17419046 0.62 1.189937e-38
-0.093885712 0.17419046 0.62 6.2984765e-39
-0.15613143 0.17367429 0.61400002 1.4567989e-38
-0.15370001 0.17226 0.60900003 1.5489945e-38
-0.15254 0.17226 0.60900003 1.3654682e-38
-0.15088287 0.17169431 0.60700005 1.2548335e-38
-0.14972667 0.17169431 0.60700005 1.3378077e-38
-0.14832571 0.17141142 0.60600001 1.669712e-38
-0.14717142 0.17141142 0.60600001 1.8995552e-38
-0.14553525 0.17084573 0.60400003 1.7336031e-38
-0.14414573 0.17056288 0.60300004 1.3283422e-38
-0.14276001 0.17028002 0.60200006 1.0517554e-38
-0.1413781 0.16999716 0.60100001 1.088483e-38
-0.14 0.1697143 0.60000002 1.2728742e-38
-0.13885714 0.1697143 0.60000002 1.6595226e-38
-0.13748477 0.16943145 0.59900004 2.2034768e-38
-0.13634382 0.16943145 0.59900004 2.2865242e-38
-0.13497715 0.16914859 0.59800005 2.249646e-38
-0.1338381 0.16914859 0.59800005 2.2497885e-38
-0.13269906 0.16914859 0.59800005 2.1575928e-38
-0.13134 0.16886571 0.597 1.9002412e-38
-0.13020286 0.16886571 0.597 1.6974108e-38
-0.12928192 0.16914859 0.59800005 1.3944977e-38
-0.12814288 0.16914859 0.59800005 1.4313759e-38
-0.12679142 0.16886571 0.597 1.5231736e-38
-0.12565428 0.16886571 0.597 1.5416127e-38
-0.12451714 0.16886571 0.597 1.6058981e-38
-0.12338 0.16886571 0.597 1.6058981e-38
-0.12224285 0.16886571 0.597 1.5415411e-38
-0.12110572 0.16886571 0.597 1.4862237e-38
-0.12016953 0.16914859 0.59800005 1.9090995e-38
-0.11903048 0.16914859 0.59800005 2.2132353e-38
-0.11808857 0.16943145 0.59900004 2.341769e-38
-0.11694762 0.16943145 0.59900004 2.341769e-38
-0.11580668 0.16943145 0.59900004 2.3326195e-38
-0.11466572 0.16943145 0.59900004 2.3418032e-38
-0.11352476 0.16943145 0.59900004 2.3326213e-38
-0.11257143 0.1697143 0.60000002 2.3141822e-38
-0.11142858 0.1697143 0.60000002 2.0570072e-38
-0.11028571 0.1697143 0.60000002 1.7251029e-38
-0.10914286 0.1697143 0.60000002 8.9790385e-39
-0.10836001 0.17028002 0.60200006 3.8160832e-39
-0.10739144 0.17056288 0.60300004 7.5902719e-39
-0.10624287 0.17056288 0.60300004 1.6438541e-38
-0.10526858 0.17084573 0.60400003 2.3050705e-38
-0.10446286 0.17141142 0.60600001 2.295851e-38
-0.10364953 0.17197716 0.60800004 2.0472837e-38
-0.10266001 0.17226 0.60900003 1.6785012e-38
-0.10166667 0.17254286 0.61000001 1.4861149e-38
-0.10083429 0.17310858 0.61200005 1.4768953e-38
-0.099668577 0.17310858 0.61200005 1.4859366e-38
-0.098663814 0.17339143 0.61300004 1.4029605e-38
-0.097814284 0.17395714 0.61500001 1.4764627e-38
-0.096642852 0.17395714 0.61500001 1.8452452e-38
-0.096402861 0.17565429 0.62100005 1.9002046e-38
-0.095220007 0.17565429 0.62100005 1.2179569e-38
-0.094037145 0.17565429 0.62100005 9.1453726e-39
-0.15613143 0.17484382 0.61400002 1.4937137e-38
-0.15496191 0.17484382 0.61400002 1.5213724e-38
-0.15354191 0.17455906 0.61300004 1.3653964e-38
-0.15162857 0.17370476 0.61000001 1.2639812e-38
-0.15022001 0.17342 0.60900003 1.2550503e-38
-0.14881524 0.17313524 0.60800004 1.4025633e-38
-0.1474143 0.17285049 0.60700005 1.6969378e-38
-0.14601715 0.17256571 0.60600001 1.9089878e-38
-0.14438476 0.17199619 0.60400003 1.5862048e-38
-0.14299716 0.17171144 0.60300004 1.1252267e-38
-0.1413781 0.17114191 0.60100001 1.1714292e-38
-0.14 0.17085715 0.60000002 1.9366526e-38
-0.13885714 0.17085715 0.60000002 2.2588645e-38
-0.1377143 0.17085715 0.60000002 2.332621e-38
-0.13634382 0.17057239 0.59900004 2.2313866e-38
-0.13520287 0.17057239 0.59900004 1.8257258e-38
-0.13406192 0.17057239 0.59900004 1.9088802e-38
-0.13292095 0.17057239 0.59900004 2.2775192e-38
-0.13178 0.17057239 0.59900004 2.2406425e-38
-0.13063905 0.17057239 0.59900004 2.102349e-38
-0.12928192 0.17028764 0.59800005 1.7254662e-38
-0.12814288 0.17028764 0.59800005 1.559514e-38
-0.12679142 0.17000286 0.597 1.4311578e-38
-0.12565428 0.17000286 0.597 1.4403773e-38
-0.12451714 0.17000286 0.597 1.5046994e-38
-0.12338 0.17000286 0.597 1.4770407e-38
-0.12224285 0.17000286 0.597 1.6975893e-38
-0.12110572 0.17000286 0.597 2.0110537e-38
-0.12016953 0.17028764 0.59800005 2.3326213e-38
-0.11903048 0.17028764 0.59800005 2.3326213e-38
-0.11808857 0.17057239 0.59900004 2.3326213e-38
-0.11694762 0.17057239 0.59900004 1.8163258e-38
-0.11580668 0.17057239 0.59900004 1.963837e-38
-0.11466572 0.17057239 0.59900004 2.3418032e-38
-0.11352476 0.17057239 0.59900004 2.341769e-38
-0.11257143 0.17085715 0.60000002 2.341769e-38
-0.11142858 0.17085715 0.60000002 2.3142182e-38
-0.11028571 0.17085715 0.60000002 2.3049986e-38
-0.10932476 0.17114191 0.60100001 2.0753743e-38
-0.10836001 0.17142668 0.60200006 1.6143962e-38
-0.10739144 0.17171144 0.60300004 1.6331968e-38
-0.10624287 0.17171144 0.60300004 2.0938492e-38
-0.10561714 0.17256571 0.60600001 2.2867037e-38
-0.10463525 0.17285049 0.60700005 1.9824581e-38
-0.10364953 0.17313524 0.60800004 1.6700022e-38
-0.10266001 0.17342 0.60900003 1.5778066e-38
-0.10166667 0.17370476 0.61000001 1.5229931e-38
-0.10083429 0.17427431 0.61200005 1.4676757e-38
-0.099668577 0.17427431 0.61200005 1.4676054e-38
-0.098663814 0.17455906 0.61300004 1.3569706e-38
-0.097973339 0.17541336 0.61600006 1.5224173e-38
-0.096800007 0.17541336 0.61600006 1.8819803e-38
-0.096402861 0.17683716 0.62100005 2.0104781e-38
-0.09537334 0.17712191 0.62200004 1.7707694e-38
-0.094340004 0.17740667 0.62300003 1.4304735e-38
-0.093302861 0.17769143 0.62400001 1.3659366e-38
-0.15714858 0.17716001 0.61800003 1.5120812e-38
-0.15496191 0.17601334 0.61400002 1.5489594e-38
-0.15354191 0.17572668 0.61300004 1.4389378e-38
-0.15187714 0.17515333 0.611 1.3375226e-38
-0.15046667 0.17486666 0.61000001 1.2183512e-38
-0.14906 0.17458001 0.60900003 1.2644491e-38
-0.14765716 0.17429334 0.60800004 1.5220185e-38
-0.1462581 0.17400669 0.60700005 1.8170445e-38
-0.14486286 0.17372 0.60600001 1.8627861e-38
-0.1432343 0.17314668 0.60400003 1.484784e-38
-0.14184858 0.17286 0.60300004 1.5124762e-38
-0.14023332 0.17228666 0.60100001 2.1301869e-38
-0.13908857 0.17228666 0.60100001 2.2773046e-38
-0.1379438 0.17228666 0.60100001 2.2773046e-38
-0.13657144 0.17200001 0.60000002 2.1392989e-38
-0.13542858 0.17200001 0.60000002 1.5584664e-38
-0.13428572 0.17200001 0.60000002 1.632361e-38
-0.13292095 0.17171334 0.59900004 2.1025587e-38
-0.13178 0.17171334 0.59900004 2.341769e-38
-0.13063905 0.17171334 0.59900004 2.3048907e-38
-0.12949809 0.17171334 0.59900004 2.0566485e-38
-0.12835716 0.17171334 0.59900004 1.8445985e-38
-0.12700382 0.17142668 0.59800005 1.5046997e-38
-0.12586476 0.17142668 0.59800005 1.4401628e-38
-0.12472572 0.17142668 0.59800005 1.4127176e-38
-0.12358667 0.17142668 0.59800005 1.4403763e-38
-0.12244762 0.17142668 0.59800005 1.8631812e-38
-0.12130858 0.17142668 0.59800005 2.1673176e-38
-0.12037048 0.17171334 0.59900004 2.3326213e-38
-0.11922953 0.17171334 0.59900004 2.3326213e-38
-0.11808857 0.17171334 0.59900004 2.2773402e-38
-0.11694762 0.17171334 0.59900004 1.6043121e-38
-0.116 0.17200001 0.60000002 1.641151e-38
-0.11485714 0.17200001 0.60000002 2.1574465e-38
-0.11371429 0.17200001 0.60000002 2.3418043e-38
-0.11257143 0.17200001 0.60000002 2.3418043e-38
-0.11142858 0.17200001 0.60000002 2.341769e-38
-0.11046953 0.17228666 0.60100001 2.341769e-38
-0.10932476 0.17228666 0.60100001 2.3050705e-38
-0.10854001 0.17286 0.60300004 2.1575575e-38
-0.10739144 0.17286 0.60300004 2.0474633e-38
-0.10641905 0.17314668 0.60400003 2.2132353e-38
-0.10579143 0.17400669 0.60700005 2.2683365e-38
-0.10480762 0.17429334 0.60800004 1.8073583e-38
-0.10382 0.17458001 0.60900003 1.4953713e-38
-0.10282857 0.17486666 0.61000001 1.5045908e-38
-0.10183334 0.17515333 0.611 1.5230297e-38
-0.10083429 0.17544001 0.61200005 1.4861514e-38
-0.099668577 0.17544001 0.61200005 1.5045192e-38
-0.098824769 0.17601334 0.61400002 1.3938845e-38
-0.097973339 0.17658667 0.61600006 1.559223e-38
-0.097428575 0.17773333 0.62 1.9741033e-38
-0.096402861 0.17802002 0.62100005 2.1392639e-38
-0.09537334 0.17830668 0.62200004 1.9733117e-38
-0.094340004 0.17859334 0.62300003 1.7616218e-38
-0.093302861 0.17888001 0.62400001 1.6878653e-38
-0.092114285 0.17888001 0.62400001 1.6233646e-38
-0.15714858 0.17833716 0.61800003 1.5582153e-38
-0.15521429 0.17747143 0.61500001 1.5950936e-38
-0.15379238 0.17718287 0.61400002 1.4573781e-38
-0.1523743 0.17689429 0.61300004 1.3836216e-38
-0.15046667 0.17602856 0.61000001 1.2183885e-38
-0.14906 0.17574 0.60900003 1.2368276e-38
-0.14765716 0.17545144 0.60800004 1.4023462e-38
-0.1462581 0.17516288 0.60700005 1.6328353e-38
-0.14486286 0.17487428 0.60600001 1.8258344e-38
-0.14370857 0.17487428 0.60600001 1.9917866e-38
-0.14184858 0.17400858 0.60300004 2.0930206e-38
-0.14046669 0.17372002 0.60200006 2.2405336e-38
-0.13932002 0.17372002 0.60200006 2.1668141e-38
-0.1379438 0.17343143 0.60100001 1.8441294e-38
-0.13679905 0.17343143 0.60100001 1.2277905e-38
-0.13542858 0.17314287 0.60000002 8.0369063e-39
-0.13428572 0.17314287 0.60000002 9.3297765e-39
-0.13314286 0.17314287 0.60000002 1.4216145e-38
-0.13178 0.17285429 0.59900004 2.0378086e-38
-0.13063905 0.17285429 0.59900004 2.314252e-38
-0.12949809 0.17285429 0.59900004 2.3050705e-38
-0.12835716 0.17285429 0.59900004 2.2681923e-38
-0.12700382 0.17256573 0.59800005 1.9187516e-38
-0.12586476 0.17256573 0.59800005 1.6052865e-38
-0.12472572 0.17256573 0.59800005 1.5781303e-38
-0.12358667 0.17256573 0.59800005 1.8639367e-38
-0.12265238 0.17285429 0.59900004 2.3050705e-38
-0.12151143 0.17285429 0.59900004 2.3142542e-38
-0.12037048 0.17285429 0.59900004 2.3326213e-38
-0.11942858 0.17314287 0.60000002 1.9638388e-38
-0.11828572 0.17314287 0.60000002 1.5768014e-38
-0.11714286 0.17314287 0.60000002 1.3463124e-38
-0.116 0.17314287 0.60000002 1.3832244e-38
-0.11485714 0.17314287 0.60000002 1.5122983e-38
-0.11371429 0.17314287 0.60000002 1.7148377e-38
-0.11257143 0.17314287 0.60000002 2.0375224e-38
-0.11161429 0.17343143 0.60100001 2.2495371e-38
-0.11046953 0.17343143 0.60100001 2.3509523e-38
-0.10932476 0.17343143 0.60100001 2.341769e-38
-0.10854001 0.17400858 0.60300004 2.3325494e-38
-0.10756953 0.17429715 0.60400003 2.3234378e-38
-0.10677142 0.17487428 0.60600001 2.2589008e-38
-0.10596572 0.17545144 0.60800004 2.0473191e-38
-0.10498 0.17574 0.60900003 1.6969757e-38
-0.10399048 0.17602856 0.61000001 1.5045908e-38
-0.10299715 0.17631714 0.611 1.5045908e-38
-0.10200001 0.17660573 0.61200005 1.5045908e-38
-0.10083429 0.17660573 0.61200005 1.4861517e-38
-0.099994287 0.17718287 0.61400002 1.467677e-38
-0.098985717 0.17747143 0.61500001 1.3570422e-38
-0.098450474 0.17862572 0.61900002 1.5867394e-38
-0.097585723 0.17920287 0.62100005 2.0200579e-38
-0.096402861 0.17920287 0.62100005 2.1851809e-38
-0.09537334 0.17949145 0.62200004 2.0929853e-38
-0.094340004 0.17978001 0.62300003 1.954837e-38
-0.093452379 0.18035714 0.625 1.8626414e-38
-0.092557147 0.18093428 0.62700003 1.8257987e-38
-0.15714858 0.17951429 0.61800003 1.5766181e-38
-0.15521429 0.17864285 0.61500001 1.6134964e-38
-0.15404285 0.17864285 0.61500001 1.4942551e-38
-0.15262286 0.17835239 0.61400002 1.4112791e-38
-0.15071332 0.17748095 0.611 1.2184238e-38
-0.14906 0.17690001 0.60900003 1.236863e-38
-0.14765716 0.17660955 0.60800004 1.3380964e-38
-0.1462581 0.17631905 0.60700005 1.430292e-38
-0.14510192 0.17631905 0.60700005 1.7613328e-38
-0.14370857 0.17602856 0.60600001 2.0655784e-38
-0.1425543 0.17602856 0.60600001 2.212768e-38
-0.14070001 0.17515714 0.60300004 2.1851093e-38
-0.13955143 0.17515714 0.60300004 2.0195888e-38
-0.13817334 0.17486668 0.60200006 1.4940737e-38
-0.13679905 0.17457619 0.60100001 9.5202788e-39
-0.13565429 0.17457619 0.60100001 7.3075837e-39
-0.13450952 0.17457619 0.60100001 8.2327574e-39
-0.13314286 0.17428571 0.60000002 1.0445453e-38
-0.132 0.17428571 0.60000002 1.6877526e-38
-0.13085715 0.17428571 0.60000002 2.1210721e-38
-0.12949809 0.17399524 0.59900004 2.3326213e-38
-0.12835716 0.17399524 0.59900004 2.3234018e-38
-0.12721621 0.17399524 0.59900004 2.2039797e-38
-0.12607525 0.17399524 0.59900004 1.8536363e-38
-0.1249343 0.17399524 0.59900004 1.7251035e-38
-0.12379333 0.17399524 0.59900004 2.1305834e-38
-0.12265238 0.17399524 0.59900004 2.3326213e-38
-0.12151143 0.17399524 0.59900004 2.3326213e-38
-0.12037048 0.17399524 0.59900004 2.3326213e-38
-0.11942858 0.17428571 0.60000002 1.7149106e-38
-0.11828572 0.17428571 0.60000002 1.5305922e-38
-0.11714286 0.17428571 0.60000002 1.493714e-38
-0.116 0.17428571 0.60000002 1.4570522e-38
-0.11485714 0.17428571 0.60000002 1.4017348e-38
-0.11390381 0.17457619 0.60100001 1.4937477e-38
-0.11275905 0.17457619 0.60100001 1.6596999e-38
-0.11161429 0.17457619 0.60100001 2.0003915e-38
-0.11065334 0.17486668 0.60200006 2.286198e-38
-0.10950667 0.17486668 0.60200006 2.3418043e-38
-0.10872 0.17544763 0.60400003 2.3418043e-38
-0.10756953 0.17544763 0.60400003 2.3326213e-38
-0.10694763 0.17631905 0.60700005 2.1574496e-38
-0.10614 0.17690001 0.60900003 1.8172263e-38
-0.10515238 0.17719048 0.61000001 1.6420546e-38
-0.10416096 0.17748095 0.611 1.5322139e-38
-0.10299715 0.17748095 0.611 1.5137748e-38
-0.10200001 0.17777145 0.61200005 1.5137748e-38
-0.10099905 0.17806192 0.61300004 1.4861161e-38
-0.099994287 0.17835239 0.61400002 1.430942e-38
-0.098985717 0.17864285 0.61500001 1.4032833e-38
-0.098450474 0.17980476 0.61900002 1.7709492e-38
-0.097585723 0.18038572 0.62100005 2.0567557e-38
-0.096558101 0.18067619 0.62200004 2.1575219e-38
-0.095526665 0.18096668 0.62300003 2.0837654e-38
-0.09449143 0.18125714 0.62400001 2.0561073e-38
-0.093452379 0.18154761 0.625 1.9546921e-38
-0.092557147 0.18212858 0.62700003 1.908594e-38
-0.091362864 0.18212858 0.62700003 1.7703006e-38
-0.15740286 0.18098381 0.61900002 1.5766544e-38
-0.15546669 0.18010668 0.61600006 1.585874e-38
-0.15429334 0.18010668 0.61600006 1.5310238e-38
-0.15287143 0.17981429 0.61500001 1.5218042e-38
-0.15145333 0.1795219 0.61400002 1.3749033e-38
-0.14930476 0.17835239 0.61000001 1.2919273e-38
-0.14765716 0.17776762 0.60800004 1.2460825e-38
-0.14649905 0.17776762 0.60800004 1.2737412e-38
-0.14510192 0.17747524 0.60700005 1.5310605e-38
-0.14370857 0.17718287 0.60600001 2.0104778e-38
-0.1425543 0.17718287 0.60600001 2.1298632e-38
-0.14070001 0.17630573 0.60300004 1.8624959e-38
-0.13955143 0.17630573 0.60300004 1.2738151e-38
-0.13817334 0.17601334 0.60200006 8.5893472e-39
-0.13702668 0.17601334 0.60200006 6.8530922e-39
-0.13565429 0.17572096 0.60100001 7.6828528e-39
-0.13450952 0.17572096 0.60100001 9.0611112e-39
-0.13336477 0.17572096 0.60100001 8.600133e-39
-0.132 0.17542858 0.60000002 1.1909759e-38
-0.13085715 0.17542858 0.60000002 1.356928e-38
-0.1297143 0.17542858 0.60000002 1.8720001e-38
-0.12835716 0.17513619 0.59900004 2.2775174e-38
-0.12721621 0.17513619 0.59900004 2.3142182e-38
-0.12628572 0.17542858 0.60000002 2.2957791e-38
-0.12514286 0.17542858 0.60000002 2.3050705e-38
-0.12400001 0.17542858 0.60000002 2.3142542e-38
-0.12285714 0.17542858 0.60000002 2.3326213e-38
-0.12171429 0.17542858 0.60000002 1.9546192e-38
-0.12057143 0.17542858 0.60000002 1.6320459e-38
-0.11962762 0.17572096 0.60100001 1.4568742e-38
-0.11828572 0.17542858 0.60000002 1.4754911e-38
-0.11714286 0.17542858 0.60000002 1.5308084e-38
-0.11619334 0.17572096 0.60100001 1.5216617e-38
-0.11504857 0.17572096 0.60100001 1.5032226e-38
-0.11390381 0.17572096 0.60100001 1.5122617e-38
-0.11275905 0.17572096 0.60100001 1.4200661e-38
-0.11161429 0.17572096 0.60100001 1.4842783e-38
-0.11065334 0.17601334 0.60200006 1.7424261e-38
-0.10968858 0.17630573 0.60300004 2.1112071e-38
-0.10908 0.17718287 0.60600001 2.3509517e-38
-0.10810382 0.17747524 0.60700005 2.3326213e-38
-0.10730001 0.17806001 0.60900003 2.0283757e-38
-0.10631429 0.17835239 0.61000001 1.6331963e-38
-0.10515238 0.17835239 0.61000001 1.5778789e-38
-0.10416096 0.17864476 0.611 1.550617e-38
-0.10299715 0.17864476 0.611 1.5229584e-38
-0.10200001 0.17893715 0.61200005 1.4770763e-38
-0.10099905 0.17922953 0.61300004 1.4401981e-38
-0.099994287 0.1795219 0.61400002 1.4767874e-38
-0.098985717 0.17981429 0.61500001 1.6519591e-38
-0.098450474 0.18098381 0.61900002 2.0102623e-38
-0.097742863 0.18186095 0.62200004 2.1301166e-38
-0.096868575 0.18244572 0.62400001 2.1390468e-38
-0.095680006 0.18244572 0.62400001 2.0652903e-38
-0.094642855 0.1827381 0.625 2.0376679e-38
-0.093452379 0.1827381 0.625 1.9454723e-38
-0.092557147 0.18332286 0.62700003 1.8994098e-38
-0.091362864 0.18332286 0.62700003 1.7795554e-38
-0.15740286 0.18216287 0.61900002 1.5951286e-38
-0.15597144 0.18186857 0.61800003 1.5766895e-38
-0.15479429 0.18186857 0.61800003 1.5492466e-38
-0.15287143 0.18098572 0.61500001 1.604564e-38
-0.1517 0.18098572 0.61500001 1.4575579e-38
-0.14930476 0.17951429 0.61000001 1.3284841e-38
-0.14790002 0.17922001 0.60900003 1.1909093e-38
-0.14649905 0.17892572 0.60800004 1.1909093e-38
-0.14510192 0.17863144 0.60700005 1.4668106e-38
-0.14394574 0.17863144 0.60700005 1.9738865e-38
-0.1425543 0.17833714 0.60600001 2.1024942e-38
-0.14139999 0.17833714 0.60600001 1.6783943e-38
-0.13978286 0.17774859 0.60400003 9.980894e-39
-0.13863239 0.17774859 0.60400003 7.491612e-39
-0.13725428 0.17745429 0.60300004 7.957988e-39
-0.13588001 0.17716002 0.60200006 8.695553e-39
-0.13473335 0.17716002 0.60200006 8.694844e-39
-0.13336477 0.17686571 0.60100001 7.8650833e-39
-0.13222 0.17686571 0.60100001 8.6933796e-39
-0.13085715 0.17657143 0.60000002 9.0621621e-39
-0.1297143 0.17657143 0.60000002 1.4576948e-38
-0.12835716 0.17627716 0.59900004 1.8817947e-38
-0.12721621 0.17627716 0.59900004 2.3417687e-38
-0.12628572 0.17657143 0.60000002 2.3417687e-38
-0.12535143 0.17686571 0.60100001 2.341769e-38
-0.12420667 0.17686571 0.60100001 2.341769e-38
-0.1230619 0.17686571 0.60100001 2.3234378e-38
-0.12191714 0.17686571 0.60100001 1.6135314e-38
-0.12077238 0.17686571 0.60100001 1.5672188e-38
-0.11962762 0.17686571 0.60100001 1.5579992e-38
-0.11828572 0.17657143 0.60000002 1.5308087e-38
-0.11714286 0.17657143 0.60000002 1.5400283e-38
-0.11619334 0.17686571 0.60100001 1.5492841e-38
-0.11504857 0.17686571 0.60100001 1.5492841e-38
-0.11390381 0.17686571 0.60100001 1.5492118e-38
-0.11294667 0.17716002 0.60200006 1.4662358e-38
-0.11180001 0.17716002 0.60200006 1.438539e-38
-0.11083715 0.17745429 0.60300004 1.4293194e-38
-0.10987048 0.17774859 0.60400003 1.8716769e-38
-0.10926001 0.17863144 0.60700005 2.3418029e-38
-0.10828191 0.17892572 0.60800004 2.3050705e-38
-0.1074762 0.17951429 0.61000001 1.9823858e-38
-0.10631429 0.17951429 0.61000001 1.5873142e-38
-0.10532477 0.17980857 0.611 1.5412164e-38
-0.10416096 0.17980857 0.611 1.550617e-38
-0.10316572 0.18010287 0.61200005 1.5229584e-38
-0.10216668 0.18039715 0.61300004 1.4678568e-38
-0.10099905 0.18039715 0.61300004 1.3941003e-38
-0.099994287 0.18069144 0.61400002 1.5410012e-38
-0.099146679 0.18128002 0.61600006 1.882125e-38
-0.098609522 0.18245715 0.62 2.1024216e-38
-0.097742863 0.18304573 0.62200004 2.1208607e-38
-0.096868575 0.1836343 0.62400001 2.1297916e-38
-0.095680006 0.1836343 0.62400001 2.0468156e-38
-0.094642855 0.18392856 0.625 2.0376679e-38
-0.093452379 0.18392856 0.625 1.9362527e-38
-0.092557147 0.18451715 0.62700003 1.917777e-38
-0.091362864 0.18451715 0.62700003 1.8071422e-38
-0.15765715 0.1836381 0.62 1.5952365e-38
-0.15622382 0.18334191 0.61900002 1.5399191e-38
-0.15479429 0.18304573 0.61800003 1.5307361e-38
-0.15312001 0.18245335 0.61600006 1.7059078e-38
-0.1517 0.18215714 0.61500001 1.5681554e-38
-0.15028381 0.18186095 0.61400002 1.365325e-38
-0.14838572 0.18097238 0.611 1.2277528e-38
-0.14698096 0.18067619 0.61000001 1.2093137e-38
-0.14534096 0.18008383 0.60800004 1.3840157e-38
-0.14394574 0.17978764 0.60700005 1.7620178e-38
-0.14278954 0.17978764 0.60700005 1.9552313e-38
-0.14139999 0.17949143 0.60600001 1.5311314e-38
-0.14024571 0.17949143 0.60600001 9.7975818e-39
-0.13909143 0.17949143 0.60600001 7.5848867e-39
-0.13793714 0.17949143 0.60600001 7.3140703e-39
-0.13610572 0.17860287 0.60300004 8.4204179e-39
-0.13495716 0.17860287 0.60300004 8.8788751e-39
-0.13358667 0.17830668 0.60200006 8.6022882e-39
-0.13222 0.17801048 0.60100001 9.2472919e-39
-0.13107523 0.17801048 0.60100001 8.6941181e-39
-0.12993048 0.17801048 0.60100001 1.1358761e-38
-0.12857142 0.17771429 0.60000002 1.2465109e-38
-0.12742858 0.17771429 0.60000002 1.8351584e-38
-0.12628572 0.17771429 0.60000002 2.2775181e-38
-0.12556002 0.17830668 0.60200006 2.3326213e-38
-0.12420667 0.17801048 0.60100001 2.1574496e-38
-0.1230619 0.17801048 0.60100001 1.9087369e-38
-0.12191714 0.17801048 0.60100001 1.4569784e-38
-0.12077238 0.17801048 0.60100001 1.4570522e-38
-0.11962762 0.17801048 0.60100001 1.5492478e-38
-0.11848286 0.17801048 0.60100001 1.5584674e-38
-0.1173381 0.17801048 0.60100001 1.5584674e-38
-0.11619334 0.17801048 0.60100001 1.567687e-38
-0.11504857 0.17801048 0.60100001 1.5769065e-38
-0.11390381 0.17801048 0.60100001 1.5584324e-38
-0.11294667 0.17830668 0.60200006 1.5307737e-38
-0.11198572 0.17860287 0.60300004 1.4663797e-38
-0.11102096 0.17889905 0.60400003 1.3649645e-38
-0.10987048 0.17889905 0.60400003 1.7520757e-38
-0.10926001 0.17978764 0.60700005 2.2867027e-38
-0.10828191 0.18008383 0.60800004 2.3050705e-38
-0.10765238 0.18097238 0.611 2.0653619e-38
-0.10648857 0.18097238 0.611 1.559803e-38
-0.10532477 0.18097238 0.611 1.4215095e-38
-0.10433144 0.18126859 0.61200005 1.3943526e-38
-0.10316572 0.18126859 0.61200005 1.4127918e-38
-0.10216668 0.18156476 0.61300004 1.4033561e-38
-0.10116381 0.18186095 0.61400002 1.3295996e-38
-0.10032 0.18245335 0.61600006 1.6144727e-38
-0.099468574 0.18304573 0.61800003 2.0293491e-38
-0.098609522 0.1836381 0.62 2.2219873e-38
-0.097742863 0.18423049 0.62200004 2.1574503e-38
-0.097023807 0.18511905 0.625 2.1390112e-38
-0.095833331 0.18511905 0.625 2.0283764e-38
-0.094945721 0.18571143 0.62700003 2.0284483e-38
-0.093900949 0.18600763 0.62800002 1.9270331e-38
-0.092852384 0.18630381 0.62900001 1.8809706e-38
-0.15361714 0.18422286 0.61800003 1.7242381e-38
-0.1517 0.18332858 0.61500001 1.6233293e-38
-0.15052858 0.18332858 0.61500001 1.4112794e-38
