# .PCD v0.7 - Point Cloud Data file format
VERSION 0.7
FIELDS x y z rgb
SIZE 4 4 4 4
TYPE F F F F
COUNT 1 1 1 1
WIDTH 983
HEIGHT 1
VIEWPOINT 0 0 0 1 0 0 0
POINTS 983
DATA ascii
-0.065811433 0.081765719 0.69800001 2.3417687e-38
-0.064481907 0.081765719 0.69800001 2.3417687e-38
-0.06315238 0.081765719 0.69800001 2.3326213e-38
-0.061822858 0.081765719 0.69800001 1.7794475e-38
-0.060493335 0.081765719 0.69800001 1.0078887e-38
-0.059333336 0.082000002 0.70000005 9.4335174e-39
-0.058000006 0.082000002 0.70000005 8.8886029e-39
-0.056666669 0.082000002 0.70000005 9.3495811e-39
-0.055570476 0.082351431 0.70300001 9.2555876e-39
-0.054231428 0.082351431 0.70300001 9.1633919e-39
-0.052892383 0.082351431 0.70300001 9.1637451e-39
-0.051626671 0.082468584 0.70400006 7.4120281e-39
-0.050428573 0.08270286 0.70600003 6.1252409e-39
-0.049153332 0.082819998 0.70700002 1.3132109e-38
-0.047874287 0.082937144 0.708 2.1488068e-38
-0.046525717 0.082937144 0.708 2.1119286e-38
-0.045304764 0.083171427 0.71000004 1.6786477e-38
-0.044014286 0.083288573 0.71100003 1.1162543e-38
-0.042780001 0.083522864 0.71300006 1.0522922e-38
-0.041480005 0.083640002 0.71400005 1.1998052e-38
-0.040232379 0.083874285 0.71600002 1.4019906e-38
-0.038868573 0.083874285 0.71600002 1.6232601e-38
-0.037557144 0.083991431 0.71700001 1.4390775e-38
-0.11024667 0.085595243 0.71900004 1.4935677e-38
-0.10812001 0.085000008 0.71400005 1.098388e-38
-0.10661048 0.084880956 0.71300006 7.111664e-39
-0.10495714 0.084642857 0.71100003 8.7747951e-39
-0.10345715 0.084523819 0.71000004 1.6703619e-38
-0.10181714 0.084285714 0.708 1.8904445e-38
-0.10032666 0.084166668 0.70700002 1.3280512e-38
-0.098840006 0.084047616 0.70600003 1.153059e-38
-0.097219057 0.083809532 0.70400006 1.2729133e-38
-0.095741905 0.083690472 0.70300001 1.3463809e-38
-0.094134286 0.083452389 0.70100003 1.4109178e-38
-0.092799053 0.083452389 0.70100003 1.4109541e-38
-0.091463812 0.083452389 0.70100003 1.3464172e-38
-0.090000004 0.083333343 0.70000005 1.3463767e-38
-0.08866667 0.083333343 0.70000005 1.5399875e-38
-0.087083809 0.083095238 0.69800001 2.1479411e-38
-0.08563143 0.082976192 0.69700003 2.3509156e-38
-0.084303811 0.082976192 0.69700003 2.3326213e-38
-0.082976192 0.082976192 0.69700003 2.1666692e-38
-0.081648573 0.082976192 0.69700003 1.7899288e-38
-0.080205716 0.082857147 0.69600004 1.6885136e-38
-0.078880005 0.082857147 0.69600004 1.6062944e-38
-0.077554293 0.082857147 0.69600004 1.6523922e-38
-0.076228574 0.082857147 0.69600004 1.6523571e-38
-0.074902862 0.082857147 0.69600004 1.7076737e-38
-0.073577143 0.082857147 0.69600004 1.7168926e-38
-0.072355241 0.082976192 0.69700003 1.6984535e-38
-0.071027622 0.082976192 0.69700003 1.6156569e-38
-0.069700003 0.082976192 0.69700003 1.5695591e-38
-0.068372384 0.082976192 0.69700003 2.1116762e-38
-0.067140952 0.083095238 0.69800001 2.2683366e-38
-0.065811433 0.083095238 0.69800001 2.3417687e-38
-0.064481907 0.083095238 0.69800001 2.3417687e-38
-0.06315238 0.083095238 0.69800001 2.3050705e-38
-0.061822858 0.083095238 0.69800001 1.3831142e-38
-0.060666669 0.083333343 0.70000005 5.5778419e-39
-0.059418097 0.083452389 0.70100003 7.4217545e-39
-0.05808286 0.083452389 0.70100003 9.2570197e-39
-0.056747623 0.083452389 0.70100003 9.3492153e-39
-0.055570476 0.083690472 0.70300001 9.0729942e-39
-0.054231428 0.083690472 0.70300001 8.9807985e-39
-0.052892383 0.083690472 0.70300001 8.8878812e-39
-0.051773336 0.084047616 0.70600003 6.4907949e-39
-0.050428573 0.084047616 0.70600003 4.1941984e-39
-0.049153332 0.084166668 0.70700002 1.3499817e-38
-0.047874287 0.084285714 0.708 2.2039797e-38
-0.046657145 0.084523819 0.71000004 2.240786e-38
-0.045304764 0.084523819 0.71000004 1.9460859e-38
-0.044014286 0.084642857 0.71100003 1.3468143e-38
-0.042780001 0.084880956 0.71300006 1.0063369e-38
-0.041596193 0.085238092 0.71600002 1.2552651e-38
-0.040232379 0.085238092 0.71600002 1.7242047e-38
-0.038922857 0.085357144 0.71700001 1.466057e-38
-0.037557144 0.085357144 0.71700001 1.2912368e-38
-0.11024667 0.086964764 0.71900004 1.4198468e-38
-0.10842286 0.086601906 0.71600002 1.2729108e-38
-0.10676 0.086360008 0.71400005 1.3374477e-38
-0.10525239 0.086239055 0.71300006 1.3927333e-38
-0.10345715 0.085876197 0.71000004 1.8998093e-38
-0.10181714 0.085634284 0.708 2.0100092e-38
-0.10046858 0.085634284 0.708 1.7518614e-38
-0.098980002 0.085513331 0.70700002 1.3741505e-38
-0.097495243 0.085392386 0.70600003 1.2358571e-38
-0.095878102 0.08515048 0.70400006 1.2727335e-38
-0.094402857 0.08502952 0.70300001 1.3649292e-38
-0.093063809 0.08502952 0.70300001 1.3925153e-38
-0.091463812 0.084787622 0.70100003 1.4293935e-38
-0.090128571 0.084787622 0.70100003 1.3373411e-38
-0.08866667 0.084666677 0.70000005 1.2451455e-38
-0.087333336 0.084666677 0.70000005 1.6688501e-38
-0.085754283 0.084424764 0.69800001 2.3142185e-38
-0.084303811 0.084303811 0.69700003 2.3234378e-38
-0.082976192 0.084303811 0.69700003 1.9638748e-38
-0.081648573 0.084303811 0.69700003 1.5509039e-38
-0.080320954 0.084303811 0.69700003 1.6154408e-38
-0.078993335 0.084303811 0.69700003 1.6523559e-38
-0.077665716 0.084303811 0.69700003 1.6707951e-38
-0.076338097 0.084303811 0.69700003 1.6706879e-38
-0.075010478 0.084303811 0.69700003 1.6983466e-38
-0.07368286 0.084303811 0.69700003 1.7076014e-38
-0.07245905 0.084424764 0.69800001 1.7260406e-38
-0.071027622 0.084303811 0.69700003 1.7076733e-38
-0.069700003 0.084303811 0.69700003 1.6339168e-38
-0.068372384 0.084303811 0.69700003 1.9186064e-38
-0.067140952 0.084424764 0.69800001 2.1673176e-38
-0.065811433 0.084424764 0.69800001 2.341769e-38
-0.064481907 0.084424764 0.69800001 2.341769e-38
-0.06315238 0.084424764 0.69800001 2.2774842e-38
-0.061822858 0.084424764 0.69800001 1.2172344e-38
-0.060753338 0.084787622 0.70100003 3.0046558e-39
-0.059418097 0.084787622 0.70100003 5.7705247e-39
-0.05808286 0.084787622 0.70100003 9.0726242e-39
-0.056909524 0.08502952 0.70300001 9.1648199e-39
-0.055570476 0.08502952 0.70300001 9.1644681e-39
-0.054231428 0.08502952 0.70300001 9.0722725e-39
-0.052967623 0.08515048 0.70400006 8.2432405e-39
-0.051773336 0.085392386 0.70600003 5.4773716e-39
-0.050500002 0.085513331 0.70700002 1.2008855e-38
-0.049222857 0.085634284 0.708 1.9009946e-38
-0.047874287 0.085634284 0.708 2.3234378e-38
-0.046657145 0.085876197 0.71000004 2.3234378e-38
-0.045368571 0.085997149 0.71100003 2.3234378e-38
-0.0441381 0.086239055 0.71300006 2.0745096e-38
-0.04284 0.086360008 0.71400005 1.7615829e-38
-0.041596193 0.086601906 0.71600002 1.7062656e-38
-0.040232379 0.086601906 0.71600002 1.6787909e-38
-0.038922857 0.086722851 0.71700001 1.1256171e-38
-0.037557144 0.086722851 0.71700001 9.6045207e-39
-0.10842286 0.087965719 0.71600002 1.3922241e-38
-0.10676 0.087719999 0.71400005 1.6503718e-38
-0.10525239 0.087597147 0.71300006 1.7149835e-38
-0.10360286 0.087351426 0.71100003 1.9178139e-38
-0.10210477 0.087228574 0.71000004 1.8996253e-38
-0.10046858 0.086982854 0.708 1.8996253e-38
-0.098980002 0.086860001 0.70700002 1.5494688e-38
-0.097633332 0.086860001 0.70700002 1.2267841e-38
-0.09615048 0.086737148 0.70600003 1.2175584e-38
-0.094537146 0.086491436 0.70400006 1.3374127e-38
-0.093063809 0.086368576 0.70300001 1.3832947e-38
-0.091724768 0.086368576 0.70300001 1.4478317e-38
-0.090128571 0.086122856 0.70100003 1.2547253e-38
-0.088793337 0.086122856 0.70100003 1.1717492e-38
-0.087333336 0.086000003 0.70000005 1.6321863e-38
-0.086000003 0.086000003 0.70000005 2.2867036e-38
-0.084424764 0.085754283 0.69800001 2.2867037e-38
-0.083095238 0.085754283 0.69800001 1.964019e-38
-0.081648573 0.08563143 0.69700003 1.5600884e-38
-0.080320954 0.08563143 0.69700003 1.6246254e-38
-0.078993335 0.08563143 0.69700003 1.6890541e-38
-0.077665716 0.08563143 0.69700003 1.6982737e-38
-0.076338097 0.08563143 0.69700003 1.679943e-38
-0.075010478 0.08563143 0.69700003 1.6983821e-38
-0.07368286 0.08563143 0.69700003 1.6891623e-38
-0.07245905 0.085754283 0.69800001 1.7260406e-38
-0.071129531 0.085754283 0.69800001 1.7352241e-38
-0.069799997 0.085754283 0.69800001 1.6614676e-38
-0.068470478 0.085754283 0.69800001 1.7991121e-38
-0.067140952 0.085754283 0.69800001 2.0295643e-38
-0.066 0.086000003 0.70000005 2.3326213e-38
-0.064666666 0.086000003 0.70000005 2.3326213e-38
-0.06333334 0.086000003 0.70000005 2.2315305e-38
-0.062000006 0.086000003 0.70000005 1.2542569e-38
-0.060753338 0.086122856 0.70100003 5.8515589e-39
-0.059418097 0.086122856 0.70100003 7.7876672e-39
-0.058248568 0.086368576 0.70300001 9.1641052e-39
-0.056909524 0.086368576 0.70300001 9.3484965e-39
-0.055649526 0.086491436 0.70400006 9.4406949e-39
-0.054308575 0.086491436 0.70400006 8.7031299e-39
-0.052967623 0.086491436 0.70400006 6.128129e-39
-0.051846668 0.086860001 0.70700002 7.1422809e-39
-0.050500002 0.086860001 0.70700002 1.7157431e-38
-0.049222857 0.086982854 0.708 2.1489505e-38
-0.048009526 0.087228574 0.71000004 2.3326213e-38
-0.046722859 0.087351426 0.71100003 2.3326213e-38
-0.045496192 0.087597147 0.71300006 2.3326213e-38
-0.044200003 0.087719999 0.71400005 2.3141822e-38
-0.04284 0.087719999 0.71400005 1.9735295e-38
-0.041596193 0.087965719 0.71600002 1.9550904e-38
-0.040232379 0.087965719 0.71600002 1.5963553e-38
-0.10676 0.089080006 0.71400005 1.6596267e-38
-0.1054 0.089080006 0.71400005 1.6966883e-38
-0.10389429 0.088955246 0.71300006 1.6137122e-38
-0.10210477 0.088580951 0.71000004 1.678533e-38
-0.10046858 0.088331431 0.708 1.9459004e-38
-0.099120006 0.088331431 0.708 1.917959e-38
-0.097633332 0.088206671 0.70700002 1.4938591e-38
-0.096286669 0.088206671 0.70700002 1.2175954e-38
-0.094537146 0.087832384 0.70400006 1.2544736e-38
-0.093196198 0.087832384 0.70400006 1.2911729e-38
-0.091724768 0.087707624 0.70300001 1.3188316e-38
-0.090385713 0.087707624 0.70300001 1.1900805e-38
-0.088793337 0.087458096 0.70100003 1.4851065e-38
-0.087458096 0.087458096 0.70100003 1.7333932e-38
-0.086122856 0.087458096 0.70100003 2.2681214e-38
-0.084666677 0.087333336 0.70000005 2.3326213e-38
-0.083095238 0.087083809 0.69800001 2.2496453e-38
-0.081765719 0.087083809 0.69800001 1.7349015e-38
-0.080436192 0.087083809 0.69800001 1.6242671e-38
-0.079106666 0.087083809 0.69800001 1.5419377e-38
-0.07777714 0.087083809 0.69800001 1.6156942e-38
-0.076447621 0.087083809 0.69800001 1.6890907e-38
-0.075118095 0.087083809 0.69800001 1.7351885e-38
-0.073788576 0.087083809 0.69800001 1.716785e-38
-0.072666667 0.087333336 0.70000005 1.7444437e-38
-0.071333334 0.087333336 0.70000005 1.7260045e-38
-0.070000008 0.087333336 0.70000005 1.6706872e-38
-0.068666674 0.087333336 0.70000005 1.9554481e-38
-0.067333341 0.087333336 0.70000005 2.1765011e-38
-0.066 0.087333336 0.70000005 2.341769e-38
-0.064666666 0.087333336 0.70000005 2.341769e-38
-0.063423812 0.087458096 0.70100003 2.3050705e-38
-0.062088571 0.087458096 0.70100003 1.8440924e-38
-0.060926665 0.087707624 0.70300001 6.3122372e-39
-0.05958762 0.087707624 0.70300001 5.2980853e-39
-0.058248568 0.087707624 0.70300001 5.8547917e-39
-0.056990478 0.087832384 0.70400006 6.8689437e-39
-0.055649526 0.087832384 0.70400006 7.2326913e-39
-0.054308575 0.087832384 0.70400006 4.9278006e-39
-0.053193334 0.088206671 0.70700002 1.0262513e-38
-0.051846668 0.088206671 0.70700002 1.7724249e-38
-0.050571427 0.088331431 0.708 2.2774842e-38
-0.049361907 0.088580951 0.71000004 2.2867037e-38
-0.048009526 0.088580951 0.71000004 2.0656153e-38
-0.046854287 0.088955246 0.71300006 2.0102979e-38
-0.045560002 0.089080006 0.71400005 2.2037274e-38
-0.044200003 0.089080006 0.71400005 2.2958871e-38
-0.04284 0.089080006 0.71400005 2.3234378e-38
-0.041596193 0.089329526 0.71600002 2.1206074e-38
-0.040232379 0.089329526 0.71600002 1.5962464e-38
-0.039085716 0.089828581 0.72000003 7.2960749e-39
-0.10705905 0.09069334 0.71600002 1.6780295e-38
-0.1054 0.090440005 0.71400005 1.6232915e-38
-0.10404 0.090440005 0.71400005 1.3928024e-38
-0.10224857 0.090060003 0.71100003 1.374684e-38
-0.10046858 0.089680001 0.708 1.7434665e-38
-0.099120006 0.089680001 0.708 1.9917153e-38
-0.097771429 0.089680001 0.708 1.7796653e-38
-0.096286669 0.089553341 0.70700002 1.3377063e-38
-0.094805717 0.089426666 0.70600003 1.1348759e-38
-0.093196198 0.089173339 0.70400006 1.1899691e-38
-0.091724768 0.089046665 0.70300001 1.2360669e-38
-0.090385713 0.089046665 0.70300001 1.2177038e-38
-0.089046665 0.089046665 0.70300001 1.7985363e-38
-0.087707624 0.089046665 0.70300001 2.2310992e-38
-0.086122856 0.088793337 0.70100003 2.3417333e-38
-0.084666677 0.08866667 0.70000005 2.3326213e-38
-0.083333343 0.08866667 0.70000005 2.3141822e-38
-0.082000002 0.08866667 0.70000005 2.0017264e-38
-0.080666669 0.08866667 0.70000005 1.7620178e-38
-0.079333335 0.08866667 0.70000005 1.4866919e-38
-0.078000009 0.08866667 0.70000005 1.5973267e-38
-0.076447621 0.088413335 0.69800001 1.6890907e-38
-0.075118095 0.088413335 0.69800001 1.7075298e-38
-0.074000001 0.08866667 0.70000005 1.7075298e-38
-0.072666667 0.08866667 0.70000005 1.7259689e-38
-0.071435243 0.088793337 0.70100003 1.6708314e-38
-0.070100002 0.088793337 0.70100003 1.6339531e-38
-0.068764761 0.088793337 0.70100003 2.0565386e-38
-0.067333341 0.08866667 0.70000005 2.240786e-38
-0.066 0.08866667 0.70000005 2.3417687e-38
-0.064759046 0.088793337 0.70100003 2.3417687e-38
-0.063423812 0.088793337 0.70100003 2.3326213e-38
-0.062088571 0.088793337 0.70100003 2.0744736e-38
-0.060926665 0.089046665 0.70300001 1.5417212e-38
-0.05958762 0.089046665 0.70300001 1.0346452e-38
-0.058248568 0.089046665 0.70300001 4.6584388e-39
-0.056990478 0.089173339 0.70400006 4.6584388e-39
-0.055649526 0.089173339 0.70400006 2.9120692e-39
-0.054540001 0.089553341 0.70700002 3.0042648e-39
-0.053193334 0.089553341 0.70700002 1.2470203e-38
-0.051919997 0.089680001 0.708 1.8918111e-38
-0.050571427 0.089680001 0.708 2.3050705e-38
-0.049361907 0.089933343 0.71000004 2.1114597e-38
-0.048077144 0.090060003 0.71100003 1.8907304e-38
-0.046854287 0.090313345 0.71300006 1.7985348e-38
-0.045560002 0.090440005 0.71400005 1.8814743e-38
-0.044200003 0.090440005 0.71400005 2.213235e-38
-0.042960003 0.09069334 0.71600002 2.3142182e-38
-0.041654285 0.09082 0.71700001 2.1113878e-38
-0.040288571 0.09082 0.71700001 1.550111e-38
-0.039031431 0.091073342 0.71900004 7.3878949e-39
-0.10569524 0.092057146 0.71600002 1.392874e-38
-0.10433143 0.092057146 0.71600002 1.3098979e-38
-0.10224857 0.091414288 0.71100003 1.2459373e-38
-0.10046858 0.091028571 0.708 1.4395482e-38
-0.099120006 0.091028571 0.708 1.7798798e-38
-0.097771429 0.091028571 0.708 2.0564667e-38
-0.096286669 0.090899996 0.70700002 1.816618e-38
-0.094805717 0.090771429 0.70600003 1.2265659e-38
-0.093196198 0.090514295 0.70400006 1.0245221e-38
-0.091855243 0.090514295 0.70400006 1.4117437e-38
-0.090385713 0.090385713 0.70300001 1.8625332e-38
-0.089046665 0.090385713 0.70300001 2.2958514e-38
-0.087707624 0.090385713 0.70300001 2.3326213e-38
-0.086122856 0.090128571 0.70100003 2.3049626e-38
-0.084787622 0.090128571 0.70100003 2.3326213e-38
-0.083333343 0.090000004 0.70000005 2.3326213e-38
-0.082000002 0.090000004 0.70000005 2.2867037e-38
-0.080666669 0.090000004 0.70000005 2.1945081e-38
-0.079333335 0.090000004 0.70000005 1.8453538e-38
-0.078000009 0.090000004 0.70000005 1.71628e-38
-0.076666676 0.090000004 0.70000005 1.5788166e-38
-0.075333342 0.090000004 0.70000005 1.6341336e-38
-0.074000001 0.090000004 0.70000005 1.6707598e-38
-0.072770476 0.090128571 0.70100003 1.6338815e-38
-0.071435243 0.090128571 0.70100003 1.8637209e-38
-0.070100002 0.090128571 0.70100003 2.0387479e-38
-0.068764761 0.090128571 0.70100003 2.3326213e-38
-0.067429528 0.090128571 0.70100003 2.3326213e-38
-0.066094287 0.090128571 0.70100003 2.3417687e-38
-0.064759046 0.090128571 0.70100003 2.3417687e-38
-0.063423812 0.090128571 0.70100003 2.341769e-38
-0.062265713 0.090385713 0.70300001 2.341769e-38
-0.060926665 0.090385713 0.70300001 2.2774842e-38
-0.05958762 0.090385713 0.70300001 2.2129472e-38
-0.058248568 0.090385713 0.70300001 1.5330069e-38
-0.056990478 0.090514295 0.70400006 7.9544245e-39
-0.055886667 0.090899996 0.70700002 3.0035613e-39
-0.054540001 0.090899996 0.70700002 1.0101903e-38
-0.05326857 0.091028571 0.708 2.2131993e-38
-0.051919997 0.091028571 0.708 2.2499695e-38
-0.050714288 0.09128572 0.71000004 2.2774842e-38
-0.049431432 0.091414288 0.71100003 1.9271408e-38
-0.048212387 0.09167143 0.71300006 1.5690193e-38
-0.046920002 0.091800004 0.71400005 1.4860433e-38
-0.045560002 0.091800004 0.71400005 1.5778426e-38
-0.044323809 0.092057146 0.71600002 1.780673e-38
-0.042960003 0.092057146 0.71600002 2.0195181e-38
-0.041654285 0.092185713 0.71700001 1.8351269e-38
-0.040400952 0.092442855 0.71900004 1.3570024e-38
-0.039031431 0.092442855 0.71900004 6.4709609e-39
-0.03797619 0.093214288 0.72500002 9.1464614e-39
-0.03659524 0.093214288 0.72500002 1.4954786e-38
-0.035214286 0.093214288 0.72500002 1.8072492e-38
-0.10569524 0.093420953 0.71600002 1.2731997e-38
-0.10433143 0.093420953 0.71600002 1.2639802e-38
-0.10224857 0.092768572 0.71100003 1.19098e-38
-0.10075239 0.092638098 0.71000004 1.2555169e-38
-0.099399999 0.092638098 0.71000004 1.6233265e-38
-0.097771429 0.092377141 0.708 2.0289873e-38
-0.096286669 0.092246667 0.70700002 2.0378494e-38
-0.094939999 0.092246667 0.70700002 1.327943e-38
-0.093460955 0.092116199 0.70600003 1.2449281e-38
-0.091855243 0.091855243 0.70400006 1.7612237e-38
-0.090514295 0.091855243 0.70400006 2.2218078e-38
-0.089046665 0.091724768 0.70300001 2.3508809e-38
-0.087707624 0.091724768 0.70300001 2.3234378e-38
-0.086368576 0.091724768 0.70300001 2.0745096e-38
-0.084787622 0.091463812 0.70100003 2.0102575e-38
-0.083452389 0.091463812 0.70100003 2.2867009e-38
-0.082000002 0.091333345 0.70000005 2.341769e-38
-0.080666669 0.091333345 0.70000005 2.3325494e-38
-0.079333335 0.091333345 0.70000005 2.0844494e-38
-0.078000009 0.091333345 0.70000005 1.8631799e-38
-0.076666676 0.091333345 0.70000005 1.4959492e-38
-0.075333342 0.091333345 0.70000005 1.5512664e-38
-0.074105717 0.091463812 0.70100003 1.6431711e-38
-0.072770476 0.091463812 0.70100003 1.624732e-38
-0.071639046 0.091724768 0.70300001 2.0015452e-38
-0.070299998 0.091724768 0.70300001 2.1856847e-38
-0.068960957 0.091724768 0.70300001 2.341769e-38
-0.067429528 0.091463812 0.70100003 2.341769e-38
-0.066094287 0.091463812 0.70100003 2.341769e-38
-0.064943813 0.091724768 0.70300001 2.341769e-38
-0.063604765 0.091724768 0.70300001 2.3418043e-38
-0.062265713 0.091724768 0.70300001 2.3418043e-38
-0.060926665 0.091724768 0.70300001 2.341769e-38
-0.059672385 0.091855243 0.70400006 2.341769e-38
-0.058331434 0.091855243 0.70400006 2.1121444e-38
-0.056990478 0.091855243 0.70400006 1.3653598e-38
-0.055886667 0.092246667 0.70700002 7.5960494e-39
-0.05461714 0.092377141 0.708 1.5703868e-38
-0.05326857 0.092377141 0.708 2.3234378e-38
-0.052066669 0.092638098 0.71000004 2.3234378e-38
-0.050714288 0.092638098 0.71000004 2.20398e-38
-0.049431432 0.092768572 0.71100003 1.7983192e-38
-0.048212387 0.093029529 0.71300006 1.4681795e-38
-0.046920002 0.093160003 0.71400005 1.4313012e-38
-0.045560002 0.093160003 0.71400005 1.4034265e-38
-0.044323809 0.093420953 0.71600002 1.560159e-38
-0.043020003 0.093551435 0.71700001 1.9093888e-38
-0.041770477 0.093812384 0.71900004 1.7526563e-38
-0.040457144 0.093942866 0.72000003 1.1912681e-38
-0.039248575 0.094334297 0.72300005 6.3809429e-39
-0.03797619 0.094595239 0.72500002 1.052685e-38
-0.03659524 0.094595239 0.72500002 1.5505414e-38
-0.10672858 0.09571144 0.72300005 1.310078e-38
-0.10520572 0.095579058 0.72200006 1.310078e-38
-0.10224857 0.094122857 0.71100003 1.2186033e-38
-0.10075239 0.093990475 0.71000004 1.246262e-38
-0.099399999 0.093990475 0.71000004 1.3841226e-38
-0.097771429 0.093725719 0.708 1.6883682e-38
-0.096422859 0.093725719 0.708 1.9180666e-38
-0.094939999 0.093593337 0.70700002 1.9365058e-38
-0.093460955 0.093460955 0.70600003 2.1576279e-38
-0.092116199 0.093460955 0.70600003 2.3142528e-38
-0.090514295 0.093196198 0.70400006 2.3326213e-38
-0.089173339 0.093196198 0.70400006 2.3234018e-38
-0.087707624 0.093063809 0.70300001 1.8816213e-38
-0.086368576 0.093063809 0.70300001 1.107178e-38
-0.084787622 0.092799053 0.70100003 9.7939692e-39
-0.083452389 0.092799053 0.70100003 1.5971076e-38
-0.082117148 0.092799053 0.70100003 2.2588292e-38
-0.080781907 0.092799053 0.70100003 2.3325856e-38
-0.079446673 0.092799053 0.70100003 2.3326213e-38
-0.078111432 0.092799053 0.70100003 2.3049626e-38
-0.076776192 0.092799053 0.70100003 2.0018699e-38
-0.075440958 0.092799053 0.70100003 1.7345026e-38
-0.074105717 0.092799053 0.70100003 1.8177673e-38
-0.072978094 0.093063809 0.70300001 2.0387479e-38
-0.071639046 0.093063809 0.70300001 2.3326213e-38
-0.070299998 0.093063809 0.70300001 2.3326213e-38
-0.068960957 0.093063809 0.70300001 2.341769e-38
-0.067621902 0.093063809 0.70300001 2.0928408e-38
-0.066282853 0.093063809 0.70300001 1.7241697e-38
-0.064943813 0.093063809 0.70300001 1.6411936e-38
-0.063604765 0.093063809 0.70300001 1.9729865e-38
-0.062354293 0.093196198 0.70400006 2.341769e-38
-0.061013337 0.093196198 0.70400006 2.3417687e-38
-0.059672385 0.093196198 0.70400006 2.3417687e-38
-0.058331434 0.093196198 0.70400006 2.3142182e-38
-0.057152383 0.093460955 0.70600003 2.2681204e-38
-0.055965714 0.093725719 0.708 2.2774839e-38
-0.05461714 0.093725719 0.708 2.2958871e-38
-0.05341905 0.093990475 0.71000004 2.3234378e-38
-0.052066669 0.093990475 0.71000004 2.1482661e-38
-0.050785713 0.094122857 0.71100003 1.8175865e-38
-0.049570478 0.094387628 0.71300006 1.6792931e-38
-0.048212387 0.094387628 0.71300006 1.4866909e-38
-0.046920002 0.09452001 0.71400005 1.4405931e-38
-0.04568762 0.094784766 0.71600002 1.4126847e-38
-0.044323809 0.094784766 0.71600002 1.4864412e-38
-0.043140002 0.095181912 0.71900004 1.8726172e-38
-0.041828573 0.095314287 0.72000003 1.7619825e-38
-0.040569525 0.095579058 0.72200006 1.1269499e-38
-0.039248575 0.09571144 0.72300005 5.7377609e-39
-0.03797619 0.095976189 0.72500002 1.025137e-38
-0.03674667 0.096373342 0.72800004 1.5414325e-38
-0.035457142 0.096638098 0.73000002 1.76108e-38
-0.11254762 0.097357146 0.72500002 1.4289579e-38
-0.11116667 0.097357146 0.72500002 1.4105187e-38
-0.10840476 0.097357146 0.72500002 1.5120411e-38
-0.10672858 0.097088575 0.72300005 1.3467409e-38
-0.10520572 0.096954294 0.72200006 1.3467409e-38
-0.10339905 0.096551433 0.71900004 1.2001276e-38
-0.10075239 0.095342867 0.71000004 1.2646646e-38
-0.099399999 0.095342867 0.71000004 1.2647365e-38
-0.098047622 0.095342867 0.71000004 1.4122495e-38
-0.096422859 0.095074289 0.708 1.8535635e-38
-0.094939999 0.094939999 0.70700002 2.1393699e-38
-0.093593337 0.094939999 0.70700002 2.2865598e-38
-0.092116199 0.094805717 0.70600003 2.3234379e-38
-0.090771429 0.094805717 0.70600003 2.3050705e-38
-0.089173339 0.094537146 0.70400006 2.083801e-38
-0.087832384 0.094537146 0.70400006 1.3022997e-38
-0.086368576 0.094402857 0.70300001 7.1224764e-39
-0.084787622 0.094134286 0.70100003 5.2028867e-39
-0.083452389 0.094134286 0.70100003 8.8907119e-39
-0.082117148 0.094134286 0.70100003 2.0099348e-38
-0.080781907 0.094134286 0.70100003 2.3233999e-38
-0.079446673 0.094134286 0.70100003 2.3417687e-38
-0.078111432 0.094134286 0.70100003 2.3417687e-38
-0.076776192 0.094134286 0.70100003 2.20398e-38
-0.075440958 0.094134286 0.70100003 1.8812953e-38
-0.074105717 0.094134286 0.70100003 1.9463002e-38
-0.072978094 0.094402857 0.70300001 2.1673176e-38
-0.071740955 0.094537146 0.70400006 2.341769e-38
-0.070400007 0.094537146 0.70400006 2.341769e-38
-0.069059052 0.094537146 0.70400006 2.341769e-38
-0.067621902 0.094402857 0.70300001 1.8254735e-38
-0.066282853 0.094402857 0.70300001 1.5585024e-38
-0.065036193 0.094537146 0.70400006 1.4939655e-38
-0.063695244 0.094537146 0.70400006 1.6781027e-38
-0.062354293 0.094537146 0.70400006 2.2312765e-38
-0.061013337 0.094537146 0.70400006 2.3418043e-38
-0.059672385 0.094537146 0.70400006 2.3418043e-38
-0.058497142 0.094805717 0.70600003 2.341769e-38
-0.057152383 0.094805717 0.70600003 2.341769e-38
-0.055965714 0.095074289 0.708 2.341769e-38
-0.05461714 0.095074289 0.708 2.341769e-38
-0.05341905 0.095342867 0.71000004 2.3142182e-38
-0.052066669 0.095342867 0.71000004 1.917777e-38
-0.050785713 0.095477149 0.71100003 1.569307e-38
-0.049570478 0.09574572 0.71300006 1.5969657e-38
-0.048280004 0.095880002 0.71400005 1.5601963e-38
-0.046920002 0.095880002 0.71400005 1.4772203e-38
-0.04568762 0.096148573 0.71600002 1.3943524e-38
-0.044385713 0.096282855 0.71700001 1.5049871e-38
-0.043140002 0.096551433 0.71900004 1.7991136e-38
-0.041828573 0.096685715 0.72000003 1.7898941e-38
-0.040569525 0.096954294 0.72200006 1.1916673e-38
-0.039248575 0.097088575 0.72300005 7.3990871e-39
-0.03797619 0.097357146 0.72500002 1.1908708e-38
-0.03674667 0.097759999 0.72800004 1.5780924e-38
-0.035457142 0.09802857 0.73000002 1.6874318e-38
-0.10978571 0.098738097 0.72500002 1.4013345e-38
-0.10840476 0.098738097 0.72500002 1.5396279e-38
-0.10702381 0.098738097 0.72500002 1.4479396e-38
-0.10535144 0.098465718 0.72300005 1.4940374e-38
-0.10383049 0.098329529 0.72200006 1.2921065e-38
-0.10174571 0.097648568 0.71700001 1.3197652e-38
-0.099540003 0.096831433 0.71100003 1.2555895e-38
-0.098047622 0.096695244 0.71000004 1.2740286e-38
-0.096422859 0.096422859 0.708 1.5497861e-38
-0.095074289 0.096422859 0.708 2.0660816e-38
-0.093593337 0.096286669 0.70700002 2.2773765e-38
-0.092246667 0.096286669 0.70700002 2.1667418e-38
-0.090899996 0.096286669 0.70700002 1.6974811e-38
-0.089426666 0.09615048 0.70600003 1.1350878e-38
-0.088081911 0.09615048 0.70600003 6.3063924e-39
-0.086491436 0.095878102 0.70400006 6.8595662e-39
-0.08502952 0.095741905 0.70300001 8.1467191e-39
-0.083690472 0.095741905 0.70300001 7.5935453e-39
-0.082351431 0.095741905 0.70300001 1.3753638e-38
-0.080781907 0.095469527 0.70100003 1.7072681e-38
-0.079446673 0.095469527 0.70100003 2.2312056e-38
-0.078334287 0.095741905 0.70300001 2.3326208e-38
-0.076776192 0.095469527 0.70100003 2.3326213e-38
-0.075440958 0.095469527 0.70100003 2.2957431e-38
-0.07431715 0.095741905 0.70300001 2.3326213e-38
-0.073081911 0.095878102 0.70400006 2.3326213e-38
-0.071740955 0.095878102 0.70400006 2.341769e-38
-0.070400007 0.095878102 0.70400006 2.1204995e-38
-0.069059052 0.095878102 0.70400006 1.7795234e-38
-0.067718096 0.095878102 0.70400006 1.576693e-38
-0.066377148 0.095878102 0.70400006 1.5217687e-38
-0.065036193 0.095878102 0.70400006 1.5402078e-38
-0.063695244 0.095878102 0.70400006 1.5767983e-38
-0.062354293 0.095878102 0.70400006 1.5952375e-38
-0.061013337 0.095878102 0.70400006 1.8716401e-38
-0.059672385 0.095878102 0.70400006 2.2496422e-38
-0.058497142 0.09615048 0.70600003 2.3233302e-38
-0.057233334 0.096286669 0.70700002 2.3417691e-38
-0.055965714 0.096422859 0.708 2.341769e-38
-0.054771431 0.096695244 0.71000004 2.341769e-38
-0.05341905 0.096695244 0.71000004 2.2407501e-38
-0.052140001 0.096831433 0.71100003 1.8719676e-38
-0.050928578 0.097103812 0.71300006 1.5418657e-38
-0.049570478 0.097103812 0.71300006 1.5787439e-38
-0.048280004 0.097240001 0.71400005 1.5694164e-38
-0.04705143 0.097512379 0.71600002 1.4587817e-38
-0.04568762 0.097512379 0.71600002 1.5137748e-38
-0.044385713 0.097648568 0.71700001 1.7073856e-38
-0.043140002 0.097920962 0.71900004 2.1025645e-38
-0.041828573 0.098057151 0.72000003 2.1855406e-38
-0.040569525 0.098329529 0.72200006 1.8723657e-38
-0.039465718 0.099010482 0.72700006 1.4206071e-38
-0.038080957 0.099010482 0.72700006 1.4024901e-38
-0.03674667 0.099146672 0.72800004 1.6421988e-38
-0.035360001 0.099146672 0.72800004 1.7149466e-38
-0.1128581 0.10039525 0.72700006 1.4289581e-38
-0.11116667 0.10011905 0.72500002 1.410519e-38
-0.10978571 0.10011905 0.72500002 1.4379619e-38
-0.10840476 0.10011905 0.72500002 1.5301575e-38
-0.10702381 0.10011905 0.72500002 1.4847084e-38
-0.10564286 0.10011905 0.72500002 1.5123671e-38
-0.10383049 0.099704772 0.72200006 1.3288055e-38
-0.10202952 0.099290483 0.71900004 1.3656838e-38
-0.10038 0.09901429 0.71700001 1.191233e-38
-0.098185718 0.098185718 0.71100003 1.2004526e-38
-0.096695244 0.098047622 0.71000004 1.4303634e-38
-0.095074289 0.097771429 0.708 1.9835371e-38
-0.093725719 0.097771429 0.708 2.2038365e-38
-0.092377141 0.097771429 0.708 2.0286648e-38
-0.091028571 0.097771429 0.708 1.2563085e-38
-0.089553341 0.097633332 0.70700002 7.2157384e-39
-0.088206671 0.097633332 0.70700002 5.4813177e-39
-0.086737148 0.097495243 0.70600003 7.2330346e-39
-0.085392386 0.097495243 0.70600003 8.424385e-39
-0.083809532 0.097219057 0.70400006 7.5024287e-39
-0.082351431 0.097080946 0.70300001 5.5741999e-39
-0.081012383 0.097080946 0.70300001 7.7868951e-39
-0.079673328 0.097080946 0.70300001 1.8536694e-38
-0.078334287 0.097080946 0.70300001 2.2407834e-38
-0.076995239 0.097080946 0.70300001 2.3417687e-38
-0.075656191 0.097080946 0.70300001 2.3417687e-38
-0.07431715 0.097080946 0.70300001 2.341769e-38
-0.073081911 0.097219057 0.70400006 2.341769e-38
-0.071740955 0.097219057 0.70400006 2.341769e-38
-0.070400007 0.097219057 0.70400006 1.7701561e-38
-0.069059052 0.097219057 0.70400006 1.5399923e-38
-0.067718096 0.097219057 0.70400006 1.5768705e-38
-0.066377148 0.097219057 0.70400006 1.6046368e-38
-0.065036193 0.097219057 0.70400006 1.6322955e-38
-0.063695244 0.097219057 0.70400006 1.6045649e-38
-0.062354293 0.097219057 0.70400006 1.5031497e-38
-0.061186668 0.097495243 0.70600003 1.5124377e-38
-0.059841909 0.097495243 0.70600003 1.6968289e-38
-0.058497142 0.097495243 0.70600003 2.2402093e-38
-0.057233334 0.097633332 0.70700002 2.3509161e-38
-0.055965714 0.097771429 0.708 2.3326213e-38
-0.054771431 0.098047622 0.71000004 2.2773039e-38
-0.053494286 0.098185718 0.71100003 1.9189304e-38
-0.052140001 0.098185718 0.71100003 1.6976609e-38
-0.050928578 0.098461911 0.71300006 1.5510849e-38
-0.04964 0.098600008 0.71400005 1.5695241e-38
-0.048280004 0.098600008 0.71400005 1.5601969e-38
-0.04705143 0.098876186 0.71600002 1.4495621e-38
-0.04568762 0.098876186 0.71600002 1.5505089e-38
-0.044385713 0.09901429 0.71700001 1.8363152e-38
-0.043200001 0.099428572 0.72000003 2.1484829e-38
-0.041828573 0.099428572 0.72000003 2.2038002e-38
-0.040569525 0.099704772 0.72200006 2.1943654e-38
-0.039465718 0.10039525 0.72700006 1.7426068e-38
-0.038080957 0.10039525 0.72700006 1.5585743e-38
-0.03674667 0.10053334 0.72800004 1.6968678e-38
-0.035360001 0.10053334 0.72800004 1.6689927e-38
-0.11147334 0.10178001 0.72700006 1.4197389e-38
-0.10978571 0.1015 0.72500002 1.4195596e-38
-0.10840476 0.1015 0.72500002 1.4011205e-38
-0.10702381 0.1015 0.72500002 1.3187553e-38
-0.10564286 0.1015 0.72500002 1.5123661e-38
-0.10397429 0.10122 0.72300005 1.4209283e-38
-0.10217144 0.1008 0.72000003 1.38405e-38
-0.10066 0.10066 0.71900004 1.2004526e-38
-0.098876186 0.10024001 0.71600002 1.2373308e-38
-0.097103812 0.09982001 0.71300006 1.3200185e-38
-0.095477149 0.099540003 0.71100003 1.7072402e-38
-0.094122857 0.099540003 0.71100003 2.019769e-38
-0.092638098 0.099399999 0.71000004 1.7155234e-38
-0.09128572 0.099399999 0.71000004 9.8923082e-39
-0.089680001 0.099120006 0.708 7.4030262e-39
-0.088331431 0.099120006 0.708 7.0436183e-39
-0.086860001 0.098980002 0.70700002 8.1499659e-39
-0.085513331 0.098980002 0.70700002 8.7006089e-39
-0.084047616 0.098840006 0.70600003 8.7928045e-39
-0.08270286 0.098840006 0.70600003 8.6091279e-39
-0.081127621 0.098560005 0.70400006 7.3183891e-39
-0.079786673 0.098560005 0.70400006 1.2835659e-38
-0.078445718 0.098560005 0.70400006 1.6154701e-38
-0.076995239 0.098420002 0.70300001 2.3326198e-38
-0.075656191 0.098420002 0.70300001 2.3418035e-38
-0.07431715 0.098420002 0.70300001 2.3417687e-38
-0.073081911 0.098560005 0.70400006 2.1758166e-38
-0.071740955 0.098560005 0.70400006 1.8164359e-38
-0.070600003 0.098840006 0.70600003 1.5490686e-38
-0.06925524 0.098840006 0.70600003 1.5309522e-38
-0.067910478 0.098840006 0.70600003 1.6231478e-38
-0.066565715 0.098840006 0.70600003 1.6415151e-38
-0.065220952 0.098840006 0.70600003 1.6415151e-38
-0.063876189 0.098840006 0.70600003 1.6414798e-38
-0.062619999 0.098980002 0.70700002 1.6230406e-38
-0.061273329 0.098980002 0.70700002 1.5861261e-38
-0.060011428 0.099120006 0.708 1.4478326e-38
-0.058662858 0.099120006 0.708 1.6318652e-38
-0.057314284 0.099120006 0.708 2.3233303e-38
-0.056123812 0.099399999 0.71000004 2.3326213e-38
-0.054848574 0.099540003 0.71100003 2.2219866e-38
-0.053494286 0.099540003 0.71100003 1.7992573e-38
-0.05228667 0.09982001 0.71300006 1.6333051e-38
-0.051000003 0.099960007 0.71400005 1.5235341e-38
-0.04964 0.099960007 0.71400005 1.505095e-38
-0.04841524 0.10024001 0.71600002 1.5233546e-38
-0.04705143 0.10024001 0.71600002 1.4403786e-38
-0.04575143 0.10038 0.71700001 1.7343241e-38
-0.044509526 0.10066 0.71900004 2.0570074e-38
-0.043320004 0.10108001 0.72200006 2.0285922e-38
-0.04200286 0.10122 0.72300005 1.8902988e-38
-0.040625714 0.10122 0.72300005 1.9272512e-38
-0.039465718 0.10178001 0.72700006 1.8995925e-38
-0.038080957 0.10178001 0.72700006 1.7981751e-38
-0.036696192 0.10178001 0.72700006 1.7797359e-38
-0.03565143 0.10276 0.73400003 1.6965794e-38
-0.11147334 0.10316477 0.72700006 1.4197389e-38
-0.11008858 0.10316477 0.72700006 1.4380338e-38
-0.10870381 0.10316477 0.72700006 1.4103751e-38
-0.10702381 0.10288095 0.72500002 1.2541808e-38
-0.10564286 0.10288095 0.72500002 1.4201329e-38
-0.10383049 0.10245524 0.72200006 1.4668469e-38
-0.10217144 0.10217144 0.72000003 1.420749e-38
-0.10066 0.10202952 0.71900004 1.1912686e-38
-0.09901429 0.10174571 0.71700001 1.2097078e-38
-0.097240001 0.10132001 0.71400005 1.2004526e-38
-0.09574572 0.1011781 0.71300006 1.6798699e-38
-0.094122857 0.10089429 0.71100003 1.9370831e-38
-0.092768572 0.10089429 0.71100003 1.7526919e-38
-0.09128572 0.10075239 0.71000004 8.6988139e-39
-0.089680001 0.10046858 0.708 6.7627056e-39
-0.088331431 0.10046858 0.708 6.951773e-39
-0.086982854 0.10046858 0.708 8.0581206e-39
-0.085513331 0.10032666 0.70700002 8.7006089e-39
-0.084166668 0.10032666 0.70700002 8.9771958e-39
-0.08270286 0.10018477 0.70600003 8.8857148e-39
-0.081358097 0.10018477 0.70600003 7.9637585e-39
-0.080013335 0.10018477 0.70600003 7.321238e-39
-0.078445718 0.099900961 0.70400006 8.2431943e-39
-0.07710477 0.099900961 0.70400006 1.991748e-38
-0.075656191 0.09975905 0.70300001 2.295886e-38
-0.07431715 0.09975905 0.70300001 2.341769e-38
-0.073289528 0.10018477 0.70600003 1.834693e-38
-0.071944758 0.10018477 0.70600003 1.6134238e-38
-0.070600003 0.10018477 0.70600003 1.6318629e-38
-0.06925524 0.10018477 0.70600003 1.6230759e-38
-0.067910478 0.10018477 0.70600003 1.6507346e-38
-0.066660002 0.10032666 0.70700002 1.6598823e-38
-0.065313332 0.10032666 0.70700002 1.6598823e-38
-0.063966669 0.10032666 0.70700002 1.6598826e-38
-0.062619999 0.10032666 0.70700002 1.650663e-38
-0.061360002 0.10046858 0.708 1.5954891e-38
-0.060011428 0.10046858 0.708 1.4203174e-38
-0.058662858 0.10046858 0.708 1.5951276e-38
-0.057476193 0.10075239 0.71000004 2.3234372e-38
-0.056202859 0.10089429 0.71100003 2.3326213e-38
-0.054848574 0.10089429 0.71100003 2.1943279e-38
-0.053644765 0.1011781 0.71300006 1.7257887e-38
-0.05228667 0.1011781 0.71300006 1.5874953e-38
-0.051000003 0.10132001 0.71400005 1.5601969e-38
-0.04964 0.10132001 0.71400005 1.5325382e-38
-0.04841524 0.10160381 0.71600002 1.5049505e-38
-0.04705143 0.10160381 0.71600002 1.495731e-38
-0.04575143 0.10174571 0.71700001 1.9550904e-38
-0.044571429 0.10217144 0.72000003 2.0472857e-38
-0.043320004 0.10245524 0.72200006 1.9271405e-38
-0.04223524 0.10316477 0.72700006 1.7704079e-38
-0.040906668 0.10330667 0.72800004 1.8260849e-38
-0.039520003 0.10330667 0.72800004 1.8998414e-38
-0.038133334 0.10330667 0.72800004 1.835054e-38
-0.037049524 0.1041581 0.73400003 1.7705171e-38
-0.03565143 0.1041581 0.73400003 1.6689927e-38
-0.034253333 0.1041581 0.73400003 1.6966514e-38
-0.11147334 0.10454953 0.72700006 1.4197396e-38
-0.11008858 0.10454953 0.72700006 1.4289579e-38
-0.10870381 0.10454953 0.72700006 1.4197383e-38
-0.10702381 0.10426191 0.72500002 1.2083353e-38
-0.10564286 0.10426191 0.72500002 1.2636527e-38
-0.10383049 0.10383049 0.72200006 1.2734894e-38
-0.10217144 0.10354286 0.72000003 1.4855393e-38
-0.10066 0.10339905 0.71900004 1.3568602e-38
-0.09901429 0.10311142 0.71700001 1.2370059e-38
-0.097512379 0.10296762 0.71600002 1.356717e-38
-0.09574572 0.1025362 0.71300006 1.863793e-38
-0.094387628 0.1025362 0.71300006 2.0840917e-38
-0.092768572 0.10224857 0.71100003 2.0472134e-38
-0.091414288 0.10224857 0.71100003 1.4033941e-38
-0.089933343 0.10210477 0.71000004 7.6724426e-39
-0.088331431 0.10181714 0.708 3.1836492e-39
-0.086982854 0.10181714 0.708 5.6729312e-39
-0.085634284 0.10181714 0.708 8.6084133e-39
-0.084166668 0.10167333 0.70700002 8.7928045e-39
-0.082819998 0.10167333 0.70700002 8.9771958e-39
-0.081358097 0.10152952 0.70600003 8.8850002e-39
-0.080013335 0.10152952 0.70600003 7.5056685e-39
-0.078668572 0.10152952 0.70600003 5.2929733e-39
-0.07710477 0.10124191 0.70400006 1.5497876e-38
-0.075763814 0.10124191 0.70400006 2.1765011e-38
-0.074422859 0.10124191 0.70400006 2.341769e-38
-0.073289528 0.10152952 0.70600003 1.6503018e-38
-0.071944758 0.10152952 0.70600003 1.3561052e-38
-0.070600003 0.10152952 0.70600003 1.5128378e-38
-0.06925524 0.10152952 0.70600003 1.6323318e-38
-0.068006672 0.10167333 0.70700002 1.6415514e-38
-0.066660002 0.10167333 0.70700002 1.6598826e-38
-0.065313332 0.10167333 0.70700002 1.6598826e-38
-0.063966669 0.10167333 0.70700002 1.6598826e-38
-0.062708572 0.10181714 0.708 1.6414435e-38
-0.061360002 0.10181714 0.708 1.5310608e-38
-0.060011428 0.10181714 0.708 1.4480847e-38
-0.058828574 0.10210477 0.71000004 1.6595275e-38
-0.057476193 0.10210477 0.71000004 2.295672e-38
-0.056202859 0.10224857 0.71100003 2.341769e-38
-0.054848574 0.10224857 0.71100003 2.341769e-38
-0.053644765 0.1025362 0.71300006 2.0752664e-38
-0.05228667 0.1025362 0.71300006 1.7986795e-38
-0.051000003 0.10268001 0.71400005 1.4406684e-38
-0.04964 0.10268001 0.71400005 1.4130097e-38
-0.04841524 0.10296762 0.71600002 1.5783473e-38
-0.04711714 0.10311142 0.71700001 1.7903973e-38
-0.045879051 0.10339905 0.71900004 2.1852901e-38
-0.044571429 0.10354286 0.72000003 2.0285575e-38
-0.043320004 0.10383049 0.72200006 1.5399948e-38
-0.04223524 0.10454953 0.72700006 1.1066753e-38
-0.040906668 0.10469334 0.72800004 1.1073962e-38
-0.039628573 0.10498095 0.73000002 1.6513504e-38
-0.038447622 0.1055562 0.73400003 1.8442013e-38
-0.037049524 0.1055562 0.73400003 1.7612252e-38
-0.03565143 0.1055562 0.73400003 1.6965438e-38
-0.034253333 0.1055562 0.73400003 1.7242025e-38
-0.11147334 0.10593429 0.72700006 1.438214e-38
-0.11008858 0.10593429 0.72700006 1.4198465e-38
-0.10870381 0.10593429 0.72700006 1.4198465e-38
-0.10731905 0.10593429 0.72700006 1.1440152e-38
-0.10564286 0.10564286 0.72500002 1.0426e-38
-0.10397429 0.10535144 0.72300005 1.1905458e-38
-0.10245524 0.10520572 0.72200006 1.5224501e-38
-0.1008 0.10491429 0.72000003 1.3936308e-38
-0.09901429 0.10447714 0.71700001 1.2737765e-38
-0.097512379 0.10433143 0.71600002 1.5957419e-38
-0.095880002 0.10404 0.71400005 2.0106223e-38
-0.094387628 0.10389429 0.71300006 2.1391201e-38
-0.093029529 0.10389429 0.71300006 2.1575592e-38
-0.091414288 0.10360286 0.71100003 1.7807117e-38
-0.089933343 0.10345715 0.71000004 1.0431466e-38
-0.088580951 0.10345715 0.71000004 2.5393714e-39
-0.086982854 0.10316571 0.708 5.2130447e-39
-0.085634284 0.10316571 0.708 8.7917213e-39
-0.084166668 0.10302 0.70700002 8.9761126e-39
-0.082819998 0.10302 0.70700002 9.0690243e-39
-0.081473336 0.10302 0.70700002 9.0690243e-39
-0.080126666 0.10302 0.70700002 5.301255e-39
-0.078668572 0.10287429 0.70600003 3.5495381e-39
-0.077323809 0.10287429 0.70600003 1.5131252e-38
-0.075979047 0.10287429 0.70600003 2.1397669e-38
-0.074634291 0.10287429 0.70600003 2.3326213e-38
-0.073393337 0.10302 0.70700002 1.8163258e-38
-0.072046667 0.10302 0.70700002 1.4113156e-38
-0.070699997 0.10302 0.70700002 1.4942917e-38
-0.069353335 0.10302 0.70700002 1.6046731e-38
-0.068006672 0.10302 0.70700002 1.6415514e-38
-0.066754289 0.10316571 0.708 1.6598829e-38
-0.065405719 0.10316571 0.708 1.6598829e-38
-0.064057142 0.10316571 0.708 1.6598823e-38
-0.062708572 0.10316571 0.708 1.6045649e-38
-0.061533332 0.10345715 0.71000004 1.4758148e-38
-0.060180955 0.10345715 0.71000004 1.6694256e-38
-0.058828574 0.10345715 0.71000004 2.0744029e-38
-0.057476193 0.10345715 0.71000004 2.3325497e-38
-0.056202859 0.10360286 0.71100003 2.3417687e-38
-0.054848574 0.10360286 0.71100003 2.3417687e-38
-0.053644765 0.10389429 0.71300006 2.3050705e-38
-0.05228667 0.10389429 0.71300006 2.083801e-38
-0.051000003 0.10404 0.71400005 1.5235716e-38
-0.04977905 0.10433143 0.71600002 1.366839e-38
-0.04841524 0.10433143 0.71600002 1.5966057e-38
-0.04711714 0.10447714 0.71700001 1.9836466e-38
-0.045942858 0.10491429 0.72000003 2.3050705e-38
-0.044571429 0.10491429 0.72000003 1.7057989e-38
-0.043500002 0.10564286 0.72500002 1.5855118e-38
-0.042293333 0.10608001 0.72800004 1.3181444e-38
-0.041019049 0.10637143 0.73000002 1.1717818e-38
-0.039682858 0.10651714 0.73100001 1.651199e-38
-0.038395241 0.10680858 0.73300004 1.8073603e-38
-0.037049524 0.10695428 0.73400003 1.7243842e-38
-0.03565143 0.10695428 0.73400003 1.6597732e-38
-0.034253333 0.10695428 0.73400003 1.705871e-38
-0.11239334 0.10820477 0.73300004 1.4382859e-38
-0.11099715 0.10820477 0.73300004 1.4198465e-38
-0.10960096 0.10820477 0.73300004 1.4382856e-38
-0.10731905 0.10731905 0.72700006 1.2084815e-38
-0.10564286 0.10702381 0.72500002 9.5955328e-39
-0.10383049 0.10658097 0.72200006 8.9559521e-39
-0.10217144 0.10628572 0.72000003 1.4856472e-38
-0.1008 0.10628572 0.72000003 1.6509504e-38
-0.099290483 0.1061381 0.71900004 1.8353417e-38
-0.097512379 0.10569524 0.71600002 2.0930559e-38
-0.095880002 0.1054 0.71400005 2.2497885e-38
-0.094387628 0.10525239 0.71300006 2.1390834e-38
-0.093029529 0.10525239 0.71300006 2.1575225e-38
-0.091414288 0.10495714 0.71100003 2.0750516e-38
-0.089933343 0.10480952 0.71000004 1.8630016e-38
-0.088580951 0.10480952 0.71000004 1.1643692e-38
-0.086982854 0.10451429 0.708 7.0339101e-39
-0.085634284 0.10451429 0.708 4.4715042e-39
-0.084166668 0.10436667 0.70700002 6.1310255e-39
-0.082819998 0.10436667 0.70700002 7.8726531e-39
-0.081473336 0.10436667 0.70700002 7.1350881e-39
-0.080126666 0.10436667 0.70700002 5.1147002e-39
-0.078668572 0.10421906 0.70600003 9.1713079e-39
-0.077323809 0.10421906 0.70600003 1.8721167e-38
-0.075979047 0.10421906 0.70600003 2.2040159e-38
-0.074740008 0.10436667 0.70700002 2.341769e-38
-0.073393337 0.10436667 0.70700002 2.3325494e-38
-0.072046667 0.10436667 0.70700002 1.7432594e-38
-0.070800006 0.10451429 0.708 1.3283791e-38
-0.069451429 0.10451429 0.708 1.3562854e-38
-0.068102859 0.10451429 0.708 1.5037984e-38
-0.066754289 0.10451429 0.708 1.6506277e-38
-0.065590478 0.10480952 0.71000004 1.6414082e-38
-0.064238101 0.10480952 0.71000004 1.5770144e-38
-0.062885717 0.10480952 0.71000004 1.4202819e-38
-0.061533332 0.10480952 0.71000004 1.5769766e-38
-0.060180955 0.10480952 0.71000004 2.2683362e-38
-0.058828574 0.10480952 0.71000004 2.341769e-38
-0.057557143 0.10495714 0.71100003 2.341769e-38
-0.056202859 0.10495714 0.71100003 2.341769e-38
-0.055002861 0.10525239 0.71300006 2.341769e-38
-0.053644765 0.10525239 0.71300006 2.3326213e-38
-0.05228667 0.10525239 0.71300006 2.3234018e-38
-0.051142856 0.10569524 0.71600002 2.084486e-38
-0.04977905 0.10569524 0.71600002 1.78946e-38
-0.048482858 0.10584286 0.71700001 1.8909117e-38
-0.047248576 0.1061381 0.71900004 2.1765011e-38
-0.045942858 0.10628572 0.72000003 2.3326208e-38
-0.044695243 0.10658097 0.72200006 1.4383232e-38
-0.043620002 0.10731905 0.72700006 1.1990126e-38
-0.042293333 0.10746667 0.72800004 1.2635496e-38
-0.041019049 0.1077619 0.73000002 1.2361417e-38
-0.039682858 0.10790952 0.73100001 1.651022e-38
-0.038395241 0.10820477 0.73300004 1.8349827e-38
-0.037049524 0.10835239 0.73400003 1.7335675e-38
-0.03565143 0.10835239 0.73400003 1.6874321e-38
-0.034253333 0.10835239 0.73400003 1.7150908e-38
-0.11099715 0.10960096 0.73300004 1.4290663e-38
-0.10960096 0.10960096 0.73300004 1.4659446e-38
-0.10731905 0.10870381 0.72700006 1.2912417e-38
-0.10564286 0.10840476 0.72500002 1.0423135e-38
-0.10383049 0.1079562 0.72200006 9.3228891e-39
-0.10217144 0.10765714 0.72000003 1.4117062e-38
-0.1008 0.10765714 0.72000003 1.7337097e-38
-0.099290483 0.10750762 0.71900004 2.0748336e-38
-0.097648568 0.10720857 0.71700001 2.148375e-38
-0.095880002 0.10676 0.71400005 2.083838e-38
-0.09452001 0.10676 0.71400005 1.9824579e-38
-0.093029529 0.10661048 0.71300006 1.9916774e-38
-0.09167143 0.10661048 0.71300006 2.0932727e-38
-0.090060003 0.10631143 0.71100003 2.1393705e-38
-0.088580951 0.10616191 0.71000004 1.5968254e-38
-0.087228574 0.10616191 0.71000004 9.5145671e-39
-0.085634284 0.10586286 0.708 1.9890689e-39
-0.084285714 0.10586286 0.708 3.6485902e-39
-0.082819998 0.10571333 0.70700002 5.2994207e-39
-0.081473336 0.10571333 0.70700002 4.6540513e-39
-0.080126666 0.10571333 0.70700002 7.5031517e-39
-0.078780003 0.10571333 0.70700002 1.414123e-38
-0.077433333 0.10571333 0.70700002 2.3142182e-38
-0.076086663 0.10571333 0.70700002 2.3234378e-38
-0.074740008 0.10571333 0.70700002 2.341769e-38
-0.073497139 0.10586286 0.708 2.341769e-38
-0.072148569 0.10586286 0.708 2.2406422e-38
-0.070800006 0.10586286 0.708 1.7243467e-38
-0.069451429 0.10586286 0.708 1.3195543e-38
-0.068102859 0.10586286 0.708 1.4117499e-38
-0.066942856 0.10616191 0.71000004 1.5953457e-38
-0.065590478 0.10616191 0.71000004 1.5953457e-38
-0.064238101 0.10616191 0.71000004 1.4942176e-38
-0.062885717 0.10616191 0.71000004 1.4942176e-38
-0.061533332 0.10616191 0.71000004 1.7428577e-38
-0.060180955 0.10616191 0.71000004 2.2775202e-38
-0.058911432 0.10631143 0.71100003 2.341769e-38
-0.057557143 0.10631143 0.71100003 2.2587929e-38
-0.056360956 0.10661048 0.71300006 2.2036188e-38
-0.055002861 0.10661048 0.71300006 2.305034e-38
-0.053644765 0.10661048 0.71300006 2.3418043e-38
-0.052360002 0.10676 0.71400005 2.3418043e-38
-0.051142856 0.10705905 0.71600002 2.3142182e-38
-0.04977905 0.10705905 0.71600002 2.1482661e-38
-0.048618097 0.10750762 0.71900004 2.0935258e-38
-0.047314286 0.10765714 0.72000003 2.1580623e-38
-0.045942858 0.10765714 0.72000003 2.1204995e-38
-0.044757146 0.10810572 0.72300005 1.3829344e-38
-0.043620002 0.10870381 0.72700006 1.226778e-38
-0.042293333 0.10885334 0.72800004 1.2820953e-38
-0.041019049 0.10915238 0.73000002 1.1992644e-38
-0.039682858 0.1093019 0.73100001 1.7616578e-38
-0.038395241 0.10960096 0.73300004 1.8812615e-38
-0.037049524 0.10975048 0.73400003 1.6968703e-38
-0.03565143 0.10975048 0.73400003 1.6965794e-38
-0.034253333 0.10975048 0.73400003 1.7334576e-38
-0.11099715 0.11099715 0.73300004 1.4382508e-38
-0.10960096 0.11099715 0.73300004 1.45669e-38
-0.10731905 0.11008858 0.72700006 1.3188997e-38
-0.10564286 0.10978571 0.72500002 1.1068498e-38
-0.10397429 0.10948286 0.72300005 9.2321579e-39
-0.10245524 0.10933144 0.72200006 1.1629244e-38
-0.1008 0.10902857 0.72000003 1.7244864e-38
-0.099290483 0.10887714 0.71900004 2.176245e-38
-0.097648568 0.10857429 0.71700001 2.1851068e-38
-0.095880002 0.10812001 0.71400005 1.6503721e-38
-0.09452001 0.10812001 0.71400005 1.3926206e-38
-0.093029529 0.10796858 0.71300006 1.2912055e-38
-0.09167143 0.10796858 0.71300006 1.5768712e-38
-0.090060003 0.10766572 0.71100003 2.2683366e-38
-0.088580951 0.10751429 0.71000004 2.2774842e-38
-0.087228574 0.10751429 0.71000004 1.9179212e-38
-0.085634284 0.10721143 0.708 8.1471269e-39
-0.084285714 0.10721143 0.708 4.9202798e-39
-0.082937144 0.10721143 0.708 2.8152072e-39
-0.081588566 0.10721143 0.708 8.9001188e-39
-0.080239996 0.10721143 0.708 2.010621e-38
-0.078780003 0.10706 0.70700002 2.2040518e-38
-0.077433333 0.10706 0.70700002 2.3326213e-38
-0.076086663 0.10706 0.70700002 2.3326213e-38
-0.074740008 0.10706 0.70700002 2.341769e-38
-0.073704764 0.10751429 0.71000004 2.341769e-38
-0.07235238 0.10751429 0.71000004 2.3326213e-38
-0.071000002 0.10751429 0.71000004 2.3234018e-38
-0.069647625 0.10751429 0.71000004 2.0840556e-38
-0.06829524 0.10751429 0.71000004 1.549321e-38
-0.066942856 0.10751429 0.71000004 1.2735623e-38
-0.065590478 0.10751429 0.71000004 1.2551231e-38
-0.064238101 0.10751429 0.71000004 1.5769772e-38
