# .PCD v0.7 - Point Cloud Data file format
VERSION 0.7
FIELDS x y z rgb
SIZE 4 4 4 4
TYPE F F F F
COUNT 1 1 1 1
WIDTH 995
HEIGHT 1
VIEWPOINT 0 0 0 1 0 0 0
POINTS 995
DATA ascii
-0.11079714 0.10515144 0.74100006 1.3365823e-38
-0.10938572 0.10515144 0.74100006 1.0880842e-38
-0.10768285 0.10486761 0.73900002 9.036929e-39
-0.10627524 0.10486761 0.73900002 8.7628658e-39
-0.10486761 0.10486761 0.73900002 9.1316483e-39
-0.10374001 0.10515144 0.74100006 9.4067905e-39
-0.10232858 0.10515144 0.74100006 9.2223992e-39
-0.10091715 0.10515144 0.74100006 9.3138648e-39
-0.099505723 0.10515144 0.74100006 9.3138648e-39
-0.098094292 0.10515144 0.74100006 9.3138718e-39
-0.096813336 0.10529334 0.74200004 9.2216761e-39
-0.095400006 0.10529334 0.74200004 1.0876514e-38
-0.093986668 0.10529334 0.74200004 1.4287753e-38
-0.092573337 0.10529334 0.74200004 1.4654761e-38
-0.09140572 0.10557714 0.74400002 1.0966936e-38
-0.089988567 0.10557714 0.74400002 7.7461929e-39
-0.088809527 0.10586096 0.74600005 6.5476498e-39
-0.087388575 0.10586096 0.74600005 5.6336094e-39
-0.085967623 0.10586096 0.74600005 5.725805e-39
-0.084546678 0.10586096 0.74600005 6.0009724e-39
-0.083237141 0.10600287 0.74700004 5.9087768e-39
-0.081814289 0.10600287 0.74700004 5.5414138e-39
-0.080929525 0.10671239 0.75200003 5.1726312e-39
-0.079708569 0.10699619 0.75400001 8.6652584e-39
-0.078376196 0.1071381 0.75500005 1.3459431e-38
-0.0769381 0.1071381 0.75500005 1.5115739e-38
-0.0757 0.10742191 0.75700003 1.4562565e-38
-0.074258097 0.10742191 0.75700003 1.2261631e-38
-0.073008575 0.10770573 0.75900006 1.0141131e-38
-0.071562864 0.10770573 0.75900006 1.0599209e-38
-0.070301905 0.10798953 0.76100004 1.2627512e-38
-0.069123812 0.10841525 0.76400006 1.2168635e-38
-0.067668572 0.10841525 0.76400006 1.6409634e-38
-0.13337618 0.10886382 0.75700003 1.862169e-38
-0.13193429 0.10886382 0.75700003 1.6317515e-38
-0.13014764 0.10857619 0.75500005 1.5948733e-38
-0.12870952 0.10857619 0.75500005 1.6316431e-38
-0.12676571 0.10814476 0.75200003 1.4749105e-38
-0.12533334 0.10814476 0.75200003 1.1615202e-38
-0.12340666 0.10771333 0.74900001 9.4025067e-39
-0.12149144 0.10728192 0.74600005 1.0046765e-38
-0.12007048 0.10728192 0.74600005 9.4013955e-39
-0.11864953 0.10728192 0.74600005 9.676553e-39
-0.11691429 0.10699429 0.74400002 9.3999662e-39
-0.11549714 0.10699429 0.74400002 9.5836217e-39
-0.11408 0.10699429 0.74400002 1.2349491e-38
-0.11236 0.10670667 0.74200004 1.3088502e-38
-0.11094667 0.10670667 0.74200004 1.2627524e-38
-0.10953334 0.10670667 0.74200004 1.0879772e-38
-0.10797429 0.10656286 0.74100006 9.4046423e-39
-0.10656286 0.10656286 0.74100006 8.9469011e-39
-0.10515144 0.10656286 0.74100006 9.1312924e-39
-0.10388 0.10670667 0.74200004 9.3149508e-39
-0.10246667 0.10670667 0.74200004 9.2227551e-39
-0.10105333 0.10670667 0.74200004 9.3145682e-39
-0.099640004 0.10670667 0.74200004 9.5911551e-39
-0.098226674 0.10670667 0.74200004 9.5897496e-39
-0.096813336 0.10670667 0.74200004 9.3131627e-39
-0.095400006 0.10670667 0.74200004 1.0691065e-38
-0.093986668 0.10670667 0.74200004 1.3733521e-38
-0.092822857 0.10699429 0.74400002 1.3733871e-38
-0.09140572 0.10699429 0.74400002 1.0414829e-38
-0.089988567 0.10699429 0.74400002 7.1948437e-39
-0.088809527 0.10728192 0.74600005 6.0884961e-39
-0.087388575 0.10728192 0.74600005 5.541439e-39
-0.086082861 0.10742572 0.74700004 5.4492434e-39
-0.084660001 0.10742572 0.74700004 5.6329059e-39
-0.083237141 0.10742572 0.74700004 5.9094928e-39
-0.082142867 0.10785715 0.75000006 6.0927827e-39
-0.081144765 0.10843238 0.75400001 7.6601084e-39
-0.079708569 0.10843238 0.75400001 9.6794495e-39
-0.078376196 0.10857619 0.75500005 1.345947e-38
-0.077141903 0.10886382 0.75700003 1.5115708e-38
-0.0757 0.10886382 0.75700003 1.5207904e-38
-0.074454293 0.10915144 0.75900006 1.4839871e-38
-0.073008575 0.10915144 0.75900006 1.3733524e-38
-0.071751431 0.10943905 0.76100004 1.30903e-38
-0.070301905 0.10943905 0.76100004 1.2260539e-38
-0.069123812 0.10987048 0.76400006 1.1984251e-38
-0.067668572 0.10987048 0.76400006 1.622525e-38
-0.13337618 0.11030572 0.75700003 1.935817e-38
-0.13193429 0.11030572 0.75700003 1.8159261e-38
-0.13049237 0.11030572 0.75700003 1.6684131e-38
-0.12870952 0.11001429 0.75500005 1.6867797e-38
-0.12710287 0.10986857 0.75400001 1.5300471e-38
-0.12533334 0.10957715 0.75200003 1.3089596e-38
-0.12357144 0.10928572 0.75000006 9.8627492e-39
-0.12165429 0.10884858 0.74700004 1.0230077e-38
-0.12007048 0.10870286 0.74600005 9.8612946e-39
-0.11864953 0.10870286 0.74600005 9.7687459e-39
-0.11722858 0.10870286 0.74600005 9.1233765e-39
-0.11549714 0.10841143 0.74400002 9.3070306e-39
-0.11408 0.10841143 0.74400002 1.3271443e-38
-0.11266286 0.10841143 0.74400002 1.2812997e-38
-0.11094667 0.10812001 0.74200004 1.2628605e-38
-0.10953334 0.10812001 0.74200004 1.0695737e-38
-0.10797429 0.10797429 0.74100006 9.4049982e-39
-0.10656286 0.10797429 0.74100006 8.9472571e-39
-0.10515144 0.10797429 0.74100006 9.1316483e-39
-0.10388 0.10812001 0.74200004 9.4989861e-39
-0.10246667 0.10812001 0.74200004 9.2223992e-39
-0.10105333 0.10812001 0.74200004 9.4060604e-39
-0.099640004 0.10812001 0.74200004 9.5904517e-39
-0.098226674 0.10812001 0.74200004 9.681948e-39
-0.096813336 0.10812001 0.74200004 9.4053611e-39
-0.095400006 0.10812001 0.74200004 1.0138607e-38
-0.094240002 0.10841143 0.74400002 1.3734237e-38
-0.092822857 0.10841143 0.74400002 1.364312e-38
-0.09140572 0.10841143 0.74400002 1.1246034e-38
-0.089988567 0.10841143 0.74400002 7.7498153e-39
-0.088809527 0.10870286 0.74600005 5.7215114e-39
-0.087388575 0.10870286 0.74600005 5.3581043e-39
-0.086082861 0.10884858 0.74700004 5.173713e-39
-0.084660001 0.10884858 0.74700004 5.7240226e-39
-0.083237141 0.10884858 0.74700004 5.8162182e-39
-0.082142867 0.10928572 0.75000006 6.7359745e-39
-0.081144765 0.10986857 0.75400001 9.8706259e-39
-0.079708569 0.10986857 0.75400001 1.1801006e-38
-0.078376196 0.11001429 0.75500005 1.3091744e-38
-0.077141903 0.11030572 0.75700003 1.3916097e-38
-0.075900003 0.11059715 0.75900006 1.4745858e-38
-0.074454293 0.11059715 0.75900006 1.5392319e-38
-0.073008575 0.11059715 0.75900006 1.5392319e-38
-0.071751431 0.11088858 0.76100004 1.4380325e-38
-0.070301905 0.11088858 0.76100004 1.06925e-38
-0.069304764 0.11161715 0.76600003 1.1336311e-38
-0.067845717 0.11161715 0.76600003 1.7513418e-38
-0.06638667 0.11161715 0.76600003 1.9447831e-38
-0.13372858 0.11204287 0.75900006 1.9819136e-38
-0.13228287 0.11204287 0.75900006 1.9173036e-38
-0.13083716 0.11204287 0.75900006 1.6407168e-38
-0.12905048 0.11174762 0.75700003 1.5670319e-38
-0.12727144 0.11145239 0.75500005 1.5024949e-38
-0.12566666 0.11130476 0.75400001 1.4103751e-38
-0.12357144 0.11071429 0.75000006 1.1891056e-38
-0.12165429 0.11027143 0.74700004 9.7716452e-39
-0.12023143 0.11027143 0.74700004 9.310667e-39
-0.11864953 0.11012381 0.74600005 8.9415117e-39
-0.11722858 0.11012381 0.74600005 8.2961423e-39
-0.11580762 0.11012381 0.74600005 9.767999e-39
-0.11408 0.10982857 0.74400002 1.4008998e-38
-0.11266286 0.10982857 0.74400002 1.3824604e-38
-0.11124572 0.10982857 0.74400002 1.3640213e-38
-0.10953334 0.10953334 0.74200004 1.2260528e-38
-0.10797429 0.10938572 0.74100006 9.955637e-39
-0.10656286 0.10938572 0.74100006 8.7628602e-39
-0.10529334 0.10953334 0.74200004 8.6706646e-39
-0.10388 0.10953334 0.74200004 8.485923e-39
-0.10246667 0.10953334 0.74200004 8.5781186e-39
-0.10105333 0.10953334 0.74200004 9.1287715e-39
-0.099640004 0.10953334 0.74200004 9.497554e-39
-0.098226674 0.10953334 0.74200004 9.4968435e-39
-0.097074285 0.10982857 0.74400002 9.7734304e-39
-0.095657147 0.10982857 0.74400002 1.0875822e-38
-0.094240002 0.10982857 0.74400002 1.4194865e-38
-0.092822857 0.10982857 0.74400002 1.4194852e-38
-0.09140572 0.10982857 0.74400002 1.3733874e-38
-0.09023048 0.11012381 0.74600005 1.0144043e-38
-0.088809527 0.11012381 0.74600005 7.3781741e-39
-0.087505721 0.11027143 0.74700004 4.9893344e-39
-0.086082861 0.11027143 0.74700004 4.6205519e-39
-0.08488667 0.11056667 0.74900001 5.264136e-39
-0.083460003 0.11056667 0.74900001 5.8173098e-39
-0.082361907 0.11100953 0.75200003 8.206455e-39
-0.081144765 0.11130476 0.75400001 1.2631845e-38
-0.079814292 0.11145239 0.75500005 1.3181037e-38
-0.078376196 0.11145239 0.75500005 1.2166885e-38
-0.077141903 0.11174762 0.75700003 1.2075069e-38
-0.075900003 0.11204287 0.75900006 1.225946e-38
-0.074454293 0.11204287 0.75900006 1.447068e-38
-0.073200949 0.1123381 0.76100004 1.5761418e-38
-0.071751431 0.1123381 0.76100004 1.3920402e-38
-0.070579059 0.11278096 0.76400006 9.2184251e-39
-0.069304764 0.1130762 0.76600003 9.8648918e-39
-0.067845717 0.1130762 0.76600003 1.6318586e-38
-0.13263142 0.11378762 0.76100004 1.9081949e-38
-0.13118191 0.11378762 0.76100004 1.5670711e-38
-0.12905048 0.11318953 0.75700003 1.4657964e-38
-0.12727144 0.11289049 0.75500005 1.4565769e-38
-0.12583335 0.11289049 0.75500005 1.4658714e-38
-0.12390096 0.1124419 0.75200003 1.3552367e-38
-0.12198 0.11199334 0.74900001 1.1155646e-38
-0.12023143 0.11169429 0.74700004 8.8507552e-39
-0.11880857 0.11169429 0.74700004 8.8482049e-39
-0.11738572 0.11169429 0.74700004 9.309183e-39
-0.11580762 0.11154477 0.74600005 1.0688537e-38
-0.11438668 0.11154477 0.74600005 1.4284167e-38
-0.11296572 0.11154477 0.74600005 1.5113197e-38
-0.11124572 0.11124572 0.74400002 1.4099045e-38
-0.10982857 0.11124572 0.74400002 1.2904832e-38
-0.10812001 0.11094667 0.74200004 1.1429702e-38
-0.10670667 0.11094667 0.74200004 8.7639672e-39
-0.10529334 0.11094667 0.74200004 8.3029891e-39
-0.10416 0.11124572 0.74400002 8.1181956e-39
-0.10274286 0.11124572 0.74400002 8.3947825e-39
-0.10132572 0.11124572 0.74400002 9.3120711e-39
-0.10017715 0.11154477 0.74600005 9.588658e-39
-0.098756194 0.11154477 0.74600005 9.0358598e-39
-0.097335242 0.11154477 0.74600005 9.9578161e-39
-0.095914289 0.11154477 0.74600005 1.2258015e-38
-0.094493344 0.11154477 0.74600005 1.4194123e-38
-0.093072385 0.11154477 0.74600005 1.4470692e-38
-0.09165144 0.11154477 0.74600005 1.4194105e-38
-0.09023048 0.11154477 0.74600005 1.2722969e-38
-0.088809527 0.11154477 0.74600005 1.0879056e-38
-0.087505721 0.11169429 0.74700004 7.8448752e-39
-0.08631333 0.11199334 0.74900001 5.3555932e-39
-0.08488667 0.11199334 0.74900001 4.8045354e-39
-0.083571434 0.11214286 0.75000006 6.0952742e-39
-0.082580954 0.11274095 0.75400001 1.1243516e-38
-0.081252381 0.11289049 0.75500005 1.4009385e-38
-0.079814292 0.11289049 0.75500005 1.4102654e-38
-0.078583807 0.11318953 0.75700003 1.142898e-38
-0.077345721 0.11348858 0.75900006 1.005216e-38
-0.076100007 0.11378762 0.76100004 1.0236551e-38
-0.074650481 0.11378762 0.76100004 1.2811521e-38
-0.073200949 0.11378762 0.76100004 1.4932021e-38
-0.071845718 0.11393715 0.76200002 1.3827149e-38
-0.070579059 0.1142362 0.76400006 8.9407803e-39
-0.069123812 0.1142362 0.76400006 8.7617322e-39
-0.067668572 0.1142362 0.76400006 1.6690556e-38
-0.1331543 0.11569143 0.76400006 1.9451097e-38
-0.13118191 0.11523715 0.76100004 1.5025707e-38
-0.12939143 0.11493429 0.75900006 1.40144e-38
-0.12760857 0.11463144 0.75700003 1.253927e-38
-0.12583335 0.11432858 0.75500005 1.3460524e-38
-0.12439524 0.11432858 0.75500005 1.4751263e-38
-0.12214287 0.11357144 0.75000006 1.2812306e-38
-0.12055333 0.11342 0.74900001 9.4932632e-39
-0.11880857 0.11311714 0.74700004 9.9538658e-39
-0.11738572 0.11311714 0.74700004 1.3180713e-38
-0.11596286 0.11311714 0.74700004 1.3915391e-38
-0.11454 0.11311714 0.74700004 1.4099782e-38
-0.11296572 0.11296572 0.74600005 1.2995583e-38
-0.11154477 0.11296572 0.74600005 1.2073627e-38
-0.10982857 0.11266286 0.74400002 1.2074353e-38
-0.10841143 0.11266286 0.74400002 1.2996309e-38
-0.10699429 0.11266286 0.74400002 1.1616621e-38
-0.10557714 0.11266286 0.74400002 9.9571e-39
-0.10444001 0.11296572 0.74600005 9.2227481e-39
-0.10301905 0.11296572 0.74600005 9.2227481e-39
-0.10159811 0.11296572 0.74600005 9.3131627e-39
-0.10017715 0.11296572 0.74600005 1.0050728e-38
-0.098756194 0.11296572 0.74600005 1.0970166e-38
-0.097335242 0.11296572 0.74600005 1.3090665e-38
-0.095914289 0.11296572 0.74600005 1.3456872e-38
-0.094493344 0.11296572 0.74600005 1.1889547e-38
-0.093072385 0.11296572 0.74600005 1.3454361e-38
-0.09165144 0.11296572 0.74600005 1.4099731e-38
-0.090351433 0.11311714 0.74700004 1.3549103e-38
-0.08892858 0.11311714 0.74700004 1.4655451e-38
-0.087739997 0.11342 0.74900001 1.2170864e-38
-0.086428575 0.11357144 0.75000006 9.6815823e-39
-0.085000008 0.11357144 0.75000006 9.5918614e-39
-0.083794288 0.11387429 0.75200003 1.0606013e-38
-0.082580954 0.11417715 0.75400001 1.1615205e-38
-0.081252381 0.11432858 0.75500005 1.2813748e-38
-0.08002571 0.11463144 0.75700003 1.2168329e-38
-0.078583807 0.11463144 0.75700003 1.0785395e-38
-0.077345721 0.11493429 0.75900006 1.0328752e-38
-0.076100007 0.11523715 0.76100004 1.0328752e-38
-0.074650481 0.11523715 0.76100004 1.1706991e-38
-0.07329715 0.11538857 0.76200002 1.3735295e-38
-0.071845718 0.11538857 0.76200002 1.2815874e-38
-0.070579059 0.11569143 0.76400006 8.2060921e-39
-0.069123812 0.11569143 0.76400006 8.4869754e-39
-0.06793429 0.11614572 0.76700002 1.6968973e-38
-0.1331543 0.11714668 0.76400006 1.9727684e-38
-0.13135429 0.11684 0.76200002 1.539449e-38
-0.12973239 0.11668667 0.76100004 1.3463404e-38
-0.12794574 0.11638001 0.75900006 1.1896078e-38
-0.12616667 0.11607334 0.75700003 1.318213e-38
-0.12439524 0.11576667 0.75500005 1.401189e-38
-0.12246858 0.11530667 0.75200003 1.4563282e-38
-0.12071429 0.11500001 0.75000006 1.2258391e-38
-0.11912666 0.11484667 0.74900001 1.1979999e-38
-0.1177 0.11484667 0.74900001 1.511465e-38
-0.11596286 0.11454 0.74700004 1.4931348e-38
-0.11454 0.11454 0.74700004 1.2718653e-38
-0.11311714 0.11454 0.74700004 1.1891031e-38
-0.11154477 0.11438668 0.74600005 1.0692487e-38
-0.11012381 0.11438668 0.74600005 1.1245279e-38
-0.10841143 0.11408 0.74400002 1.2812604e-38
-0.10699429 0.11408 0.74400002 1.3364738e-38
-0.10557714 0.11408 0.74400002 1.1981804e-38
-0.10444001 0.11438668 0.74600005 9.1316483e-39
-0.10301905 0.11438668 0.74600005 8.5784745e-39
-0.10159811 0.11438668 0.74600005 9.0379841e-39
-0.10017715 0.11438668 0.74600005 9.9599404e-39
-0.098756194 0.11438668 0.74600005 1.1429336e-38
-0.097465716 0.11454 0.74700004 1.3734227e-38
-0.096042864 0.11454 0.74700004 1.3549123e-38
-0.094620004 0.11454 0.74700004 9.9534931e-39
-0.093197145 0.11454 0.74700004 1.1146955e-38
-0.091774292 0.11454 0.74700004 1.3267455e-38
-0.090351433 0.11454 0.74700004 1.4375264e-38
-0.089166664 0.11484667 0.74900001 1.5205024e-38
-0.08785715 0.11500001 0.75000006 1.4194849e-38
-0.086428575 0.11500001 0.75000006 1.2443132e-38
-0.08522667 0.11530667 0.75200003 1.1429683e-38
-0.083794288 0.11530667 0.75200003 1.253603e-38
-0.082580954 0.11561333 0.75400001 1.3365817e-38
-0.081252381 0.11576667 0.75500005 1.1706296e-38
-0.079814292 0.11576667 0.75500005 1.1155259e-38
-0.078583807 0.11607334 0.75700003 1.0786477e-38
-0.077345721 0.11638001 0.75900006 1.0236907e-38
-0.076100007 0.11668667 0.76100004 1.0236907e-38
-0.074650481 0.11668667 0.76100004 1.143222e-38
-0.07329715 0.11684 0.76200002 1.3276133e-38
-0.072034292 0.11714668 0.76400006 1.23567e-38
-0.070579059 0.11714668 0.76400006 8.3922882e-39
-0.069395244 0.11760666 0.76700002 8.8546719e-39
-0.06793429 0.11760666 0.76700002 1.7613257e-38
-0.13280571 0.11829143 0.76200002 2.0096464e-38
-0.13135429 0.11829143 0.76200002 1.6039856e-38
-0.12973239 0.1181362 0.76100004 1.3647104e-38
-0.12794574 0.11782572 0.75900006 1.16188e-38
-0.12616667 0.11751524 0.75700003 1.217158e-38
-0.12472476 0.11751524 0.75700003 1.2448167e-38
-0.12246858 0.11673905 0.75200003 1.3734224e-38
-0.12103619 0.11673905 0.75200003 1.5117159e-38
-0.11928572 0.11642858 0.75000006 1.5116083e-38
-0.11785715 0.11642858 0.75000006 1.5116083e-38
-0.11627334 0.11627334 0.74900001 1.3642041e-38
-0.11484667 0.11627334 0.74900001 9.8620205e-39
-0.11311714 0.11596286 0.74700004 6.7345619e-39
-0.11169429 0.11596286 0.74700004 5.8126056e-39
-0.11027143 0.11596286 0.74700004 8.0209609e-39
-0.10870286 0.11580762 0.74600005 1.1432199e-38
-0.10728192 0.11580762 0.74600005 1.2904097e-38
-0.10586096 0.11580762 0.74600005 1.4194835e-38
-0.10444001 0.11580762 0.74600005 1.1155646e-38
-0.10301905 0.11580762 0.74600005 8.9429509e-39
-0.10173429 0.11596286 0.74700004 1.0417691e-38
-0.10031143 0.11596286 0.74700004 1.2538191e-38
-0.098888576 0.11596286 0.74700004 1.3272136e-38
-0.097465716 0.11596286 0.74700004 1.2903354e-38
-0.096300006 0.11627334 0.74900001 1.1612298e-38
-0.094620004 0.11596286 0.74700004 8.8464294e-39
-0.093197145 0.11596286 0.74700004 9.3059488e-39
-0.091774292 0.11596286 0.74700004 9.3981445e-39
-0.090351433 0.11596286 0.74700004 1.1610454e-38
-0.089166664 0.11627334 0.74900001 1.3638758e-38
-0.08785715 0.11642858 0.75000006 1.3639494e-38
-0.086659051 0.11673905 0.75200003 1.4930233e-38
-0.08522667 0.11673905 0.75200003 1.4103373e-38
-0.084017143 0.11704952 0.75400001 1.3826786e-38
-0.082580954 0.11704952 0.75400001 1.2446735e-38
-0.081252381 0.11720477 0.75500005 1.0787214e-38
-0.079814292 0.11720477 0.75500005 1.0328747e-38
-0.078583807 0.11751524 0.75700003 1.0236551e-38
-0.077345721 0.11782572 0.75900006 1.0144704e-38
-0.076100007 0.1181362 0.76100004 1.0144704e-38
-0.074650481 0.1181362 0.76100004 1.1247138e-38
-0.07329715 0.11829143 0.76200002 1.3275442e-38
-0.072034292 0.11860192 0.76400006 1.2723678e-38
-0.070579059 0.11860192 0.76400006 1.0695374e-38
-0.069395244 0.11906762 0.76700002 1.1248911e-38
-0.06793429 0.11906762 0.76700002 1.8255779e-38
-0.13280571 0.11974286 0.76200002 2.0281218e-38
-0.13135429 0.11974286 0.76200002 1.7054371e-38
-0.12990287 0.11974286 0.76200002 1.4383935e-38
-0.12828286 0.11958572 0.76100004 1.1710262e-38
-0.12650001 0.11927143 0.75900006 1.134542e-38
-0.12472476 0.11895715 0.75700003 1.070005e-38
-0.12279429 0.11848572 0.75400001 1.2720072e-38
-0.12103619 0.11817143 0.75200003 1.5209354e-38
-0.11928572 0.11785715 0.75000006 1.5577073e-38
-0.11785715 0.11785715 0.75000006 1.4009748e-38
-0.11627334 0.1177 0.74900001 1.0697542e-38
-0.11484667 0.1177 0.74900001 6.3643473e-39
-0.11342 0.1177 0.74900001 5.4492181e-39
-0.11169429 0.11738572 0.74700004 4.6194575e-39
-0.11027143 0.11738572 0.74700004 5.997308e-39
-0.10870286 0.11722858 0.74600005 8.2100031e-39
-0.10728192 0.11722858 0.74600005 1.1612275e-38
-0.10586096 0.11722858 0.74600005 1.2995209e-38
-0.10444001 0.11722858 0.74600005 1.2904123e-38
-0.10301905 0.11722858 0.74600005 1.1889971e-38
-0.10173429 0.11738572 0.74700004 1.2352019e-38
-0.10031143 0.11738572 0.74700004 1.336617e-38
-0.099153332 0.1177 0.74900001 1.3823912e-38
-0.097726665 0.1177 0.74900001 1.1426825e-38
-0.096300006 0.1177 0.74900001 1.0137163e-38
-0.094873339 0.1177 0.74900001 8.9386195e-39
-0.093446672 0.1177 0.74900001 8.1099168e-39
-0.092019998 0.1177 0.74900001 8.1099168e-39
-0.090593331 0.1177 0.74900001 8.9367431e-39
-0.089166664 0.1177 0.74900001 1.0596264e-38
-0.08785715 0.11785715 0.75000006 1.3083779e-38
-0.086659051 0.11817143 0.75200003 1.5573061e-38
-0.08522667 0.11817143 0.75200003 1.4471802e-38
-0.084017143 0.11848572 0.75400001 1.3642041e-38
-0.082580954 0.11848572 0.75400001 1.1712037e-38
-0.081252381 0.11864287 0.75500005 1.0052516e-38
-0.079814292 0.11864287 0.75500005 9.4103932e-39
-0.078583807 0.11895715 0.75700003 9.5025888e-39
-0.077345721 0.11927143 0.75900006 9.8695637e-39
-0.076100007 0.11958572 0.76100004 9.6851724e-39
-0.074748568 0.11974286 0.76200002 1.1246402e-38
-0.073489532 0.12005715 0.76400006 1.3643489e-38
-0.072222859 0.12037143 0.76600003 1.3827149e-38
-0.070763811 0.12037143 0.76600003 1.1983236e-38
-0.069395244 0.12052857 0.76700002 1.2351632e-38
-0.06793429 0.12052857 0.76700002 1.9542891e-38
-0.13169906 0.12151239 0.76400006 1.8805725e-38
-0.12990287 0.12119429 0.76200002 1.5951254e-38
-0.12828286 0.12103524 0.76100004 1.1894646e-38
-0.12650001 0.12071715 0.75900006 1.1344341e-38
-0.12472476 0.12039905 0.75700003 1.0975558e-38
-0.12279429 0.1199219 0.75400001 1.2169435e-38
-0.1213581 0.1199219 0.75400001 1.4105543e-38
-0.11960381 0.11960381 0.75200003 1.4287401e-38
-0.11785715 0.11928572 0.75000006 1.0876163e-38
-0.11642858 0.11928572 0.75000006 7.1948437e-39
-0.11500001 0.11928572 0.75000006 5.6275179e-39
-0.11342 0.11912666 0.74900001 4.8042467e-39
-0.11199334 0.11912666 0.74900001 4.7120511e-39
-0.11027143 0.11880857 0.74700004 5.7218674e-39
-0.10884858 0.11880857 0.74700004 5.6296717e-39
-0.10742572 0.11880857 0.74700004 8.7567127e-39
-0.10600287 0.11880857 0.74700004 1.1061603e-38
-0.10458001 0.11880857 0.74700004 1.2167264e-38
-0.10315715 0.11880857 0.74700004 1.3273612e-38
-0.10173429 0.11880857 0.74700004 1.3456921e-38
-0.10058 0.11912666 0.74900001 1.2811552e-38
-0.099153332 0.11912666 0.74900001 1.1518671e-38
-0.097726665 0.11912666 0.74900001 8.2918235e-39
-0.096300006 0.11912666 0.74900001 9.1233428e-39
-0.094873339 0.11912666 0.74900001 9.3999297e-39
-0.093446672 0.11912666 0.74900001 8.6627542e-39
-0.092142865 0.11928572 0.75000006 8.8471455e-39
-0.090714291 0.11928572 0.75000006 9.2141063e-39
-0.089285724 0.11928572 0.75000006 9.0297151e-39
-0.088091433 0.11960381 0.75200003 9.5818197e-39
-0.086659051 0.11960381 0.75200003 1.3638427e-38
-0.08522667 0.11960381 0.75200003 1.3733145e-38
-0.084017143 0.1199219 0.75400001 1.299558e-38
-0.082690477 0.12008096 0.75500005 1.1250314e-38
-0.081252381 0.12008096 0.75500005 1.0420553e-38
-0.08002571 0.12039905 0.75700003 9.777731e-39
-0.07879144 0.12071715 0.75900006 9.777731e-39
-0.077549525 0.12103524 0.76100004 9.7770121e-39
-0.076200001 0.12119429 0.76200002 9.5926209e-39
-0.074944772 0.12151239 0.76400006 1.1705598e-38
-0.073489532 0.12151239 0.76400006 1.4748054e-38
-0.072222859 0.12183048 0.76600003 1.5485581e-38
-0.070763811 0.12183048 0.76600003 1.5762168e-38
-0.069395244 0.12198953 0.76700002 1.5669956e-38
-0.06793429 0.12198953 0.76700002 2.0095346e-38
-0.13169906 0.12296763 0.76400006 2.0188297e-38
-0.12990287 0.12264571 0.76200002 1.687321e-38
-0.12828286 0.12248477 0.76100004 1.2079037e-38
-0.12683333 0.12248477 0.76100004 1.1894628e-38
-0.12505428 0.12216286 0.75900006 1.1341454e-38
-0.12328286 0.12184095 0.75700003 1.1524413e-38
-0.1213581 0.1213581 0.75400001 1.3460521e-38
-0.11960381 0.12103619 0.75200003 1.3644562e-38
-0.11817143 0.12103619 0.75200003 9.9567371e-39
-0.11642858 0.12071429 0.75000006 6.8278198e-39
-0.11500001 0.12071429 0.75000006 5.8136678e-39
-0.11357144 0.12071429 0.75000006 5.1722935e-39
-0.11199334 0.12055333 0.74900001 4.9879023e-39
-0.11056667 0.12055333 0.74900001 4.3428804e-39
-0.10914 0.12055333 0.74900001 4.2506847e-39
-0.10771333 0.12055333 0.74900001 5.7210868e-39
-0.10628667 0.12055333 0.74900001 7.6571951e-39
-0.10486 0.12055333 0.74900001 1.1336771e-38
-0.10343333 0.12055333 0.74900001 1.3641662e-38
-0.10200667 0.12055333 0.74900001 1.3733173e-38
-0.10071429 0.12071429 0.75000006 1.1520478e-38
-0.099285722 0.12071429 0.75000006 9.8609415e-39
-0.097857147 0.12071429 0.75000006 8.1092245e-39
-0.096428581 0.12071429 0.75000006 9.4914261e-39
-0.095000006 0.12071429 0.75000006 9.4914261e-39
-0.093571432 0.12071429 0.75000006 8.6627542e-39
-0.092142865 0.12071429 0.75000006 8.8471455e-39
-0.090714291 0.12071429 0.75000006 9.0318829e-39
-0.089523815 0.12103619 0.75200003 8.5709047e-39
-0.088091433 0.12103619 0.75200003 8.9389488e-39
-0.086659051 0.12103619 0.75200003 1.271897e-38
-0.085453331 0.1213581 0.75400001 1.3549836e-38
-0.084017143 0.1213581 0.75400001 1.2996662e-38
-0.082690477 0.12151905 0.75500005 1.0604611e-38
-0.081252381 0.12151905 0.75500005 9.7748499e-39
-0.08002571 0.12184095 0.75700003 9.5926209e-39
-0.07879144 0.12216286 0.75900006 9.6848165e-39
-0.077549525 0.12248477 0.76100004 9.7759289e-39
-0.076200001 0.12264571 0.76200002 1.0329103e-38
-0.074944772 0.12296763 0.76400006 1.3088495e-38
-0.073681906 0.12328953 0.76600003 1.530119e-38
-0.072317138 0.12345047 0.76700002 1.612736e-38
-0.070856191 0.12345047 0.76700002 1.6403947e-38
-0.069395244 0.12345047 0.76700002 1.6220621e-38
-0.13169906 0.12442287 0.76400006 2.0464874e-38
-0.12990287 0.12409715 0.76200002 1.8623458e-38
-0.12828286 0.1239343 0.76100004 1.4105873e-38
-0.12683333 0.1239343 0.76100004 1.143546e-38
-0.12505428 0.12360859 0.75900006 1.0790091e-38
-0.12328286 0.12328286 0.75700003 1.1525851e-38
-0.12151905 0.12295716 0.75500005 1.3000981e-38
-0.1199219 0.12279429 0.75400001 1.3276852e-38
-0.11817143 0.12246858 0.75200003 9.6812222e-39
-0.11673905 0.12246858 0.75200003 6.5526916e-39
-0.11500001 0.12214287 0.75000006 5.8151266e-39
-0.11357144 0.12214287 0.75000006 5.1722935e-39
-0.11214286 0.12214287 0.75000006 5.1722935e-39
-0.11071429 0.12214287 0.75000006 4.7120062e-39
-0.10928572 0.12214287 0.75000006 4.8042018e-39
-0.10785715 0.12214287 0.75000006 5.6296717e-39
-0.10642858 0.12214287 0.75000006 5.7218674e-39
-0.105 0.12214287 0.75000006 9.125498e-39
-0.10357144 0.12214287 0.75000006 1.2997714e-38
-0.10214286 0.12214287 0.75000006 1.2995583e-38
-0.10071429 0.12214287 0.75000006 9.3999535e-39
-0.099285722 0.12214287 0.75000006 8.75531e-39
-0.097857147 0.12214287 0.75000006 8.2021362e-39
-0.096428581 0.12214287 0.75000006 8.4787203e-39
-0.095000006 0.12214287 0.75000006 8.4787203e-39
-0.093571432 0.12214287 0.75000006 8.4787203e-39
-0.092142865 0.12214287 0.75000006 8.6631116e-39
-0.090956196 0.12246858 0.75200003 8.7549597e-39
-0.089523815 0.12246858 0.75200003 8.7549597e-39
-0.088091433 0.12246858 0.75200003 9.1230261e-39
-0.08688952 0.12279429 0.75400001 1.2165482e-38
-0.085453331 0.12279429 0.75400001 1.3273595e-38
-0.084017143 0.12279429 0.75400001 1.3273595e-38
-0.082690477 0.12295716 0.75500005 1.1157456e-38
-0.081467621 0.12328286 0.75700003 9.2213482e-39
-0.08002571 0.12328286 0.75700003 9.040166e-39
-0.07899905 0.1239343 0.76100004 9.1323616e-39
-0.077651434 0.12409715 0.76200002 9.9599699e-39
-0.076400004 0.12442287 0.76400006 1.1342904e-38
-0.075140953 0.12474858 0.76600003 1.3826046e-38
-0.073681906 0.12474858 0.76600003 1.5393372e-38
-0.072317138 0.12491143 0.76700002 1.5760376e-38
-0.070856191 0.12491143 0.76700002 1.6036963e-38
-0.069395244 0.12491143 0.76700002 1.594512e-38
-0.13169906 0.12587811 0.76400006 2.04656e-38
-0.13024382 0.12587811 0.76400006 1.880752e-38
-0.12845144 0.12554857 0.76200002 1.438213e-38
-0.127 0.12554857 0.76200002 1.2447088e-38
-0.12538381 0.12538381 0.76100004 1.1156349e-38
-0.12360859 0.12505428 0.75900006 1.1525845e-38
-0.12216286 0.12505428 0.75900006 1.3554149e-38
-0.12008096 0.12439524 0.75500005 1.3094621e-38
-0.11848572 0.12423047 0.75400001 1.0328752e-38
-0.11673905 0.12390096 0.75200003 6.7378186e-39
-0.11530667 0.12390096 0.75200003 5.3548841e-39
-0.11387429 0.12390096 0.75200003 4.8971388e-39
-0.1124419 0.12390096 0.75200003 4.6205519e-39
-0.11071429 0.12357144 0.75000006 4.7120258e-39
-0.10928572 0.12357144 0.75000006 4.7120258e-39
-0.10785715 0.12357144 0.75000006 4.6194827e-39
-0.10642858 0.12357144 0.75000006 4.0663089e-39
-0.10528 0.12390096 0.75200003 7.2855231e-39
-0.10384762 0.12390096 0.75200003 1.2448478e-38
-0.10214286 0.12357144 0.75000006 1.2628265e-38
-0.10071429 0.12357144 0.75000006 9.124831e-39
-0.099550486 0.12390096 0.75200003 8.2968318e-39
-0.097857147 0.12357144 0.75000006 8.1124405e-39
-0.096428581 0.12357144 0.75000006 8.1120888e-39
-0.095253341 0.12390096 0.75200003 8.1120888e-39
-0.093820952 0.12390096 0.75200003 8.2039313e-39
-0.09238857 0.12390096 0.75200003 8.2039313e-39
-0.090956196 0.12390096 0.75200003 8.6634647e-39
-0.089761905 0.12423047 0.75400001 8.4790734e-39
-0.088325717 0.12423047 0.75400001 8.9396774e-39
-0.08688952 0.12423047 0.75400001 1.3365068e-38
-0.085453331 0.12423047 0.75400001 1.3089937e-38
-0.084128574 0.12439524 0.75500005 1.3182132e-38
-0.082690477 0.12439524 0.75500005 1.2170173e-38
-0.081467621 0.12472476 0.75700003 1.0602848e-38
-0.08023715 0.12505428 0.75900006 9.5000749e-39
-0.07899905 0.12538381 0.76100004 9.5000749e-39
-0.077855244 0.12587811 0.76400006 1.0971944e-38
-0.0766 0.12620762 0.76600003 1.3184639e-38
-0.075140953 0.12620762 0.76600003 1.4748731e-38
-0.0737781 0.12637238 0.76700002 1.5486296e-38
-0.072317138 0.12637238 0.76700002 1.5669602e-38
-0.070856191 0.12637238 0.76700002 1.5761798e-38
-0.069395244 0.12637238 0.76700002 1.585292e-38
-0.13169906 0.12733334 0.76400006 2.0557076e-38
-0.13024382 0.12733334 0.76400006 1.9636192e-38
-0.12878858 0.12733334 0.76400006 1.6870323e-38
-0.127 0.127 0.76200002 1.2631896e-38
-0.12538381 0.12683333 0.76100004 1.1709939e-38
-0.12360859 0.12650001 0.75900006 1.263041e-38
-0.12216286 0.12650001 0.75900006 1.4197736e-38
-0.12008096 0.12583335 0.75500005 1.4564348e-38
-0.11848572 0.12566666 0.75400001 1.3273609e-38
-0.11704952 0.12566666 0.75400001 9.3164376e-39
-0.11530667 0.12533334 0.75200003 5.0754386e-39
-0.11387429 0.12533334 0.75200003 4.069183e-39
-0.1124419 0.12533334 0.75200003 4.3457699e-39
-0.11100953 0.12533334 0.75200003 4.8042215e-39
-0.10957715 0.12533334 0.75200003 4.3432433e-39
-0.10814476 0.12533334 0.75200003 3.7918898e-39
-0.10671239 0.12533334 0.75200003 3.6074986e-39
-0.10528 0.12533334 0.75200003 7.4695766e-39
-0.10384762 0.12533334 0.75200003 1.2355945e-38
-0.10241524 0.12533334 0.75200003 1.2720441e-38
-0.10098286 0.12533334 0.75200003 9.7701808e-39
-0.099550486 0.12533334 0.75200003 8.2961297e-39
-0.098118097 0.12533334 0.75200003 8.0195428e-39
-0.096685715 0.12533334 0.75200003 8.1127908e-39
-0.095253341 0.12533334 0.75200003 8.1127908e-39
-0.093820952 0.12533334 0.75200003 8.5712691e-39
-0.09238857 0.12533334 0.75200003 8.3868778e-39
-0.091198094 0.12566666 0.75400001 8.2950367e-39
-0.089761905 0.12566666 0.75400001 8.3872323e-39
-0.088325717 0.12566666 0.75400001 9.031534e-39
-0.08688952 0.12566666 0.75400001 1.3641315e-38
-0.085566677 0.12583335 0.75500005 1.39179e-38
-0.084128574 0.12583335 0.75500005 1.39179e-38
-0.082909524 0.12616667 0.75700003 1.3365482e-38
-0.081682861 0.12650001 0.75900006 1.2720113e-38
-0.080448568 0.12683333 0.76100004 1.0418832e-38
-0.079102859 0.127 0.76200002 9.5890714e-39
-0.077855244 0.12733334 0.76400006 1.1063441e-38
-0.0766 0.12766667 0.76600003 1.3921505e-38
-0.075140953 0.12766667 0.76600003 1.5208627e-38
-0.0737781 0.12783334 0.76700002 1.5669605e-38
-0.072317138 0.12783334 0.76700002 1.557776e-38
-0.071040951 0.12816668 0.76900005 1.6315325e-38
-0.069938101 0.12883334 0.77300006 1.6498294e-38
-0.068465717 0.12883334 0.77300006 1.9632945e-38
-0.13135429 0.12845144 0.76200002 2.0741473e-38
-0.12990287 0.12845144 0.76200002 1.9727682e-38
-0.12878858 0.12878858 0.76400006 1.7054008e-38
-0.127 0.12845144 0.76200002 1.5396642e-38
-0.12554857 0.12845144 0.76200002 1.3183947e-38
-0.1239343 0.12828286 0.76100004 1.4103019e-38
-0.12248477 0.12828286 0.76100004 1.5117171e-38
-0.12008096 0.12727144 0.75500005 1.5852194e-38
-0.11864287 0.12727144 0.75500005 1.4561456e-38
-0.11704952 0.12710287 0.75400001 1.1986861e-38
-0.11530667 0.12676571 0.75200003 8.1146448e-39
-0.11387429 0.12676571 0.75200003 4.5305241e-39
-0.1124419 0.12676571 0.75200003 4.3461328e-39
-0.11100953 0.12676571 0.75200003 5.2637605e-39
-0.10957715 0.12676571 0.75200003 4.5261954e-39
-0.10814476 0.12676571 0.75200003 3.4220185e-39
-0.10671239 0.12676571 0.75200003 3.9751923e-39
-0.10556 0.12710287 0.75400001 8.0213141e-39
-0.10412381 0.12710287 0.75400001 1.2631096e-38
-0.10241524 0.12676571 0.75200003 1.2996309e-38
-0.10098286 0.12676571 0.75200003 1.0968005e-38
-0.099550486 0.12676571 0.75200003 9.4932408e-39
-0.098118097 0.12676571 0.75200003 8.5712845e-39
-0.096685715 0.12676571 0.75200003 7.9280464e-39
-0.095253341 0.12676571 0.75200003 8.1124377e-39
-0.093820952 0.12676571 0.75200003 8.6627542e-39
-0.092634283 0.12710287 0.75400001 8.478363e-39
-0.091198094 0.12710287 0.75400001 7.8344061e-39
-0.089761905 0.12710287 0.75400001 9.4939274e-39
-0.088325717 0.12710287 0.75400001 1.151973e-38
-0.087004766 0.12727144 0.75500005 1.4193403e-38
-0.085566677 0.12727144 0.75500005 1.4377078e-38
-0.084351428 0.12760857 0.75700003 1.4377078e-38
-0.083128572 0.12794574 0.75900006 1.4745518e-38
-0.081682861 0.12794574 0.75900006 1.4284539e-38
-0.080448568 0.12828286 0.76100004 1.2538571e-38
-0.079310484 0.12878858 0.76400006 1.1247832e-38
-0.078059055 0.12912571 0.76600003 1.2168332e-38
-0.0766 0.12912571 0.76600003 1.4657614e-38
-0.075239047 0.12929429 0.76700002 1.5575252e-38
-0.0737781 0.12929429 0.76700002 1.5759643e-38
-0.07250572 0.12963143 0.76900005 1.5485211e-38
-0.071225718 0.12996858 0.77100003 1.6038385e-38
-0.069938101 0.13030572 0.77300006 1.6406447e-38
-0.068465717 0.13030572 0.77300006 1.9909881e-38
-0.13135429 0.12990287 0.76200002 2.1109903e-38
-0.12990287 0.12990287 0.76200002 2.0372338e-38
-0.12845144 0.12990287 0.76200002 1.7237686e-38
-0.12733334 0.13024382 0.76400006 1.5947301e-38
-0.12554857 0.12990287 0.76200002 1.5209736e-38
-0.1239343 0.12973239 0.76100004 1.576183e-38
-0.12248477 0.12973239 0.76100004 1.5393048e-38
-0.12071715 0.12939143 0.75900006 1.5575602e-38
-0.11895715 0.12905048 0.75700003 1.4745841e-38
-0.11720477 0.12870952 0.75500005 1.2998845e-38
-0.11561333 0.12853906 0.75400001 1.1708107e-38
-0.11417715 0.12853906 0.75400001 8.1200327e-39
-0.11274095 0.12853906 0.75400001 4.7087944e-39
-0.11100953 0.1281981 0.75200003 4.0684613e-39
-0.10957715 0.1281981 0.75200003 3.6074831e-39
-0.10843238 0.12853906 0.75400001 5.7218674e-39
-0.10699619 0.12853906 0.75400001 8.9487144e-39
-0.10556 0.12853906 0.75400001 1.1429702e-38
-0.10412381 0.12853906 0.75400001 1.336581e-38
-0.10268762 0.12853906 0.75400001 1.3732069e-38
-0.10125143 0.12853906 0.75400001 1.3639874e-38
-0.099815235 0.12853906 0.75400001 1.1706311e-38
-0.098379053 0.12853906 0.75400001 9.4014207e-39
-0.096942857 0.12853906 0.75400001 7.6522022e-39
-0.095506661 0.12853906 0.75400001 7.7443979e-39
-0.094070479 0.12853906 0.75400001 8.0188492e-39
-0.092634283 0.12853906 0.75400001 7.7422623e-39
-0.091319054 0.12870952 0.75500005 8.2936312e-39
-0.089880958 0.12870952 0.75500005 1.2442435e-38
-0.088442862 0.12870952 0.75500005 1.3548401e-38
-0.087004766 0.12870952 0.75500005 1.4378162e-38
-0.085793331 0.12905048 0.75700003 1.4376708e-38
-0.084574297 0.12939143 0.75900006 1.4284513e-38
-0.083347626 0.12973239 0.76100004 1.4469623e-38
-0.081898101 0.12973239 0.76100004 1.474621e-38
-0.080765724 0.13024382 0.76400006 1.4103356e-38
-0.079518095 0.13058476 0.76600003 1.4103356e-38
-0.078059055 0.13058476 0.76600003 1.4287753e-38
-0.076700002 0.13075523 0.76700002 1.4933122e-38
-0.075239047 0.13075523 0.76700002 1.5575608e-38
-0.073970482 0.1310962 0.76900005 1.5483412e-38
-0.072694287 0.13143714 0.77100003 1.5393021e-38
-0.071410477 0.13177809 0.77300006 1.6130586e-38
-0.070028573 0.13194858 0.77400005 1.6314605e-38
-0.068731427 0.13228953 0.77600002 2.0094626e-38
-0.12990287 0.13135429 0.76200002 2.1017341e-38
-0.12845144 0.13135429 0.76200002 1.7790494e-38
-0.12733334 0.13169906 0.76400006 1.7419894e-38
-0.12554857 0.13135429 0.76200002 1.6129156e-38
-0.12409715 0.13135429 0.76200002 1.6220285e-38
-0.12264571 0.13135429 0.76200002 1.5851502e-38
-0.12103524 0.13118191 0.76100004 1.5667798e-38
-0.11927143 0.13083716 0.75900006 1.4653646e-38
-0.11751524 0.13049237 0.75700003 1.4194136e-38
-0.11576667 0.13014764 0.75500005 1.3640962e-38
-0.11432858 0.13014764 0.75500005 1.0421693e-38
-0.11289049 0.13014764 0.75500005 5.3509339e-39
-0.11130476 0.12997523 0.75400001 4.8027235e-39
-0.10986857 0.12997523 0.75400001 4.8949191e-39
-0.10843238 0.12997523 0.75400001 7.1929925e-39
-0.10699619 0.12997523 0.75400001 1.1341796e-38
-0.10570001 0.13014764 0.75500005 1.2811189e-38
-0.10412381 0.12997523 0.75400001 1.364095e-38
-0.10268762 0.12997523 0.75400001 1.3731706e-38
-0.10125143 0.12997523 0.75400001 1.4192684e-38
-0.099815235 0.12997523 0.75400001 1.4102669e-38
-0.098509528 0.13014764 0.75500005 1.1152409e-38
-0.097071439 0.13014764 0.75500005 9.0340605e-39
-0.095633343 0.13014764 0.75500005 7.651126e-39
-0.094195247 0.13014764 0.75500005 7.6503525e-39
-0.092757143 0.13014764 0.75500005 8.0191351e-39
-0.091319054 0.13014764 0.75500005 1.0412664e-38
-0.089880958 0.13014764 0.75500005 1.3823902e-38
-0.088677146 0.13049237 0.75700003 1.3917186e-38
-0.087235235 0.13049237 0.75700003 1.4101578e-38
-0.086020008 0.13083716 0.75900006 1.4285232e-38
-0.084797144 0.13118191 0.76100004 1.4285232e-38
-0.08345715 0.13135429 0.76200002 1.4284513e-38
-0.082005717 0.13135429 0.76200002 1.45611e-38
-0.080765724 0.13169906 0.76400006 1.4654367e-38
-0.079518095 0.13204382 0.76600003 1.4838759e-38
-0.078160949 0.1322162 0.76700002 1.465473e-38
-0.076700002 0.1322162 0.76700002 1.5115708e-38
-0.075435244 0.13256097 0.76900005 1.6036586e-38
-0.074162856 0.13290572 0.77100003 1.5667803e-38
-0.072882861 0.13325049 0.77300006 1.5391939e-38
-0.071502857 0.13342287 0.77400005 1.62217e-38
-0.070028573 0.13342287 0.77400005 1.6314602e-38
-0.068731427 0.13376762 0.77600002 2.0094623e-38
-0.12878858 0.1331543 0.76400006 1.8067069e-38
-0.12733334 0.1331543 0.76400006 1.7420617e-38
-0.12554857 0.13280571 0.76200002 1.631427e-38
-0.12409715 0.13280571 0.76200002 1.6313547e-38
-0.12264571 0.13280571 0.76200002 1.5575982e-38
-0.12103524 0.13263142 0.76100004 1.56678e-38
-0.11927143 0.13228287 0.75900006 1.5022431e-38
-0.11751524 0.13193429 0.75700003 1.4378518e-38
-0.11607334 0.13193429 0.75700003 1.4194126e-38
-0.11463144 0.13193429 0.75700003 1.2262006e-38
-0.11289049 0.13158572 0.75500005 9.8649198e-39
-0.11145239 0.13158572 0.75500005 9.1315993e-39
-0.11001429 0.13158572 0.75500005 9.1315993e-39
-0.10857619 0.13158572 0.75500005 1.087723e-38
-0.1071381 0.13158572 0.75500005 1.2721143e-38
-0.10570001 0.13158572 0.75500005 1.3271433e-38
-0.10426191 0.13158572 0.75500005 1.3363629e-38
-0.10282382 0.13158572 0.75500005 1.3639494e-38
-0.10138572 0.13158572 0.75500005 1.3916081e-38
-0.099947624 0.13158572 0.75500005 1.3549453e-38
-0.098770484 0.13193429 0.75700003 1.3180671e-38
-0.097328581 0.13193429 0.75700003 1.2073662e-38
-0.09588667 0.13193429 0.75700003 1.0875119e-38
-0.094444767 0.13193429 0.75700003 1.0691016e-38
-0.093002863 0.13193429 0.75700003 1.1889559e-38
-0.091560952 0.13193429 0.75700003 1.2073283e-38
-0.090119049 0.13193429 0.75700003 1.3640609e-38
-0.088677146 0.13193429 0.75700003 1.3824251e-38
-0.087465718 0.13228287 0.75900006 1.3824251e-38
-0.086020008 0.13228287 0.75900006 1.4008282e-38
-0.084797144 0.13263142 0.76100004 1.4377064e-38
-0.08345715 0.13280571 0.76200002 1.4285948e-38
-0.082220957 0.1331543 0.76400006 1.4285948e-38
-0.080977142 0.13350287 0.76600003 1.4562885e-38
-0.079518095 0.13350287 0.76600003 1.4562885e-38
-0.078160949 0.13367715 0.76700002 1.4562535e-38
-0.076700002 0.13367715 0.76700002 1.4839122e-38
-0.075435244 0.13402572 0.76900005 1.5575605e-38
-0.074162856 0.13437429 0.77100003 1.5575605e-38
-0.072882861 0.13472287 0.77300006 1.5208627e-38
-0.071502857 0.13489716 0.77400005 1.5946192e-38
-0.070028573 0.13489716 0.77400005 1.631352e-38
-0.12878858 0.13460954 0.76400006 1.8343656e-38
-0.12733334 0.13460954 0.76400006 1.7882675e-38
-0.12587811 0.13460954 0.76400006 1.6130958e-38
-0.12409715 0.13425714 0.76200002 1.6314626e-38
-0.12264571 0.13425714 0.76200002 1.5392669e-38
-0.12119429 0.13425714 0.76200002 1.5759643e-38
-0.11958572 0.13408096 0.76100004 1.5206469e-38
-0.11782572 0.13372858 0.75900006 1.5022797e-38
-0.11607334 0.13337618 0.75700003 1.4469623e-38
-0.11463144 0.13337618 0.75700003 1.37346e-38
-0.11318953 0.13337618 0.75700003 1.1337514e-38
-0.11145239 0.13302381 0.75500005 1.1521866e-38
-0.11001429 0.13302381 0.75500005 1.2075039e-38
-0.10857619 0.13302381 0.75500005 1.2443827e-38
-0.1071381 0.13302381 0.75500005 1.2904806e-38
-0.10598001 0.13337618 0.75700003 1.3271433e-38
-0.1045381 0.13337618 0.75700003 1.3271433e-38
-0.10309619 0.13337618 0.75700003 1.3362559e-38
-0.10165429 0.13337618 0.75700003 1.3546951e-38
-0.10021239 0.13337618 0.75700003 1.3547311e-38
-0.098770484 0.13337618 0.75700003 1.3547311e-38
-0.097328581 0.13337618 0.75700003 1.3271116e-38
-0.09588667 0.13337618 0.75700003 1.1980377e-38
-0.094444767 0.13337618 0.75700003 1.0874681e-38
-0.093002863 0.13337618 0.75700003 1.2349812e-38
-0.091560952 0.13337618 0.75700003 1.3362196e-38
-0.090357147 0.13372858 0.75900006 1.4099761e-38
-0.088911436 0.13372858 0.75900006 1.3638795e-38
-0.087465718 0.13372858 0.75900006 1.4007577e-38
-0.086246669 0.13408096 0.76100004 1.3916086e-38
-0.084908567 0.13425714 0.76200002 1.4192673e-38
-0.08345715 0.13425714 0.76200002 1.4285592e-38
-0.082220957 0.13460954 0.76400006 1.4193396e-38
-0.080977142 0.1349619 0.76600003 1.4378864e-38
-0.079518095 0.1349619 0.76600003 1.4286668e-38
-0.078160949 0.13513809 0.76700002 1.4746926e-38
-0.076700002 0.13513809 0.76700002 1.5115708e-38
-0.075435244 0.13549049 0.76900005 1.5207901e-38
-0.074162856 0.13584286 0.77100003 1.5207901e-38
-0.072882861 0.13619524 0.77300006 1.5207901e-38
-0.071502857 0.13637143 0.77400005 1.5761075e-38
-0.070028573 0.13637143 0.77400005 1.6220964e-38
-0.12733334 0.13606477 0.76400006 1.7882661e-38
-0.12587811 0.13606477 0.76400006 1.6223139e-38
-0.12442287 0.13606477 0.76400006 1.5946195e-38
-0.12296763 0.13606477 0.76400006 1.5300826e-38
-0.12119429 0.13570857 0.76200002 1.5392316e-38
-0.11974286 0.13570857 0.76200002 1.4839143e-38
-0.11782572 0.1351743 0.75900006 1.4470692e-38
-0.11607334 0.13481809 0.75700003 1.4194105e-38
-0.11463144 0.13481809 0.75700003 1.3917902e-38
-0.11318953 0.13481809 0.75700003 1.2811555e-38
-0.11145239 0.13446191 0.75500005 1.2904099e-38
-0.11001429 0.13446191 0.75500005 1.3180686e-38
-0.10857619 0.13446191 0.75500005 1.2903385e-38
-0.1071381 0.13446191 0.75500005 1.2718993e-38
-0.10598001 0.13481809 0.75700003 1.3179237e-38
-0.1045381 0.13481809 0.75700003 1.3179237e-38
-0.10309619 0.13481809 0.75700003 1.3087049e-38
-0.10165429 0.13481809 0.75700003 1.327144e-38
-0.10021239 0.13481809 0.75700003 1.3178898e-38
-0.098770484 0.13481809 0.75700003 1.2994507e-38
-0.097328581 0.13481809 0.75700003 1.3362583e-38
-0.096140005 0.1351743 0.75900006 1.3546974e-38
-0.094694294 0.1351743 0.75900006 1.3087049e-38
-0.093248583 0.1351743 0.75900006 1.3363636e-38
-0.091802858 0.1351743 0.75900006 1.3639494e-38
-0.090357147 0.1351743 0.75900006 1.4008276e-38
-0.08914572 0.13553049 0.76100004 1.3823917e-38
-0.087696187 0.13553049 0.76100004 1.3823917e-38
-0.086246669 0.13553049 0.76100004 1.3823905e-38
-0.085131437 0.13606477 0.76400006 1.3731709e-38
-0.083676197 0.13606477 0.76400006 1.3916446e-38
-0.082220957 0.13606477 0.76400006 1.4100838e-38
-0.080977142 0.13642095 0.76600003 1.4101554e-38
-0.079621911 0.13659905 0.76700002 1.4285945e-38
-0.078160949 0.13659905 0.76700002 1.4747276e-38
-0.076900005 0.13695525 0.76900005 1.5208254e-38
-0.075631432 0.13731143 0.77100003 1.5208254e-38
-0.074355245 0.13766763 0.77300006 1.530045e-38
-0.072977148 0.13784572 0.77400005 1.5208977e-38
-0.071502857 0.13784572 0.77400005 1.557776e-38
-0.070028573 0.13784572 0.77400005 1.6128776e-38
-0.12620762 0.13788 0.76600003 1.6040197e-38
-0.12442287 0.13752002 0.76400006 1.5761804e-38
-0.12296763 0.13752002 0.76400006 1.5485217e-38
-0.12151239 0.13752002 0.76400006 1.557671e-38
-0.11974286 0.13716 0.76200002 1.4839145e-38
-0.1181362 0.13698001 0.76100004 1.4377412e-38
-0.11638001 0.13662001 0.75900006 1.4377412e-38
-0.11493429 0.13662001 0.75900006 1.4285592e-38
-0.11318953 0.13626 0.75700003 1.3640222e-38
-0.11174762 0.13626 0.75700003 1.3363643e-38
-0.11030572 0.13626 0.75700003 1.3363643e-38
-0.10886382 0.13626 0.75700003 1.3087776e-38
-0.10742191 0.13626 0.75700003 1.299558e-38
-0.10598001 0.13626 0.75700003 1.3180326e-38
-0.1045381 0.13626 0.75700003 1.3180326e-38
-0.10309619 0.13626 0.75700003 1.2995583e-38
-0.10192287 0.13662001 0.75900006 1.2995583e-38
-0.10047715 0.13662001 0.75900006 1.3179251e-38
-0.099031433 0.13662001 0.75900006 1.3179251e-38
-0.097585723 0.13662001 0.75900006 1.3362571e-38
-0.096140005 0.13662001 0.75900006 1.3454766e-38
-0.094694294 0.13662001 0.75900006 1.3086676e-38
-0.093248583 0.13662001 0.75900006 1.3547654e-38
-0.091802858 0.13662001 0.75900006 1.3272872e-38
-0.090357147 0.13662001 0.75900006 1.3457263e-38
-0.08914572 0.13698001 0.76100004 1.3548401e-38
-0.087696187 0.13698001 0.76100004 1.3548401e-38
-0.08636 0.13716 0.76200002 1.3640578e-38
-0.085131437 0.13752002 0.76400006 1.3640578e-38
-0.083676197 0.13752002 0.76400006 1.3916802e-38
-0.082436197 0.13788 0.76600003 1.4101194e-38
-0.081082858 0.13806 0.76700002 1.4101554e-38
-0.079621911 0.13806 0.76700002 1.4285945e-38
-0.078160949 0.13806 0.76700002 1.4470336e-38
-0.077100001 0.13878001 0.77100003 1.4562532e-38
-0.075827621 0.13914001 0.77300006 1.4562172e-38
-0.074451432 0.13932002 0.77400005 1.5115346e-38
-0.072977148 0.13932002 0.77400005 1.5761075e-38
-0.071687624 0.13968 0.77600002 1.5484488e-38
-0.070390478 0.14004001 0.77800006 1.5853271e-38
-0.12620762 0.13933904 0.76600003 1.6591925e-38
-0.12474858 0.13933904 0.76600003 1.594584e-38
-0.12296763 0.13897525 0.76400006 1.5577058e-38
-0.12151239 0.13897525 0.76400006 1.5484512e-38
-0.11974286 0.13861144 0.76200002 1.4839143e-38
-0.1181362 0.13842954 0.76100004 1.4378497e-38
-0.11668667 0.13842954 0.76100004 1.4470692e-38
-0.11493429 0.13806573 0.75900006 1.4285585e-38
-0.11348858 0.13806573 0.75900006 1.4101194e-38
-0.11174762 0.13770191 0.75700003 1.3363289e-38
-0.11030572 0.13770191 0.75700003 1.3271094e-38
-0.10886382 0.13770191 0.75700003 1.2995227e-38
-0.10742191 0.13770191 0.75700003 1.2995227e-38
-0.10598001 0.13770191 0.75700003 1.3180676e-38
-0.10481429 0.13806573 0.75900006 1.3272872e-38
-0.10336858 0.13806573 0.75900006 1.2995583e-38
-0.10192287 0.13806573 0.75900006 1.2995583e-38
-0.10047715 0.13806573 0.75900006 1.299558e-38
-0.099031433 0.13806573 0.75900006 1.299558e-38
-0.097585723 0.13806573 0.75900006 1.3179251e-38
-0.096140005 0.13806573 0.75900006 1.299486e-38
-0.094694294 0.13806573 0.75900006 1.2902998e-38
-0.093248583 0.13806573 0.75900006 1.3087389e-38
-0.092044763 0.13842954 0.76100004 1.3180676e-38
-0.090595245 0.13842954 0.76100004 1.3180676e-38
-0.08914572 0.13842954 0.76100004 1.3365068e-38
-0.087696187 0.13842954 0.76100004 1.3549459e-38
-0.08636 0.13861144 0.76200002 1.3732405e-38
-0.085131437 0.13897525 0.76400006 1.3732405e-38
-0.083676197 0.13897525 0.76400006 1.3824604e-38
-0.082436197 0.13933904 0.76600003 1.39168e-38
-0.081082858 0.13952096 0.76700002 1.4101188e-38
-0.079829529 0.13988477 0.76900005 1.4285579e-38
-0.07856857 0.14024857 0.77100003 1.4470336e-38
-0.077100001 0.14024857 0.77100003 1.4654727e-38
-0.075827621 0.14061238 0.77300006 1.456183e-38
-0.074451432 0.14079429 0.77400005 1.5022808e-38
-0.12637238 0.14098191 0.76700002 1.6223506e-38
-0.12474858 0.14079811 0.76600003 1.6038755e-38
-0.12328953 0.14079811 0.76600003 1.5485581e-38
-0.12151239 0.14043048 0.76400006 1.5023534e-38
-0.11974286 0.14006287 0.76200002 1.4839143e-38
-0.1181362 0.13987905 0.76100004 1.4654727e-38
-0.11668667 0.13987905 0.76100004 1.4285945e-38
-0.11493429 0.13951144 0.75900006 1.3917165e-38
-0.11348858 0.13951144 0.75900006 1.3548383e-38
-0.11174762 0.13914382 0.75700003 1.3363289e-38
-0.11030572 0.13914382 0.75700003 1.3271094e-38
-0.10886382 0.13914382 0.75700003 1.2995227e-38
-0.10742191 0.13914382 0.75700003 1.2903032e-38
-0.10626 0.13951144 0.75900006 1.2811541e-38
-0.10481429 0.13951144 0.75900006 1.2534954e-38
-0.10336858 0.13951144 0.75900006 1.2258015e-38
-0.10192287 0.13951144 0.75900006 1.2811189e-38
-0.10047715 0.13951144 0.75900006 1.2903385e-38
-0.099031433 0.13951144 0.75900006 1.299558e-38
-0.097585723 0.13951144 0.75900006 1.3087423e-38
-0.096140005 0.13951144 0.75900006 1.271864e-38
-0.094943814 0.13987905 0.76100004 1.26275e-38
-0.093494289 0.13987905 0.76100004 1.2811891e-38
-0.092044763 0.13987905 0.76100004 1.3088481e-38
-0.090595245 0.13987905 0.76100004 1.3088481e-38
-0.089262858 0.14006287 0.76200002 1.2995935e-38
-0.087811433 0.14006287 0.76200002 1.2995935e-38
-0.086586677 0.14043048 0.76400006 1.3271427e-38
-0.085354283 0.14079811 0.76600003 1.3363623e-38
-0.083895244 0.14079811 0.76600003 1.3454755e-38
-0.082543813 0.14098191 0.76700002 1.3546951e-38
-0.081294291 0.14134952 0.76900005 1.3640578e-38
