# .PCD v0.7 - Point Cloud Data file format
VERSION 0.7
FIELDS x y z rgb
SIZE 4 4 4 4
TYPE F F F F
COUNT 1 1 1 1
WIDTH 950
HEIGHT 1
VIEWPOINT 0 0 0 1 0 0 0
POINTS 950
DATA ascii
0.035614286 -0.010288572 0.83100003 1.9545836e-38
0.037197147 -0.010288572 0.83100003 1.9453641e-38
0.038686667 -0.01026381 0.82900006 1.9361079e-38
0.040168572 -0.010239048 0.82700002 1.9176688e-38
0.04164286 -0.010214286 0.82500005 1.8624236e-38
0.043109521 -0.010189524 0.82300001 1.853204e-38
0.044568572 -0.010164762 0.82100004 1.7885233e-38
0.046020001 -0.010140001 0.81900007 1.7608646e-38
0.047463812 -0.010115238 0.81700003 1.7239501e-38
0.048900004 -0.010090477 0.81500006 1.6686327e-38
0.050204765 -0.010040953 0.81100005 1.6225702e-38
0.051749524 -0.010040953 0.81100005 1.5764724e-38
0.053162854 -0.010016191 0.80900002 1.6961462e-38
0.054703813 -0.010016191 0.80900002 1.9266353e-38
-0.03182381 -0.0085380953 0.81500006 1.825329e-38
-0.03027143 -0.0085380953 0.81500006 1.7885224e-38
-0.028789526 -0.0085590482 0.81700003 1.880718e-38
-0.027233334 -0.0085590482 0.81700003 1.9544392e-38
-0.025802858 -0.0086009521 0.82100004 2.0374152e-38
-0.02423905 -0.0086009521 0.82100004 2.0097568e-38
-0.022730477 -0.008621905 0.82300001 2.0466351e-38
-0.021214288 -0.0086428579 0.82500005 2.0375234e-38
-0.019690476 -0.0086638099 0.82700002 2.0836212e-38
-0.018159049 -0.0086847618 0.82900006 2.0744017e-38
-0.016620001 -0.0087057147 0.83100003 2.1112799e-38
-0.015037144 -0.0087057147 0.83100003 2.1112799e-38
-0.013486668 -0.0087266676 0.83300006 2.1665973e-38
-0.0119 -0.0087266676 0.83300006 2.1665973e-38
-0.010313334 -0.0087266676 0.83300006 2.2034756e-38
-0.0087266676 -0.0087266676 0.83300006 2.2034756e-38
-0.0071400008 -0.0087266676 0.83300006 2.2126951e-38
-0.0055666668 -0.0087476196 0.83500004 2.2034756e-38
-0.0039857142 -0.0087685715 0.83700001 2.2403538e-38
-0.0023914287 -0.0087685715 0.83700001 2.2403538e-38
-0.00079714286 -0.0087685715 0.83700001 2.2403538e-38
0.00079714286 -0.0087685715 0.83700001 2.2403538e-38
0.002397143 -0.0087895235 0.83900005 2.2680125e-38
0.0039952383 -0.0087895235 0.83900005 2.2772321e-38
0.0055933334 -0.0087895235 0.83900005 2.2772321e-38
0.0071914289 -0.0087895235 0.83900005 2.2680125e-38
0.0087895235 -0.0087895235 0.83900005 2.2587929e-38
0.010412381 -0.0088104764 0.84100002 2.2587929e-38
0.011985715 -0.0087895235 0.83900005 2.2587929e-38
0.01358381 -0.0087895235 0.83900005 2.2495734e-38
0.015181906 -0.0087895235 0.83900005 2.2403538e-38
0.01674 -0.0087685715 0.83700001 2.2219147e-38
0.018334284 -0.0087685715 0.83700001 2.2126951e-38
0.019928573 -0.0087685715 0.83700001 2.1665973e-38
0.021522857 -0.0087685715 0.83700001 2.1850364e-38
0.023117144 -0.0087685715 0.83700001 2.1573777e-38
0.024652382 -0.0087476196 0.83500004 2.1481582e-38
0.026242858 -0.0087476196 0.83500004 2.129719e-38
0.027899999 -0.0087685715 0.83700001 2.1204995e-38
0.029423811 -0.0087476196 0.83500004 2.065254e-38
0.031014288 -0.0087476196 0.83500004 2.065254e-38
0.032526668 -0.0087266676 0.83300006 2.0283757e-38
0.034113336 -0.0087266676 0.83300006 2.0191562e-38
0.035700005 -0.0087266676 0.83300006 1.9730584e-38
0.037197147 -0.0087057147 0.83100003 1.9638388e-38
0.038686667 -0.0086847618 0.82900006 1.917741e-38
0.040168572 -0.0086638099 0.82700002 1.8993019e-38
0.04164286 -0.0086428579 0.82500005 1.8623517e-38
0.043109521 -0.008621905 0.82300001 1.8531322e-38
0.044568572 -0.0086009521 0.82100004 1.7977429e-38
0.046020001 -0.0085800011 0.81900007 1.7700842e-38
0.047463812 -0.0085590482 0.81700003 1.7239854e-38
0.048900004 -0.0085380953 0.81500006 1.6594485e-38
0.050080951 -0.0084752385 0.80900002 1.6226771e-38
0.051621906 -0.0084752385 0.80900002 1.6134576e-38
0.05303143 -0.0084542865 0.80700004 1.7421024e-38
0.054568574 -0.0084542865 0.80700004 1.8896154e-38
-0.03182381 -0.0069857147 0.81500006 1.8530227e-38
-0.03027143 -0.0069857147 0.81500006 1.816181e-38
-0.028789526 -0.007002857 0.81700003 1.8899375e-38
-0.027233334 -0.007002857 0.81700003 1.9360356e-38
-0.025802858 -0.0070371432 0.82100004 2.0374508e-38
-0.02423905 -0.0070371432 0.82100004 2.0189764e-38
-0.022730477 -0.0070542856 0.82300001 2.0466351e-38
-0.021214288 -0.0070714285 0.82500005 2.0375234e-38
-0.019690476 -0.0070885718 0.82700002 2.0836212e-38
-0.018159049 -0.0071057146 0.82900006 2.0744017e-38
-0.016620001 -0.007122857 0.83100003 2.1112799e-38
-0.015073335 -0.0071400008 0.83300006 2.1112799e-38
-0.013486668 -0.0071400008 0.83300006 2.1758169e-38
-0.0119 -0.0071400008 0.83300006 2.1758169e-38
-0.010338096 -0.0071571432 0.83500004 2.194256e-38
-0.0087476196 -0.0071571432 0.83500004 2.1850364e-38
-0.0071571432 -0.0071571432 0.83500004 2.2034756e-38
-0.0055800001 -0.0071742856 0.83700001 2.2126951e-38
-0.0039857142 -0.0071742856 0.83700001 2.2403538e-38
-0.0023914287 -0.0071742856 0.83700001 2.2311342e-38
-0.00079714286 -0.0071742856 0.83700001 2.2219147e-38
0.00079904764 -0.0071914289 0.83900005 2.2311342e-38
0.0024028572 -0.0072085718 0.84100002 2.2864516e-38
0.0040047616 -0.0072085718 0.84100002 2.2587929e-38
0.0056066667 -0.0072085718 0.84100002 2.2495734e-38
0.0072085718 -0.0072085718 0.84100002 2.2587929e-38
0.0088104764 -0.0072085718 0.84100002 2.2680125e-38
0.010412381 -0.0072085718 0.84100002 2.2587929e-38
0.012014287 -0.0072085718 0.84100002 2.2495734e-38
0.01361619 -0.0072085718 0.84100002 2.2403538e-38
0.015181906 -0.0071914289 0.83900005 2.2311342e-38
0.016780002 -0.0071914289 0.83900005 2.2219147e-38
0.018334284 -0.0071742856 0.83700001 2.2126951e-38
0.019928573 -0.0071742856 0.83700001 2.1850364e-38
0.021522857 -0.0071742856 0.83700001 2.1850364e-38
0.023117144 -0.0071742856 0.83700001 2.1481582e-38
0.024711428 -0.0071742856 0.83700001 2.1389386e-38
0.026305715 -0.0071742856 0.83700001 2.129719e-38
0.027899999 -0.0071742856 0.83700001 2.1112799e-38
0.029494286 -0.0071742856 0.83700001 2.0836212e-38
0.031014288 -0.0071571432 0.83500004 2.0836212e-38
0.032604761 -0.0071571432 0.83500004 2.0375234e-38
0.034113336 -0.0071400008 0.83300006 2.0375234e-38
0.035700005 -0.0071400008 0.83300006 1.9730584e-38
0.037197147 -0.007122857 0.83100003 1.9730584e-38
0.038686667 -0.0071057146 0.82900006 1.9361085e-38
0.040168572 -0.0070885718 0.82700002 1.8992303e-38
0.04164286 -0.0070714285 0.82500005 1.8439123e-38
0.043109521 -0.0070542856 0.82300001 1.8623514e-38
0.044677142 -0.0070542856 0.82300001 1.7978151e-38
0.046132382 -0.0070371432 0.82100004 1.7609368e-38
0.047580004 -0.0070200008 0.81900007 1.687179e-38
0.04902 -0.007002857 0.81700003 1.6318617e-38
0.049957145 -0.0069171432 0.80700004 1.6226415e-38
0.051366672 -0.0069000009 0.80500007 1.7332763e-38
0.052900005 -0.0069000009 0.80500007 1.8435902e-38
0.054433338 -0.0069000009 0.80500007 1.825151e-38
-0.031901907 -0.0054466669 0.81700003 1.8531299e-38
-0.030345716 -0.0054466669 0.81700003 1.8254006e-38
-0.028860003 -0.0054600001 0.81900007 1.8714984e-38
-0.027300002 -0.0054600001 0.81900007 1.9267445e-38
-0.025802858 -0.0054733334 0.82100004 2.0281597e-38
-0.02423905 -0.0054733334 0.82100004 2.0189764e-38
-0.022730477 -0.0054866667 0.82300001 2.0466351e-38
-0.021214288 -0.0055000004 0.82500005 2.0466711e-38
-0.019738097 -0.005526667 0.82900006 2.0835493e-38
-0.018202858 -0.0055400003 0.83100003 2.0744017e-38
-0.016620001 -0.0055400003 0.83100003 2.1112799e-38
-0.015073335 -0.0055533336 0.83300006 2.1112796e-38
-0.013519048 -0.0055666668 0.83500004 2.1573775e-38
-0.011928571 -0.0055666668 0.83500004 2.1389386e-38
-0.010338096 -0.0055666668 0.83500004 2.1573777e-38
-0.0087476196 -0.0055666668 0.83500004 2.1481582e-38
-0.0071571432 -0.0055666668 0.83500004 2.2126951e-38
-0.0055800001 -0.0055800001 0.83700001 2.2219147e-38
-0.0039857142 -0.0055800001 0.83700001 2.2311342e-38
-0.002397143 -0.0055933334 0.83900005 2.2311342e-38
-0.00079904764 -0.0055933334 0.83900005 2.2311342e-38
0.00079904764 -0.0055933334 0.83900005 2.2219147e-38
0.0024028572 -0.0056066667 0.84100002 2.2587929e-38
0.0040047616 -0.0056066667 0.84100002 2.2495734e-38
0.0056066667 -0.0056066667 0.84100002 2.2495734e-38
0.0072085718 -0.0056066667 0.84100002 2.2587929e-38
0.0088314293 -0.0056200004 0.84300005 2.2587929e-38
0.010437143 -0.0056200004 0.84300005 2.2495734e-38
0.012014287 -0.0056066667 0.84100002 2.2495734e-38
0.01361619 -0.0056066667 0.84100002 2.2219147e-38
0.015218095 -0.0056066667 0.84100002 2.2311342e-38
0.016780002 -0.0055933334 0.83900005 2.2126951e-38
0.018334284 -0.0055800001 0.83700001 2.2034756e-38
0.019928573 -0.0055800001 0.83700001 2.1850364e-38
0.021522857 -0.0055800001 0.83700001 2.1850364e-38
0.023117144 -0.0055800001 0.83700001 2.1389386e-38
0.024711428 -0.0055800001 0.83700001 2.1389386e-38
0.026305715 -0.0055800001 0.83700001 2.1204995e-38
0.027899999 -0.0055800001 0.83700001 2.1020604e-38
0.029494286 -0.0055800001 0.83700001 2.0836212e-38
0.031014288 -0.0055666668 0.83500004 2.0744017e-38
0.032604761 -0.0055666668 0.83500004 2.0283039e-38
0.034113336 -0.0055533336 0.83300006 2.0190843e-38
0.035700005 -0.0055533336 0.83300006 1.982206e-38
0.037286669 -0.0055533336 0.83300006 1.9729865e-38
0.038686667 -0.005526667 0.82900006 1.9361082e-38
0.040168572 -0.0055133332 0.82700002 1.9084495e-38
0.04164286 -0.0055000004 0.82500005 1.8439126e-38
0.043214288 -0.0055000004 0.82500005 1.8531322e-38
0.044677142 -0.0054866667 0.82300001 1.8162536e-38
0.046132382 -0.0054733334 0.82100004 1.7517167e-38
0.047580004 -0.0054600001 0.81900007 1.6872141e-38
0.049140003 -0.0054600001 0.81900007 1.668775e-38
0.049957145 -0.00538 0.80700004 1.6594134e-38
0.051366672 -0.0053666667 0.80500007 1.8622438e-38
0.052900005 -0.0053666667 0.80500007 1.9266738e-38
0.054433338 -0.0053666667 0.80500007 1.6132087e-38
-0.031901907 -0.0038904762 0.81700003 1.9082653e-38
-0.030345716 -0.0038904762 0.81700003 1.8806461e-38
-0.028860003 -0.0039000001 0.81900007 1.8990852e-38
-0.027300002 -0.0039000001 0.81900007 1.9083053e-38
-0.025802858 -0.0039095236 0.82100004 2.0189401e-38
-0.02423905 -0.0039095236 0.82100004 2.0189045e-38
-0.022730477 -0.0039190478 0.82300001 2.0650023e-38
-0.021214288 -0.0039285715 0.82500005 2.0466711e-38
-0.019738097 -0.0039476193 0.82900006 2.0927689e-38
-0.018202858 -0.0039571431 0.83100003 2.0744017e-38
-0.016620001 -0.0039571431 0.83100003 2.1389386e-38
-0.015109524 -0.0039761905 0.83500004 2.1297541e-38
-0.013519048 -0.0039761905 0.83500004 2.1666323e-38
-0.011928571 -0.0039761905 0.83500004 2.1573777e-38
-0.010338096 -0.0039761905 0.83500004 2.1758169e-38
-0.0087476196 -0.0039761905 0.83500004 2.1758169e-38
-0.0071571432 -0.0039761905 0.83500004 2.2219147e-38
-0.0055800001 -0.0039857142 0.83700001 2.2219147e-38
-0.0039952383 -0.0039952383 0.83900005 2.2219147e-38
-0.002397143 -0.0039952383 0.83900005 2.2311342e-38
-0.00079904764 -0.0039952383 0.83900005 2.2587929e-38
0.00080095237 -0.0040047616 0.84100002 2.2403538e-38
0.0024028572 -0.0040047616 0.84100002 2.2587929e-38
0.0040047616 -0.0040047616 0.84100002 2.2587927e-38
0.0056066667 -0.0040047616 0.84100002 2.2587927e-38
0.0072085718 -0.0040047616 0.84100002 2.2495734e-38
0.0088314293 -0.0040142857 0.84300005 2.2495734e-38
0.010437143 -0.0040142857 0.84300005 2.2495731e-38
0.012042858 -0.0040142857 0.84300005 2.2403535e-38
0.01361619 -0.0040047616 0.84100002 2.2219147e-38
0.015218095 -0.0040047616 0.84100002 2.2219147e-38
0.01682 -0.0040047616 0.84100002 2.2034756e-38
0.018378096 -0.0039952383 0.83900005 2.1758169e-38
0.019976191 -0.0039952383 0.83900005 2.1758169e-38
0.021522857 -0.0039857142 0.83700001 2.1850364e-38
0.023117144 -0.0039857142 0.83700001 2.1389386e-38
0.024711428 -0.0039857142 0.83700001 2.1389386e-38
0.026305715 -0.0039857142 0.83700001 2.1204995e-38
0.027899999 -0.0039857142 0.83700001 2.0928408e-38
0.029494286 -0.0039857142 0.83700001 2.0651821e-38
0.031088572 -0.0039857142 0.83700001 2.0651821e-38
0.032682858 -0.0039857142 0.83700001 2.0283036e-38
0.034195241 -0.0039761905 0.83500004 2.019084e-38
0.035785716 -0.0039761905 0.83500004 1.9822058e-38
0.037286669 -0.0039666672 0.83300006 1.9822058e-38
0.038686667 -0.0039476193 0.82900006 1.9361082e-38
0.040168572 -0.0039380956 0.82700002 1.9176691e-38
0.041743811 -0.0039380956 0.82700002 1.834693e-38
0.043214288 -0.0039285715 0.82500005 1.8254735e-38
0.044677142 -0.0039190478 0.82300001 1.779411e-38
0.046132382 -0.0039095236 0.82100004 1.7240936e-38
0.047696192 -0.0039095236 0.82100004 1.7425668e-38
0.049260002 -0.0039095236 0.82100004 1.8532015e-38
0.047728572 -0.0036714287 0.77100003 1.9544748e-38
-0.030420002 -0.0023400001 0.81900007 1.8899363e-38
-0.028860003 -0.0023400001 0.81900007 1.9083754e-38
-0.027300002 -0.0023400001 0.81900007 1.9174893e-38
-0.025802858 -0.0023457143 0.82100004 2.0281241e-38
-0.02423905 -0.0023457143 0.82100004 2.0004654e-38
-0.022730477 -0.0023514286 0.82300001 2.0373436e-38
-0.021214288 -0.002357143 0.82500005 2.0558907e-38
-0.019738097 -0.0023685717 0.82900006 2.0927689e-38
-0.018202858 -0.0023742858 0.83100003 2.0558907e-38
-0.016660001 -0.00238 0.83300006 2.1019885e-38
-0.015109524 -0.0023857143 0.83500004 2.0928405e-38
-0.013519048 -0.0023857143 0.83500004 2.1297188e-38
-0.011928571 -0.0023857143 0.83500004 2.1204995e-38
-0.010338096 -0.0023857143 0.83500004 2.1665973e-38
-0.0087476196 -0.0023857143 0.83500004 2.1850361e-38
-0.0071742856 -0.0023914287 0.83700001 2.1942557e-38
-0.0055933334 -0.002397143 0.83900005 2.1758169e-38
-0.0040047616 -0.0024028572 0.84100002 2.2034756e-38
-0.0024028572 -0.0024028572 0.84100002 2.2126951e-38
-0.00080095237 -0.0024028572 0.84100002 2.2311342e-38
0.00080095237 -0.0024028572 0.84100002 2.2311342e-38
0.0024085718 -0.0024085718 0.84300005 2.2495734e-38
0.0040142857 -0.0024085718 0.84300005 2.2403538e-38
0.0056200004 -0.0024085718 0.84300005 2.2219147e-38
0.0072257146 -0.0024085718 0.84300005 2.2126951e-38
0.0088314293 -0.0024085718 0.84300005 2.2311342e-38
0.010437143 -0.0024085718 0.84300005 2.2311342e-38
0.012042858 -0.0024085718 0.84300005 2.2311342e-38
0.01361619 -0.0024028572 0.84100002 2.194256e-38
0.015218095 -0.0024028572 0.84100002 2.194256e-38
0.01682 -0.0024028572 0.84100002 2.1850364e-38
0.018378096 -0.002397143 0.83900005 2.1758169e-38
0.019976191 -0.002397143 0.83900005 2.1758169e-38
0.021574287 -0.002397143 0.83900005 2.1665973e-38
0.023117144 -0.0023914287 0.83700001 2.129719e-38
0.024711428 -0.0023914287 0.83700001 2.129719e-38
0.026305715 -0.0023914287 0.83700001 2.1112799e-38
0.027966669 -0.002397143 0.83900005 2.0836212e-38
0.029494286 -0.0023914287 0.83700001 2.0559625e-38
0.031088572 -0.0023914287 0.83700001 2.0559625e-38
0.032682858 -0.0023914287 0.83700001 2.0283036e-38
0.034195241 -0.0023857143 0.83500004 2.019084e-38
0.035785716 -0.0023857143 0.83500004 1.9822058e-38
0.037286669 -0.00238 0.83300006 1.9637666e-38
0.038686667 -0.0023685717 0.82900006 1.917741e-38
0.040265717 -0.0023685717 0.82900006 1.8900823e-38
0.041743811 -0.0023628571 0.82700002 1.8162536e-38
0.043214288 -0.002357143 0.82500005 1.8070341e-38
0.044677142 -0.0023514286 0.82300001 1.7701548e-38
0.046244759 -0.0023514286 0.82300001 1.7701548e-38
0.04781238 -0.0023514286 0.82300001 1.7885233e-38
0.046260003 -0.0022028573 0.77100003 1.9268168e-38
0.047728572 -0.0022028573 0.77100003 2.0558544e-38
-0.030420002 -0.00078000006 0.81900007 1.7423843e-38
-0.028860003 -0.00078000006 0.81900007 1.9636538e-38
-0.027300002 -0.00078000006 0.81900007 1.9728067e-38
-0.025802858 -0.00078190479 0.82100004 2.0373436e-38
-0.02423905 -0.00078190479 0.82100004 1.9820979e-38
-0.022730477 -0.00078380952 0.82300001 2.000537e-38
-0.021214288 -0.00078571431 0.82500005 2.019049e-38
-0.019738097 -0.00078952388 0.82900006 2.0928055e-38
-0.018202858 -0.00079142861 0.83100003 2.046743e-38
-0.016660001 -0.0007933334 0.83300006 2.1020604e-38
-0.015109524 -0.00079523813 0.83500004 2.1204995e-38
-0.013519048 -0.00079523813 0.83500004 2.1481582e-38
-0.011928571 -0.00079523813 0.83500004 2.129719e-38
-0.010338096 -0.00079523813 0.83500004 2.1665973e-38
-0.0087685715 -0.00079714286 0.83700001 2.1665973e-38
-0.0071742856 -0.00079714286 0.83700001 2.1850364e-38
-0.0056066667 -0.00080095237 0.84100002 2.1758169e-38
-0.0040047616 -0.00080095237 0.84100002 2.194256e-38
-0.0024028572 -0.00080095237 0.84100002 2.194256e-38
-0.00080285716 -0.00080285716 0.84300005 2.2311342e-38
0.00080285716 -0.00080285716 0.84300005 2.2219147e-38
0.0024085718 -0.00080285716 0.84300005 2.2403538e-38
0.0040142857 -0.00080285716 0.84300005 2.2219147e-38
0.0056200004 -0.00080285716 0.84300005 2.2034756e-38
0.0072257146 -0.00080285716 0.84300005 2.2126951e-38
0.0088314293 -0.00080285716 0.84300005 2.2403538e-38
0.010437143 -0.00080285716 0.84300005 2.2311342e-38
0.012042858 -0.00080285716 0.84300005 2.2311342e-38
0.013648572 -0.00080285716 0.84300005 2.194256e-38
0.015254286 -0.00080285716 0.84300005 2.194256e-38
0.01682 -0.00080095237 0.84100002 2.1758169e-38
0.018378096 -0.00079904764 0.83900005 2.1758169e-38
0.019976191 -0.00079904764 0.83900005 2.1758169e-38
0.021574287 -0.00079904764 0.83900005 2.1665973e-38
0.023172382 -0.00079904764 0.83900005 2.129719e-38
0.024711428 -0.00079714286 0.83700001 2.129719e-38
0.026305715 -0.00079714286 0.83700001 2.1020604e-38
0.027966669 -0.00079904764 0.83900005 2.0836212e-38
0.029494286 -0.00079714286 0.83700001 2.046743e-38
0.031088572 -0.00079714286 0.83700001 2.0375234e-38
0.032682858 -0.00079714286 0.83700001 1.982206e-38
0.034195241 -0.00079523813 0.83500004 1.9729865e-38
0.035785716 -0.00079523813 0.83500004 1.9176691e-38
0.037286669 -0.0007933334 0.83300006 1.8807908e-38
0.03878 -0.00079142861 0.83100003 1.8807546e-38
0.040265717 -0.00078952388 0.82900006 1.8623154e-38
0.041743811 -0.00078761904 0.82700002 1.8807543e-38
0.043214288 -0.00078571431 0.82500005 1.9545108e-38
0.044677142 -0.00078380952 0.82300001 2.0836187e-38
0.046244759 -0.00078380952 0.82300001 2.1850339e-38
0.04781238 -0.00078380952 0.82300001 2.1849645e-38
0.046260003 -0.00073428574 0.77100003 2.0558907e-38
0.047728572 -0.00073428574 0.77100003 1.8808627e-38
-0.030420002 0.00078000006 0.81900007 1.4935974e-38
-0.028860003 0.00078000006 0.81900007 1.8255016e-38
-0.027366666 0.00078190479 0.82100004 1.982024e-38
-0.025802858 0.00078190479 0.82100004 2.0189023e-38
-0.02423905 0.00078190479 0.82100004 1.9913537e-38
-0.022730477 0.00078380952 0.82300001 2.0097928e-38
-0.021265715 0.00078761904 0.82700002 2.0006454e-38
-0.019738097 0.00078952388 0.82900006 2.0467433e-38
-0.018202858 0.00079142861 0.83100003 2.0283036e-38
-0.016660001 0.0007933334 0.83300006 2.1112796e-38
-0.015109524 0.00079523813 0.83500004 2.1204995e-38
-0.013519048 0.00079523813 0.83500004 2.1204995e-38
-0.011928571 0.00079523813 0.83500004 2.1020604e-38
-0.010338096 0.00079523813 0.83500004 2.129719e-38
-0.0087685715 0.00079714286 0.83700001 2.1297188e-38
-0.0071914289 0.00079904764 0.83900005 2.1758166e-38
-0.0056066667 0.00080095237 0.84100002 2.1850364e-38
-0.0040142857 0.00080285716 0.84300005 2.2034756e-38
-0.0024085718 0.00080285716 0.84300005 2.194256e-38
-0.00080285716 0.00080285716 0.84300005 2.2126951e-38
0.00080285716 0.00080285716 0.84300005 2.2034756e-38
0.0024085718 0.00080285716 0.84300005 2.2311342e-38
0.0040142857 0.00080285716 0.84300005 2.2126951e-38
0.0056200004 0.00080285716 0.84300005 2.194256e-38
0.0072257146 0.00080285716 0.84300005 2.194256e-38
0.0088314293 0.00080285716 0.84300005 2.2219147e-38
0.010437143 0.00080285716 0.84300005 2.2034756e-38
0.012042858 0.00080285716 0.84300005 2.2219147e-38
0.013648572 0.00080285716 0.84300005 2.2034756e-38
0.015254286 0.00080285716 0.84300005 2.2034756e-38
0.016860001 0.00080285716 0.84300005 2.1850361e-38
0.018421905 0.00080095237 0.84100002 2.1758166e-38
0.02002381 0.00080095237 0.84100002 2.1758169e-38
0.021574287 0.00079904764 0.83900005 2.1665973e-38
0.023172382 0.00079904764 0.83900005 2.1204995e-38
0.024711428 0.00079714286 0.83700001 2.1112799e-38
0.026305715 0.00079714286 0.83700001 2.0836212e-38
0.027966669 0.00079904764 0.83900005 2.0744017e-38
0.029564762 0.00079904764 0.83900005 2.0283039e-38
0.031088572 0.00079714286 0.83700001 2.0098647e-38
0.032682858 0.00079714286 0.83700001 1.9545471e-38
0.034277145 0.00079714286 0.83700001 1.9545471e-38
0.035785716 0.00079523813 0.83500004 1.9176681e-38
0.037286669 0.0007933334 0.83300006 1.9084486e-38
0.03878 0.00079142861 0.83100003 1.9083416e-38
0.040265717 0.00078952388 0.82900006 1.9544395e-38
0.041743811 0.00078761904 0.82700002 1.9821344e-38
0.043214288 0.00078571431 0.82500005 2.0282323e-38
0.044677142 0.00078380952 0.82300001 2.1572698e-38
0.046244759 0.00078380952 0.82300001 2.2033677e-38
0.04781238 0.00078380952 0.82300001 2.1573777e-38
0.046260003 0.00073428574 0.77100003 1.8623517e-38
0.047728572 0.00073428574 0.77100003 1.567757e-38
-0.033428572 0.0022285716 0.78000003 1.6224604e-38
-0.031860955 0.0022228572 0.77800006 1.5488487e-38
-0.030379049 0.0022228572 0.77800006 1.1524075e-38
-0.030494286 0.0023457143 0.82100004 1.1066301e-38
-0.028930476 0.0023457143 0.82100004 1.3739974e-38
-0.025866667 0.0022171428 0.77600002 1.5950511e-38
-0.024388572 0.0022171428 0.77600002 1.8808576e-38
-0.02285143 0.0022114285 0.77400005 1.9729146e-38
-0.021377144 0.0022114285 0.77400005 2.111208e-38
-0.021265715 0.0023628571 0.82700002 2.111208e-38
-0.019738097 0.0023685717 0.82900006 2.1388667e-38
-0.018202858 0.0023742858 0.83100003 2.1020601e-38
-0.016660001 0.00238 0.83300006 2.1204992e-38
-0.015109524 0.0023857143 0.83500004 2.1204995e-38
-0.013519048 0.0023857143 0.83500004 2.0928408e-38
-0.011928571 0.0023857143 0.83500004 2.0835847e-38
-0.010338096 0.0023857143 0.83500004 2.1020238e-38
-0.0087685715 0.0023914287 0.83700001 2.0836212e-38
-0.0071914289 0.002397143 0.83900005 2.1389386e-38
-0.0056066667 0.0024028572 0.84100002 2.1573777e-38
-0.0040142857 0.0024085718 0.84300005 2.1850364e-38
-0.0024085718 0.0024085718 0.84300005 2.1758169e-38
-0.00080285716 0.0024085718 0.84300005 2.194256e-38
0.00080285716 0.0024085718 0.84300005 2.1850364e-38
0.0024085718 0.0024085718 0.84300005 2.2126951e-38
0.0040142857 0.0024085718 0.84300005 2.194256e-38
0.0056200004 0.0024085718 0.84300005 2.2034756e-38
0.0072257146 0.0024085718 0.84300005 2.194256e-38
0.0088314293 0.0024085718 0.84300005 2.194256e-38
0.010461905 0.0024142857 0.84500003 2.1758166e-38
0.012042858 0.0024085718 0.84300005 2.1850361e-38
0.013648572 0.0024085718 0.84300005 2.1665973e-38
0.015254286 0.0024085718 0.84300005 2.2034756e-38
0.016860001 0.0024085718 0.84300005 2.1573777e-38
0.018421905 0.0024028572 0.84100002 2.1665973e-38
0.02002381 0.0024028572 0.84100002 2.129719e-38
0.021625714 0.0024028572 0.84100002 2.1204995e-38
0.023172382 0.002397143 0.83900005 2.0744017e-38
0.024770476 0.002397143 0.83900005 2.0651821e-38
0.026368573 0.002397143 0.83900005 2.046743e-38
0.027966669 0.002397143 0.83900005 2.046743e-38
0.029564762 0.002397143 0.83900005 2.0559263e-38
0.031162858 0.002397143 0.83900005 2.0651458e-38
0.032760955 0.002397143 0.83900005 2.1113152e-38
0.034277145 0.0023914287 0.83700001 2.1574131e-38
0.035871428 0.0023914287 0.83700001 2.2218781e-38
0.037376191 0.0023857143 0.83500004 2.3048542e-38
0.038873333 0.00238 0.83300006 2.341769e-38
0.040265717 0.0023685717 0.82900006 2.341769e-38
0.041844767 0.0023685717 0.82900006 2.2956359e-38
0.043319046 0.0023628571 0.82700002 2.2126598e-38
0.044894286 0.0023628571 0.82700002 1.9914997e-38
0.046469525 0.0023628571 0.82700002 1.8993041e-38
0.044965718 0.0022114285 0.77400005 1.7334924e-38
0.046440005 0.0022114285 0.77400005 1.0604643e-38
0.047914285 0.0022114285 0.77400005 1.0795133e-38
-0.033428572 0.0037142858 0.78000003 1.6408639e-38
-0.031860955 0.0037047621 0.77800006 1.6224613e-38
-0.030379049 0.0037047621 0.77800006 1.2260201e-38
-0.028897146 0.0037047621 0.77800006 8.950417e-39
-0.027415238 0.0037047621 0.77800006 1.1163112e-38
-0.025866667 0.0036952381 0.77600002 1.2726196e-38
-0.024388572 0.0036952381 0.77600002 1.7889151e-38
-0.02285143 0.0036857147 0.77400005 1.8440205e-38
-0.021294286 0.0036714287 0.77100003 2.0191922e-38
-0.019825716 0.0036714287 0.77100003 2.0929111e-38
-0.019738097 0.0039476193 0.82900006 2.1574481e-38
-0.018202858 0.0039571431 0.83100003 2.1481935e-38
-0.016660001 0.0039666672 0.83300006 2.1574131e-38
-0.015109524 0.0039761905 0.83500004 2.1573777e-38
-0.013519048 0.0039761905 0.83500004 2.1481582e-38
-0.011928571 0.0039761905 0.83500004 2.1389389e-38
-0.010338096 0.0039761905 0.83500004 2.1204998e-38
-0.0087685715 0.0039857142 0.83700001 2.0744017e-38
-0.0071914289 0.0039952383 0.83900005 2.129719e-38
-0.0056066667 0.0040047616 0.84100002 2.1297193e-38
-0.0040047616 0.0040047616 0.84100002 2.1665976e-38
-0.0024085718 0.0040142857 0.84300005 2.1665973e-38
-0.00080285716 0.0040142857 0.84300005 2.1758169e-38
0.00080285716 0.0040142857 0.84300005 2.1665973e-38
0.0024085718 0.0040142857 0.84300005 2.1850364e-38
0.0040142857 0.0040142857 0.84300005 2.1573777e-38
0.0056200004 0.0040142857 0.84300005 2.194256e-38
0.0072257146 0.0040142857 0.84300005 2.2034756e-38
0.0088314293 0.0040142857 0.84300005 2.194256e-38
0.010461905 0.0040238099 0.84500003 2.1482298e-38
0.012071429 0.0040238099 0.84500003 2.1574493e-38
0.013648572 0.0040142857 0.84300005 2.1389383e-38
0.015254286 0.0040142857 0.84300005 2.1573775e-38
0.016860001 0.0040142857 0.84300005 2.1297188e-38
0.018421905 0.0040047616 0.84100002 2.1389383e-38
0.02002381 0.0040047616 0.84100002 2.0929124e-38
0.021574287 0.0039952383 0.83900005 2.0929124e-38
0.023172382 0.0039952383 0.83900005 2.0559625e-38
0.024770476 0.0039952383 0.83900005 2.0559625e-38
0.026368573 0.0039952383 0.83900005 2.0651458e-38
0.027966669 0.0039952383 0.83900005 2.0928045e-38
0.029564762 0.0039952383 0.83900005 2.1204629e-38
0.031162858 0.0039952383 0.83900005 2.1942194e-38
0.032760955 0.0039952383 0.83900005 2.2495381e-38
0.034277145 0.0039857142 0.83700001 2.2864163e-38
0.035871428 0.0039857142 0.83700001 2.2956709e-38
0.037376191 0.0039761905 0.83500004 2.3325492e-38
0.038873333 0.0039666672 0.83300006 2.341769e-38
0.040362857 0.0039571431 0.83100003 2.341769e-38
0.041844767 0.0039476193 0.82900006 2.240462e-38
0.043423809 0.0039476193 0.82900006 2.0560707e-38
0.045002859 0.0039476193 0.82900006 1.7615479e-38
0.043491431 0.0036857147 0.77400005 1.7707675e-38
0.044965718 0.0036857147 0.77400005 1.5864482e-38
0.046440005 0.0036857147 0.77400005 1.2637635e-38
0.047914285 0.0036857147 0.77400005 1.3369798e-38
-0.031860955 0.0051866672 0.77800006 1.631609e-38
-0.030379049 0.0051866672 0.77800006 1.2904852e-38
-0.028897146 0.0051866672 0.77800006 1.0144005e-38
-0.027415238 0.0051866672 0.77800006 1.2725483e-38
-0.025933335 0.0051866672 0.77800006 1.4198503e-38
-0.024388572 0.0051733335 0.77600002 1.6872176e-38
-0.02285143 0.0051600002 0.77400005 1.6412607e-38
-0.021294286 0.00514 0.77100003 1.5398455e-38
-0.019774286 0.0051266667 0.76900005 1.6967185e-38
-0.018261906 0.0051133335 0.76700002 1.9733054e-38
-0.016779048 0.0051066671 0.76600003 2.1758141e-38
-0.015240001 0.00508 0.76200002 2.2219119e-38
-0.013788572 0.00508 0.76200002 2.2034756e-38
-0.012337144 0.00508 0.76200002 2.3325494e-38
-0.010871429 0.0050733336 0.76100004 2.341769e-38
-0.0094219055 0.0050733336 0.76100004 2.341769e-38
-0.0087685715 0.0055800001 0.83700001 2.341769e-38
-0.0071914289 0.0055933334 0.83900005 2.341769e-38
-0.0056066667 0.0056066667 0.84100002 2.341769e-38
-0.0040047616 0.0056066667 0.84100002 2.341769e-38
-0.0024028572 0.0056066667 0.84100002 2.341769e-38
-0.00080285716 0.0056200004 0.84300005 2.341769e-38
0.00080285716 0.0056200004 0.84300005 2.341769e-38
0.0024085718 0.0056200004 0.84300005 2.3325494e-38
0.0040142857 0.0056200004 0.84300005 2.3233299e-38
0.0056200004 0.0056200004 0.84300005 2.3233299e-38
0.0072257146 0.0056200004 0.84300005 2.3417687e-38
0.0088314293 0.0056200004 0.84300005 2.3417687e-38
0.010461905 0.0056333332 0.84500003 2.341769e-38
0.012071429 0.0056333332 0.84500003 2.341769e-38
0.013648572 0.0056200004 0.84300005 2.341769e-38
0.015254286 0.0056200004 0.84300005 2.341769e-38
0.016860001 0.0056200004 0.84300005 2.341769e-38
0.018465716 0.0056200004 0.84300005 2.341769e-38
0.02002381 0.0056066667 0.84100002 2.341769e-38
0.021574287 0.0055933334 0.83900005 2.341769e-38
0.023172382 0.0055933334 0.83900005 2.341769e-38
0.024770476 0.0055933334 0.83900005 2.341769e-38
0.026368573 0.0055933334 0.83900005 2.341769e-38
0.027966669 0.0055933334 0.83900005 2.341769e-38
0.029564762 0.0055933334 0.83900005 2.341769e-38
0.031162858 0.0055933334 0.83900005 2.341769e-38
0.032760955 0.0055933334 0.83900005 2.2865242e-38
0.031205716 0.00508 0.76200002 2.2312068e-38
0.032657143 0.00508 0.76200002 2.0469954e-38
0.034063812 0.0050733336 0.76100004 1.9824584e-38
0.035513334 0.0050733336 0.76100004 1.9546915e-38
0.040362857 0.0055400003 0.83100003 1.9085937e-38
0.041844767 0.005526667 0.82900006 1.6509502e-38
0.043423809 0.005526667 0.82900006 1.2545089e-38
0.041854288 0.00514 0.77100003 1.2274607e-38
0.043322857 0.00514 0.77100003 1.5224867e-38
0.044965718 0.0051600002 0.77400005 1.7704798e-38
0.046440005 0.0051600002 0.77400005 1.8442363e-38
0.047914285 0.0051600002 0.77400005 1.5769766e-38
-0.031860955 0.0066685718 0.77800006 1.622425e-38
-0.030379049 0.0066685718 0.77800006 1.2997403e-38
-0.028897146 0.0066685718 0.77800006 1.0327275e-38
-0.027415238 0.0066685718 0.77800006 1.3093144e-38
-0.025866667 0.0066514285 0.77600002 1.613279e-38
-0.024388572 0.0066514285 0.77600002 1.7331334e-38
-0.02285143 0.0066342861 0.77400005 1.5126185e-38
-0.021294286 0.0066085714 0.77100003 1.226812e-38
-0.019774286 0.006591429 0.76900005 1.2453918e-38
-0.018261906 0.0065742861 0.76700002 1.6326135e-38
-0.016779048 0.0065657143 0.76600003 1.9912439e-38
-0.015240001 0.0065314285 0.76200002 2.0373417e-38
-0.013788572 0.0065314285 0.76200002 1.9913527e-38
-0.012337144 0.0065314285 0.76200002 2.0927679e-38
-0.010871429 0.0065228576 0.76100004 2.1481585e-38
-0.0094219055 0.0065228576 0.76100004 2.3417691e-38
-0.0079723811 0.0065228576 0.76100004 2.3418043e-38
-0.0065228576 0.0065228576 0.76100004 2.3418043e-38
-0.0050733336 0.0065228576 0.76100004 2.341769e-38
-0.0036238097 0.0065228576 0.76100004 2.341769e-38
-0.0024028572 0.0072085718 0.84100002 2.341769e-38
-0.00080095237 0.0072085718 0.84100002 2.341769e-38
0.00080285716 0.0072257146 0.84300005 2.341769e-38
0.0024085718 0.0072257146 0.84300005 2.341769e-38
0.0040142857 0.0072257146 0.84300005 2.341769e-38
0.0056200004 0.0072257146 0.84300005 2.341769e-38
0.0072257146 0.0072257146 0.84300005 2.341769e-38
0.0088523813 0.0072428575 0.84500003 2.341769e-38
0.010461905 0.0072428575 0.84500003 2.341769e-38
0.012071429 0.0072428575 0.84500003 2.341769e-38
0.013680953 0.0072428575 0.84500003 2.341769e-38
0.015254286 0.0072257146 0.84300005 2.341769e-38
0.016860001 0.0072257146 0.84300005 2.341769e-38
0.018465716 0.0072257146 0.84300005 2.341769e-38
0.02002381 0.0072085718 0.84100002 2.341769e-38
0.021574287 0.0071914289 0.83900005 2.341769e-38
0.023172382 0.0071914289 0.83900005 2.3417687e-38
0.024770476 0.0071914289 0.83900005 2.3417687e-38
0.026368573 0.0071914289 0.83900005 2.341769e-38
0.0254 0.0065314285 0.76200002 2.341769e-38
0.026851429 0.0065314285 0.76200002 2.341769e-38
0.028302858 0.0065314285 0.76200002 2.3141103e-38
0.029754287 0.0065314285 0.76200002 1.9002023e-38
0.031205716 0.0065314285 0.76200002 1.7526893e-38
0.032657143 0.0065314285 0.76200002 1.5226293e-38
0.034063812 0.0065228576 0.76100004 1.614825e-38
0.035513334 0.0065228576 0.76100004 1.8165801e-38
0.037205715 0.0065657143 0.76600003 1.8257997e-38
0.038664766 0.0065657143 0.76600003 1.6051035e-38
0.04017619 0.0065742861 0.76700002 1.2178818e-38
0.041854288 0.0066085714 0.77100003 1.0987828e-38
0.043322857 0.0066085714 0.77100003 1.2555154e-38
0.044965718 0.0066342861 0.77400005 1.7610434e-38
0.046440005 0.0066342861 0.77400005 1.8901173e-38
0.047914285 0.0066342861 0.77400005 1.6964715e-38
0.049643811 0.0066685718 0.77800006 1.0603216e-38
0.051125716 0.0066685718 0.77800006 1.1251792e-38
-0.028897146 0.008150477 0.77800006 1.1157791e-38
-0.027415238 0.008150477 0.77800006 1.2725117e-38
-0.025866667 0.0081295241 0.77600002 1.5398803e-38
-0.024388572 0.0081295241 0.77600002 1.5859781e-38
-0.02285143 0.0081085721 0.77400005 1.3193676e-38
-0.021294286 0.0080771428 0.77100003 1.1534155e-38
-0.019774286 0.0080561908 0.76900005 1.1721793e-38
-0.018261906 0.0080352379 0.76700002 1.347351e-38
-0.016779048 0.0080247624 0.76600003 1.6875022e-38
-0.015280001 0.0080038095 0.76400006 1.8442348e-38
-0.013824763 0.0080038095 0.76400006 1.7061189e-38
-0.012369525 0.0080038095 0.76400006 1.4203124e-38
-0.010885715 0.0079828566 0.76200002 1.3745433e-38
-0.0094219055 0.0079723811 0.76100004 1.3468846e-38
-0.0079723811 0.0079723811 0.76100004 1.6873598e-38
-0.0065228576 0.0079723811 0.76100004 2.0653619e-38
-0.0050733336 0.0079723811 0.76100004 2.2127301e-38
-0.0036238097 0.0079723811 0.76100004 2.2496084e-38
-0.0024028572 0.0088104764 0.84100002 2.1851443e-38
-0.00080095237 0.0088104764 0.84100002 2.0468509e-38
0.00080285716 0.0088314293 0.84300005 2.2312412e-38
0.0024085718 0.0088314293 0.84300005 2.3326205e-38
0.0040142857 0.0088314293 0.84300005 2.341769e-38
0.0056200004 0.0088314293 0.84300005 2.341769e-38
0.0072257146 0.0088314293 0.84300005 2.341769e-38
0.0088523813 0.0088523813 0.84500003 2.341769e-38
0.010461905 0.0088523813 0.84500003 2.341769e-38
0.012071429 0.0088523813 0.84500003 2.341769e-38
0.013680953 0.0088523813 0.84500003 2.341769e-38
0.015254286 0.0088314293 0.84300005 2.341769e-38
0.016860001 0.0088314293 0.84300005 2.341769e-38
0.018465716 0.0088314293 0.84300005 2.341769e-38
0.02002381 0.0088104764 0.84100002 2.3141106e-38
0.019465715 0.0079304771 0.75700003 2.2403541e-38
0.02090762 0.0079304771 0.75700003 2.0744017e-38
0.022408573 0.0079514291 0.75900006 2.0559625e-38
0.023917144 0.0079723811 0.76100004 2.1112799e-38
0.0254 0.0079828566 0.76200002 2.1758169e-38
0.026851429 0.0079828566 0.76200002 2.1573777e-38
0.028302858 0.0079828566 0.76200002 1.8623517e-38
0.029754287 0.0079828566 0.76200002 1.6604524e-38
0.031205716 0.0079828566 0.76200002 1.6604524e-38
0.032657143 0.0079828566 0.76200002 1.6143573e-38
0.034108575 0.0079828566 0.76200002 1.8725051e-38
0.035560001 0.0079828566 0.76200002 2.0102244e-38
0.037205715 0.0080247624 0.76600003 1.8350527e-38
0.038664766 0.0080247624 0.76600003 1.5316356e-38
0.04017619 0.0080352379 0.76700002 1.3103661e-38
0.041854288 0.0080771428 0.77100003 1.1725781e-38
0.043435238 0.0080980957 0.77300006 1.1356999e-38
0.044965718 0.0081085721 0.77400005 1.5127251e-38
0.046560001 0.0081295241 0.77600002 1.6694577e-38
0.048038095 0.0081295241 0.77600002 1.5862289e-38
0.049643811 0.008150477 0.77800006 1.0330552e-38
0.051125716 0.008150477 0.77800006 1.1436208e-38
0.052607622 0.008150477 0.77800006 1.4755251e-38
-0.028897146 0.0096323816 0.77800006 1.2444214e-38
-0.027415238 0.0096323816 0.77800006 1.3181779e-38
-0.025933335 0.0096323816 0.77800006 1.4015884e-38
-0.024388572 0.0096076196 0.77600002 1.4200275e-38
-0.02285143 0.0095828576 0.77400005 1.1445569e-38
-0.021349525 0.0095704766 0.77300006 1.1261178e-38
-0.019825716 0.0095457146 0.77100003 1.1081831e-38
-0.018309526 0.0095209526 0.76900005 1.1727201e-38
-0.016800953 0.0094961906 0.76700002 1.5127989e-38
-0.01532 0.0094838096 0.76600003 1.8354836e-38
-0.013860953 0.0094838096 0.76600003 1.6971912e-38
-0.012369525 0.0094590485 0.76400006 1.4390434e-38
-0.010914287 0.0094590485 0.76400006 1.3846243e-38
-0.0094342856 0.0094342856 0.76200002 1.412283e-38
-0.0079828566 0.0094342856 0.76200002 1.6324375e-38
-0.0065314285 0.0094342856 0.76200002 1.9920004e-38
-0.0050733336 0.0094219055 0.76100004 2.0745815e-38
-0.0036238097 0.0094219055 0.76100004 1.9547271e-38
-0.0021742857 0.0094219055 0.76100004 1.7983896e-38
-0.00072285719 0.0093971435 0.75900006 1.6139983e-38
0.00072285719 0.0093971435 0.75900006 1.7431416e-38
0.0021685716 0.0093971435 0.75900006 2.0197285e-38
0.003604762 0.0093723815 0.75700003 2.3232933e-38
0.0050466671 0.0093723815 0.75700003 2.350952e-38
0.0072257146 0.010437143 0.84300005 2.1576301e-38
0.0079095243 0.0093476195 0.75500005 2.0377758e-38
0.0093352385 0.0093352385 0.75400001 2.0286266e-38
0.010771429 0.0093352385 0.75400001 2.0286266e-38
0.012207619 0.0093352385 0.75400001 2.0747244e-38
0.01364381 0.0093352385 0.75400001 2.2130178e-38
0.01508 0.0093352385 0.75400001 2.2220589e-38
0.016538097 0.0093476195 0.75500005 2.2958154e-38
0.017976193 0.0093476195 0.75500005 2.2496815e-38
0.019465715 0.0093723815 0.75700003 1.8071425e-38
0.02090762 0.0093723815 0.75700003 1.7147656e-38
0.022408573 0.0093971435 0.75900006 1.6871069e-38
0.023917144 0.0094219055 0.76100004 1.8808609e-38
0.0254 0.0094342856 0.76200002 2.0744717e-38
0.026851429 0.0094342856 0.76200002 2.2402819e-38
0.028302858 0.0094342856 0.76200002 2.0190124e-38
0.029754287 0.0094342856 0.76200002 1.8535259e-38
0.031205716 0.0094342856 0.76200002 1.7797694e-38
0.032657143 0.0094342856 0.76200002 1.6970097e-38
0.034198094 0.0094590485 0.76400006 2.0565727e-38
0.035653338 0.0094590485 0.76400006 2.1576301e-38
0.037254285 0.0094961906 0.76700002 1.696652e-38
0.03871524 0.0094961906 0.76700002 1.3934869e-38
0.04017619 0.0094961906 0.76700002 1.2920717e-38
0.041854288 0.0095457146 0.77100003 1.154462e-38
0.043435238 0.0095704766 0.77300006 1.0714859e-38
0.044965718 0.0095828576 0.77400005 1.2643036e-38
0.046560001 0.0096076196 0.77600002 1.4763536e-38
0.048038095 0.0096076196 0.77600002 1.365179e-38
0.049643811 0.0096323816 0.77800006 1.0148356e-38
0.051125716 0.0096323816 0.77800006 1.2080126e-38
0.052607622 0.0096323816 0.77800006 1.5122582e-38
-0.02897143 0.011142857 0.78000003 1.1985785e-38
-0.027485715 0.011142857 0.78000003 1.1709198e-38
-0.026000001 0.011142857 0.78000003 1.2452864e-38
-0.024451429 0.011114286 0.77800006 1.3559212e-38
-0.022910476 0.011085714 0.77600002 1.1722169e-38
-0.021377144 0.011057143 0.77400005 1.2275342e-38
-0.019825716 0.011014286 0.77100003 1.1634292e-38
-0.018309526 0.010985715 0.76900005 1.209527e-38
-0.016844762 0.010985715 0.76900005 1.3841229e-38
-0.01534 0.010957143 0.76700002 1.7068076e-38
-0.013860953 0.010942858 0.76600003 1.8536382e-38
-0.012401905 0.010942858 0.76600003 1.8720773e-38
-0.010914287 0.010914287 0.76400006 2.0196929e-38
-0.0094590485 0.010914287 0.76400006 2.1764254e-38
-0.0079828566 0.010885715 0.76200002 2.2129472e-38
-0.0065314285 0.010885715 0.76200002 2.2682646e-38
-0.0050733336 0.010871429 0.76100004 2.056466e-38
-0.0036238097 0.010871429 0.76100004 1.5309509e-38
-0.0021742857 0.010871429 0.76100004 7.4952218e-39
-0.00072285719 0.010842858 0.75900006 5.0059398e-39
0.00072285719 0.010842858 0.75900006 9.4248238e-39
0.0021685716 0.010842858 0.75900006 1.5601931e-38
0.003604762 0.010814286 0.75700003 2.1113518e-38
0.0050466671 0.010814286 0.75700003 2.3326213e-38
0.006471429 0.010785715 0.75500005 2.2957431e-38
0.0079095243 0.010785715 0.75500005 1.9638388e-38
0.0093352385 0.010771429 0.75400001 1.8352316e-38
0.010771429 0.010771429 0.75400001 1.7522555e-38
0.012207619 0.010771429 0.75400001 2.0562127e-38
0.01364381 0.010771429 0.75400001 2.3142528e-38
0.01508 0.010771429 0.75400001 2.341769e-38
0.016538097 0.010785715 0.75500005 2.341769e-38
0.017976193 0.010785715 0.75500005 2.2957781e-38
0.019465715 0.010814286 0.75700003 1.6135304e-38
0.02090762 0.010814286 0.75700003 1.2912448e-38
0.022467621 0.010871429 0.76100004 1.3004644e-38
0.023917144 0.010871429 0.76100004 1.5675758e-38
0.0254 0.010885715 0.76200002 2.0193344e-38
0.026851429 0.010885715 0.76200002 2.2679762e-38
0.028302858 0.010885715 0.76200002 2.3509523e-38
0.029754287 0.010885715 0.76200002 2.3326201e-38
0.031287622 0.010914287 0.76400006 2.2404244e-38
0.032742858 0.010914287 0.76400006 2.2221295e-38
0.034198094 0.010914287 0.76400006 2.1207143e-38
0.035746668 0.010942858 0.76600003 1.9551219e-38
0.037254285 0.010957143 0.76700002 1.531022e-38
0.03871524 0.010957143 0.76700002 1.2648819e-38
0.040280953 0.010985715 0.76900005 1.2280037e-38
0.041962862 0.011042858 0.77300006 1.154498e-38
0.043435238 0.011042858 0.77300006 1.0623024e-38
0.045081906 0.011085714 0.77600002 1.3378816e-38
0.046560001 0.011085714 0.77600002 1.5314924e-38
0.048038095 0.011085714 0.77600002 1.4110973e-38
0.049643811 0.011114286 0.77800006 1.0330952e-38
0.051125716 0.011114286 0.77800006 1.2174129e-38
-0.029008573 0.012644762 0.78100002 1.2263426e-38
-0.027520953 0.012644762 0.78100002 1.217123e-38
-0.026033334 0.012644762 0.78100002 1.217629e-38
-0.024514288 0.012628571 0.78000003 1.3282638e-38
-0.022969525 0.012596191 0.77800006 1.153813e-38
-0.021377144 0.01253143 0.77400005 1.21835e-38
-0.019877145 0.012515238 0.77300006 1.1450263e-38
-0.018357145 0.012482857 0.77100003 1.2095633e-38
-0.016844762 0.012450477 0.76900005 1.2371143e-38
-0.01534 0.012418096 0.76700002 1.4399447e-38
-0.013879048 0.012418096 0.76700002 1.8259416e-38
-0.012401905 0.012401905 0.76600003 2.1025285e-38
-0.010942858 0.012401905 0.76600003 2.14841e-38
-0.0094838096 0.012401905 0.76600003 2.1852882e-38
-0.0080038095 0.012369525 0.76400006 2.1945081e-38
-0.0065314285 0.012337144 0.76200002 2.176069e-38
-0.00508 0.012337144 0.76200002 1.7070237e-38
-0.0036285715 0.012337144 0.76200002 1.0985325e-38
-0.0021742857 0.012320952 0.76100004 4.0998111e-39
-0.00072476192 0.012320952 0.76100004 3.8232243e-39
0.00072476192 0.012320952 0.76100004 7.5005621e-39
0.0021742857 0.012320952 0.76100004 1.1188387e-38
0.003614286 0.012288572 0.75900006 1.9272459e-38
0.0050466671 0.012256191 0.75700003 2.2775175e-38
0.006471429 0.01222381 0.75500005 2.341769e-38
0.0079095243 0.01222381 0.75500005 2.1481582e-38
0.0093476195 0.01222381 0.75500005 2.0010039e-38
0.010785715 0.01222381 0.75500005 1.9917843e-38
0.01222381 0.01222381 0.75500005 2.2403888e-38
0.013661906 0.01222381 0.75500005 2.341804e-38
0.015100001 0.01222381 0.75500005 2.341769e-38
0.016581906 0.012256191 0.75700003 2.341769e-38
0.018023811 0.012256191 0.75700003 2.0378471e-38
0.019517144 0.012288572 0.75900006 1.512332e-38
0.020962859 0.012288572 0.75900006 1.411025e-38
0.022467621 0.012320952 0.76100004 1.4294641e-38
0.023948571 0.012337144 0.76200002 1.4568679e-38
0.0254 0.012337144 0.76200002 1.6781374e-38
0.026851429 0.012337144 0.76200002 1.972805e-38
0.028302858 0.012337144 0.76200002 2.2862702e-38
0.029754287 0.012337144 0.76200002 2.341804e-38
0.031287622 0.012369525 0.76400006 2.341804e-38
0.032742858 0.012369525 0.76400006 2.2774842e-38
0.03428762 0.012401905 0.76600003 1.9179212e-38
0.035746668 0.012401905 0.76600003 1.6053202e-38
0.037254285 0.012418096 0.76700002 1.3748312e-38
0.038816195 0.012450477 0.76900005 1.2282911e-38
0.040385716 0.012482857 0.77100003 1.2006324e-38
0.041962862 0.012515238 0.77300006 1.1820485e-38
0.043491431 0.01253143 0.77400005 1.0714137e-38
0.045081906 0.01256381 0.77600002 1.3562481e-38
0.046680003 0.012596191 0.77800006 1.5590785e-38
0.048161909 0.012596191 0.77800006 1.3928027e-38
0.049643811 0.012596191 0.77800006 1.0793375e-38
0.051125716 0.012596191 0.77800006 1.2634026e-38
-0.030808574 0.014277143 0.78900003 1.5763635e-38
-0.029082859 0.014168572 0.78300005 1.300207e-38
-0.027591432 0.014168572 0.78300005 1.2817678e-38
-0.026100002 0.014168572 0.78300005 1.309719e-38
-0.024545714 0.014132381 0.78100002 1.4664516e-38
-0.023028571 0.014114286 0.78000003 1.2828143e-38
-0.021432383 0.014041905 0.77600002 1.227497e-38
-0.019902857 0.014005715 0.77400005 1.1634292e-38
-0.018357145 0.013951428 0.77100003 1.2556248e-38
-0.016888572 0.013951428 0.77100003 1.228039e-38
-0.015380002 0.013915239 0.76900005 1.2741368e-38
-0.013879048 0.013879048 0.76700002 1.4669557e-38
-0.012418096 0.013879048 0.76700002 1.9740317e-38
-0.010942858 0.013860953 0.76600003 2.2129469e-38
-0.0094838096 0.013860953 0.76600003 2.1852882e-38
-0.0080038095 0.013824763 0.76400006 1.8538171e-38
-0.0065485719 0.013824763 0.76400006 1.245326e-38
-0.00508 0.013788572 0.76200002 7.4069722e-39
-0.0036285715 0.013788572 0.76200002 7.4991678e-39
-0.0021742857 0.013770477 0.76100004 7.2276368e-39
-0.00072476192 0.013770477 0.76100004 7.5042237e-39
0.00072476192 0.013770477 0.76100004 8.6973579e-39
0.0021742857 0.013770477 0.76100004 8.420771e-39
0.003614286 0.013734287 0.75900006 1.3847243e-38
0.0050600008 0.013734287 0.75900006 1.6981895e-38
0.0064885714 0.013698095 0.75700003 2.1852162e-38
0.0079304771 0.013698095 0.75700003 2.3142542e-38
0.0093723815 0.013698095 0.75700003 2.341769e-38
0.010814286 0.013698095 0.75700003 2.341769e-38
0.012288572 0.013734287 0.75900006 2.3417687e-38
0.013698095 0.013698095 0.75700003 2.3417687e-38
0.01514 0.013698095 0.75700003 2.2680125e-38
0.016581906 0.013698095 0.75700003 1.6503018e-38
0.01807143 0.013734287 0.75900006 1.4939279e-38
0.019517144 0.013734287 0.75900006 1.5123671e-38
0.021018095 0.013770477 0.76100004 1.5215529e-38
0.022497144 0.013788572 0.76200002 1.5307724e-38
0.023948571 0.013788572 0.76200002 1.4753469e-38
0.0254 0.013788572 0.76200002 1.3554925e-38
0.026851429 0.013788572 0.76200002 1.4383219e-38
0.028377144 0.013824763 0.76400006 1.7610066e-38
0.029832384 0.013824763 0.76400006 2.1849973e-38
0.031287622 0.013824763 0.76400006 2.3509855e-38
0.032742858 0.013824763 0.76400006 2.2681204e-38
0.03428762 0.013860953 0.76600003 1.7057271e-38
0.035793334 0.013879048 0.76700002 1.2372961e-38
0.037351429 0.013915239 0.76900005 1.2557352e-38
0.038917147 0.013951428 0.77100003 1.2558779e-38
0.040490478 0.01398762 0.77300006 1.2282192e-38
0.042017147 0.014005715 0.77400005 1.1636106e-38
0.043603808 0.014041905 0.77600002 1.1267324e-38
0.045081906 0.014041905 0.77600002 1.5312741e-38
0.046680003 0.014078096 0.77800006 1.7525436e-38
0.048161909 0.014078096 0.77800006 1.7057621e-38
0.049643811 0.014078096 0.77800006 1.3001013e-38
-0.030808574 0.01578 0.78900003 1.5948026e-38
-0.029157145 0.015700001 0.78500003 1.3738559e-38
-0.027661905 0.015700001 0.78500003 1.3830754e-38
-0.026100002 0.015660001 0.78300005 1.457085e-38
-0.024545714 0.015620001 0.78100002 1.5400611e-38
-0.023028571 0.015600001 0.78000003 1.3195491e-38
-0.021432383 0.015520001 0.77600002 1.2273535e-38
-0.019902857 0.015480001 0.77400005 1.1542449e-38
-0.018404763 0.015460001 0.77300006 1.2648797e-38
-0.016932381 0.015460001 0.77300006 1.209744e-38
-0.01542 0.01542 0.77100003 1.2189636e-38
-0.013915239 0.015380002 0.76900005 1.3108693e-38
-0.012450477 0.015380002 0.76900005 1.7902866e-38
-0.010957143 0.01534 0.76700002 2.1945093e-38
-0.0094961906 0.01534 0.76700002 2.139192e-38
-0.0080247624 0.01532 0.76600003 1.4494862e-38
-0.0065485719 0.015280001 0.76400006 7.211407e-39
-0.00508 0.015240001 0.76200002 4.0076295e-39
-0.0036285715 0.015240001 0.76200002 6.2203246e-39
-0.0021771428 0.015240001 0.76200002 8.4222101e-39
-0.00072571432 0.015240001 0.76200002 8.6066014e-39
0.00072476192 0.01522 0.76100004 7.5964124e-39
0.0021742857 0.01522 0.76100004 6.8588473e-39
0.0036238097 0.01522 0.76100004 6.3092314e-39
0.0050733336 0.01522 0.76100004 8.3375353e-39
0.0065057147 0.015180001 0.75900006 1.8260107e-38
0.0079514291 0.015180001 0.75900006 2.2683345e-38
0.0093971435 0.015180001 0.75900006 2.341769e-38
0.010842858 0.015180001 0.75900006 2.341769e-38
0.012288572 0.015180001 0.75900006 2.341769e-38
0.013734287 0.015180001 0.75900006 2.194256e-38
0.015180001 0.015180001 0.75900006 1.8994098e-38
0.016625715 0.015180001 0.75900006 1.4107729e-38
0.018119048 0.01522 0.76100004 1.4292841e-38
0.019568572 0.01522 0.76100004 1.558358e-38
0.021018095 0.01522 0.76100004 1.5491752e-38
0.022497144 0.015240001 0.76200002 1.5491752e-38
0.023948571 0.015240001 0.76200002 1.5030411e-38
0.0254 0.015240001 0.76200002 1.4292846e-38
0.026921906 0.015280001 0.76400006 1.2637243e-38
0.028377144 0.015280001 0.76400006 1.3282612e-38
0.029832384 0.015280001 0.76400006 1.8992637e-38
0.031287622 0.015280001 0.76400006 2.3509865e-38
0.032828573 0.01532 0.76600003 2.1670665e-38
0.03433238 0.01534 0.76700002 1.5585753e-38
0.035886671 0.015380002 0.76900005 1.1822651e-38
0.037448574 0.01542 0.77100003 1.2375825e-38
0.038917147 0.01542 0.77100003 1.2559135e-38
0.040490478 0.015460001 0.77300006 1.2190352e-38
0.042017147 0.015480001 0.77400005 1.1636099e-38
0.043603808 0.015520001 0.77600002 1.2097078e-38
