# .PCD v0.7 - Point Cloud Data file format
VERSION 0.7
FIELDS x y z rgb
SIZE 4 4 4 4
TYPE F F F F
COUNT 1 1 1 1
WIDTH 963
HEIGHT 1
VIEWPOINT 0 0 0 1 0 0 0
POINTS 963
DATA ascii
-0.020686667 0.020686667 0.74900001 8.1510351e-39
-0.019285716 0.020714287 0.75000006 6.4940319e-39
-0.017857144 0.020714287 0.75000006 4.0969455e-39
-0.016472382 0.020769523 0.75200003 8.1441183e-39
-0.015040001 0.020769523 0.75200003 1.3952443e-38
-0.01364381 0.020824762 0.75400001 2.27734e-38
-0.012207619 0.020824762 0.75400001 2.3234378e-38
-0.010785715 0.020852383 0.75500005 2.0745449e-38
-0.0093476195 0.020852383 0.75500005 1.2355647e-38
-0.0079514291 0.020962859 0.75900006 1.1622047e-38
-0.0065057147 0.020962859 0.75900006 1.2636199e-38
-0.0050600008 0.020962859 0.75900006 1.2542206e-38
-0.0036285715 0.021045715 0.76200002 1.1528054e-38
-0.0021971429 0.02123905 0.76900005 1.1804287e-38
-0.00073238101 0.02123905 0.76900005 1.7059438e-38
0.00073619053 0.021349525 0.77300006 1.8072862e-38
0.0022114285 0.021377144 0.77400005 1.705871e-38
-0.077100001 0.022762857 0.77100003 9.8699645e-39
-0.075435244 0.02270381 0.76900005 3.6200934e-39
-0.073681906 0.022615239 0.76600003 8.7830487e-39
-0.072222859 0.022615239 0.76600003 1.4204964e-38
-0.070394285 0.022497144 0.76200002 1.3928377e-38
-0.068852387 0.022467621 0.76100004 1.1620262e-38
-0.067402862 0.022467621 0.76100004 1.0882697e-38
-0.065780006 0.022408573 0.75900006 1.1435518e-38
-0.064334288 0.022408573 0.75900006 1.2265278e-38
-0.062722854 0.022349525 0.75700003 1.1990477e-38
-0.061280955 0.022349525 0.75700003 1.1621694e-38
-0.059680957 0.022290478 0.75500005 1.1802483e-38
-0.058011431 0.022201905 0.75200003 1.6227873e-38
-0.05657905 0.022201905 0.75200003 2.0282663e-38
-0.055000003 0.022142859 0.75000006 2.350987e-38
-0.0535 0.022113333 0.74900001 2.3326213e-38
-0.052073333 0.022113333 0.74900001 2.1666692e-38
-0.050646666 0.022113333 0.74900001 1.7526568e-38
-0.049088575 0.022054287 0.74700004 1.6604612e-38
-0.047665719 0.022054287 0.74700004 1.5048064e-38
-0.046242859 0.022054287 0.74700004 1.5785629e-38
-0.044819999 0.022054287 0.74700004 1.5509773e-38
-0.043397143 0.022054287 0.74700004 1.5601969e-38
-0.041974287 0.022054287 0.74700004 1.6060786e-38
-0.040497147 0.022024764 0.74600005 1.6245177e-38
-0.039076194 0.022024764 0.74600005 1.9277156e-38
-0.037655238 0.022024764 0.74600005 2.0844481e-38
-0.036234286 0.022024764 0.74600005 2.2773402e-38
-0.034813333 0.022024764 0.74600005 2.3234379e-38
-0.033392385 0.022024764 0.74600005 2.341769e-38
-0.031971432 0.022024764 0.74600005 2.341769e-38
-0.030550478 0.022024764 0.74600005 2.3326213e-38
-0.029129526 0.022024764 0.74600005 1.9730584e-38
-0.027745714 0.022054287 0.74700004 1.2099635e-38
-0.026393333 0.022113333 0.74900001 9.5181573e-39
-0.024966666 0.022113333 0.74900001 7.414898e-39
-0.023540001 0.022113333 0.74900001 8.0602674e-39
-0.022113333 0.022113333 0.74900001 8.6102154e-39
-0.020686667 0.022113333 0.74900001 8.702411e-39
-0.019337144 0.022201905 0.75200003 8.425464e-39
-0.017904762 0.022201905 0.75200003 7.2269208e-39
-0.016516192 0.022260953 0.75400001 6.6744589e-39
-0.01508 0.022260953 0.75400001 8.6105671e-39
-0.01364381 0.022260953 0.75400001 2.0012528e-38
-0.01222381 0.022290478 0.75500005 2.185644e-38
-0.010785715 0.022290478 0.75500005 2.0283389e-38
-0.0093723815 0.022349525 0.75700003 1.2538956e-38
-0.0079514291 0.022408573 0.75900006 1.1806804e-38
-0.0065228576 0.022467621 0.76100004 1.2267782e-38
-0.0050733336 0.022467621 0.76100004 1.2632619e-38
-0.0036285715 0.022497144 0.76200002 1.3185793e-38
-0.0021971429 0.02270381 0.76900005 1.3648218e-38
-0.00073238101 0.02270381 0.76900005 1.6598478e-38
0.00073428574 0.022762857 0.77100003 1.6598798e-38
0.0022085716 0.022821905 0.77300006 1.6875385e-38
-0.077100001 0.024231428 0.77100003 1.1157819e-38
-0.075435244 0.024168573 0.76900005 7.1119372e-39
-0.073681906 0.024074288 0.76600003 1.2643675e-38
-0.072222859 0.024074288 0.76600003 1.5493548e-38
-0.070394285 0.023948571 0.76200002 1.5493548e-38
-0.068942852 0.023948571 0.76200002 1.3003209e-38
-0.067402862 0.023917144 0.76100004 1.0698318e-38
-0.065953337 0.023917144 0.76100004 1.0791931e-38
-0.064334288 0.023854287 0.75900006 1.2174865e-38
-0.062888578 0.023854287 0.75900006 1.235818e-38
-0.061280955 0.023791429 0.75700003 1.235818e-38
-0.059680957 0.023728572 0.75500005 1.1804265e-38
-0.058165714 0.023697143 0.75400001 1.2357439e-38
-0.05657905 0.023634287 0.75200003 1.8162151e-38
-0.055000003 0.02357143 0.75000006 2.3509859e-38
-0.053571433 0.02357143 0.75000006 2.3050705e-38
-0.052142859 0.02357143 0.75000006 1.936288e-38
-0.050714288 0.02357143 0.75000006 1.6055729e-38
-0.049219999 0.023540001 0.74900001 1.5871338e-38
-0.047793336 0.023540001 0.74900001 1.4772919e-38
-0.046242859 0.023477143 0.74700004 1.5326092e-38
-0.044819999 0.023477143 0.74700004 1.5509407e-38
-0.043397143 0.023477143 0.74700004 1.5785994e-38
-0.041974287 0.023477143 0.74700004 1.5417942e-38
-0.040551431 0.023477143 0.74700004 1.5602333e-38
-0.039076194 0.023445716 0.74600005 1.5235319e-38
-0.037655238 0.023445716 0.74600005 1.5696297e-38
-0.036234286 0.023445716 0.74600005 2.1208598e-38
-0.034813333 0.023445716 0.74600005 2.2775202e-38
-0.033392385 0.023445716 0.74600005 2.341769e-38
-0.031971432 0.023445716 0.74600005 2.341769e-38
-0.030550478 0.023445716 0.74600005 2.3050705e-38
-0.029168572 0.023477143 0.74700004 1.4476512e-38
-0.02782 0.023540001 0.74900001 8.4204179e-39
-0.026393333 0.023540001 0.74900001 8.6048091e-39
-0.024966666 0.023540001 0.74900001 8.0595555e-39
-0.023540001 0.023540001 0.74900001 8.428338e-39
-0.022142859 0.02357143 0.75000006 8.6102154e-39
-0.020714287 0.02357143 0.75000006 8.702411e-39
-0.019337144 0.023634287 0.75200003 8.5176596e-39
-0.017952381 0.023697143 0.75400001 7.5035077e-39
-0.016516192 0.023697143 0.75400001 3.0003243e-39
-0.015100001 0.023728572 0.75500005 6.2271714e-39
-0.013661906 0.023728572 0.75500005 1.7801319e-38
-0.01222381 0.023728572 0.75500005 2.1396949e-38
-0.010814286 0.023791429 0.75700003 1.9455809e-38
-0.0093971435 0.023854287 0.75900006 1.2633332e-38
-0.0079514291 0.023854287 0.75900006 1.1438725e-38
-0.0065228576 0.023917144 0.76100004 1.1899703e-38
-0.0050733336 0.023917144 0.76100004 1.189754e-38
-0.0036285715 0.023948571 0.76200002 1.4386822e-38
-0.0021914286 0.024105715 0.76700002 1.5952406e-38
-0.00073047623 0.024105715 0.76700002 1.3831906e-38
0.00073428574 0.024231428 0.77100003 1.3649911e-38
0.0022028573 0.024231428 0.77100003 1.7153345e-38
-0.077100001 0.025700001 0.77100003 1.3185758e-38
-0.075435244 0.025633333 0.76900005 1.2544338e-38
-0.0737781 0.025566667 0.76700002 1.5586794e-38
-0.072222859 0.025533335 0.76600003 1.6689207e-38
-0.070579059 0.025466667 0.76400006 1.7795554e-38
-0.068942852 0.0254 0.76200002 1.5676516e-38
-0.067491435 0.0254 0.76200002 1.0513561e-38
-0.065953337 0.025366668 0.76100004 1.0056161e-38
-0.064503811 0.025366668 0.76100004 1.1623486e-38
-0.062888578 0.025300002 0.75900006 1.2265266e-38
-0.061442863 0.025300002 0.75900006 1.2726244e-38
-0.059839047 0.025233334 0.75700003 1.1529864e-38
-0.058165714 0.025133332 0.75400001 1.0607908e-38
-0.056729525 0.025133332 0.75400001 1.5309484e-38
-0.055146668 0.025066668 0.75200003 2.2775178e-38
-0.053714287 0.025066668 0.75200003 2.2774842e-38
-0.052142859 0.025000002 0.75000006 1.816506e-38
-0.050714288 0.025000002 0.75000006 1.458672e-38
-0.049285717 0.025000002 0.75000006 1.5139893e-38
-0.047857147 0.025000002 0.75000006 1.5049511e-38
-0.046366669 0.024966666 0.74900001 1.5694881e-38
-0.044939999 0.024966666 0.74900001 1.5877827e-38
-0.043513332 0.024966666 0.74900001 1.5877827e-38
-0.042086668 0.024966666 0.74900001 1.5602333e-38
-0.040551431 0.024900001 0.74700004 1.5971116e-38
-0.039128575 0.024900001 0.74700004 1.5971465e-38
-0.037705716 0.024900001 0.74700004 1.5602682e-38
-0.036282856 0.024900001 0.74700004 1.835701e-38
-0.03486 0.024900001 0.74700004 2.1673176e-38
-0.033437144 0.024900001 0.74700004 2.3326213e-38
-0.032014288 0.024900001 0.74700004 2.3326213e-38
-0.03059143 0.024900001 0.74700004 2.1855399e-38
-0.029168572 0.024900001 0.74700004 1.106851e-38
-0.02782 0.024966666 0.74900001 3.5535107e-39
-0.026393333 0.024966666 0.74900001 6.0427927e-39
-0.024966666 0.024966666 0.74900001 8.6112944e-39
-0.02357143 0.025000002 0.75000006 8.70349e-39
-0.022142859 0.025000002 0.75000006 8.6102154e-39
-0.020714287 0.025000002 0.75000006 8.6102154e-39
-0.019337144 0.025066668 0.75200003 7.9659306e-39
-0.017952381 0.025133332 0.75400001 6.3986048e-39
-0.016516192 0.025133332 0.75400001 5.38805e-39
-0.015100001 0.025166668 0.75500005 1.0827592e-38
-0.013661906 0.025166668 0.75500005 2.0840894e-38
-0.01222381 0.025166668 0.75500005 2.2591531e-38
-0.010814286 0.025233334 0.75700003 2.2313137e-38
-0.0093971435 0.025300002 0.75900006 1.2816988e-38
-0.0079514291 0.025300002 0.75900006 8.1279963e-39
-0.0065228576 0.025366668 0.76100004 9.0499526e-39
-0.0050733336 0.025366668 0.76100004 1.1989044e-38
-0.0036285715 0.0254 0.76200002 1.7520782e-38
-0.0021914286 0.025566667 0.76700002 1.6694259e-38
-0.00073047623 0.025566667 0.76700002 8.2122606e-39
0.00073428574 0.025700001 0.77100003 7.944649e-39
0.0022028573 0.025700001 0.77100003 1.4490539e-38
0.0036952381 0.025866667 0.77600002 1.8439466e-38
-0.077300005 0.027239049 0.77300006 1.4105553e-38
-0.075631432 0.027168572 0.77100003 1.4382493e-38
-0.073970482 0.027098097 0.76900005 1.6779579e-38
-0.072222859 0.026992382 0.76600003 1.6504084e-38
-0.070579059 0.026921906 0.76400006 1.7149454e-38
-0.068942852 0.026851429 0.76200002 1.6231491e-38
-0.067491435 0.026851429 0.76200002 1.2820253e-38
-0.065953337 0.026816191 0.76100004 1.0149814e-38
-0.064503811 0.026816191 0.76100004 1.0979574e-38
-0.063054286 0.026816191 0.76100004 1.2264543e-38
-0.061442863 0.026745716 0.75900006 1.2725521e-38
-0.059997149 0.026745716 0.75900006 1.0795168e-38
-0.058242857 0.026604762 0.75500005 1.0426385e-38
-0.056729525 0.026569525 0.75400001 1.4847449e-38
-0.055146668 0.026499048 0.75200003 2.2775197e-38
-0.053714287 0.026499048 0.75200003 2.2499336e-38
-0.052281909 0.026499048 0.75200003 1.8258337e-38
-0.050849527 0.026499048 0.75200003 1.3206312e-38
-0.049285717 0.026428573 0.75000006 1.4497051e-38
-0.047857147 0.026428573 0.75000006 1.477364e-38
-0.046428576 0.026428573 0.75000006 1.541901e-38
-0.045000002 0.026428573 0.75000006 1.5694515e-38
-0.043571431 0.026428573 0.75000006 1.578671e-38
-0.042086668 0.026393333 0.74900001 1.5694164e-38
-0.040660001 0.026393333 0.74900001 1.6155143e-38
-0.039233334 0.026393333 0.74900001 1.6063663e-38
-0.037705716 0.026322858 0.74700004 1.5326098e-38
-0.036282856 0.026322858 0.74700004 1.6150796e-38
-0.03486 0.026322858 0.74700004 1.9560958e-38
-0.033437144 0.026322858 0.74700004 2.2867037e-38
-0.032014288 0.026322858 0.74700004 2.2958873e-38
-0.03059143 0.026322858 0.74700004 2.0199134e-38
-0.029168572 0.026322858 0.74700004 1.0887376e-38
-0.02782 0.026393333 0.74900001 2.5440307e-39
-0.026428573 0.026428573 0.75000006 5.4942909e-39
-0.025000002 0.026428573 0.75000006 8.7949696e-39
-0.02357143 0.026428573 0.75000006 8.7027739e-39
-0.022142859 0.026428573 0.75000006 8.2428776e-39
-0.020769523 0.026499048 0.75200003 8.2428776e-39
-0.019388571 0.026569525 0.75400001 7.5053125e-39
-0.017952381 0.026569525 0.75400001 5.4770087e-39
-0.016538097 0.026604762 0.75500005 7.0418064e-39
-0.015100001 0.026604762 0.75500005 1.4509648e-38
-0.013698095 0.026675239 0.75700003 2.1761783e-38
-0.012256191 0.026675239 0.75700003 2.2683366e-38
-0.010814286 0.026675239 0.75700003 2.2682649e-38
-0.0093971435 0.026745716 0.75900006 1.6874324e-38
-0.0079723811 0.026816191 0.76100004 1.1812234e-38
-0.0065228576 0.026816191 0.76100004 8.9541697e-39
-0.0050733336 0.026816191 0.76100004 1.16206e-38
-0.0036380955 0.026921906 0.76400006 1.8258685e-38
-0.0021914286 0.02702762 0.76700002 1.7246713e-38
-0.00073238101 0.027098097 0.76900005 6.4598248e-39
0.00073428574 0.027168572 0.77100003 4.7256535e-39
0.0022114285 0.027274288 0.77400005 1.3945216e-38
0.0036952381 0.027344763 0.77600002 1.8071422e-38
-0.075631432 0.028637143 0.77100003 1.438502e-38
-0.073970482 0.028562859 0.76900005 1.4661606e-38
-0.07250572 0.028562859 0.76900005 1.4296043e-38
-0.070579059 0.028377144 0.76400006 1.4664825e-38
-0.068942852 0.028302858 0.76200002 1.6322236e-38
-0.067491435 0.028302858 0.76200002 1.7151997e-38
-0.065953337 0.028265715 0.76100004 1.37415e-38
-0.064503811 0.028265715 0.76100004 1.0422457e-38
-0.063054286 0.028265715 0.76100004 9.8725078e-39
-0.061604768 0.028265715 0.76100004 1.024129e-38
-0.059997149 0.02819143 0.75900006 1.0886628e-38
-0.058397144 0.028117143 0.75700003 1.5404213e-38
-0.056804765 0.028042858 0.75500005 1.6873667e-38
-0.055293337 0.028005714 0.75400001 2.2589737e-38
-0.053714287 0.027931429 0.75200003 2.3050705e-38
-0.052281909 0.027931429 0.75200003 2.1575575e-38
-0.050849527 0.027931429 0.75200003 1.6426695e-38
-0.049417142 0.027931429 0.75200003 1.5228151e-38
-0.047984764 0.027931429 0.75200003 1.3854213e-38
-0.046428576 0.027857145 0.75000006 1.4683974e-38
-0.045000002 0.027857145 0.75000006 1.5693799e-38
-0.043571431 0.027857145 0.75000006 1.5785994e-38
-0.042142861 0.027857145 0.75000006 1.5694525e-38
-0.04071429 0.027857145 0.75000006 1.6155503e-38
-0.039233334 0.02782 0.74900001 1.5971467e-38
-0.037806667 0.02782 0.74900001 1.5418294e-38
-0.03638 0.02782 0.74900001 1.7713808e-38
-0.034953333 0.02782 0.74900001 2.1030327e-38
-0.033526666 0.02782 0.74900001 2.3326213e-38
-0.032100003 0.02782 0.74900001 2.3326213e-38
-0.030673334 0.02782 0.74900001 2.1948323e-38
-0.029246666 0.02782 0.74900001 1.337413e-38
-0.027857145 0.027857145 0.75000006 2.1741944e-39
-0.026428573 0.027857145 0.75000006 4.018107e-39
-0.025066668 0.027931429 0.75200003 7.6922275e-39
-0.023634287 0.027931429 0.75200003 8.1532057e-39
-0.022201905 0.027931429 0.75200003 7.599669e-39
-0.020769523 0.027931429 0.75200003 7.0464952e-39
-0.019388571 0.028005714 0.75400001 6.033788e-39
-0.017976193 0.028042858 0.75500005 7.4167224e-39
-0.016538097 0.028042858 0.75500005 1.4306928e-38
-0.01514 0.028117143 0.75700003 2.0111972e-38
-0.013698095 0.028117143 0.75700003 2.3050705e-38
-0.012256191 0.028117143 0.75700003 2.2589727e-38
-0.010842858 0.02819143 0.75900006 2.2590453e-38
-0.0094219055 0.028265715 0.76100004 2.2774843e-38
-0.0079723811 0.028265715 0.76100004 1.8628971e-38
-0.0065314285 0.028302858 0.76200002 1.3281625e-38
-0.00508 0.028302858 0.76200002 1.3653245e-38
-0.0036380955 0.028377144 0.76400006 1.7709852e-38
-0.0021914286 0.028488571 0.76700002 1.6145709e-38
-0.00073238101 0.028562859 0.76900005 6.188581e-39
0.00073428574 0.028637143 0.77100003 7.3915075e-39
0.0022171428 0.028822856 0.77600002 1.5320332e-38
0.0036952381 0.028822856 0.77600002 1.8071397e-38
-0.075827621 0.030183813 0.77300006 1.392549e-38
-0.074162856 0.030105716 0.77100003 1.2911338e-38
-0.072694287 0.030105716 0.77100003 1.1443379e-38
-0.070763811 0.029910479 0.76600003 1.1812161e-38
-0.069123812 0.029832384 0.76400006 1.6228229e-38
-0.067491435 0.029754287 0.76200002 1.8072141e-38
-0.066040002 0.029754287 0.76200002 1.6872924e-38
-0.064503811 0.02971524 0.76100004 1.1341186e-38
-0.063054286 0.02971524 0.76100004 9.5961998e-39
-0.061604768 0.02971524 0.76100004 1.0886939e-38
-0.059997149 0.029637145 0.75900006 1.2175937e-38
-0.058551431 0.029637145 0.75900006 1.7523284e-38
-0.056955241 0.029559048 0.75700003 2.1386532e-38
-0.055293337 0.029441904 0.75400001 2.3507733e-38
-0.05385714 0.029441904 0.75400001 2.3142538e-38
-0.052281909 0.029363809 0.75200003 2.2865951e-38
-0.050849527 0.029363809 0.75200003 1.9096039e-38
-0.049417142 0.029363809 0.75200003 1.6237975e-38
-0.047984764 0.029363809 0.75200003 1.3302121e-38
-0.046552382 0.029363809 0.75200003 1.4408469e-38
-0.045000002 0.029285716 0.75000006 1.5510121e-38
-0.043571431 0.029285716 0.75000006 1.5694512e-38
-0.042142861 0.029285716 0.75000006 1.6061865e-38
-0.04071429 0.029285716 0.75000006 1.6246256e-38
-0.039285716 0.029285716 0.75000006 1.5511205e-38
-0.037806667 0.029246666 0.74900001 1.5234618e-38
-0.03638 0.029246666 0.74900001 1.872472e-38
-0.035000004 0.029285716 0.75000006 2.1765011e-38
-0.033571433 0.029285716 0.75000006 2.341769e-38
-0.032142859 0.029285716 0.75000006 2.341769e-38
-0.030714288 0.029285716 0.75000006 2.2774842e-38
-0.029285716 0.029285716 0.75000006 1.7704082e-38
-0.027931429 0.029363809 0.75200003 8.5180632e-39
-0.026499048 0.029363809 0.75200003 6.305368e-39
-0.025066668 0.029363809 0.75200003 5.760085e-39
-0.023634287 0.029363809 0.75200003 6.5898457e-39
-0.022260953 0.029441904 0.75400001 6.5876652e-39
-0.020824762 0.029441904 0.75400001 5.4813177e-39
-0.019414287 0.029480955 0.75500005 5.1132736e-39
-0.017976193 0.029480955 0.75500005 1.0184033e-38
-0.016581906 0.029559048 0.75700003 2.0196274e-38
-0.01514 0.029559048 0.75700003 2.2224189e-38
-0.013734287 0.029637145 0.75900006 2.2774842e-38
-0.012288572 0.029637145 0.75900006 2.1207516e-38
-0.010871429 0.02971524 0.76100004 2.1853248e-38
-0.0094219055 0.02971524 0.76100004 2.2867037e-38
-0.0079828566 0.029754287 0.76200002 2.2774842e-38
-0.0065314285 0.029754287 0.76200002 1.9916777e-38
-0.0050933338 0.029832384 0.76400006 1.5133425e-38
-0.0036476192 0.029910479 0.76600003 1.3934882e-38
-0.0021914286 0.029949524 0.76700002 1.4021629e-38
-0.00073238101 0.030027622 0.76900005 6.9225658e-39
0.00073428574 0.030105716 0.77100003 8.7712049e-39
0.0022228572 0.030379049 0.77800006 1.5778073e-38
0.0037142858 0.030457145 0.78000003 1.7609716e-38
-0.075827621 0.031656191 0.77300006 1.3648553e-38
-0.074162856 0.031574287 0.77100003 1.2542206e-38
-0.072694287 0.031574287 0.77100003 1.0615799e-38
-0.071040951 0.031492382 0.76900005 1.0707994e-38
-0.069304764 0.031369522 0.76600003 1.3006796e-38
-0.067668572 0.031287622 0.76400006 1.7893165e-38
-0.066040002 0.031205716 0.76200002 1.8256562e-38
-0.064588569 0.031205716 0.76200002 1.3923367e-38
-0.063137144 0.031205716 0.76200002 1.2637954e-38
-0.061604768 0.031164765 0.76100004 1.6786757e-38
-0.060155239 0.031164765 0.76100004 2.0929462e-38
-0.058551431 0.031082857 0.75900006 2.3418026e-38
-0.056955241 0.031000955 0.75700003 2.2865242e-38
-0.055293337 0.030878095 0.75400001 1.9177417e-38
-0.05385714 0.030878095 0.75400001 2.0657164e-38
-0.052281909 0.030796193 0.75200003 2.2866989e-38
-0.050849527 0.030796193 0.75200003 2.2774842e-38
-0.049417142 0.030796193 0.75200003 2.1207516e-38
-0.047984764 0.030796193 0.75200003 1.7164973e-38
-0.046552382 0.030796193 0.75200003 1.5597647e-38
-0.045120001 0.030796193 0.75200003 1.4038605e-38
-0.043687619 0.030796193 0.75200003 1.477617e-38
-0.042142861 0.030714288 0.75000006 1.5417938e-38
-0.04071429 0.030714288 0.75000006 1.5233546e-38
-0.039285716 0.030714288 0.75000006 1.7347191e-38
-0.037857145 0.030714288 0.75000006 2.0295643e-38
-0.036428574 0.030714288 0.75000006 2.3142182e-38
-0.035000004 0.030714288 0.75000006 2.3234378e-38
-0.033660952 0.030796193 0.75200003 2.341769e-38
-0.03222857 0.030796193 0.75200003 2.341769e-38
-0.030796193 0.030796193 0.75200003 2.3326213e-38
-0.029363809 0.030796193 0.75200003 2.3141822e-38
-0.028005714 0.030878095 0.75400001 2.0016549e-38
-0.026569525 0.030878095 0.75400001 1.6144334e-38
-0.025133332 0.030878095 0.75400001 6.5869968e-39
-0.023697143 0.030878095 0.75400001 4.4664973e-39
-0.022260953 0.030878095 0.75400001 2.0816177e-39
-0.020824762 0.030878095 0.75400001 3.8333346e-39
-0.019414287 0.030919051 0.75500005 1.3111982e-38
-0.018023811 0.031000955 0.75700003 1.9469124e-38
-0.016581906 0.031000955 0.75700003 2.3050705e-38
-0.015180001 0.031082857 0.75900006 2.2036553e-38
-0.013734287 0.031082857 0.75900006 1.7802429e-38
-0.012320952 0.031164765 0.76100004 1.5589734e-38
-0.010871429 0.031164765 0.76100004 1.6328373e-38
-0.0094342856 0.031205716 0.76200002 1.9647414e-38
-0.0079828566 0.031205716 0.76200002 2.1760336e-38
-0.0065485719 0.031287622 0.76400006 2.231351e-38
-0.0050933338 0.031287622 0.76400006 2.0287004e-38
-0.003652381 0.031410474 0.76700002 1.3556723e-38
-0.0021914286 0.031410474 0.76700002 6.7526149e-39
-0.00073238101 0.031492382 0.76900005 4.4477241e-39
0.00073619053 0.031656191 0.77300006 1.1346922e-38
0.0022228572 0.031860955 0.77800006 1.7985007e-38
0.0037047621 0.031860955 0.77800006 1.8068523e-38
-0.074355245 0.033128574 0.77300006 1.2358893e-38
-0.072882861 0.033128574 0.77300006 9.6956401e-39
-0.071040951 0.032957144 0.76900005 1.0248814e-38
-0.069395244 0.032871429 0.76700002 1.1904386e-38
-0.067845717 0.032828573 0.76600003 1.605319e-38
-0.066213332 0.032742858 0.76400006 1.8442729e-38
-0.064588569 0.032657143 0.76200002 1.4939295e-38
-0.063137144 0.032657143 0.76200002 1.4477203e-38
-0.061604768 0.032614287 0.76100004 1.9640158e-38
-0.060155239 0.032614287 0.76100004 2.2035118e-38
-0.058705717 0.032614287 0.76100004 2.3325856e-38
-0.05710572 0.032528572 0.75900006 2.17625e-38
-0.055366673 0.032357145 0.75500005 1.4663437e-38
-0.05385714 0.032314286 0.75400001 1.4945322e-38
-0.052420951 0.032314286 0.75400001 2.0753646e-38
-0.050984763 0.032314286 0.75400001 2.341769e-38
-0.049417142 0.03222857 0.75200003 2.3233299e-38
-0.047984764 0.03222857 0.75200003 2.010946e-38
-0.046552382 0.03222857 0.75200003 1.7435786e-38
-0.045120001 0.03222857 0.75200003 1.2659276e-38
-0.043687619 0.03222857 0.75200003 1.3304645e-38
-0.042255241 0.03222857 0.75200003 1.4681795e-38
-0.04082286 0.03222857 0.75200003 1.5234969e-38
-0.039285716 0.032142859 0.75000006 1.918462e-38
-0.037857145 0.032142859 0.75000006 2.1948682e-38
-0.036428574 0.032142859 0.75000006 2.341769e-38
-0.035000004 0.032142859 0.75000006 2.341769e-38
-0.033660952 0.03222857 0.75200003 2.3417687e-38
-0.03222857 0.03222857 0.75200003 2.3417687e-38
-0.030796193 0.03222857 0.75200003 2.3417687e-38
-0.029363809 0.03222857 0.75200003 2.3417687e-38
-0.028005714 0.032314286 0.75400001 2.3234378e-38
-0.026569525 0.032314286 0.75400001 2.1390465e-38
-0.025133332 0.032314286 0.75400001 1.3210661e-38
-0.023697143 0.032314286 0.75400001 6.572576e-39
-0.022260953 0.032314286 0.75400001 2.4481833e-39
-0.020852383 0.032357145 0.75500005 6.6891823e-39
-0.019414287 0.032357145 0.75500005 2.0010064e-38
-0.018023811 0.03244286 0.75700003 2.2683366e-38
-0.016625715 0.032528572 0.75900006 2.3234378e-38
-0.01522 0.032614287 0.76100004 1.9823139e-38
-0.013770477 0.032614287 0.76100004 1.6149004e-38
-0.012320952 0.032614287 0.76100004 1.4212895e-38
-0.010885715 0.032657143 0.76200002 1.4399079e-38
-0.0094342856 0.032657143 0.76200002 1.6150796e-38
-0.0079828566 0.032657143 0.76200002 2.1022401e-38
-0.0065485719 0.032742858 0.76400006 2.2774118e-38
-0.0051066671 0.032828573 0.76600003 2.0563238e-38
-0.003652381 0.032871429 0.76700002 1.1159284e-38
-0.0021971429 0.032957144 0.76900005 3.0762831e-39
-0.00073428574 0.033042856 0.77100003 3.9060438e-39
0.00073714292 0.03317143 0.77400005 1.2361067e-38
0.0022228572 0.033342861 0.77800006 1.7708413e-38
0.0037047621 0.033342861 0.77800006 1.687179e-38
0.0051866672 0.033342861 0.77800006 1.5304465e-38
-0.074643806 0.034735236 0.77600002 1.2818795e-38
-0.072882861 0.034600955 0.77300006 1.0891685e-38
-0.071225718 0.034511428 0.77100003 1.098388e-38
-0.069576196 0.034421906 0.76900005 1.1077515e-38
-0.067845717 0.03428762 0.76600003 1.2368254e-38
-0.066213332 0.034198094 0.76400006 1.4574838e-38
-0.064588569 0.034108575 0.76200002 1.8447055e-38
-0.063137144 0.034108575 0.76200002 2.0284834e-38
-0.061604768 0.034063812 0.76100004 2.2405333e-38
-0.060155239 0.034063812 0.76100004 2.07462e-38
-0.058705717 0.034063812 0.76100004 1.8164722e-38
-0.05710572 0.03397429 0.75900006 1.0805684e-38
-0.055660002 0.03397429 0.75900006 6.3802941e-39
-0.053928573 0.033795241 0.75500005 6.1147985e-39
-0.052420951 0.033750474 0.75400001 1.1369949e-38
-0.050984763 0.033750474 0.75400001 2.0287327e-38
-0.04954857 0.033750474 0.75400001 2.2867011e-38
-0.048112381 0.033750474 0.75400001 2.3050705e-38
-0.046676192 0.033750474 0.75400001 2.2774118e-38
-0.04524 0.033750474 0.75400001 1.8453191e-38
-0.043687619 0.033660952 0.75200003 1.5595126e-38
-0.042255241 0.033660952 0.75200003 1.71628e-38
-0.04082286 0.033660952 0.75200003 2.057115e-38
-0.039390475 0.033660952 0.75200003 2.3234378e-38
-0.037958097 0.033660952 0.75200003 2.3234378e-38
-0.036525715 0.033660952 0.75200003 2.341769e-38
-0.035093337 0.033660952 0.75200003 1.9729865e-38
-0.033660952 0.033660952 0.75200003 1.8164675e-38
-0.03222857 0.033660952 0.75200003 1.8072479e-38
-0.030796193 0.033660952 0.75200003 2.0928398e-38
-0.029363809 0.033660952 0.75200003 2.3509876e-38
-0.028005714 0.033750474 0.75400001 2.341769e-38
-0.026604762 0.033795241 0.75500005 2.341769e-38
-0.025166668 0.033795241 0.75500005 2.2223829e-38
-0.023728572 0.033795241 0.75500005 1.945796e-38
-0.022290478 0.033795241 0.75500005 1.8819042e-38
-0.020852383 0.033795241 0.75500005 2.1489486e-38
-0.019465715 0.033884764 0.75700003 2.2867037e-38
-0.01807143 0.03397429 0.75900006 2.2867037e-38
-0.016625715 0.03397429 0.75900006 2.1486977e-38
-0.01522 0.034063812 0.76100004 1.7430369e-38
-0.013770477 0.034063812 0.76100004 1.4679278e-38
-0.012320952 0.034063812 0.76100004 1.42183e-38
-0.010885715 0.034108575 0.76200002 1.3757688e-38
-0.0094342856 0.034108575 0.76200002 1.3112318e-38
-0.0080038095 0.034198094 0.76400006 1.8259751e-38
-0.0065485719 0.034198094 0.76400006 2.102562e-38
-0.0051066671 0.03428762 0.76600003 1.9089165e-38
-0.0036619049 0.034421906 0.76900005 8.5788627e-39
-0.0021971429 0.034421906 0.76900005 2.0661207e-39
-0.00073428574 0.034511428 0.77100003 3.3568595e-39
0.00073714292 0.034645718 0.77400005 1.2729846e-38
0.0022285716 0.034914285 0.78000003 1.7524019e-38
0.0037190479 0.034959048 0.78100002 1.7146204e-38
0.0052200002 0.035048574 0.78300005 1.5855465e-38
-0.074643806 0.036213335 0.77600002 1.3095019e-38
-0.072977148 0.036120001 0.77400005 1.1351213e-38
-0.071410477 0.036073335 0.77300006 1.1351213e-38
-0.069757141 0.035980001 0.77100003 9.6999884e-39
-0.06793429 0.035793334 0.76700002 1.0068771e-38
-0.06638667 0.035746668 0.76600003 1.3103648e-38
-0.0647581 0.035653338 0.76400006 1.7990017e-38
-0.063137144 0.035560001 0.76200002 2.1574143e-38
-0.061685719 0.035560001 0.76200002 2.1666339e-38
-0.060155239 0.035513334 0.76100004 1.9550518e-38
-0.058705717 0.035513334 0.76100004 1.3834389e-38
-0.05710572 0.035420001 0.75900006 7.8647204e-39
-0.055660002 0.035420001 0.75900006 6.1130034e-39
-0.05407143 0.035326667 0.75700003 3.8228459e-39
-0.05249048 0.035233337 0.75500005 5.5745629e-39
-0.050984763 0.035186667 0.75400001 1.5498179e-38
-0.04954857 0.035186667 0.75400001 2.1122112e-38
-0.048112381 0.035186667 0.75400001 2.3417687e-38
-0.046676192 0.035186667 0.75400001 2.3417687e-38
-0.04524 0.035186667 0.75400001 2.1672457e-38
-0.043803807 0.035186667 0.75400001 1.8353414e-38
-0.042367619 0.035186667 0.75400001 1.9092424e-38
-0.04093143 0.035186667 0.75400001 2.1948682e-38
-0.039390475 0.035093337 0.75200003 2.341769e-38
-0.037958097 0.035093337 0.75200003 2.341769e-38
-0.036525715 0.035093337 0.75200003 2.341769e-38
-0.035093337 0.035093337 0.75200003 1.68718e-38
-0.033660952 0.035093337 0.75200003 1.4663409e-38
-0.032314286 0.035186667 0.75400001 1.5124387e-38
-0.030796193 0.035093337 0.75200003 1.8621697e-38
-0.029363809 0.035093337 0.75200003 2.2862696e-38
-0.028042858 0.035233337 0.75500005 2.341804e-38
-0.026604762 0.035233337 0.75500005 2.341804e-38
-0.025166668 0.035233337 0.75500005 2.341769e-38
-0.023728572 0.035233337 0.75500005 2.2956712e-38
-0.022290478 0.035233337 0.75500005 2.1760687e-38
-0.02090762 0.035326667 0.75700003 2.2958871e-38
-0.019465715 0.035326667 0.75700003 2.3050705e-38
-0.01807143 0.035420001 0.75900006 2.1206793e-38
-0.016669523 0.035513334 0.76100004 1.7254272e-38
-0.01522 0.035513334 0.76100004 1.5686946e-38
-0.013770477 0.035513334 0.76100004 1.4404858e-38
-0.012320952 0.035513334 0.76100004 1.4312662e-38
-0.010885715 0.035560001 0.76200002 1.3482901e-38
-0.0094590485 0.035653338 0.76400006 1.2284358e-38
-0.0080038095 0.035653338 0.76400006 1.5040836e-38
-0.0065657143 0.035746668 0.76600003 1.937403e-38
-0.0051133335 0.035793334 0.76700002 1.6975164e-38
-0.0036619049 0.035886671 0.76900005 7.2946231e-39
-0.0022028573 0.035980001 0.77100003 1.4228658e-39
-0.00073619053 0.036073335 0.77300006 4.2809304e-39
0.00074095244 0.036306668 0.77800006 1.3191188e-38
0.0022314284 0.036446668 0.78100002 1.6694621e-38
0.0037190479 0.036446668 0.78100002 1.6320049e-38
0.0052200002 0.036540005 0.78300005 1.5582484e-38
0.006711429 0.036540005 0.78300005 1.6041301e-38
-0.076612383 0.037934288 0.78100002 1.5859068e-38
-0.074836195 0.037788574 0.77800006 1.4476133e-38
-0.073165715 0.037691429 0.77600002 1.1443058e-38
-0.071502857 0.037594289 0.77400005 1.1258667e-38
-0.069938101 0.037545718 0.77300006 1.0160243e-38
-0.068111435 0.037351429 0.76900005 1.0713417e-38
-0.066473335 0.037254285 0.76700002 1.2275711e-38
-0.064927623 0.037205715 0.76600003 1.6608905e-38
-0.06330286 0.037108574 0.76400006 1.927285e-38
-0.061685719 0.037011426 0.76200002 1.8074306e-38
-0.060155239 0.036962859 0.76100004 1.2738847e-38
-0.058705717 0.036962859 0.76100004 7.4836961e-39
-0.057256192 0.036962859 0.76100004 3.7296133e-39
-0.055660002 0.036865719 0.75900006 5.5735259e-39
-0.054214288 0.036865719 0.75900006 7.0414505e-39
-0.05249048 0.03667143 0.75500005 6.2116898e-39
-0.051052384 0.03667143 0.75500005 1.0073768e-38
-0.04954857 0.036622856 0.75400001 1.2009876e-38
-0.048112381 0.036622856 0.75400001 1.9366092e-38
-0.046676192 0.036622856 0.75400001 2.2775178e-38
-0.04524 0.036622856 0.75400001 2.3234378e-38
-0.043803807 0.036622856 0.75400001 2.3049986e-38
-0.042367619 0.036622856 0.75400001 2.3326213e-38
-0.04093143 0.036622856 0.75400001 2.3326213e-38
-0.039495237 0.036622856 0.75400001 2.341769e-38
-0.038059048 0.036622856 0.75400001 1.8623517e-38
-0.036622856 0.036622856 0.75400001 1.6046015e-38
-0.035186667 0.036622856 0.75400001 1.4755276e-38
-0.033750474 0.036622856 0.75400001 1.4756711e-38
-0.032314286 0.036622856 0.75400001 1.5217689e-38
-0.030878095 0.036622856 0.75400001 1.6043835e-38
-0.029441904 0.036622856 0.75400001 1.5767248e-38
-0.028042858 0.03667143 0.75500005 1.9730526e-38
-0.026604762 0.03667143 0.75500005 2.3509832e-38
-0.025166668 0.03667143 0.75500005 2.341769e-38
-0.023728572 0.03667143 0.75500005 2.341769e-38
-0.022349525 0.036768574 0.75700003 2.3326213e-38
-0.02090762 0.036768574 0.75700003 2.3326213e-38
-0.019517144 0.036865719 0.75900006 2.2499334e-38
-0.01807143 0.036865719 0.75900006 1.835053e-38
-0.016669523 0.036962859 0.76100004 1.4403423e-38
-0.01522 0.036962859 0.76100004 1.4864401e-38
-0.013770477 0.036962859 0.76100004 1.4864764e-38
-0.012337144 0.037011426 0.76200002 1.4495981e-38
-0.010914287 0.037108574 0.76400006 1.3667293e-38
-0.0094590485 0.037108574 0.76400006 1.2560945e-38
-0.0080247624 0.037205715 0.76600003 1.5959217e-38
-0.0065657143 0.037205715 0.76600003 2.0292412e-38
-0.0051133335 0.037254285 0.76700002 1.8538161e-38
-0.0036714287 0.037448574 0.77100003 7.9356639e-39
-0.0022028573 0.037448574 0.77100003 1.6065761e-39
-0.00073904765 0.037691429 0.77600002 6.4929445e-39
0.00074285717 0.037885718 0.78000003 1.4019169e-38
0.0022314284 0.037934288 0.78100002 1.7061624e-38
0.0037190479 0.037934288 0.78100002 1.6502276e-38
0.0052200002 0.038031429 0.78300005 1.5949103e-38
0.006711429 0.038031429 0.78300005 1.6041301e-38
-0.076612383 0.039421905 0.78100002 1.6317898e-38
-0.074836195 0.039270476 0.77800006 1.4934963e-38
-0.073165715 0.039169524 0.77600002 1.1719262e-38
-0.071502857 0.039068572 0.77400005 1.1442675e-38
-0.069938101 0.039018098 0.77300006 1.0252439e-38
-0.068111435 0.038816195 0.76900005 1.0805613e-38
-0.066473335 0.03871524 0.76700002 1.1080414e-38
-0.064927623 0.038664766 0.76600003 1.5321413e-38
-0.063468575 0.038664766 0.76600003 1.8354155e-38
-0.061685719 0.038462859 0.76200002 1.6602438e-38
-0.060234286 0.038462859 0.76200002 1.0164913e-38
-0.058705717 0.038412381 0.76100004 6.3848917e-39
-0.057256192 0.038412381 0.76100004 4.3738841e-39
-0.055660002 0.038311433 0.75900006 6.3099923e-39
-0.054214288 0.038311433 0.75900006 6.9503311e-39
-0.052768577 0.038311433 0.75900006 6.8581355e-39
-0.05118762 0.038210478 0.75700003 2.9995859e-39
-0.049614292 0.038109526 0.75500005 2.722999e-39
-0.048176192 0.038109526 0.75500005 1.3659661e-38
-0.046738099 0.038109526 0.75500005 2.0295594e-38
-0.045300003 0.038109526 0.75500005 2.3417687e-38
-0.043861907 0.038109526 0.75500005 2.3417687e-38
-0.042367619 0.038059048 0.75400001 2.341769e-38
-0.04093143 0.038059048 0.75400001 2.341769e-38
-0.039495237 0.038059048 0.75400001 2.2128396e-38
-0.038059048 0.038059048 0.75400001 1.4752746e-38
-0.03667143 0.038109526 0.75500005 1.4293569e-38
-0.035186667 0.038059048 0.75400001 1.5676504e-38
-0.033750474 0.038059048 0.75400001 1.5585387e-38
-0.032314286 0.038059048 0.75400001 1.6046365e-38
-0.030878095 0.038059048 0.75400001 1.5585743e-38
-0.029441904 0.038059048 0.75400001 1.4110613e-38
-0.028042858 0.038109526 0.75500005 1.4387147e-38
-0.026675239 0.038210478 0.75700003 1.918132e-38
-0.025233334 0.038210478 0.75700003 2.3417687e-38
-0.023854287 0.038311433 0.75900006 2.3417687e-38
-0.022408573 0.038311433 0.75900006 2.341769e-38
-0.020962859 0.038311433 0.75900006 2.3325494e-38
-0.019517144 0.038311433 0.75900006 2.0291333e-38
-0.018119048 0.038412381 0.76100004 1.6880095e-38
-0.016669523 0.038412381 0.76100004 1.385313e-38
-0.01522 0.038412381 0.76100004 1.44985e-38
-0.013788572 0.038462859 0.76200002 1.4404153e-38
-0.012337144 0.038462859 0.76200002 1.4127566e-38
-0.010942858 0.038664766 0.76600003 1.3667643e-38
-0.0094838096 0.038664766 0.76600003 1.2561295e-38
-0.0080352379 0.03871524 0.76700002 1.595922e-38
-0.006591429 0.038816195 0.76900005 2.0384609e-38
-0.0051266667 0.038816195 0.76900005 1.8908398e-38
-0.0036714287 0.038917147 0.77100003 9.4122485e-39
-0.0022085716 0.039018098 0.77300006 6.2898192e-39
-0.00074380951 0.039421905 0.78100002 1.0346427e-38
0.00074761908 0.039623808 0.78500003 1.5859466e-38
0.002237143 0.03952286 0.78300005 1.7058009e-38
0.0037285716 0.03952286 0.78300005 1.6042024e-38
0.0052333334 0.039623808 0.78500003 1.5857633e-38
0.0067285714 0.039623808 0.78500003 1.6225692e-38
-0.076612383 0.040909525 0.78100002 1.5858715e-38
-0.075028576 0.040857144 0.78000003 1.4014802e-38
-0.073542856 0.040857144 0.78000003 1.0983149e-38
-0.071872383 0.040752385 0.77800006 1.1720714e-38
-0.070028573 0.04054286 0.77400005 1.0620143e-38
-0.068288572 0.040385716 0.77100003 1.0896729e-38
-0.066646673 0.040280953 0.76900005 1.0987869e-38
-0.06501238 0.04017619 0.76700002 1.4767889e-38
-0.063468575 0.040123809 0.76600003 1.7987148e-38
-0.062009525 0.040123809 0.76600003 1.6327627e-38
-0.060392387 0.04001905 0.76400006 1.0348973e-38
-0.058782857 0.039914284 0.76200002 6.7533436e-39
-0.057331428 0.039914284 0.76200002 5.2936894e-39
-0.05580667 0.039861906 0.76100004 6.8610151e-39
-0.054214288 0.039757144 0.75900006 7.5938942e-39
-0.052768577 0.039757144 0.75900006 8.0548724e-39
-0.051322859 0.039757144 0.75900006 6.8602991e-39
-0.049745716 0.039652381 0.75700003 5.8461471e-39
-0.048176192 0.039547618 0.75500005 8.6933922e-39
-0.046738099 0.039547618 0.75500005 1.3118782e-38
-0.045300003 0.039547618 0.75500005 2.2958109e-38
-0.043861907 0.039547618 0.75500005 2.3509848e-38
-0.042423811 0.039547618 0.75500005 2.341769e-38
-0.040985718 0.039547618 0.75500005 1.8623517e-38
-0.039547618 0.039547618 0.75500005 1.4294326e-38
-0.038109526 0.039547618 0.75500005 1.4294326e-38
-0.03667143 0.039547618 0.75500005 1.5033646e-38
-0.035233337 0.039547618 0.75500005 1.5863406e-38
-0.033795241 0.039547618 0.75500005 1.6045649e-38
-0.032357145 0.039547618 0.75500005 1.6506627e-38
-0.030919051 0.039547618 0.75500005 1.6046365e-38
-0.029480955 0.039547618 0.75500005 1.53088e-38
-0.028117143 0.039652381 0.75700003 1.4754911e-38
-0.026675239 0.039652381 0.75700003 1.4386128e-38
-0.025233334 0.039652381 0.75700003 1.8162542e-38
-0.023854287 0.039757144 0.75900006 2.3417691e-38
-0.022408573 0.039757144 0.75900006 2.3326213e-38
-0.020962859 0.039757144 0.75900006 2.1851083e-38
-0.019568572 0.039861906 0.76100004 1.7990771e-38
-0.018119048 0.039861906 0.76100004 1.6331249e-38
-0.016669523 0.039861906 0.76100004 1.4405948e-38
-0.01522 0.039861906 0.76100004 1.4682535e-38
-0.013788572 0.039914284 0.76200002 1.4220488e-38
-0.012369525 0.04001905 0.76400006 1.3759509e-38
-0.010942858 0.040123809 0.76600003 1.412611e-38
-0.0094961906 0.04017619 0.76700002 1.4587088e-38
-0.0080352379 0.04017619 0.76700002 1.8904796e-38
-0.006591429 0.040280953 0.76900005 2.1762859e-38
-0.00514 0.040385716 0.77100003 2.0562162e-38
-0.0036809526 0.040490478 0.77300006 1.7611902e-38
-0.0022228572 0.040752385 0.77800006 1.2183902e-38
-0.00074571435 0.041014288 0.78300005 1.1630728e-38
0.00074761908 0.04111905 0.78500003 1.4849658e-38
0.002237143 0.041014288 0.78300005 1.6048201e-38
0.0037285716 0.041014288 0.78300005 1.5856917e-38
0.0052333334 0.04111905 0.78500003 1.5949112e-38
0.0067285714 0.04111905 0.78500003 1.6133497e-38
0.0082447622 0.041223813 0.78700006 1.6225692e-38
-0.075028576 0.04234286 0.78000003 1.2448558e-38
-0.073542856 0.04234286 0.78000003 1.1073152e-38
-0.071872383 0.04223429 0.77800006 1.2640477e-38
-0.070209526 0.042125717 0.77600002 1.0987478e-38
-0.06855429 0.042017147 0.77400005 1.0895282e-38
-0.066820003 0.041854288 0.77100003 1.0620155e-38
-0.06501238 0.041637145 0.76700002 1.5598719e-38
-0.063468575 0.04158286 0.76600003 1.7251758e-38
-0.062009525 0.04158286 0.76600003 1.6882976e-38
-0.060392387 0.04147429 0.76400006 1.1363136e-38
-0.058937147 0.04147429 0.76400006 6.6611591e-39
-0.057331428 0.041365717 0.76200002 4.0072666e-39
-0.055880003 0.041365717 0.76200002 5.9433748e-39
-0.054357145 0.041311432 0.76100004 7.6860898e-39
-0.05290762 0.041311432 0.76100004 8.0548724e-39
-0.051322859 0.041202862 0.75900006 7.5035049e-39
-0.049877148 0.041202862 0.75900006 7.3191136e-39
-0.048303809 0.041094288 0.75700003 4.5607865e-39
-0.046861906 0.041094288 0.75700003 6.0359166e-39
-0.045420002 0.041094288 0.75700003 1.8720019e-38
-0.043978095 0.041094288 0.75700003 2.2775192e-38
-0.042536192 0.041094288 0.75700003 2.341769e-38
-0.041094288 0.041094288 0.75700003 1.6410822e-38
-0.039652381 0.041094288 0.75700003 1.3006786e-38
-0.038210478 0.041094288 0.75700003 1.4758503e-38
-0.036768574 0.041094288 0.75700003 1.5401352e-38
-0.035326667 0.041094288 0.75700003 1.5770134e-38
-0.033795241 0.040985718 0.75500005 1.5953094e-38
-0.032357145 0.040985718 0.75500005 1.6321876e-38
-0.030919051 0.040985718 0.75500005 1.6230041e-38
-0.029480955 0.040985718 0.75500005 1.5769062e-38
-0.028117143 0.041094288 0.75700003 1.5032213e-38
-0.026745716 0.041202862 0.75900006 1.383367e-38
-0.025300002 0.041202862 0.75900006 1.6319327e-38
-0.023917144 0.041311432 0.76100004 2.3418032e-38
-0.022467621 0.041311432 0.76100004 2.3142182e-38
-0.021018095 0.041311432 0.76100004 2.1482661e-38
-0.019568572 0.041311432 0.76100004 1.5510133e-38
-0.018119048 0.041311432 0.76100004 1.4772568e-38
-0.016669523 0.041311432 0.76100004 1.4314112e-38
-0.015240001 0.041365717 0.76200002 1.4498504e-38
-0.013788572 0.041365717 0.76200002 1.5140636e-38
-0.012401905 0.04158286 0.76600003 1.4126484e-38
-0.010957143 0.041637145 0.76700002 1.4400536e-38
-0.0095209526 0.041745719 0.76900005 1.6336644e-38
-0.0080561908 0.041745719 0.76900005 2.0009711e-38
-0.006591429 0.041745719 0.76900005 1.9917515e-38
-0.00514 0.041854288 0.77100003 2.0192262e-38
-0.0036857147 0.042017147 0.77400005 1.9546893e-38
-0.0022228572 0.04223429 0.77800006 1.559082e-38
-0.00074571435 0.042505719 0.78300005 1.3746907e-38
0.00074952387 0.042722862 0.78700006 1.5773747e-38
0.0022428571 0.042614289 0.78500003 1.5589356e-38
0.0037380953 0.042614289 0.78500003 1.53981e-38
0.0052333334 0.042614289 0.78500003 1.5582491e-38
0.0067457147 0.042722862 0.78700006 1.6224611e-38
0.0082447622 0.042722862 0.78700006 1.6409002e-38
-0.075124763 0.043884765 0.78100002 1.2171962e-38
-0.073542856 0.043828573 0.78000003 1.0979539e-38
-0.071872383 0.043716192 0.77800006 1.3376626e-38
-0.070209526 0.043603808 0.77600002 1.3104002e-38
-0.06855429 0.043491431 0.77400005 1.2366437e-38
-0.066993333 0.043435238 0.77300006 1.3194084e-38
-0.065181904 0.043210477 0.76900005 1.8357039e-38
-0.063551433 0.043098096 0.76700002 2.0285922e-38
-0.062009525 0.043041904 0.76600003 2.0931292e-38
-0.060550477 0.043041904 0.76600003 1.7804922e-38
-0.058937147 0.042929526 0.76400006 1.0429272e-38
-0.057481907 0.042929526 0.76400006 3.7299608e-39
-0.055880003 0.042817142 0.76200002 5.4816778e-39
-0.054428574 0.042817142 0.76200002 7.3183891e-39
-0.05290762 0.042760953 0.76100004 7.8715629e-39
-0.051458098 0.042760953 0.76100004 7.5035049e-39
-0.050008573 0.042760953 0.76100004 7.4113092e-39
-0.048431434 0.042648572 0.75900006 4.4696937e-39
-0.046985716 0.042648572 0.75900006 3.639933e-39
-0.045540005 0.042648572 0.75900006 1.7339968e-38
-0.044094287 0.042648572 0.75900006 2.2224184e-38
-0.042648572 0.042648572 0.75900006 2.3326213e-38
-0.041202862 0.042648572 0.75900006 1.4291041e-38
-0.039757144 0.042648572 0.75900006 1.1720736e-38
-0.038210478 0.042536192 0.75700003 1.4117823e-38
-0.036768574 0.042536192 0.75700003 1.5953457e-38
-0.035326667 0.042536192 0.75700003 1.6137848e-38
-0.033884764 0.042536192 0.75700003 1.6137485e-38
-0.03244286 0.042536192 0.75700003 1.622968e-38
-0.031000955 0.042536192 0.75700003 1.622968e-38
-0.029559048 0.042536192 0.75700003 1.5953094e-38
-0.028117143 0.042536192 0.75700003 1.457304e-38
-0.026745716 0.042648572 0.75900006 1.3282301e-38
-0.025366668 0.042760953 0.76100004 1.6410863e-38
-0.023917144 0.042760953 0.76100004 2.3141109e-38
-0.022467621 0.042760953 0.76100004 2.3326213e-38
-0.021018095 0.042760953 0.76100004 2.2957431e-38
-0.019568572 0.042760953 0.76100004 1.7716352e-38
-0.018119048 0.042760953 0.76100004 1.5134874e-38
-0.01669143 0.042817142 0.76200002 1.3301771e-38
-0.015240001 0.042817142 0.76200002 1.3762749e-38
-0.013824763 0.042929526 0.76400006 1.4219764e-38
-0.012418096 0.043098096 0.76700002 1.3390004e-38
-0.010985715 0.043210477 0.76900005 1.6514196e-38
-0.0095209526 0.043210477 0.76900005 2.0386403e-38
-0.0080561908 0.043210477 0.76900005 2.0654357e-38
-0.0066085714 0.043322857 0.77100003 1.4016272e-38
-0.00514 0.043322857 0.77100003 1.4385049e-38
-0.0036857147 0.043491431 0.77400005 1.9824591e-38
-0.0022171428 0.043603808 0.77600002 1.8627496e-38
-0.00074952387 0.044221908 0.78700006 1.5677235e-38
0.00074952387 0.044221908 0.78700006 1.5680097e-38
0.0022485715 0.044221908 0.78700006 1.5311314e-38
0.0037476195 0.044221908 0.78700006 1.5581768e-38
0.0052466667 0.044221908 0.78700006 1.5858355e-38
0.0067457147 0.044221908 0.78700006 1.6133497e-38
0.0082447622 0.044221908 0.78700006 1.6686671e-38
-0.073542856 0.045314286 0.78000003 1.0700782e-38
-0.071872383 0.045198098 0.77800006 1.263689e-38
-0.070209526 0.045081906 0.77600002 1.3837976e-38
-0.06855429 0.044965718 0.77400005 1.4575542e-38
-0.066993333 0.044907622 0.77300006 1.6048539e-38
-0.065181904 0.044675242 0.76900005 1.9367581e-38
-0.063551433 0.04455905 0.76700002 2.0468865e-38
-0.062090475 0.04455905 0.76700002 2.0745452e-38
-0.060550477 0.044500954 0.76600003 1.8541784e-38
-0.058937147 0.044384766 0.76400006 1.4116393e-38
-0.057481907 0.044384766 0.76400006 2.4443241e-39
-0.056026667 0.044384766 0.76400006 3.735063e-39
-0.054428574 0.044268575 0.76200002 6.4900648e-39
-0.052977145 0.044268575 0.76200002 7.4120211e-39
-0.051458098 0.044210479 0.76100004 6.951773e-39
-0.050008573 0.044210479 0.76100004 6.5829905e-39
-0.048559051 0.044210479 0.76100004 2.4482296e-39
-0.047109526 0.044210479 0.76100004 4.9375116e-39
-0.045540005 0.044094287 0.75900006 1.8259782e-38
-0.044094287 0.044094287 0.75900006 2.2499695e-38
-0.042648572 0.044094287 0.75900006 2.3234378e-38
-0.041202862 0.044094287 0.75900006 1.6596292e-38
-0.039757144 0.044094287 0.75900006 1.291426e-38
-0.038311433 0.044094287 0.75900006 1.438939e-38
-0.036865719 0.044094287 0.75900006 1.558539e-38
-0.035326667 0.043978095 0.75700003 1.6046368e-38
-0.033884764 0.043978095 0.75700003 1.6230041e-38
-0.03244286 0.043978095 0.75700003 1.6137845e-38
-0.031082857 0.044094287 0.75900006 1.6137488e-38
-0.029637145 0.044094287 0.75900006 1.5492118e-38
-0.02819143 0.044094287 0.75900006 1.3929103e-38
-0.026816191 0.044210479 0.76100004 1.4851059e-38
-0.025366668 0.044210479 0.76100004 1.9636963e-38
-0.023917144 0.044210479 0.76100004 2.3416974e-38
-0.022497144 0.044268575 0.76200002 2.341769e-38
-0.021045715 0.044268575 0.76200002 2.341769e-38
-0.019594287 0.044268575 0.76200002 2.047644e-38
-0.018142859 0.044268575 0.76200002 1.7157398e-38
-0.01669143 0.044268575 0.76200002 1.2842595e-38
-0.015240001 0.044268575 0.76200002 1.2842595e-38
-0.013860953 0.044500954 0.76600003 1.3392132e-38
-0.012418096 0.04455905 0.76700002 1.3668719e-38
-0.010985715 0.044675242 0.76900005 1.8260177e-38
-0.0095209526 0.044675242 0.76900005 2.0933828e-38
-0.0080561908 0.044675242 0.76900005 2.0838736e-38
-0.0066085714 0.04479143 0.77100003 1.1987956e-38
-0.0051533333 0.044907622 0.77300006 1.1531557e-38
-0.0036857147 0.044965718 0.77400005 1.8169642e-38
-0.0022171428 0.045081906 0.77600002 1.9822792e-38
-0.00074380951 0.045372382 0.78100002 1.668814e-38
0.0007514286 0.045837145 0.78900003 1.6322592e-38
0.0022485715 0.045720957 0.78700006 1.5585027e-38
0.0037476195 0.045720957 0.78700006 1.5305904e-38
0.0052466667 0.045720957 0.78700006 1.5674686e-38
0.0067457147 0.045720957 0.78700006 1.6041661e-38
0.0082447622 0.045720957 0.78700006 1.6226053e-38
-0.072057143 0.046800002 0.78000003 1.0702609e-38
-0.070390478 0.046680003 0.77800006 1.3099332e-38
-0.068731427 0.046560001 0.77600002 1.7432527e-38
-0.066993333 0.046380006 0.77300006 1.9730584e-38
-0.065351434 0.046260003 0.77100003 1.9085214e-38
-0.063717149 0.04614 0.76900005 1.6413346e-38
-0.062090475 0.046020001 0.76700002 1.632115e-38
-0.060550477 0.045960002 0.76600003 1.678578e-38
-0.05909143 0.045960002 0.76600003 1.9828215e-38
-0.057632383 0.045960002 0.76600003 1.4953011e-38
-0.056026667 0.045840003 0.76400006 8.0383384e-39
-0.054571431 0.045840003 0.76400006 2.077289e-39
-0.052977145 0.04572 0.76200002 3.4602235e-39
-0.051525716 0.04572 0.76200002 3.5495353e-39
-0.050008573 0.04566 0.76100004 3.5495353e-39
-0.048559051 0.04566 0.76100004 7.8665617e-39
-0.047109526 0.04566 0.76100004 1.6438552e-38
-0.04566 0.04566 0.76100004 2.3326213e-38
-0.044210479 0.04566 0.76100004 2.3326213e-38
-0.042760953 0.04566 0.76100004 2.3326213e-38
-0.041202862 0.045540005 0.75900006 2.2957431e-38
-0.039757144 0.045540005 0.75900006 1.7431513e-38
-0.038311433 0.045540005 0.75900006 1.3098318e-38
-0.036865719 0.045540005 0.75900006 1.3193348e-38
-0.035420001 0.045540005 0.75900006 1.4668478e-38
-0.03397429 0.045540005 0.75900006 1.5861261e-38
-0.032528572 0.045540005 0.75900006 1.5769065e-38
-0.031082857 0.045540005 0.75900006 1.5400648e-38
-0.029637145 0.045540005 0.75900006 1.4386497e-38
-0.02819143 0.045540005 0.75900006 1.5677926e-38
-0.026816191 0.04566 0.76100004 2.2499685e-38
-0.0254 0.04572 0.76200002 2.3326213e-38
-0.023948571 0.04572 0.76200002 2.3326213e-38
-0.022497144 0.04572 0.76200002 2.3326213e-38
-0.021045715 0.04572 0.76200002 2.3326213e-38
-0.019594287 0.04572 0.76200002 2.2774842e-38
-0.018142859 0.04572 0.76200002 2.2406059e-38
-0.016735239 0.045840003 0.76400006 1.8360639e-38
-0.01532 0.045960002 0.76600003 1.4949401e-38
-0.013879048 0.046020001 0.76700002 1.4218303e-38
-0.012450477 0.04614 0.76900005 1.744515e-38
-0.010985715 0.04614 0.76900005 2.157703e-38
-0.0095457146 0.046260003 0.77100003 1.9825313e-38
-0.0080771428 0.046260003 0.77100003 1.7705136e-38
-0.0066257147 0.046380006 0.77300006 1.0513877e-38
-0.0051533333 0.046380006 0.77300006 1.0148709e-38
-0.0036952381 0.046560001 0.77600002 1.4758491e-38
-0.0022228572 0.046680003 0.77800006 1.5585387e-38
-0.00074380951 0.046860002 0.78100002 1.5216605e-38
0.0007514286 0.047340002 0.78900003 1.5954163e-38
0.0022542858 0.047340002 0.78900003 1.558538e-38
