# .PCD v0.7 - Point Cloud Data file format
VERSION 0.7
FIELDS x y z rgb
SIZE 4 4 4 4
TYPE F F F F
COUNT 1 1 1 1
WIDTH 973
HEIGHT 1
VIEWPOINT 0 0 0 1 0 0 0
POINTS 973
DATA ascii
-0.12204001 0.066508569 0.67800003 1.456691e-38
-0.12039239 0.066312388 0.67600006 1.2545455e-38
-0.11892857 0.066214286 0.67500001 1.1992281e-38
-0.11746857 0.066116191 0.67400002 1.3742547e-38
-0.11566762 0.065821901 0.671 1.8628915e-38
-0.11421905 0.065723814 0.67000002 1.9271057e-38
-0.11260572 0.065527618 0.66800004 1.9086666e-38
-0.11116667 0.065429524 0.66700006 1.89959e-38
-0.1098962 0.065429524 0.66700006 1.9364682e-38
-0.10846286 0.065331429 0.66600001 1.5954947e-38
-0.10687238 0.065135241 0.66400003 1.1437362e-38
-0.10544858 0.065037146 0.66300005 1.1347981e-38
-0.10418572 0.065037146 0.66300005 1.2823111e-38
-0.10276763 0.064939052 0.66200006 1.4016985e-38
-0.10150667 0.064939052 0.66200006 1.4201377e-38
-0.09979143 0.064644769 0.65900004 1.4385771e-38
-0.098536193 0.064644769 0.65900004 1.4201379e-38
-0.097280957 0.064644769 0.65900004 1.3096837e-38
-0.095880009 0.064546667 0.65800005 1.2543663e-38
-0.094626673 0.064546667 0.65800005 1.705692e-38
-0.093373336 0.064546667 0.65800005 2.323402e-38
-0.092120007 0.064546667 0.65800005 2.3326213e-38
-0.090728574 0.064448565 0.65700001 2.3141822e-38
-0.089477144 0.064448565 0.65700001 1.9555933e-38
-0.088225715 0.064448565 0.65700001 1.7343238e-38
-0.086974286 0.064448565 0.65700001 1.5235709e-38
-0.085722856 0.064448565 0.65700001 1.5973274e-38
-0.084471427 0.064448565 0.65700001 1.6706879e-38
-0.083346672 0.064546667 0.65800005 1.689127e-38
-0.082093336 0.064546667 0.65800005 1.7167131e-38
-0.080839999 0.064546667 0.65800005 1.7351522e-38
-0.079586677 0.064546667 0.65800005 1.7442644e-38
-0.078333341 0.064546667 0.65800005 1.7627033e-38
-0.077080004 0.064546667 0.65800005 1.7534839e-38
-0.075826667 0.064546667 0.65800005 1.7350449e-38
-0.074573338 0.064546667 0.65800005 1.7901815e-38
-0.073320009 0.064546667 0.65800005 1.9192541e-38
-0.072066672 0.064546667 0.65800005 2.3049986e-38
-0.070813335 0.064546667 0.65800005 2.3234378e-38
-0.069877148 0.06484095 0.66100001 2.341769e-38
-0.068721905 0.064939052 0.66200006 2.3325494e-38
-0.067460962 0.064939052 0.66200006 1.8269164e-38
-0.066399999 0.065135241 0.66400003 1.2092058e-38
-0.065135241 0.065135241 0.66400003 2.3600374e-39
-0.064062856 0.065331429 0.66600001 3.3741894e-39
-0.062794283 0.065331429 0.66600001 5.9451895e-39
-0.061618101 0.065429524 0.66700006 6.0373851e-39
-0.060347624 0.065429524 0.66700006 5.5738987e-39
-0.059077147 0.065429524 0.66700006 5.9426812e-39
-0.058066666 0.065723814 0.67000002 1.2649587e-38
-0.05687524 0.065821901 0.671 1.9652795e-38
-0.055597141 0.065821901 0.671 2.3050705e-38
-0.054561906 0.066116191 0.67400002 2.0100445e-38
-0.053357143 0.066214286 0.67500001 1.6145416e-38
-0.052148577 0.066312388 0.67600006 1.5315656e-38
-0.051011432 0.066508569 0.67800003 1.6787183e-38
-0.049793333 0.066606671 0.67900002 1.9921834e-38
-0.048714288 0.066900954 0.68200004 2.1023137e-38
-0.047484763 0.066999055 0.68300003 1.7519703e-38
-0.046454288 0.067391433 0.68700004 1.1263376e-38
-0.045211427 0.067489527 0.68800002 9.880442e-39
-0.043900952 0.067489527 0.68800002 1.4207135e-38
-0.042776193 0.06778381 0.69100004 1.7065199e-38
-0.12369524 0.068000004 0.68000001 1.7056194e-38
-0.12222001 0.067900002 0.67900002 1.4566912e-38
-0.12074857 0.0678 0.67800003 1.3370865e-38
-0.11910477 0.067600004 0.67600006 1.4200626e-38
-0.11764286 0.067500003 0.67500001 1.6870721e-38
-0.11618476 0.067400001 0.67400002 1.9728786e-38
-0.11421905 0.066999994 0.67000002 1.899483e-38
-0.11260572 0.066800006 0.66800004 1.7150918e-38
-0.11133334 0.066800006 0.66800004 1.7428924e-38
-0.1098962 0.066700004 0.66700006 1.9918206e-38
-0.10862572 0.066700004 0.66700006 1.9364357e-38
-0.10719428 0.066600002 0.66600001 1.4754576e-38
-0.10560763 0.066399999 0.66400003 1.0430016e-38
-0.10418572 0.066300005 0.66300005 1.181295e-38
-0.10292286 0.066300005 0.66300005 1.4016266e-38
-0.10150667 0.06620001 0.66200006 1.4292853e-38
-0.10009428 0.066100001 0.66100001 1.4201023e-38
-0.098536193 0.065900005 0.65900004 1.3832241e-38
-0.097280957 0.065900005 0.65900004 1.2084843e-38
-0.09602572 0.065900005 0.65900004 1.3006799e-38
-0.094626673 0.065800004 0.65800005 1.8530252e-38
-0.093373336 0.065800004 0.65800005 2.3508809e-38
-0.092120007 0.065800004 0.65800005 2.3417687e-38
-0.090866677 0.065800004 0.65800005 2.3417687e-38
-0.089613341 0.065800004 0.65800005 2.1212558e-38
-0.088360004 0.065800004 0.65800005 1.8446689e-38
-0.086974286 0.065700002 0.65700001 1.4866933e-38
-0.085722856 0.065700002 0.65700001 1.5788888e-38
-0.084471427 0.065700002 0.65700001 1.6707235e-38
-0.083346672 0.065800004 0.65800005 1.6891626e-38
-0.082093336 0.065800004 0.65800005 1.7167134e-38
-0.080839999 0.065800004 0.65800005 1.7351525e-38
-0.079586677 0.065800004 0.65800005 1.7259329e-38
-0.078333341 0.065800004 0.65800005 1.7351525e-38
-0.077080004 0.065800004 0.65800005 1.7167131e-38
-0.075941913 0.065900005 0.65900004 1.6890544e-38
-0.074686669 0.065900005 0.65900004 1.8727607e-38
-0.073431432 0.065900005 0.65900004 2.0846656e-38
-0.072176196 0.065900005 0.65900004 2.3326213e-38
-0.070920952 0.065900005 0.65900004 2.3326213e-38
-0.069877148 0.066100001 0.66100001 2.341769e-38
-0.068721905 0.06620001 0.66200006 2.341769e-38
-0.067562856 0.066300005 0.66300005 2.2867037e-38
-0.066399999 0.066399999 0.66400003 1.8349451e-38
-0.065135241 0.066399999 0.66400003 8.6113196e-39
-0.064062856 0.066600002 0.66600001 6.3986245e-39
-0.062794283 0.066600002 0.66600001 4.563725e-39
-0.061618101 0.066700004 0.66700006 3.2729862e-39
-0.060347624 0.066700004 0.66700006 2.3574394e-39
-0.059165716 0.066800006 0.66800004 6.690634e-39
-0.058066666 0.066999994 0.67000002 1.9826404e-38
-0.05687524 0.067100003 0.671 2.2499695e-38
-0.055680003 0.067200005 0.67200005 2.3142182e-38
-0.054561906 0.067400001 0.67400002 1.8993379e-38
-0.053357143 0.067500003 0.67500001 1.421794e-38
-0.052148577 0.067600004 0.67600006 1.3111592e-38
-0.051011432 0.0678 0.67800003 1.4397287e-38
-0.049866665 0.068000004 0.68000001 1.7163155e-38
-0.048714288 0.0682 0.68200004 2.0102989e-38
-0.047554284 0.068399996 0.68400002 1.6876141e-38
-0.046454288 0.068700001 0.68700004 1.0253866e-38
-0.045211427 0.068800002 0.68800002 1.0346061e-38
-0.044092383 0.069100007 0.69100004 1.4298614e-38
-0.042776193 0.069100007 0.69100004 1.6880092e-38
-0.12369524 0.069295242 0.68000001 1.714875e-38
-0.12222001 0.069193333 0.67900002 1.4751664e-38
-0.12074857 0.069091432 0.67800003 1.2634404e-38
-0.11910477 0.068887629 0.67600006 1.4847099e-38
-0.11781715 0.068887629 0.67600006 1.6596308e-38
-0.11635715 0.068785712 0.67500001 1.8348025e-38
-0.11438952 0.068378091 0.671 1.5587924e-38
-0.11294286 0.068276189 0.67000002 1.291425e-38
-0.11133334 0.068072386 0.66800004 1.3286273e-38
-0.1098962 0.067970477 0.66700006 1.8449228e-38
-0.10862572 0.067970477 0.66700006 2.0377417e-38
-0.10719428 0.067868568 0.66600001 1.927107e-38
-0.10560763 0.067664765 0.66400003 1.5771614e-38
-0.10418572 0.067562856 0.66300005 1.2083789e-38
-0.10292286 0.067562856 0.66300005 1.1900098e-38
-0.10150667 0.067460962 0.66200006 1.2729859e-38
-0.10009428 0.067359053 0.66100001 1.3095395e-38
-0.098835237 0.067359053 0.66100001 1.2911004e-38
-0.097280957 0.067155235 0.65900004 1.3186551e-38
-0.09602572 0.067155235 0.65900004 2.0838764e-38
-0.094770476 0.067155235 0.65900004 2.341769e-38
-0.093515247 0.067155235 0.65900004 2.341769e-38
-0.092120007 0.06705334 0.65800005 2.3417687e-38
-0.090866677 0.06705334 0.65800005 2.3417687e-38
-0.089613341 0.06705334 0.65800005 2.2682646e-38
-0.088360004 0.06705334 0.65800005 2.1945081e-38
-0.087106667 0.06705334 0.65800005 1.8362071e-38
-0.085853338 0.06705334 0.65800005 1.7163528e-38
-0.084600009 0.06705334 0.65800005 1.6062955e-38
-0.083346672 0.06705334 0.65800005 1.6616125e-38
-0.082093336 0.06705334 0.65800005 1.7166778e-38
-0.080839999 0.06705334 0.65800005 1.762775e-38
-0.079586677 0.06705334 0.65800005 1.7258973e-38
-0.078333341 0.06705334 0.65800005 1.6890191e-38
-0.077197149 0.067155235 0.65900004 1.7717424e-38
-0.075941913 0.067155235 0.65900004 1.9100347e-38
-0.074686669 0.067155235 0.65900004 2.2498973e-38
-0.073431432 0.067155235 0.65900004 2.2867037e-38
-0.072176196 0.067155235 0.65900004 2.3417687e-38
-0.071136191 0.067359053 0.66100001 2.3417687e-38
-0.069982864 0.067460962 0.66200006 2.341769e-38
-0.068825722 0.067562856 0.66300005 2.341769e-38
-0.067562856 0.067562856 0.66300005 2.3326213e-38
-0.066399999 0.067664765 0.66400003 2.3234018e-38
-0.065331429 0.067868568 0.66600001 2.2315305e-38
-0.064062856 0.067868568 0.66600001 2.0840175e-38
-0.062794283 0.067868568 0.66600001 1.2658948e-38
-0.061618101 0.067970477 0.66700006 6.3896449e-39
-0.060347624 0.067970477 0.66700006 7.3209115e-39
-0.059342857 0.068276189 0.67000002 1.6346717e-38
-0.058153335 0.068378091 0.671 2.2774842e-38
-0.056960005 0.068480007 0.67200005 2.2867037e-38
-0.055680003 0.068480007 0.67200005 2.2039425e-38
-0.054642856 0.068785712 0.67500001 1.7337448e-38
-0.053436194 0.068887629 0.67600006 1.4219395e-38
-0.052148577 0.068887629 0.67600006 1.4035003e-38
-0.051011432 0.069091432 0.67800003 1.4030698e-38
-0.049866665 0.069295242 0.68000001 1.4399481e-38
-0.048785716 0.069600955 0.68300003 1.7618739e-38
-0.047762856 0.070008576 0.68700004 1.5406043e-38
-0.046454288 0.070008576 0.68700004 1.108074e-38
-0.045342863 0.070314296 0.69000006 1.1633913e-38
-0.044092383 0.070416197 0.69100004 1.4574125e-38
-0.0429 0.07062 0.69300002 1.6971211e-38
-0.1224 0.070590481 0.68000001 1.5673986e-38
-0.12092667 0.070486665 0.67900002 1.3277253e-38
-0.11945715 0.070382856 0.67800003 1.4660187e-38
-0.11816572 0.070382856 0.67800003 1.6780324e-38
-0.11635715 0.070071429 0.67500001 1.6780324e-38
-0.11490095 0.06996762 0.67400002 1.3933425e-38
-0.11311143 0.069656193 0.671 1.1905121e-38
-0.11166666 0.069552377 0.67000002 1.2277491e-38
-0.11006096 0.069344766 0.66800004 1.587312e-38
-0.10862572 0.069240957 0.66700006 2.0193367e-38
-0.10719428 0.069137141 0.66600001 2.0838736e-38
-0.10560763 0.068929531 0.66400003 1.8812632e-38
-0.10434286 0.068929531 0.66400003 1.4202851e-38
-0.10292286 0.068825722 0.66300005 1.0428919e-38
-0.10150667 0.068721905 0.66200006 1.1166484e-38
-0.10024572 0.068721905 0.66200006 1.2450376e-38
-0.098984763 0.068721905 0.66200006 1.3648919e-38
-0.097576194 0.068618096 0.66100001 1.7700495e-38
-0.096317142 0.068618096 0.66100001 2.3508809e-38
-0.094770476 0.068410479 0.65900004 2.3326213e-38
-0.093515247 0.068410479 0.65900004 2.3326213e-38
-0.092260011 0.068410479 0.65900004 2.341804e-38
-0.091004767 0.068410479 0.65900004 2.341804e-38
-0.08974953 0.068410479 0.65900004 2.341769e-38
-0.088494293 0.068410479 0.65900004 2.3325494e-38
-0.087106667 0.06830667 0.65800005 2.0752301e-38
-0.085853338 0.06830667 0.65800005 1.8539606e-38
-0.084600009 0.06830667 0.65800005 1.5694892e-38
-0.083346672 0.06830667 0.65800005 1.6248066e-38
-0.082093336 0.06830667 0.65800005 1.7073859e-38
-0.080839999 0.06830667 0.65800005 1.725825e-38
-0.079586677 0.06830667 0.65800005 1.6890541e-38
-0.078452386 0.068410479 0.65900004 1.670615e-38
-0.077197149 0.068410479 0.65900004 1.8543935e-38
-0.075941913 0.068410479 0.65900004 2.0479314e-38
-0.074686669 0.068410479 0.65900004 2.3326213e-38
-0.073431432 0.068410479 0.65900004 2.3326213e-38
-0.072395235 0.068618096 0.66100001 2.341769e-38
-0.071136191 0.068618096 0.66100001 2.2680125e-38
-0.070088573 0.068825722 0.66300005 2.2865573e-38
-0.068929531 0.068929531 0.66400003 2.3418029e-38
-0.067664765 0.068929531 0.66400003 2.341769e-38
-0.066600002 0.069137141 0.66600001 2.341769e-38
-0.065331429 0.069137141 0.66600001 2.341769e-38
-0.064159051 0.069240957 0.66700006 2.3233299e-38
-0.062888578 0.069240957 0.66700006 1.8272034e-38
-0.061618101 0.069240957 0.66700006 9.8822342e-39
-0.060438097 0.069344766 0.66800004 1.1916999e-38
-0.059342857 0.069552377 0.67000002 1.9193617e-38
-0.058153335 0.069656193 0.671 2.3142182e-38
-0.056960005 0.06976001 0.67200005 2.1298269e-38
-0.055680003 0.06976001 0.67200005 1.7713452e-38
-0.054642856 0.070071429 0.67500001 1.5777344e-38
-0.053436194 0.070175245 0.67600006 1.3944247e-38
-0.05230286 0.070382856 0.67800003 1.3759855e-38
-0.051086668 0.070486665 0.67900002 1.302157e-38
-0.050013337 0.070798099 0.68200004 1.3390353e-38
-0.048857145 0.071005717 0.68400002 1.6791525e-38
-0.047832385 0.071420953 0.68800002 1.52242e-38
-0.046521906 0.071420953 0.68800002 1.0619414e-38
-0.045342863 0.071628578 0.69000006 1.1817957e-38
-0.044092383 0.071732387 0.69100004 1.4848551e-38
-0.0429 0.071940005 0.69300002 1.7245637e-38
-0.12276001 0.072097145 0.68200004 1.6595942e-38
-0.12110476 0.07188572 0.68000001 1.3001777e-38
-0.11963334 0.071780004 0.67900002 1.2448603e-38
-0.11816572 0.071674287 0.67800003 1.3926935e-38
-0.11635715 0.071357146 0.67500001 1.4572305e-38
-0.11490095 0.07125143 0.67400002 1.2553001e-38
-0.11328001 0.071040004 0.67200005 1.2184219e-38
-0.11166666 0.070828572 0.67000002 1.1817977e-38
-0.11006096 0.070617147 0.66800004 1.2647737e-38
-0.10878857 0.070617147 0.66800004 1.7061574e-38
-0.10751619 0.070617147 0.66800004 2.093379e-38
-0.10592572 0.070405714 0.66600001 2.1206459e-38
-0.10465714 0.070405714 0.66600001 1.8901568e-38
-0.1030781 0.070194289 0.66400003 1.3377063e-38
-0.10166001 0.070088573 0.66300005 1.2086324e-38
-0.10039715 0.070088573 0.66300005 1.5306655e-38
-0.098984763 0.069982864 0.66200006 2.2497901e-38
-0.097723819 0.069982864 0.66200006 2.341769e-38
-0.096317142 0.069877148 0.66100001 2.341769e-38
-0.095058098 0.069877148 0.66100001 2.3326213e-38
-0.093799047 0.069877148 0.66100001 1.9822779e-38
-0.092260011 0.069665715 0.65900004 1.8904405e-38
-0.091004767 0.069665715 0.65900004 2.11171e-38
-0.08974953 0.069665715 0.65900004 2.3326213e-38
-0.088494293 0.069665715 0.65900004 2.3326213e-38
-0.087239049 0.069665715 0.65900004 2.3326213e-38
-0.085853338 0.069559999 0.65800005 2.3141822e-38
-0.084600009 0.069559999 0.65800005 2.1212558e-38
-0.083346672 0.069559999 0.65800005 1.9276449e-38
-0.082093336 0.069559999 0.65800005 1.6706519e-38
-0.080839999 0.069559999 0.65800005 1.6337736e-38
-0.079707623 0.069665715 0.65900004 1.7624506e-38
-0.078452386 0.069665715 0.65900004 1.9468406e-38
-0.077197149 0.069665715 0.65900004 2.2682643e-38
-0.075941913 0.069665715 0.65900004 2.2958871e-38
-0.074686669 0.069665715 0.65900004 2.3417687e-38
-0.073431432 0.069665715 0.65900004 2.3417687e-38
-0.072395235 0.069877148 0.66100001 2.2864882e-38
-0.071136191 0.069877148 0.66100001 1.5673623e-38
-0.070088573 0.070088573 0.66300005 1.5766547e-38
-0.068929531 0.070194289 0.66400003 2.1482676e-38
-0.067868568 0.070405714 0.66600001 2.341769e-38
-0.066600002 0.070405714 0.66600001 2.341769e-38
-0.065331429 0.070405714 0.66600001 2.3417687e-38
-0.064159051 0.070511431 0.66700006 2.3417687e-38
-0.062888578 0.070511431 0.66700006 2.3050705e-38
-0.061710481 0.070617147 0.66800004 2.2681923e-38
-0.060619049 0.070828572 0.67000002 2.3050349e-38
-0.059431426 0.070934288 0.671 2.3142544e-38
-0.058153335 0.070934288 0.671 2.2683365e-38
-0.056960005 0.071040004 0.67200005 1.8534561e-38
-0.055680003 0.071040004 0.67200005 1.4862966e-38
-0.054642856 0.071357146 0.67500001 1.477077e-38
-0.053436194 0.071462862 0.67600006 1.4127918e-38
-0.05230286 0.071674287 0.67800003 1.3759135e-38
-0.051161904 0.07188572 0.68000001 1.3572946e-38
-0.050013337 0.072097145 0.68200004 1.4402707e-38
-0.048857145 0.072308578 0.68400002 1.7526916e-38
-0.047762856 0.072625719 0.68700004 1.6604959e-38
-0.046521906 0.072731428 0.68800002 1.2920024e-38
-0.045342863 0.07294286 0.69000006 1.2643437e-38
-0.044092383 0.073048577 0.69100004 1.5033318e-38
-0.0429 0.073260002 0.69300002 1.7061622e-38
-0.12294 0.073503807 0.68300003 1.6780686e-38
-0.12110476 0.073180959 0.68000001 1.456909e-38
-0.11963334 0.073073335 0.67900002 1.2632982e-38
-0.11816572 0.072965719 0.67800003 1.2730547e-38
-0.11635715 0.072642855 0.67500001 1.3560308e-38
-0.11490095 0.072535239 0.67400002 1.1724695e-38
-0.11328001 0.072320007 0.67200005 1.1909086e-38
-0.11183333 0.072212376 0.671 1.11762e-38
-0.11039048 0.07210476 0.67000002 1.1268396e-38
-0.10911428 0.07210476 0.67000002 1.4484791e-38
-0.10751619 0.071889527 0.66800004 1.8264811e-38
-0.10608477 0.071781911 0.66700006 2.2127317e-38
-0.10465714 0.071674287 0.66600001 2.0283404e-38
-0.10338857 0.071674287 0.66600001 1.7336744e-38
-0.10166001 0.071351431 0.66300005 1.595381e-38
-0.10039715 0.071351431 0.66300005 1.8073243e-38
-0.099134296 0.071351431 0.66300005 2.2775202e-38
-0.097723819 0.071243815 0.66200006 2.341769e-38
-0.096462868 0.071243815 0.66200006 2.341769e-38
-0.095058098 0.071136191 0.66100001 2.3050705e-38
-0.093799047 0.071136191 0.66100001 1.6043837e-38
-0.092539996 0.071136191 0.66100001 1.1727181e-38
-0.091280952 0.071136191 0.66100001 1.4677441e-38
-0.090021908 0.071136191 0.66100001 2.2311696e-38
-0.088494293 0.070920952 0.65900004 2.3418043e-38
-0.087239049 0.070920952 0.65900004 2.341769e-38
-0.085983813 0.070920952 0.65900004 2.341769e-38
-0.084728576 0.070920952 0.65900004 2.3050705e-38
-0.083473332 0.070920952 0.65900004 2.1206793e-38
-0.082218096 0.070920952 0.65900004 1.7258238e-38
-0.080962859 0.070920952 0.65900004 1.6336281e-38
-0.079707623 0.070920952 0.65900004 1.8358822e-38
-0.078452386 0.070920952 0.65900004 2.0938492e-38
-0.077197149 0.070920952 0.65900004 2.3326213e-38
-0.075941913 0.070920952 0.65900004 2.3326213e-38
-0.074686669 0.070920952 0.65900004 2.341769e-38
-0.073431432 0.070920952 0.65900004 2.3141103e-38
-0.072395235 0.071136191 0.66100001 1.9824591e-38
-0.071243815 0.071243815 0.66200006 1.5030418e-38
-0.070194289 0.071459055 0.66400003 1.4846721e-38
-0.068929531 0.071459055 0.66400003 1.7889177e-38
-0.067868568 0.071674287 0.66600001 2.1478708e-38
-0.066700004 0.071781911 0.66700006 2.3508451e-38
-0.065429524 0.071781911 0.66700006 2.341804e-38
-0.064159051 0.071781911 0.66700006 2.341804e-38
-0.062982857 0.071889527 0.66800004 2.341769e-38
-0.061710481 0.071889527 0.66800004 2.341769e-38
-0.060619049 0.07210476 0.67000002 2.341769e-38
-0.059431426 0.072212376 0.671 2.3325494e-38
-0.058240004 0.072320007 0.67200005 2.1119646e-38
-0.056960005 0.072320007 0.67200005 1.6970843e-38
-0.055845715 0.072535239 0.67400002 1.422119e-38
-0.054723814 0.072750486 0.67600006 1.4313385e-38
-0.053594287 0.072965719 0.67800003 1.431123e-38
-0.05230286 0.072965719 0.67800003 1.3850252e-38
-0.051161904 0.073180959 0.68000001 1.4215429e-38
-0.05008667 0.073503807 0.68300003 1.5690559e-38
-0.049000002 0.073826671 0.68600005 1.8537831e-38
-0.047762856 0.073934287 0.68700004 1.8169048e-38
-0.046521906 0.07404191 0.68800002 1.5497889e-38
-0.045408577 0.074364766 0.69100004 1.4299346e-38
-0.044092383 0.074364766 0.69100004 1.5771583e-38
-0.0429 0.074580006 0.69300002 1.6970127e-38
-0.12312 0.074914292 0.68400002 1.7148387e-38
-0.12146095 0.074695244 0.68200004 1.4846052e-38
-0.11963334 0.074366666 0.67900002 1.1803597e-38
-0.11834 0.074366666 0.67900002 1.2087339e-38
-0.11652953 0.074038103 0.67600006 1.3931251e-38
-0.11507143 0.073928572 0.67500001 1.2183532e-38
-0.11361714 0.073819049 0.67400002 1.2091336e-38
-0.112 0.073600002 0.67200005 1.1636462e-38
-0.11055524 0.073490478 0.671 1.209744e-38
-0.10927714 0.073490478 0.671 1.3290598e-38
-0.10783809 0.073380955 0.67000002 1.4212555e-38
-0.10624382 0.073161907 0.66800004 1.8258335e-38
-0.10481429 0.073052391 0.66700006 2.1669573e-38
-0.10354382 0.073052391 0.66700006 2.2220229e-38
-0.10181334 0.072723806 0.66400003 2.2035837e-38
-0.10039715 0.07261429 0.66300005 2.3326213e-38
-0.099134296 0.07261429 0.66300005 2.3326213e-38
-0.097871438 0.07261429 0.66300005 2.3142182e-38
-0.096608579 0.07261429 0.66300005 1.8901183e-38
-0.09520191 0.072504766 0.66200006 1.1544684e-38
-0.093940958 0.072504766 0.66200006 9.4241848e-39
-0.092539996 0.072395235 0.66100001 7.5009965e-39
-0.091280952 0.072395235 0.66100001 7.6853878e-39
-0.090021908 0.072395235 0.66100001 1.4580539e-38
-0.088762857 0.072395235 0.66100001 1.8637146e-38
-0.087239049 0.072176196 0.65900004 2.3233299e-38
-0.085983813 0.072176196 0.65900004 2.341769e-38
-0.084728576 0.072176196 0.65900004 2.341769e-38
-0.083473332 0.072176196 0.65900004 2.3325494e-38
-0.082218096 0.072176196 0.65900004 2.213127e-38
-0.080962859 0.072176196 0.65900004 2.1393705e-38
-0.079707623 0.072176196 0.65900004 2.2406778e-38
-0.078690477 0.072395235 0.66100001 2.2867037e-38
-0.077548578 0.072504766 0.66200006 2.341769e-38
-0.07628762 0.072504766 0.66200006 2.341769e-38
-0.075026676 0.072504766 0.66200006 2.3048907e-38
-0.073877148 0.07261429 0.66300005 1.6410822e-38
-0.07261429 0.07261429 0.66300005 1.5215891e-38
-0.071351431 0.07261429 0.66300005 1.5861261e-38
-0.070405714 0.07294286 0.66600001 1.6044936e-38
-0.069137141 0.07294286 0.66600001 1.5583958e-38
-0.067868568 0.07294286 0.66600001 1.6410103e-38
-0.066700004 0.073052391 0.66700006 1.6594495e-38
-0.065429524 0.073052391 0.66700006 2.0097183e-38
-0.064159051 0.073052391 0.66700006 2.3509862e-38
-0.062982857 0.073161907 0.66800004 2.341769e-38
-0.061895236 0.073380955 0.67000002 2.341769e-38
-0.060709521 0.073490478 0.671 2.3326213e-38
-0.059520006 0.073600002 0.67200005 2.1943279e-38
-0.058240004 0.073600002 0.67200005 1.9003816e-38
-0.057214286 0.073928572 0.67500001 1.6514534e-38
-0.055928573 0.073928572 0.67500001 1.4405941e-38
-0.054723814 0.074038103 0.67600006 1.422155e-38
-0.053594287 0.074257143 0.67800003 1.4310878e-38
-0.052457143 0.074476197 0.68000001 1.3481118e-38
-0.051161904 0.074476197 0.68000001 1.5317463e-38
-0.050306667 0.075133339 0.68600005 1.7530158e-38
-0.049071431 0.075242862 0.68700004 2.0009704e-38
-0.047762856 0.075242862 0.68700004 2.0562878e-38
-0.046521906 0.075352386 0.68800002 1.9364335e-38
-0.045408577 0.075680956 0.69100004 1.7520422e-38
-0.044220001 0.075899996 0.69300002 1.7428221e-38
-0.12312 0.076217145 0.68400002 1.6963993e-38
-0.12146095 0.07599429 0.68200004 1.5860535e-38
-0.11963334 0.075659998 0.67900002 1.3463449e-38
-0.11834 0.075659998 0.67900002 1.2730553e-38
-0.11687429 0.075548574 0.67800003 1.4113487e-38
-0.11524191 0.07532572 0.67600006 1.2183162e-38
-0.11378571 0.075214282 0.67500001 1.2367553e-38
-0.11233333 0.075102858 0.67400002 1.2003803e-38
-0.11072001 0.074880004 0.67200005 1.2649172e-38
-0.10944001 0.074880004 0.67200005 1.2189286e-38
-0.10799905 0.074768573 0.671 1.1912699e-38
-0.10656191 0.074657142 0.67000002 1.5405671e-38
-0.10497144 0.074434288 0.66800004 1.964667e-38
-0.10369906 0.074434288 0.66800004 2.2680844e-38
-0.10212 0.074211434 0.66600001 2.3326213e-38
-0.10085143 0.074211434 0.66600001 2.3234378e-38
-0.099582858 0.074211434 0.66600001 2.3049986e-38
-0.098019049 0.073988572 0.66400003 1.9371532e-38
-0.09675429 0.073988572 0.66400003 1.3378816e-38
-0.095345721 0.073877148 0.66300005 7.5009993e-39
-0.094082862 0.073877148 0.66300005 7.5009993e-39
-0.092820004 0.073877148 0.66300005 7.2287284e-39
-0.091557153 0.073877148 0.66300005 6.3989678e-39
-0.090294287 0.073877148 0.66300005 7.6856989e-39
-0.088897154 0.073765725 0.66200006 1.082035e-38
-0.087503813 0.073654287 0.66100001 2.0192275e-38
-0.086244762 0.073654287 0.66100001 2.3142535e-38
-0.084985711 0.073654287 0.66100001 2.3417687e-38
-0.083726667 0.073654287 0.66100001 2.3417687e-38
-0.082467623 0.073654287 0.66100001 2.341769e-38
-0.081208572 0.073654287 0.66100001 2.2956712e-38
-0.080070481 0.073765725 0.66200006 2.341769e-38
-0.07880953 0.073765725 0.66200006 2.341769e-38
-0.077665716 0.073877148 0.66300005 2.341769e-38
-0.076402865 0.073877148 0.66300005 2.2495734e-38
-0.075139999 0.073877148 0.66300005 1.8903717e-38
-0.073877148 0.073877148 0.66300005 1.5123696e-38
-0.07261429 0.073877148 0.66300005 1.5216257e-38
-0.071459055 0.073988572 0.66400003 1.6322605e-38
-0.070405714 0.074211434 0.66600001 1.6505917e-38
-0.069240957 0.074322864 0.66700006 1.6137135e-38
-0.068072386 0.074434288 0.66800004 1.5400999e-38
-0.066800006 0.074434288 0.66800004 1.411026e-38
-0.065527618 0.074434288 0.66800004 1.5397358e-38
-0.064447619 0.074657142 0.67000002 2.1021292e-38
-0.063171431 0.074657142 0.67000002 2.3418043e-38
-0.061895236 0.074657142 0.67000002 2.3418043e-38
-0.060709521 0.074768573 0.671 2.3326213e-38
-0.059520006 0.074880004 0.67200005 2.0744736e-38
-0.058413334 0.075102858 0.67400002 1.6335563e-38
-0.057214286 0.075214282 0.67500001 1.5690193e-38
-0.055928573 0.075214282 0.67500001 1.4497788e-38
-0.054885715 0.075548574 0.67800003 1.4313396e-38
-0.053673334 0.075659998 0.67900002 1.4586735e-38
-0.052457143 0.075771429 0.68000001 1.384917e-38
-0.051312383 0.07599429 0.68200004 1.6144344e-38
-0.050380003 0.07655143 0.68700004 1.8633626e-38
-0.049071431 0.07655143 0.68700004 2.0101171e-38
-0.047832385 0.076662861 0.68800002 1.9824584e-38
-0.046657149 0.076885715 0.69000006 1.9732389e-38
-0.045408577 0.076997146 0.69100004 1.8810432e-38
-0.044220001 0.07722 0.69300002 1.742894e-38
-0.12312 0.077520005 0.68400002 1.6595564e-38
-0.12146095 0.077293336 0.68200004 1.6227863e-38
-0.12016191 0.077293336 0.68200004 1.5398102e-38
-0.11851428 0.077066667 0.68000001 1.4848544e-38
-0.11704667 0.076953337 0.67900002 1.5678305e-38
-0.11558286 0.076840006 0.67800003 1.3933056e-38
-0.11395429 0.076613337 0.67600006 1.2918904e-38
-0.1125 0.076500006 0.67500001 1.1636106e-38
-0.11104953 0.076386668 0.67400002 1.2465867e-38
-0.10976572 0.076386668 0.67400002 1.2741738e-38
-0.10816 0.076159999 0.67200005 1.2649542e-38
-0.10672095 0.076046668 0.671 1.4119268e-38
-0.10528572 0.075933337 0.67000002 1.660855e-38
-0.10369906 0.075706668 0.66800004 2.157556e-38
-0.10227334 0.075593337 0.66700006 2.3234364e-38
-0.10085143 0.075479999 0.66600001 2.3234378e-38
-0.099582858 0.075479999 0.66600001 1.6965075e-38
-0.098314285 0.075479999 0.66600001 7.0368136e-39
-0.09675429 0.075253338 0.66400003 6.8524224e-39
-0.095489532 0.075253338 0.66400003 6.3996937e-39
-0.094224766 0.075253338 0.66400003 7.6904325e-39
-0.092820004 0.075139999 0.66300005 8.6084231e-39
-0.091557153 0.075139999 0.66300005 8.7006187e-39
-0.090294287 0.075139999 0.66300005 9.3434644e-39
-0.089031436 0.075139999 0.66300005 8.698095e-39
-0.087636195 0.075026676 0.66200006 1.3017907e-38
-0.086375244 0.075026676 0.66200006 1.5507189e-38
-0.085114293 0.075026676 0.66200006 2.1297188e-38
-0.083980009 0.075139999 0.66300005 2.3417687e-38
-0.08259239 0.075026676 0.66200006 2.341769e-38
-0.081331439 0.075026676 0.66200006 2.341769e-38
-0.080191433 0.075139999 0.66300005 2.341769e-38
-0.078928575 0.075139999 0.66300005 2.341769e-38
-0.077665716 0.075139999 0.66300005 2.2864516e-38
-0.076402865 0.075139999 0.66300005 1.5857648e-38
-0.075139999 0.075139999 0.66300005 1.4663444e-38
-0.073988572 0.075253338 0.66400003 1.55854e-38
-0.072723806 0.075253338 0.66400003 1.6229693e-38
-0.071674287 0.075479999 0.66600001 1.650628e-38
-0.070511431 0.075593337 0.66700006 1.6506633e-38
-0.069344766 0.075706668 0.66800004 1.6414437e-38
-0.068072386 0.075706668 0.66800004 1.6138214e-38
-0.066999994 0.075933337 0.67000002 1.5400648e-38
-0.065723814 0.075933337 0.67000002 1.4847099e-38
-0.064447619 0.075933337 0.67000002 1.6045642e-38
-0.063171431 0.075933337 0.67000002 2.2219487e-38
-0.061987616 0.076046668 0.671 2.3509867e-38
-0.060800005 0.076159999 0.67200005 2.3142182e-38
-0.059697144 0.076386668 0.67400002 1.917777e-38
-0.058499999 0.076500006 0.67500001 1.4037891e-38
-0.057299051 0.076613337 0.67600006 1.4406674e-38
-0.056011431 0.076613337 0.67600006 1.4681826e-38
-0.054966666 0.076953337 0.67900002 1.4497435e-38
-0.053752381 0.077066667 0.68000001 1.4126131e-38
-0.052457143 0.077066667 0.68000001 1.394174e-38
-0.051387619 0.077406667 0.68300003 1.7801335e-38
-0.050380003 0.077860005 0.68700004 1.9645247e-38
-0.049071431 0.077860005 0.68700004 1.7705173e-38
-0.047832385 0.077973336 0.68800002 1.4662718e-38
-0.046657149 0.078200005 0.69000006 1.5492869e-38
-0.045408577 0.078313336 0.69100004 1.8719716e-38
-0.044220001 0.078540005 0.69300002 1.8071435e-38
-0.0429 0.078540005 0.69300002 1.7702653e-38
-0.12312 0.078822859 0.68400002 1.6503015e-38
-0.12163905 0.078707621 0.68300003 1.6503371e-38
-0.1203381 0.078707621 0.68300003 1.6226784e-38
-0.11903714 0.078707621 0.68300003 1.5766897e-38
-0.11756381 0.078592382 0.68200004 1.6412267e-38
-0.11575333 0.078246668 0.67900002 1.4208574e-38
-0.11395429 0.077900954 0.67600006 1.301003e-38
-0.1125 0.077785715 0.67500001 1.1175847e-38
-0.11121429 0.077785715 0.67500001 1.2282195e-38
-0.10992857 0.077785715 0.67500001 1.2925406e-38
-0.10848191 0.077670477 0.67400002 1.2925406e-38
-0.10688 0.077440001 0.67200005 1.3293112e-38
-0.10544286 0.077324763 0.671 1.4215069e-38
-0.10400952 0.077209525 0.67000002 1.918101e-38
-0.10242667 0.076979049 0.66800004 2.2683366e-38
-0.10100286 0.076863818 0.66700006 2.2683365e-38
-0.099732392 0.076863818 0.66700006 1.3555997e-38
-0.098461911 0.076863818 0.66700006 2.0758527e-39
-0.097045712 0.076748572 0.66600001 4.5651347e-39
-0.095777147 0.076748572 0.66600001 7.5960662e-39
-0.094224766 0.076518096 0.66400003 8.4258269e-39
-0.09296 0.076518096 0.66400003 8.7009747e-39
-0.091695242 0.076518096 0.66400003 9.0697572e-39
-0.090430476 0.076518096 0.66400003 8.8853631e-39
-0.089031436 0.076402865 0.66300005 8.1477981e-39
-0.087768577 0.076402865 0.66300005 6.0344774e-39
-0.086505719 0.076402865 0.66300005 6.0344774e-39
-0.08524286 0.076402865 0.66300005 1.6877536e-38
-0.083980009 0.076402865 0.66300005 2.2132328e-38
-0.082717143 0.076402865 0.66300005 2.341769e-38
-0.081454292 0.076402865 0.66300005 2.341769e-38
-0.080191433 0.076402865 0.66300005 2.341769e-38
-0.079047628 0.076518096 0.66400003 2.2311342e-38
-0.077782862 0.076518096 0.66400003 1.9178859e-38
-0.076518096 0.076518096 0.66400003 1.5214447e-38
-0.075253338 0.076518096 0.66400003 1.5215901e-38
-0.073988572 0.076518096 0.66400003 1.6045662e-38
-0.07294286 0.076748572 0.66600001 1.6414082e-38
-0.071674287 0.076748572 0.66600001 1.6506277e-38
-0.070617147 0.076979049 0.66800004 1.6506633e-38
-0.069344766 0.076979049 0.66800004 1.6414437e-38
-0.068276189 0.077209525 0.67000002 1.5861627e-38
-0.066999994 0.077209525 0.67000002 1.558504e-38
-0.065723814 0.077209525 0.67000002 1.4297172e-38
-0.064447619 0.077209525 0.67000002 1.5126933e-38
-0.063265711 0.077324763 0.671 2.0283036e-38
-0.061987616 0.077324763 0.671 2.3417687e-38
-0.06098095 0.077670477 0.67400002 2.2867037e-38
-0.059697144 0.077670477 0.67400002 1.9455799e-38
-0.058499999 0.077785715 0.67500001 1.3487248e-38
-0.057299051 0.077900954 0.67600006 1.3763835e-38
-0.056011431 0.077900954 0.67600006 1.4681463e-38
-0.055047616 0.078361906 0.68000001 1.431268e-38
-0.053752381 0.078361906 0.68000001 1.3575097e-38
-0.052611433 0.078592382 0.68200004 1.4497053e-38
-0.051462859 0.078822859 0.68400002 1.9641304e-38
-0.050380003 0.07916858 0.68700004 1.8811543e-38
-0.049071431 0.07916858 0.68700004 1.7334211e-38
-0.047832385 0.079283811 0.68800002 1.438395e-38
-0.046657149 0.079514287 0.69000006 1.4756686e-38
-0.045540001 0.079860002 0.69300002 1.8352316e-38
-0.044283811 0.07997524 0.69400001 1.8163631e-38
-0.043085717 0.080205716 0.69600004 1.7794848e-38
-0.041760001 0.080205716 0.69600004 1.8070346e-38
-0.12181715 0.080125719 0.68400002 1.6503002e-38
-0.12051429 0.080125719 0.68400002 1.6318611e-38
-0.11903714 0.080008574 0.68300003 1.466272e-38
-0.11756381 0.079891428 0.68200004 1.4386134e-38
-0.11575333 0.079540007 0.67900002 1.3010409e-38
-0.11429143 0.079422861 0.67800003 1.3655778e-38
-0.11266667 0.079188578 0.67600006 1.2462983e-38
-0.11121429 0.079071432 0.67500001 1.273957e-38
-0.10992857 0.079071432 0.67500001 1.2373308e-38
-0.10848191 0.078954287 0.67400002 1.2742091e-38
-0.1071981 0.078954287 0.67400002 1.2834302e-38
-0.10544286 0.07860285 0.671 1.2926498e-38
-0.10400952 0.07848572 0.67000002 1.8536003e-38
-0.10242667 0.078251429 0.66800004 2.2591531e-38
-0.10115429 0.078251429 0.66800004 2.2315661e-38
-0.09988191 0.078251429 0.66800004 1.0791207e-38
-0.098461911 0.078134291 0.66700006 2.2620488e-39
-0.097191438 0.078134291 0.66700006 4.9357221e-39
-0.095920965 0.078134291 0.66700006 8.2392804e-39
-0.094508573 0.078017138 0.66600001 8.8846499e-39
-0.09296 0.077782862 0.66400003 8.7009747e-39
-0.091695242 0.077782862 0.66400003 9.0697572e-39
-0.090430476 0.077782862 0.66400003 9.1615899e-39
-0.089165725 0.077782862 0.66400003 9.1615899e-39
-0.087768577 0.077665716 0.66300005 8.9775615e-39
-0.086505719 0.077665716 0.66300005 7.2258446e-39
-0.08524286 0.077665716 0.66300005 1.0257844e-38
-0.084106669 0.077782862 0.66400003 1.5328604e-38
-0.082841903 0.077782862 0.66400003 2.3418038e-38
-0.081577145 0.077782862 0.66400003 2.3418038e-38
-0.080312386 0.077782862 0.66400003 2.341769e-38
-0.079047628 0.077782862 0.66400003 1.6779605e-38
-0.077782862 0.077782862 0.66400003 1.4387948e-38
-0.076518096 0.077782862 0.66400003 1.54021e-38
-0.075253338 0.077782862 0.66400003 1.6413365e-38
-0.074211434 0.078017138 0.66600001 1.6597757e-38
-0.07294286 0.078017138 0.66600001 1.6598113e-38
-0.071781911 0.078134291 0.66700006 1.6690308e-38
-0.070617147 0.078251429 0.66800004 1.6598466e-38
-0.069552377 0.07848572 0.67000002 1.650627e-38
-0.068276189 0.07848572 0.67000002 1.6229693e-38
-0.067100003 0.07860285 0.671 1.5676519e-38
-0.065821901 0.07860285 0.671 1.4296459e-38
-0.064543813 0.07860285 0.671 1.6785741e-38
-0.063265711 0.07860285 0.671 2.0652199e-38
-0.062080003 0.078720003 0.67200005 2.3233662e-38
-0.06098095 0.078954287 0.67400002 2.3326213e-38
-0.059785716 0.079071432 0.67500001 2.2680844e-38
-0.058499999 0.079071432 0.67500001 1.7810345e-38
-0.057299051 0.079188578 0.67600006 1.5597653e-38
-0.056011431 0.079188578 0.67600006 1.2934077e-38
-0.055047616 0.079657145 0.68000001 1.265749e-38
-0.053752381 0.079657145 0.68000001 1.4585283e-38
-0.052688573 0.080008574 0.68300003 1.781213e-38
-0.051462859 0.080125719 0.68400002 2.1576314e-38
-0.050380003 0.080477148 0.68700004 1.7796293e-38
-0.049071431 0.080477148 0.68700004 1.2911029e-38
-0.047832385 0.080594286 0.68800002 9.9607686e-39
-0.046657149 0.080828577 0.69000006 1.1623514e-38
-0.045605715 0.081297144 0.69400001 1.7892817e-38
-0.044411432 0.081531428 0.69600004 1.853205e-38
-0.043085717 0.081531428 0.69600004 1.7886681e-38
-0.041760001 0.081531428 0.69600004 1.806999e-38
-0.12217335 0.081666671 0.68600005 1.6042037e-38
-0.12051429 0.081428573 0.68400002 1.6042037e-38
-0.11903714 0.08130952 0.68300003 1.4019494e-38
-0.11756381 0.081190482 0.68200004 1.282095e-38
-0.11626477 0.081190482 0.68200004 1.2275317e-38
-0.11446001 0.080833331 0.67900002 1.4211425e-38
-0.11266667 0.080476195 0.67600006 1.3657573e-38
-0.11137906 0.080476195 0.67600006 1.3473182e-38
-0.10992857 0.080357142 0.67500001 1.2556258e-38
-0.10864286 0.080357142 0.67500001 1.3109432e-38
-0.1071981 0.080238096 0.67400002 1.2375122e-38
-0.10560001 0.080000006 0.67200005 1.2651709e-38
-0.10416476 0.079880953 0.671 1.7708413e-38
-0.10273334 0.079761907 0.67000002 2.2132353e-38
-0.10115429 0.079523817 0.66800004 2.130404e-38
-0.09988191 0.079523817 0.66800004 1.2268868e-38
-0.098609529 0.079523817 0.66800004 6.0280371e-39
-0.097191438 0.079404771 0.66700006 7.1343846e-39
-0.095920965 0.079404771 0.66700006 7.5038734e-39
-0.094650485 0.079404771 0.66700006 8.3336341e-39
-0.09324 0.079285711 0.66600001 8.885003e-39
-0.091971427 0.079285711 0.66600001 9.0693942e-39
-0.090702854 0.079285711 0.66600001 9.1615899e-39
-0.089434281 0.079285711 0.66600001 9.1615899e-39
-0.087900959 0.079047628 0.66400003 9.16195e-39
-0.086636193 0.079047628 0.66400003 8.1477981e-39
-0.085371435 0.079047628 0.66400003 6.3103455e-39
-0.084106669 0.079047628 0.66400003 9.7215838e-39
-0.08309143 0.079285711 0.66600001 2.1024201e-38
-0.081577145 0.079047628 0.66400003 2.27752e-38
-0.080312386 0.079047628 0.66400003 2.341769e-38
-0.079285711 0.079285711 0.66600001 1.6963996e-38
-0.078017138 0.079285711 0.66600001 1.3744724e-38
-0.076748572 0.079285711 0.66600001 1.531205e-38
-0.075479999 0.079285711 0.66600001 1.6689589e-38
-0.074211434 0.079285711 0.66600001 1.6689589e-38
-0.073052391 0.079404771 0.66700006 1.6689945e-38
-0.071781911 0.079404771 0.66700006 1.6782141e-38
-0.070828572 0.079761907 0.67000002 1.6782138e-38
-0.069552377 0.079761907 0.67000002 1.6597747e-38
-0.068378091 0.079880953 0.671 1.6414075e-38
-0.067100003 0.079880953 0.671 1.5399923e-38
-0.065821901 0.079880953 0.671 1.4573046e-38
-0.064543813 0.079880953 0.671 1.9643805e-38
-0.063360006 0.080000006 0.67200005 2.2680488e-38
-0.062080003 0.080000006 0.67200005 2.3325856e-38
-0.061071429 0.080357142 0.67500001 2.3417687e-38
-0.059785716 0.080357142 0.67500001 2.3325492e-38
-0.058586672 0.080476195 0.67600006 2.1396952e-38
-0.057468574 0.080714293 0.67800003 1.8446692e-38
-0.056177147 0.080714293 0.67800003 1.3210664e-38
-0.055047616 0.080952384 0.68000001 1.2012121e-38
-0.053910479 0.081190482 0.68200004 1.4951905e-38
-0.052765712 0.081428573 0.68400002 1.9652795e-38
-0.051462859 0.081428573 0.68400002 2.2773765e-38
-0.050380003 0.081785724 0.68700004 1.4937137e-38
-0.049071431 0.081785724 0.68700004 1.3642057e-38
-0.047971431 0.082142867 0.69000006 1.2074731e-38
-0.046724766 0.082261913 0.69100004 1.2450729e-38
-0.045605715 0.082619049 0.69400001 1.8166858e-38
-0.044411432 0.082857147 0.69600004 1.8716442e-38
-0.043085717 0.082857147 0.69600004 1.7978876e-38
-0.12235144 0.083094291 0.68700004 1.6042037e-38
-0.12086668 0.082973339 0.68600005 1.5857646e-38
-0.11921144 0.082731433 0.68400002 1.1810767e-38
-0.11756381 0.082489528 0.68200004 5.8180511e-39
-0.11626477 0.082489528 0.68200004 7.3922418e-39
-0.11446001 0.08212667 0.67900002 1.4952283e-38
-0.11316667 0.08212667 0.67900002 1.5958852e-38
-0.11137906 0.081763811 0.67600006 1.3930548e-38
-0.11009143 0.081763811 0.67600006 1.1912343e-38
-0.10864286 0.081642851 0.67500001 1.218893e-38
-0.1071981 0.081521906 0.67400002 1.2925409e-38
-0.10560001 0.081280008 0.67200005 1.5691278e-38
-0.10416476 0.081159048 0.671 1.9641292e-38
-0.10273334 0.081038095 0.67000002 2.2591531e-38
-0.10115429 0.080796197 0.66800004 2.2774842e-38
-0.09988191 0.080796197 0.66800004 1.8718234e-38
-0.098609529 0.080796197 0.66800004 8.6052337e-39
-0.097337149 0.080796197 0.66800004 5.8393648e-39
-0.096064761 0.080796197 0.66800004 4.5636998e-39
-0.094650485 0.080675244 0.66700006 6.4076124e-39
-0.093380012 0.080675244 0.66700006 8.7009719e-39
-0.092109531 0.080675244 0.66700006 8.7931675e-39
-0.090839051 0.080675244 0.66700006 8.9775587e-39
-0.089434281 0.080554284 0.66600001 8.9775587e-39
-0.088165708 0.080554284 0.66600001 9.1619528e-39
-0.08689715 0.080554284 0.66600001 8.2399965e-39
-0.085628577 0.080554284 0.66600001 6.401839e-39
-0.084360003 0.080554284 0.66600001 1.0089664e-38
-0.08309143 0.080554284 0.66600001 2.1392986e-38
-0.081822857 0.080554284 0.66600001 2.2775202e-38
-0.080554284 0.080554284 0.66600001 2.341769e-38
-0.079285711 0.080554284 0.66600001 1.8439126e-38
-0.078017138 0.080554284 0.66600001 1.3286299e-38
-0.076748572 0.080554284 0.66600001 1.3839473e-38
-0.075479999 0.080554284 0.66600001 1.5769791e-38
-0.074322864 0.080675244 0.66700006 1.6230769e-38
-0.073161907 0.080796197 0.66800004 1.6598466e-38
-0.071889527 0.080796197 0.66800004 1.6690661e-38
-0.070828572 0.081038095 0.67000002 1.6598466e-38
-0.069552377 0.081038095 0.67000002 1.6321879e-38
-0.068378091 0.081159048 0.671 1.5493197e-38
-0.067100003 0.081159048 0.671 1.438685e-38
-0.065821901 0.081159048 0.671 1.6873615e-38
-0.06464 0.081280008 0.67200005 2.2958514e-38
-0.063360006 0.081280008 0.67200005 2.341769e-38
-0.062264767 0.081521906 0.67400002 2.341769e-38
-0.061071429 0.081642851 0.67500001 2.341769e-38
-0.059874289 0.081763811 0.67600006 2.341769e-38
-0.058586672 0.081763811 0.67600006 2.3234378e-38
-0.057468574 0.082005717 0.67800003 2.3049986e-38
-0.056260001 0.08212667 0.67900002 1.9833237e-38
-0.055047616 0.082247622 0.68000001 1.6514196e-38
-0.053910479 0.082489528 0.68200004 1.807972e-38
-0.052765712 0.082731433 0.68400002 2.1673176e-38
-0.051613338 0.082973339 0.68600005 2.2496803e-38
-0.050380003 0.083094291 0.68700004 1.3738218e-38
-0.049071431 0.083094291 0.68700004 1.1344051e-38
-0.047971431 0.08345715 0.69000006 1.1251855e-38
-0.046724766 0.083578095 0.69100004 1.3003206e-38
-0.045408577 0.083578095 0.69100004 1.8258357e-38
-0.044092383 0.083578095 0.69100004 1.890083e-38
-0.12086668 0.084279999 0.68600005 1.5857648e-38
-0.11921144 0.084034286 0.68400002 1.2453963e-38
-0.1177362 0.083911426 0.68300003 6.2768558e-39
-0.11626477 0.083788574 0.68200004 8.2190261e-39
-0.11462857 0.083542861 0.68000001 1.5686872e-38
-0.11316667 0.083420001 0.67900002 1.6603861e-38
-0.11170857 0.083297148 0.67800003 1.429897e-38
-0.11009143 0.083051436 0.67600006 1.1636462e-38
-0.10864286 0.082928576 0.67500001 1.1820854e-38
-0.10735714 0.082928576 0.67500001 1.3935605e-38
-0.10591429 0.082805723 0.67400002 1.8084408e-38
-0.10432001 0.082560003 0.67200005 2.1851456e-38
-0.10273334 0.082314283 0.67000002 2.3142185e-38
-0.10145715 0.082314283 0.67000002 2.2774839e-38
-0.10018095 0.082314283 0.67000002 2.1760687e-38
-0.098609529 0.082068577 0.66800004 1.3576585e-38
-0.097337149 0.082068577 0.66800004 7.9526617e-39
-0.096064761 0.082068577 0.66800004 2.0816303e-39
-0.094792388 0.082068577 0.66800004 4.8474992e-39
-0.093380012 0.081945717 0.66700006 8.8842813e-39
-0.092109531 0.081945717 0.66700006 8.9764769e-39
-0.090839051 0.081945717 0.66700006 8.9775615e-39
-0.089568578 0.081945717 0.66700006 9.1619528e-39
-0.088165708 0.081822857 0.66600001 8.3354291e-39
-0.08689715 0.081822857 0.66600001 6.8602991e-39
-0.085628577 0.081822857 0.66600001 5.8501072e-39
-0.084486671 0.081945717 0.66700006 1.2027214e-38
-0.083216198 0.081945717 0.66700006 2.1945797e-38
-0.081822857 0.081822857 0.66600001 2.2867036e-38
-0.080554284 0.081822857 0.66600001 2.341769e-38
-0.079404771 0.081945717 0.66700006 2.0375234e-38
-0.078134291 0.081945717 0.66700006 1.7244574e-38
-0.076863818 0.081945717 0.66700006 1.5492857e-38
-0.075593337 0.081945717 0.66700006 1.540173e-38
-0.074322864 0.081945717 0.66700006 1.5954904e-38
-0.073161907 0.082068577 0.66800004 1.6321876e-38
-0.071889527 0.082068577 0.66800004 1.6598463e-38
-0.070828572 0.082314283 0.67000002 1.6598466e-38
-0.069656193 0.082437143 0.671 1.5860901e-38
-0.068378091 0.082437143 0.671 1.5032582e-38
-0.067200005 0.082560003 0.67200005 1.6231125e-38
-0.065920003 0.082560003 0.67200005 1.9176701e-38
-0.064832382 0.082805723 0.67400002 2.3325497e-38
-0.063548572 0.082805723 0.67400002 2.3326213e-38
-0.062357143 0.082928576 0.67500001 2.1666692e-38
-0.061161913 0.083051436 0.67600006 2.1207496e-38
-0.059874289 0.083051436 0.67600006 2.3142528e-38
-0.058760002 0.083297148 0.67800003 2.3418043e-38
-0.057553336 0.083420001 0.67900002 2.3418043e-38
-0.056342855 0.083542861 0.68000001 2.2774842e-38
-0.055209529 0.083788574 0.68200004 2.0838733e-38
-0.053910479 0.083788574 0.68200004 1.9554134e-38
-0.052765712 0.084034286 0.68400002 1.9554134e-38
-0.051613338 0.084279999 0.68600005 1.982206e-38
-0.050380003 0.084402859 0.68700004 1.3183975e-38
-0.04914286 0.084525719 0.68800002 1.1346199e-38
-0.048040956 0.084894292 0.69100004 1.1899373e-38
-0.046724766 0.084894292 0.69100004 1.3372345e-38
-0.045408577 0.084894292 0.69100004 1.8350909e-38
-0.12252953 0.085836194 0.68800002 1.5857285e-38
-0.12104286 0.085711427 0.68700004 1.6041677e-38
-0.11956001 0.085586667 0.68600005 1.3467046e-38
-0.11790857 0.085337147 0.68400002 7.6587211e-39
-0.11643524 0.085212387 0.68300003 6.8401091e-39
-0.11496571 0.08508762 0.68200004 1.1449891e-38
-0.11333333 0.0848381 0.68000001 1.4852507e-38
-0.11187334 0.08471334 0.67900002 1.6419832e-38
-0.11041714 0.084588572 0.67800003 1.5592217e-38
-0.10880382 0.084339052 0.67600006 1.679076e-38
-0.10735714 0.084214285 0.67500001 1.9642351e-38
-0.10591429 0.084089532 0.67400002 2.2039437e-38
-0.10463049 0.084089532 0.67400002 2.2588655e-38
-0.10273334 0.083590478 0.67000002 2.0283764e-38
-0.10145715 0.083590478 0.67000002 2.1392241e-38
-0.10018095 0.083590478 0.67000002 2.3142523e-38
-0.098904766 0.083590478 0.67000002 2.2131277e-38
-0.097337149 0.083340958 0.66800004 1.7613691e-38
-0.096064761 0.083340958 0.66800004 9.3434896e-39
-0.094792388 0.083340958 0.66800004 6.2088382e-39
-0.093520008 0.083340958 0.66800004 5.023236e-39
-0.092247628 0.083340958 0.66800004 6.2217792e-39
-0.090839051 0.083216198 0.66700006 7.597511e-39
-0.089568578 0.083216198 0.66700006 7.8740979e-39
-0.088298097 0.083216198 0.66700006 7.2298046e-39
-0.087027624 0.083216198 0.66700006 7.6907828e-39
-0.085757144 0.083216198 0.66700006 1.2926524e-38
-0.084486671 0.083216198 0.66700006 1.9652795e-38
-0.083216198 0.083216198 0.66700006 2.341769e-38
-0.081945717 0.083216198 0.66700006 2.341769e-38
-0.080675244 0.083216198 0.66700006 2.341769e-38
-0.079404771 0.083216198 0.66700006 2.341769e-38
-0.078134291 0.083216198 0.66700006 2.2220241e-38
-0.076863818 0.083216198 0.66700006 1.908559e-38
-0.075706668 0.083340958 0.66800004 1.5403196e-38
-0.074434288 0.083340958 0.66800004 1.4389044e-38
-0.073161907 0.083340958 0.66800004 1.4757431e-38
-0.07210476 0.083590478 0.67000002 1.521841e-38
-0.070934288 0.083715238 0.671 1.5216623e-38
-0.069656193 0.083715238 0.671 1.4571254e-38
-0.068378091 0.083715238 0.671 1.7058359e-38
-0.067200005 0.083840005 0.67200005 2.2958873e-38
-0.065920003 0.083840005 0.67200005 2.341769e-38
-0.064832382 0.084089532 0.67400002 2.341769e-38
-0.063548572 0.084089532 0.67400002 2.3050705e-38
-0.062357143 0.084214285 0.67500001 1.3923338e-38
-0.061161913 0.084339052 0.67600006 1.0715923e-38
-0.060051434 0.084588572 0.67800003 1.4864726e-38
-0.058846667 0.08471334 0.67900002 2.1576279e-38
-0.057638094 0.0848381 0.68000001 2.3142528e-38
-0.056508575 0.08508762 0.68200004 2.3326213e-38
-0.055209529 0.08508762 0.68200004 2.3141822e-38
-0.053989526 0.085212387 0.68300003 2.3326213e-38
-0.052920006 0.085586667 0.68600005 1.9638388e-38
-0.051688574 0.085711427 0.68700004 1.6413321e-38
-0.050380003 0.085711427 0.68700004 1.2817691e-38
-0.049285717 0.086085722 0.69000006 1.171571e-38
-0.048040956 0.086210482 0.69100004 1.2176688e-38
-0.046860002 0.086460002 0.69300002 1.4202102e-38
-0.045540001 0.086460002 0.69300002 1.8627493e-38
-0.12252953 0.08714667 0.68800002 1.557998e-38
-0.12104286 0.087020002 0.68700004 1.6040958e-38
-0.11973429 0.087020002 0.68700004 1.4019494e-38
-0.11825334 0.086893335 0.68600005 9.5019078e-39
-0.11660571 0.08664 0.68400002 5.8292012e-39
-0.11513429 0.086513333 0.68300003 7.7653095e-39
-0.11333333 0.086133331 0.68000001 1.310255e-38
-0.11187334 0.086006664 0.67900002 1.6605984e-38
-0.11041714 0.085880004 0.67800003 1.6879013e-38
-0.10880382 0.085626669 0.67600006 1.946049e-38
-0.1075162 0.085626669 0.67600006 2.1207528e-38
-0.10607143 0.085500002 0.67500001 2.2590454e-38
-0.10463049 0.085373335 0.67400002 2.2497181e-38
-0.10304001 0.085120007 0.67200005 1.7334226e-38
-0.10145715 0.084866665 0.67000002 1.7517834e-38
-0.10018095 0.084866665 0.67000002 2.2219811e-38
-0.098904766 0.084866665 0.67000002 2.3326213e-38
-0.097628571 0.084866665 0.67000002 2.1851083e-38
-0.096352383 0.084866665 0.67000002 1.3208885e-38
-0.094792388 0.084613338 0.66800004 7.9537435e-39
-0.093520008 0.084613338 0.66800004 2.0801981e-39
-0.092247628 0.084613338 0.66800004 3.370937e-39
-0.090975247 0.084613338 0.66800004 4.2881793e-39
-0.08970286 0.084613338 0.66800004 4.5647662e-39
-0.088430479 0.084613338 0.66800004 6.3096532e-39
-0.087027624 0.084486671 0.66700006 8.7989352e-39
-0.085757144 0.084486671 0.66700006 1.9825297e-38
-0.084486671 0.084486671 0.66700006 2.2867036e-38
-0.083216198 0.084486671 0.66700006 2.3417687e-38
-0.081945717 0.084486671 0.66700006 2.3417687e-38
-0.080675244 0.084486671 0.66700006 2.341769e-38
-0.079404771 0.084486671 0.66700006 2.341769e-38
-0.078251429 0.084613338 0.66800004 2.341769e-38
-0.076979049 0.084613338 0.66800004 2.1481582e-38
-0.075706668 0.084613338 0.66800004 1.8443455e-38
-0.074657142 0.084866665 0.67000002 1.558539e-38
-0.073380955 0.084866665 0.67000002 1.4939327e-38
