# .PCD v0.7 - Point Cloud Data file format
VERSION 0.7
FIELDS x y z rgb
SIZE 4 4 4 4
TYPE F F F F
COUNT 1 1 1 1
WIDTH 1010
HEIGHT 1
VIEWPOINT 0 0 0 1 0 0 0
POINTS 1010
DATA ascii
-0.14795238 0.099666677 0.65000004 1.2903413e-38
-0.14716572 0.099973336 0.65200001 1.10595e-38
-0.14547621 0.099666677 0.65000004 1.0047454e-38
-0.1442381 0.099666677 0.65000004 1.2167954e-38
-0.14300001 0.099666677 0.65000004 1.2627152e-38
-0.14176191 0.099666677 0.65000004 1.3549109e-38
-0.14095619 0.099973336 0.65200001 1.3180347e-38
-0.13971429 0.099973336 0.65200001 1.0414478e-38
-0.13847238 0.099973336 0.65200001 8.9436641e-39
-0.13723047 0.099973336 0.65200001 8.8514685e-39
-0.13619716 0.10012668 0.65300006 8.7607176e-39
-0.13495335 0.10012668 0.65300006 8.5763264e-39
-0.13370954 0.10012668 0.65300006 8.667443e-39
-0.13246572 0.10012668 0.65300006 8.667443e-39
-0.13122191 0.10012668 0.65300006 8.5759536e-39
-0.12997811 0.10012668 0.65300006 8.3915623e-39
-0.12893143 0.10028 0.65400004 9.9545552e-39
-0.12788096 0.10043333 0.65500003 1.1060903e-38
-0.12663335 0.10043333 0.65500003 1.3270001e-38
-0.12576857 0.10074 0.65700001 1.456074e-38
-0.12470668 0.10089334 0.65800005 1.3641331e-38
-0.12345334 0.10089334 0.65800005 9.2159406e-39
-0.12238572 0.10104667 0.65900004 7.4695766e-39
-0.12113048 0.10104667 0.65900004 6.3632291e-39
-0.12042096 0.10150667 0.66200006 5.2637605e-39
-0.11934 0.10166001 0.66300005 5.4481517e-39
-0.11825524 0.10181334 0.66400003 5.6325304e-39
-0.11699048 0.10181334 0.66400003 5.724726e-39
-0.11624859 0.10227334 0.66700006 5.3566848e-39
-0.1149781 0.10227334 0.66700006 5.1722935e-39
-0.1138781 0.10242667 0.66800004 8.2983101e-39
-0.11328001 0.10304001 0.67200005 1.2539309e-38
-0.11233333 0.10334668 0.67400002 1.327253e-38
-0.11170857 0.10396 0.67800003 1.39179e-38
-0.11041714 0.10396 0.67800003 1.4286332e-38
-0.10928667 0.10411333 0.67900002 1.5116092e-38
-0.10799333 0.10411333 0.67900002 1.437922e-38
-0.10685714 0.10426667 0.68000001 1.437922e-38
-0.10494096 0.10365334 0.67600006 1.686636e-38
-0.1035 0.1035 0.67500001 2.1383946e-38
-0.10221429 0.1035 0.67500001 2.0832577e-38
-0.17696571 0.10338857 0.66600001 1.5950885e-38
-0.17516953 0.1030781 0.66400003 8.6674304e-39
-0.17390476 0.1030781 0.66400003 5.9084138e-39
-0.17238 0.10292286 0.66300005 5.35524e-39
-0.17085907 0.10276763 0.66200006 6.3661522e-39
-0.16934191 0.10261238 0.66100001 6.5505434e-39
-0.16757429 0.10230191 0.65900004 9.308467e-39
-0.16581428 0.10199143 0.65700001 1.2996292e-38
-0.16456285 0.10199143 0.65700001 1.299488e-38
-0.16281429 0.10168096 0.65500003 8.661685e-39
-0.16156667 0.10168096 0.65500003 7.4663691e-39
-0.16007431 0.10152572 0.65400004 7.5585647e-39
-0.15858573 0.10137048 0.65300006 7.8347956e-39
-0.15734191 0.10137048 0.65300006 7.9269913e-39
-0.15585905 0.10121524 0.65200001 8.1099434e-39
-0.15461715 0.10121524 0.65200001 8.1099434e-39
-0.15337524 0.10121524 0.65200001 8.2936158e-39
-0.15213333 0.10121524 0.65200001 7.9248333e-39
-0.15089144 0.10121524 0.65200001 9.5814679e-39
-0.14964953 0.10121524 0.65200001 1.1425381e-38
-0.14840762 0.10121524 0.65200001 1.1979999e-38
-0.14716572 0.10121524 0.65200001 1.3178542e-38
-0.14592381 0.10121524 0.65200001 1.2628219e-38
-0.1446819 0.10121524 0.65200001 1.2628219e-38
-0.14343999 0.10121524 0.65200001 1.2167248e-38
-0.14219809 0.10121524 0.65200001 1.0968704e-38
-0.14095619 0.10121524 0.65200001 1.0232621e-38
-0.13992859 0.10137048 0.65300006 9.0340773e-39
-0.13868478 0.10137048 0.65300006 8.5763067e-39
-0.13744096 0.10137048 0.65300006 8.760698e-39
-0.13619716 0.10137048 0.65300006 8.7610707e-39
-0.13516001 0.10152572 0.65400004 8.8532664e-39
-0.13391431 0.10152572 0.65400004 8.7610707e-39
-0.13266857 0.10152572 0.65400004 8.5766795e-39
-0.13142286 0.10152572 0.65400004 8.5763264e-39
-0.13017714 0.10152572 0.65400004 8.1153482e-39
-0.12912858 0.10168096 0.65500003 8.7585722e-39
-0.12788096 0.10168096 0.65500003 9.4961373e-39
-0.12702 0.10199143 0.65700001 1.1797369e-38
-0.12596001 0.10214667 0.65800005 1.410226e-38
-0.12470668 0.10214667 0.65800005 1.3180697e-38
-0.12364096 0.10230191 0.65900004 8.9396985e-39
-0.12238572 0.10230191 0.65900004 7.0111488e-39
-0.1214981 0.10261238 0.66100001 5.6282144e-39
-0.12042096 0.10276763 0.66200006 5.264136e-39
-0.11934 0.10292286 0.66300005 5.4485273e-39
-0.11825524 0.1030781 0.66400003 5.5414138e-39
-0.11734285 0.10338857 0.66600001 5.4492181e-39
-0.11642287 0.10369906 0.66800004 5.7236694e-39
-0.11515048 0.10369906 0.66800004 7.3831908e-39
-0.11438952 0.10416476 0.671 9.8638632e-39
-0.11361714 0.10463049 0.67400002 1.2721928e-38
-0.11266667 0.10494096 0.67600006 1.1890324e-38
-0.11170857 0.10525143 0.67800003 1.1337151e-38
-0.11058 0.10540666 0.67900002 1.2350589e-38
-0.10928667 0.10540666 0.67900002 1.5024263e-38
-0.10815237 0.1055619 0.68000001 1.4470336e-38
-0.10685714 0.1055619 0.68000001 1.4470336e-38
-0.10525143 0.10525143 0.67800003 1.6683418e-38
-0.10396 0.10525143 0.67800003 2.1016613e-38
-0.10266857 0.10525143 0.67800003 2.0924404e-38
-0.17696571 0.10465714 0.66600001 1.6042721e-38
-0.17569715 0.10465714 0.66600001 1.0326592e-38
-0.17390476 0.10434286 0.66400003 8.6710303e-39
-0.17264 0.10434286 0.66400003 6.4583352e-39
-0.17111716 0.10418572 0.66300005 6.4583478e-39
-0.16959812 0.10402858 0.66200006 5.9973697e-39
-0.16757429 0.10355715 0.65900004 7.7458132e-39
-0.16606668 0.10340001 0.65800005 1.1894617e-38
-0.16456285 0.10324285 0.65700001 1.2536075e-38
-0.16281429 0.10292857 0.65500003 8.6638585e-39
-0.16156667 0.10292857 0.65500003 7.6489526e-39
-0.16007431 0.10277143 0.65400004 8.2021264e-39
-0.15858573 0.10261429 0.65300006 8.2024894e-39
-0.15734191 0.10261429 0.65300006 8.2024894e-39
-0.15609811 0.10261429 0.65300006 8.1102937e-39
-0.1548543 0.10261429 0.65300006 8.0180981e-39
-0.15337524 0.10245714 0.65200001 8.0180981e-39
-0.15213333 0.10245714 0.65200001 7.5571199e-39
-0.15112287 0.10261429 0.65300006 8.0162792e-39
-0.14987907 0.10261429 0.65300006 9.8601918e-39
-0.14863525 0.10261429 0.65300006 1.1241331e-38
-0.14739144 0.10261429 0.65300006 1.2900853e-38
-0.14614764 0.10261429 0.65300006 1.3731709e-38
-0.14490382 0.10261429 0.65300006 1.3362926e-38
-0.14343999 0.10245714 0.65200001 1.1616609e-38
-0.14219809 0.10245714 0.65200001 9.1273267e-39
-0.14117239 0.10261429 0.65300006 8.7603673e-39
-0.13992859 0.10261429 0.65300006 8.3915848e-39
-0.13868478 0.10261429 0.65300006 8.5770354e-39
-0.13744096 0.10261429 0.65300006 8.7614267e-39
-0.13640572 0.10277143 0.65400004 8.7614267e-39
-0.13516001 0.10277143 0.65400004 8.7614267e-39
-0.13391431 0.10277143 0.65400004 8.3933742e-39
-0.13266857 0.10277143 0.65400004 8.208983e-39
-0.13142286 0.10277143 0.65400004 8.7610707e-39
-0.13017714 0.10277143 0.65400004 8.3922882e-39
-0.12912858 0.10292857 0.65500003 8.3908561e-39
-0.12827143 0.10324285 0.65700001 9.0362255e-39
-0.12721334 0.10340001 0.65800005 1.0876489e-38
-0.12596001 0.10340001 0.65800005 1.3457967e-38
-0.12470668 0.10340001 0.65800005 1.2536422e-38
-0.12364096 0.10355715 0.65900004 9.1251841e-39
-0.12238572 0.10355715 0.65900004 8.2993639e-39
-0.1214981 0.10387143 0.66100001 6.5476469e-39
-0.12060287 0.10418572 0.66300005 5.3556058e-39
-0.11934 0.10418572 0.66300005 5.3556058e-39
-0.11825524 0.10434286 0.66400003 5.4495685e-39
-0.11751906 0.10481429 0.66700006 5.1729816e-39
-0.11642287 0.10497144 0.66800004 5.6325304e-39
-0.11515048 0.10497144 0.66800004 9.5969425e-39
-0.11438952 0.10544286 0.671 1.1708832e-38
-0.11378571 0.10607143 0.67500001 1.1708832e-38
-0.11300001 0.10654286 0.67800003 1.1339299e-38
-0.11187334 0.1067 0.67900002 1.0601734e-38
-0.11058 0.1067 0.67900002 1.1521892e-38
-0.10944761 0.10685714 0.68000001 1.4195565e-38
-0.10815237 0.10685714 0.68000001 1.410264e-38
-0.10717143 0.10717143 0.68200004 1.4194835e-38
-0.10602762 0.10732858 0.68300003 1.6867809e-38
-0.10472667 0.10732858 0.68300003 2.0832221e-38
-0.10342572 0.10732858 0.68300003 2.0923684e-38
-0.17696571 0.10592572 0.66600001 1.7792593e-38
-0.17569715 0.10592572 0.66600001 1.216866e-38
-0.17442858 0.10592572 0.66600001 9.9610685e-39
-0.17316 0.10592572 0.66600001 6.9186127e-39
-0.17137524 0.10560763 0.66400003 5.0804734e-39
-0.16959812 0.10528953 0.66200006 4.2507128e-39
-0.16808285 0.10513048 0.66100001 8.0217008e-39
-0.16606668 0.10465334 0.65800005 1.1801722e-38
-0.16481334 0.10465334 0.65800005 1.216798e-38
-0.16331144 0.10449429 0.65700001 9.033329e-39
-0.16205999 0.10449429 0.65700001 7.4671047e-39
-0.16031905 0.10417619 0.65500003 7.651496e-39
-0.15882857 0.10401715 0.65400004 8.2024894e-39
-0.15758286 0.10401715 0.65400004 8.2024894e-39
-0.15609811 0.10385811 0.65300006 8.2028411e-39
-0.1548543 0.10385811 0.65300006 8.0184498e-39
-0.15361048 0.10385811 0.65300006 7.8344061e-39
-0.15236668 0.10385811 0.65300006 7.6500148e-39
-0.15112287 0.10385811 0.65300006 7.7422525e-39
-0.14987907 0.10385811 0.65300006 8.111035e-39
-0.14863525 0.10385811 0.65300006 9.0297123e-39
-0.14739144 0.10385811 0.65300006 1.1518994e-38
-0.14614764 0.10385811 0.65300006 1.336291e-38
-0.14490382 0.10385811 0.65300006 1.3455105e-38
-0.14366001 0.10385811 0.65300006 1.2076137e-38
-0.14241621 0.10385811 0.65300006 9.3102676e-39
-0.14117239 0.10385811 0.65300006 8.4837804e-39
-0.13992859 0.10385811 0.65300006 8.6681717e-39
-0.13868478 0.10385811 0.65300006 8.6688751e-39
-0.13744096 0.10385811 0.65300006 8.6688751e-39
-0.13640572 0.10401715 0.65400004 8.6692254e-39
-0.13516001 0.10401715 0.65400004 8.6692254e-39
-0.13391431 0.10401715 0.65400004 8.116437e-39
-0.13266857 0.10401715 0.65400004 7.6554589e-39
-0.13142286 0.10401715 0.65400004 8.7614267e-39
-0.13037619 0.10417619 0.65500003 8.9458179e-39
-0.12952286 0.10449429 0.65700001 8.8529132e-39
-0.12827143 0.10449429 0.65700001 9.1295001e-39
-0.12721334 0.10465334 0.65800005 1.1060198e-38
-0.12596001 0.10465334 0.65800005 1.3365089e-38
-0.12470668 0.10465334 0.65800005 1.3271829e-38
-0.12364096 0.10481239 0.65900004 1.2073286e-38
-0.12238572 0.10481239 0.65900004 8.9447585e-39
-0.1214981 0.10513048 0.66100001 6.3632809e-39
-0.12060287 0.10544858 0.66300005 4.9882526e-39
-0.11952001 0.10560763 0.66400003 4.7116657e-39
-0.11861143 0.10592572 0.66600001 4.8049151e-39
-0.11751906 0.10608477 0.66700006 4.7127195e-39
-0.11642287 0.10624382 0.66800004 7.6543476e-39
-0.11515048 0.10624382 0.66800004 1.244852e-38
-0.11456001 0.10688 0.67200005 1.2905178e-38
-0.11378571 0.10735714 0.67500001 1.1706635e-38
-0.11300001 0.10783429 0.67800003 1.02337e-38
-0.11187334 0.10799333 0.67900002 9.864917e-39
-0.11058 0.10799333 0.67900002 1.1430418e-38
-0.10944761 0.10815237 0.68000001 1.3182135e-38
-0.10815237 0.10815237 0.68000001 1.3180353e-38
-0.10717143 0.10847048 0.68200004 1.4102309e-38
-0.10602762 0.10862952 0.68300003 1.6683781e-38
-0.10472667 0.10862952 0.68300003 2.092478e-38
-0.17696571 0.10719428 0.66600001 1.8251457e-38
-0.17569715 0.10719428 0.66600001 1.3641676e-38
-0.17442858 0.10719428 0.66600001 1.14351e-38
-0.17316 0.10719428 0.66600001 7.3784922e-39
-0.17137524 0.10687238 0.66400003 4.9904176e-39
-0.1698543 0.10671143 0.66300005 4.8060263e-39
-0.16808285 0.10638952 0.66100001 7.8387417e-39
-0.16606668 0.10590667 0.65800005 1.2356328e-38
-0.16481334 0.10590667 0.65800005 1.2262697e-38
-0.16356 0.10590667 0.65800005 8.8514587e-39
-0.16230668 0.10590667 0.65800005 8.1124377e-39
-0.16080856 0.10574571 0.65700001 7.8358508e-39
-0.15955715 0.10574571 0.65700001 8.1106454e-39
-0.15782382 0.10542382 0.65500003 8.2028411e-39
-0.15633714 0.10526286 0.65400004 8.2943347e-39
-0.15509143 0.10526286 0.65400004 8.1099434e-39
-0.15384573 0.10526286 0.65400004 7.8354977e-39
-0.15260001 0.10526286 0.65400004 7.7433021e-39
-0.1513543 0.10526286 0.65400004 7.8362376e-39
-0.15010858 0.10526286 0.65400004 7.1908682e-39
-0.14886287 0.10526286 0.65400004 7.741109e-39
-0.14761716 0.10526286 0.65400004 1.1060152e-38
-0.14637144 0.10526286 0.65400004 1.2350565e-38
-0.14512572 0.10526286 0.65400004 1.308813e-38
-0.14388001 0.10526286 0.65400004 1.115491e-38
-0.14263429 0.10526286 0.65400004 9.1266065e-39
-0.14117239 0.10510191 0.65300006 8.575976e-39
-0.13992859 0.10510191 0.65300006 8.7603673e-39
-0.13868478 0.10510191 0.65300006 8.6688751e-39
-0.13744096 0.10510191 0.65300006 8.6688751e-39
-0.13640572 0.10526286 0.65400004 8.6699275e-39
-0.13516001 0.10526286 0.65400004 8.6699275e-39
-0.13391431 0.10526286 0.65400004 8.4844839e-39
-0.13266857 0.10526286 0.65400004 8.5766795e-39
-0.1316238 0.10542382 0.65500003 8.8532664e-39
-0.13077429 0.10574571 0.65700001 8.7610707e-39
-0.12952286 0.10574571 0.65700001 8.485923e-39
-0.12846668 0.10590667 0.65800005 9.9610531e-39
-0.12721334 0.10590667 0.65800005 1.1891391e-38
-0.12596001 0.10590667 0.65800005 1.2997738e-38
-0.12470668 0.10590667 0.65800005 1.391611e-38
-0.12364096 0.10606763 0.65900004 1.3270741e-38
-0.12238572 0.10606763 0.65900004 1.1615888e-38
-0.12186572 0.10671143 0.66300005 9.3109977e-39
-0.12078477 0.10687238 0.66400003 7.1976981e-39
-0.11988 0.10719428 0.66600001 5.4459811e-39
-0.11878953 0.10735524 0.66700006 4.6208475e-39
-0.11769524 0.10751619 0.66800004 4.9896301e-39
-0.11642287 0.10751619 0.66800004 8.6656451e-39
-0.11549524 0.10783809 0.67000002 1.299884e-38
-0.11421905 0.10783809 0.67000002 1.3366889e-38
-0.11378571 0.10864286 0.67500001 1.0785412e-38
-0.11300001 0.10912572 0.67800003 9.683027e-39
-0.11187334 0.10928667 0.67900002 9.7752227e-39
-0.11058 0.10928667 0.67900002 1.1247103e-38
-0.10944761 0.10944761 0.68000001 1.2353451e-38
-0.10815237 0.10944761 0.68000001 1.1801006e-38
-0.10717143 0.10976952 0.68200004 1.3552723e-38
-0.10602762 0.10993048 0.68300003 1.6775254e-38
-0.10472667 0.10993048 0.68300003 2.0739666e-38
-0.17596097 0.10862572 0.66700006 1.4655843e-38
-0.17469049 0.10862572 0.66700006 1.1618763e-38
-0.17342001 0.10862572 0.66700006 8.2997198e-39
-0.17189144 0.10846286 0.66600001 7.7483734e-39
-0.17011048 0.10813715 0.66400003 8.7625253e-39
-0.16808285 0.10764857 0.66100001 1.1062715e-38
-0.16606668 0.10716 0.65800005 1.3183214e-38
-0.16481334 0.10716 0.65800005 1.2721846e-38
-0.16356 0.10716 0.65800005 1.1154521e-38
-0.16230668 0.10716 0.65800005 8.8510958e-39
-0.16105334 0.10716 0.65800005 7.4681613e-39
-0.15955715 0.10699714 0.65700001 7.8354977e-39
-0.15830572 0.10699714 0.65700001 7.5589108e-39
-0.15705428 0.10699714 0.65700001 7.9248459e-39
-0.15580286 0.10699714 0.65700001 7.648259e-39
-0.15408096 0.10667143 0.65500003 7.8354977e-39
-0.15283334 0.10667143 0.65500003 7.8354977e-39
-0.1513543 0.10650858 0.65400004 7.7436692e-39
-0.15010858 0.10650858 0.65400004 7.2826911e-39
-0.14886287 0.10650858 0.65400004 7.7418503e-39
-0.14761716 0.10650858 0.65400004 1.069211e-38
-0.14637144 0.10650858 0.65400004 1.235093e-38
-0.14512572 0.10650858 0.65400004 1.3088495e-38
-0.14388001 0.10650858 0.65400004 1.2075782e-38
-0.14263429 0.10650858 0.65400004 9.2177175e-39
-0.14138858 0.10650858 0.65400004 8.3930267e-39
-0.14014286 0.10650858 0.65400004 8.577418e-39
-0.13889715 0.10650858 0.65400004 8.6688751e-39
-0.13765144 0.10650858 0.65400004 8.4844839e-39
-0.13640572 0.10650858 0.65400004 8.4851579e-39
-0.13516001 0.10650858 0.65400004 8.6695491e-39
-0.13411906 0.10667143 0.65500003 8.8536223e-39
-0.13287142 0.10667143 0.65500003 8.8536223e-39
-0.13202572 0.10699714 0.65700001 8.7603673e-39
-0.13097335 0.10716 0.65800005 8.4837804e-39
-0.12972 0.10716 0.65800005 9.220607e-39
-0.12846668 0.10716 0.65800005 1.1433302e-38
-0.12721334 0.10716 0.65800005 1.2535317e-38
-0.12596001 0.10716 0.65800005 1.2627512e-38
-0.1248962 0.10732286 0.65900004 1.3824604e-38
-0.12364096 0.10732286 0.65900004 1.4377778e-38
-0.12294286 0.10781144 0.66200006 1.3365431e-38
-0.12204953 0.10813715 0.66400003 1.3273235e-38
-0.12078477 0.10813715 0.66400003 1.2079724e-38
-0.11988 0.10846286 0.66600001 1.0235811e-38
-0.11896762 0.10878857 0.66800004 9.4074925e-39
-0.11769524 0.10878857 0.66800004 9.03871e-39
-0.11642287 0.10878857 0.66800004 1.0232649e-38
-0.11549524 0.10911428 0.67000002 1.2629735e-38
-0.11421905 0.10911428 0.67000002 1.2262661e-38
-0.11378571 0.10992857 0.67500001 1.0326552e-38
-0.11300001 0.11041714 0.67800003 9.7748695e-39
-0.11187334 0.11058 0.67900002 9.8670652e-39
-0.11074285 0.11074285 0.68000001 1.133965e-38
-0.10944761 0.11074285 0.68000001 1.2630389e-38
-0.10815237 0.11074285 0.68000001 1.308923e-38
-0.10717143 0.11106858 0.68200004 1.5301926e-38
-0.10602762 0.11123143 0.68300003 1.6959652e-38
-0.10472667 0.11123143 0.68300003 2.101626e-38
-0.17622477 0.11006096 0.66800004 1.4564363e-38
-0.17495239 0.11006096 0.66800004 1.2628605e-38
-0.17368001 0.11006096 0.66800004 9.3095628e-39
-0.17214954 0.1098962 0.66700006 9.4013815e-39
-0.17062286 0.10973143 0.66600001 1.0968707e-38
-0.16859144 0.10923715 0.66300005 1.3362933e-38
-0.16631906 0.1085781 0.65900004 1.363952e-38
-0.16481334 0.10841334 0.65800005 1.2996996e-38
-0.16356 0.10841334 0.65800005 1.1982844e-38
-0.16230668 0.10841334 0.65800005 1.087834e-38
-0.16105334 0.10841334 0.65800005 8.3890582e-39
-0.15980001 0.10841334 0.65800005 7.8362067e-39
-0.15854667 0.10841334 0.65800005 7.6518155e-39
-0.15705428 0.10824858 0.65700001 8.1088868e-39
-0.15580286 0.10824858 0.65700001 8.2010824e-39
-0.15455143 0.10824858 0.65700001 7.9273444e-39
-0.15283334 0.10791905 0.65500003 7.9273444e-39
-0.15158573 0.10791905 0.65500003 7.8347956e-39
-0.1503381 0.10791905 0.65500003 7.3738175e-39
-0.14886287 0.10775429 0.65400004 6.9145756e-39
-0.14761716 0.10775429 0.65400004 1.1524357e-38
-0.14637144 0.10775429 0.65400004 1.2350937e-38
-0.14512572 0.10775429 0.65400004 1.2811915e-38
-0.14388001 0.10775429 0.65400004 1.1801015e-38
-0.14263429 0.10775429 0.65400004 9.403929e-39
-0.14138858 0.10775429 0.65400004 8.8525629e-39
-0.14014286 0.10775429 0.65400004 8.7603673e-39
-0.13889715 0.10775429 0.65400004 8.7610707e-39
-0.13786191 0.10791905 0.65500003 8.6688751e-39
-0.13703142 0.10824858 0.65700001 8.4851831e-39
-0.13577999 0.10824858 0.65700001 8.6695744e-39
-0.13452858 0.10824858 0.65700001 9.1302092e-39
-0.13327713 0.10824858 0.65700001 8.9458179e-39
-0.13222668 0.10841334 0.65800005 8.3930239e-39
-0.13097335 0.10841334 0.65800005 8.4852195e-39
-0.12972 0.10841334 0.65800005 9.8648974e-39
-0.12846668 0.10841334 0.65800005 1.2815158e-38
-0.12721334 0.10841334 0.65800005 1.3457287e-38
-0.12596001 0.10841334 0.65800005 1.2166548e-38
-0.1248962 0.1085781 0.65900004 1.2624994e-38
-0.12364096 0.1085781 0.65900004 1.3823537e-38
-0.12294286 0.10907239 0.66200006 1.4008293e-38
-0.12204953 0.10940191 0.66400003 1.4100489e-38
-0.12078477 0.10940191 0.66400003 1.345764e-38
-0.12006001 0.1098962 0.66700006 1.2351293e-38
-0.11896762 0.11006096 0.66800004 1.115561e-38
-0.11804762 0.11039048 0.67000002 1.1432196e-38
-0.11677143 0.11039048 0.67000002 1.2259838e-38
-0.11549524 0.11039048 0.67000002 1.179886e-38
-0.11456001 0.11072001 0.67200005 1.1064143e-38
-0.11378571 0.11121429 0.67500001 1.0049991e-38
-0.11266667 0.11137906 0.67600006 9.5000749e-39
-0.11187334 0.11187334 0.67900002 9.4078793e-39
-0.11074285 0.11203809 0.68000001 1.1431494e-38
-0.10944761 0.11203809 0.68000001 1.2722233e-38
-0.10815237 0.11203809 0.68000001 1.3733511e-38
-0.10717143 0.11236762 0.68200004 1.6314989e-38
-0.10618286 0.11269714 0.68400002 1.7328427e-38
-0.10488 0.11269714 0.68400002 2.0924057e-38
-0.17547619 0.11166666 0.67000002 1.2353501e-38
-0.1742 0.11166666 0.67000002 1.1431545e-38
-0.17240763 0.11133334 0.66800004 1.253641e-38
-0.17087907 0.11116667 0.66700006 1.3734953e-38
-0.16884573 0.11066667 0.66400003 1.3826072e-38
-0.16631906 0.10983334 0.65900004 1.2627529e-38
-0.16506383 0.10983334 0.65900004 1.2260866e-38
-0.16356 0.10966668 0.65800005 1.2353061e-38
-0.16230668 0.10966668 0.65800005 1.1614851e-38
-0.16105334 0.10966668 0.65800005 1.0139721e-38
-0.15980001 0.10966668 0.65800005 8.8503727e-39
-0.15854667 0.10966668 0.65800005 7.4674382e-39
-0.15729335 0.10966668 0.65800005 7.3738525e-39
-0.15604001 0.10966668 0.65800005 7.5582438e-39
-0.15455143 0.1095 0.65700001 7.650417e-39
-0.1533 0.1095 0.65700001 7.650417e-39
-0.15158573 0.10916667 0.65500003 7.7429559e-39
-0.1503381 0.10916667 0.65500003 8.1117385e-39
-0.14909048 0.10916667 0.65500003 9.031534e-39
-0.14784285 0.10916667 0.65500003 1.2811555e-38
-0.14659524 0.10916667 0.65500003 1.2811189e-38
-0.14534763 0.10916667 0.65500003 1.2350211e-38
-0.14410001 0.10916667 0.65500003 1.2074002e-38
-0.1428524 0.10916667 0.65500003 1.2074002e-38
-0.14160477 0.10916667 0.65500003 1.0140428e-38
-0.14014286 0.109 0.65400004 9.4950583e-39
-0.13889715 0.109 0.65400004 8.8532664e-39
-0.13786191 0.10916667 0.65500003 8.7610707e-39
-0.13703142 0.1095 0.65700001 8.4862789e-39
-0.13577999 0.1095 0.65700001 8.4862789e-39
-0.13473335 0.10966668 0.65800005 8.485923e-39
-0.13348001 0.10966668 0.65800005 8.7625099e-39
-0.13222668 0.10966668 0.65800005 9.5890518e-39
-0.13097335 0.10966668 0.65800005 1.1248573e-38
-0.12972 0.10966668 0.65800005 1.2720777e-38
-0.12846668 0.10966668 0.65800005 1.3550538e-38
-0.12740667 0.10983334 0.65900004 1.3272872e-38
-0.12615144 0.10983334 0.65900004 8.9396774e-39
-0.1248962 0.10983334 0.65900004 9.2148714e-39
-0.12364096 0.10983334 0.65900004 1.0690002e-38
-0.12294286 0.11033335 0.66200006 1.1979999e-38
-0.12241714 0.111 0.66600001 1.3270738e-38
-0.12114857 0.111 0.66600001 1.3180676e-38
-0.12024 0.11133334 0.66800004 1.373385e-38
-0.11932381 0.11166666 0.67000002 1.3550891e-38
-0.11804762 0.11166666 0.67000002 1.419626e-38
-0.11677143 0.11166666 0.67000002 1.263041e-38
-0.11549524 0.11166666 0.67000002 1.0141128e-38
-0.11456001 0.112 0.67200005 9.683027e-39
-0.11378571 0.1125 0.67500001 9.683027e-39
-0.11266667 0.11266667 0.67600006 9.7755786e-39
-0.11187334 0.11316667 0.67900002 9.5911873e-39
-0.11074285 0.11333333 0.68000001 1.115491e-38
-0.10944761 0.11333333 0.68000001 1.2814432e-38
-0.10815237 0.11333333 0.68000001 1.4378497e-38
-0.10717143 0.11366667 0.68200004 1.7513148e-38
-0.10587239 0.11366667 0.68200004 1.7787973e-38
-0.17780763 0.11361714 0.67400002 1.6408992e-38
-0.17573808 0.11311143 0.671 1.410554e-38
-0.1742 0.11294286 0.67000002 1.1985041e-38
-0.17292382 0.11294286 0.67000002 1.3456924e-38
-0.17113525 0.11260572 0.66800004 1.4102294e-38
-0.16960859 0.11243715 0.66700006 1.4195581e-38
-0.16631906 0.11108857 0.65900004 1.1337516e-38
-0.16506383 0.11108857 0.65900004 1.115418e-38
-0.16380858 0.11108857 0.65900004 1.179955e-38
-0.16255334 0.11108857 0.65900004 1.2166936e-38
-0.16105334 0.11092001 0.65800005 1.0968393e-38
-0.15980001 0.11092001 0.65800005 1.0416992e-38
-0.15854667 0.11092001 0.65800005 8.5730795e-39
-0.15729335 0.11092001 0.65800005 6.5455114e-39
-0.15604001 0.11092001 0.65800005 6.7299026e-39
-0.15455143 0.11075143 0.65700001 7.1894192e-39
-0.1533 0.11075143 0.65700001 7.6503974e-39
-0.15204857 0.11075143 0.65700001 7.7426126e-39
-0.15079714 0.11075143 0.65700001 9.2177427e-39
-0.14909048 0.11041429 0.65500003 1.1795961e-38
-0.14784285 0.11041429 0.65500003 1.3178895e-38
-0.14659524 0.11041429 0.65500003 1.3639497e-38
-0.14534763 0.11041429 0.65500003 1.2533149e-38
-0.14410001 0.11041429 0.65500003 1.271719e-38
-0.1428524 0.11041429 0.65500003 1.2993777e-38
-0.14160477 0.11041429 0.65500003 1.2073993e-38
-0.14035714 0.11041429 0.65500003 1.0875449e-38
-0.13910952 0.11041429 0.65500003 9.6819382e-39
-0.13786191 0.11041429 0.65500003 9.1287645e-39
-0.13703142 0.11075143 0.65700001 8.3018877e-39
-0.13598667 0.11092001 0.65800005 8.209692e-39
-0.13473335 0.11092001 0.65800005 8.1178257e-39
-0.13348001 0.11092001 0.65800005 8.7631951e-39
-0.13222668 0.11092001 0.65800005 9.6812348e-39
-0.13097335 0.11092001 0.65800005 1.2262712e-38
-0.12972 0.11092001 0.65800005 1.3179984e-38
-0.1286619 0.11108857 0.65900004 1.2995593e-38
-0.12740667 0.11108857 0.65900004 1.1705923e-38
-0.12615144 0.11108857 0.65900004 8.4790762e-39
-0.1248962 0.11108857 0.65900004 7.9269913e-39
-0.12401619 0.11142571 0.66100001 8.8489476e-39
-0.12312857 0.11176286 0.66300005 1.0781093e-38
-0.12204953 0.11193144 0.66400003 1.2440614e-38
-0.12133048 0.11243715 0.66700006 1.3455456e-38
-0.12024 0.11260572 0.66800004 1.4100825e-38
-0.11932381 0.11294286 0.67000002 1.4010797e-38
-0.11804762 0.11294286 0.67000002 1.4195188e-38
-0.11677143 0.11294286 0.67000002 1.2354908e-38
-0.11566762 0.11311143 0.671 9.7734304e-39
-0.11456001 0.11328001 0.67200005 9.4078793e-39
-0.11378571 0.11378571 0.67500001 9.6844662e-39
-0.11266667 0.11395429 0.67600006 1.0143625e-38
-0.11187334 0.11446001 0.67900002 1.0143625e-38
-0.11074285 0.11462857 0.68000001 1.087797e-38
-0.10944761 0.11462857 0.68000001 1.2537492e-38
-0.10815237 0.11462857 0.68000001 1.5297936e-38
-0.10717143 0.11496571 0.68200004 1.8063805e-38
-0.10587239 0.11496571 0.68200004 1.917053e-38
-0.17780763 0.11490095 0.67400002 1.751534e-38
-0.17600001 0.11456001 0.67200005 1.5026048e-38
-0.17445999 0.11438952 0.671 1.1522614e-38
-0.17318191 0.11438952 0.671 1.262788e-38
-0.17164762 0.11421905 0.67000002 1.3826423e-38
-0.16986287 0.1138781 0.66800004 1.3182832e-38
-0.16707622 0.11285525 0.66200006 1.0140376e-38
-0.16506383 0.11234381 0.65900004 8.9447614e-39
-0.16380858 0.11234381 0.65900004 9.1291526e-39
-0.16255334 0.11234381 0.65900004 1.0415582e-38
-0.16105334 0.11217334 0.65800005 1.152193e-38
-0.15980001 0.11217334 0.65800005 1.1613737e-38
-0.15854667 0.11217334 0.65800005 1.1244955e-38
-0.15729335 0.11217334 0.65800005 8.942232e-39
-0.15604001 0.11217334 0.65800005 7.190515e-39
-0.15478668 0.11217334 0.65800005 7.55895e-39
-0.1533 0.11200286 0.65700001 9.2184714e-39
-0.15204857 0.11200286 0.65700001 1.1427914e-38
-0.15079714 0.11200286 0.65700001 1.2534262e-38
-0.14954571 0.11200286 0.65700001 1.2534978e-38
-0.14829428 0.11200286 0.65700001 1.2442782e-38
-0.14704286 0.11200286 0.65700001 1.1063029e-38
-0.14579143 0.11200286 0.65700001 7.6517903e-39
-0.14454 0.11200286 0.65700001 9.5847175e-39
-0.14328857 0.11200286 0.65700001 1.2442782e-38
-0.14203715 0.11200286 0.65700001 1.2534249e-38
-0.14078571 0.11200286 0.65700001 1.2995227e-38
-0.13953428 0.11200286 0.65700001 1.2536383e-38
-0.13828287 0.11200286 0.65700001 1.1798818e-38
-0.13724001 0.11217334 0.65800005 1.0604604e-38
-0.13598667 0.11217334 0.65800005 9.3138648e-39
-0.13473335 0.11217334 0.65800005 9.2213202e-39
-0.13348001 0.11217334 0.65800005 1.0973037e-38
-0.13242763 0.11234381 0.65900004 1.2536746e-38
-0.13117239 0.11234381 0.65900004 1.2813333e-38
-0.12991714 0.11234381 0.65900004 1.2627889e-38
-0.1286619 0.11234381 0.65900004 9.9542161e-39
-0.12740667 0.11234381 0.65900004 8.75531e-39
-0.1265343 0.11268476 0.66100001 7.8333537e-39
-0.12527524 0.11268476 0.66100001 7.6504394e-39
-0.12420382 0.11285525 0.66200006 8.2036132e-39
-0.12331429 0.11319619 0.66400003 8.8471455e-39
-0.12204953 0.11319619 0.66400003 8.6627542e-39
-0.12133048 0.11370763 0.66700006 1.0504482e-38
-0.12024 0.1138781 0.66800004 1.2993764e-38
-0.11932381 0.11421905 0.67000002 1.3640929e-38
-0.11804762 0.11421905 0.67000002 1.3917516e-38
-0.11677143 0.11421905 0.67000002 1.2447077e-38
-0.11566762 0.11438952 0.671 9.957795e-39
-0.11490095 0.11490095 0.67400002 9.4085981e-39
-0.11378571 0.11507143 0.67500001 9.5929894e-39
-0.11266667 0.11524191 0.67600006 9.9599432e-39
-0.11187334 0.11575333 0.67900002 1.0605313e-38
-0.11139429 0.11660571 0.68400002 1.1338618e-38
-0.11009143 0.11660571 0.68400002 1.2444965e-38
-0.10878857 0.11660571 0.68400002 1.3546232e-38
-0.10748571 0.11660571 0.68400002 1.7326253e-38
-0.10618286 0.11660571 0.68400002 1.8893931e-38
-0.18144572 0.11687429 0.67800003 1.9818786e-38
-0.17780763 0.11618476 0.67400002 1.8805362e-38
-0.17600001 0.11584001 0.67200005 1.5579594e-38
-0.17445999 0.11566762 0.671 1.1522987e-38
-0.17318191 0.11566762 0.671 1.2167253e-38
-0.17164762 0.11549524 0.67000002 1.2997014e-38
-0.17037143 0.11549524 0.67000002 1.1525142e-38
-0.16732858 0.11428858 0.66300005 9.4968379e-39
-0.16581525 0.1141162 0.66200006 8.0267581e-39
-0.1643057 0.11394381 0.66100001 8.0267581e-39
-0.16255334 0.11359905 0.65900004 9.9560168e-39
-0.1612981 0.11359905 0.65900004 1.1062364e-38
-0.16004287 0.11359905 0.65900004 1.271829e-38
-0.15878762 0.11359905 0.65900004 1.1980725e-38
-0.15753239 0.11359905 0.65900004 1.1244602e-38
-0.15604001 0.11342667 0.65800005 7.9255591e-39
-0.15478668 0.11342667 0.65800005 8.3854247e-39
-0.15353334 0.11342667 0.65800005 1.0966902e-38
-0.15228 0.11342667 0.65800005 1.2165119e-38
-0.15102668 0.11342667 0.65800005 1.2810488e-38
-0.14977334 0.11342667 0.65800005 1.2719738e-38
-0.14852001 0.11342667 0.65800005 1.1705586e-38
-0.14726667 0.11342667 0.65800005 8.0278119e-39
-0.14601335 0.11342667 0.65800005 5.1697474e-39
-0.14476001 0.11342667 0.65800005 7.1933331e-39
-0.14350668 0.11342667 0.65800005 1.0327984e-38
-0.14225334 0.11342667 0.65800005 1.235093e-38
-0.14100002 0.11342667 0.65800005 1.318069e-38
-0.13974668 0.11342667 0.65800005 1.336401e-38
-0.13849334 0.11342667 0.65800005 1.2995227e-38
-0.13744858 0.11359905 0.65900004 1.1248908e-38
-0.13619334 0.11359905 0.65900004 9.3127998e-39
-0.13493811 0.11359905 0.65900004 9.5886608e-39
-0.13368286 0.11359905 0.65900004 1.2262334e-38
-0.13242763 0.11359905 0.65900004 1.2996672e-38
-0.13157047 0.11394381 0.66100001 1.2627889e-38
-0.13031143 0.11394381 0.66100001 1.2075079e-38
-0.12924762 0.1141162 0.66200006 8.7560359e-39
-0.12798668 0.1141162 0.66200006 8.2950367e-39
-0.12691715 0.11428858 0.66300005 8.2028411e-39
-0.1256543 0.11428858 0.66300005 7.8347956e-39
-0.12457906 0.11446096 0.66400003 7.8347956e-39
-0.12331429 0.11446096 0.66400003 7.9269913e-39
-0.12241714 0.11480572 0.66600001 7.5582088e-39
-0.12151238 0.11515048 0.66800004 8.9378698e-39
-0.1206 0.11549524 0.67000002 1.1334956e-38
-0.1195019 0.11566762 0.671 1.2809746e-38
-0.11804762 0.11549524 0.67000002 1.4008289e-38
-0.11677143 0.11549524 0.67000002 1.1248923e-38
-0.11584001 0.11584001 0.67200005 9.4050108e-39
-0.11507143 0.11635715 0.67500001 9.1320113e-39
-0.11395429 0.11652953 0.67600006 9.3164025e-39
-0.11333333 0.11721905 0.68000001 9.499335e-39
-0.11203809 0.11721905 0.68000001 1.0790074e-38
-0.11139429 0.11790857 0.68400002 1.1708126e-38
-0.11009143 0.11790857 0.68400002 1.161593e-38
-0.10878857 0.11790857 0.68400002 1.3454001e-38
-0.10780001 0.11825334 0.68600005 1.6496457e-38
-0.10649334 0.11825334 0.68600005 1.8618063e-38
-0.18015428 0.11816572 0.67800003 1.9727309e-38
-0.17833525 0.11781715 0.67600006 1.9174135e-38
-0.17652382 0.11746857 0.67400002 1.8160685e-38
-0.17472 0.11712001 0.67200005 1.087723e-38
-0.17318191 0.11694571 0.671 1.1429336e-38
-0.17190382 0.11694571 0.671 1.2904466e-38
-0.17037143 0.11677143 0.67000002 1.1616977e-38
-0.16859047 0.11642287 0.66800004 9.7730647e-39
-0.16706763 0.11624859 0.66700006 8.4859384e-39
-0.16480286 0.11555143 0.66300005 8.3015471e-39
-0.16304667 0.11520286 0.66100001 9.2209601e-39
-0.16178761 0.11520286 0.66100001 9.497547e-39
-0.16052857 0.11520286 0.66100001 1.0966929e-38
-0.15926953 0.11520286 0.66100001 1.179669e-38
-0.15801048 0.11520286 0.66100001 1.1428618e-38
-0.15627715 0.11485429 0.65900004 1.0783248e-38
-0.15502191 0.11485429 0.65900004 1.1060177e-38
-0.15376668 0.11485429 0.65900004 1.2627503e-38
-0.15251143 0.11485429 0.65900004 1.262785e-38
-0.1512562 0.11485429 0.65900004 1.2074676e-38
-0.15000096 0.11485429 0.65900004 9.7716424e-39
-0.14874573 0.11485429 0.65900004 6.8213822e-39
-0.14749049 0.11485429 0.65900004 4.9853561e-39
-0.14623524 0.11485429 0.65900004 4.2477911e-39
-0.14498 0.11485429 0.65900004 4.9846106e-39
-0.14372477 0.11485429 0.65900004 6.0909582e-39
-0.14246953 0.11485429 0.65900004 8.5719739e-39
-0.1412143 0.11485429 0.65900004 1.0600278e-38
-0.13995907 0.11485429 0.65900004 1.1980728e-38
-0.13870381 0.11485429 0.65900004 1.3087075e-38
-0.13744858 0.11485429 0.65900004 1.2352009e-38
-0.13619334 0.11485429 0.65900004 1.1614444e-38
-0.13534762 0.11520286 0.66100001 1.2352019e-38
-0.13408858 0.11520286 0.66100001 1.2905192e-38
-0.13282953 0.11520286 0.66100001 1.262788e-38
-0.13176954 0.11537715 0.66200006 1.0046402e-38
-0.13050859 0.11537715 0.66200006 9.0318941e-39
-0.12924762 0.11537715 0.66200006 8.7553072e-39
-0.12818 0.11555143 0.66300005 8.6631144e-39
-0.12691715 0.11555143 0.66300005 8.3865275e-39
-0.1256543 0.11555143 0.66300005 8.1106454e-39
-0.12457906 0.11572572 0.66400003 8.2950367e-39
-0.12368571 0.11607429 0.66600001 8.3861898e-39
-0.12260097 0.11624859 0.66700006 8.1096029e-39
-0.12151238 0.11642287 0.66800004 8.5698369e-39
-0.1206 0.11677143 0.67000002 1.041375e-38
-0.1195019 0.11694571 0.671 1.2258381e-38
-0.11822381 0.11694571 0.671 1.3641315e-38
-0.11712001 0.11712001 0.67200005 1.2262697e-38
-0.11584001 0.11712001 0.67200005 9.3124368e-39
-0.11507143 0.11764286 0.67500001 8.8554216e-39
-0.11429143 0.11816572 0.67800003 9.0398128e-39
-0.11366667 0.11886286 0.68200004 9.9574433e-39
-0.11236762 0.11886286 0.68200004 1.1801356e-38
-0.11139429 0.11921144 0.68400002 1.2351331e-38
-0.11009143 0.11921144 0.68400002 1.1060592e-38
-0.10878857 0.11921144 0.68400002 1.16105e-38
-0.10748571 0.11921144 0.68400002 1.5943695e-38
-0.10664857 0.11973429 0.68700004 1.8064897e-38
-0.18144572 0.11945715 0.67800003 1.972659e-38
-0.18015428 0.11945715 0.67800003 1.9818432e-38
-0.17886287 0.11945715 0.67800003 1.9541846e-38
-0.17652382 0.11875238 0.67400002 1.8160724e-38
-0.17472 0.11840001 0.67200005 1.1891422e-38
-0.17344001 0.11840001 0.67200005 1.1153452e-38
-0.17190382 0.11822381 0.671 1.2812973e-38
-0.17062572 0.11822381 0.671 1.1433299e-38
-0.16909523 0.11804762 0.67000002 9.7737779e-39
-0.16706763 0.11751906 0.66700006 8.6696108e-39
-0.16554858 0.11734285 0.66600001 8.5774152e-39
-0.16354001 0.11681429 0.66300005 8.6681492e-39
-0.1620324 0.1166381 0.66200006 8.483758e-39
-0.16077144 0.1166381 0.66200006 9.7687459e-39
-0.15951048 0.1166381 0.66200006 1.1059485e-38
-0.15824954 0.1166381 0.66200006 1.253245e-38
-0.15675142 0.11646191 0.66100001 1.2255863e-38
-0.15549238 0.11646191 0.66100001 1.1428618e-38
-0.15376668 0.11610953 0.65900004 1.2627161e-38
-0.15251143 0.11610953 0.65900004 1.2536044e-38
-0.1512562 0.11610953 0.65900004 1.0138958e-38
-0.15000096 0.11610953 0.65900004 8.3904904e-39
-0.14874573 0.11610953 0.65900004 5.7168171e-39
-0.14749049 0.11610953 0.65900004 4.5243752e-39
-0.14623524 0.11610953 0.65900004 4.8931577e-39
-0.14498 0.11610953 0.65900004 4.7094713e-39
-0.14372477 0.11610953 0.65900004 4.6172756e-39
-0.14246953 0.11610953 0.65900004 5.9047747e-39
-0.1412143 0.11610953 0.65900004 7.7486873e-39
-0.13995907 0.11610953 0.65900004 1.0874728e-38
-0.13870381 0.11610953 0.65900004 1.2257662e-38
-0.13744858 0.11610953 0.65900004 1.3180686e-38
-0.13660666 0.11646191 0.66100001 1.3272882e-38
-0.13534762 0.11646191 0.66100001 1.345694e-38
-0.13408858 0.11646191 0.66100001 1.3180353e-38
-0.13282953 0.11646191 0.66100001 1.1982873e-38
-0.13176954 0.1166381 0.66200006 8.1106567e-39
-0.13070573 0.11681429 0.66300005 8.7531282e-39
-0.12944287 0.11681429 0.66300005 9.0297151e-39
-0.12837334 0.11699048 0.66400003 8.6627542e-39
-0.12710857 0.11699048 0.66400003 8.478363e-39
-0.12584381 0.11699048 0.66400003 8.478349e-39
-0.12495428 0.11734285 0.66600001 8.5705446e-39
-0.12368571 0.11734285 0.66600001 8.5698369e-39
-0.12260097 0.11751906 0.66700006 8.2932501e-39
-0.12151238 0.11769524 0.66800004 8.1099168e-39
-0.1206 0.11804762 0.67000002 1.0875786e-38
-0.1195019 0.11822381 0.671 1.1890312e-38
-0.11822381 0.11822381 0.671 1.3549833e-38
-0.11712001 0.11840001 0.67200005 1.2539299e-38
-0.11584001 0.11840001 0.67200005 9.9578217e-39
-0.11524191 0.11910477 0.67600006 9.1302092e-39
-0.11446001 0.11963334 0.67900002 9.3146004e-39
-0.11366667 0.12016191 0.68200004 1.0233303e-38
-0.11236762 0.12016191 0.68200004 1.3275759e-38
-0.11172 0.12086668 0.68600005 1.3825366e-38
-0.11041334 0.12086668 0.68600005 1.0875106e-38
-0.10926571 0.12104286 0.68700004 1.0964346e-38
-0.10795715 0.12104286 0.68700004 1.6772671e-38
-0.10664857 0.12104286 0.68700004 1.7972338e-38
-0.18042001 0.12092667 0.67900002 1.9634747e-38
-0.17886287 0.12074857 0.67800003 1.9450356e-38
-0.17678571 0.12021428 0.67500001 1.8438032e-38
-0.17524001 0.12003619 0.67400002 1.2906294e-38
-0.1739562 0.12003619 0.67400002 1.3273965e-38
-0.17216001 0.11968001 0.67200005 1.3919334e-38
-0.17088 0.11968001 0.67200005 1.2355246e-38
-0.16909523 0.11932381 0.67000002 9.7737681e-39
-0.16731811 0.11896762 0.66800004 8.8543706e-39
-0.16579716 0.11878953 0.66700006 8.9465662e-39
-0.16428 0.11861143 0.66600001 8.945462e-39
-0.16227715 0.11807715 0.66300005 8.207897e-39
-0.1610143 0.11807715 0.66300005 9.1262729e-39
-0.15975145 0.11807715 0.66300005 9.863838e-39
-0.15848857 0.11807715 0.66300005 1.1520453e-38
-0.15698858 0.11789906 0.66200006 1.2903387e-38
-0.15549238 0.11772095 0.66100001 1.2811192e-38
-0.15423334 0.11772095 0.66100001 1.2811192e-38
-0.15297428 0.11772095 0.66100001 1.1892446e-38
-0.15171525 0.11772095 0.66100001 6.9138819e-39
-0.15000096 0.11736477 0.65900004 5.3534057e-39
-0.14874573 0.11736477 0.65900004 5.0768189e-39
-0.14749049 0.11736477 0.65900004 5.0772084e-39
-0.14623524 0.11736477 0.65900004 5.0772084e-39
-0.14498 0.11736477 0.65900004 5.0772084e-39
-0.14372477 0.11736477 0.65900004 4.8928172e-39
-0.14246953 0.11736477 0.65900004 5.4441987e-39
-0.1412143 0.11736477 0.65900004 5.2598074e-39
-0.13995907 0.11736477 0.65900004 7.2833959e-39
-0.13870381 0.11736477 0.65900004 8.4819391e-39
-0.13744858 0.11736477 0.65900004 1.0599206e-38
-0.13660666 0.11772095 0.66100001 1.345727e-38
-0.13534762 0.11772095 0.66100001 1.3180697e-38
-0.13429144 0.11789906 0.66200006 1.1152394e-38
-0.13303047 0.11789906 0.66200006 9.9531399e-39
-0.13196859 0.11807715 0.66300005 8.1092273e-39
-0.13070573 0.11807715 0.66300005 8.3858016e-39
-0.12944287 0.11807715 0.66300005 8.5701929e-39
-0.12837334 0.11825524 0.66400003 8.5698369e-39
-0.12710857 0.11825524 0.66400003 8.5698369e-39
-0.12622285 0.11861143 0.66600001 8.6634647e-39
-0.12514192 0.11878953 0.66700006 8.9400516e-39
-0.12387145 0.11878953 0.66700006 8.4787203e-39
-0.12278477 0.11896762 0.66800004 8.2021334e-39
-0.12151238 0.11896762 0.66800004 8.8460301e-39
-0.1206 0.11932381 0.67000002 1.1980681e-38
-0.1195019 0.1195019 0.671 1.336326e-38
-0.11840001 0.11968001 0.67200005 1.4377412e-38
-0.11712001 0.11968001 0.67200005 1.3733874e-38
-0.11618476 0.12003619 0.67400002 1.2996309e-38
-0.11524191 0.12039239 0.67600006 1.2170499e-38
-0.11446001 0.12092667 0.67900002 1.1064151e-38
-0.11333333 0.12110476 0.68000001 1.1614454e-38
-0.11236762 0.12146095 0.68200004 1.3734953e-38
-0.11172 0.12217335 0.68600005 1.3364717e-38
-0.11041334 0.12217335 0.68600005 1.0322262e-38
-0.10926571 0.12235144 0.68700004 1.0689246e-38
-0.10795715 0.12235144 0.68700004 1.6497571e-38
-0.10664857 0.12235144 0.68700004 1.8064901e-38
-0.18042001 0.12222001 0.67900002 1.9819867e-38
-0.17912666 0.12222001 0.67900002 1.9635476e-38
-0.17704763 0.12168001 0.67600006 1.8991558e-38
-0.17550001 0.1215 0.67500001 1.3552016e-38
-0.1739562 0.12132 0.67400002 1.4285966e-38
-0.17267238 0.12132 0.67400002 1.4654749e-38
-0.17088 0.12096001 0.67200005 1.2354908e-38
-0.16934761 0.12078 0.671 9.7734304e-39
-0.16781905 0.1206 0.67000002 9.1305917e-39
-0.16604573 0.12024 0.66800004 9.1305917e-39
-0.16452669 0.12006001 0.66700006 9.1302092e-39
-0.16252191 0.11952001 0.66400003 8.7614267e-39
-0.16125715 0.11952001 0.66400003 8.7614267e-39
-0.15975145 0.11934 0.66300005 8.4848398e-39
-0.15848857 0.11934 0.66300005 9.7698123e-39
-0.15698858 0.11916001 0.66200006 1.2259094e-38
-0.15572762 0.11916001 0.66200006 1.2534264e-38
-0.15423334 0.11898 0.66100001 1.2257678e-38
-0.15297428 0.11898 0.66100001 9.5900915e-39
-0.15171525 0.11898 0.66100001 5.2568969e-39
-0.15045619 0.11898 0.66100001 4.0662935e-39
-0.14919715 0.11898 0.66100001 4.3428804e-39
-0.1479381 0.11898 0.66100001 4.5265584e-39
-0.14667904 0.11898 0.66100001 4.5265584e-39
-0.14542001 0.11898 0.66100001 4.3428804e-39
-0.14416096 0.11898 0.66100001 4.3428804e-39
-0.1429019 0.11898 0.66100001 4.8006215e-39
-0.14164287 0.11898 0.66100001 4.431839e-39
-0.13995907 0.11862001 0.65900004 4.8920787e-39
-0.13870381 0.11862001 0.65900004 5.0764699e-39
-0.13786572 0.11898 0.66100001 8.7567183e-39
-0.13660666 0.11898 0.66100001 1.3089913e-38
-0.13555239 0.11916001 0.66200006 1.2905561e-38
-0.13429144 0.11916001 0.66200006 1.0969453e-38
-0.13303047 0.11916001 0.66200006 9.2169902e-39
-0.13196859 0.11934 0.66300005 7.9262514e-39
-0.13070573 0.11934 0.66300005 8.3861533e-39
-0.12944287 0.11934 0.66300005 8.478349e-39
-0.12837334 0.11952001 0.66400003 8.3854457e-39
-0.12710857 0.11952001 0.66400003 8.4776413e-39
-0.12622285 0.11988 0.66600001 8.5712691e-39
-0.12514192 0.12006001 0.66700006 8.847856e-39
-0.12387145 0.12006001 0.66700006 8.5712691e-39
-0.12278477 0.12024 0.66800004 8.2946822e-39
-0.12187619 0.1206 0.67000002 9.0304409e-39
-0.12078 0.12078 0.671 1.327144e-38
-0.11968001 0.12096001 0.67200005 1.3272167e-38
-0.11840001 0.12096001 0.67200005 1.4009732e-38
-0.11712001 0.12096001 0.67200005 1.4285243e-38
-0.11618476 0.12132 0.67400002 1.3732069e-38
-0.11558286 0.12204001 0.67800003 1.2904829e-38
-0.11462857 0.1224 0.68000001 1.2075069e-38
-0.11333333 0.1224 0.68000001 1.1613737e-38
-0.11236762 0.12276001 0.68200004 1.3088868e-38
-0.11172 0.12348001 0.68600005 1.2811901e-38
-0.11041334 0.12348001 0.68600005 1.0046032e-38
-0.10942476 0.12384 0.68800002 1.0414817e-38
-0.10811429 0.12384 0.68800002 1.6223142e-38
-0.10680381 0.12384 0.68800002 1.8065615e-38
-0.18042001 0.12351334 0.67900002 1.9727303e-38
-0.17912666 0.12351334 0.67900002 1.9727303e-38
-0.17757145 0.12333143 0.67800003 1.9267057e-38
-0.17576002 0.12296763 0.67600006 1.6962166e-38
-0.17421429 0.12278572 0.67500001 1.6131679e-38
-0.17292857 0.12278572 0.67500001 1.4472158e-38
-0.17138858 0.12260382 0.67400002 1.2537864e-38
-0.16960001 0.12224001 0.67200005 1.1339321e-38
-0.16781905 0.12187619 0.67000002 9.868154e-39
-0.16604573 0.12151238 0.66800004 8.7618064e-39
-0.16452669 0.12133048 0.66700006 8.4866264e-39
-0.16301143 0.12114857 0.66600001 8.3944308e-39
-0.16125715 0.12078477 0.66400003 8.4858922e-39
-0.15999238 0.12078477 0.66400003 8.3936965e-39
-0.15848857 0.12060287 0.66300005 9.1280288e-39
-0.15722571 0.12060287 0.66300005 1.0971941e-38
-0.15572762 0.12042096 0.66200006 1.1614103e-38
-0.15446669 0.12042096 0.66200006 1.0231169e-38
-0.15320572 0.12042096 0.66200006 8.7606658e-39
-0.15194477 0.12042096 0.66200006 4.7962537e-39
-0.15068382 0.12042096 0.66200006 4.5265682e-39
-0.14942287 0.12042096 0.66200006 4.6187638e-39
-0.1481619 0.12042096 0.66200006 4.6191071e-39
-0.14690097 0.12042096 0.66200006 4.6191071e-39
-0.14564002 0.12042096 0.66200006 4.3421671e-39
-0.14416096 0.12023905 0.66100001 4.2499715e-39
-0.1429019 0.12023905 0.66100001 4.066634e-39
-0.14164287 0.12023905 0.66100001 4.2510253e-39
-0.14038381 0.12023905 0.66100001 4.9835961e-39
-0.13912477 0.12023905 0.66100001 5.0757917e-39
-0.13786572 0.12023905 0.66100001 7.0990537e-39
-0.13681334 0.12042096 0.66200006 1.1247857e-38
-0.13555239 0.12042096 0.66200006 1.2536746e-38
-0.13449429 0.12060287 0.66300005 1.1153812e-38
-0.13323143 0.12060287 0.66300005 8.9425683e-39
-0.13196859 0.12060287 0.66300005 7.4674382e-39
-0.13090287 0.12078477 0.66400003 8.1106454e-39
-0.12963811 0.12078477 0.66400003 8.2950367e-39
-0.12837334 0.12078477 0.66400003 8.5701901e-39
-0.12749143 0.12114857 0.66600001 8.4779944e-39
-0.12641239 0.12133048 0.66700006 8.4797755e-39
-0.12514192 0.12133048 0.66700006 8.6641667e-39
-0.12405715 0.12151238 0.66800004 8.4794224e-39
-0.12278477 0.12151238 0.66800004 8.4794224e-39
-0.12187619 0.12187619 0.67000002 9.3063636e-39
-0.12078 0.12205809 0.671 1.3639558e-38
-0.11968001 0.12224001 0.67200005 1.2904437e-38
-0.11840001 0.12224001 0.67200005 1.1429307e-38
-0.11746857 0.12260382 0.67400002 1.1981791e-38
-0.11635715 0.12278572 0.67500001 1.2903748e-38
-0.11575333 0.12351334 0.67900002 1.3917513e-38
-0.11462857 0.12369524 0.68000001 1.4009708e-38
-0.11333333 0.12369524 0.68000001 1.3917183e-38
-0.11236762 0.12405905 0.68200004 1.2903032e-38
-0.11188286 0.12496858 0.68700004 1.2075058e-38
-0.11057429 0.12496858 0.68700004 8.9404061e-39
-0.10942476 0.12515049 0.68800002 1.0322283e-38
-0.10858572 0.1256962 0.69100004 1.6407194e-38
-0.10726953 0.1256962 0.69100004 1.8250011e-38
-0.18042001 0.12480666 0.67900002 1.963476e-38
-0.17912666 0.12480666 0.67900002 1.963476e-38
-0.17757145 0.12462286 0.67800003 1.9358536e-38
-0.17576002 0.12425525 0.67600006 1.7514624e-38
-0.17421429 0.12407143 0.67500001 1.7052919e-38
-0.17292857 0.12407143 0.67500001 1.3733877e-38
-0.17138858 0.12388762 0.67400002 1.2904464e-38
-0.16960001 0.12352001 0.67200005 1.2166899e-38
-0.16781905 0.12315238 0.67000002 1.0973413e-38
-0.16604573 0.12278477 0.66800004 9.406087e-39
-0.16477334 0.12278477 0.66800004 8.6699611e-39
-0.16301143 0.12241714 0.66600001 8.3933742e-39
-0.16174285 0.12241714 0.66600001 8.4862789e-39
-0.15999238 0.12204953 0.66400003 8.3940833e-39
-0.15872762 0.12204953 0.66400003 8.8521846e-39
-0.15722571 0.12186572 0.66300005 1.0696097e-38
-0.15596287 0.12186572 0.66300005 1.0971265e-38
-0.15470001 0.12186572 0.66300005 1.0418091e-38
-0.15343715 0.12186572 0.66300005 8.1167537e-39
-0.15217429 0.12186572 0.66300005 5.6274717e-39
-0.15068382 0.12168191 0.66200006 4.7109524e-39
-0.14942287 0.12168191 0.66200006 4.6187568e-39
-0.1481619 0.12168191 0.66200006 4.6191071e-39
-0.14690097 0.12168191 0.66200006 4.6191071e-39
-0.14564002 0.12168191 0.66200006 4.066669e-39
-0.14437905 0.12168191 0.66200006 3.9744734e-39
-0.14311811 0.12168191 0.66200006 4.2506847e-39
-0.14185715 0.12168191 0.66200006 4.5272716e-39
-0.1405962 0.12168191 0.66200006 5.2608962e-39
-0.13933526 0.12168191 0.66200006 4.8921137e-39
-0.13807429 0.12168191 0.66200006 7.0990046e-39
-0.13681334 0.12168191 0.66200006 1.1708786e-38
-0.13575715 0.12186572 0.66300005 1.2536773e-38
-0.13449429 0.12186572 0.66300005 1.1707012e-38
-0.13323143 0.12186572 0.66300005 8.5752474e-39
-0.13216762 0.12204953 0.66400003 7.0079216e-39
-0.13090287 0.12204953 0.66400003 8.1106454e-39
-0.12963811 0.12204953 0.66400003 8.2950367e-39
-0.12837334 0.12204953 0.66400003 8.2943291e-39
-0.12749143 0.12241714 0.66600001 8.2943291e-39
-0.12641239 0.12260097 0.66700006 8.5712691e-39
-0.12514192 0.12260097 0.66700006 8.6634647e-39
-0.12405715 0.12278477 0.66800004 8.1124377e-39
-0.12315238 0.12315238 0.67000002 9.1265896e-39
-0.12187619 0.12315238 0.67000002 1.151975e-38
-0.12096001 0.12352001 0.67200005 1.3640249e-38
-0.11968001 0.12352001 0.67200005 1.2169788e-38
-0.11875238 0.12388762 0.67400002 8.1131804e-39
-0.11764286 0.12407143 0.67500001 9.308467e-39
-0.11652953 0.12425525 0.67600006 1.1060184e-38
-0.11575333 0.12480666 0.67900002 1.4560005e-38
-0.11462857 0.12499048 0.68000001 1.4928788e-38
-0.11333333 0.12499048 0.68000001 1.4838436e-38
-0.11236762 0.1253581 0.68200004 1.2625741e-38
-0.11172 0.12609334 0.68600005 1.1889584e-38
-0.11057429 0.12627715 0.68700004 9.8612806e-39
-0.10942476 0.12646097 0.68800002 1.0504875e-38
-0.1089 0.12738001 0.69300002 1.6589786e-38
-0.10804572 0.12793143 0.69600004 1.8342202e-38
-0.10672001 0.12793143 0.69600004 2.1015876e-38
-0.17912666 0.1261 0.67900002 1.9357454e-38
-0.17783333 0.1261 0.67900002 1.9265261e-38
-0.17628001 0.12591429 0.67800003 1.8066718e-38
-0.17447239 0.12554286 0.67600006 1.7053982e-38
-0.17318477 0.12554286 0.67600006 1.1891026e-38
-0.17164285 0.12535714 0.67500001 1.1432903e-38
-0.17010476 0.12517144 0.67400002 1.170949e-38
-0.16806953 0.12461428 0.671 1.1341454e-38
-0.16654286 0.12442858 0.67000002 1.0235106e-38
-0.16477334 0.12405715 0.66800004 8.945497e-39
-0.16325621 0.12387145 0.66700006 8.3923233e-39
-0.16174285 0.12368571 0.66600001 8.3937428e-39
-0.16047429 0.12368571 0.66600001 8.3015471e-39
-0.15872762 0.12331429 0.66400003 9.1280554e-39
-0.15746287 0.12331429 0.66400003 1.1064164e-38
-0.1561981 0.12331429 0.66400003 1.1431514e-38
-0.15470001 0.12312857 0.66300005 1.152371e-38
-0.15343715 0.12312857 0.66300005 9.6830172e-39
-0.15217429 0.12312857 0.66300005 5.4420183e-39
-0.15091144 0.12312857 0.66300005 3.6085523e-39
-0.14964858 0.12312857 0.66300005 2.4100092e-39
