# .PCD v0.7 - Point Cloud Data file format
VERSION 0.7
FIELDS x y z rgb
SIZE 4 4 4 4
TYPE F F F F
COUNT 1 1 1 1
WIDTH 988
HEIGHT 1
VIEWPOINT 0 0 0 1 0 0 0
POINTS 988
DATA ascii
-0.15356 0.040550474 0.69800001 1.5032611e-38
-0.15223049 0.040550474 0.69800001 1.4940416e-38
-0.15068477 0.040492382 0.69700003 1.4940772e-38
-0.14935715 0.040492382 0.69700003 1.4940772e-38
-0.14781715 0.040434286 0.69600004 1.4940769e-38
-0.14649144 0.040434286 0.69600004 1.4940769e-38
-0.14516573 0.040434286 0.69600004 1.512444e-38
-0.14384001 0.040434286 0.69600004 1.4940049e-38
-0.14210476 0.040318094 0.69400001 1.4664182e-38
-0.14078286 0.040318094 0.69400001 1.4664182e-38
-0.13926001 0.040260002 0.69300002 1.4480147e-38
-0.13754191 0.04014381 0.69100004 1.4480147e-38
-0.13602859 0.040085718 0.69000006 1.4571261e-38
-0.13471429 0.040085718 0.69000006 1.4571261e-38
-0.13301334 0.039969526 0.68800002 1.4479058e-38
-0.13170287 0.039969526 0.68800002 1.4202471e-38
-0.13001333 0.039853338 0.68600005 1.4201752e-38
-0.12870668 0.039853338 0.68600005 1.4201752e-38
-0.12702857 0.039737143 0.68400002 1.4017358e-38
-0.12554191 0.03967905 0.68300003 1.3832967e-38
-0.12405905 0.039620955 0.68200004 1.3280515e-38
-0.12222001 0.039446667 0.67900002 1.3188319e-38
-0.12074857 0.039388571 0.67800003 1.3371629e-38
-0.11875238 0.039156191 0.67400002 1.3002846e-38
-0.11712001 0.039040003 0.67200005 1.4014111e-38
-0.11584001 0.039040003 0.67200005 1.5581437e-38
-0.19723333 0.040739998 0.67900002 1.5027865e-38
-0.19565143 0.040679999 0.67800003 1.4750623e-38
-0.19436 0.040679999 0.67800003 1.4842818e-38
-0.19335334 0.040739998 0.67900002 1.4016285e-38
-0.19234286 0.040800001 0.68000001 1.3739698e-38
-0.19160953 0.040920004 0.68200004 1.3280527e-38
-0.19031049 0.040920004 0.68200004 1.3188332e-38
-0.18901142 0.040920004 0.68200004 1.3004664e-38
-0.18798763 0.040980004 0.68300003 1.3373446e-38
-0.18696 0.041040003 0.68400002 1.3373446e-38
-0.18620001 0.041160002 0.68600005 1.3465642e-38
-0.18489334 0.041160002 0.68600005 1.3742229e-38
-0.18358667 0.041160002 0.68600005 1.4018815e-38
-0.18254572 0.041220002 0.68700004 1.4018815e-38
-0.18123715 0.041220002 0.68700004 1.4111011e-38
-0.18019049 0.041280001 0.68800002 1.42954e-38
-0.17888001 0.041280001 0.68800002 1.42954e-38
-0.17756954 0.041280001 0.68800002 1.4387598e-38
-0.17754 0.041579999 0.69300002 1.4387598e-38
-0.17622 0.041579999 0.69300002 1.4479794e-38
-0.17515238 0.041639999 0.69400001 1.4664185e-38
-0.17383048 0.041639999 0.69400001 1.4664185e-38
-0.17250857 0.041639999 0.69400001 1.475638e-38
-0.17118667 0.041639999 0.69400001 1.4848576e-38
-0.17035429 0.041760001 0.69600004 1.4940772e-38
-0.16902858 0.041760001 0.69600004 1.5032965e-38
-0.16770287 0.041760001 0.69600004 1.512516e-38
-0.16637716 0.041760001 0.69600004 1.5032611e-38
-0.16505145 0.041760001 0.69600004 1.5032611e-38
-0.16372572 0.041760001 0.69600004 1.5400671e-38
-0.16240001 0.041760001 0.69600004 1.5400671e-38
-0.16130571 0.041820001 0.69700003 1.5308831e-38
-0.16020761 0.04188 0.69800001 1.5308831e-38
-0.15933335 0.042000003 0.70000005 1.5032967e-38
-0.15800001 0.042000003 0.70000005 1.5032967e-38
-0.15666668 0.042000003 0.70000005 1.4849655e-38
-0.15533334 0.042000003 0.70000005 1.4849655e-38
-0.15356 0.04188 0.69800001 1.5032967e-38
-0.15223049 0.04188 0.69800001 1.4940772e-38
-0.15090095 0.04188 0.69800001 1.512444e-38
-0.14957143 0.04188 0.69800001 1.512444e-38
-0.14802952 0.041820001 0.69700003 1.4940769e-38
-0.14649144 0.041760001 0.69600004 1.4848573e-38
-0.14516573 0.041760001 0.69600004 1.4940049e-38
-0.14384001 0.041760001 0.69600004 1.4847853e-38
-0.14210476 0.041639999 0.69400001 1.484785e-38
-0.14078286 0.041639999 0.69400001 1.484785e-38
-0.13946095 0.041639999 0.69400001 1.4755652e-38
-0.13794 0.041579999 0.69300002 1.4571261e-38
-0.13622572 0.04146 0.69100004 1.4386872e-38
-0.13471429 0.041400004 0.69000006 1.4386872e-38
-0.13340001 0.041400004 0.69000006 1.4479055e-38
-0.13170287 0.041280001 0.68800002 1.3925881e-38
-0.13001333 0.041160002 0.68600005 1.3925528e-38
-0.12870668 0.041160002 0.68600005 1.3925528e-38
-0.12702857 0.041040003 0.68400002 1.4017714e-38
-0.12554191 0.040980004 0.68300003 1.4017714e-38
-0.12405905 0.040920004 0.68200004 1.3464187e-38
-0.12222001 0.040739998 0.67900002 1.3279796e-38
-0.12074857 0.040679999 0.67800003 1.3095402e-38
-0.11875238 0.040440001 0.67400002 1.2911011e-38
-0.11712001 0.040320002 0.67200005 1.3278339e-38
-0.11584001 0.040320002 0.67200005 1.4200295e-38
-0.11456001 0.040320002 0.67200005 1.5212654e-38
-0.19952573 0.04197143 0.67800003 1.4468963e-38
-0.19823429 0.04197143 0.67800003 1.3463105e-38
-0.19694287 0.04197143 0.67800003 1.3647497e-38
-0.19565143 0.04197143 0.67800003 1.3187976e-38
-0.19436 0.04197143 0.67800003 1.309578e-38
-0.19306858 0.04197143 0.67800003 1.2820269e-38
-0.19206001 0.042033333 0.67900002 1.3004661e-38
-0.19160953 0.04221905 0.68200004 1.3188326e-38
-0.19031049 0.04221905 0.68200004 1.3188326e-38
-0.18901142 0.04221905 0.68200004 1.3280171e-38
-0.18798763 0.042280953 0.68300003 1.3556758e-38
-0.18696 0.042342857 0.68400002 1.364931e-38
-0.18620001 0.04246667 0.68600005 1.3833701e-38
-0.18489334 0.04246667 0.68600005 1.3742229e-38
-0.1838543 0.042528573 0.68700004 1.4018815e-38
-0.18254572 0.042528573 0.68700004 1.4018813e-38
-0.18150096 0.042590477 0.68800002 1.4111008e-38
-0.18019049 0.042590477 0.68800002 1.4203207e-38
-0.17940001 0.042714287 0.69000006 1.4295402e-38
-0.17834382 0.042776193 0.69100004 1.4295402e-38
-0.17754 0.0429 0.69300002 1.4387598e-38
-0.17622 0.0429 0.69300002 1.4387242e-38
-0.17515238 0.042961907 0.69400001 1.4479438e-38
-0.17383048 0.042961907 0.69400001 1.4571633e-38
-0.17250857 0.042961907 0.69400001 1.4663829e-38
-0.17118667 0.042961907 0.69400001 1.475638e-38
-0.17035429 0.043085717 0.69600004 1.4848576e-38
-0.16902858 0.043085717 0.69600004 1.4848576e-38
-0.16770287 0.043085717 0.69600004 1.4940772e-38
-0.16637716 0.043085717 0.69600004 1.4940416e-38
-0.16528858 0.04314762 0.69700003 1.5032611e-38
-0.16396096 0.04314762 0.69700003 1.5217359e-38
-0.16263333 0.04314762 0.69700003 1.5217359e-38
-0.16153714 0.043209527 0.69800001 1.5032967e-38
-0.16020761 0.043209527 0.69800001 1.5032967e-38
-0.15933335 0.043333337 0.70000005 1.5032967e-38
-0.15800001 0.043333337 0.70000005 1.5032967e-38
-0.15666668 0.043333337 0.70000005 1.5032967e-38
-0.15533334 0.043333337 0.70000005 1.4940772e-38
-0.15400001 0.043333337 0.70000005 1.4849652e-38
-0.15266669 0.043333337 0.70000005 1.4757457e-38
-0.15090095 0.043209527 0.69800001 1.4940769e-38
-0.14957143 0.043209527 0.69800001 1.4848573e-38
-0.14802952 0.04314762 0.69700003 1.475638e-38
-0.1467019 0.04314762 0.69700003 1.475638e-38
-0.14537428 0.04314762 0.69700003 1.4664182e-38
-0.14384001 0.043085717 0.69600004 1.4664182e-38
-0.1425143 0.043085717 0.69600004 1.4755655e-38
-0.14078286 0.042961907 0.69400001 1.4755655e-38
-0.13946095 0.042961907 0.69400001 1.4663456e-38
-0.13794 0.0429 0.69300002 1.4571261e-38
-0.13622572 0.042776193 0.69100004 1.4387225e-38
-0.13471429 0.042714287 0.69000006 1.4387225e-38
-0.13340001 0.042714287 0.69000006 1.4386859e-38
-0.13170287 0.042590477 0.68800002 1.4110273e-38
-0.13001333 0.04246667 0.68600005 1.3925884e-38
-0.12870668 0.04246667 0.68600005 1.3925884e-38
-0.12684287 0.042280953 0.68300003 1.4017358e-38
-0.12554191 0.042280953 0.68300003 1.3740771e-38
-0.12369524 0.04209524 0.68000001 1.3280515e-38
-0.12222001 0.042033333 0.67900002 1.3188319e-38
-0.12074857 0.04197143 0.67800003 1.2911729e-38
-0.11875238 0.04172381 0.67400002 1.2542947e-38
-0.11712001 0.041600004 0.67200005 1.2633698e-38
-0.11584001 0.041600004 0.67200005 1.3463458e-38
-0.11456001 0.041600004 0.67200005 1.502791e-38
-0.19952573 0.043262858 0.67800003 1.3828654e-38
-0.19823429 0.043262858 0.67800003 1.2817742e-38
-0.19694287 0.043262858 0.67800003 1.2725546e-38
-0.19565143 0.043262858 0.67800003 1.2726985e-38
-0.19436 0.043262858 0.67800003 1.2726985e-38
-0.19306858 0.043262858 0.67800003 1.2727354e-38
-0.19206001 0.043326665 0.67900002 1.300394e-38
-0.19160953 0.0435181 0.68200004 1.3188682e-38
-0.19031049 0.0435181 0.68200004 1.3188682e-38
-0.18901142 0.0435181 0.68200004 1.3187976e-38
-0.18798763 0.043581907 0.68300003 1.3464563e-38
-0.18696 0.043645717 0.68400002 1.364931e-38
-0.18620001 0.043773334 0.68600005 1.3741505e-38
-0.18489334 0.043773334 0.68600005 1.4017374e-38
-0.1838543 0.043837145 0.68700004 1.4017374e-38
-0.18254572 0.043837145 0.68700004 1.4109932e-38
-0.18150096 0.043900952 0.68800002 1.4202128e-38
-0.18019049 0.043900952 0.68800002 1.4294679e-38
-0.17966001 0.044092383 0.69100004 1.4294679e-38
-0.17886001 0.044220001 0.69300002 1.4479071e-38
-0.17754 0.044220001 0.69300002 1.4571266e-38
-0.17647429 0.044283811 0.69400001 1.4387242e-38
-0.17515238 0.044283811 0.69400001 1.4387242e-38
-0.17383048 0.044283811 0.69400001 1.4571989e-38
-0.17250857 0.044283811 0.69400001 1.4571989e-38
-0.17168 0.044411432 0.69600004 1.4756378e-38
-0.17035429 0.044411432 0.69600004 1.4848573e-38
-0.16902858 0.044411432 0.69600004 1.4848573e-38
-0.16770287 0.044411432 0.69600004 1.4848573e-38
-0.16637716 0.044411432 0.69600004 1.484822e-38
-0.16528858 0.044475239 0.69700003 1.484822e-38
-0.16396096 0.044475239 0.69700003 1.4940772e-38
-0.16263333 0.044475239 0.69700003 1.4940772e-38
-0.16153714 0.044539049 0.69800001 1.4940416e-38
-0.16020761 0.044539049 0.69800001 1.484822e-38
-0.15933335 0.044666667 0.70000005 1.4848576e-38
-0.15800001 0.044666667 0.70000005 1.4940772e-38
-0.15666668 0.044666667 0.70000005 1.4665264e-38
-0.15533334 0.044666667 0.70000005 1.4665264e-38
-0.15400001 0.044666667 0.70000005 1.4848576e-38
-0.15266669 0.044666667 0.70000005 1.4848576e-38
-0.15133335 0.044666667 0.70000005 1.4848573e-38
-0.14957143 0.044539049 0.69800001 1.4571986e-38
-0.14802952 0.044475239 0.69700003 1.4571989e-38
-0.1467019 0.044475239 0.69700003 1.4571989e-38
-0.14537428 0.044475239 0.69700003 1.4571986e-38
-0.14384001 0.044411432 0.69600004 1.4479791e-38
-0.1425143 0.044411432 0.69600004 1.4663459e-38
-0.14118858 0.044411432 0.69600004 1.4663459e-38
-0.13946095 0.044283811 0.69400001 1.4663809e-38
-0.13813905 0.044283811 0.69400001 1.4479418e-38
-0.13662 0.044220001 0.69300002 1.4387222e-38
-0.13490954 0.044092383 0.69100004 1.4295027e-38
-0.13340001 0.044028573 0.69000006 1.4386859e-38
-0.13170287 0.043900952 0.68800002 1.4294664e-38
-0.13020287 0.043837145 0.68700004 1.4018077e-38
-0.12870668 0.043773334 0.68600005 1.4018077e-38
-0.12684287 0.043581907 0.68300003 1.3832967e-38
-0.12554191 0.043581907 0.68300003 1.3371989e-38
-0.12369524 0.043390475 0.68000001 1.3464187e-38
-0.12222001 0.043326665 0.67900002 1.3279796e-38
-0.12074857 0.043262858 0.67800003 1.3095755e-38
-0.11875238 0.04300762 0.67400002 1.3003559e-38
-0.11712001 0.042880002 0.67200005 1.263371e-38
-0.11584001 0.042880002 0.67200005 1.263371e-38
-0.11456001 0.042880002 0.67200005 1.4198505e-38
-0.20022479 0.044422861 0.67600006 1.2634066e-38
-0.19893716 0.044422861 0.67600006 1.2449675e-38
-0.19764954 0.044422861 0.67600006 1.2266007e-38
-0.19694287 0.044554286 0.67800003 1.2542594e-38
-0.19565143 0.044554286 0.67800003 1.2542597e-38
-0.19436 0.044554286 0.67800003 1.2634792e-38
-0.19335334 0.04462 0.67900002 1.2819183e-38
-0.19234286 0.044685714 0.68000001 1.309577e-38
-0.19160953 0.044817146 0.68200004 1.3003935e-38
-0.19031049 0.044817146 0.68200004 1.309613e-38
-0.18901142 0.044817146 0.68200004 1.309578e-38
-0.18798763 0.04488286 0.68300003 1.3464563e-38
-0.18696 0.04494857 0.68400002 1.3557114e-38
-0.18620001 0.045080002 0.68600005 1.364931e-38
-0.18516286 0.045145717 0.68700004 1.3832985e-38
-0.1838543 0.045145717 0.68700004 1.3925181e-38
-0.18254572 0.045145717 0.68700004 1.3833348e-38
-0.18150096 0.045211427 0.68800002 1.4109935e-38
-0.18071429 0.045342863 0.69000006 1.4202128e-38
-0.17966001 0.045408577 0.69100004 1.4109932e-38
-0.17886001 0.045540001 0.69300002 1.4109935e-38
-0.17754 0.045540001 0.69300002 1.4294326e-38
-0.17647429 0.045605715 0.69400001 1.4295051e-38
-0.17515238 0.045605715 0.69400001 1.4387246e-38
-0.17383048 0.045605715 0.69400001 1.4387246e-38
-0.17250857 0.045605715 0.69400001 1.4295051e-38
-0.17168 0.045737144 0.69600004 1.4203207e-38
-0.17035429 0.045737144 0.69600004 1.4387598e-38
-0.16902858 0.045737144 0.69600004 1.4387598e-38
-0.16794381 0.045802858 0.69700003 1.4571989e-38
-0.1666162 0.045802858 0.69700003 1.4664185e-38
-0.16528858 0.045802858 0.69700003 1.4664185e-38
-0.16396096 0.045802858 0.69700003 1.4848576e-38
-0.16263333 0.045802858 0.69700003 1.4848576e-38
-0.16153714 0.045868572 0.69800001 1.4848576e-38
-0.16020761 0.045868572 0.69800001 1.4848576e-38
-0.15933335 0.046000004 0.70000005 1.4665264e-38
-0.15800001 0.046000004 0.70000005 1.4573068e-38
-0.15666668 0.046000004 0.70000005 1.4573068e-38
-0.15533334 0.046000004 0.70000005 1.4573068e-38
-0.15400001 0.046000004 0.70000005 1.4664901e-38
-0.15266669 0.046000004 0.70000005 1.4664901e-38
-0.15133335 0.046000004 0.70000005 1.4664182e-38
-0.15000001 0.046000004 0.70000005 1.4571986e-38
-0.14824191 0.045868572 0.69800001 1.4479794e-38
-0.1467019 0.045802858 0.69700003 1.4479794e-38
-0.14537428 0.045802858 0.69700003 1.4479791e-38
-0.14404668 0.045802858 0.69700003 1.4479791e-38
-0.1425143 0.045737144 0.69600004 1.4387951e-38
-0.14118858 0.045737144 0.69600004 1.4387951e-38
-0.13986287 0.045737144 0.69600004 1.4479065e-38
-0.13813905 0.045605715 0.69400001 1.4479065e-38
-0.13681714 0.045605715 0.69400001 1.4111364e-38
-0.1353 0.045540001 0.69300002 1.4019169e-38
-0.13340001 0.045342863 0.69000006 1.401844e-38
-0.13208573 0.045342863 0.69000006 1.4110636e-38
-0.13020287 0.045145717 0.68700004 1.4110273e-38
-0.12870668 0.045080002 0.68600005 1.374149e-38
-0.12702857 0.04494857 0.68400002 1.3556383e-38
-0.12554191 0.04488286 0.68300003 1.3464187e-38
-0.12369524 0.044685714 0.68000001 1.3463824e-38
-0.12222001 0.04462 0.67900002 1.3279433e-38
-0.12074857 0.044554286 0.67800003 1.3187234e-38
-0.11875238 0.044291429 0.67400002 1.2910648e-38
-0.11712001 0.044160005 0.67200005 1.2817736e-38
-0.11584001 0.044160005 0.67200005 1.3002127e-38
-0.11456001 0.044160005 0.67200005 1.3646774e-38
-0.20022479 0.045710482 0.67600006 1.189578e-38
-0.19893716 0.045710482 0.67600006 1.1803584e-38
-0.19764954 0.045710482 0.67600006 1.1804676e-38
-0.19694287 0.045845713 0.67800003 1.2450045e-38
-0.19565143 0.045845713 0.67800003 1.2450045e-38
-0.19436 0.045845713 0.67800003 1.2542241e-38
-0.19306858 0.045845713 0.67800003 1.2819181e-38
-0.19206001 0.045913331 0.67900002 1.2819181e-38
-0.19104762 0.045980949 0.68000001 1.3003222e-38
-0.19031049 0.046116196 0.68200004 1.3003222e-38
-0.18901142 0.046116196 0.68200004 1.2911037e-38
-0.18798763 0.046183813 0.68300003 1.3372015e-38
-0.18750668 0.04638667 0.68600005 1.3648588e-38
-0.18620001 0.04638667 0.68600005 1.3740784e-38
-0.18516286 0.046454288 0.68700004 1.3740789e-38
-0.18412191 0.046521906 0.68800002 1.3832985e-38
-0.18281144 0.046521906 0.68800002 1.3740798e-38
-0.18202859 0.046657149 0.69000006 1.4017385e-38
-0.1809762 0.046724766 0.69100004 1.4017739e-38
-0.18018001 0.046860002 0.69300002 1.4109935e-38
-0.17886001 0.046860002 0.69300002 1.410958e-38
-0.17754 0.046860002 0.69300002 1.4017385e-38
-0.17647429 0.04692762 0.69400001 1.4018464e-38
-0.17515238 0.04692762 0.69400001 1.4202855e-38
-0.17383048 0.04692762 0.69400001 1.4295046e-38
-0.17300572 0.047062859 0.69600004 1.4295046e-38
-0.17168 0.047062859 0.69600004 1.4387242e-38
-0.17035429 0.047062859 0.69600004 1.4295046e-38
-0.16902858 0.047062859 0.69600004 1.4387246e-38
-0.16794381 0.04713048 0.69700003 1.4479442e-38
-0.1666162 0.04713048 0.69700003 1.4571989e-38
-0.16528858 0.04713048 0.69700003 1.4664185e-38
-0.16396096 0.04713048 0.69700003 1.4756378e-38
-0.16263333 0.04713048 0.69700003 1.4940769e-38
-0.16153714 0.047198098 0.69800001 1.4756378e-38
-0.16020761 0.047198098 0.69800001 1.4664182e-38
-0.15933335 0.047333337 0.70000005 1.4571633e-38
-0.15800001 0.047333337 0.70000005 1.4571633e-38
-0.15689048 0.047400955 0.70100003 1.4664901e-38
-0.15533334 0.047333337 0.70000005 1.4757097e-38
-0.15400001 0.047333337 0.70000005 1.4756731e-38
-0.15266669 0.047333337 0.70000005 1.457234e-38
-0.15133335 0.047333337 0.70000005 1.4572342e-38
-0.15000001 0.047333337 0.70000005 1.4480147e-38
-0.14824191 0.047198098 0.69800001 1.4571266e-38
-0.1467019 0.04713048 0.69700003 1.4479071e-38
-0.14537428 0.04713048 0.69700003 1.4663096e-38
-0.14404668 0.04713048 0.69700003 1.4755292e-38
-0.1425143 0.047062859 0.69600004 1.4479065e-38
-0.14118858 0.047062859 0.69600004 1.4294674e-38
-0.13986287 0.047062859 0.69600004 1.4202484e-38
-0.13813905 0.04692762 0.69400001 1.4110288e-38
-0.13681714 0.04692762 0.69400001 1.3925897e-38
-0.1353 0.046860002 0.69300002 1.3833701e-38
-0.13359334 0.046724766 0.69100004 1.401808e-38
-0.13208573 0.046657149 0.69000006 1.4110275e-38
-0.13020287 0.046454288 0.68700004 1.4017714e-38
-0.12870668 0.04638667 0.68600005 1.3556736e-38
-0.12702857 0.046251431 0.68400002 1.355638e-38
-0.12554191 0.046183813 0.68300003 1.3371989e-38
-0.12405905 0.046116196 0.68200004 1.3372345e-38
-0.12222001 0.045913331 0.67900002 1.3095758e-38
-0.12092667 0.045913331 0.67900002 1.3002843e-38
-0.11875238 0.045575239 0.67400002 1.2726256e-38
-0.11746857 0.045575239 0.67400002 1.2818092e-38
-0.19992857 0.046928573 0.67500001 1.1619198e-38
-0.19864285 0.046928573 0.67500001 1.180359e-38
-0.19764954 0.046998098 0.67600006 1.1619561e-38
-0.19694287 0.047137145 0.67800003 1.2449322e-38
-0.19565143 0.047137145 0.67800003 1.2358205e-38
-0.19436 0.047137145 0.67800003 1.2542597e-38
-0.19306858 0.047137145 0.67800003 1.2634792e-38
-0.19206001 0.047206666 0.67900002 1.2726988e-38
-0.19104762 0.047276188 0.68000001 1.281883e-38
-0.19031049 0.047415242 0.68200004 1.281883e-38
-0.18901142 0.047415242 0.68200004 1.2910673e-38
-0.18798763 0.047484763 0.68300003 1.3371651e-38
-0.18750668 0.047693335 0.68600005 1.34642e-38
-0.18647143 0.047762856 0.68700004 1.3556395e-38
-0.18543239 0.047832385 0.68800002 1.3373446e-38
-0.18412191 0.047832385 0.68800002 1.3650033e-38
-0.18334286 0.047971431 0.69000006 1.3833345e-38
-0.18202859 0.047971431 0.69000006 1.3925541e-38
-0.1809762 0.048040956 0.69100004 1.3742229e-38
-0.18018001 0.048179999 0.69300002 1.392662e-38
-0.17886001 0.048179999 0.69300002 1.4109932e-38
-0.1777962 0.04824952 0.69400001 1.4109932e-38
-0.17647429 0.04824952 0.69400001 1.4202128e-38
-0.17515238 0.04824952 0.69400001 1.4294323e-38
-0.17383048 0.04824952 0.69400001 1.4111011e-38
-0.17300572 0.048388574 0.69600004 1.4387598e-38
-0.17168 0.048388574 0.69600004 1.4387246e-38
-0.17035429 0.048388574 0.69600004 1.4295051e-38
-0.16902858 0.048388574 0.69600004 1.4295051e-38
-0.16770287 0.048388574 0.69600004 1.4295051e-38
-0.1666162 0.048458096 0.69700003 1.4387242e-38
-0.16528858 0.048458096 0.69700003 1.4387242e-38
-0.16419619 0.048527621 0.69800001 1.4571989e-38
-0.16286667 0.048527621 0.69800001 1.475638e-38
-0.16153714 0.048527621 0.69800001 1.4664182e-38
-0.16020761 0.048527621 0.69800001 1.4664182e-38
-0.15933335 0.048666667 0.70000005 1.4571989e-38
-0.15800001 0.048666667 0.70000005 1.4387598e-38
-0.15689048 0.048736192 0.70100003 1.4388314e-38
-0.15533334 0.048666667 0.70000005 1.4388314e-38
-0.15400001 0.048666667 0.70000005 1.4296118e-38
-0.15266669 0.048666667 0.70000005 1.4203923e-38
-0.15133335 0.048666667 0.70000005 1.4571263e-38
-0.15000001 0.048666667 0.70000005 1.4479068e-38
-0.14824191 0.048527621 0.69800001 1.4479071e-38
-0.14691238 0.048527621 0.69800001 1.4386875e-38
-0.14537428 0.048458096 0.69700003 1.4478349e-38
-0.14404668 0.048458096 0.69700003 1.4478349e-38
-0.1425143 0.048388574 0.69600004 1.4478349e-38
-0.14118858 0.048388574 0.69600004 1.4293958e-38
-0.13986287 0.048388574 0.69600004 1.4293597e-38
-0.13813905 0.04824952 0.69400001 1.4201402e-38
-0.13681714 0.04824952 0.69400001 1.4017724e-38
-0.1353 0.048179999 0.69300002 1.4017724e-38
-0.13359334 0.048040956 0.69100004 1.3925884e-38
-0.13208573 0.047971431 0.69000006 1.3833689e-38
-0.13039239 0.047832385 0.68800002 1.3648576e-38
-0.12889428 0.047762856 0.68700004 1.3648576e-38
-0.12702857 0.047554284 0.68400002 1.3648213e-38
-0.12554191 0.047484763 0.68300003 1.3371626e-38
-0.12424096 0.047484763 0.68300003 1.3187597e-38
-0.1224 0.047276188 0.68000001 1.3095402e-38
-0.12092667 0.047206666 0.67900002 1.3002843e-38
-0.11875238 0.046859052 0.67400002 1.2726256e-38
-0.11746857 0.046859052 0.67400002 1.2634064e-38
-0.19992857 0.048214287 0.67500001 1.1527003e-38
-0.19864285 0.048214287 0.67500001 1.1711394e-38
-0.19764954 0.048285719 0.67600006 1.1803953e-38
-0.19694287 0.048428573 0.67800003 1.2449322e-38
-0.19594 0.048500001 0.67900002 1.2358558e-38
-0.19464667 0.048500001 0.67900002 1.254295e-38
-0.19335334 0.048500001 0.67900002 1.2634789e-38
-0.19234286 0.048571426 0.68000001 1.2634789e-38
-0.19104762 0.048571426 0.68000001 1.2634086e-38
-0.19031049 0.048714288 0.68200004 1.2726282e-38
-0.18901142 0.048714288 0.68200004 1.2910673e-38
-0.18826286 0.048857145 0.68400002 1.3371651e-38
-0.18750668 0.049000002 0.68600005 1.3280527e-38
-0.18647143 0.049071431 0.68700004 1.3188332e-38
-0.18543239 0.04914286 0.68800002 1.3372367e-38
-0.18412191 0.04914286 0.68800002 1.374115e-38
-0.18334286 0.049285717 0.69000006 1.3925528e-38
-0.18229239 0.049357146 0.69100004 1.3925528e-38
-0.1809762 0.049357146 0.69100004 1.4017374e-38
-0.18018001 0.049500003 0.69300002 1.4201765e-38
-0.17886001 0.049500003 0.69300002 1.4201765e-38
-0.1777962 0.049571428 0.69400001 1.4201765e-38
-0.17647429 0.049571428 0.69400001 1.4202481e-38
-0.17515238 0.049571428 0.69400001 1.4202481e-38
-0.17433143 0.04971429 0.69600004 1.4202484e-38
-0.17300572 0.04971429 0.69600004 1.4202484e-38
-0.17168 0.04971429 0.69600004 1.4018464e-38
-0.17035429 0.04971429 0.69600004 1.4018464e-38
-0.16902858 0.04971429 0.69600004 1.4018467e-38
-0.16770287 0.04971429 0.69600004 1.4202858e-38
-0.1666162 0.049785715 0.69700003 1.4387598e-38
-0.16528858 0.049785715 0.69700003 1.4387598e-38
-0.16419619 0.049857143 0.69800001 1.4755655e-38
-0.16286667 0.049857143 0.69800001 1.484785e-38
-0.16153714 0.049857143 0.69800001 1.4755652e-38
-0.16020761 0.049857143 0.69800001 1.4663456e-38
-0.15956095 0.050071429 0.70100003 1.4480144e-38
-0.15822572 0.050071429 0.70100003 1.4387948e-38
-0.15689048 0.050071429 0.70100003 1.4388311e-38
-0.15533334 0.050000004 0.70000005 1.4296116e-38
-0.15400001 0.050000004 0.70000005 1.42954e-38
-0.15266669 0.050000004 0.70000005 1.42954e-38
-0.15133335 0.050000004 0.70000005 1.4386875e-38
-0.15000001 0.050000004 0.70000005 1.4386875e-38
-0.14824191 0.049857143 0.69800001 1.4386872e-38
-0.14691238 0.049857143 0.69800001 1.4294676e-38
-0.14537428 0.049785715 0.69700003 1.4478702e-38
-0.14404668 0.049785715 0.69700003 1.4386506e-38
-0.1425143 0.04971429 0.69600004 1.4201765e-38
-0.14118858 0.04971429 0.69600004 1.4201765e-38
-0.13986287 0.04971429 0.69600004 1.4201762e-38
-0.13853714 0.04971429 0.69600004 1.4109566e-38
-0.13681714 0.049571428 0.69400001 1.4110275e-38
-0.13549525 0.049571428 0.69400001 1.3925884e-38
-0.13359334 0.049357146 0.69100004 1.3833689e-38
-0.13208573 0.049285717 0.69000006 1.3649297e-38
-0.13039239 0.04914286 0.68800002 1.3648576e-38
-0.12889428 0.049071431 0.68700004 1.3648576e-38
-0.12702857 0.048857145 0.68400002 1.346454e-38
-0.12554191 0.048785716 0.68300003 1.3187953e-38
-0.12424096 0.048785716 0.68300003 1.3187237e-38
-0.12276001 0.048714288 0.68200004 1.3095042e-38
-0.12092667 0.048500001 0.67900002 1.3095039e-38
-0.11945715 0.048428573 0.67800003 1.2818452e-38
-0.11816572 0.048428573 0.67800003 1.2817736e-38
-0.19992857 0.049500003 0.67500001 1.1710312e-38
-0.19864285 0.049500003 0.67500001 1.1894703e-38
-0.19764954 0.04957334 0.67600006 1.1895429e-38
-0.19694287 0.04972 0.67800003 1.2356407e-38
-0.19594 0.049793333 0.67900002 1.2450038e-38
-0.19464667 0.049793333 0.67900002 1.2542234e-38
-0.19335334 0.049793333 0.67900002 1.2542597e-38
-0.19234286 0.049866665 0.68000001 1.2726988e-38
-0.19160953 0.050013337 0.68200004 1.245184e-38
-0.19031049 0.050013337 0.68200004 1.2544036e-38
-0.18928857 0.05008667 0.68300003 1.2911029e-38
-0.18881334 0.050306667 0.68600005 1.3187616e-38
-0.18778001 0.050380003 0.68700004 1.3096136e-38
-0.18647143 0.050380003 0.68700004 1.3188332e-38
-0.18543239 0.050453335 0.68800002 1.309578e-38
-0.18412191 0.050453335 0.68800002 1.3556758e-38
-0.18334286 0.050600003 0.69000006 1.3649307e-38
-0.18229239 0.050673336 0.69100004 1.3649307e-38
-0.1809762 0.050673336 0.69100004 1.3740787e-38
-0.18018001 0.05082 0.69300002 1.3740787e-38
-0.17886001 0.05082 0.69300002 1.3925181e-38
-0.1777962 0.050893333 0.69400001 1.3925181e-38
-0.17647429 0.050893333 0.69400001 1.4109572e-38
-0.17515238 0.050893333 0.69400001 1.4109572e-38
-0.17383048 0.050893333 0.69400001 1.4110288e-38
-0.17250857 0.050893333 0.69400001 1.4110288e-38
-0.17168 0.051040001 0.69600004 1.4109932e-38
-0.17035429 0.051040001 0.69600004 1.4109932e-38
-0.16927142 0.051113334 0.69700003 1.4202131e-38
-0.16794381 0.051113334 0.69700003 1.4386522e-38
-0.1666162 0.051113334 0.69700003 1.4386519e-38
-0.16552572 0.05118667 0.69800001 1.4386519e-38
-0.16419619 0.05118667 0.69800001 1.4478352e-38
-0.16286667 0.05118667 0.69800001 1.4478352e-38
-0.16153714 0.05118667 0.69800001 1.4386153e-38
-0.16020761 0.05118667 0.69800001 1.4386153e-38
-0.15956095 0.051406667 0.70100003 1.42954e-38
-0.15822572 0.051406667 0.70100003 1.4387595e-38
-0.15689048 0.051406667 0.70100003 1.4388674e-38
-0.15555525 0.051406667 0.70100003 1.4204283e-38
-0.15422001 0.051406667 0.70100003 1.4019532e-38
-0.15266669 0.051333338 0.70000005 1.4111727e-38
-0.15133335 0.051333338 0.70000005 1.4294676e-38
-0.15000001 0.051333338 0.70000005 1.4294676e-38
-0.14866666 0.051333338 0.70000005 1.4294676e-38
-0.14691238 0.05118667 0.69800001 1.4294676e-38
-0.14558285 0.05118667 0.69800001 1.4478349e-38
-0.14404668 0.051113334 0.69700003 1.4293958e-38
-0.14271906 0.051113334 0.69700003 1.4202115e-38
-0.14118858 0.051040001 0.69600004 1.4202115e-38
-0.13986287 0.051040001 0.69600004 1.4109919e-38
-0.13853714 0.051040001 0.69600004 1.4017724e-38
-0.13721143 0.051040001 0.69600004 1.3925528e-38
-0.13549525 0.050893333 0.69400001 1.3833333e-38
-0.13398001 0.05082 0.69300002 1.3741493e-38
-0.13227715 0.050673336 0.69100004 1.3557102e-38
-0.13039239 0.050453335 0.68800002 1.3464903e-38
-0.12908192 0.050453335 0.68800002 1.3464903e-38
-0.1274 0.050306667 0.68600005 1.3372345e-38
-0.12572572 0.050159998 0.68400002 1.3003562e-38
-0.12424096 0.05008667 0.68300003 1.3095042e-38
-0.12276001 0.050013337 0.68200004 1.3095042e-38
-0.12092667 0.049793333 0.67900002 1.2911011e-38
-0.11945715 0.04972 0.67800003 1.2818815e-38
-0.11816572 0.04972 0.67800003 1.3001404e-38
-0.20021048 0.049581908 0.65900004 1.1618464e-38
-0.19774763 0.049280953 0.65500003 1.1157486e-38
-0.1965 0.049280953 0.65500003 1.1066025e-38
-0.19912763 0.05025905 0.66800004 1.1250416e-38
-0.19785525 0.05025905 0.66800004 1.1434804e-38
-0.19776 0.050560005 0.67200005 1.1711391e-38
-0.19735715 0.050785713 0.67500001 1.2079095e-38
-0.19694287 0.051011432 0.67800003 1.2079095e-38
-0.19594 0.051086668 0.67900002 1.2080183e-38
-0.19464667 0.051086668 0.67900002 1.2541162e-38
-0.19335334 0.051086668 0.67900002 1.2542234e-38
-0.19234286 0.051161904 0.68000001 1.2726625e-38
-0.19160953 0.051312383 0.68200004 1.2727341e-38
-0.19031049 0.051312383 0.68200004 1.2819537e-38
-0.18956572 0.051462859 0.68400002 1.2911379e-38
-0.18881334 0.051613338 0.68600005 1.2911379e-38
-0.18778001 0.051688574 0.68700004 1.3003222e-38
-0.18647143 0.051688574 0.68700004 1.3279808e-38
-0.18543239 0.05176381 0.68800002 1.3187979e-38
-0.18465716 0.05191429 0.69000006 1.3464565e-38
-0.18334286 0.05191429 0.69000006 1.3648944e-38
-0.18229239 0.051989529 0.69100004 1.374114e-38
-0.1809762 0.051989529 0.69100004 1.3648594e-38
-0.18018001 0.052140001 0.69300002 1.3648594e-38
-0.17886001 0.052140001 0.69300002 1.3648242e-38
-0.1777962 0.052215237 0.69400001 1.3832633e-38
-0.17647429 0.052215237 0.69400001 1.3925897e-38
-0.17515238 0.052215237 0.69400001 1.3833701e-38
-0.17383048 0.052215237 0.69400001 1.3925541e-38
-0.17250857 0.052215237 0.69400001 1.3925541e-38
-0.17168 0.05236572 0.69600004 1.4017736e-38
-0.17035429 0.05236572 0.69600004 1.4017736e-38
-0.16927142 0.052440956 0.69700003 1.4110288e-38
-0.16794381 0.052440956 0.69700003 1.4202484e-38
-0.16685523 0.052516192 0.69800001 1.4202128e-38
-0.16552572 0.052516192 0.69800001 1.4294323e-38
-0.16419619 0.052516192 0.69800001 1.4293963e-38
-0.16286667 0.052516192 0.69800001 1.4386159e-38
-0.162 0.052666668 0.70000005 1.4294679e-38
-0.16066667 0.052666668 0.70000005 1.4294679e-38
-0.15956095 0.052741908 0.70100003 1.4111008e-38
-0.15822572 0.052741908 0.70100003 1.4111008e-38
-0.15689048 0.052741908 0.70100003 1.4111364e-38
-0.15555525 0.052741908 0.70100003 1.4019169e-38
-0.15422001 0.052741908 0.70100003 1.4019169e-38
-0.15288477 0.052741908 0.70100003 1.4019169e-38
-0.15133335 0.052666668 0.70000005 1.4202481e-38
-0.15000001 0.052666668 0.70000005 1.4202481e-38
-0.14866666 0.052666668 0.70000005 1.4201762e-38
-0.14691238 0.052516192 0.69800001 1.4201762e-38
-0.14558285 0.052516192 0.69800001 1.4294667e-38
-0.14404668 0.052440956 0.69700003 1.4202471e-38
-0.14271906 0.052440956 0.69700003 1.4109919e-38
-0.14139143 0.052440956 0.69700003 1.4017724e-38
-0.13986287 0.05236572 0.69600004 1.401808e-38
-0.13853714 0.05236572 0.69600004 1.3925884e-38
-0.13721143 0.05236572 0.69600004 1.3925884e-38
-0.13549525 0.052215237 0.69400001 1.3741493e-38
-0.13398001 0.052140001 0.69300002 1.3557102e-38
-0.13227715 0.051989529 0.69100004 1.3280515e-38
-0.13077144 0.05191429 0.69000006 1.337271e-38
-0.12908192 0.05176381 0.68800002 1.337271e-38
-0.12758572 0.051688574 0.68700004 1.3372342e-38
-0.12609334 0.051613338 0.68600005 1.2911364e-38
-0.12442286 0.051462859 0.68400002 1.3002846e-38
-0.12294 0.051387619 0.68300003 1.3002846e-38
-0.12092667 0.051086668 0.67900002 1.3002843e-38
-0.11963334 0.051086668 0.67900002 1.3002843e-38
-0.11834 0.051086668 0.67900002 1.2910285e-38
-0.20085429 0.050682854 0.65700001 1.1252598e-38
-0.19960286 0.050682854 0.65700001 1.0606473e-38
-0.19774763 0.050528575 0.65500003 1.088306e-38
-0.1965 0.050528575 0.65500003 1.1433722e-38
-0.19853143 0.05137714 0.66600001 1.1618114e-38
-0.19726287 0.05137714 0.66600001 1.1434804e-38
-0.19746572 0.051762857 0.671 1.1619196e-38
-0.19706477 0.051994286 0.67400002 1.1894347e-38
-0.19694287 0.05230286 0.67800003 1.1894347e-38
-0.19594 0.052379999 0.67900002 1.1895432e-38
-0.19464667 0.052379999 0.67900002 1.2540801e-38
-0.19335334 0.052379999 0.67900002 1.226637e-38
-0.19234286 0.052457143 0.68000001 1.2358565e-38
-0.19160953 0.052611433 0.68200004 1.2542597e-38
-0.19031049 0.052611433 0.68200004 1.2726988e-38
-0.18928857 0.052688573 0.68300003 1.2727348e-38
-0.18881334 0.052920006 0.68600005 1.2819544e-38
-0.18778001 0.052997146 0.68700004 1.3003222e-38
-0.18647143 0.052997146 0.68700004 1.3095417e-38
-0.18543239 0.053074285 0.68800002 1.3095783e-38
-0.18465716 0.053228576 0.69000006 1.337237e-38
-0.18334286 0.053228576 0.69000006 1.34642e-38
-0.18229239 0.053305719 0.69100004 1.34642e-38
-0.1809762 0.053305719 0.69100004 1.34642e-38
-0.18018001 0.053460002 0.69300002 1.34642e-38
-0.17886001 0.053460002 0.69300002 1.3648594e-38
-0.1777962 0.053537142 0.69400001 1.3832985e-38
-0.17647429 0.053537142 0.69400001 1.374115e-38
-0.17515238 0.053537142 0.69400001 1.374115e-38
-0.17433143 0.053691432 0.69600004 1.374115e-38
-0.17300572 0.053691432 0.69600004 1.374115e-38
-0.17168 0.053691432 0.69600004 1.3925181e-38
-0.17059906 0.053768571 0.69700003 1.4017376e-38
-0.16927142 0.053768571 0.69700003 1.4109569e-38
-0.16794381 0.053768571 0.69700003 1.4201765e-38
-0.16685523 0.053845715 0.69800001 1.4110288e-38
-0.16552572 0.053845715 0.69800001 1.4202484e-38
-0.16466667 0.054000005 0.70000005 1.4110288e-38
-0.16333334 0.054000005 0.70000005 1.4110288e-38
-0.162 0.054000005 0.70000005 1.4202484e-38
-0.16066667 0.054000005 0.70000005 1.4202484e-38
-0.15956095 0.054077145 0.70100003 1.4202484e-38
-0.15822572 0.054077145 0.70100003 1.4110288e-38
-0.15689048 0.054077145 0.70100003 1.4110288e-38
-0.15555525 0.054077145 0.70100003 1.4018092e-38
-0.15422001 0.054077145 0.70100003 1.4109569e-38
-0.15288477 0.054077145 0.70100003 1.4201765e-38
-0.15154953 0.054077145 0.70100003 1.4201762e-38
-0.15000001 0.054000005 0.70000005 1.4201762e-38
-0.14866666 0.054000005 0.70000005 1.4109566e-38
-0.14733334 0.054000005 0.70000005 1.4201762e-38
-0.146 0.054000005 0.70000005 1.4202115e-38
-0.14425333 0.053845715 0.69800001 1.4109919e-38
-0.14271906 0.053768571 0.69700003 1.4017364e-38
-0.14139143 0.053768571 0.69700003 1.4017364e-38
-0.13986287 0.053691432 0.69600004 1.3833335e-38
-0.13853714 0.053691432 0.69600004 1.374114e-38
-0.13721143 0.053691432 0.69600004 1.3741137e-38
-0.13549525 0.053537142 0.69400001 1.3741137e-38
-0.13417333 0.053537142 0.69400001 1.3188326e-38
-0.13227715 0.053305719 0.69100004 1.3188326e-38
-0.13077144 0.053228576 0.69000006 1.3280515e-38
-0.12908192 0.053074285 0.68800002 1.3280515e-38
-0.12758572 0.052997146 0.68700004 1.3463824e-38
-0.12627715 0.052997146 0.68700004 1.3095042e-38
-0.12478668 0.052920006 0.68600005 1.3094323e-38
-0.12312 0.052765712 0.68400002 1.3094323e-38
-0.12092667 0.052379999 0.67900002 1.3002846e-38
-0.11963334 0.052379999 0.67900002 1.2818455e-38
-0.11903714 0.052688573 0.68300003 1.2909932e-38
-0.1177362 0.052688573 0.68300003 1.2448953e-38
-0.20273811 0.051776193 0.65500003 1.4935025e-38
-0.20149048 0.051776193 0.65500003 1.5211238e-38
-0.20085429 0.051934287 0.65700001 1.1799999e-38
-0.19960286 0.051934287 0.65700001 1.0422072e-38
-0.19774763 0.051776193 0.65500003 1.0975246e-38
-0.1965 0.051776193 0.65500003 1.1434078e-38
-0.19853143 0.052645713 0.66600001 1.1434078e-38
-0.19726287 0.052645713 0.66600001 1.1250416e-38
-0.19746572 0.053040951 0.671 1.1527003e-38
-0.19648001 0.053120002 0.67200005 1.1894347e-38
-0.19694287 0.053594287 0.67800003 1.1986543e-38
-0.19622858 0.053752381 0.68000001 1.1710688e-38
-0.19493334 0.053752381 0.68000001 1.2263861e-38
-0.1936381 0.053752381 0.68000001 1.2358558e-38
-0.19290859 0.053910479 0.68200004 1.2266363e-38
-0.19160953 0.053910479 0.68200004 1.208306e-38
-0.19058953 0.053989526 0.68300003 1.2359647e-38
-0.18928857 0.053989526 0.68300003 1.2726985e-38
-0.18881334 0.05422667 0.68600005 1.2819181e-38
-0.18778001 0.054305717 0.68700004 1.2911026e-38
-0.18647143 0.054305717 0.68700004 1.2911026e-38
-0.18543239 0.054384761 0.68800002 1.3095064e-38
-0.18465716 0.054542862 0.69000006 1.3279455e-38
-0.18334286 0.054542862 0.69000006 1.3187976e-38
-0.18229239 0.054621909 0.69100004 1.3280171e-38
-0.1809762 0.054621909 0.69100004 1.34642e-38
-0.18018001 0.054779999 0.69300002 1.34642e-38
-0.17886001 0.054779999 0.69300002 1.3189055e-38
-0.1777962 0.05485905 0.69400001 1.3373446e-38
-0.17647429 0.05485905 0.69400001 1.3373446e-38
-0.17515238 0.05485905 0.69400001 1.3373446e-38
-0.17433143 0.055017143 0.69600004 1.3648957e-38
-0.17300572 0.055017143 0.69600004 1.3741152e-38
-0.17192668 0.05509619 0.69700003 1.3925178e-38
-0.17059906 0.05509619 0.69700003 1.3925178e-38
-0.16927142 0.05509619 0.69700003 1.4017374e-38
-0.16818477 0.055175241 0.69800001 1.4017374e-38
-0.16685523 0.055175241 0.69800001 1.4202115e-38
-0.16552572 0.055175241 0.69800001 1.4294311e-38
-0.16466667 0.055333335 0.70000005 1.4201762e-38
-0.16333334 0.055333335 0.70000005 1.4109566e-38
-0.162 0.055333335 0.70000005 1.4018092e-38
-0.16066667 0.055333335 0.70000005 1.4018092e-38
-0.15956095 0.055412382 0.70100003 1.4018092e-38
-0.15822572 0.055412382 0.70100003 1.4018092e-38
-0.15689048 0.055412382 0.70100003 1.4018092e-38
-0.15555525 0.055412382 0.70100003 1.3925897e-38
-0.15422001 0.055412382 0.70100003 1.4018092e-38
-0.15288477 0.055412382 0.70100003 1.3925897e-38
-0.15154953 0.055412382 0.70100003 1.4202115e-38
-0.15021428 0.055412382 0.70100003 1.4109919e-38
-0.14866666 0.055333335 0.70000005 1.4017371e-38
-0.14733334 0.055333335 0.70000005 1.4017371e-38
-0.146 0.055333335 0.70000005 1.4201752e-38
-0.14466667 0.055333335 0.70000005 1.4017361e-38
-0.14292382 0.055175241 0.69800001 1.3832619e-38
-0.14159428 0.055175241 0.69800001 1.3832619e-38
-0.14006381 0.05509619 0.69700003 1.3740421e-38
-0.13873619 0.05509619 0.69700003 1.3740421e-38
-0.13721143 0.055017143 0.69600004 1.3648941e-38
-0.13549525 0.05485905 0.69400001 1.346455e-38
-0.13417333 0.05485905 0.69400001 1.3372357e-38
-0.13227715 0.054621909 0.69100004 1.3280162e-38
-0.13077144 0.054542862 0.69000006 1.3280512e-38
-0.12908192 0.054384761 0.68800002 1.2727338e-38
-0.12777144 0.054384761 0.68800002 1.2911016e-38
-0.12627715 0.054305717 0.68700004 1.3003212e-38
-0.12478668 0.05422667 0.68600005 1.3095405e-38
-0.12312 0.054068573 0.68400002 1.31876e-38
-0.11451524 0.050827619 0.64300001 1.3371982e-38
-0.11329047 0.050827619 0.64300001 1.3003199e-38
-0.11903714 0.053989526 0.68300003 1.30936e-38
-0.1177362 0.053989526 0.68300003 1.244823e-38
-0.2036743 0.052942861 0.65400004 5.0743876e-39
-0.20242858 0.052942861 0.65400004 1.4386146e-38
-0.20118287 0.052942861 0.65400004 1.5764791e-38
-0.19993716 0.052942861 0.65400004 1.1523792e-38
-0.19869143 0.052942861 0.65400004 9.7770654e-39
-0.19895525 0.053347621 0.65900004 1.0791217e-38
-0.19770001 0.053347621 0.65900004 1.1341883e-38
-0.19882953 0.05399524 0.66700006 1.1341883e-38
-0.19785525 0.054076191 0.66800004 1.1342611e-38
-0.19746572 0.054319046 0.671 1.1527003e-38
-0.19648001 0.054400001 0.67200005 1.1619198e-38
-0.19578096 0.054561906 0.67400002 1.1711394e-38
-0.19594 0.054966666 0.67900002 1.1803236e-38
-0.19493334 0.055047616 0.68000001 1.2172019e-38
-0.1936381 0.055047616 0.68000001 1.1989423e-38
-0.19290859 0.055209529 0.68200004 1.2081618e-38
-0.19160953 0.055209529 0.68200004 1.2173814e-38
-0.19058953 0.055290479 0.68300003 1.2542597e-38
-0.18928857 0.055290479 0.68300003 1.2267449e-38
-0.18881334 0.055533338 0.68600005 1.245184e-38
-0.18778001 0.055614289 0.68700004 1.2726637e-38
-0.18674286 0.055695239 0.68800002 1.2726637e-38
-0.18543239 0.055695239 0.68800002 1.2818477e-38
-0.18412191 0.055695239 0.68800002 1.318726e-38
-0.18334286 0.055857148 0.69000006 1.309578e-38
-0.18229239 0.055938099 0.69100004 1.3187976e-38
-0.1809762 0.055938099 0.69100004 1.3372007e-38
-0.18018001 0.056100003 0.69300002 1.3372007e-38
-0.17886001 0.056100003 0.69300002 1.34642e-38
-0.1777962 0.056180954 0.69400001 1.3556395e-38
-0.17647429 0.056180954 0.69400001 1.3556395e-38
-0.17515238 0.056180954 0.69400001 1.3556395e-38
-0.17433143 0.056342859 0.69600004 1.3648594e-38
-0.17300572 0.056342859 0.69600004 1.3648594e-38
-0.17192668 0.056423813 0.69700003 1.3740787e-38
-0.17059906 0.056423813 0.69700003 1.3740787e-38
-0.16951428 0.056504764 0.69800001 1.3832982e-38
-0.16818477 0.056504764 0.69800001 1.3832982e-38
-0.16685523 0.056504764 0.69800001 1.3740787e-38
-0.16600001 0.056666669 0.70000005 1.3925178e-38
-0.16466667 0.056666669 0.70000005 1.4017374e-38
-0.16333334 0.056666669 0.70000005 1.4017374e-38
-0.16223143 0.056747623 0.70100003 1.3925897e-38
-0.1608962 0.056747623 0.70100003 1.4018092e-38
-0.15956095 0.056747623 0.70100003 1.4018443e-38
-0.15867715 0.056909524 0.70300001 1.4018443e-38
-0.15689048 0.056747623 0.70100003 1.3742582e-38
-0.15555525 0.056747623 0.70100003 1.3834777e-38
-0.15422001 0.056747623 0.70100003 1.3925894e-38
-0.15288477 0.056747623 0.70100003 1.3925894e-38
-0.15154953 0.056747623 0.70100003 1.4017371e-38
-0.15021428 0.056747623 0.70100003 1.3925175e-38
-0.14866666 0.056666669 0.70000005 1.3925528e-38
-0.14733334 0.056666669 0.70000005 1.3925528e-38
-0.146 0.056666669 0.70000005 1.4109559e-38
-0.14466667 0.056666669 0.70000005 1.3925168e-38
-0.14292382 0.056504764 0.69800001 1.3648588e-38
-0.14159428 0.056504764 0.69800001 1.3648588e-38
-0.14006381 0.056423813 0.69700003 1.3556746e-38
-0.13873619 0.056423813 0.69700003 1.346455e-38
-0.13721143 0.056342859 0.69600004 1.3556386e-38
-0.13588572 0.056342859 0.69600004 1.346419e-38
-0.13417333 0.056180954 0.69400001 1.3280162e-38
-0.13227715 0.055938099 0.69100004 1.3372357e-38
-0.13077144 0.055857148 0.69000006 1.3280159e-38
-0.12908192 0.055695239 0.68800002 1.2911376e-38
-0.12777144 0.055695239 0.68800002 1.291066e-38
-0.12627715 0.055614289 0.68700004 1.3095051e-38
-0.12478668 0.055533338 0.68600005 1.3003575e-38
-0.11574 0.052052379 0.64300001 1.309577e-38
-0.11451524 0.052052379 0.64300001 1.3647865e-38
-0.11329047 0.052052379 0.64300001 1.2357126e-38
-0.11206571 0.052052379 0.64300001 1.2448208e-38
-0.11084095 0.052052379 0.64300001 1.2448208e-38
-0.2036743 0.054188572 0.65400004 5.7179269e-39
-0.20242858 0.054188572 0.65400004 1.493749e-38
-0.20118287 0.054188572 0.65400004 1.5671847e-38
-0.19993716 0.054188572 0.65400004 1.1799631e-38
-0.19869143 0.054188572 0.65400004 1.0328078e-38
-0.19895525 0.054602861 0.65900004 1.1065643e-38
-0.19770001 0.054602861 0.65900004 1.1249687e-38
-0.19882953 0.055265717 0.66700006 1.1157492e-38
-0.19785525 0.055348575 0.66800004 1.1157864e-38
-0.19776 0.055680003 0.67200005 1.1526647e-38
-0.19648001 0.055680003 0.67200005 1.1619196e-38
-0.19578096 0.055845715 0.67400002 1.1619196e-38
-0.19594 0.056260001 0.67900002 1.1618489e-38
-0.19493334 0.056342855 0.68000001 1.2079467e-38
-0.1936381 0.056342855 0.68000001 1.2173088e-38
-0.19290859 0.056508575 0.68200004 1.2265284e-38
-0.19189049 0.056591429 0.68300003 1.2173814e-38
-0.19058953 0.056591429 0.68300003 1.226601e-38
-0.18956572 0.056674287 0.68400002 1.2450401e-38
-0.18881334 0.056840003 0.68600005 1.2542597e-38
-0.18778001 0.05692286 0.68700004 1.2634439e-38
-0.18674286 0.057005715 0.68800002 1.2726635e-38
-0.18543239 0.057005715 0.68800002 1.2726282e-38
-0.18412191 0.057005715 0.68800002 1.3002868e-38
-0.18334286 0.057171434 0.69000006 1.2818477e-38
-0.18229239 0.057254288 0.69100004 1.2634086e-38
-0.1809762 0.057254288 0.69100004 1.2818842e-38
-0.18018001 0.05742 0.69300002 1.3095428e-38
-0.17886001 0.05742 0.69300002 1.3187976e-38
-0.1777962 0.057502858 0.69400001 1.3372367e-38
-0.17647429 0.057502858 0.69400001 1.3556393e-38
-0.17515238 0.057502858 0.69400001 1.3556393e-38
-0.17433143 0.057668574 0.69600004 1.3648588e-38
-0.1732543 0.057751432 0.69700003 1.3648588e-38
-0.17192668 0.057751432 0.69700003 1.3557114e-38
-0.17084381 0.057834286 0.69800001 1.364931e-38
-0.16951428 0.057834286 0.69800001 1.3740787e-38
-0.16866668 0.058000006 0.70000005 1.3740787e-38
-0.16733335 0.058000006 0.70000005 1.3740787e-38
-0.16600001 0.058000006 0.70000005 1.3740787e-38
-0.16466667 0.058000006 0.70000005 1.3832982e-38
-0.16356668 0.05808286 0.70100003 1.3832982e-38
-0.16223143 0.05808286 0.70100003 1.4017724e-38
-0.1608962 0.05808286 0.70100003 1.4202115e-38
-0.16001619 0.058248568 0.70300001 1.4110275e-38
-0.15867715 0.058248568 0.70300001 1.4110275e-38
-0.1573381 0.058248568 0.70300001 1.4017724e-38
-0.15599905 0.058248568 0.70300001 1.4017724e-38
-0.15466 0.058248568 0.70300001 1.4017724e-38
-0.15288477 0.05808286 0.70100003 1.3925528e-38
-0.15154953 0.05808286 0.70100003 1.3925528e-38
-0.15021428 0.05808286 0.70100003 1.3925528e-38
-0.14887907 0.05808286 0.70100003 1.3740787e-38
-0.14754382 0.05808286 0.70100003 1.3740787e-38
-0.14620858 0.05808286 0.70100003 1.3740426e-38
-0.14466667 0.058000006 0.70000005 1.3556035e-38
-0.14333335 0.058000006 0.70000005 1.3464197e-38
-0.142 0.058000006 0.70000005 1.3648588e-38
-0.14026476 0.057834286 0.69800001 1.3740414e-38
-0.13893524 0.057834286 0.69800001 1.3556023e-38
-0.13740857 0.057751432 0.69700003 1.346419e-38
-0.13549525 0.057502858 0.69400001 1.3371994e-38
-0.13417333 0.057502858 0.69400001 1.3279799e-38
-0.13266 0.05742 0.69300002 1.3279799e-38
-0.13077144 0.057171434 0.69000006 1.3187253e-38
-0.12945715 0.057171434 0.69000006 1.3002861e-38
-0.11830001 0.052780002 0.63700002 1.3187253e-38
-0.11708666 0.052780002 0.63700002 1.3740426e-38
-0.11678286 0.053194284 0.64200002 1.39248e-38
-0.11556 0.053194284 0.64200002 1.3832604e-38
-0.11451524 0.053277142 0.64300001 1.3832972e-38
-0.11329047 0.053277142 0.64300001 1.0421734e-38
-0.11206571 0.053277142 0.64300001 8.3058786e-39
-0.11084095 0.053277142 0.64300001 9.2278349e-39
-0.20242858 0.05543429 0.65400004 1.5027159e-38
-0.20118287 0.05543429 0.65400004 1.5029718e-38
-0.19993716 0.05543429 0.65400004 1.1618479e-38
-0.19869143 0.05543429 0.65400004 1.1063498e-38
-0.19955905 0.056027621 0.66100001 1.1340085e-38
-0.19890001 0.056197144 0.66300005 1.1249331e-38
-0.19882953 0.056536198 0.66700006 1.1157136e-38
-0.19785525 0.056620955 0.66800004 1.1158217e-38
-0.19776 0.056960005 0.67200005 1.1434804e-38
-0.19648001 0.056960005 0.67200005 1.1434807e-38
-0.19578096 0.057129528 0.67400002 1.1434807e-38
-0.19565143 0.057468574 0.67800003 1.152665e-38
-0.19493334 0.057638094 0.68000001 1.2079823e-38
-0.1936381 0.057638094 0.68000001 1.1897224e-38
-0.19290859 0.057807621 0.68200004 1.198942e-38
-0.19189049 0.057892382 0.68300003 1.1989783e-38
-0.19058953 0.057892382 0.68300003 1.2081979e-38
-0.18928857 0.057892382 0.68300003 1.2357489e-38
-0.18881334 0.05814667 0.68600005 1.254188e-38
-0.18778001 0.058231428 0.68700004 1.2542243e-38
-0.18674286 0.058316194 0.68800002 1.2634439e-38
-0.18597144 0.058485717 0.69000006 1.2818114e-38
-0.18465716 0.058485717 0.69000006 1.291031e-38
-0.18360859 0.058570478 0.69100004 1.281883e-38
-0.18229239 0.058570478 0.69100004 1.281883e-38
-0.1809762 0.058570478 0.69100004 1.281883e-38
-0.18018001 0.058740001 0.69300002 1.3095417e-38
-0.17886001 0.058740001 0.69300002 1.3188332e-38
-0.1777962 0.058824759 0.69400001 1.3280527e-38
-0.17647429 0.058824759 0.69400001 1.3096856e-38
-0.17565715 0.058994289 0.69600004 1.3281248e-38
-0.1745819 0.059079047 0.69700003 1.3281604e-38
-0.1732543 0.059079047 0.69700003 1.3281604e-38
-0.17217334 0.059163809 0.69800001 1.3281248e-38
-0.17084381 0.059163809 0.69800001 1.3373443e-38
-0.16951428 0.059163809 0.69800001 1.3557114e-38
-0.16866668 0.059333336 0.70000005 1.3557114e-38
-0.16733335 0.059333336 0.70000005 1.3648591e-38
-0.16623715 0.059418097 0.70100003 1.3648591e-38
-0.16490191 0.059418097 0.70100003 1.3740426e-38
-0.16356668 0.059418097 0.70100003 1.3740426e-38
-0.16269428 0.05958762 0.70300001 1.3832619e-38
-0.16135524 0.05958762 0.70300001 1.3832619e-38
-0.16001619 0.05958762 0.70300001 1.3832617e-38
-0.15890287 0.059672385 0.70400006 1.3740421e-38
-0.1573381 0.05958762 0.70300001 1.3556393e-38
-0.15599905 0.05958762 0.70300001 1.3832979e-38
-0.15466 0.05958762 0.70300001 1.3832979e-38
-0.15332095 0.05958762 0.70300001 1.3832979e-38
-0.15198191 0.05958762 0.70300001 1.3832979e-38
-0.15064286 0.05958762 0.70300001 1.3832979e-38
-0.14887907 0.059418097 0.70100003 1.3832617e-38
-0.14754382 0.059418097 0.70100003 1.3648225e-38
-0.14620858 0.059418097 0.70100003 1.3556748e-38
-0.14487334 0.059418097 0.70100003 1.3464553e-38
-0.14333335 0.059333336 0.70000005 1.3372004e-38
-0.142 0.059333336 0.70000005 1.3279808e-38
-0.14026476 0.059163809 0.69800001 1.3280162e-38
-0.13893524 0.059163809 0.69800001 1.3280162e-38
-0.13740857 0.059079047 0.69700003 1.3188319e-38
-0.13549525 0.058824759 0.69400001 1.3188319e-38
-0.13417333 0.058824759 0.69400001 1.3279796e-38
-0.13266 0.058740001 0.69300002 1.3279796e-38
-0.13077144 0.058485717 0.69000006 1.3186887e-38
-0.12945715 0.058485717 0.69000006 1.3279083e-38
-0.11830001 0.053993333 0.63700002 1.3095064e-38
-0.11708666 0.053993333 0.63700002 1.3648238e-38
-0.11641905 0.054247621 0.64000005 1.3925528e-38
-0.11556 0.054417145 0.64200002 1.3556746e-38
-0.11433714 0.054417145 0.64200002 1.236001e-38
-0.11311429 0.054417145 0.64200002 7.8424243e-39
-0.11189143 0.054417145 0.64200002 6.3704429e-39
-0.11084095 0.054501906 0.64300001 9.1363118e-39
-0.20142572 0.057460003 0.66300005 1.1065315e-38
-0.20016287 0.057460003 0.66300005 1.0696533e-38
-0.1998 0.057719998 0.66600001 1.0697605e-38
-0.19882953 0.057806671 0.66700006 1.0974192e-38
-0.19785525 0.057893336 0.66800004 1.1158217e-38
