# .PCD v0.7 - Point Cloud Data file format
VERSION 0.7
FIELDS x y z rgb
SIZE 4 4 4 4
TYPE F F F F
COUNT 1 1 1 1
WIDTH 946
HEIGHT 1
VIEWPOINT 0 0 0 1 0 0 0
POINTS 946
DATA ascii
-0.031000003 -0.04694286 0.93000007 1.945148e-38
-0.029322859 -0.047094285 0.93300003 1.9912458e-38
-0.027545715 -0.047094285 0.93300003 1.9820979e-38
-0.025823811 -0.047195241 0.93500006 2.000537e-38
-0.024042858 -0.047195241 0.93500006 2.0097205e-38
-0.022261906 -0.047195241 0.93500006 2.0189401e-38
-0.020480953 -0.047195241 0.93500006 2.0097568e-38
-0.018700002 -0.047195241 0.93500006 2.0189764e-38
-0.016973333 -0.047346666 0.93800002 2.0281957e-38
-0.015186667 -0.047346666 0.93800002 2.0374152e-38
-0.013400001 -0.047346666 0.93800002 2.028196e-38
-0.011613334 -0.047346666 0.93800002 2.028196e-38
-0.0098266667 -0.047346666 0.93800002 2.0374155e-38
-0.0080400007 -0.047346666 0.93800002 2.028196e-38
-0.0062533333 -0.047346666 0.93800002 2.0005017e-38
-0.0044666668 -0.047346666 0.93800002 2.0005017e-38
-0.0026800002 -0.047346666 0.93800002 1.9820263e-38
-0.00089333334 -0.047346666 0.93800002 1.9635871e-38
0.00089047622 -0.047195241 0.93500006 1.9635871e-38
0.0026714287 -0.047195241 0.93500006 1.9635871e-38
0.0044428571 -0.047094285 0.93300003 1.9452196e-38
0.0062199999 -0.047094285 0.93300003 1.9175609e-38
0.0079714293 -0.04694286 0.93000007 1.8990502e-38
0.0097428579 -0.04694286 0.93000007 1.8898306e-38
0.011489524 -0.046841905 0.92800003 1.8806111e-38
0.013257143 -0.046841905 0.92800003 1.8529524e-38
0.015024763 -0.046841905 0.92800003 1.8437681e-38
0.016738096 -0.046690479 0.92500007 1.7976703e-38
0.0185 -0.046690479 0.92500007 1.7792309e-38
0.020261906 -0.046690479 0.92500007 1.714694e-38
0.021976192 -0.046589527 0.92300004 1.7238065e-38
0.023657143 -0.046438098 0.92000002 1.6869282e-38
0.025354287 -0.046337146 0.91800004 1.6591951e-38
0.027014285 -0.046185717 0.91500002 1.5854386e-38
0.028694287 -0.046084765 0.91300005 1.6498686e-38
0.030333333 -0.045933332 0.91000003 1.7512838e-38
0.031996191 -0.045832384 0.90800005 1.7513917e-38
0.033725716 -0.045832384 0.90800005 1.7513917e-38
-0.048190478 -0.044685714 0.92000002 1.7238062e-38
-0.046438098 -0.044685714 0.92000002 1.769904e-38
-0.044685714 -0.044685714 0.92000002 1.7515372e-38
-0.043073334 -0.044831429 0.92300004 1.8160741e-38
-0.041315239 -0.044831429 0.92300004 1.8161097e-38
-0.039557144 -0.044831429 0.92300004 1.852988e-38
-0.037880953 -0.044928573 0.92500007 1.852988e-38
-0.036119051 -0.044928573 0.92500007 1.8990858e-38
-0.034468573 -0.045074288 0.92800003 1.9174893e-38
-0.032700956 -0.045074288 0.92800003 1.9174893e-38
-0.031000003 -0.045171432 0.93000007 1.9082698e-38
-0.029322859 -0.045317143 0.93300003 1.9728067e-38
-0.027545715 -0.045317143 0.93300003 1.9729139e-38
-0.025823811 -0.045414288 0.93500006 2.0005726e-38
-0.024042858 -0.045414288 0.93500006 2.000501e-38
-0.022261906 -0.045414288 0.93500006 2.000501e-38
-0.020546667 -0.045560002 0.93800002 2.0097205e-38
-0.018759999 -0.045560002 0.93800002 2.0281597e-38
-0.016973333 -0.045560002 0.93800002 2.0373792e-38
-0.015186667 -0.045560002 0.93800002 2.0373792e-38
-0.013400001 -0.045560002 0.93800002 2.0097205e-38
-0.011613334 -0.045560002 0.93800002 2.0189401e-38
-0.0098266667 -0.045560002 0.93800002 2.0189761e-38
-0.0080400007 -0.045560002 0.93800002 2.0097566e-38
-0.0062533333 -0.045560002 0.93800002 1.9913177e-38
-0.0044666668 -0.045560002 0.93800002 1.9820981e-38
-0.0026800002 -0.045560002 0.93800002 1.9728067e-38
-0.00089333334 -0.045560002 0.93800002 1.9635871e-38
0.00089047622 -0.045414288 0.93500006 1.9636227e-38
0.0026714287 -0.045414288 0.93500006 1.9636227e-38
0.0044428571 -0.045317143 0.93300003 1.9359284e-38
0.0062199999 -0.045317143 0.93300003 1.9267089e-38
0.0079971431 -0.045317143 0.93300003 1.8898306e-38
0.0097428579 -0.045171432 0.93000007 1.8898306e-38
0.011514287 -0.045171432 0.93000007 1.8621719e-38
0.013257143 -0.045074288 0.92800003 1.8345132e-38
0.015024763 -0.045074288 0.92800003 1.8345486e-38
0.016792381 -0.045074288 0.92800003 1.7976703e-38
0.0185 -0.044928573 0.92500007 1.7607918e-38
0.020261906 -0.044928573 0.92500007 1.7054744e-38
0.020380953 -0.041577145 0.85600007 1.7145863e-38
0.022011429 -0.041577145 0.85600007 1.6777081e-38
0.023586666 -0.041480001 0.85400003 1.6683796e-38
0.025213335 -0.041480001 0.85400003 1.6960383e-38
0.026840001 -0.041480001 0.85400003 1.7419945e-38
0.0305 -0.044442859 0.91500002 1.8065314e-38
0.032242857 -0.044442859 0.91500002 1.8619554e-38
-0.048347622 -0.043073334 0.92300004 1.8158208e-38
-0.046589527 -0.043073334 0.92300004 1.8342599e-38
-0.044831429 -0.043073334 0.92300004 1.7975627e-38
-0.043073334 -0.043073334 0.92300004 1.8344409e-38
-0.041315239 -0.043073334 0.92300004 1.8161097e-38
-0.039557144 -0.043073334 0.92300004 1.8437684e-38
-0.037880953 -0.043166671 0.92500007 1.8437328e-38
-0.036236189 -0.043306667 0.92800003 1.8898306e-38
-0.034468573 -0.043306667 0.92800003 1.8898662e-38
-0.032771431 -0.043400005 0.93000007 1.9083053e-38
-0.031100003 -0.043540001 0.93300003 1.9082698e-38
-0.029322859 -0.043540001 0.93300003 1.9728067e-38
-0.027545715 -0.043540001 0.93300003 1.9728417e-38
-0.025823811 -0.043633334 0.93500006 1.9912809e-38
-0.024042858 -0.043633334 0.93500006 2.0005007e-38
-0.022333333 -0.043773334 0.93800002 2.0005007e-38
-0.020546667 -0.043773334 0.93800002 2.0097205e-38
-0.018759999 -0.043773334 0.93800002 2.0281597e-38
-0.016973333 -0.043773334 0.93800002 2.0281594e-38
-0.015186667 -0.043773334 0.93800002 2.0189398e-38
-0.013400001 -0.043773334 0.93800002 2.0097205e-38
-0.011613334 -0.043773334 0.93800002 2.0189401e-38
-0.0098266667 -0.043773334 0.93800002 2.0189398e-38
-0.0080400007 -0.043773334 0.93800002 2.0189398e-38
-0.0062533333 -0.043773334 0.93800002 1.9912458e-38
-0.0044666668 -0.043773334 0.93800002 1.9820263e-38
-0.0026800002 -0.043773334 0.93800002 1.9543323e-38
-0.00089333334 -0.043773334 0.93800002 1.9451127e-38
0.00089333334 -0.043773334 0.93800002 1.935964e-38
0.0026714287 -0.043633334 0.93500006 1.935964e-38
0.0044523813 -0.043633334 0.93500006 1.9082698e-38
0.0062333336 -0.043633334 0.93500006 1.9082698e-38
0.0079971431 -0.043540001 0.93300003 1.8713915e-38
0.0097742863 -0.043540001 0.93300003 1.8621719e-38
0.011514287 -0.043400005 0.93000007 1.8252937e-38
0.013257143 -0.043306667 0.92800003 1.7884154e-38
0.015024763 -0.043306667 0.92800003 1.7975627e-38
0.016792381 -0.043306667 0.92800003 1.7975627e-38
0.0185 -0.043166671 0.92500007 1.7607918e-38
0.020261906 -0.043166671 0.92500007 1.7700113e-38
0.020380953 -0.039946672 0.85600007 1.8436955e-38
0.022011429 -0.039946672 0.85600007 1.8897934e-38
0.023586666 -0.039853334 0.85400003 1.9542587e-38
0.025213335 -0.039853334 0.85400003 2.0003565e-38
0.026840001 -0.039853334 0.85400003 1.8621369e-38
-0.048347622 -0.041315239 0.92300004 1.8343305e-38
-0.046589527 -0.041315239 0.92300004 1.8435501e-38
-0.044831429 -0.041315239 0.92300004 1.8344409e-38
-0.043073334 -0.041315239 0.92300004 1.8528801e-38
-0.041315239 -0.041315239 0.92300004 1.8344412e-38
-0.039557144 -0.041315239 0.92300004 1.8528803e-38
-0.037880953 -0.041404765 0.92500007 1.8528801e-38
-0.036236189 -0.041539047 0.92800003 1.8989779e-38
-0.034468573 -0.041539047 0.92800003 1.8806467e-38
-0.032771431 -0.041628573 0.93000007 1.9175249e-38
-0.031100003 -0.041762859 0.93300003 1.9175249e-38
-0.029322859 -0.041762859 0.93300003 1.9451836e-38
-0.027545715 -0.041762859 0.93300003 1.9175243e-38
-0.025823811 -0.041852385 0.93500006 1.9359635e-38
-0.024042858 -0.041852385 0.93500006 1.9634429e-38
-0.022333333 -0.041986667 0.93800002 1.9911016e-38
-0.020546667 -0.041986667 0.93800002 1.9819539e-38
-0.018759999 -0.041986667 0.93800002 1.9911735e-38
-0.016973333 -0.041986667 0.93800002 2.0096124e-38
-0.015186667 -0.041986667 0.93800002 2.0003928e-38
-0.013400001 -0.041986667 0.93800002 1.9636222e-38
-0.011613334 -0.041986667 0.93800002 1.9820613e-38
-0.0098266667 -0.041986667 0.93800002 1.972842e-38
-0.0080400007 -0.041986667 0.93800002 1.9912811e-38
-0.0062533333 -0.041986667 0.93800002 1.9820263e-38
-0.0044666668 -0.041986667 0.93800002 1.9543676e-38
-0.0026800002 -0.041986667 0.93800002 1.9267808e-38
-0.00089333334 -0.041986667 0.93800002 1.9175612e-38
0.00089333334 -0.041986667 0.93800002 1.8806829e-38
0.0026714287 -0.041852385 0.93500006 1.8991221e-38
0.0044523813 -0.041852385 0.93500006 1.8713915e-38
0.0062333336 -0.041852385 0.93500006 1.8806111e-38
0.0080142869 -0.041852385 0.93500006 1.8530243e-38
0.0097952392 -0.041852385 0.93500006 1.8438047e-38
0.011514287 -0.041628573 0.93000007 1.816146e-38
0.013257143 -0.041539047 0.92800003 1.8069264e-38
0.015024763 -0.041539047 0.92800003 1.8160015e-38
0.016792381 -0.041539047 0.92800003 1.8528798e-38
0.017160002 -0.038405713 0.85800004 1.8529173e-38
0.018794287 -0.038405713 0.85800004 1.8713565e-38
0.020428572 -0.038405713 0.85800004 1.9634432e-38
0.022062857 -0.038405713 0.85800004 1.9726628e-38
0.023641907 -0.038316194 0.85600007 2.0003915e-38
0.025272382 -0.038316194 0.85600007 1.9819524e-38
0.02690286 -0.038316194 0.85600007 1.7794495e-38
-0.046589527 -0.039557144 0.92300004 1.7144752e-38
-0.044831429 -0.039557144 0.92300004 1.7975624e-38
-0.043073334 -0.039557144 0.92300004 1.9174167e-38
-0.041315239 -0.039557144 0.92300004 1.8897953e-38
-0.039557144 -0.039557144 0.92300004 1.9358931e-38
-0.037880953 -0.039642859 0.92500007 1.9267442e-38
-0.036236189 -0.03977143 0.92800003 1.9267442e-38
-0.034468573 -0.03977143 0.92800003 1.9727697e-38
-0.032771431 -0.039857145 0.93000007 1.9819893e-38
-0.031100003 -0.039985713 0.93300003 1.9636227e-38
-0.029322859 -0.039985713 0.93300003 2.0097205e-38
-0.027545715 -0.039985713 0.93300003 1.9636222e-38
-0.025906667 -0.040200002 0.93800002 1.945183e-38
-0.024119999 -0.040200002 0.93800002 1.9727347e-38
-0.022333333 -0.040200002 0.93800002 1.9911738e-38
-0.020546667 -0.040200002 0.93800002 1.9727344e-38
-0.018759999 -0.040200002 0.93800002 1.9542953e-38
-0.016973333 -0.040200002 0.93800002 1.9544032e-38
-0.015186667 -0.040200002 0.93800002 1.9451836e-38
-0.013400001 -0.040200002 0.93800002 1.9359638e-38
-0.011613334 -0.040200002 0.93800002 1.9636224e-38
-0.0098266667 -0.040200002 0.93800002 1.9636224e-38
-0.0080400007 -0.040200002 0.93800002 1.9544029e-38
-0.006266667 -0.040285718 0.94000006 1.9635871e-38
-0.0044666668 -0.040200002 0.93800002 1.9635871e-38
-0.0026800002 -0.040200002 0.93800002 1.9820981e-38
-0.00089333334 -0.040200002 0.93800002 2.0374155e-38
0.00089333334 -0.040200002 0.93800002 2.0374155e-38
0.0026714287 -0.040071432 0.93500006 2.0466351e-38
0.0044523813 -0.040071432 0.93500006 2.0466348e-38
0.0057333331 -0.036857143 0.86000001 2.0189761e-38
0.0073714289 -0.036857143 0.86000001 2.0373436e-38
0.0090095233 -0.036857143 0.86000001 2.0650023e-38
0.010622857 -0.036771428 0.85800004 2.0927326e-38
0.012257144 -0.036771428 0.85800004 2.1296109e-38
0.013923809 -0.036857143 0.86000001 2.1112436e-38
0.015525714 -0.036771428 0.85800004 2.1296828e-38
0.017160002 -0.036771428 0.85800004 2.0097591e-38
0.018750478 -0.036685716 0.85600007 2.0097591e-38
0.020380953 -0.036685716 0.85600007 1.9360729e-38
0.022062857 -0.036771428 0.85800004 1.6502665e-38
0.023752382 -0.036857143 0.86000001 1.5212264e-38
0.025390476 -0.036857143 0.86000001 1.613422e-38
0.027374288 -0.037328575 0.87100005 1.6593766e-38
0.029033335 -0.037328575 0.87100005 1.4934244e-38
0.030762859 -0.037414286 0.87300003 1.3737114e-38
-0.04728286 -0.035669528 0.87100005 1.2169036e-38
-0.045623813 -0.035669528 0.87100005 1.2998093e-38
-0.043964762 -0.035669528 0.87100005 1.6778114e-38
-0.042208571 -0.03558762 0.86900002 1.6779252e-38
-0.040553335 -0.03558762 0.86900002 1.8254382e-38
-0.038898095 -0.03558762 0.86900002 1.8347283e-38
-0.037157144 -0.035505716 0.86700004 1.8716066e-38
-0.035505716 -0.035505716 0.86700004 1.9911723e-38
-0.033854287 -0.035505716 0.86700004 2.0096114e-38
-0.034468573 -0.038003813 0.92800003 2.0280518e-38
-0.032771431 -0.038085714 0.93000007 1.9911735e-38
-0.031100003 -0.03820857 0.93300003 1.9728417e-38
-0.029322859 -0.03820857 0.93300003 2.0281591e-38
-0.027545715 -0.03820857 0.93300003 2.0097921e-38
-0.025906667 -0.038413331 0.93800002 2.0190117e-38
-0.024119999 -0.038413331 0.93800002 2.0281241e-38
-0.022333333 -0.038413331 0.93800002 2.0650023e-38
-0.020546667 -0.038413331 0.93800002 2.0558184e-38
-0.018700002 -0.038290478 0.93500006 2.0373792e-38
-0.016919049 -0.038290478 0.93500006 2.0281241e-38
-0.015186667 -0.038413331 0.93800002 2.0373436e-38
-0.013400001 -0.038413331 0.93800002 2.0373802e-38
-0.011613334 -0.038413331 0.93800002 2.0650389e-38
-0.0098266667 -0.038413331 0.93800002 2.083478e-38
-0.0080571435 -0.038495239 0.94000006 2.0926976e-38
-0.005706667 -0.035055239 0.85600007 2.1019169e-38
-0.0040761908 -0.035055239 0.85600007 2.1756734e-38
-0.0024457145 -0.035055239 0.85600007 2.1849285e-38
-0.00081523816 -0.035055239 0.85600007 2.1941481e-38
0.00081523816 -0.035055239 0.85600007 2.1941128e-38
0.0024457145 -0.035055239 0.85600007 2.1111367e-38
0.0040761908 -0.035055239 0.85600007 2.1018806e-38
0.0057200002 -0.035137143 0.85800004 2.1203197e-38
0.0073542856 -0.035137143 0.85800004 2.1664894e-38
0.0089885723 -0.035137143 0.85800004 2.1572698e-38
0.010622857 -0.035137143 0.85800004 2.1480503e-38
0.012257144 -0.035137143 0.85800004 2.111172e-38
0.013923809 -0.035219047 0.86000001 2.0468149e-38
0.015525714 -0.035137143 0.85800004 1.9914975e-38
0.017160002 -0.035137143 0.85800004 1.807324e-38
0.018750478 -0.035055239 0.85600007 1.8810805e-38
0.020380953 -0.035055239 0.85600007 1.742894e-38
0.022062857 -0.035137143 0.85800004 1.0975246e-38
0.023752382 -0.035219047 0.86000001 1.1710213e-38
0.025449526 -0.035300955 0.86200005 1.4107299e-38
0.027311428 -0.03558762 0.86900002 1.7512838e-38
0.029033335 -0.035669528 0.87100005 1.6683078e-38
0.030762859 -0.035751428 0.87300003 1.3921162e-38
-0.04728286 -0.034010477 0.87100005 1.1064867e-38
-0.045623813 -0.034010477 0.87100005 1.2905183e-38
-0.043964762 -0.034010477 0.87100005 1.6408616e-38
-0.042208571 -0.03393238 0.86900002 1.677779e-38
-0.040553335 -0.03393238 0.86900002 1.4749486e-38
-0.038898095 -0.03393238 0.86900002 1.2175546e-38
-0.037157144 -0.033854287 0.86700004 1.125359e-38
-0.035505716 -0.033854287 0.86700004 1.3921202e-38
-0.033737142 -0.033737142 0.86400002 1.8162201e-38
-0.031942859 -0.033580955 0.86000001 1.7977429e-38
-0.030304762 -0.033580955 0.86000001 1.7055473e-38
-0.028666668 -0.033580955 0.86000001 1.6321863e-38
-0.027028572 -0.033580955 0.86000001 1.7520407e-38
-0.02533143 -0.033502858 0.85800004 1.9176688e-38
-0.023641907 -0.033424765 0.85600007 2.0467427e-38
-0.022011429 -0.033424765 0.85600007 2.0834414e-38
-0.020380953 -0.033424765 0.85600007 2.1387588e-38
-0.018750478 -0.033424765 0.85600007 2.138866e-38
-0.017120002 -0.033424765 0.85600007 2.2126225e-38
-0.015489525 -0.033424765 0.85600007 2.2125872e-38
-0.013891429 -0.033502858 0.85800004 2.2679046e-38
-0.012257144 -0.033502858 0.85800004 2.2587932e-38
-0.010622857 -0.033502858 0.85800004 2.2772323e-38
-0.0089885723 -0.033502858 0.85800004 2.2034758e-38
-0.0073371432 -0.033424765 0.85600007 2.1850367e-38
-0.005706667 -0.033424765 0.85600007 2.1850364e-38
-0.0040761908 -0.033424765 0.85600007 2.2034756e-38
-0.0024457145 -0.033424765 0.85600007 2.1941844e-38
-0.00081523816 -0.033424765 0.85600007 2.2679409e-38
0.00081523816 -0.033424765 0.85600007 2.1941491e-38
0.0024457145 -0.033424765 0.85600007 2.0835143e-38
0.0040761908 -0.033424765 0.85600007 2.055926e-38
0.0057200002 -0.033502858 0.85800004 2.0006086e-38
0.0073542856 -0.033502858 0.85800004 2.0190124e-38
0.0089885723 -0.033502858 0.85800004 2.0005733e-38
0.010647619 -0.033580955 0.86000001 1.7424999e-38
0.012285715 -0.033580955 0.86000001 1.3460587e-38
0.013923809 -0.033580955 0.86000001 1.2359661e-38
0.015561905 -0.033580955 0.86000001 1.1622096e-38
0.017199999 -0.033580955 0.86000001 1.5953049e-38
0.018794287 -0.033502858 0.85800004 1.7981353e-38
0.020428572 -0.033502858 0.85800004 1.6786034e-38
0.022165716 -0.033659048 0.86200005 7.6586664e-39
0.023862857 -0.033737142 0.86400002 5.8280998e-39
0.025597144 -0.033854287 0.86700004 8.8705556e-39
0.027311428 -0.03393238 0.86900002 1.530696e-38
0.029033335 -0.034010477 0.87100005 1.6505504e-38
0.030762859 -0.034088571 0.87300003 1.4748401e-38
0.03261143 -0.034283809 0.87800002 1.2443511e-38
0.034361906 -0.034361906 0.88000005 1.3916846e-38
-0.04728286 -0.032351431 0.87100005 1.0971968e-38
-0.045623813 -0.032351431 0.87100005 1.2997757e-38
-0.043964762 -0.032351431 0.87100005 1.6962169e-38
-0.042208571 -0.032277141 0.86900002 1.6595211e-38
-0.040553335 -0.032277141 0.86900002 1.1708842e-38
-0.038898095 -0.032277141 0.86900002 8.4931313e-39
-0.037157144 -0.032202858 0.86700004 7.2023924e-39
-0.035505716 -0.032202858 0.86700004 1.125358e-38
-0.033737142 -0.032091428 0.86400002 1.5494579e-38
-0.031942859 -0.031942859 0.86000001 1.6595579e-38
-0.030304762 -0.031942859 0.86000001 1.5028253e-38
-0.028666668 -0.031942859 0.86000001 1.2364985e-38
-0.027028572 -0.031942859 0.86000001 1.457768e-38
-0.02533143 -0.031868573 0.85800004 1.650662e-38
-0.023641907 -0.031794287 0.85600007 1.8719316e-38
-0.022011429 -0.031794287 0.85600007 1.9361079e-38
-0.020380953 -0.031794287 0.85600007 1.8992297e-38
-0.018750478 -0.031794287 0.85600007 1.8807906e-38
-0.017120002 -0.031794287 0.85600007 1.9176688e-38
-0.015489525 -0.031794287 0.85600007 1.9822048e-38
-0.013891429 -0.031868573 0.85800004 2.0651808e-38
-0.012257144 -0.031868573 0.85800004 2.0559635e-38
-0.010622857 -0.031868573 0.85800004 1.8900114e-38
-0.0089885723 -0.031868573 0.85800004 1.7888826e-38
-0.0073371432 -0.031794287 0.85600007 1.7520044e-38
-0.005706667 -0.031794287 0.85600007 1.6875397e-38
-0.0040761908 -0.031794287 0.85600007 1.7612962e-38
-0.0024457145 -0.031794287 0.85600007 1.8993744e-38
-0.00081523816 -0.031794287 0.85600007 2.0468875e-38
0.00081523816 -0.031794287 0.85600007 2.0191572e-38
0.0024457145 -0.031794287 0.85600007 1.8808637e-38
0.0040761908 -0.031794287 0.85600007 1.853204e-38
0.0057200002 -0.031868573 0.85800004 1.8071062e-38
0.0073714289 -0.031942859 0.86000001 1.8163618e-38
0.0090095233 -0.031942859 0.86000001 1.8993379e-38
0.010647619 -0.031942859 0.86000001 1.6598473e-38
0.012285715 -0.031942859 0.86000001 1.4570169e-38
0.013956192 -0.032017142 0.86200005 1.4573371e-38
0.015598095 -0.032017142 0.86200005 1.5310936e-38
0.017240001 -0.032017142 0.86200005 1.6965794e-38
0.018881904 -0.032017142 0.86200005 1.6965794e-38
0.020571429 -0.032091428 0.86400002 1.5033626e-38
0.022294287 -0.032202858 0.86700004 7.6579756e-39
0.024000952 -0.032277141 0.86900002 1.6043929e-39
0.025656192 -0.032277141 0.86900002 2.802936e-39
0.027374288 -0.032351431 0.87100005 1.2543622e-38
0.029100001 -0.032425717 0.87300003 1.3926557e-38
0.030833337 -0.032500003 0.87500006 1.4377458e-38
0.03261143 -0.03261143 0.87800002 1.3271111e-38
0.034361906 -0.032685716 0.88000005 1.4377814e-38
-0.04739143 -0.030762859 0.87300003 1.0235162e-38
-0.045623813 -0.030692382 0.87100005 1.2540038e-38
-0.043964762 -0.030692382 0.87100005 1.6043472e-38
-0.042208571 -0.030621905 0.86900002 1.4572253e-38
-0.040553335 -0.030621905 0.86900002 8.6717324e-39
-0.038898095 -0.030621905 0.86900002 4.7271725e-39
-0.037157144 -0.03055143 0.86700004 4.0818031e-39
-0.035505716 -0.03055143 0.86700004 7.2974972e-39
-0.033854287 -0.03055143 0.86700004 1.3198017e-38
-0.032017142 -0.030375239 0.86200005 1.6320091e-38
-0.030304762 -0.030304762 0.86000001 1.7149852e-38
-0.028666668 -0.030304762 0.86000001 1.6415116e-38
-0.027028572 -0.030304762 0.86000001 1.6599507e-38
-0.025390476 -0.030304762 0.86000001 1.8255448e-38
-0.023752382 -0.030304762 0.86000001 2.0007165e-38
-0.022062857 -0.030234287 0.85800004 1.9268877e-38
-0.020428572 -0.030234287 0.85800004 1.4751291e-38
-0.018794287 -0.030234287 0.85800004 1.309393e-38
-0.017160002 -0.030234287 0.85800004 1.1987583e-38
-0.015525714 -0.030234287 0.85800004 1.5117913e-38
-0.013891429 -0.030234287 0.85800004 2.064965e-38
-0.012257144 -0.030234287 0.85800004 2.0834765e-38
-0.010622857 -0.030234287 0.85800004 1.8529874e-38
-0.0089885723 -0.030234287 0.85800004 1.7151942e-38
-0.0073542856 -0.030234287 0.85800004 1.678316e-38
-0.005706667 -0.030163812 0.85600007 1.6322198e-38
-0.0040761908 -0.030163812 0.85600007 1.7059763e-38
-0.0024457145 -0.030163812 0.85600007 1.954619e-38
-0.00081523816 -0.030163812 0.85600007 2.102132e-38
0.00081523816 -0.030163812 0.85600007 1.9732739e-38
0.0024457145 -0.030163812 0.85600007 1.6413696e-38
0.0040761908 -0.030163812 0.85600007 1.4576989e-38
0.0057200002 -0.030234287 0.85800004 1.4484793e-38
0.0073714289 -0.030304762 0.86000001 1.5587911e-38
0.0090095233 -0.030304762 0.86000001 1.8999149e-38
0.010647619 -0.030304762 0.86000001 1.9732401e-38
0.012285715 -0.030304762 0.86000001 1.890264e-38
0.013956192 -0.030375239 0.86200005 1.8996228e-38
0.015598095 -0.030375239 0.86200005 2.0102575e-38
0.017240001 -0.030375239 0.86200005 1.8534571e-38
0.018925713 -0.030445714 0.86400002 1.3187225e-38
0.020642858 -0.03055143 0.86700004 8.0400971e-39
0.022345716 -0.030621905 0.86900002 6.1039888e-39
0.024000952 -0.030621905 0.86900002 4.5471126e-39
0.025715239 -0.030692382 0.87100005 3.3485694e-39
0.027437143 -0.030762859 0.87300003 1.0333461e-38
0.029100001 -0.030762859 0.87300003 1.2361765e-38
0.030939048 -0.030939048 0.87800002 1.3825707e-38
0.03261143 -0.030939048 0.87800002 1.3456924e-38
0.034440003 -0.031080002 0.88200003 1.4378883e-38
-0.047500003 -0.029166669 0.87500006 9.5919454e-39
-0.045728575 -0.029100001 0.87300003 1.1897187e-38
-0.043964762 -0.029033335 0.87100005 1.3556708e-38
-0.042305715 -0.029033335 0.87100005 1.1440877e-38
-0.040553335 -0.028966667 0.86900002 6.831096e-39
-0.038898095 -0.028966667 0.86900002 2.9819547e-39
-0.037242856 -0.028966667 0.86900002 3.166346e-39
-0.035505716 -0.028900001 0.86700004 6.0139358e-39
-0.033854287 -0.028900001 0.86700004 9.6095654e-39
-0.032091428 -0.028800001 0.86400002 1.6136734e-38
-0.030375239 -0.028733335 0.86200005 1.8441624e-38
-0.028666668 -0.028666668 0.86000001 1.834693e-38
-0.027028572 -0.028666668 0.86000001 1.9361082e-38
-0.025390476 -0.028666668 0.86000001 2.0098647e-38
-0.023752382 -0.028666668 0.86000001 1.9914256e-38
-0.022062857 -0.0286 0.85800004 1.8991568e-38
-0.020428572 -0.0286 0.85800004 1.3091048e-38
-0.018794287 -0.0286 0.85800004 1.2169457e-38
-0.017160002 -0.0286 0.85800004 1.1892871e-38
-0.015525714 -0.0286 0.85800004 1.5299368e-38
-0.013891429 -0.0286 0.85800004 1.9632563e-38
-0.012257144 -0.0286 0.85800004 2.2030777e-38
-0.010622857 -0.0286 0.85800004 2.1016625e-38
-0.0089885723 -0.0286 0.85800004 1.9269237e-38
-0.0073542856 -0.0286 0.85800004 1.8162889e-38
-0.005706667 -0.028533336 0.85600007 1.7795189e-38
-0.0040761908 -0.028533336 0.85600007 1.945471e-38
-0.0024457145 -0.028533336 0.85600007 2.175709e-38
-0.00081523816 -0.028533336 0.85600007 2.1572698e-38
0.00081523816 -0.028533336 0.85600007 1.8353767e-38
0.0024457145 -0.028533336 0.85600007 1.4942529e-38
0.0040761908 -0.028533336 0.85600007 1.2189989e-38
0.0057200002 -0.0286 0.85800004 1.237438e-38
0.0073714289 -0.028666668 0.86000001 1.4394763e-38
0.0090095233 -0.028666668 0.86000001 1.6791849e-38
0.010672381 -0.028733335 0.86200005 1.9640906e-38
0.012314286 -0.028733335 0.86200005 1.9733102e-38
0.013956192 -0.028733335 0.86200005 2.0191569e-38
0.015598095 -0.028733335 0.86200005 2.0560351e-38
0.017280001 -0.028800001 0.86400002 1.7063754e-38
0.018991429 -0.028900001 0.86700004 8.7661476e-39
0.020642858 -0.028900001 0.86700004 1.8831532e-39
0.022345716 -0.028966667 0.86900002 3.3582832e-39
0.024056191 -0.029033335 0.87100005 6.2937919e-39
0.025715239 -0.029033335 0.87100005 5.1874444e-39
0.027437143 -0.029100001 0.87300003 9.0448855e-39
0.029100001 -0.029100001 0.87300003 1.1349776e-38
0.030939048 -0.029266668 0.87800002 1.2720801e-38
0.032685716 -0.029333334 0.88000005 1.336617e-38
-0.047662858 -0.027594287 0.87800002 9.3139264e-39
-0.045728575 -0.027437143 0.87300003 1.1346527e-38
-0.044065714 -0.027437143 0.87300003 1.2637265e-38
-0.042305715 -0.027374288 0.87100005 1.1165707e-38
-0.040553335 -0.027311428 0.86900002 7.1090996e-39
-0.038898095 -0.027311428 0.86900002 4.6368041e-39
-0.037242856 -0.027311428 0.86900002 5.0055867e-39
-0.035505716 -0.027248573 0.86700004 5.5565828e-39
-0.033854287 -0.027248573 0.86700004 5.1878003e-39
-0.032091428 -0.027154287 0.86400002 9.6927605e-39
-0.030375239 -0.027091429 0.86200005 1.6330846e-38
-0.028733335 -0.027091429 0.86200005 1.926783e-38
-0.027091429 -0.027091429 0.86200005 2.1203938e-38
-0.025449526 -0.027091429 0.86200005 2.0283029e-38
-0.023752382 -0.027028572 0.86000001 1.539666e-38
-0.022114286 -0.027028572 0.86000001 1.2724442e-38
-0.020428572 -0.026965715 0.85800004 1.2632246e-38
-0.018794287 -0.026965715 0.85800004 1.2816637e-38
-0.017160002 -0.026965715 0.85800004 1.2724442e-38
-0.015525714 -0.026965715 0.85800004 1.3552369e-38
-0.013891429 -0.026965715 0.85800004 1.4105543e-38
-0.012257144 -0.026965715 0.85800004 1.8343639e-38
-0.010622857 -0.026965715 0.85800004 2.2400246e-38
-0.0089885723 -0.026965715 0.85800004 2.1848935e-38
-0.0073542856 -0.026965715 0.85800004 2.2033326e-38
-0.0057200002 -0.026965715 0.85800004 2.1758522e-38
-0.004085714 -0.026965715 0.85800004 2.22195e-38
-0.0024457145 -0.02690286 0.85600007 2.04696e-38
-0.00081523816 -0.02690286 0.85600007 1.7611536e-38
0.00081714289 -0.026965715 0.85800004 1.439764e-38
0.0024514287 -0.026965715 0.85800004 1.4028857e-38
0.004085714 -0.026965715 0.85800004 1.3478936e-38
0.0057200002 -0.026965715 0.85800004 1.338674e-38
0.0073714289 -0.027028572 0.86000001 1.3660097e-38
0.0090095233 -0.027028572 0.86000001 1.3199119e-38
0.010672381 -0.027091429 0.86200005 1.6416921e-38
0.012314286 -0.027091429 0.86200005 1.9274985e-38
0.013956192 -0.027091429 0.86200005 2.0376326e-38
0.015598095 -0.027091429 0.86200005 1.7610457e-38
0.017280001 -0.027154287 0.86400002 1.3196901e-38
0.018991429 -0.027248573 0.86700004 7.0197934e-39
0.020642858 -0.027248573 0.86700004 3.4461769e-39
0.022345716 -0.027311428 0.86900002 4.3681332e-39
0.024056191 -0.027374288 0.87100005 5.09922e-39
0.025715239 -0.027374288 0.87100005 3.9006768e-39
0.027437143 -0.027437143 0.87300003 9.688132e-39
0.029166669 -0.027500002 0.87500006 1.3007175e-38
0.031009525 -0.027657144 0.88000005 1.4286332e-38
0.032685716 -0.027657144 0.88000005 1.4194136e-38
-0.047662858 -0.025921905 0.87800002 9.9592762e-39
-0.045833338 -0.025833335 0.87500006 9.6895389e-39
-0.044065714 -0.025774287 0.87300003 1.1810038e-38
-0.04240286 -0.025774287 0.87300003 9.2343285e-39
-0.040646669 -0.025715239 0.87100005 6.1918727e-39
-0.038987622 -0.025715239 0.87100005 4.6375132e-39
-0.037242856 -0.025656192 0.86900002 5.2828826e-39
-0.03558762 -0.025656192 0.86900002 4.179056e-39
-0.033854287 -0.025597144 0.86700004 2.9805128e-39
-0.032202858 -0.025597144 0.86700004 5.6469357e-39
-0.030445714 -0.025508571 0.86400002 1.3206977e-38
-0.028733335 -0.025449526 0.86200005 1.8809353e-38
-0.027091429 -0.025449526 0.86200005 1.9454723e-38
-0.025449526 -0.025449526 0.86200005 1.8531675e-38
-0.023807621 -0.025449526 0.86200005 1.1617002e-38
-0.022114286 -0.025390476 0.86000001 1.152551e-38
-0.02047619 -0.025390476 0.86000001 1.3092836e-38
-0.018838096 -0.025390476 0.86000001 1.3553839e-38
-0.017199999 -0.025390476 0.86000001 1.3461644e-38
-0.015561905 -0.025390476 0.86000001 1.2357442e-38
-0.013923809 -0.025390476 0.86000001 1.1896463e-38
-0.012285715 -0.025390476 0.86000001 1.3735669e-38
-0.010647619 -0.025390476 0.86000001 1.8437646e-38
-0.0090095233 -0.025390476 0.86000001 2.1939676e-38
-0.0073714289 -0.025390476 0.86000001 2.332261e-38
-0.0057200002 -0.02533143 0.85800004 2.2587576e-38
-0.004085714 -0.02533143 0.85800004 2.1757816e-38
-0.0024514287 -0.02533143 0.85800004 1.7343228e-38
-0.00081714289 -0.02533143 0.85800004 1.4208576e-38
0.00081714289 -0.02533143 0.85800004 1.2742807e-38
0.0024514287 -0.02533143 0.85800004 1.3388176e-38
0.0040952382 -0.025390476 0.86000001 1.3571131e-38
0.0057333331 -0.025390476 0.86000001 1.3294545e-38
0.0073714289 -0.025390476 0.86000001 1.3109797e-38
0.0090304762 -0.025449526 0.86200005 1.1911254e-38
0.010672381 -0.025449526 0.86200005 1.2462235e-38
0.012314286 -0.025449526 0.86200005 1.7072016e-38
0.013956192 -0.025449526 0.86200005 2.0194468e-38
0.015634285 -0.025508571 0.86400002 1.6414447e-38
0.017280001 -0.025508571 0.86400002 9.6081262e-39
0.018991429 -0.025597144 0.86700004 6.1046923e-39
0.020690477 -0.025656192 0.86900002 4.2737753e-39
0.022397144 -0.025715239 0.87100005 4.4581666e-39
0.024056191 -0.025715239 0.87100005 3.9039082e-39
0.025774287 -0.025774287 0.87300003 4.3648864e-39
0.027437143 -0.025774287 0.87300003 1.1807171e-38
0.029166669 -0.025833335 0.87500006 1.374328e-38
0.031009525 -0.025980955 0.88000005 1.4470375e-38
0.032685716 -0.025980955 0.88000005 1.437818e-38
-0.047662858 -0.024249524 0.87800002 1.0879435e-38
-0.045833338 -0.024166668 0.87500006 1.1712097e-38
-0.044166669 -0.024166668 0.87500006 1.4938944e-38
-0.04240286 -0.024111429 0.87300003 1.2732698e-38
-0.040646669 -0.024056191 0.87100005 6.5555909e-39
-0.038987622 -0.024056191 0.87100005 2.6156735e-39
-0.037242856 -0.024000952 0.86900002 3.998608e-39
-0.03558762 -0.024000952 0.86900002 5.0984885e-39
-0.03393238 -0.024000952 0.86900002 4.8219016e-39
-0.032202858 -0.023945715 0.86700004 5.004851e-39
-0.03055143 -0.023945715 0.86700004 9.0614587e-39
-0.028800001 -0.023862857 0.86400002 1.6967551e-38
-0.027154287 -0.023862857 0.86400002 1.7797312e-38
-0.025508571 -0.023862857 0.86400002 1.7609304e-38
-0.023807621 -0.023807621 0.86200005 1.1893175e-38
-0.022114286 -0.023752382 0.86000001 1.16206e-38
-0.02047619 -0.023752382 0.86000001 1.2726947e-38
-0.018838096 -0.023752382 0.86000001 1.3369092e-38
-0.017199999 -0.023752382 0.86000001 1.3645679e-38
-0.015561905 -0.023752382 0.86000001 1.3369811e-38
-0.013923809 -0.023752382 0.86000001 1.318542e-38
-0.012285715 -0.023752382 0.86000001 1.2722997e-38
-0.010647619 -0.023752382 0.86000001 1.3276171e-38
-0.0090095233 -0.023752382 0.86000001 1.7423159e-38
-0.0073714289 -0.023752382 0.86000001 2.3415875e-38
-0.0057333331 -0.023752382 0.86000001 2.2312424e-38
-0.004085714 -0.023697145 0.85800004 1.8163621e-38
-0.0024514287 -0.023697145 0.85800004 1.3660097e-38
-0.00081714289 -0.023697145 0.85800004 1.3752293e-38
0.00081904762 -0.023752382 0.86000001 1.3387107e-38
0.0024571428 -0.023752382 0.86000001 1.3479303e-38
0.0040952382 -0.023752382 0.86000001 1.3662605e-38
0.0057333331 -0.023752382 0.86000001 1.3293823e-38
0.0073885717 -0.023807621 0.86200005 1.31098e-38
0.0090304762 -0.023807621 0.86200005 1.2372235e-38
0.010672381 -0.023807621 0.86200005 1.2922156e-38
0.012342857 -0.023862857 0.86400002 1.6333395e-38
0.013988572 -0.023862857 0.86400002 1.8629651e-38
0.015634285 -0.023862857 0.86400002 1.5310608e-38
0.017280001 -0.023862857 0.86400002 8.7805558e-39
0.018991429 -0.023945715 0.86700004 5.0927306e-39
0.020690477 -0.024000952 0.86900002 2.9873665e-39
0.022397144 -0.024056191 0.87100005 2.7107796e-39
0.024056191 -0.024056191 0.87100005 6.3841729e-39
0.025774287 -0.024111429 0.87300003 1.0717367e-38
0.027437143 -0.024111429 0.87300003 1.5215516e-38
0.029166669 -0.024166668 0.87500006 1.5307712e-38
0.031009525 -0.024304764 0.88000005 1.5393048e-38
0.032685716 -0.024304764 0.88000005 1.4563287e-38
0.034361906 -0.024304764 0.88000005 1.4836997e-38
-0.045990478 -0.022577144 0.87800002 1.318253e-38
-0.044166669 -0.022500001 0.87500006 1.5856204e-38
-0.042500004 -0.022500001 0.87500006 1.2916749e-38
-0.040739998 -0.022448571 0.87300003 7.8459892e-39
-0.038987622 -0.022397144 0.87100005 2.3398125e-39
-0.037242856 -0.022345716 0.86900002 3.8149426e-39
-0.03558762 -0.022345716 0.86900002 5.3736363e-39
-0.03393238 -0.022345716 0.86900002 5.0970494e-39
-0.032202858 -0.022294287 0.86700004 2.708595e-39
-0.03055143 -0.022294287 0.86700004 7.5949634e-39
-0.028900001 -0.022294287 0.86700004 1.4390081e-38
-0.027248573 -0.022294287 0.86700004 1.6602776e-38
-0.025508571 -0.022217143 0.86400002 1.5583212e-38
-0.023807621 -0.022165716 0.86200005 1.16188e-38
-0.022165716 -0.022165716 0.86200005 1.207906e-38
-0.02047619 -0.022114286 0.86000001 1.3277603e-38
-0.018838096 -0.022114286 0.86000001 1.3276897e-38
-0.017199999 -0.022114286 0.86000001 1.3645679e-38
-0.015561905 -0.022114286 0.86000001 1.3921543e-38
-0.013923809 -0.022114286 0.86000001 1.3921543e-38
-0.012285715 -0.022114286 0.86000001 1.2449281e-38
-0.010647619 -0.022114286 0.86000001 1.1803912e-38
-0.0090095233 -0.022114286 0.86000001 1.4293544e-38
-0.0073714289 -0.022114286 0.86000001 2.240676e-38
-0.0057333331 -0.022114286 0.86000001 2.1761065e-38
-0.0040952382 -0.022114286 0.86000001 1.6782501e-38
-0.0024571428 -0.022114286 0.86000001 1.2189633e-38
-0.00081904762 -0.022114286 0.86000001 1.311159e-38
0.00081904762 -0.022114286 0.86000001 1.3662255e-38
0.0024571428 -0.022114286 0.86000001 1.3754451e-38
0.0040952382 -0.022114286 0.86000001 1.3754801e-38
0.0057333331 -0.022114286 0.86000001 1.3386018e-38
0.0073885717 -0.022165716 0.86200005 1.3293463e-38
0.0090304762 -0.022165716 0.86200005 1.2555898e-38
0.010672381 -0.022165716 0.86200005 1.292251e-38
0.012342857 -0.022217143 0.86400002 1.6794726e-38
0.013988572 -0.022217143 0.86400002 1.8171199e-38
0.015634285 -0.022217143 0.86400002 1.6327287e-38
0.017340001 -0.022294287 0.86700004 9.0596874e-39
0.019035237 -0.022345716 0.86900002 4.0811234e-39
0.020690477 -0.022345716 0.86900002 1.8824511e-39
0.022397144 -0.022397144 0.87100005 1.6058642e-39
0.024056191 -0.022397144 0.87100005 7.2088987e-39
0.025774287 -0.022448571 0.87300003 1.3017223e-38
0.027500002 -0.022500001 0.87500006 1.5493185e-38
0.029166669 -0.022500001 0.87500006 1.3925859e-38
0.031009525 -0.022628574 0.88000005 1.4749118e-38
0.032685716 -0.022628574 0.88000005 1.4380335e-38
0.034361906 -0.022628574 0.88000005 1.5020663e-38
0.036038097 -0.022628574 0.88000005 1.5020663e-38
-0.045990478 -0.020904763 0.87800002 1.3274736e-38
-0.044318095 -0.020904763 0.87800002 1.4381083e-38
-0.042500004 -0.020833336 0.87500006 1.4017326e-38
-0.040739998 -0.020785715 0.87300003 1.3648543e-38
-0.038987622 -0.020738097 0.87100005 7.8557254e-39
-0.037328575 -0.020738097 0.87100005 4.9054653e-39
-0.03558762 -0.020690477 0.86900002 1.6969907e-39
-0.03393238 -0.020690477 0.86900002 1.6969907e-39
-0.032277141 -0.020690477 0.86900002 4.637488e-39
-0.03055143 -0.020642858 0.86700004 1.1275573e-38
-0.028900001 -0.020642858 0.86700004 1.8627095e-38
-0.027248573 -0.020642858 0.86700004 1.9549051e-38
-0.025508571 -0.020571429 0.86400002 1.7979933e-38
-0.023807621 -0.020523811 0.86200005 1.0973065e-38
-0.022165716 -0.020523811 0.86200005 1.042387e-38
-0.020523811 -0.020523811 0.86200005 1.2175587e-38
-0.018881904 -0.020523811 0.86200005 1.3552404e-38
-0.017240001 -0.020523811 0.86200005 1.3921187e-38
-0.015561905 -0.02047619 0.86000001 1.3553839e-38
-0.013923809 -0.02047619 0.86000001 1.3277253e-38
-0.012285715 -0.02047619 0.86000001 1.2172341e-38
-0.010647619 -0.02047619 0.86000001 1.2080146e-38
-0.0090095233 -0.02047619 0.86000001 1.5398115e-38
-0.0073714289 -0.02047619 0.86000001 2.2220592e-38
-0.0057333331 -0.02047619 0.86000001 2.1760692e-38
-0.0040952382 -0.02047619 0.86000001 1.7243107e-38
-0.0024571428 -0.02047619 0.86000001 1.2372605e-38
-0.00081904762 -0.02047619 0.86000001 1.2833583e-38
0.00081904762 -0.02047619 0.86000001 1.347823e-38
0.0024571428 -0.02047619 0.86000001 1.3570425e-38
0.0040952382 -0.02047619 0.86000001 1.3662605e-38
0.0057466668 -0.020523811 0.86200005 1.3662605e-38
0.0073885717 -0.020523811 0.86200005 1.3569334e-38
0.0090304762 -0.020523811 0.86200005 1.3753725e-38
0.010697143 -0.020571429 0.86400002 1.6050318e-38
0.012342857 -0.020571429 0.86400002 1.9277166e-38
0.014037143 -0.020642858 0.86700004 2.04696e-38
0.015688572 -0.020642858 0.86700004 2.0561796e-38
0.017340001 -0.020642858 0.86700004 1.5683749e-38
0.019035237 -0.020690477 0.86900002 9.2300545e-39
0.020690477 -0.020690477 0.86900002 1.5129749e-39
0.022397144 -0.020738097 0.87100005 1.8817575e-39
0.024111429 -0.020785715 0.87300003 9.5084365e-39
0.025774287 -0.020785715 0.87300003 1.5040174e-38
0.027500002 -0.020833336 0.87500006 1.5399904e-38
0.029166669 -0.020833336 0.87500006 1.2357449e-38
0.031009525 -0.020952383 0.88000005 1.3460534e-38
0.032685716 -0.020952383 0.88000005 1.4566881e-38
0.034440003 -0.021000002 0.88200003 1.5115729e-38
-0.046095241 -0.019276192 0.88000005 1.2814464e-38
-0.04441905 -0.019276192 0.88000005 1.3091051e-38
-0.042645715 -0.019232381 0.87800002 1.4014429e-38
-0.040833335 -0.019166669 0.87500006 1.5673951e-38
-0.039077144 -0.019122858 0.87300003 1.2271063e-38
-0.037328575 -0.019079048 0.87100005 5.9095643e-39
-0.03558762 -0.019035237 0.86900002 1.327415e-39
-0.03393238 -0.019035237 0.86900002 2.1571757e-39
-0.032277141 -0.019035237 0.86900002 7.3043243e-39
-0.03055143 -0.018991429 0.86700004 1.4679975e-38
-0.028900001 -0.018991429 0.86700004 1.9270331e-38
-0.027248573 -0.018991429 0.86700004 1.9823505e-38
-0.025508571 -0.018925713 0.86400002 1.8257278e-38
-0.023862857 -0.018925713 0.86400002 1.3278714e-38
-0.022165716 -0.018881904 0.86200005 1.0331694e-38
-0.020523811 -0.018881904 0.86200005 1.1530237e-38
-0.018881904 -0.018881904 0.86200005 1.3460565e-38
-0.017240001 -0.018881904 0.86200005 1.3737152e-38
-0.015598095 -0.018881904 0.86200005 1.3461641e-38
-0.013956192 -0.018881904 0.86200005 1.2908467e-38
-0.012314286 -0.018881904 0.86200005 1.1896833e-38
-0.010672381 -0.018881904 0.86200005 1.3464159e-38
-0.0090304762 -0.018881904 0.86200005 1.760722e-38
-0.0073885717 -0.018881904 0.86200005 2.2493588e-38
-0.0057333331 -0.018838096 0.86000001 2.1668494e-38
-0.0040952382 -0.018838096 0.86000001 1.9271408e-38
-0.0024571428 -0.018838096 0.86000001 1.4214014e-38
-0.00081904762 -0.018838096 0.86000001 1.301547e-38
0.00081904762 -0.018838096 0.86000001 1.3293826e-38
0.0024571428 -0.018838096 0.86000001 1.3570413e-38
0.0041047623 -0.018881904 0.86200005 1.3570413e-38
0.0057466668 -0.018881904 0.86200005 1.3293826e-38
0.0073885717 -0.018881904 0.86200005 1.3201267e-38
0.0090304762 -0.018881904 0.86200005 1.4307615e-38
0.010697143 -0.018925713 0.86400002 1.8257278e-38
0.012342857 -0.018925713 0.86400002 1.9824604e-38
0.014037143 -0.018991429 0.86700004 2.0652159e-38
0.015688572 -0.018991429 0.86700004 2.1481919e-38
0.017340001 -0.018991429 0.86700004 1.9365061e-38
0.019035237 -0.019035237 0.86900002 1.4478692e-38
0.020738097 -0.019079048 0.87100005 7.8578862e-39
0.022397144 -0.019079048 0.87100005 7.9500819e-39
0.024111429 -0.019122858 0.87300003 1.3374866e-38
0.025833335 -0.019166669 0.87500006 1.4942191e-38
0.027594287 -0.019232381 0.87800002 1.5030039e-38
0.029266668 -0.019232381 0.87800002 1.1895387e-38
0.031080002 -0.019320002 0.88200003 1.2447814e-38
0.032760002 -0.019320002 0.88200003 1.4199531e-38
0.034440003 -0.019320002 0.88200003 1.5116443e-38
-0.0462 -0.01764 0.88200003 9.1266611e-39
-0.04441905 -0.017600002 0.88000005 7.9281179e-39
-0.042645715 -0.01756 0.87800002 9.5854911e-39
-0.040833335 -0.017500002 0.87500006 1.7975293e-38
-0.039077144 -0.01746 0.87300003 1.5769804e-38
-0.037328575 -0.017419999 0.87100005 9.5005009e-39
-0.035669528 -0.017419999 0.87100005 6.9366054e-39
-0.03393238 -0.017380001 0.86900002 1.1822974e-38
-0.032277141 -0.017380001 0.86900002 1.7152688e-38
-0.030621905 -0.017380001 0.86900002 1.9180992e-38
-0.028900001 -0.017340001 0.86700004 1.9269966e-38
-0.027248573 -0.017340001 0.86700004 1.9085574e-38
-0.025597144 -0.017340001 0.86700004 1.899412e-38
-0.023862857 -0.017280001 0.86400002 1.8440946e-38
-0.022217143 -0.017280001 0.86400002 1.4755657e-38
-0.020523811 -0.017240001 0.86200005 1.0791245e-38
-0.018881904 -0.017240001 0.86200005 1.1067438e-38
-0.017240001 -0.017240001 0.86200005 1.1897199e-38
-0.015598095 -0.017240001 0.86200005 1.2354214e-38
-0.013956192 -0.017240001 0.86200005 1.2999584e-38
-0.012314286 -0.017240001 0.86200005 1.3827947e-38
-0.010672381 -0.017240001 0.86200005 2.0189446e-38
-0.0090304762 -0.017240001 0.86200005 2.1482301e-38
-0.0073885717 -0.017240001 0.86200005 2.1482301e-38
-0.0057466668 -0.017240001 0.86200005 2.1298988e-38
-0.0041047623 -0.017240001 0.86200005 2.2220945e-38
-0.0024628574 -0.017240001 0.86200005 2.0286298e-38
-0.00082095241 -0.017240001 0.86200005 1.7336038e-38
0.00082095241 -0.017240001 0.86200005 1.4029949e-38
0.0024628574 -0.017240001 0.86200005 1.3661166e-38
0.0041047623 -0.017240001 0.86200005 1.3018328e-38
0.0057466668 -0.017240001 0.86200005 1.3018328e-38
0.0073885717 -0.017240001 0.86200005 1.6325842e-38
0.0090514291 -0.017280001 0.86400002 1.9829276e-38
0.010697143 -0.017280001 0.86400002 2.1020969e-38
0.012385715 -0.017340001 0.86700004 1.6595579e-38
0.014037143 -0.017340001 0.86700004 1.7886216e-38
0.015724761 -0.017380001 0.86900002 2.0467693e-38
0.017380001 -0.017380001 0.86900002 2.046743e-38
0.019035237 -0.017380001 0.86900002 2.0190843e-38
0.020738097 -0.017419999 0.87100005 1.7891703e-38
0.022397144 -0.017419999 0.87100005 1.5955595e-38
0.024166668 -0.017500002 0.87500006 1.5864485e-38
0.025833335 -0.017500002 0.87500006 1.365179e-38
0.027594287 -0.01756 0.87800002 1.2361404e-38
0.029266668 -0.01756 0.87800002 1.0886274e-38
0.031080002 -0.01764 0.88200003 1.2631855e-38
0.032760002 -0.01764 0.88200003 1.4106985e-38
0.034440003 -0.01764 0.88200003 1.5024239e-38
0.036120001 -0.01764 0.88200003 1.5024239e-38
-0.04804286 -0.016014285 0.88500005 1.2535706e-38
-0.0462 -0.01596 0.88200003 9.0358752e-39
-0.044520002 -0.01596 0.88200003 7.4685495e-39
-0.042742856 -0.015923811 0.88000005 9.4935799e-39
-0.040833335 -0.015833335 0.87500006 1.7330208e-38
-0.03916667 -0.015833335 0.87500006 1.6875763e-38
-0.037414286 -0.015797142 0.87300003 1.1897199e-38
-0.035669528 -0.015760954 0.87100005 1.1346176e-38
-0.034010477 -0.015760954 0.87100005 1.6785719e-38
-0.032351431 -0.015760954 0.87100005 1.8993019e-38
-0.030621905 -0.015724761 0.86900002 1.8993019e-38
-0.028966667 -0.015724761 0.86900002 1.7520407e-38
-0.027311428 -0.015724761 0.86900002 1.724382e-38
-0.025656192 -0.015724761 0.86900002 1.8902625e-38
-0.023862857 -0.015634285 0.86400002 1.9732386e-38
-0.022217143 -0.015634285 0.86400002 1.8532789e-38
-0.020571429 -0.015634285 0.86400002 1.4107399e-38
-0.018881904 -0.015598095 0.86200005 1.0791949e-38
-0.017240001 -0.015598095 0.86200005 1.0699753e-38
-0.015598095 -0.015598095 0.86200005 1.1893943e-38
-0.013956192 -0.015598095 0.86200005 1.447542e-38
-0.012314286 -0.015598095 0.86200005 1.8157532e-38
-0.010672381 -0.015598095 0.86200005 2.2490727e-38
-0.0090304762 -0.015598095 0.86200005 2.2220229e-38
-0.0073885717 -0.015598095 0.86200005 1.9546555e-38
-0.0057466668 -0.015598095 0.86200005 1.9272442e-38
-0.0041047623 -0.015598095 0.86200005 2.1853919e-38
-0.0024628574 -0.015598095 0.86200005 2.2404267e-38
-0.00082095241 -0.015598095 0.86200005 2.0191572e-38
0.00082095241 -0.015598095 0.86200005 1.4675708e-38
0.0024628574 -0.015598095 0.86200005 1.2831795e-38
0.0041047623 -0.015598095 0.86200005 1.2649876e-38
0.0057466668 -0.015598095 0.86200005 1.3848419e-38
0.0074057141 -0.015634285 0.86400002 1.8716454e-38
0.0090514291 -0.015634285 0.86400002 2.1574519e-38
0.010734286 -0.015688572 0.86700004 2.1296477e-38
0.012385715 -0.015688572 0.86700004 1.3275457e-38
0.014069525 -0.015724761 0.86900002 1.3547651e-38
0.015724761 -0.015724761 0.86900002 1.7051085e-38
0.017380001 -0.015724761 0.86900002 2.0645672e-38
0.019079048 -0.015760954 0.87100005 2.175202e-38
0.020738097 -0.015760954 0.87100005 2.019013e-38
0.022448571 -0.015797142 0.87300003 1.8530608e-38
0.024166668 -0.015833335 0.87500006 1.5681549e-38
0.025921905 -0.01588762 0.87800002 1.1624941e-38
0.027594287 -0.01588762 0.87800002 1.0706565e-38
0.029333334 -0.015923811 0.88000005 1.0522174e-38
0.031080002 -0.01596 0.88200003 1.2815886e-38
0.032760002 -0.01596 0.88200003 1.4291016e-38
0.034440003 -0.01596 0.88200003 1.5024247e-38
0.036120001 -0.01596 0.88200003 1.5024247e-38
-0.04804286 -0.014328572 0.88500005 1.2536062e-38
-0.0462 -0.014280001 0.88200003 9.3128404e-39
-0.044520002 -0.014280001 0.88200003 7.929906e-39
-0.04284 -0.014280001 0.88200003 8.757866e-39
-0.040973332 -0.014215238 0.87800002 1.2445691e-38
-0.03916667 -0.014166667 0.87500006 1.4659809e-38
-0.037414286 -0.014134286 0.87300003 1.7517873e-38
-0.035751428 -0.014134286 0.87300003 1.797959e-38
-0.034010477 -0.014101906 0.87100005 1.9085937e-38
-0.032351431 -0.014101906 0.87100005 1.7243832e-38
-0.030692382 -0.014101906 0.87100005 1.5584311e-38
-0.028966667 -0.014069525 0.86900002 1.3380235e-38
-0.027311428 -0.014069525 0.86900002 1.264267e-38
-0.025656192 -0.014069525 0.86900002 1.5219482e-38
-0.023945715 -0.014037143 0.86700004 1.9368285e-38
-0.022217143 -0.013988572 0.86400002 2.0836225e-38
-0.020571429 -0.013988572 0.86400002 1.9268899e-38
-0.018881904 -0.013956192 0.86200005 1.4938981e-38
-0.017240001 -0.013956192 0.86200005 1.1804329e-38
-0.015598095 -0.013956192 0.86200005 1.3829032e-38
-0.013956192 -0.013956192 0.86200005 2.1665642e-38
-0.012314286 -0.013956192 0.86200005 2.2310989e-38
-0.010672381 -0.013956192 0.86200005 2.1850011e-38
-0.0090304762 -0.013956192 0.86200005 1.743112e-38
-0.0073885717 -0.013956192 0.86200005 1.0147665e-38
-0.0057466668 -0.013956192 0.86200005 1.0339943e-38
-0.0041047623 -0.013956192 0.86200005 1.6978028e-38
-0.0024628574 -0.013956192 0.86200005 2.1206074e-38
-0.00082095241 -0.013956192 0.86200005 2.2957791e-38
0.00082095241 -0.013956192 0.86200005 2.176069e-38
0.0024628574 -0.013956192 0.86200005 1.8349451e-38
0.0041047623 -0.013956192 0.86200005 1.7983177e-38
0.0057600001 -0.013988572 0.86400002 2.0103677e-38
0.0074057141 -0.013988572 0.86400002 2.157378e-38
0.0090828575 -0.014037143 0.86700004 1.9268889e-38
0.010734286 -0.014037143 0.86700004 1.6779589e-38
0.012385715 -0.014037143 0.86700004 1.2077612e-38
0.014069525 -0.014069525 0.86900002 1.1801394e-38
0.015724761 -0.014069525 0.86900002 1.1709198e-38
0.017380001 -0.014069525 0.86900002 1.4565416e-38
0.019079048 -0.014101906 0.87100005 1.954398e-38
0.020785715 -0.014134286 0.87300003 1.9360729e-38
0.022448571 -0.014134286 0.87300003 1.8346577e-38
0.024166668 -0.014166667 0.87500006 1.5589318e-38
0.025921905 -0.014215238 0.87800002 1.1256123e-38
0.027594287 -0.014215238 0.87800002 1.0706222e-38
0.029333334 -0.01424762 0.88000005 1.11672e-38
0.031080002 -0.014280001 0.88200003 1.3460552e-38
0.032760002 -0.014280001 0.88200003 1.4474704e-38
0.034440003 -0.014280001 0.88200003 1.5299395e-38
-0.04804286 -0.012642858 0.88500005 1.2628265e-38
-0.046357144 -0.012642858 0.88500005 1.0234418e-38
-0.044671431 -0.012642858 0.88500005 8.6670927e-39
-0.04284 -0.0126 0.88200003 8.6670927e-39
-0.040973332 -0.012542857 0.87800002 9.7734402e-39
-0.039300956 -0.012542857 0.87800002 1.3457637e-38
-0.037500001 -0.012500001 0.87500006 1.9173767e-38
-0.035751428 -0.012471429 0.87300003 1.9543688e-38
-0.034010477 -0.012442858 0.87100005 1.8806123e-38
-0.032351431 -0.012442858 0.87100005 1.5496785e-38
-0.030692382 -0.012442858 0.87100005 1.3099698e-38
-0.029033335 -0.012442858 0.87100005 1.0897092e-38
-0.027374288 -0.012442858 0.87100005 1.1358071e-38
-0.025656192 -0.012414285 0.86900002 1.3288043e-38
-0.024000952 -0.012414285 0.86900002 1.6607085e-38
-0.022294287 -0.012385715 0.86700004 2.0651821e-38
-0.020571429 -0.012342857 0.86400002 2.0375234e-38
-0.018925713 -0.012342857 0.86400002 1.8716442e-38
-0.017280001 -0.012342857 0.86400002 1.6503746e-38
-0.015598095 -0.012314286 0.86200005 1.7426068e-38
-0.013956192 -0.012314286 0.86200005 2.2496825e-38
-0.012314286 -0.012314286 0.86200005 2.2681207e-38
-0.010672381 -0.012314286 0.86200005 1.945436e-38
-0.0090304762 -0.012314286 0.86200005 1.2190712e-38
-0.0073885717 -0.012314286 0.86200005 5.9214095e-39
-0.0057466668 -0.012314286 0.86200005 4.5524572e-39
-0.004114286 -0.012342857 0.86400002 9.6232168e-39
-0.0024685713 -0.012342857 0.86400002 1.8993e-38
-0.00082285714 -0.012342857 0.86400002 2.2312043e-38
0.00082285714 -0.012342857 0.86400002 2.3141106e-38
0.0024685713 -0.012342857 0.86400002 2.1758171e-38
