# .PCD v0.7 - Point Cloud Data file format
VERSION 0.7
FIELDS x y z rgb
SIZE 4 4 4 4
TYPE F F F F
COUNT 1 1 1 1
WIDTH 1033
HEIGHT 1
VIEWPOINT 0 0 0 1 0 0 0
POINTS 1033
DATA ascii
-0.022365715 -0.18245716 1.2360001 1.6031889e-38
-0.098098099 -0.18083143 1.2410001 1.1708454e-38
-0.095734291 -0.18083143 1.2410001 1.2353823e-38
-0.093671434 -0.18141429 1.245 1.3365094e-38
-0.091666669 -0.18214285 1.25 1.3826072e-38
-0.08964286 -0.18287145 1.2550001 1.4101593e-38
-0.087252386 -0.18287145 1.2550001 1.4746962e-38
-0.084861912 -0.18287145 1.2550001 1.4746972e-38
-0.082471438 -0.18287145 1.2550001 1.520795e-38
-0.080336191 -0.18345429 1.2590001 1.4839887e-38
-0.077690482 -0.18287145 1.2550001 1.5208669e-38
-0.075300008 -0.18287145 1.2550001 1.5301212e-38
-0.072909534 -0.18287145 1.2550001 1.5393408e-38
-0.070743814 -0.18345429 1.2590001 1.5393055e-38
-0.068345711 -0.18345429 1.2590001 1.5300859e-38
-0.065947622 -0.18345429 1.2590001 1.5300862e-38
-0.063347623 -0.18287145 1.2550001 1.5577449e-38
-0.060957149 -0.18287145 1.2550001 1.5393771e-38
-0.058566671 -0.18287145 1.2550001 1.520938e-38
-0.056355242 -0.18345429 1.2590001 1.5209027e-38
-0.053957146 -0.18345429 1.2590001 1.5116831e-38
-0.051395241 -0.18287145 1.2550001 1.5117184e-38
-0.049004767 -0.18287145 1.2550001 1.5024988e-38
-0.046614289 -0.18287145 1.2550001 1.4840953e-38
-0.044223815 -0.18287145 1.2550001 1.4748757e-38
-0.041833337 -0.18287145 1.2550001 1.4656206e-38
-0.039285716 -0.18214285 1.25 1.456401e-38
-0.03690476 -0.18214285 1.25 1.4379259e-38
-0.034385715 -0.18141429 1.245 1.4287063e-38
-0.032014288 -0.18141429 1.245 1.4102309e-38
-0.029642858 -0.18141429 1.245 1.3272548e-38
-0.02718381 -0.18083143 1.2410001 1.2533902e-38
-0.02472 -0.18010285 1.2360001 1.0689989e-38
-0.022365715 -0.18010285 1.2360001 1.1883838e-38
-0.098414287 -0.17904285 1.245 1.3087428e-38
-0.096042857 -0.17904285 1.245 1.3548407e-38
-0.093671434 -0.17904285 1.245 1.4009029e-38
-0.091666669 -0.1797619 1.25 1.4285616e-38
-0.08964286 -0.18048097 1.2550001 1.4285263e-38
-0.087252386 -0.18048097 1.2550001 1.4838436e-38
-0.084861912 -0.18048097 1.2550001 1.465513e-38
-0.082471438 -0.18048097 1.2550001 1.5023912e-38
-0.080336191 -0.1810562 1.2590001 1.4840237e-38
-0.077690482 -0.18048097 1.2550001 1.5024628e-38
-0.075300008 -0.18048097 1.2550001 1.5023909e-38
-0.072909534 -0.18048097 1.2550001 1.5484888e-38
-0.070743814 -0.1810562 1.2590001 1.5393055e-38
-0.068345711 -0.1810562 1.2590001 1.548525e-38
-0.065947622 -0.1810562 1.2590001 1.5577802e-38
-0.063549526 -0.1810562 1.2590001 1.5669998e-38
-0.061151426 -0.1810562 1.2590001 1.5393771e-38
-0.058753334 -0.1810562 1.2590001 1.520938e-38
-0.056355242 -0.1810562 1.2590001 1.520938e-38
-0.053957146 -0.1810562 1.2590001 1.5117184e-38
-0.051395241 -0.18048097 1.2550001 1.5116824e-38
-0.049004767 -0.18048097 1.2550001 1.5116824e-38
-0.046614289 -0.18048097 1.2550001 1.4748401e-38
-0.044223815 -0.18048097 1.2550001 1.4748401e-38
-0.041833337 -0.18048097 1.2550001 1.4747325e-38
-0.039285716 -0.1797619 1.25 1.465513e-38
-0.03690476 -0.1797619 1.25 1.4286707e-38
-0.034523807 -0.1797619 1.25 1.4286707e-38
-0.032014288 -0.17904285 1.245 1.4102306e-38
-0.029642858 -0.17904285 1.245 1.3364741e-38
-0.02718381 -0.17846762 1.2410001 1.2810842e-38
-0.024640001 -0.17717335 1.2320001 1.1520103e-38
-0.022293337 -0.17717335 1.2320001 1.1795183e-38
-0.098414287 -0.17667143 1.245 1.3455502e-38
-0.096042857 -0.17667143 1.245 1.391648e-38
-0.094047621 -0.17738095 1.25 1.3917202e-38
-0.091666669 -0.17738095 1.25 1.4470375e-38
-0.08964286 -0.17809048 1.2550001 1.437818e-38
-0.087252386 -0.17809048 1.2550001 1.4839158e-38
-0.08513239 -0.1786581 1.2590001 1.4747322e-38
-0.082734287 -0.1786581 1.2590001 1.5208301e-38
-0.080336191 -0.1786581 1.2590001 1.4932433e-38
-0.077938102 -0.1786581 1.2590001 1.5116824e-38
-0.075539999 -0.1786581 1.2590001 1.5116468e-38
-0.07314191 -0.1786581 1.2590001 1.5393055e-38
-0.070743814 -0.1786581 1.2590001 1.5485604e-38
-0.068345711 -0.1786581 1.2590001 1.5393408e-38
-0.065947622 -0.1786581 1.2590001 1.5485601e-38
-0.063549526 -0.1786581 1.2590001 1.5669992e-38
-0.061151426 -0.1786581 1.2590001 1.5485601e-38
-0.058753334 -0.1786581 1.2590001 1.530121e-38
-0.056355242 -0.1786581 1.2590001 1.520902e-38
-0.053957146 -0.1786581 1.2590001 1.5116824e-38
-0.05155905 -0.1786581 1.2590001 1.4932077e-38
-0.049160954 -0.1786581 1.2590001 1.4839881e-38
-0.046614289 -0.17809048 1.2550001 1.4746972e-38
-0.044223815 -0.17809048 1.2550001 1.4746972e-38
-0.041833337 -0.17809048 1.2550001 1.4561862e-38
-0.039285716 -0.17738095 1.25 1.4561862e-38
-0.03690476 -0.17738095 1.25 1.400941e-38
-0.034523807 -0.17738095 1.25 1.3917214e-38
-0.032014288 -0.17667143 1.245 1.3917196e-38
-0.029642858 -0.17667143 1.245 1.3364022e-38
-0.02718381 -0.17610382 1.2410001 1.3363659e-38
-0.024640001 -0.17482668 1.2320001 1.2994877e-38
-0.022293337 -0.17482668 1.2320001 1.2994853e-38
-0.10046192 -0.17374 1.2410001 1.3639143e-38
-0.098098099 -0.17374 1.2410001 1.3362933e-38
-0.096042857 -0.1743 1.245 1.4008303e-38
-0.094047621 -0.175 1.25 1.3916833e-38
-0.091666669 -0.175 1.25 1.4470007e-38
-0.08964286 -0.17570001 1.2550001 1.4286697e-38
-0.087252386 -0.17570001 1.2550001 1.465548e-38
-0.08513239 -0.17626001 1.2590001 1.4655483e-38
-0.082734287 -0.17626001 1.2590001 1.493207e-38
-0.080336191 -0.17626001 1.2590001 1.4748041e-38
-0.077938102 -0.17626001 1.2590001 1.5116824e-38
-0.075539999 -0.17626001 1.2590001 1.5116824e-38
-0.07314191 -0.17626001 1.2590001 1.5301215e-38
-0.070743814 -0.17626001 1.2590001 1.5393045e-38
-0.068345711 -0.17626001 1.2590001 1.5393045e-38
-0.065947622 -0.17626001 1.2590001 1.5301212e-38
-0.063549526 -0.17626001 1.2590001 1.5301212e-38
-0.061151426 -0.17626001 1.2590001 1.5393045e-38
-0.058753334 -0.17626001 1.2590001 1.5300849e-38
-0.056355242 -0.17626001 1.2590001 1.5208654e-38
-0.053957146 -0.17626001 1.2590001 1.5116458e-38
-0.05155905 -0.17626001 1.2590001 1.5024263e-38
-0.049160954 -0.17626001 1.2590001 1.4932067e-38
-0.046614289 -0.17570001 1.2550001 1.4930988e-38
-0.044223815 -0.17570001 1.2550001 1.4930988e-38
-0.041833337 -0.17570001 1.2550001 1.447001e-38
-0.039285716 -0.175 1.25 1.447001e-38
-0.03690476 -0.175 1.25 1.4009397e-38
-0.034523807 -0.175 1.25 1.3825006e-38
-0.032014288 -0.1743 1.245 1.3917189e-38
-0.029642858 -0.1743 1.245 1.3917189e-38
-0.027380953 -0.175 1.25 1.3915757e-38
-0.025 -0.175 1.25 1.363917e-38
-0.10046192 -0.1713762 1.2410001 1.4377458e-38
-0.098098099 -0.1713762 1.2410001 1.4377441e-38
-0.096042857 -0.17192857 1.245 1.4469637e-38
-0.094047621 -0.17261904 1.25 1.4378164e-38
-0.091666669 -0.17261904 1.25 1.4562556e-38
-0.08964286 -0.17330955 1.2550001 1.4563275e-38
-0.087252386 -0.17330955 1.2550001 1.4563275e-38
-0.08513239 -0.17386191 1.2590001 1.4654764e-38
-0.082734287 -0.17386191 1.2590001 1.474696e-38
-0.080336191 -0.17386191 1.2590001 1.4746246e-38
-0.077938102 -0.17386191 1.2590001 1.5207224e-38
-0.075539999 -0.17386191 1.2590001 1.5023909e-38
-0.07314191 -0.17386191 1.2590001 1.5116105e-38
-0.070743814 -0.17386191 1.2590001 1.502426e-38
-0.068345711 -0.17386191 1.2590001 1.502426e-38
-0.065947622 -0.17386191 1.2590001 1.5024265e-38
-0.063549526 -0.17386191 1.2590001 1.5116461e-38
-0.061394289 -0.1745524 1.2640001 1.5024263e-38
-0.058986671 -0.1745524 1.2640001 1.5024263e-38
-0.05657905 -0.1745524 1.2640001 1.4839871e-38
-0.054171428 -0.1745524 1.2640001 1.4747676e-38
-0.05155905 -0.17386191 1.2590001 1.4747673e-38
-0.049160954 -0.17386191 1.2590001 1.4563282e-38
-0.046614289 -0.17330955 1.2550001 1.4839871e-38
-0.044223815 -0.17330955 1.2550001 1.5393045e-38
-0.041833337 -0.17330955 1.2550001 1.5485577e-38
-0.039285716 -0.17261904 1.25 1.520899e-38
-0.03690476 -0.17261904 1.25 1.5300486e-38
-0.034523807 -0.17261904 1.25 1.5300486e-38
-0.032014288 -0.17192857 1.245 1.5393032e-38
-0.028404765 -0.16474763 1.1930001 1.5669619e-38
-0.026132382 -0.16474763 1.1930001 1.4564363e-38
-0.023940001 -0.1653 1.197 1.2628255e-38
-0.021822859 -0.16654286 1.2060001 1.1617995e-38
-0.019525714 -0.16654286 1.2060001 1.4291668e-38
-0.10078571 -0.16955714 1.245 1.4655104e-38
-0.098414287 -0.16955714 1.245 1.4563269e-38
-0.096428573 -0.17023809 1.25 1.4471073e-38
-0.094047621 -0.17023809 1.25 1.4746241e-38
-0.092033342 -0.17091906 1.2550001 1.4930632e-38
-0.08964286 -0.17091906 1.2550001 1.4839868e-38
-0.087530479 -0.17146382 1.2590001 1.4655477e-38
-0.08513239 -0.17146382 1.2590001 1.4930632e-38
-0.082734287 -0.17146382 1.2590001 1.5022828e-38
-0.08065524 -0.17214477 1.2640001 1.4929912e-38
-0.077938102 -0.17146382 1.2590001 1.5298694e-38
-0.075539999 -0.17146382 1.2590001 1.4931351e-38
-0.07314191 -0.17146382 1.2590001 1.5392329e-38
-0.070743814 -0.17146382 1.2590001 1.5207938e-38
-0.068345711 -0.17146382 1.2590001 1.5207938e-38
-0.065947622 -0.17146382 1.2590001 1.529978e-38
-0.063801907 -0.17214477 1.2640001 1.5391976e-38
-0.061394289 -0.17214477 1.2640001 1.5392329e-38
-0.058986671 -0.17214477 1.2640001 1.557672e-38
-0.05657905 -0.17214477 1.2640001 1.5484534e-38
-0.054171428 -0.17214477 1.2640001 1.5484534e-38
-0.05176381 -0.17214477 1.2640001 1.5668926e-38
-0.049160954 -0.17146382 1.2590001 1.5668926e-38
-0.046762858 -0.17146382 1.2590001 1.5116468e-38
-0.044364765 -0.17146382 1.2590001 1.5208664e-38
-0.041966669 -0.17146382 1.2590001 1.5669982e-38
-0.037117146 -0.16084096 1.1810001 1.613096e-38
-0.034867622 -0.16084096 1.1810001 1.6313585e-38
-0.032728571 -0.16138572 1.1850001 1.5668215e-38
-0.030471429 -0.16138572 1.1850001 1.5578479e-38
-0.028214287 -0.16138572 1.1850001 1.5855066e-38
-0.026132382 -0.16247524 1.1930001 1.4381076e-38
-0.023940001 -0.16302 1.197 1.0324469e-38
-0.02166 -0.16302 1.197 9.2187054e-39
-0.019460952 -0.16370095 1.202 1.5119209e-38
-0.017099999 -0.16302 1.197 1.7604696e-38
-0.014820001 -0.16302 1.197 1.8434457e-38
-0.10078571 -0.16718571 1.245 1.262611e-38
-0.098414287 -0.16718571 1.245 1.2536734e-38
-0.096428573 -0.16785714 1.25 1.2721125e-38
-0.094423823 -0.16852859 1.2550001 1.3182177e-38
-0.092326671 -0.16906573 1.2590001 1.3919742e-38
-0.089928575 -0.16906573 1.2590001 1.4195934e-38
-0.087530479 -0.16906573 1.2590001 1.4472521e-38
-0.085470475 -0.16973716 1.2640001 1.5207941e-38
-0.083062857 -0.16973716 1.2640001 1.6498679e-38
-0.08065524 -0.16973716 1.2640001 1.6314636e-38
-0.078247622 -0.16973716 1.2640001 1.6314636e-38
-0.075539999 -0.16906573 1.2590001 1.6315004e-38
-0.07314191 -0.16906573 1.2590001 1.6868178e-38
-0.066360958 -0.15859143 1.1810001 1.6316812e-38
-0.064111434 -0.15859143 1.1810001 1.6132421e-38
-0.061861914 -0.15859143 1.1810001 1.5579627e-38
-0.059410479 -0.15805428 1.177 1.6593778e-38
-0.057168569 -0.15805428 1.177 1.7054024e-38
-0.055113338 -0.15859143 1.1810001 1.7699393e-38
-0.052863814 -0.15859143 1.1810001 1.7053673e-38
-0.05061429 -0.15859143 1.1810001 1.6684891e-38
-0.048200954 -0.15805428 1.177 1.6869279e-38
-0.045959052 -0.15805428 1.177 1.6592692e-38
-0.043865718 -0.15859143 1.1810001 1.4842415e-38
-0.041616194 -0.15859143 1.1810001 1.3090698e-38
-0.03936667 -0.15859143 1.1810001 1.4197739e-38
-0.037117146 -0.15859143 1.1810001 1.585726e-38
-0.034867622 -0.15859143 1.1810001 1.5670721e-38
-0.032728571 -0.15912858 1.1850001 1.1521917e-38
-0.030471429 -0.15912858 1.1850001 1.1708786e-38
-0.028214287 -0.15912858 1.1850001 1.4474655e-38
-0.026132382 -0.16020286 1.1930001 1.4473247e-38
-0.023860002 -0.16020286 1.1930001 1.060103e-38
-0.02166 -0.16074 1.197 9.0354534e-39
-0.019380001 -0.16074 1.197 1.4659387e-38
-0.017042857 -0.16020286 1.1930001 1.7974551e-38
-0.014770477 -0.16020286 1.1930001 1.8158942e-38
-0.097628579 -0.15965144 1.2060001 1.060172e-38
-0.095015235 -0.1591219 1.202 9.3142347e-39
-0.092031434 -0.15793048 1.1930001 9.4064303e-39
-0.089458093 -0.15740095 1.189 1.1710249e-38
-0.086900003 -0.15687144 1.1850001 1.2632205e-38
-0.08435715 -0.15634191 1.1810001 1.2171962e-38
-0.082107626 -0.15634191 1.1810001 1.3831483e-38
-0.079587616 -0.1558124 1.177 1.5300872e-38
-0.077345721 -0.1558124 1.177 1.6038437e-38
-0.075103812 -0.1558124 1.177 1.5670361e-38
-0.07286191 -0.1558124 1.177 1.5485969e-38
-0.07062 -0.1558124 1.177 1.5948014e-38
-0.068610482 -0.15634191 1.1810001 1.686997e-38
-0.066360958 -0.15634191 1.1810001 1.5489948e-38
-0.064111434 -0.15634191 1.1810001 1.3738231e-38
-0.061861914 -0.15634191 1.1810001 1.3464487e-38
-0.059410479 -0.1558124 1.177 1.5677182e-38
-0.057168569 -0.1558124 1.177 1.6870718e-38
-0.055113338 -0.15634191 1.1810001 1.7147305e-38
-0.052863814 -0.15634191 1.1810001 1.6687759e-38
-0.05061429 -0.15634191 1.1810001 1.5857999e-38
-0.048200954 -0.1558124 1.177 1.5951629e-38
-0.045959052 -0.1558124 1.177 1.613602e-38
-0.043865718 -0.15634191 1.1810001 1.3373777e-38
-0.041616194 -0.15634191 1.1810001 1.0792299e-38
-0.03936667 -0.15634191 1.1810001 1.0880867e-38
-0.037117146 -0.15634191 1.1810001 1.5121866e-38
-0.034867622 -0.15634191 1.1810001 1.4936393e-38
-0.032728571 -0.15687144 1.1850001 8.2061117e-39
-0.030471429 -0.15687144 1.1850001 8.1167411e-39
-0.028309524 -0.15740095 1.189 1.2081153e-38
-0.026132382 -0.15793048 1.1930001 1.447325e-38
-0.023860002 -0.15793048 1.1930001 1.0785424e-38
-0.02158762 -0.15793048 1.1930001 8.6641443e-39
-0.019380001 -0.15846001 1.197 1.530223e-38
-0.017042857 -0.15793048 1.1930001 1.8435529e-38
-0.014770477 -0.15793048 1.1930001 1.8251138e-38
-0.099594288 -0.15683238 1.202 6.2743251e-39
-0.097304761 -0.15683238 1.202 7.7494552e-39
-0.095015235 -0.15683238 1.202 6.0009948e-39
-0.092031434 -0.1556581 1.1930001 4.5258647e-39
-0.089458093 -0.1551362 1.189 7.381739e-39
-0.086900003 -0.15461428 1.1850001 1.2360303e-38
-0.08435715 -0.15409239 1.1810001 1.3827897e-38
-0.082107626 -0.15409239 1.1810001 1.5118636e-38
-0.079587616 -0.15357049 1.177 1.5393784e-38
-0.077345721 -0.15357049 1.177 1.4010849e-38
-0.075103812 -0.15357049 1.177 1.115282e-38
-0.07286191 -0.15357049 1.177 1.0138668e-38
-0.07062 -0.15357049 1.177 1.2719747e-38
-0.068610482 -0.15409239 1.1810001 1.7606116e-38
-0.066360958 -0.15409239 1.1810001 1.6594132e-38
-0.064111434 -0.15409239 1.1810001 1.2537524e-38
-0.061861914 -0.15409239 1.1810001 1.2818718e-38
-0.059410479 -0.15357049 1.177 1.595337e-38
-0.057168569 -0.15357049 1.177 1.6595564e-38
-0.055113338 -0.15409239 1.1810001 1.5489216e-38
-0.052863814 -0.15409239 1.1810001 1.3004263e-38
-0.05061429 -0.15409239 1.1810001 1.2451089e-38
-0.048364766 -0.15409239 1.1810001 1.34663e-38
-0.046115242 -0.15409239 1.1810001 1.5402409e-38
-0.043865718 -0.15409239 1.1810001 1.5489948e-38
-0.041616194 -0.15409239 1.1810001 1.43836e-38
-0.03936667 -0.15409239 1.1810001 1.45676e-38
-0.037117146 -0.15409239 1.1810001 1.4383209e-38
-0.034867622 -0.15409239 1.1810001 1.2175543e-38
-0.032728571 -0.15461428 1.1850001 6.5516098e-39
-0.030471429 -0.15461428 1.1850001 5.453209e-39
-0.028309524 -0.1551362 1.189 6.6517522e-39
-0.026132382 -0.1556581 1.1930001 1.0788293e-38
-0.023860002 -0.1556581 1.1930001 1.0050728e-38
-0.02158762 -0.1556581 1.1930001 9.0322206e-39
-0.019380001 -0.15617999 1.197 1.557811e-38
-0.017099999 -0.15617999 1.197 1.8343328e-38
-0.099594288 -0.15454286 1.202 3.8858805e-39
-0.097304761 -0.15454286 1.202 3.7014893e-39
-0.094620004 -0.1539 1.197 2.8760474e-39
-0.09234 -0.1539 1.197 2.0462867e-39
-0.089458093 -0.15287143 1.189 6.8281729e-39
-0.087193333 -0.15287143 1.189 1.1806737e-38
-0.084928572 -0.15287143 1.189 1.4563647e-38
-0.082385719 -0.15235715 1.1850001 1.5946582e-38
-0.079858102 -0.15184286 1.1810001 1.4843481e-38
-0.077608578 -0.15184286 1.1810001 1.1340047e-38
-0.075359054 -0.15184286 1.1810001 9.7734402e-39
-0.07310953 -0.15184286 1.1810001 9.1280708e-39
-0.070860006 -0.15184286 1.1810001 1.1520802e-38
-0.068610482 -0.15184286 1.1810001 1.5761801e-38
-0.066360958 -0.15184286 1.1810001 1.7054727e-38
-0.064111434 -0.15184286 1.1810001 1.5118619e-38
-0.061861914 -0.15184286 1.1810001 1.4382153e-38
-0.059612386 -0.15184286 1.1810001 1.6779239e-38
-0.057362862 -0.15184286 1.1810001 1.6688838e-38
-0.055113338 -0.15184286 1.1810001 1.4107361e-38
-0.052863814 -0.15184286 1.1810001 1.1442685e-38
-0.05061429 -0.15184286 1.1810001 1.070512e-38
-0.048364766 -0.15184286 1.1810001 1.1809294e-38
-0.046115242 -0.15184286 1.1810001 1.3284424e-38
-0.043865718 -0.15184286 1.1810001 1.6502639e-38
-0.041616194 -0.15184286 1.1810001 1.73324e-38
-0.03936667 -0.15184286 1.1810001 1.5582494e-38
-0.037117146 -0.15184286 1.1810001 1.1064908e-38
-0.034985714 -0.15235715 1.1850001 8.6757247e-39
-0.032728571 -0.15235715 1.1850001 5.6332689e-39
-0.030574286 -0.15287143 1.189 2.8811047e-39
-0.028309524 -0.15287143 1.189 3.1576916e-39
-0.026132382 -0.15338571 1.1930001 9.8688728e-39
-0.023940001 -0.1539 1.197 9.0391122e-39
-0.02166 -0.1539 1.197 6.6340384e-39
-0.019380001 -0.1539 1.197 1.6591151e-38
-0.017099999 -0.1539 1.197 1.8343684e-38
-0.099594288 -0.15225333 1.202 4.255026e-39
-0.097304761 -0.15225333 1.202 2.7798959e-39
-0.094620004 -0.15162 1.197 1.8662241e-39
-0.09234 -0.15162 1.197 2.0506153e-39
-0.089759052 -0.15111333 1.1930001 4.3472216e-39
-0.087193333 -0.15060668 1.189 6.744308e-39
-0.084928572 -0.15060668 1.189 1.3369008e-38
-0.082663804 -0.15060668 1.189 1.4475356e-38
-0.080128573 -0.15010001 1.1850001 1.3828194e-38
-0.077871434 -0.15010001 1.1850001 9.3106082e-39
-0.075614288 -0.15010001 1.1850001 8.9429761e-39
-0.07310953 -0.14959334 1.1810001 9.7727368e-39
-0.070860006 -0.14959334 1.1810001 1.0599586e-38
-0.068610482 -0.14959334 1.1810001 1.1152759e-38
-0.066360958 -0.14959334 1.1810001 1.2537158e-38
-0.064111434 -0.14959334 1.1810001 1.6962548e-38
-0.061861914 -0.14959334 1.1810001 1.6963646e-38
-0.059612386 -0.14959334 1.1810001 1.5857298e-38
-0.057362862 -0.14959334 1.1810001 1.2913146e-38
-0.055113338 -0.14959334 1.1810001 1.2175581e-38
-0.052863814 -0.14959334 1.1810001 1.1259032e-38
-0.05061429 -0.14959334 1.1810001 1.1166837e-38
-0.048364766 -0.14959334 1.1810001 1.1442332e-38
-0.046115242 -0.14959334 1.1810001 1.1165745e-38
-0.043865718 -0.14959334 1.1810001 1.4844879e-38
-0.041616194 -0.14959334 1.1810001 1.7241966e-38
-0.03936667 -0.14959334 1.1810001 1.5030026e-38
-0.037117146 -0.14959334 1.1810001 7.6543757e-39
-0.034985714 -0.15010001 1.1850001 2.6066758e-39
-0.032728571 -0.15010001 1.1850001 3.1598496e-39
-0.030574286 -0.15060668 1.189 3.5257678e-39
-0.028309524 -0.15060668 1.189 3.7101591e-39
-0.026132382 -0.15111333 1.1930001 9.5944313e-39
-0.023940001 -0.15162 1.197 8.5802794e-39
-0.02166 -0.15162 1.197 8.2950115e-39
-0.019380001 -0.15162 1.197 1.6961401e-38
-0.017099999 -0.15162 1.197 1.8343681e-38
-0.099594288 -0.14996381 1.202 6.1839567e-39
-0.097304761 -0.14996381 1.202 4.2478485e-39
-0.094620004 -0.14934 1.197 1.9569778e-39
-0.09234 -0.14934 1.197 2.3257603e-39
-0.089759052 -0.14884095 1.1930001 9.4857396e-40
-0.087486669 -0.14884095 1.1930001 2.6080953e-39
-0.085214287 -0.14884095 1.1930001 9.4125638e-39
-0.082663804 -0.14834191 1.189 1.2362824e-38
-0.080399044 -0.14834191 1.189 1.1250356e-38
-0.078134283 -0.14834191 1.189 8.6688779e-39
-0.075614288 -0.14784285 1.1850001 9.7705662e-39
-0.073357143 -0.14784285 1.1850001 1.0415936e-38
-0.071100004 -0.14784285 1.1850001 1.0050017e-38
-0.068610482 -0.14734381 1.1810001 8.9436697e-39
-0.066360958 -0.14734381 1.1810001 1.0602085e-38
-0.064111434 -0.14734381 1.1810001 1.705578e-38
-0.061861914 -0.14734381 1.1810001 1.7517548e-38
-0.059612386 -0.14734381 1.1810001 1.5028266e-38
-0.057362862 -0.14734381 1.1810001 1.0707641e-38
-0.055113338 -0.14734381 1.1810001 1.052325e-38
-0.052863814 -0.14734381 1.1810001 1.098388e-38
-0.05061429 -0.14734381 1.1810001 1.1168272e-38
-0.048364766 -0.14734381 1.1810001 1.0616164e-38
-0.046115242 -0.14734381 1.1810001 9.694208e-39
-0.043865718 -0.14734381 1.1810001 1.2266672e-38
-0.041616194 -0.14734381 1.1810001 1.632328e-38
-0.039500002 -0.14784285 1.1850001 1.3467765e-38
-0.03724286 -0.14784285 1.1850001 5.8155274e-39
-0.034985714 -0.14784285 1.1850001 1.2287706e-39
-0.032839045 -0.14834191 1.189 1.7819444e-39
-0.030574286 -0.14834191 1.189 1.9627329e-39
-0.028309524 -0.14834191 1.189 3.8066455e-39
-0.026219999 -0.14934 1.197 1.0055049e-38
-0.023940001 -0.14934 1.197 8.8565062e-39
-0.02166 -0.14934 1.197 8.2024431e-39
-0.019380001 -0.14934 1.197 1.7422006e-38
-0.017099999 -0.14934 1.197 1.8251848e-38
-0.099925719 -0.14816572 1.2060001 8.483828e-39
-0.097628579 -0.14816572 1.2060001 8.1150455e-39
-0.094620004 -0.14706001 1.197 4.8996947e-39
-0.09234 -0.14706001 1.197 3.2401734e-39
-0.089759052 -0.14656857 1.1930001 1.0389941e-39
-0.087486669 -0.14656857 1.1930001 3.6204718e-39
-0.085214287 -0.14656857 1.1930001 1.0699359e-38
-0.082941905 -0.14656857 1.1930001 1.3280837e-38
-0.080399044 -0.14607714 1.189 1.2354895e-38
-0.078134283 -0.14607714 1.189 8.5748746e-39
-0.075869523 -0.14607714 1.189 9.034806e-39
-0.073604763 -0.14607714 1.189 9.8645667e-39
-0.071339995 -0.14607714 1.189 9.6798251e-39
-0.068610482 -0.14509429 1.1810001 9.0344557e-39
-0.066360958 -0.14509429 1.1810001 9.3124467e-39
-0.064111434 -0.14509429 1.1810001 1.5489554e-38
-0.061861914 -0.14509429 1.1810001 1.678174e-38
-0.059612386 -0.14509429 1.1810001 1.4292458e-38
-0.057362862 -0.14509429 1.1810001 1.1351218e-38
-0.055113338 -0.14509429 1.1810001 1.0982436e-38
-0.053042859 -0.14558572 1.1850001 1.1076076e-38
-0.050785717 -0.14558572 1.1850001 1.1168272e-38
-0.048528574 -0.14558572 1.1850001 1.0799477e-38
-0.046271432 -0.14558572 1.1850001 1.0430694e-38
-0.04401429 -0.14558572 1.1850001 1.3186493e-38
-0.041757144 -0.14558572 1.1850001 1.6689927e-38
-0.039500002 -0.14558572 1.1850001 1.5307712e-38
-0.03724286 -0.14558572 1.1850001 8.5774306e-39
-0.034985714 -0.14558572 1.1850001 1.2277168e-39
-0.032839045 -0.14607714 1.189 1.0433256e-39
-0.030574286 -0.14607714 1.189 4.5373666e-39
-0.028404765 -0.14656857 1.1930001 8.5939743e-39
-0.026219999 -0.14706001 1.197 1.171277e-38
-0.023940001 -0.14706001 1.197 1.0422031e-38
-0.021750478 -0.14767428 1.202 1.0509191e-38
-0.019380001 -0.14706001 1.197 1.6870689e-38
-0.017099999 -0.14706001 1.197 1.8251485e-38
-0.10025714 -0.14635238 1.21 1.0322336e-38
-0.097628579 -0.14586858 1.2060001 9.7691621e-39
-0.095015235 -0.14538477 1.202 7.4746802e-39
-0.09234 -0.14478 1.197 3.9712462e-39
-0.090060003 -0.14478 1.197 1.2219309e-39
-0.087486669 -0.1442962 1.1930001 6.0161036e-39
-0.085214287 -0.1442962 1.1930001 1.2354915e-38
-0.082941905 -0.1442962 1.1930001 1.4291023e-38
-0.080669522 -0.1442962 1.1930001 1.2539685e-38
-0.078397147 -0.1442962 1.1930001 9.0362507e-39
-0.075869523 -0.14381239 1.189 8.8514741e-39
-0.073604763 -0.14381239 1.189 9.2202566e-39
-0.071339995 -0.14381239 1.189 9.1266233e-39
-0.069075234 -0.14381239 1.189 9.4032102e-39
-0.066585712 -0.14332858 1.1850001 9.7727242e-39
-0.064328574 -0.14332858 1.1850001 1.6134223e-38
-0.062071431 -0.14332858 1.1850001 1.6690283e-38
-0.059814289 -0.14332858 1.1850001 1.5215153e-38
-0.057557143 -0.14332858 1.1850001 1.126049e-38
-0.055300001 -0.14332858 1.1850001 1.061512e-38
-0.053042859 -0.14332858 1.1850001 1.1075708e-38
-0.050785717 -0.14332858 1.1850001 1.1075708e-38
-0.048528574 -0.14332858 1.1850001 1.1074982e-38
-0.046271432 -0.14332858 1.1850001 1.1259373e-38
-0.04401429 -0.14332858 1.1850001 1.4197408e-38
-0.041757144 -0.14332858 1.1850001 1.668669e-38
-0.039633334 -0.14381239 1.189 1.5769743e-38
-0.03736857 -0.14381239 1.189 1.1805331e-38
-0.035103809 -0.14381239 1.189 5.0005476e-39
-0.032839045 -0.14381239 1.189 2.0502874e-39
-0.030677145 -0.1442962 1.1930001 5.8230579e-39
-0.028404765 -0.1442962 1.1930001 1.0340644e-38
-0.026219999 -0.14478 1.197 1.2724407e-38
-0.023940001 -0.14478 1.197 1.0142929e-38
-0.021750478 -0.14538477 1.202 1.0601033e-38
-0.019380001 -0.14478 1.197 1.7239118e-38
-0.017099999 -0.14478 1.197 1.779051e-38
-0.10025714 -0.14404762 1.21 9.403276e-39
-0.097952388 -0.14404762 1.21 8.2047328e-39
-0.095331438 -0.14357144 1.2060001 7.199531e-39
-0.092725717 -0.14309524 1.202 6.6463572e-39
-0.090060003 -0.1425 1.197 7.5668786e-39
-0.087779999 -0.1425 1.197 1.2545443e-38
-0.085214287 -0.14202382 1.1930001 1.3922597e-38
-0.082941905 -0.14202382 1.1930001 1.447577e-38
-0.080669522 -0.14202382 1.1930001 1.3921543e-38
-0.078397147 -0.14202382 1.1930001 1.2354217e-38
-0.076124765 -0.14202382 1.1930001 1.0051106e-38
-0.073852383 -0.14202382 1.1930001 8.7603673e-39
-0.07158 -0.14202382 1.1930001 9.5872539e-39
-0.069075234 -0.14154762 1.189 1.2998492e-38
-0.066810474 -0.14154762 1.189 1.4196345e-38
-0.064545713 -0.14154762 1.189 1.6685627e-38
-0.062071431 -0.14107144 1.1850001 1.6412242e-38
-0.059814289 -0.14107144 1.1850001 1.6688829e-38
-0.057557143 -0.14107144 1.1850001 1.4664162e-38
-0.055300001 -0.14107144 1.1850001 1.282025e-38
-0.053042859 -0.14107144 1.1850001 1.08906e-38
-0.050785717 -0.14107144 1.1850001 1.0614013e-38
-0.048528574 -0.14107144 1.1850001 1.2729108e-38
-0.046271432 -0.14107144 1.1850001 1.5126194e-38
-0.04401429 -0.14107144 1.1850001 1.5673585e-38
-0.041898094 -0.14154762 1.189 1.4198455e-38
-0.039633334 -0.14154762 1.189 1.521294e-38
-0.03736857 -0.14154762 1.189 1.6411484e-38
-0.035103809 -0.14154762 1.189 1.3925846e-38
-0.032839045 -0.14154762 1.189 1.0606804e-38
-0.030677145 -0.14202382 1.1930001 1.0977729e-38
-0.028404765 -0.14202382 1.1930001 1.1899685e-38
-0.026219999 -0.1425 1.197 1.10667e-38
-0.024040001 -0.14309524 1.202 8.8540049e-39
-0.021750478 -0.14309524 1.202 1.0140428e-38
-0.019460952 -0.14309524 1.202 1.7331687e-38
-0.017171429 -0.14309524 1.202 1.7698314e-38
-0.10025714 -0.14174286 1.21 1.1063122e-38
-0.097952388 -0.14174286 1.21 7.6518842e-39
-0.095647618 -0.14174286 1.21 8.8553627e-39
-0.09303429 -0.1412743 1.2060001 1.0330493e-38
-0.09043619 -0.14080572 1.202 1.1432245e-38
-0.087779999 -0.14022 1.197 1.4105919e-38
-0.085500002 -0.14022 1.197 1.318612e-38
-0.082941905 -0.13975143 1.1930001 1.3001729e-38
-0.080669522 -0.13975143 1.1930001 1.383149e-38
-0.078397147 -0.13975143 1.1930001 1.318612e-38
-0.076124765 -0.13975143 1.1930001 1.2538227e-38
-0.073852383 -0.13975143 1.1930001 9.4957715e-39
-0.07158 -0.13975143 1.1930001 1.0140075e-38
-0.069307618 -0.13975143 1.1930001 1.4934247e-38
-0.066810474 -0.13928285 1.189 1.5856929e-38
-0.064545713 -0.13928285 1.189 1.4658386e-38
-0.062280957 -0.13928285 1.189 1.4659783e-38
-0.060016192 -0.13928285 1.189 1.6503696e-38
-0.057557143 -0.13881429 1.1850001 1.7057258e-38
-0.055300001 -0.13881429 1.1850001 1.512115e-38
-0.053221904 -0.13928285 1.189 1.1811117e-38
-0.050957143 -0.13928285 1.189 1.1350139e-38
-0.048692379 -0.13928285 1.189 1.4107376e-38
-0.046427619 -0.13928285 1.189 1.6043484e-38
-0.044162858 -0.13928285 1.189 1.5857639e-38
-0.041898094 -0.13928285 1.189 1.1524444e-38
-0.039633334 -0.13928285 1.189 1.2995912e-38
-0.03736857 -0.13928285 1.189 1.6038368e-38
-0.035221905 -0.13975143 1.1930001 1.6961099e-38
-0.032949526 -0.13975143 1.1930001 1.5762556e-38
-0.030677145 -0.13975143 1.1930001 1.171748e-38
-0.028404765 -0.13975143 1.1930001 1.0057958e-38
-0.026329523 -0.14080572 1.202 1.0238003e-38
-0.024040001 -0.14080572 1.202 8.4862859e-39
-0.021750478 -0.14080572 1.202 9.6801754e-39
-0.019460952 -0.14080572 1.202 1.6502652e-38
-0.017171429 -0.14080572 1.202 1.7053668e-38
-0.10256191 -0.13943809 1.21 1.5302304e-38
-0.10025714 -0.13943809 1.21 1.1065997e-38
-0.097952388 -0.13943809 1.21 1.8464335e-39
-0.095647618 -0.13943809 1.21 3.8761947e-39
-0.093342856 -0.13943809 1.21 1.1897215e-38
-0.09043619 -0.13851619 1.202 1.263294e-38
-0.087779999 -0.13794 1.197 1.2079766e-38
-0.085500002 -0.13794 1.197 1.0607895e-38
-0.082941905 -0.13747905 1.1930001 9.7781346e-39
-0.080669522 -0.13747905 1.1930001 1.0975586e-38
-0.078397147 -0.13747905 1.1930001 1.4386824e-38
-0.076124765 -0.13747905 1.1930001 1.5303033e-38
-0.073852383 -0.13747905 1.1930001 1.4565468e-38
-0.07158 -0.13747905 1.1930001 1.5027159e-38
-0.069307618 -0.13747905 1.1930001 1.6778876e-38
-0.066810474 -0.1370181 1.189 1.3832597e-38
-0.064545713 -0.1370181 1.189 9.4072067e-39
-0.062280957 -0.1370181 1.189 7.7577116e-39
-0.060016192 -0.1370181 1.189 9.6938198e-39
-0.057751428 -0.1370181 1.189 1.374144e-38
-0.055486668 -0.1370181 1.189 1.6968287e-38
-0.053221904 -0.1370181 1.189 1.668956e-38
-0.050957143 -0.1370181 1.189 1.6412973e-38
-0.048692379 -0.1370181 1.189 1.6318626e-38
-0.046427619 -0.1370181 1.189 1.3644953e-38
-0.044162858 -0.1370181 1.189 1.096951e-38
-0.041898094 -0.1370181 1.189 8.9412063e-39
-0.039766666 -0.13747905 1.1930001 9.1262757e-39
-0.037494287 -0.13747905 1.1930001 1.2445318e-38
-0.035221905 -0.13747905 1.1930001 1.5487375e-38
-0.032949526 -0.13747905 1.1930001 1.6685918e-38
-0.030677145 -0.13747905 1.1930001 1.3738947e-38
-0.0285 -0.13794 1.197 1.05121e-38
-0.026329523 -0.13851619 1.202 8.4899041e-39
-0.024040001 -0.13851619 1.202 7.1069696e-39
-0.021822859 -0.13897716 1.2060001 9.6798223e-39
-0.019525714 -0.13897716 1.2060001 1.6225712e-38
-0.10256191 -0.13713333 1.21 1.6224636e-38
-0.10025714 -0.13713333 1.21 1.1528056e-38
-0.097952388 -0.13713333 1.21 1.0177547e-39
-0.095647618 -0.13713333 1.21 4.1505339e-39
-0.093342856 -0.13713333 1.21 1.3277891e-38
-0.090737149 -0.13668001 1.2060001 1.2175221e-38
-0.088146664 -0.13622667 1.202 9.9625258e-39
-0.085500002 -0.13566001 1.197 7.9417722e-39
-0.083220005 -0.13566001 1.197 8.3105547e-39
-0.080669522 -0.13520667 1.1930001 9.5976683e-39
-0.078397147 -0.13520667 1.1930001 1.2179146e-38
-0.076124765 -0.13520667 1.1930001 1.5487771e-38
-0.073852383 -0.13520667 1.1930001 1.6409728e-38
-0.07158 -0.13520667 1.1930001 1.6315755e-38
-0.069307618 -0.13520667 1.1930001 1.5209408e-38
-0.067035235 -0.13520667 1.1930001 1.0981357e-38
-0.064762861 -0.13520667 1.1930001 6.4637708e-39
-0.062490482 -0.13520667 1.1930001 2.2439917e-39
-0.060016192 -0.13475333 1.189 2.7049699e-39
-0.057751428 -0.13475333 1.189 1.1530161e-38
-0.055486668 -0.13475333 1.189 1.5863356e-38
-0.053221904 -0.13475333 1.189 1.7884505e-38
-0.050957143 -0.13475333 1.189 1.7700113e-38
-0.048692379 -0.13475333 1.189 1.6503018e-38
-0.046427619 -0.13475333 1.189 1.0879084e-38
-0.044162858 -0.13475333 1.189 1.1150261e-38
-0.041898094 -0.13475333 1.189 1.0689283e-38
-0.039766666 -0.13520667 1.1930001 9.1291246e-39
-0.037494287 -0.13520667 1.1930001 9.3135158e-39
-0.035221905 -0.13520667 1.1930001 1.3365445e-38
-0.032949526 -0.13520667 1.1930001 1.6131314e-38
-0.030780001 -0.13566001 1.197 1.3554928e-38
-0.0285 -0.13566001 1.197 9.867103e-39
-0.026329523 -0.13622667 1.202 8.2133172e-39
-0.024040001 -0.13622667 1.202 7.5679478e-39
-0.021822859 -0.13668001 1.2060001 9.9560336e-39
-0.019525714 -0.13668001 1.2060001 1.6317532e-38
-0.017342858 -0.13758668 1.2140001 1.6775639e-38
-0.10256191 -0.13482858 1.21 1.742209e-38
-0.10025714 -0.13482858 1.21 1.3644953e-38
-0.098276198 -0.13527429 1.2140001 1.3829344e-39
-0.095963813 -0.13527429 1.2140001 1.205701e-39
-0.093342856 -0.13482858 1.21 1.0240873e-38
-0.090737149 -0.13438286 1.2060001 1.1436564e-38
-0.088146664 -0.13393715 1.202 9.4082604e-39
-0.085857145 -0.13393715 1.202 8.1258131e-39
-0.083220005 -0.13338 1.197 8.8633781e-39
-0.080940001 -0.13338 1.197 9.5062168e-39
-0.078660004 -0.13338 1.197 9.8749993e-39
-0.076380007 -0.13338 1.197 1.3921505e-38
-0.074100003 -0.13338 1.197 1.7424939e-38
-0.07158 -0.13293429 1.1930001 1.5395951e-38
-0.069307618 -0.13293429 1.1930001 9.495431e-39
-0.067035235 -0.13293429 1.1930001 5.0919893e-39
-0.064762861 -0.13293429 1.1930001 5.2763806e-39
-0.062490482 -0.13293429 1.1930001 5.0030531e-39
-0.0602181 -0.13293429 1.1930001 4.3576837e-39
-0.057751428 -0.13248858 1.189 6.2862137e-39
-0.055486668 -0.13248858 1.189 9.5130607e-39
-0.053400956 -0.13293429 1.1930001 1.4937096e-38
-0.051128577 -0.13293429 1.1930001 1.5582466e-38
-0.048692379 -0.13248858 1.189 1.5395895e-38
-0.046427619 -0.13248858 1.189 9.8641575e-39
-0.04431143 -0.13293429 1.1930001 9.772371e-39
-0.042039048 -0.13293429 1.1930001 1.041774e-38
-0.039766666 -0.13293429 1.1930001 9.3135439e-39
-0.037494287 -0.13293429 1.1930001 8.3915876e-39
-0.035221905 -0.13293429 1.1930001 1.1800629e-38
-0.032949526 -0.13293429 1.1930001 1.5211867e-38
-0.030780001 -0.13338 1.197 1.346271e-38
-0.028619049 -0.13393715 1.202 9.9592762e-39
-0.026417146 -0.13438286 1.2060001 8.3058912e-39
-0.024120001 -0.13438286 1.2060001 7.5683261e-39
-0.021822859 -0.13438286 1.2060001 1.0232649e-38
-0.019590477 -0.13482858 1.21 1.6225364e-38
-0.017342858 -0.13527429 1.2140001 1.6775992e-38
-0.10290097 -0.13296191 1.2140001 1.8803946e-38
-0.10058858 -0.13296191 1.2140001 1.4381096e-38
-0.098276198 -0.13296191 1.2140001 2.5800553e-39
-0.095963813 -0.13296191 1.2140001 1.8510592e-39
-0.093651436 -0.13296191 1.2140001 1.0701831e-38
-0.0910381 -0.13252382 1.21 1.1159987e-38
-0.088146664 -0.13164762 1.202 9.4082702e-39
-0.085857145 -0.13164762 1.202 8.0325357e-39
-0.083220005 -0.1311 1.197 8.8622963e-39
-0.080940001 -0.1311 1.197 8.8630124e-39
-0.078397147 -0.1306619 1.1930001 8.8630124e-39
-0.076124765 -0.1306619 1.1930001 1.1436915e-38
-0.073852383 -0.1306619 1.1930001 1.6231087e-38
-0.07158 -0.1306619 1.1930001 1.3559254e-38
-0.069307618 -0.1306619 1.1930001 6.3679949e-39
-0.067035235 -0.1306619 1.1930001 1.5086043e-39
-0.064762861 -0.1306619 1.1930001 3.6291038e-39
-0.062490482 -0.1306619 1.1930001 6.1994215e-39
-0.0602181 -0.1306619 1.1930001 5.6462477e-39
-0.057945717 -0.1306619 1.1930001 2.0617585e-39
-0.055673338 -0.1306619 1.1930001 5.1042142e-39
-0.053400956 -0.1306619 1.1930001 1.2178808e-38
-0.051128577 -0.1306619 1.1930001 1.4022721e-38
-0.048856195 -0.1306619 1.1930001 1.2724426e-38
-0.046583813 -0.1306619 1.1930001 9.2209923e-39
-0.04431143 -0.1306619 1.1930001 9.9571154e-39
-0.042039048 -0.1306619 1.1930001 1.0141507e-38
-0.039766666 -0.1306619 1.1930001 9.4057367e-39
-0.037620001 -0.1311 1.197 9.1291498e-39
-0.03534 -0.1311 1.197 1.1616258e-38
-0.033059999 -0.1311 1.197 1.4935301e-38
-0.030908573 -0.13164762 1.202 1.2636196e-38
-0.028619049 -0.13164762 1.202 9.1327624e-39
-0.026504762 -0.13252382 1.21 8.2126137e-39
-0.0242 -0.13252382 1.21 7.9360268e-39
-0.021895239 -0.13252382 1.21 1.2720801e-38
-0.019655241 -0.13296191 1.2140001 1.6777409e-38
-0.017342858 -0.13296191 1.2140001 1.6868188e-38
-0.015092382 -0.13350953 1.2190001 1.6222818e-38
-0.10256191 -0.13021906 1.21 1.8987971e-38
-0.10025714 -0.13021906 1.21 1.6868553e-38
-0.098276198 -0.13064952 1.2140001 6.1738604e-39
-0.095963813 -0.13064952 1.2140001 6.6401593e-39
-0.093651436 -0.13064952 1.2140001 1.2632875e-38
-0.0910381 -0.13021906 1.21 1.2448195e-38
-0.088440008 -0.12978858 1.2060001 1.2171608e-38
-0.085857145 -0.1293581 1.202 9.966116e-39
-0.083220005 -0.12882 1.197 9.3207465e-39
-0.080940001 -0.12882 1.197 8.7708196e-39
-0.078397147 -0.12838952 1.1930001 9.416189e-39
-0.076124765 -0.12838952 1.1930001 1.263294e-38
-0.073852383 -0.12838952 1.1930001 1.6597352e-38
-0.07158 -0.12838952 1.1930001 1.4939289e-38
-0.069307618 -0.12838952 1.1930001 8.9465732e-39
-0.067035235 -0.12838952 1.1930001 3.2556423e-39
-0.064762861 -0.12838952 1.1930001 3.9010117e-39
-0.062490482 -0.12838952 1.1930001 4.820087e-39
-0.0602181 -0.12838952 1.1930001 4.1747176e-39
-0.057945717 -0.12838952 1.1930001 4.7253704e-39
-0.055673338 -0.12838952 1.1930001 8.2288043e-39
-0.053400956 -0.12838952 1.1930001 1.4756298e-38
-0.051128577 -0.12838952 1.1930001 1.5678254e-38
-0.048856195 -0.12838952 1.1930001 1.4290673e-38
-0.046583813 -0.12838952 1.1930001 8.9433264e-39
-0.04431143 -0.12838952 1.1930001 8.3933924e-39
-0.042039048 -0.12838952 1.1930001 8.762175e-39
-0.039900001 -0.12882 1.197 1.0139705e-38
-0.037620001 -0.12882 1.197 1.3366552e-38
-0.03534 -0.12882 1.197 1.4842382e-38
-0.033198096 -0.1293581 1.202 1.5395556e-38
-0.030908573 -0.1293581 1.202 1.3463083e-38
-0.028714286 -0.12978858 1.2060001 1.1434779e-38
-0.026504762 -0.13021906 1.21 9.1331477e-39
-0.0242 -0.13021906 1.21 7.7502133e-39
-0.021967622 -0.13064952 1.2140001 1.1708437e-38
-0.019655241 -0.13064952 1.2140001 1.6226023e-38
-0.017342858 -0.13064952 1.2140001 1.6683431e-38
-0.015092382 -0.13118763 1.2190001 1.6130257e-38
-0.10256191 -0.12791428 1.21 1.8711021e-38
-0.10025714 -0.12791428 1.21 1.7143718e-38
-0.098276198 -0.12833716 1.2140001 8.6617201e-39
-0.095963813 -0.12833716 1.2140001 8.2028411e-39
-0.093651436 -0.12833716 1.2140001 1.2812623e-38
-0.0910381 -0.12791428 1.21 1.2538931e-38
-0.088440008 -0.12749144 1.2060001 1.2631126e-38
-0.085857145 -0.12706856 1.202 1.1067794e-38
-0.083220005 -0.12654001 1.197 9.7770556e-39
-0.080940001 -0.12654001 1.197 8.1265138e-39
-0.078397147 -0.12611714 1.1930001 1.0062622e-38
-0.076124765 -0.12611714 1.1930001 1.4104134e-38
-0.073852383 -0.12611714 1.1930001 1.650122e-38
-0.07158 -0.12611714 1.1930001 1.512474e-38
-0.069307618 -0.12611714 1.1930001 1.1897893e-38
-0.067035235 -0.12611714 1.1930001 4.3595208e-39
-0.064762861 -0.12611714 1.1930001 3.3453689e-39
-0.062490482 -0.12611714 1.1930001 1.8780833e-39
-0.0602181 -0.12611714 1.1930001 1.7858876e-39
-0.057945717 -0.12611714 1.1930001 6.470605e-39
-0.055673338 -0.12611714 1.1930001 1.1449169e-38
-0.053400956 -0.12611714 1.1930001 1.5949478e-38
-0.051128577 -0.12611714 1.1930001 1.6502652e-38
-0.048856195 -0.12611714 1.1930001 1.502933e-38
-0.046583813 -0.12611714 1.1930001 1.0696135e-38
-0.04431143 -0.12611714 1.1930001 8.8525657e-39
-0.042180002 -0.12654001 1.197 8.9447614e-39
-0.039900001 -0.12654001 1.197 1.0599235e-38
-0.037620001 -0.12654001 1.197 1.5116821e-38
-0.03534 -0.12654001 1.197 1.4935316e-38
-0.033198096 -0.12706856 1.202 1.3736773e-38
-0.031011432 -0.12749144 1.2060001 1.3279375e-38
-0.028714286 -0.12749144 1.2060001 1.3002789e-38
-0.026592383 -0.12833716 1.2140001 1.1619877e-38
-0.02428 -0.12833716 1.2140001 8.5774208e-39
-0.021967622 -0.12833716 1.2140001 1.1705204e-38
-0.019655241 -0.12833716 1.2140001 1.6314986e-38
-0.017342858 -0.12833716 1.2140001 1.6221739e-38
-0.015092382 -0.12886572 1.2190001 1.5760761e-38
-0.10100286 -0.12654382 1.2190001 1.714479e-38
-0.098276198 -0.12602477 1.2140001 9.9535309e-39
-0.095963813 -0.12602477 1.2140001 8.4812791e-39
-0.093651436 -0.12602477 1.2140001 9.3110398e-39
-0.0910381 -0.12560952 1.21 1.0513815e-38
-0.088440008 -0.1251943 1.2060001 1.1804554e-38
-0.08614286 -0.1251943 1.2060001 1.1712448e-38
-0.083220005 -0.12426001 1.197 1.1804643e-38
-0.080940001 -0.12426001 1.197 1.2081555e-38
-0.078660004 -0.12426001 1.197 1.4570837e-38
-0.076380007 -0.12426001 1.197 1.530338e-38
-0.074100003 -0.12426001 1.197 1.382825e-38
-0.07158 -0.12384477 1.1930001 1.4843822e-38
-0.069307618 -0.12384477 1.1930001 1.6503343e-38
-0.067035235 -0.12384477 1.1930001 1.2639459e-38
-0.064762861 -0.12384477 1.1930001 8.1218726e-39
-0.062490482 -0.12384477 1.1930001 5.5543744e-39
-0.0602181 -0.12384477 1.1930001 7.4904826e-39
-0.057945717 -0.12384477 1.1930001 1.2635846e-38
-0.055673338 -0.12384477 1.1930001 1.6323671e-38
-0.053400956 -0.12384477 1.1930001 1.6318624e-38
-0.051128577 -0.12384477 1.1930001 1.5396667e-38
-0.048856195 -0.12384477 1.1930001 1.5581793e-38
-0.046583813 -0.12384477 1.1930001 1.5397402e-38
-0.044460002 -0.12426001 1.197 1.3001016e-38
-0.042180002 -0.12426001 1.197 1.143369e-38
-0.039900001 -0.12426001 1.197 1.235459e-38
-0.037620001 -0.12426001 1.197 1.5120459e-38
-0.03534 -0.12426001 1.197 1.2266338e-38
-0.033198096 -0.12477905 1.202 6.5502085e-39
-0.031011432 -0.1251943 1.2060001 8.5799571e-39
-0.028809523 -0.12560952 1.21 1.2913152e-38
-0.026592383 -0.12602477 1.2140001 1.2079034e-38
-0.02428 -0.12602477 1.2140001 7.1004704e-39
-0.021967622 -0.12602477 1.2140001 1.0969816e-38
-0.019655241 -0.12602477 1.2140001 1.5856184e-38
-0.017342858 -0.12602477 1.2140001 1.6313932e-38
-0.015092382 -0.12654382 1.2190001 1.5852954e-38
-0.10133429 -0.12462953 1.223 1.6961478e-38
-0.098276198 -0.12371239 1.2140001 1.0784371e-38
-0.095963813 -0.12371239 1.2140001 8.6699737e-39
-0.093651436 -0.12371239 1.2140001 6.7338655e-39
-0.0910381 -0.12330476 1.21 5.9991255e-39
-0.088440008 -0.12289715 1.2060001 7.9352337e-39
-0.08614286 -0.12289715 1.2060001 1.1987921e-38
-0.083220005 -0.12198001 1.197 1.3278659e-38
-0.080940001 -0.12198001 1.197 1.4011938e-38
-0.078660004 -0.12198001 1.197 1.5948046e-38
-0.076380007 -0.12198001 1.197 1.521156e-38
-0.074100003 -0.12198001 1.197 1.1431539e-38
-0.07158 -0.12157239 1.1930001 1.3179237e-38
-0.069307618 -0.12157239 1.1930001 1.6867062e-38
-0.067035235 -0.12157239 1.1930001 1.6503737e-38
-0.064762861 -0.12157239 1.1930001 1.1340781e-38
-0.062699996 -0.12198001 1.197 8.5853143e-39
-0.060420003 -0.12198001 1.197 1.1074596e-38
-0.058139998 -0.12198001 1.197 1.6314673e-38
-0.055859998 -0.12198001 1.197 1.7421021e-38
-0.053580001 -0.12198001 1.197 1.5583212e-38
-0.0513 -0.12198001 1.197 1.4108082e-38
-0.04902 -0.12198001 1.197 1.5397023e-38
-0.046739999 -0.12198001 1.197 1.6411175e-38
-0.044460002 -0.12198001 1.197 1.5580333e-38
-0.042180002 -0.12198001 1.197 1.521155e-38
-0.039900001 -0.12198001 1.197 1.3925856e-38
-0.037620001 -0.12198001 1.197 1.2266335e-38
-0.035487618 -0.12248952 1.202 9.506214e-39
-0.033198096 -0.12248952 1.202 4.0666718e-39
-0.031011432 -0.12289715 1.2060001 6.7388569e-39
-0.028809523 -0.12330476 1.21 1.1440834e-38
-0.026592383 -0.12371239 1.2140001 1.2354192e-38
-0.02428 -0.12371239 1.2140001 8.850758e-39
-0.021967622 -0.12371239 1.2140001 1.1244244e-38
-0.019655241 -0.12371239 1.2140001 1.6038417e-38
-0.017342858 -0.12371239 1.2140001 1.6037348e-38
-0.098276198 -0.12140001 1.2140001 1.1890715e-38
-0.095963813 -0.12140001 1.2140001 7.5650765e-39
-0.093651436 -0.12140001 1.2140001 4.6148164e-39
-0.0910381 -0.121 1.21 2.5076306e-39
-0.088733338 -0.121 1.21 2.415435e-39
-0.08614286 -0.12060001 1.2060001 6.8314337e-39
-0.083220005 -0.11970001 1.197 1.3100737e-38
-0.080940001 -0.11970001 1.197 1.5026453e-38
-0.078660004 -0.11970001 1.197 1.3366931e-38
-0.076380007 -0.11970001 1.197 1.0783684e-38
-0.074100003 -0.11970001 1.197 8.8475757e-39
-0.071820006 -0.11970001 1.197 8.9411614e-39
-0.069539994 -0.11970001 1.197 1.2444595e-38
-0.067259997 -0.11970001 1.197 1.3644603e-38
-0.06498 -0.11970001 1.197 1.6318276e-38
-0.062699996 -0.11970001 1.197 1.6321475e-38
-0.060420003 -0.11970001 1.197 1.6966845e-38
-0.058139998 -0.11970001 1.197 1.5951289e-38
-0.055859998 -0.11970001 1.197 1.4199572e-38
-0.053580001 -0.11970001 1.197 1.2085546e-38
-0.0513 -0.11970001 1.197 1.1347981e-38
-0.04902 -0.11970001 1.197 1.2361049e-38
-0.046739999 -0.11970001 1.197 1.4112766e-38
-0.044460002 -0.11970001 1.197 1.5673598e-38
-0.042180002 -0.11970001 1.197 1.6964336e-38
-0.039900001 -0.11970001 1.197 1.3925143e-38
-0.037620001 -0.11970001 1.197 8.0246225e-39
-0.035487618 -0.1202 1.202 3.6175879e-39
-0.033198096 -0.1202 1.202 2.6956316e-39
-0.031011432 -0.12060001 1.2060001 6.4637302e-39
-0.028809523 -0.121 1.21 9.506186e-39
-0.026592383 -0.12140001 1.2140001 1.0786876e-38
-0.024380002 -0.12190001 1.2190001 8.9429635e-39
-0.022058096 -0.12190001 1.2190001 1.1154207e-38
-0.019736191 -0.12190001 1.2190001 1.5487401e-38
-0.017414287 -0.12190001 1.2190001 1.5761121e-38
-0.098680958 -0.1195781 1.2190001 1.2719387e-38
-0.095963813 -0.11908762 1.2140001 7.8402187e-39
-0.093651436 -0.11908762 1.2140001 4.3367847e-39
-0.0910381 -0.11869524 1.21 1.2226399e-39
-0.088733338 -0.11869524 1.21 1.1304443e-39
-0.08614286 -0.11830287 1.2060001 3.6121327e-39
-0.08384572 -0.11830287 1.2060001 1.1540957e-38
-0.080940001 -0.11742 1.197 1.4200307e-38
-0.078660004 -0.11742 1.197 1.0881265e-38
-0.076380007 -0.11742 1.197 9.5883301e-39
-0.074100003 -0.11742 1.197 9.3117432e-39
-0.071820006 -0.11742 1.197 8.6692254e-39
-0.069539994 -0.11742 1.197 9.038008e-39
-0.067259997 -0.11742 1.197 1.2535331e-38
-0.06498 -0.11742 1.197 1.7513895e-38
-0.062699996 -0.11742 1.197 1.7884858e-38
-0.060420003 -0.11742 1.197 1.742388e-38
-0.058139998 -0.11742 1.197 1.44812e-38
-0.055859998 -0.11742 1.197 1.1807527e-38
-0.053580001 -0.11742 1.197 1.0708004e-38
-0.0513 -0.11742 1.197 1.0615808e-38
-0.04902 -0.11742 1.197 1.0982783e-38
-0.046739999 -0.11742 1.197 1.1812544e-38
-0.044460002 -0.11742 1.197 1.4753452e-38
-0.042180002 -0.11742 1.197 1.5951995e-38
-0.039900001 -0.11742 1.197 1.3373045e-38
-0.037620001 -0.11742 1.197 5.9973949e-39
-0.035487618 -0.11791047 1.202 2.5159095e-39
-0.033308573 -0.11830287 1.2060001 2.7003007e-39
-0.031114288 -0.11869524 1.21 6.0963952e-39
-0.028809523 -0.11869524 1.21 8.9544597e-39
-0.026701907 -0.1195781 1.2190001 1.0051106e-38
-0.024380002 -0.1195781 1.2190001 9.1291498e-39
-0.022130478 -0.11997048 1.223 1.1705583e-38
-0.019865716 -0.12036287 1.2270001 1.576219e-38
-0.017528573 -0.12036287 1.2270001 1.5577449e-38
-0.098680958 -0.1172562 1.2190001 1.401012e-38
-0.095963813 -0.11677525 1.2140001 8.2086859e-39
-0.093651436 -0.11677525 1.2140001 6.6413602e-39
-0.0910381 -0.11639048 1.21 3.7969345e-39
-0.088733338 -0.11639048 1.21 2.6905869e-39
-0.086428568 -0.11639048 1.21 3.7029536e-39
-0.08384572 -0.11600572 1.2060001 9.4190827e-39
-0.081278101 -0.11562095 1.202 1.2634373e-38
-0.078660004 -0.11514 1.197 8.8543524e-39
-0.076380007 -0.11514 1.197 8.944383e-39
-0.074100003 -0.11514 1.197 9.8663393e-39
-0.071820006 -0.11514 1.197 9.8656386e-39
-0.069539994 -0.11514 1.197 9.3124649e-39
-0.067259997 -0.11514 1.197 9.1273547e-39
-0.06498 -0.11514 1.197 1.429031e-38
-0.062699996 -0.11514 1.197 1.6227122e-38
-0.060420003 -0.11514 1.197 1.5858339e-38
-0.058139998 -0.11514 1.197 1.3835443e-38
-0.055859998 -0.11514 1.197 1.2360313e-38
-0.053580001 -0.11514 1.197 1.135266e-38
-0.0513 -0.11514 1.197 1.135266e-38
-0.04902 -0.11514 1.197 1.1076063e-38
-0.046739999 -0.11514 1.197 1.0891672e-38
-0.044460002 -0.11514 1.197 1.3741086e-38
-0.042180002 -0.11514 1.197 1.4755238e-38
-0.039900001 -0.11514 1.197 1.2729108e-38
-0.037777144 -0.11562095 1.202 5.6300445e-39
-0.035487618 -0.11562095 1.202 1.4121081e-39
-0.033308573 -0.11600572 1.2060001 1.5964993e-39
-0.031114288 -0.11639048 1.21 7.5697204e-39
-0.028904764 -0.11677525 1.2140001 1.1902915e-38
-0.026701907 -0.1172562 1.2190001 1.2539284e-38
-0.024380002 -0.1172562 1.2190001 1.051098e-38
-0.022130478 -0.11764096 1.223 1.1982901e-38
-0.019865716 -0.11802572 1.2270001 1.5578531e-38
-0.096359059 -0.11493429 1.2190001 1.0236233e-38
-0.094037145 -0.11493429 1.2190001 7.9313423e-39
-0.091339052 -0.11446287 1.2140001 5.5421649e-39
-0.088733338 -0.11408571 1.21 3.513861e-39
-0.086428568 -0.11408571 1.21 3.0590163e-39
-0.08384572 -0.11370859 1.2060001 9.4205148e-39
-0.081548579 -0.11370859 1.2060001 1.2175218e-38
-0.079251431 -0.11370859 1.2060001 9.5015449e-39
-0.076954298 -0.11370859 1.2060001 8.4827014e-39
-0.07465715 -0.11370859 1.2060001 9.3124621e-39
-0.072119996 -0.11333143 1.202 9.864917e-39
-0.069539994 -0.11286 1.197 9.5883301e-39
-0.067259997 -0.11286 1.197 8.9443802e-39
-0.06498 -0.11286 1.197 1.4476118e-38
-0.062699996 -0.11286 1.197 1.4754535e-38
-0.060420003 -0.11286 1.197 1.4570144e-38
-0.058139998 -0.11286 1.197 1.2178102e-38
-0.055859998 -0.11286 1.197 1.1901515e-38
-0.053580001 -0.11286 1.197 1.1536688e-38
-0.0513 -0.11286 1.197 1.1352297e-38
-0.04902 -0.11286 1.197 1.0892032e-38
-0.046739999 -0.11286 1.197 1.0799837e-38
-0.044460002 -0.11286 1.197 1.3741086e-38
-0.042180002 -0.11286 1.197 1.493963e-38
-0.040066667 -0.11333143 1.202 1.2269587e-38
-0.037777144 -0.11333143 1.202 4.8017412e-39
-0.035605714 -0.11370859 1.2060001 1.2269559e-39
-0.033419047 -0.11408571 1.21 1.964521e-39
-0.031114288 -0.11408571 1.21 9.04091e-39
-0.028904764 -0.11446287 1.2140001 1.2359953e-38
-0.026701907 -0.11493429 1.2190001 1.30903e-38
-0.024380002 -0.11493429 1.2190001 1.1891756e-38
-0.022202859 -0.11568858 1.2270001 1.2443498e-38
-0.019865716 -0.11568858 1.2270001 1.5209367e-38
-0.09667524 -0.11298191 1.223 1.0234444e-38
-0.094345719 -0.11298191 1.223 9.4968786e-39
-0.09201619 -0.11298191 1.223 6.0953737e-39
-0.089026667 -0.11215048 1.2140001 4.0670698e-39
-0.086714298 -0.11215048 1.2140001 7.0154901e-39
-0.084401913 -0.11215048 1.2140001 1.2823815e-38
-0.08181905 -0.11178096 1.21 1.456726e-38
-0.079514287 -0.11178096 1.21 1.392189e-38
-0.077209525 -0.11178096 1.21 1.1156397e-38
-0.074904762 -0.11178096 1.21 8.6671151e-39
-0.072119996 -0.1110419 1.202 8.4834301e-39
-0.069830477 -0.1110419 1.202 8.6678213e-39
