# .PCD v0.7 - Point Cloud Data file format
VERSION 0.7
FIELDS x y z rgb
SIZE 4 4 4 4
TYPE F F F F
COUNT 1 1 1 1
WIDTH 999
HEIGHT 1
VIEWPOINT 0 0 0 1 0 0 0
POINTS 999
DATA ascii
-0.086480007 0.091386676 0.64400005 8.1218628e-39
-0.085650474 0.09181238 0.64700001 1.0513224e-38
-0.08454857 0.091954283 0.648 1.1527375e-38
-0.083314285 0.091954283 0.648 1.0699387e-38
-0.082333334 0.092238098 0.65000004 4.7066715e-39
-0.081095241 0.092238098 0.65000004 9.4572232e-40
-0.080102861 0.092521906 0.65200001 1.4067005e-39
-0.078860953 0.092521906 0.65200001 7.1962884e-39
-0.078214288 0.093231425 0.65700001 1.0238744e-38
-0.14996572 0.093188569 0.648 6.730281e-39
-0.1485019 0.093044758 0.64700001 7.3756504e-39
-0.14704192 0.092900954 0.64600003 6.4580101e-39
-0.14536001 0.092613339 0.64400005 4.7062931e-39
-0.14368573 0.092325717 0.64200002 3.0514563e-39
-0.14224096 0.092181914 0.64100003 3.5124345e-39
-0.14080001 0.092038102 0.64000005 3.6043232e-39
-0.13914476 0.09175048 0.63800001 9.9658217e-39
-0.13749716 0.091462858 0.63600004 1.097671e-38
-0.13628572 0.091462858 0.63600004 1.0054754e-38
-0.13486192 0.091319054 0.63500005 7.664507e-39
-0.1334419 0.091175236 0.634 6.8347464e-39
-0.13223429 0.091175236 0.634 6.1022274e-39
-0.13061334 0.090887621 0.63200003 6.2866187e-39
-0.12940952 0.090887621 0.63200003 6.4702799e-39
-0.12800287 0.090743817 0.63100004 6.8390624e-39
-0.12680095 0.090743817 0.63100004 7.1149262e-39
-0.12559906 0.090743817 0.63100004 7.2993175e-39
-0.12439714 0.090743817 0.63100004 7.5751827e-39
-0.12319525 0.090743817 0.63100004 7.482987e-39
-0.12199333 0.090743817 0.63100004 7.5748324e-39
-0.12079144 0.090743817 0.63100004 7.5748324e-39
-0.11958953 0.090743817 0.63100004 1.0333842e-38
-0.11838762 0.090743817 0.63100004 1.3560689e-38
-0.11718572 0.090743817 0.63100004 1.3192269e-38
-0.11598381 0.090743817 0.63100004 6.8307709e-39
-0.11478192 0.090743817 0.63100004 1.2270148e-39
-0.11358001 0.090743817 0.63100004 1.9645798e-39
-0.11237811 0.090743817 0.63100004 3.6183432e-39
-0.1111762 0.090743817 0.63100004 3.6183432e-39
-0.11014858 0.090887621 0.63200003 3.4353771e-39
-0.10894477 0.090887621 0.63200003 3.5275727e-39
-0.10774095 0.090887621 0.63200003 3.7112549e-39
-0.10653715 0.090887621 0.63200003 3.7112549e-39
-0.10533334 0.090887621 0.63200003 3.711601e-39
-0.10445905 0.091175236 0.634 3.8037967e-39
-0.10325143 0.091175236 0.634 3.4364589e-39
-0.10204381 0.091175236 0.634 2.0535244e-39
-0.10099524 0.091319054 0.63500005 1.3191992e-39
-0.099785723 0.091319054 0.63500005 6.4821545e-39
-0.098576196 0.091319054 0.63500005 1.2269947e-38
-0.097520001 0.091462858 0.63600004 1.3376295e-38
-0.096308582 0.091462858 0.63600004 1.3557799e-38
-0.095246665 0.091606669 0.63700002 1.0699735e-38
-0.094180949 0.09175048 0.63800001 7.0148679e-39
-0.092965715 0.09175048 0.63800001 5.3553465e-39
-0.092038102 0.092038102 0.64000005 4.98831e-39
-0.090819053 0.092038102 0.64000005 5.7258751e-39
-0.089879997 0.092325717 0.64200002 6.6431651e-39
-0.088657148 0.092325717 0.64200002 5.5368175e-39
-0.087570474 0.092469528 0.64300001 6.4591045e-39
-0.086480007 0.092613339 0.64400005 1.1529864e-38
-0.085650474 0.093044758 0.64700001 1.2448606e-38
-0.08454857 0.093188569 0.648 1.0604693e-38
-0.083314285 0.093188569 0.648 8.0307308e-39
-0.082333334 0.093476199 0.65000004 4.0663187e-39
-0.081344761 0.093763813 0.65200001 1.5903883e-39
-0.080102861 0.093763813 0.65200001 1.405997e-39
-0.079465717 0.094482854 0.65700001 4.436581e-39
-0.078214288 0.094482854 0.65700001 7.7556237e-39
-0.078251429 0.096064761 0.66800004 8.5792284e-39
-0.14996572 0.094422854 0.648 5.9026685e-39
-0.1485019 0.094277143 0.64700001 7.1012117e-39
-0.14726953 0.094277143 0.64700001 7.1023005e-39
-0.14603715 0.094277143 0.64700001 5.0739966e-39
-0.14413334 0.093840003 0.64400005 3.6925069e-39
-0.14268476 0.093694285 0.64300001 4.9832458e-39
-0.14102001 0.093402863 0.64100003 7.3792755e-39
-0.13958097 0.093257144 0.64000005 1.1251492e-38
-0.13771333 0.092820004 0.63700002 1.1529158e-38
-0.13650002 0.092820004 0.63700002 1.0238419e-38
-0.13528667 0.092820004 0.63700002 8.4942579e-39
-0.13407335 0.092820004 0.63700002 7.2957147e-39
-0.13265143 0.092674293 0.63600004 5.734884e-39
-0.13144001 0.092674293 0.63600004 6.0114709e-39
-0.12981905 0.092382856 0.634 6.6546711e-39
-0.12820573 0.092091434 0.63200003 6.8390624e-39
-0.12700191 0.092091434 0.63200003 6.9308951e-39
-0.12579811 0.092091434 0.63200003 7.1152863e-39
-0.12459429 0.092091434 0.63200003 7.482987e-39
-0.12339049 0.092091434 0.63200003 7.6673783e-39
-0.12218667 0.092091434 0.63200003 6.840147e-39
-0.12098286 0.092091434 0.63200003 6.7479514e-39
-0.11977905 0.092091434 0.63200003 8.9548703e-39
-0.11838762 0.091945723 0.63100004 1.2642696e-38
-0.11718572 0.091945723 0.63100004 1.2548708e-38
-0.11598381 0.091945723 0.63100004 7.477948e-39
-0.11478192 0.091945723 0.63100004 2.328703e-39
-0.11358001 0.091945723 0.63100004 2.5130943e-39
-0.1125562 0.092091434 0.63200003 2.9754835e-39
-0.11135238 0.092091434 0.63200003 3.344266e-39
-0.11014858 0.092091434 0.63200003 3.4364589e-39
-0.10894477 0.092091434 0.63200003 3.3442632e-39
-0.10808191 0.092382856 0.634 3.3439115e-39
-0.10687429 0.092382856 0.634 3.4361071e-39
-0.10566666 0.092382856 0.634 3.7112479e-39
-0.10445905 0.092382856 0.634 3.5268566e-39
-0.10341429 0.092528574 0.63500005 2.5163046e-39
-0.10220477 0.092528574 0.63500005 1.5021527e-39
-0.10115429 0.092674293 0.63600004 1.8709422e-39
-0.099942856 0.092674293 0.63600004 8.5090276e-39
-0.098886669 0.092820004 0.63700002 1.2639108e-38
-0.097673342 0.092820004 0.63700002 1.2823499e-38
-0.096611425 0.092965715 0.63800001 1.3189755e-38
-0.095396191 0.092965715 0.63800001 1.1806821e-38
-0.094180949 0.092965715 0.63800001 1.0609023e-38
-0.093257144 0.093257144 0.64000005 7.8431544e-39
-0.092038102 0.093257144 0.64000005 6.0021285e-39
-0.090960957 0.093402863 0.64100003 5.5411503e-39
-0.089879997 0.093548574 0.64200002 5.8151896e-39
-0.088795237 0.093694285 0.64300001 5.5386028e-39
-0.087706678 0.093840003 0.64400005 7.196692e-39
-0.086748578 0.094131432 0.64600003 1.1990865e-38
-0.085782856 0.094422854 0.648 1.2727354e-38
-0.08454857 0.094422854 0.648 7.5643983e-39
-0.083442859 0.094568573 0.64900005 5.083007e-39
-0.082333334 0.094714291 0.65000004 3.8844638e-39
-0.081344761 0.095005721 0.65200001 2.4187098e-39
-0.080348574 0.095297143 0.65400004 1.9577317e-39
-0.079223812 0.095442861 0.65500003 2.2321451e-39
-0.079523817 0.097337149 0.66800004 5.9199703e-39
-0.078251429 0.097337149 0.66800004 8.2115473e-39
-0.07628762 0.096462868 0.66200006 6.2754391e-39
-0.14996572 0.095657147 0.648 5.8094191e-39
-0.1485019 0.095509529 0.64700001 7.5611361e-39
-0.14726953 0.095509529 0.64700001 7.0101077e-39
-0.14603715 0.095509529 0.64700001 5.8115645e-39
-0.14458096 0.095361911 0.64600003 5.9963383e-39
-0.14268476 0.094919048 0.64300001 9.7763591e-39
-0.14124 0.09477143 0.64200002 1.1249682e-38
-0.13979904 0.094623812 0.64100003 1.1895051e-38
-0.13792953 0.094180949 0.63800001 1.1068873e-38
-0.13671429 0.094180949 0.63800001 1.0146917e-38
-0.13549905 0.094180949 0.63800001 9.3207788e-39
-0.13407335 0.094033331 0.63700002 9.1363875e-39
-0.13286 0.094033331 0.63700002 7.4815605e-39
-0.13144001 0.09388572 0.63600004 6.6517999e-39
-0.12981905 0.093590476 0.634 6.5624811e-39
-0.12861143 0.093590476 0.634 6.7468724e-39
-0.12700191 0.093295246 0.63200003 6.6546739e-39
-0.12579811 0.093295246 0.63200003 6.9312608e-39
-0.12459429 0.093295246 0.63200003 7.3907942e-39
-0.12339049 0.093295246 0.63200003 7.1142073e-39
-0.12218667 0.093295246 0.63200003 6.5628384e-39
-0.12098286 0.093295246 0.63200003 7.9457729e-39
-0.11977905 0.093295246 0.63200003 9.6906697e-39
-0.11857525 0.093295246 0.63200003 1.2548734e-38
-0.11737143 0.093295246 0.63200003 1.3098995e-38
-0.11616762 0.093295246 0.63200003 1.1439473e-38
-0.11496381 0.093295246 0.63200003 5.092086e-39
-0.11376 0.093295246 0.63200003 2.3262171e-39
-0.1125562 0.093295246 0.63200003 1.1355324e-39
-0.11135238 0.093295246 0.63200003 2.24188e-39
-0.11049715 0.093590476 0.634 3.0680435e-39
-0.10928952 0.093590476 0.634 3.3446304e-39
-0.10808191 0.093590476 0.634 3.7112479e-39
-0.10704286 0.093738101 0.63500005 3.7112479e-39
-0.10583334 0.093738101 0.63500005 3.4350281e-39
-0.10462382 0.093738101 0.63500005 2.6974631e-39
-0.10341429 0.093738101 0.63500005 1.5947183e-39
-0.10220477 0.093738101 0.63500005 4.0840003e-39
-0.10115429 0.09388572 0.63600004 7.9414807e-39
-0.1001 0.094033331 0.63700002 1.1905893e-38
-0.098886669 0.094033331 0.63700002 1.3006443e-38
-0.097673342 0.094033331 0.63700002 1.1715704e-38
-0.096611425 0.094180949 0.63800001 1.2636935e-38
-0.095695242 0.094476193 0.64000005 1.3190109e-38
-0.094476193 0.094476193 0.64000005 1.3004664e-38
-0.093257144 0.094476193 0.64000005 1.2820272e-38
-0.092181914 0.094623812 0.64100003 1.1991225e-38
-0.091102861 0.09477143 0.64200002 8.8565734e-39
-0.090020001 0.094919048 0.64300001 7.3839349e-39
-0.088795237 0.094919048 0.64300001 7.4761305e-39
-0.087706678 0.095066674 0.64400005 8.6711326e-39
-0.086882859 0.095509529 0.64700001 1.2082371e-38
-0.085782856 0.095657147 0.648 1.1716032e-38
-0.084679052 0.095804766 0.64900005 4.8935556e-39
-0.083442859 0.095804766 0.64900005 1.2219687e-39
-0.082586668 0.096247621 0.65200001 2.0517294e-39
-0.081469528 0.096395247 0.65300006 2.694575e-39
-0.080348574 0.096542865 0.65400004 1.95701e-39
-0.079223812 0.096690476 0.65500003 2.9668389e-39
-0.079047628 0.098019049 0.66400003 6.931251e-39
-0.077548578 0.097723819 0.66200006 8.5810529e-39
-0.07628762 0.097723819 0.66200006 6.3683578e-39
-0.14996572 0.096891426 0.648 7.4685775e-39
-0.1485019 0.096741907 0.64700001 7.9295556e-39
-0.14726953 0.096741907 0.64700001 7.104827e-39
-0.14603715 0.096741907 0.64700001 6.2750664e-39
-0.14458096 0.096592382 0.64600003 6.6445692e-39
-0.14290668 0.096293338 0.64400005 1.0240199e-38
-0.14146 0.096143812 0.64300001 1.1434807e-38
-0.13979904 0.095844768 0.64100003 1.0697242e-38
-0.13792953 0.095396191 0.63800001 9.594479e-39
-0.13671429 0.095396191 0.63800001 9.5022834e-39
-0.13549905 0.095396191 0.63800001 9.5966174e-39
-0.13428381 0.095396191 0.63800001 9.9653999e-39
-0.13286 0.095246665 0.63700002 8.5864661e-39
-0.13164666 0.095246665 0.63700002 7.2035317e-39
-0.13002382 0.094947629 0.63500005 5.9185592e-39
-0.12881429 0.094947629 0.63500005 6.2873417e-39
-0.12740381 0.094798096 0.634 6.8390554e-39
-0.12619619 0.094798096 0.634 6.931251e-39
-0.12498858 0.094798096 0.634 6.931251e-39
-0.12378095 0.094798096 0.634 6.6546641e-39
-0.12257333 0.094798096 0.634 6.8383463e-39
-0.12136571 0.094798096 0.634 9.3276283e-39
-0.12015809 0.094798096 0.634 1.1991591e-38
-0.11895048 0.094798096 0.634 1.3005743e-38
-0.11774285 0.094798096 0.634 1.3190109e-38
-0.11616762 0.094499052 0.63200003 1.2544739e-38
-0.11496381 0.094499052 0.63200003 9.8775889e-39
-0.11376 0.094499052 0.63200003 5.2678074e-39
-0.11291238 0.094798096 0.634 1.1362835e-39
-0.11170476 0.094798096 0.634 1.5972616e-39
-0.11049715 0.094798096 0.634 2.6067094e-39
-0.10928952 0.094798096 0.634 3.0676876e-39
-0.10808191 0.094798096 0.634 3.5272266e-39
-0.10704286 0.094947629 0.63500005 3.2506397e-39
-0.10583334 0.094947629 0.63500005 2.698905e-39
-0.10462382 0.094947629 0.63500005 1.8691444e-39
-0.10341429 0.094947629 0.63500005 2.0535412e-39
-0.10236572 0.095097147 0.63600004 6.6633227e-39
-0.10115429 0.095097147 0.63600004 1.1623171e-38
-0.1001 0.095246665 0.63700002 1.3282692e-38
-0.098886669 0.095246665 0.63700002 1.2823497e-38
-0.097673342 0.095246665 0.63700002 9.9654321e-39
-0.096914291 0.095695242 0.64000005 1.0333492e-38
-0.095695242 0.095695242 0.64000005 1.1900817e-38
-0.094623812 0.095844768 0.64100003 1.3280865e-38
-0.093402863 0.095844768 0.64100003 1.3188669e-38
-0.092181914 0.095844768 0.64100003 1.2819916e-38
-0.091244757 0.096143812 0.64300001 1.0330634e-38
-0.090020001 0.096143812 0.64300001 8.1218755e-39
-0.088795237 0.096143812 0.64300001 8.8594405e-39
-0.087706678 0.096293338 0.64400005 1.1342258e-38
-0.086882859 0.096741907 0.64700001 1.1065671e-38
-0.085782856 0.096891426 0.648 9.5029966e-39
-0.084679052 0.097040959 0.64900005 4.432237e-39
-0.083442859 0.097040959 0.64900005 1.3145287e-39
-0.082586668 0.097489521 0.65200001 2.0520937e-39
-0.081594288 0.09778858 0.65400004 2.5101894e-39
-0.080471434 0.097938098 0.65500003 1.7726243e-39
-0.080312386 0.099283814 0.66400003 2.9668389e-39
-0.079047628 0.099283814 0.66400003 7.3922292e-39
-0.077548578 0.098984763 0.66200006 9.6866844e-39
-0.07628762 0.098984763 0.66200006 7.9349675e-39
-0.14996572 0.098125711 0.648 9.2206742e-39
-0.14873143 0.098125711 0.648 8.5753048e-39
-0.14749713 0.098125711 0.648 7.0130112e-39
-0.14603715 0.097974285 0.64700001 6.3676418e-39
-0.14480476 0.097974285 0.64700001 7.472525e-39
-0.14335048 0.09782286 0.64600003 1.0791568e-38
-0.14146 0.097368568 0.64300001 1.0698306e-38
-0.14001715 0.097217143 0.64200002 7.8402411e-39
-0.13836192 0.096914291 0.64000005 3.4267619e-39
-0.13714287 0.096914291 0.64000005 2.6891969e-39
-0.13592382 0.096914291 0.64000005 5.4499916e-39
-0.13428381 0.096611425 0.63800001 1.0612947e-38
-0.13306858 0.096611425 0.63800001 1.1346546e-38
-0.13164666 0.096460007 0.63700002 9.8714162e-39
-0.13022858 0.096308582 0.63600004 7.9425387e-39
-0.12881429 0.096157156 0.63500005 6.9283867e-39
-0.12760478 0.096157156 0.63500005 5.9192669e-39
-0.12639524 0.096157156 0.63500005 6.1036581e-39
-0.12498858 0.096005715 0.634 6.9298133e-39
-0.12378095 0.096005715 0.634 8.1283565e-39
-0.12257333 0.096005715 0.634 9.7832115e-39
-0.12136571 0.096005715 0.634 1.1811515e-38
-0.12015809 0.096005715 0.634 1.3188326e-38
-0.11895048 0.096005715 0.634 1.2450761e-38
-0.11774285 0.096005715 0.634 1.3096111e-38
-0.11653524 0.096005715 0.634 1.3833676e-38
-0.11532762 0.096005715 0.634 1.2545857e-38
-0.11412 0.096005715 0.634 1.1623901e-38
-0.11309049 0.096157156 0.63500005 8.1298278e-39
-0.11188096 0.096157156 0.63500005 4.8107851e-39
-0.11067144 0.096157156 0.63500005 1.2281064e-39
-0.10946192 0.096157156 0.63500005 1.2281064e-39
-0.10825239 0.096157156 0.63500005 1.5046933e-39
-0.10704286 0.096157156 0.63500005 1.1359108e-39
-0.106 0.096308582 0.63600004 1.5021667e-39
-0.10478858 0.096308582 0.63600004 3.8992531e-39
-0.10357714 0.096308582 0.63600004 9.0463625e-39
-0.10236572 0.096308582 0.63600004 1.2549796e-38
-0.10131334 0.096460007 0.63700002 1.3374866e-38
-0.10025714 0.096611425 0.63800001 1.2637301e-38
-0.099041909 0.096611425 0.63800001 1.0704802e-38
-0.097826667 0.096611425 0.63800001 8.1233244e-39
-0.097065717 0.097065717 0.64100003 7.7584977e-39
-0.095994294 0.097217143 0.64200002 8.2194759e-39
-0.09477143 0.097217143 0.64200002 9.9661258e-39
-0.093548574 0.097217143 0.64200002 1.134906e-38
-0.092325717 0.097217143 0.64200002 1.245219e-38
-0.091244757 0.097368568 0.64300001 1.2728777e-38
-0.090020001 0.097368568 0.64300001 1.2451467e-38
-0.088933334 0.097520009 0.64400005 1.2635859e-38
-0.087706678 0.097520009 0.64400005 1.2359272e-38
-0.087017149 0.098125711 0.648 8.7636421e-39
-0.085915245 0.098277152 0.64900005 4.5352184e-39
-0.084809527 0.098428577 0.65000004 2.8756971e-39
-0.083571434 0.098428577 0.65000004 2.1428572e-39
-0.082713336 0.098882869 0.65300006 2.3272485e-39
-0.081968568 0.099488571 0.65700001 2.3261583e-39
-0.081208572 0.10009428 0.66100001 1.404202e-39
-0.080312386 0.10054857 0.66400003 3.6114768e-39
-0.079047628 0.10054857 0.66400003 8.4056496e-39
-0.077665716 0.10039715 0.66300005 1.0698315e-38
-0.076402865 0.10039715 0.66300005 9.4997722e-39
-0.14996572 0.099360004 0.648 9.2253433e-39
-0.14873143 0.099360004 0.648 8.4877783e-39
-0.14749713 0.099360004 0.648 6.2783258e-39
-0.14626285 0.099360004 0.648 5.8173476e-39
-0.14480476 0.099206664 0.64700001 8.1164552e-39
-0.14357239 0.099206664 0.64700001 1.0697933e-38
-0.14212 0.099053338 0.64600003 9.1356518e-39
-0.14023523 0.098593332 0.64300001 4.5258703e-39
-0.13836192 0.09813334 0.64000005 1.3130783e-39
-0.13714287 0.09813334 0.64000005 9.442958e-40
-0.13592382 0.09813334 0.64000005 4.7141866e-39
-0.13470477 0.09813334 0.64000005 9.4161638e-39
-0.13306858 0.097826667 0.63800001 1.1622044e-38
-0.13185333 0.097826667 0.63800001 1.1161066e-38
-0.13022858 0.097520001 0.63600004 8.8623482e-39
-0.12901714 0.097520001 0.63600004 7.0184356e-39
-0.12760478 0.097366676 0.63500005 5.9185382e-39
-0.12639524 0.097366676 0.63500005 6.0107338e-39
-0.12518571 0.097366676 0.63500005 6.8383337e-39
-0.12397619 0.097366676 0.63500005 9.1432244e-39
-0.12276668 0.097366676 0.63500005 1.1531326e-38
-0.12155715 0.097366676 0.63500005 1.2637673e-38
-0.12034763 0.097366676 0.63500005 1.3556395e-38
-0.1191381 0.097366676 0.63500005 1.1251505e-38
-0.11792858 0.097366676 0.63500005 1.0699009e-38
-0.11671905 0.097366676 0.63500005 1.2635117e-38
-0.11550953 0.097366676 0.63500005 1.3649297e-38
-0.11430001 0.097366676 0.63500005 1.3464906e-38
-0.11309049 0.097366676 0.63500005 1.1718971e-38
-0.11188096 0.097366676 0.63500005 9.1374931e-39
-0.11067144 0.097366676 0.63500005 2.7032561e-39
-0.10946192 0.097366676 0.63500005 9.5153911e-40
-0.10842287 0.097520001 0.63600004 1.2266644e-39
-0.10721143 0.097520001 0.63600004 8.5788193e-40
-0.106 0.097520001 0.63600004 1.5932792e-39
-0.10478858 0.097520001 0.63600004 6.6640388e-39
-0.10374 0.097673342 0.63700002 1.1808648e-38
-0.10252667 0.097673342 0.63700002 1.3283778e-38
-0.10131334 0.097673342 0.63700002 1.3558553e-38
-0.10025714 0.097826667 0.63800001 1.1345858e-38
-0.099041909 0.097826667 0.63800001 8.7726497e-39
-0.09813334 0.09813334 0.64000005 7.4819109e-39
-0.097065717 0.098286666 0.64100003 7.0238194e-39
-0.095994294 0.098439999 0.64200002 7.0238194e-39
-0.09477143 0.098439999 0.64200002 8.2183843e-39
-0.093548574 0.098439999 0.64200002 9.3247318e-39
-0.092469528 0.098593332 0.64300001 1.1530234e-38
-0.091244757 0.098593332 0.64300001 1.2359995e-38
-0.090160005 0.098746672 0.64400005 1.2912083e-38
-0.088933334 0.098746672 0.64400005 1.3280865e-38
-0.088251427 0.099360004 0.648 1.1807913e-38
-0.087151438 0.099513337 0.64900005 5.4464141e-39
-0.085915245 0.099513337 0.64900005 3.059745e-39
-0.084809527 0.099666677 0.65000004 3.1519406e-39
-0.083828576 0.099973336 0.65200001 2.5112684e-39
-0.082840003 0.10028 0.65400004 2.4190727e-39
-0.081968568 0.10074 0.65700001 1.682944e-39
-0.081454292 0.10166001 0.66300005 1.2219659e-39
-0.080312386 0.10181334 0.66400003 5.5422097e-39
-0.079047628 0.10181334 0.66400003 8.953448e-39
-0.077782862 0.10181334 0.66400003 1.0329526e-38
-0.14896096 0.10074953 0.64900005 9.2224342e-39
-0.14772476 0.10074953 0.64900005 7.4739823e-39
-0.14626285 0.10059428 0.648 4.800309e-39
-0.14502856 0.10059428 0.648 7.1048214e-39
-0.14357239 0.10043905 0.64700001 8.3955603e-39
-0.14234 0.10043905 0.64700001 7.3838914e-39
-0.14045334 0.099973343 0.64400005 3.4194793e-39
-0.13879429 0.099662863 0.64200002 1.2205296e-39
-0.13757142 0.099662863 0.64200002 1.3127252e-39
-0.1361362 0.099507622 0.64100003 2.6909625e-39
-0.13470477 0.09935239 0.64000005 4.3504838e-39
-0.13348572 0.09935239 0.64000005 8.7668259e-39
-0.13226667 0.09935239 0.64000005 1.1532695e-38
-0.13063809 0.099041909 0.63800001 1.1069987e-38
-0.12921999 0.098886669 0.63700002 9.4104661e-39
-0.12800667 0.098886669 0.63700002 7.9425163e-39
-0.12659429 0.098731436 0.63600004 8.1269075e-39
-0.12538287 0.098731436 0.63600004 1.0242725e-38
-0.12417143 0.098731436 0.63600004 1.2639812e-38
-0.12296 0.098731436 0.63600004 1.3373414e-38
-0.12155715 0.098576196 0.63500005 1.3004631e-38
-0.12034763 0.098576196 0.63500005 1.2173814e-38
-0.1191381 0.098576196 0.63500005 7.4718369e-39
-0.11792858 0.098576196 0.63500005 5.725124e-39
-0.11671905 0.098576196 0.63500005 7.7534278e-39
-0.11550953 0.098576196 0.63500005 1.0791215e-38
-0.11430001 0.098576196 0.63500005 1.3464888e-38
-0.11309049 0.098576196 0.63500005 1.3649307e-38
-0.11188096 0.098576196 0.63500005 1.3925894e-38
-0.11084572 0.098731436 0.63600004 1.1627135e-38
-0.10963429 0.098731436 0.63600004 8.6768751e-39
-0.10842287 0.098731436 0.63600004 2.3330344e-39
-0.10721143 0.098731436 0.63600004 1.5954694e-39
-0.106 0.098731436 0.63600004 4.5370975e-39
-0.10495333 0.098886669 0.63700002 1.0622009e-38
-0.10374 0.098886669 0.63700002 1.3373806e-38
-0.10252667 0.098886669 0.63700002 1.2912828e-38
-0.10147239 0.099041909 0.63800001 1.1717518e-38
-0.10025714 0.099041909 0.63800001 8.9516487e-39
-0.09935239 0.09935239 0.64000005 7.2082008e-39
-0.09813334 0.09935239 0.64000005 7.3003965e-39
-0.097065717 0.099507622 0.64100003 7.5759114e-39
-0.095994294 0.099662863 0.64200002 7.5759114e-39
-0.09477143 0.099662863 0.64200002 7.5748324e-39
-0.093548574 0.099662863 0.64200002 7.2060498e-39
-0.092469528 0.099818096 0.64300001 7.9400149e-39
-0.091386676 0.099973343 0.64400005 9.1385581e-39
-0.090160005 0.099973343 0.64400005 1.2083023e-38
-0.088933334 0.099973343 0.64400005 1.318937e-38
-0.088251427 0.10059428 0.648 1.1530234e-38
-0.087151438 0.10074953 0.64900005 4.7077575e-39
-0.086047627 0.10090476 0.65000004 1.4063712e-39
-0.084809527 0.10090476 0.65000004 2.1439362e-39
-0.083828576 0.10121524 0.65200001 2.603464e-39
-0.082840003 0.10152572 0.65400004 2.2346815e-39
-0.081968568 0.10199143 0.65700001 2.1428362e-39
-0.081208572 0.10261238 0.66100001 3.9867488e-39
-0.080191433 0.10292286 0.66300005 7.4758166e-39
-0.078928575 0.10292286 0.66300005 8.7665554e-39
-0.077782862 0.1030781 0.66400003 9.1334812e-39
-0.14896096 0.10198572 0.64900005 9.8671002e-39
-0.14749713 0.10182857 0.648 7.8427718e-39
-0.14626285 0.10182857 0.648 5.3534898e-39
-0.14502856 0.10182857 0.648 5.0815623e-39
-0.14379428 0.10182857 0.648 6.3723011e-39
-0.14234 0.10167143 0.64700001 5.6350864e-39
-0.14088953 0.10151429 0.64600003 3.238e-39
-0.13879429 0.10088571 0.64200002 2.2310661e-39
-0.13757142 0.10088571 0.64200002 2.5998487e-39
-0.13634858 0.10088571 0.64200002 1.4978199e-39
-0.13491525 0.10072858 0.64100003 1.6822112e-39
-0.13369429 0.10072858 0.64100003 5.3599064e-39
-0.13226667 0.10057143 0.64000005 9.3243185e-39
-0.13063809 0.10025714 0.63800001 1.2357461e-38
-0.12942286 0.10025714 0.63800001 1.0882331e-38
-0.12800667 0.1001 0.63700002 9.4122611e-39
-0.12679334 0.1001 0.63700002 1.0057631e-38
-0.12558001 0.1001 0.63700002 1.1991215e-38
-0.12436667 0.1001 0.63700002 1.3189758e-38
-0.12296 0.099942856 0.63600004 1.3740408e-38
-0.12174857 0.099942856 0.63600004 1.2634061e-38
-0.12053715 0.099942856 0.63600004 9.9632741e-39
-0.11932572 0.099942856 0.63600004 5.8144708e-39
-0.11811429 0.099942856 0.63600004 5.2634326e-39
-0.11671905 0.099785723 0.63500005 6.1853889e-39
-0.11550953 0.099785723 0.63500005 9.405036e-39
-0.11448001 0.099942856 0.63600004 1.2539687e-38
-0.11326858 0.099942856 0.63600004 1.4107373e-38
-0.11205714 0.099942856 0.63600004 1.4568351e-38
-0.11084572 0.099942856 0.63600004 1.3650396e-38
-0.10963429 0.099942856 0.63600004 1.1437701e-38
-0.10842287 0.099942856 0.63600004 7.5769833e-39
-0.10721143 0.099942856 0.63600004 6.8394183e-39
-0.10616667 0.1001 0.63700002 9.2321887e-39
-0.10495333 0.1001 0.63700002 1.236684e-38
-0.10390285 0.10025714 0.63800001 1.346744e-38
-0.10268762 0.10025714 0.63800001 1.1623527e-38
-0.10147239 0.10025714 0.63800001 9.5087826e-39
-0.10057143 0.10057143 0.64000005 7.7570656e-39
-0.09935239 0.10057143 0.64000005 7.3000405e-39
-0.09813334 0.10057143 0.64000005 7.668823e-39
-0.097217143 0.10088571 0.64200002 7.9436149e-39
-0.096143812 0.10104286 0.64300001 7.8514192e-39
-0.094919048 0.10104286 0.64300001 7.5755512e-39
-0.093694285 0.10104286 0.64300001 7.2989643e-39
-0.092469528 0.10104286 0.64300001 7.2056841e-39
-0.091386676 0.10120001 0.64400005 7.2978797e-39
-0.090160005 0.10120001 0.64400005 1.0884865e-38
-0.089485712 0.10182857 0.648 1.2820973e-38
-0.088251427 0.10182857 0.648 1.079448e-38
-0.087151438 0.10198572 0.64900005 4.6173723e-39
-0.086047627 0.10214286 0.65000004 1.2223288e-39
-0.085070483 0.10245714 0.65200001 2.2364808e-39
-0.083957151 0.10261429 0.65300006 2.7871364e-39
-0.08296667 0.10292857 0.65500003 2.141767e-39
-0.081968568 0.10324285 0.65700001 2.6016563e-39
-0.081208572 0.10387143 0.66100001 6.2894815e-39
-0.080070481 0.10402858 0.66200006 8.4910447e-39
-0.078928575 0.10418572 0.66300005 7.2925015e-39
-0.077782862 0.10434286 0.66400003 7.6587239e-39
-0.14749713 0.10306286 0.648 8.8561881e-39
-0.14626285 0.10306286 0.648 5.629341e-39
-0.14502856 0.10306286 0.648 5.1723159e-39
-0.14379428 0.10306286 0.648 6.4630548e-39
-0.14256001 0.10306286 0.648 5.9095279e-39
-0.14110763 0.10290381 0.64700001 3.5124415e-39
-0.13901047 0.10226762 0.64300001 1.6804035e-39
-0.13778572 0.10226762 0.64300001 2.2335773e-39
-0.13634858 0.10210858 0.64200002 1.9573659e-39
-0.13512571 0.10210858 0.64200002 1.680779e-39
-0.13369429 0.10194953 0.64100003 3.5206881e-39
-0.13226667 0.10179048 0.64000005 4.8114269e-39
-0.13104762 0.10179048 0.64000005 8.767207e-39
-0.12942286 0.10147239 0.63800001 1.144088e-38
-0.12820761 0.10147239 0.63800001 1.2358202e-38
-0.12699237 0.10147239 0.63800001 1.2911376e-38
-0.12577716 0.10147239 0.63800001 1.3095402e-38
-0.12436667 0.10131334 0.63700002 1.2357837e-38
-0.12315334 0.10131334 0.63700002 1.0698321e-38
-0.12194 0.10131334 0.63700002 7.0104958e-39
-0.12072667 0.10131334 0.63700002 5.6325808e-39
-0.11932572 0.10115429 0.63600004 5.9091677e-39
-0.11811429 0.10115429 0.63600004 6.7364299e-39
-0.11690287 0.10115429 0.63600004 6.6442342e-39
-0.11569143 0.10115429 0.63600004 7.1948843e-39
-0.11448001 0.10115429 0.63600004 7.4714712e-39
-0.11326858 0.10115429 0.63600004 9.3163899e-39
-0.11205714 0.10115429 0.63600004 1.226665e-38
-0.11084572 0.10115429 0.63600004 1.3187247e-38
-0.10963429 0.10115429 0.63600004 1.4017008e-38
-0.10842287 0.10115429 0.63600004 1.2731288e-38
-0.10738 0.10131334 0.63700002 1.2454702e-38
-0.10616667 0.10131334 0.63700002 1.2638745e-38
-0.1051181 0.10147239 0.63800001 1.2915332e-38
-0.10390285 0.10147239 0.63800001 1.1901909e-38
-0.10268762 0.10147239 0.63800001 8.8594531e-39
-0.10147239 0.10147239 0.63800001 7.2074848e-39
-0.10057143 0.10179048 0.64000005 7.4840717e-39
-0.09935239 0.10179048 0.64000005 7.7606585e-39
-0.098286666 0.10194953 0.64100003 7.7606585e-39
-0.097217143 0.10210858 0.64200002 7.668107e-39
-0.096143812 0.10226762 0.64300001 7.5759114e-39
-0.094919048 0.10226762 0.64300001 7.6677469e-39
-0.093694285 0.10226762 0.64300001 7.6677469e-39
-0.092469528 0.10226762 0.64300001 7.5748352e-39
-0.091670483 0.10274477 0.64600003 7.0216614e-39
-0.090440005 0.10274477 0.64600003 1.0241296e-38
-0.089485712 0.10306286 0.648 1.2546187e-38
-0.088387623 0.10322192 0.64900005 1.1162899e-38
-0.087285712 0.10338096 0.65000004 4.709205e-39
-0.086312376 0.10369905 0.65200001 8.5391625e-40
-0.085070483 0.10369905 0.65200001 1.5914813e-39
-0.083957151 0.10385811 0.65300006 2.418721e-39
-0.08296667 0.10417619 0.65500003 1.7733516e-39
-0.082218096 0.10481239 0.65900004 3.7029536e-39
-0.081208572 0.10513048 0.66100001 8.2205395e-39
-0.080070481 0.10528953 0.66200006 9.68669e-39
-0.078928575 0.10544858 0.66300005 7.3817993e-39
-0.077782862 0.10560763 0.66400003 7.1063012e-39
-0.14648859 0.1044581 0.64900005 6.2736314e-39
-0.14525239 0.1044581 0.64900005 6.5494897e-39
-0.14379428 0.10429715 0.648 7.5636416e-39
-0.14256001 0.10429715 0.648 5.5414866e-39
-0.14110763 0.10413619 0.64700001 3.2365959e-39
-0.13965906 0.10397524 0.64600003 1.3130783e-39
-0.13778572 0.10349238 0.64300001 1.5896652e-39
-0.13634858 0.10333143 0.64200002 2.1417572e-39
-0.13512571 0.10333143 0.64200002 2.4183441e-39
-0.13369429 0.10317048 0.64100003 1.2230253e-39
-0.13226667 0.10300954 0.64000005 1.1308296e-39
-0.13104762 0.10300954 0.64000005 5.6357898e-39
-0.12982857 0.10300954 0.64000005 9.7845932e-39
-0.12820761 0.10268762 0.63800001 1.2725893e-38
-0.12699237 0.10268762 0.63800001 1.3555654e-38
-0.12577716 0.10268762 0.63800001 1.3279793e-38
-0.12456191 0.10268762 0.63800001 1.0698315e-38
-0.12334667 0.10268762 0.63800001 8.9480362e-39
-0.12213144 0.10268762 0.63800001 6.2743629e-39
-0.12072667 0.10252667 0.63700002 6.0914108e-39
-0.11951334 0.10252667 0.63700002 6.9211715e-39
-0.11830001 0.10252667 0.63700002 7.6558624e-39
-0.11708666 0.10252667 0.63700002 7.5636668e-39
-0.11587334 0.10252667 0.63700002 7.1041208e-39
-0.11466 0.10252667 0.63700002 6.4587514e-39
-0.11344667 0.10252667 0.63700002 7.2873798e-39
-0.11223333 0.10252667 0.63700002 9.4078793e-39
-0.11102001 0.10252667 0.63700002 1.2261653e-38
-0.10997905 0.10268762 0.63800001 1.3736783e-38
-0.10876381 0.10268762 0.63800001 1.4109547e-38
-0.10754857 0.10268762 0.63800001 1.4109547e-38
-0.10633333 0.10268762 0.63800001 1.3650749e-38
-0.1051181 0.10268762 0.63800001 1.2636597e-38
-0.10390285 0.10268762 0.63800001 1.0336738e-38
-0.10268762 0.10268762 0.63800001 7.939652e-39
-0.10179048 0.10300954 0.64000005 6.7486716e-39
-0.10057143 0.10300954 0.64000005 7.2096498e-39
-0.09935239 0.10300954 0.64000005 7.5766302e-39
-0.098286666 0.10317048 0.64100003 7.6688258e-39
-0.097368568 0.10349238 0.64300001 7.668107e-39
-0.096143812 0.10349238 0.64300001 7.668107e-39
-0.094919048 0.10349238 0.64300001 7.6677469e-39
-0.093840003 0.10365334 0.64400005 7.5755512e-39
-0.092613339 0.10365334 0.64400005 7.2993273e-39
-0.09181238 0.10413619 0.64700001 6.9305447e-39
-0.090580001 0.10413619 0.64700001 9.3218704e-39
-0.089485712 0.10429715 0.648 1.1718957e-38
-0.088387623 0.1044581 0.64900005 1.0246355e-38
-0.087285712 0.10461906 0.65000004 4.3458343e-39
-0.086312376 0.10494096 0.65200001 1.2230771e-39
-0.085200958 0.10510191 0.65300006 1.3152728e-39
-0.084085725 0.10526286 0.65400004 2.0499357e-39
-0.083220005 0.10574571 0.65700001 1.6811532e-39
-0.082467623 0.10638952 0.66100001 4.5305745e-39
-0.081331439 0.10655048 0.66200006 8.9559647e-39
-0.080191433 0.10671143 0.66300005 1.0239495e-38
-0.079047628 0.10687238 0.66400003 7.1048439e-39
-0.14863525 0.10634572 0.65300006 8.8551063e-39
-0.14648859 0.10569429 0.64900005 7.7487587e-39
-0.14525239 0.10569429 0.64900005 7.8409543e-39
-0.14401621 0.10569429 0.64900005 8.9473019e-39
-0.14278001 0.10569429 0.64900005 7.9364052e-39
-0.14132571 0.10553142 0.648 3.7876018e-39
-0.13987523 0.10536857 0.64700001 8.5319038e-40
-0.13842857 0.10520571 0.64600003 1.3141685e-39
-0.13677335 0.10488001 0.64400005 1.9573659e-39
-0.13512571 0.10455429 0.64200002 2.3261484e-39
-0.13369429 0.10439143 0.64100003 1.9580918e-39
-0.13226667 0.10422858 0.64000005 1.404918e-39
-0.13104762 0.10422858 0.64000005 2.2314361e-39
-0.12982857 0.10422858 0.64000005 6.1036525e-39
-0.12860952 0.10422858 0.64000005 1.2266297e-38
-0.12699237 0.10390285 0.63800001 1.3557036e-38
-0.12577716 0.10390285 0.63800001 1.318612e-38
-0.12456191 0.10390285 0.63800001 7.1012089e-39
-0.12334667 0.10390285 0.63800001 5.5403852e-39
-0.12213144 0.10390285 0.63800001 6.4623415e-39
-0.1209162 0.10390285 0.63800001 7.3803545e-39
-0.11970095 0.10390285 0.63800001 7.4725502e-39
-0.11848572 0.10390285 0.63800001 7.4725502e-39
-0.11727048 0.10390285 0.63800001 7.5647458e-39
-0.11605524 0.10390285 0.63800001 7.5647458e-39
-0.11484 0.10390285 0.63800001 7.3803545e-39
-0.11344667 0.10374 0.63700002 7.1963164e-39
-0.11223333 0.10374 0.63700002 6.550947e-39
-0.11119429 0.10390285 0.63800001 7.8409193e-39
-0.10997905 0.10390285 0.63800001 1.1159962e-38
-0.10876381 0.10390285 0.63800001 1.3095042e-38
-0.10754857 0.10390285 0.63800001 1.438578e-38
-0.10633333 0.10390285 0.63800001 1.3466345e-38
-0.1051181 0.10390285 0.63800001 1.0792672e-38
-0.10390285 0.10390285 0.63800001 7.8507032e-39
-0.10300954 0.10422858 0.64000005 7.4819207e-39
-0.10179048 0.10422858 0.64000005 7.6677581e-39
-0.10057143 0.10422858 0.64000005 7.7599537e-39
-0.099662863 0.10455429 0.64200002 7.7603054e-39
-0.098439999 0.10455429 0.64200002 7.6681098e-39
-0.097368568 0.10471714 0.64300001 7.668107e-39
-0.096143812 0.10471714 0.64300001 7.5759114e-39
-0.095066674 0.10488001 0.64400005 7.5755512e-39
-0.093840003 0.10488001 0.64400005 7.39116e-39
-0.092613339 0.10488001 0.64400005 7.5748324e-39
-0.091954283 0.10553142 0.648 8.5889843e-39
-0.090719998 0.10553142 0.648 1.1162896e-38
-0.089623809 0.10569429 0.64900005 1.2361439e-38
-0.088387623 0.10569429 0.64900005 1.2085206e-38
-0.087285712 0.10585715 0.65000004 1.0702271e-38
-0.086444765 0.10634572 0.65300006 7.4815942e-39
-0.085331433 0.10650858 0.65400004 4.4391384e-39
-0.084471427 0.10699714 0.65700001 9.4720349e-40
-0.083473332 0.10732286 0.65900004 1.0393991e-39
-0.082467623 0.10764857 0.66100001 4.5309865e-39
-0.081331439 0.10781144 0.66200006 8.3110073e-39
-0.080191433 0.10797429 0.66300005 9.2281852e-39
-0.079047628 0.10813715 0.66400003 6.5545119e-39
-0.14863525 0.10758953 0.65300006 9.3149984e-39
-0.14716572 0.10742477 0.65200001 8.3930421e-39
-0.14592381 0.10742477 0.65200001 8.0253456e-39
-0.1442381 0.10709524 0.65000004 8.5785194e-39
-0.14278001 0.10693048 0.64900005 7.7534559e-39
-0.14154382 0.10693048 0.64900005 4.7110001e-39
-0.14009142 0.10676572 0.648 9.4539582e-40
-0.13864285 0.10660095 0.64700001 1.406374e-39
-0.13741048 0.10660095 0.64700001 1.9577162e-39
-0.13554667 0.10610668 0.64400005 2.0499119e-39
-0.13390286 0.10577714 0.64200002 2.1428362e-39
-0.13247333 0.10561238 0.64100003 1.8662493e-39
-0.13125238 0.10561238 0.64100003 1.5900029e-39
-0.12982857 0.10544763 0.64000005 3.7105024e-39
-0.12860952 0.10544763 0.64000005 1.0146914e-38
-0.12739049 0.10544763 0.64000005 1.2820588e-38
-0.12617144 0.10544763 0.64000005 1.1344053e-38
-0.12456191 0.1051181 0.63800001 6.0889025e-39
-0.12334667 0.1051181 0.63800001 5.3552779e-39
-0.1225143 0.10544763 0.64000005 6.6460167e-39
-0.12129524 0.10544763 0.64000005 7.5636668e-39
-0.1200762 0.10544763 0.64000005 7.6558624e-39
-0.11848572 0.1051181 0.63800001 7.4725502e-39
-0.11727048 0.1051181 0.63800001 7.4725502e-39
-0.11641905 0.10544763 0.64000005 7.5647458e-39
-0.11484 0.1051181 0.63800001 7.6569414e-39
-0.11362476 0.1051181 0.63800001 7.289591e-39
-0.11240952 0.1051181 0.63800001 6.552026e-39
-0.11119429 0.1051181 0.63800001 5.9084236e-39
-0.10997905 0.1051181 0.63800001 8.2133144e-39
-0.10910477 0.10544763 0.64000005 1.189578e-38
-0.10788572 0.10544763 0.64000005 1.4292866e-38
-0.10666667 0.10544763 0.64000005 1.2823509e-38
-0.10544763 0.10544763 0.64000005 9.5044666e-39
-0.10422858 0.10544763 0.64000005 6.380608e-39
-0.10300954 0.10544763 0.64000005 7.0259774e-39
-0.10179048 0.10544763 0.64000005 7.7599425e-39
-0.10072858 0.10561238 0.64100003 7.8521381e-39
-0.099662863 0.10577714 0.64200002 7.668107e-39
-0.098593332 0.1059419 0.64300001 7.668107e-39
-0.097368568 0.1059419 0.64300001 7.6684629e-39
-0.096143812 0.1059419 0.64300001 7.4840717e-39
-0.095066674 0.10610668 0.64400005 7.5759043e-39
-0.093840003 0.10610668 0.64400005 7.2993175e-39
-0.092900954 0.10643619 0.64600003 7.3911572e-39
-0.091954283 0.10676572 0.648 9.3272654e-39
-0.090719998 0.10676572 0.648 1.088848e-38
-0.089623809 0.10693048 0.64900005 1.1165067e-38
-0.088523813 0.10709524 0.65000004 1.2451467e-38
-0.087285712 0.10709524 0.65000004 1.217488e-38
-0.086444765 0.10758953 0.65300006 1.0888483e-38
-0.085331433 0.10775429 0.65400004 8.0304183e-39
-0.084471427 0.10824858 0.65700001 3.0669743e-39
-0.083473332 0.1085781 0.65900004 3.4357568e-39
-0.082467623 0.10890763 0.66100001 7.5698045e-39
-0.081331439 0.10907239 0.66200006 8.3995652e-39
-0.080191433 0.10923715 0.66300005 8.2136927e-39
-0.077324763 0.11055524 0.671 7.6623364e-39
-0.14716572 0.10866667 0.65200001 8.3930421e-39
-0.14592381 0.10866667 0.65200001 7.9345877e-39
-0.1442381 0.10833334 0.65000004 7.4736096e-39
-0.14278001 0.10816668 0.64900005 7.0155125e-39
-0.14154382 0.10816668 0.64900005 7.6608819e-39
-0.14009142 0.108 0.648 4.5338115e-39
-0.13885714 0.108 0.648 2.3211164e-39
-0.13762285 0.108 0.648 1.0379306e-39
-0.13638857 0.108 0.648 1.5911043e-39
-0.13432001 0.10733335 0.64400005 1.7754956e-39
-0.13268001 0.10700001 0.64200002 1.8676912e-39
-0.13125238 0.10683334 0.64100003 1.3152279e-39
-0.13003144 0.10683334 0.64100003 2.0527929e-39
-0.12881048 0.10683334 0.64100003 9.4115044e-39
-0.12739049 0.10666667 0.64000005 1.2546156e-38
-0.12617144 0.10666667 0.64000005 1.1896136e-38
-0.12495239 0.10666667 0.64000005 5.9956152e-39
-0.12373334 0.10666667 0.64000005 4.6209498e-39
-0.1225143 0.10666667 0.64000005 5.9116887e-39
-0.12129524 0.10666667 0.64000005 7.1959633e-39
-0.1200762 0.10666667 0.64000005 7.3803545e-39
-0.11885715 0.10666667 0.64000005 7.4725502e-39
-0.1176381 0.10666667 0.64000005 7.4725502e-39
-0.11641905 0.10666667 0.64000005 7.6569414e-39
-0.11520001 0.10666667 0.64000005 7.5647458e-39
-0.11398096 0.10666667 0.64000005 7.6572946e-39
-0.11276191 0.10666667 0.64000005 7.3807077e-39
-0.11154287 0.10666667 0.64000005 6.3683606e-39
-0.11032382 0.10666667 0.64000005 7.1981213e-39
-0.10910477 0.10666667 0.64000005 9.5955734e-39
-0.10788572 0.10666667 0.64000005 1.3283399e-38
-0.10666667 0.10666667 0.64000005 1.2548708e-38
-0.10544763 0.10666667 0.64000005 9.2296649e-39
-0.10422858 0.10666667 0.64000005 6.0129283e-39
-0.10300954 0.10666667 0.64000005 6.6582977e-39
-0.10194953 0.10683334 0.64100003 7.8517724e-39
-0.10072858 0.10683334 0.64100003 7.8517724e-39
-0.099818096 0.10716667 0.64300001 7.7603026e-39
-0.098593332 0.10716667 0.64300001 7.668107e-39
-0.097520009 0.10733335 0.64400005 7.5762673e-39
-0.096293338 0.10733335 0.64400005 7.391876e-39
-0.095361911 0.10766667 0.64600003 7.3915131e-39
-0.094277143 0.10783334 0.64700001 7.2071218e-39
-0.093044758 0.10783334 0.64700001 8.8623216e-39
-0.091954283 0.108 0.648 1.1535995e-38
-0.090860009 0.10816668 0.64900005 1.1714625e-38
-0.089761913 0.10833334 0.65000004 9.6863215e-39
-0.088523813 0.10833334 0.65000004 1.0790524e-38
-0.087688573 0.10883334 0.65300006 1.2357849e-38
-0.086444765 0.10883334 0.65300006 1.1899735e-38
-0.085461907 0.10916667 0.65500003 1.1346562e-38
-0.084471427 0.1095 0.65700001 1.0796618e-38
-0.083726667 0.11016667 0.66100001 9.6902704e-39
-0.082467623 0.11016667 0.66100001 9.9654223e-39
-0.081331439 0.11033335 0.66200006 8.3980966e-39
-0.080312386 0.11066667 0.66400003 7.4772193e-39
-0.079761907 0.11166666 0.67000002 6.555263e-39
-0.07860285 0.11183333 0.671 6.3719451e-39
-0.14739144 0.11007715 0.65300006 8.9462159e-39
-0.14592381 0.10990857 0.65200001 8.3941309e-39
-0.1442381 0.10957143 0.65000004 6.642414e-39
-0.14300001 0.10957143 0.65000004 6.7356241e-39
-0.14154382 0.10940287 0.64900005 8.9483192e-39
-0.14009142 0.10923428 0.648 7.2932134e-39
-0.13885714 0.10923428 0.648 3.9741707e-39
-0.13762285 0.10923428 0.648 7.6134087e-40
-0.13638857 0.10923428 0.648 1.222319e-39
-0.13494572 0.10906572 0.64700001 2.1424831e-39
-0.13288668 0.10839143 0.64300001 1.8658962e-39
-0.13145714 0.10822286 0.64200002 1.0393599e-39
-0.13023429 0.10822286 0.64200002 2.8832725e-39
-0.12881048 0.1080543 0.64100003 8.3988155e-39
-0.12758954 0.1080543 0.64100003 1.1902249e-38
-0.12636858 0.1080543 0.64100003 1.1254013e-38
-0.12495239 0.10788572 0.64000005 5.9066664e-39
-0.12373334 0.10788572 0.64000005 5.4463889e-39
-0.1225143 0.10788572 0.64000005 6.5527365e-39
-0.12129524 0.10788572 0.64000005 7.3792755e-39
-0.1200762 0.10788572 0.64000005 7.5636668e-39
-0.11885715 0.10788572 0.64000005 7.4725502e-39
-0.1176381 0.10788572 0.64000005 7.4725502e-39
-0.11641905 0.10788572 0.64000005 7.4725502e-39
-0.11520001 0.10788572 0.64000005 7.5647458e-39
-0.11398096 0.10788572 0.64000005 7.6569414e-39
-0.11276191 0.10788572 0.64000005 7.3803545e-39
-0.11154287 0.10788572 0.64000005 5.7247863e-39
-0.11032382 0.10788572 0.64000005 7.4765032e-39
-0.10910477 0.10788572 0.64000005 9.5955608e-39
-0.10788572 0.10788572 0.64000005 1.3283386e-38
-0.10683334 0.1080543 0.64100003 1.2364326e-38
-0.10561238 0.1080543 0.64100003 9.5984573e-39
-0.10439143 0.1080543 0.64100003 7.7599663e-39
-0.10317048 0.1080543 0.64100003 7.4833794e-39
-0.10194953 0.1080543 0.64100003 7.667744e-39
-0.10104286 0.10839143 0.64300001 7.7599397e-39
-0.099818096 0.10839143 0.64300001 7.7603026e-39
-0.098746672 0.10856 0.64400005 7.668107e-39
-0.097520009 0.10856 0.64400005 7.6684629e-39
-0.096293338 0.10856 0.64400005 7.2996804e-39
-0.095361911 0.10889714 0.64600003 6.8401414e-39
-0.094277143 0.10906572 0.64700001 7.3011195e-39
-0.093044758 0.10906572 0.64700001 1.0608667e-38
-0.091954283 0.10923428 0.648 1.1991602e-38
-0.090860009 0.10940287 0.64900005 1.1898291e-38
-0.089761913 0.10957143 0.65000004 8.4870524e-39
-0.088523813 0.10957143 0.65000004 8.9473047e-39
-0.087688573 0.11007715 0.65300006 1.1528782e-38
-0.086974286 0.11075143 0.65700001 1.2359259e-38
-0.085722856 0.11075143 0.65700001 1.1898281e-38
-0.084600009 0.11092001 0.65800005 1.1622793e-38
-0.083726667 0.11142571 0.66100001 1.125401e-38
-0.08259239 0.1115943 0.66200006 1.0241309e-38
-0.081454292 0.11176286 0.66300005 7.1988528e-39
-0.080312386 0.11193144 0.66400003 6.8314968e-39
-0.079523817 0.11260572 0.66800004 6.8314968e-39
-0.07860285 0.11311143 0.671 7.1995436e-39
-0.077324763 0.11311143 0.671 8.2136955e-39
-0.076386668 0.11361714 0.67400002 9.1320463e-39
-0.14761716 0.11149143 0.65400004 9.3149984e-39
-0.14614764 0.11132096 0.65300006 8.1171937e-39
-0.1446819 0.11115047 0.65200001 2.6776516e-39
-0.14343999 0.11115047 0.65200001 1.3933839e-39
-0.14176191 0.11080953 0.65000004 7.3860999e-39
-0.14030764 0.11063905 0.64900005 8.9477069e-39
-0.13885714 0.11046857 0.648 7.7491637e-39
-0.13762285 0.11046857 0.648 1.9563107e-39
-0.13638857 0.11046857 0.648 1.3109413e-39
-0.13494572 0.1102981 0.64700001 1.0383075e-39
-0.13288668 0.10961619 0.64300001 6.6952499e-40
-0.13166189 0.10961619 0.64300001 1.130824e-39
-0.13023429 0.10944572 0.64200002 6.0171924e-39
-0.12901144 0.10944572 0.64200002 1.0700827e-38
-0.12758954 0.10927524 0.64100003 1.2544739e-38
-0.12636858 0.10927524 0.64100003 1.2819155e-38
-0.12514763 0.10927524 0.64100003 9.4079171e-39
-0.12392667 0.10927524 0.64100003 5.1737929e-39
-0.12270571 0.10927524 0.64100003 4.4362279e-39
-0.12148476 0.10927524 0.64100003 6.183982e-39
-0.12026381 0.10927524 0.64100003 6.921547e-39
-0.11904286 0.10927524 0.64100003 7.5636668e-39
-0.11782191 0.10927524 0.64100003 7.5636668e-39
-0.11660096 0.10927524 0.64100003 7.3803545e-39
-0.11538001 0.10927524 0.64100003 7.3803545e-39
-0.11398096 0.10910477 0.64000005 7.3803574e-39
-0.11276191 0.10910477 0.64000005 6.7349879e-39
-0.11154287 0.10910477 0.64000005 5.7251394e-39
-0.11049619 0.10927524 0.64100003 9.6895515e-39
-0.10927524 0.10927524 0.64100003 1.1530234e-38
-0.1080543 0.10927524 0.64100003 1.3466342e-38
-0.10683334 0.10927524 0.64100003 1.2730585e-38
-0.10561238 0.10927524 0.64100003 1.2085216e-38
-0.10439143 0.10927524 0.64100003 9.5095379e-39
-0.10317048 0.10927524 0.64100003 7.9422122e-39
-0.10226762 0.10961619 0.64300001 6.5639342e-39
-0.10104286 0.10961619 0.64300001 6.7483255e-39
-0.099973343 0.10978667 0.64400005 7.0241837e-39
-0.098746672 0.10978667 0.64400005 7.208575e-39
-0.09782286 0.11012762 0.64600003 7.2078505e-39
-0.096741907 0.1102981 0.64700001 6.6546767e-39
-0.095509529 0.1102981 0.64700001 7.6673811e-39
-0.094422854 0.11046857 0.648 1.0341054e-38
-0.093188569 0.11046857 0.648 1.2727348e-38
-0.092096195 0.11063905 0.64900005 1.1436609e-38
-0.091000006 0.11080953 0.65000004 9.2256993e-39
-0.089761913 0.11080953 0.65000004 5.0768959e-39
-0.088796191 0.11115047 0.65200001 4.3436441e-39
-0.087957144 0.1116619 0.65500003 6.7407305e-39
-0.087106667 0.11217334 0.65800005 9.4993897e-39
-0.085853338 0.11217334 0.65800005 1.1527694e-38
-0.084600009 0.11217334 0.65800005 1.1436602e-38
-0.083853334 0.11285525 0.66200006 1.1528798e-38
-0.082717143 0.11302572 0.66300005 1.0332407e-38
-0.081577145 0.11319619 0.66400003 7.0133643e-39
-0.080554284 0.11353715 0.66600001 6.0968156e-39
-0.079523817 0.1138781 0.66800004 6.1890112e-39
-0.078720003 0.11456001 0.67200005 7.2910358e-39
-0.077440001 0.11456001 0.67200005 8.3051877e-39
-0.076386668 0.11490095 0.67400002 9.3153487e-39
-0.14784285 0.11290953 0.65500003 9.4990366e-39
-0.14637144 0.11273715 0.65400004 8.2075915e-39
-0.14490382 0.11256477 0.65300006 3.2290275e-39
-0.14366001 0.11256477 0.65300006 2.1269385e-39
-0.14219809 0.11239238 0.65200001 6.8289156e-39
-0.14095619 0.11239238 0.65200001 1.0052208e-38
-0.13928573 0.11204763 0.65000004 9.8678163e-39
-0.13804764 0.11204763 0.65000004 5.1784789e-39
-0.13659906 0.11187524 0.64900005 2.0438274e-39
-0.13515429 0.11170286 0.648 8.538574e-40
-0.13350667 0.1113581 0.64600003 1.3148355e-39
-0.13227619 0.1113581 0.64600003 2.6027353e-39
-0.13064002 0.11101335 0.64400005 7.7656906e-39
-0.12941335 0.11101335 0.64400005 1.1621354e-38
-0.12798762 0.11084095 0.64300001 1.2266723e-38
-0.12676285 0.11084095 0.64300001 1.2083761e-38
-0.12534286 0.11066858 0.64200002 1.0700827e-38
-0.12412 0.11066858 0.64200002 8.3988491e-39
-0.12289715 0.11066858 0.64200002 6.2783496e-39
-0.12167428 0.11066858 0.64200002 5.1723622e-39
-0.12045144 0.11066858 0.64200002 6.0021229e-39
-0.11904286 0.11049619 0.64100003 7.3792755e-39
-0.11782191 0.11049619 0.64100003 7.4714712e-39
-0.11678286 0.11066858 0.64200002 7.3803545e-39
-0.11556 0.11066858 0.64200002 7.1959633e-39
-0.11451524 0.11084095 0.64300001 6.3683578e-39
-0.11329047 0.11084095 0.64300001 6.0917709e-39
-0.11206571 0.11084095 0.64300001 5.8184365e-39
-0.11084095 0.11084095 0.64300001 1.0981392e-38
-0.10961619 0.11084095 0.64300001 1.2820272e-38
-0.10839143 0.11084095 0.64300001 1.2912468e-38
-0.10716667 0.11084095 0.64300001 1.2729834e-38
-0.1059419 0.11084095 0.64300001 1.2822029e-38
-0.10471714 0.11084095 0.64300001 1.1810448e-38
-0.10349238 0.11084095 0.64300001 1.0058731e-38
-0.10242668 0.11101335 0.64400005 7.4858877e-39
-0.10120001 0.11101335 0.64400005 6.7483227e-39
-0.099973343 0.11101335 0.64400005 6.7479724e-39
-0.099053338 0.1113581 0.64600003 6.6557767e-39
-0.09782286 0.1113581 0.64600003 6.7479486e-39
-0.096741907 0.11153048 0.64700001 6.8401442e-39
-0.095657147 0.11170286 0.648 8.6783058e-39
-0.094422854 0.11170286 0.648 1.1351979e-38
-0.093188569 0.11170286 0.648 1.34642e-38
-0.092096195 0.11187524 0.64900005 9.6841789e-39
-0.091000006 0.11204763 0.65000004 8.117544e-39
-0.089761913 0.11204763 0.65000004 6.1814358e-39
-0.088932388 0.11256477 0.65300006 5.5389377e-39
-0.088225715 0.11325429 0.65700001 5.5389377e-39
-0.087106667 0.11342667 0.65800005 7.4692781e-39
-0.085853338 0.11342667 0.65800005 9.7741689e-39
-0.084600009 0.11342667 0.65800005 1.2353511e-38
-0.083853334 0.1141162 0.66200006 1.216912e-38
-0.082841903 0.11446096 0.66400003 9.3204313e-39
-0.081577145 0.11446096 0.66400003 6.646758e-39
-0.080675244 0.1149781 0.66700006 5.730554e-39
-0.079761907 0.11549524 0.67000002 5.5461628e-39
-0.07860285 0.11566762 0.671 7.1059257e-39
-0.077440001 0.11584001 0.67200005 8.3044688e-39
-0.076386668 0.11618476 0.67400002 9.0376899e-39
-0.14829428 0.11450572 0.65700001 9.6834278e-39
-0.14659524 0.11415715 0.65500003 8.9448034e-39
-0.14512572 0.11398286 0.65400004 4.1506306e-39
-0.14388001 0.11398286 0.65400004 2.3110214e-39
-0.14241621 0.11380858 0.65300006 3.7861515e-39
-0.14095619 0.11363429 0.65200001 7.3795516e-39
-0.13928573 0.11328572 0.65000004 1.1159572e-38
-0.13804764 0.11328572 0.65000004 8.4903175e-39
-0.13659906 0.11311144 0.64900005 4.3415141e-39
-0.13536286 0.11311144 0.64900005 1.5910889e-39
-0.13371333 0.11276285 0.64700001 5.8320879e-39
-0.13227619 0.11258857 0.64600003 1.0700827e-38
-0.13064002 0.11224001 0.64400005 1.1807174e-38
-0.12941335 0.11224001 0.64400005 1.1438394e-38
-0.12798762 0.11206571 0.64300001 1.0332047e-38
-0.12676285 0.11206571 0.64300001 1.1161452e-38
-0.1255381 0.11206571 0.64300001 1.2636582e-38
-0.12431334 0.11206571 0.64300001 1.2451467e-38
-0.12308857 0.11206571 0.64300001 1.0238772e-38
-0.12167428 0.11189143 0.64200002 7.8431502e-39
-0.12045144 0.11189143 0.64200002 5.5382594e-39
-0.11922857 0.11189143 0.64200002 5.7237199e-39
-0.11800572 0.11189143 0.64200002 6.2768937e-39
-0.11678286 0.11189143 0.64200002 6.4594772e-39
-0.11574 0.11206571 0.64300001 5.9984991e-39
-0.11451524 0.11206571 0.64300001 6.0010004e-39
-0.11329047 0.11206571 0.64300001 8.5824781e-39
-0.11206571 0.11206571 0.64300001 1.1159309e-38
-0.11084095 0.11206571 0.64300001 1.4109569e-38
-0.10961619 0.11206571 0.64300001 1.328125e-38
