# .PCD v0.7 - Point Cloud Data file format
VERSION 0.7
FIELDS x y z rgba
SIZE 4 4 4 4
TYPE F F F U
COUNT 1 1 1 1
WIDTH 1144
HEIGHT 1
VIEWPOINT 0 0 0 1 0 0 0
POINTS 1144
DATA ascii
-0.061523806 0.20011428 0.68000001 5463457
-0.060228571 0.20011428 0.68000001 8424142
-0.12039239 0.20022479 0.67600006 6710153
-0.11875238 0.19963239 0.67400002 6841739
-0.11677143 0.19844763 0.67000002 6905229
-0.11515048 0.19785525 0.66800004 6839436
-0.11370763 0.19755906 0.66700006 6838155
-0.11226857 0.19726287 0.66600001 6377604
-0.111 0.19726287 0.66600001 6377333
-0.10940191 0.19667049 0.66400003 6048368
-0.10813715 0.19667049 0.66400003 6639484
-0.10687238 0.19667049 0.66400003 6507898
-0.10560763 0.19667049 0.66400003 6573443
-0.10418572 0.1963743 0.66300005 6705029
-0.10292286 0.1963743 0.66300005 6770572
-0.10166001 0.1963743 0.66300005 6967951
-0.10039715 0.1963743 0.66300005 7165339
-0.099134296 0.1963743 0.66300005 7231132
-0.097723819 0.19607811 0.66200006 7296155
-0.096462868 0.19607811 0.66200006 8217257
-0.095058098 0.1957819 0.66100001 8087200
-0.093799047 0.1957819 0.66100001 8152993
-0.092539996 0.1957819 0.66100001 7759266
-0.091280952 0.1957819 0.66100001 7627680
-0.090021908 0.1957819 0.66100001 7956136
-0.088762857 0.1957819 0.66100001 8219308
-0.087503813 0.1957819 0.66100001 7889582
-0.086375244 0.19607811 0.66200006 7955375
-0.085114293 0.19607811 0.66200006 8151473
-0.083980009 0.1963743 0.66300005 7559336
-0.082717143 0.1963743 0.66300005 7557535
-0.081577145 0.19667049 0.66400003 6965398
-0.080312386 0.19667049 0.66400003 7230344
-0.079047628 0.19667049 0.66400003 7690895
-0.078017138 0.19726287 0.66600001 7625118
-0.076863818 0.19755906 0.66700006 7230360
-0.075593337 0.19755906 0.66700006 7231128
-0.074434288 0.19785525 0.66800004 6310026
-0.073380955 0.19844763 0.67000002 5918093
-0.072212376 0.19874381 0.671 8549813
-0.071040004 0.19904001 0.67200005 7764676
-0.06976001 0.19904001 0.67200005 6054058
-0.068785712 0.19992857 0.67500001 4349896
-0.067600004 0.20022479 0.67600006 3494587
-0.066508569 0.20081715 0.67800003 3496127
-0.065409526 0.20140952 0.68000001 3496127
-0.064114287 0.20140952 0.68000001 3890096
-0.063003816 0.20200193 0.68200004 3297959
-0.061704762 0.20200193 0.68200004 5528734
-0.060405716 0.20200193 0.68200004 8686798
-0.12074857 0.20210858 0.67800003 6120836
-0.11892857 0.2012143 0.67500001 6449801
-0.11694571 0.20002189 0.671 7630742
-0.11549524 0.19972381 0.67000002 7893914
-0.1138781 0.19912763 0.66800004 7564719
-0.11243715 0.19882953 0.66700006 6117273
-0.11116667 0.19882953 0.66700006 6575997
-0.10973143 0.19853143 0.66600001 6970755
-0.10846286 0.19853143 0.66600001 7362446
-0.10687238 0.19793525 0.66400003 7099274
-0.10560763 0.19793525 0.66400003 7097995
-0.10434286 0.19793525 0.66400003 7229581
-0.10292286 0.19763716 0.66300005 6966672
-0.10166001 0.19763716 0.66300005 6966672
-0.10039715 0.19763716 0.66300005 7294863
-0.099134296 0.19763716 0.66300005 7755414
-0.097871438 0.19763716 0.66300005 7624082
-0.096462868 0.19733907 0.66200006 7887254
-0.09520191 0.19733907 0.66200006 7755677
-0.093940958 0.19733907 0.66200006 7821470
-0.092680007 0.19733907 0.66200006 7756440
-0.091419049 0.19733907 0.66200006 7822233
-0.090158105 0.19733907 0.66200006 7887520
-0.088897154 0.19733907 0.66200006 8019106
-0.087636195 0.19733907 0.66200006 7756454
-0.086375244 0.19733907 0.66200006 7690661
-0.08524286 0.19763716 0.66300005 7887270
-0.084106669 0.19793525 0.66400003 8018856
-0.082841903 0.19793525 0.66400003 7887524
-0.081577145 0.19793525 0.66400003 7558559
-0.080312386 0.19793525 0.66400003 7100825
-0.079047628 0.19793525 0.66400003 7824548
-0.078017138 0.19853143 0.66600001 7957422
-0.076863818 0.19882953 0.66700006 7825836
-0.075706668 0.19912763 0.66800004 7695024
-0.074657142 0.19972381 0.67000002 6839715
-0.073490478 0.20002189 0.671 6053027
-0.072320007 0.20032001 0.67200005 7632059
-0.07125143 0.2009162 0.67400002 6585290
-0.06996762 0.2009162 0.67400002 3887777
-0.068785712 0.2012143 0.67500001 2642624
-0.067600004 0.2015124 0.67600006 2840003
-0.066508569 0.20210858 0.67800003 3560889
-0.065409526 0.20270476 0.68000001 3560889
-0.064302862 0.20330097 0.68200004 3954608
-0.063003816 0.20330097 0.68200004 3296678
-0.061704762 0.20330097 0.68200004 5659039
-0.060405716 0.20330097 0.68200004 8751310
-0.12039239 0.20280002 0.67600006 5989260
-0.11892857 0.2025 0.67500001 6120846
-0.11712001 0.20160002 0.67200005 7500696
-0.11566762 0.20130001 0.671 9540279
-0.11421905 0.20100001 0.67000002 9540279
-0.11260572 0.20040001 0.66800004 7895454
-0.11116667 0.2001 0.66700006 8091552
-0.10973143 0.1998 0.66600001 9144240
-0.10846286 0.1998 0.66600001 9208502
-0.10719428 0.1998 0.66600001 9011123
-0.10560763 0.1992 0.66400003 9142963
-0.10434286 0.1992 0.66400003 9340342
-0.1030781 0.1992 0.66400003 9077420
-0.10181334 0.1992 0.66400003 7761560
-0.10054857 0.1992 0.66400003 8156068
-0.099283814 0.1992 0.66400003 9077170
-0.098019049 0.1992 0.66400003 8879791
-0.096608579 0.19890001 0.66300005 8682412
-0.095345721 0.19890001 0.66300005 8682158
-0.094082862 0.19890001 0.66300005 7826849
-0.092820004 0.19890001 0.66300005 7891883
-0.091419049 0.19860001 0.66200006 8747192
-0.090158105 0.19860001 0.66200006 8485803
-0.088897154 0.19860001 0.66200006 7827873
-0.087768577 0.19890001 0.66300005 8026036
-0.086505719 0.19890001 0.66300005 7762864
-0.085371435 0.1992 0.66400003 8023987
-0.084106669 0.1992 0.66400003 10129363
-0.082841903 0.1992 0.66400003 10393035
-0.081822857 0.1998 0.66600001 10524621
-0.080554284 0.1998 0.66600001 10263507
-0.079285711 0.1998 0.66600001 10395093
-0.078134291 0.2001 0.66700006 10395606
-0.076863818 0.2001 0.66700006 10461399
-0.075706668 0.20040001 0.66800004 10527705
-0.074657142 0.20100001 0.67000002 9343431
-0.073490478 0.20130001 0.671 7371713
-0.072320007 0.20160002 0.67200005 7371713
-0.07125143 0.20220001 0.67400002 6257093
-0.070071429 0.2025 0.67500001 3559580
-0.068887629 0.20280002 0.67600006 2643648
-0.0678 0.2034 0.67800003 2577855
-0.066508569 0.2034 0.67800003 3167160
-0.065409526 0.204 0.68000001 3298746
-0.064302862 0.20460002 0.68200004 3757229
-0.063003816 0.20460002 0.68200004 3165092
-0.061704762 0.20460002 0.68200004 5330074
-0.060760003 0.20580001 0.68600005 8619724
-0.12039239 0.20408764 0.67600006 5791627
-0.11892857 0.20378572 0.67500001 5857420
-0.11746857 0.20348381 0.67400002 7304849
-0.11584001 0.20288001 0.67200005 9015467
-0.11438952 0.2025781 0.671 9212352
-0.11294286 0.20227619 0.67000002 7896492
-0.11133334 0.20167239 0.66800004 7107741
-0.1098962 0.20137048 0.66700006 8160429
-0.10846286 0.20106858 0.66600001 8357297
-0.10719428 0.20106858 0.66600001 8159918
-0.10592572 0.20106858 0.66600001 8160679
-0.10434286 0.20046477 0.66400003 8358058
-0.1030781 0.20046477 0.66400003 8554422
-0.10181334 0.20046477 0.66400003 7238562
-0.10054857 0.20046477 0.66400003 7435945
-0.099283814 0.20046477 0.66400003 8291254
-0.098019049 0.20046477 0.66400003 8291504
-0.096608579 0.20016287 0.66300005 8291504
-0.095345721 0.20016287 0.66300005 8883146
-0.094082862 0.20016287 0.66300005 7698872
-0.092820004 0.20016287 0.66300005 6778785
-0.091557153 0.20016287 0.66300005 7765680
-0.090294287 0.20016287 0.66300005 7372458
-0.089031436 0.20016287 0.66300005 7175079
-0.087900959 0.20046477 0.66400003 8029134
-0.086636193 0.20046477 0.66400003 6910653
-0.085371435 0.20046477 0.66400003 6712738
-0.084106669 0.20046477 0.66400003 9015493
-0.08309143 0.20106858 0.66600001 9805002
-0.081822857 0.20106858 0.66600001 10199760
-0.080554284 0.20106858 0.66600001 9806810
-0.079285711 0.20106858 0.66600001 9806810
-0.078134291 0.20137048 0.66700006 9937885
-0.076979049 0.20167239 0.66800004 10069471
-0.075933337 0.20227619 0.67000002 10003937
-0.074657142 0.20227619 0.67000002 8424905
-0.073490478 0.2025781 0.671 6388674
-0.072535239 0.20348381 0.67400002 6388674
-0.071357146 0.20378572 0.67500001 6060486
-0.070071429 0.20378572 0.67500001 4086696
-0.068887629 0.20408764 0.67600006 3168707
-0.0678 0.20469144 0.67800003 2971328
-0.066508569 0.20469144 0.67800003 3101367
-0.065409526 0.20529523 0.68000001 3167160
-0.064302862 0.20589906 0.68200004 3559855
-0.063003816 0.20589906 0.68200004 2836132
-0.062066671 0.20710668 0.68600005 5329050
-0.060760003 0.20710668 0.68600005 8947665
-0.11892857 0.20507142 0.67500001 5660818
-0.11746857 0.20476763 0.67400002 7042951
-0.11584001 0.20416 0.67200005 8556190
-0.11438952 0.20385619 0.671 9014705
-0.11311143 0.20385619 0.671 8093603
-0.11133334 0.20294477 0.66800004 6646938
-0.11006096 0.20294477 0.66800004 6186387
-0.10862572 0.20264097 0.66700006 6383768
-0.10719428 0.20233715 0.66600001 5791631
-0.10592572 0.20233715 0.66600001 4872835
-0.10465714 0.20233715 0.66600001 4478077
-0.1030781 0.20172954 0.66400003 6187923
-0.10181334 0.20172954 0.66400003 6385302
-0.10054857 0.20172954 0.66400003 5726370
-0.099283814 0.20172954 0.66400003 5528991
-0.098019049 0.20172954 0.66400003 5200796
-0.09675429 0.20172954 0.66400003 6450863
-0.095489532 0.20172954 0.66400003 8423610
-0.094224766 0.20172954 0.66400003 7370922
-0.09296 0.20172954 0.66400003 5858197
-0.091695242 0.20172954 0.66400003 5989783
-0.090430476 0.20172954 0.66400003 4477593
-0.089165725 0.20172954 0.66400003 4543386
-0.087900959 0.20172954 0.66400003 6253252
-0.086636193 0.20172954 0.66400003 5003185
-0.085628577 0.20233715 0.66600001 4411548
-0.084360003 0.20233715 0.66600001 7240647
-0.08309143 0.20233715 0.66600001 9147063
-0.081822857 0.20233715 0.66600001 10594509
-0.080554284 0.20233715 0.66600001 10462680
-0.079285711 0.20233715 0.66600001 10067922
-0.078134291 0.20264097 0.66700006 9937113
-0.076979049 0.20294477 0.66800004 10068699
-0.075933337 0.2035524 0.67000002 9872340
-0.074768573 0.20385619 0.671 8227515
-0.073600002 0.20416 0.67200005 5468608
-0.072535239 0.20476763 0.67400002 5665987
-0.071357146 0.20507142 0.67500001 5863614
-0.070071429 0.20507142 0.67500001 4613547
-0.068887629 0.20537525 0.67600006 3825608
-0.0678 0.20598286 0.67800003 3759815
-0.066606671 0.20628668 0.67900002 3692986
-0.065409526 0.20659047 0.68000001 3364021
-0.064302862 0.20719811 0.68200004 3363248
-0.063096188 0.20750192 0.68300003 2244767
-0.062066671 0.20841335 0.68600005 5132697
-0.060760003 0.20841335 0.68600005 8882898
-0.059453338 0.20841335 0.68600005 9933471
-0.11892857 0.20635714 0.67500001 5726340
-0.11764286 0.20635714 0.67500001 6516353
-0.11584001 0.20544001 0.67200005 8490143
-0.11456001 0.20544001 0.67200005 8752312
-0.11311143 0.20513429 0.671 7633831
-0.11166666 0.20482858 0.67000002 6451349
-0.11006096 0.20421715 0.66800004 6056591
-0.10862572 0.20391145 0.66700006 6580893
-0.10735524 0.20391145 0.66700006 6054549
-0.10592572 0.20360571 0.66600001 5069966
-0.10465714 0.20360571 0.66600001 5135759
-0.10338857 0.20360571 0.66600001 6648224
-0.10181334 0.2029943 0.66400003 6582431
-0.10054857 0.2029943 0.66400003 5333145
-0.099283814 0.2029943 0.66400003 4872594
-0.098019049 0.2029943 0.66400003 3888011
-0.09675429 0.2029943 0.66400003 5993387
-0.095489532 0.2029943 0.66400003 7963582
-0.094224766 0.2029943 0.66400003 7174066
-0.09296 0.2029943 0.66400003 5924010
-0.091695242 0.2029943 0.66400003 5989803
-0.090430476 0.2029943 0.66400003 4477593
-0.089165725 0.2029943 0.66400003 4872351
-0.087900959 0.2029943 0.66400003 7173055
-0.086636193 0.2029943 0.66400003 5725609
-0.085628577 0.20360571 0.66600001 4871581
-0.084360003 0.20360571 0.66600001 6911164
-0.08309143 0.20360571 0.66600001 8357306
-0.081822857 0.20360571 0.66600001 10265303
-0.080554284 0.20360571 0.66600001 10266578
-0.079404771 0.20391145 0.66700006 9871820
-0.078251429 0.20421715 0.66800004 9806290
-0.077209525 0.20482858 0.67000002 10135255
-0.075933337 0.20482858 0.67000002 9938137
-0.074768573 0.20513429 0.671 8030140
-0.073600002 0.20544001 0.67200005 5402811
-0.072535239 0.20605142 0.67400002 4613295
-0.071357146 0.20635714 0.67500001 4614337
-0.070071429 0.20635714 0.67500001 4153786
-0.068887629 0.20666288 0.67600006 3957192
-0.0678 0.2072743 0.67800003 3694020
-0.066606671 0.20758 0.67900002 3693753
-0.065601908 0.20849715 0.68200004 3364788
-0.064397149 0.20880286 0.68300003 3494832
-0.063096188 0.20880286 0.68300003 2573730
-0.062066671 0.20972 0.68600005 5068183
-0.060760003 0.20972 0.68600005 8555212
-0.059626669 0.21033144 0.68800002 9802394
-0.12294 0.21010381 0.68300003 8553070
-0.12146095 0.20979621 0.68200004 6451090
-0.12016191 0.20979621 0.68200004 5201023
-0.11781715 0.2079505 0.67600006 5792654
-0.11635715 0.20764287 0.67500001 7766444
-0.11456001 0.20672001 0.67200005 8093605
-0.11311143 0.20641237 0.671 6054022
-0.11166666 0.20610477 0.67000002 5923213
-0.11039048 0.20610477 0.67000002 6449557
-0.10878857 0.20548953 0.66800004 6319009
-0.10751619 0.20548953 0.66800004 6779560
-0.10608477 0.20518193 0.66700006 6911148
-0.10481429 0.20518193 0.66700006 7832250
-0.10338857 0.20487428 0.66600001 8160184
-0.10212 0.20487428 0.66600001 8357563
-0.10085143 0.20487428 0.66600001 8160681
-0.099582858 0.20487428 0.66600001 7436958
-0.098314285 0.20487428 0.66600001 7174318
-0.09675429 0.20425905 0.66400003 7634869
-0.095489532 0.20425905 0.66400003 8621755
-0.094224766 0.20425905 0.66400003 9345478
-0.09324 0.20487428 0.66600001 9213378
-0.091695242 0.20425905 0.66400003 7634346
-0.090430476 0.20425905 0.66400003 6846132
-0.089165725 0.20425905 0.66400003 6846132
-0.087900959 0.20425905 0.66400003 7306683
-0.086636193 0.20425905 0.66400003 7306683
-0.085628577 0.20487428 0.66600001 6911936
-0.084360003 0.20487428 0.66600001 7043522
-0.08309143 0.20487428 0.66600001 8160438
-0.081822857 0.20487428 0.66600001 8094645
-0.080675244 0.20518193 0.66700006 7766453
-0.079404771 0.20518193 0.66700006 8555969
-0.078251429 0.20548953 0.66800004 9280196
-0.077209525 0.20610477 0.67000002 10267091
-0.075933337 0.20610477 0.67000002 10331859
-0.074768573 0.20641237 0.671 8292276
-0.073600002 0.20672001 0.67200005 5271227
-0.072535239 0.20733525 0.67400002 4218539
-0.071357146 0.20764287 0.67500001 3562947
-0.070175245 0.2079505 0.67600006 2510259
-0.069091432 0.20856571 0.67800003 2642624
-0.067900002 0.20887333 0.67900002 2905796
-0.066704765 0.20918095 0.68000001 3430324
-0.065601908 0.20979621 0.68200004 3430324
-0.064397149 0.21010381 0.68300003 3757997
-0.063096188 0.21010381 0.68300003 3100067
-0.062066671 0.21102668 0.68600005 5068179
-0.060937144 0.21164192 0.68800002 8357829
-0.059626669 0.21164192 0.68800002 9736340
-0.12424096 0.21140477 0.68300003 9342077
-0.12294 0.21140477 0.68300003 8815733
-0.12146095 0.21109524 0.68200004 7108233
-0.12016191 0.21109524 0.68200004 5200236
-0.11816572 0.20985715 0.67800003 5462664
-0.11652953 0.20923811 0.67600006 7502247
-0.11490095 0.20861904 0.67400002 7961767
-0.11328001 0.208 0.67200005 6645907
-0.11183333 0.20769048 0.671 6186389
-0.11055524 0.20769048 0.671 6449561
-0.10911428 0.20738095 0.67000002 6252964
-0.10783809 0.20738095 0.67000002 6581929
-0.10624382 0.20676193 0.66800004 6713258
-0.10481429 0.2064524 0.66700006 7502774
-0.10354382 0.2064524 0.66700006 7569076
-0.10212 0.20614286 0.66600001 8029627
-0.10085143 0.20614286 0.66600001 8291761
-0.099582858 0.20614286 0.66600001 7831210
-0.098314285 0.20614286 0.66600001 7305902
-0.097045712 0.20614286 0.66600001 7569074
-0.095777147 0.20614286 0.66600001 8424124
-0.094508573 0.20614286 0.66600001 9411019
-0.09324 0.20614286 0.66600001 9345235
-0.091971427 0.20614286 0.66600001 7503031
-0.090702854 0.20614286 0.66600001 6847170
-0.089434281 0.20614286 0.66600001 7044549
-0.088165708 0.20614286 0.66600001 7503553
-0.08689715 0.20614286 0.66600001 7043002
-0.085628577 0.20614286 0.66600001 6911677
-0.084360003 0.20614286 0.66600001 6977470
-0.08309143 0.20614286 0.66600001 6845621
-0.081945717 0.2064524 0.66700006 6450863
-0.080675244 0.2064524 0.66700006 5926822
-0.079404771 0.2064524 0.66700006 7703233
-0.07848572 0.20738095 0.67000002 9082313
-0.077209525 0.20738095 0.67000002 10200794
-0.076046668 0.20769048 0.671 10266328
-0.074768573 0.20769048 0.671 8226745
-0.073600002 0.208 0.67200005 5206463
-0.072535239 0.20861904 0.67400002 4087982
-0.071357146 0.20892857 0.67500001 3694523
-0.070175245 0.20923811 0.67600006 2905007
-0.069091432 0.20985715 0.67800003 2969533
-0.067900002 0.21016666 0.67900002 3035326
-0.066704765 0.21047619 0.68000001 3166388
-0.065601908 0.21109524 0.68200004 3297974
-0.064397149 0.21140477 0.68300003 3823790
-0.063188568 0.21171428 0.68400002 3034274
-0.062066671 0.21233334 0.68600005 5133972
-0.060937144 0.21295239 0.68800002 8489415
-0.059626669 0.21295239 0.68800002 9539476
-0.12424096 0.21270572 0.68300003 9144698
-0.12294 0.21270572 0.68300003 8881526
-0.12146095 0.2123943 0.68200004 7436167
-0.12016191 0.2123943 0.68200004 5067619
-0.11816572 0.21114857 0.67800003 4740506
-0.11652953 0.21052572 0.67600006 5990573
-0.11507143 0.21021429 0.67500001 6516638
-0.11361714 0.20990287 0.67400002 6385052
-0.11183333 0.20896858 0.671 6319522
-0.11055524 0.20896858 0.671 6385315
-0.10927714 0.20896858 0.671 6319016
-0.10783809 0.20865715 0.67000002 6319016
-0.10656191 0.20865715 0.67000002 6253225
-0.10497144 0.20803431 0.66800004 6384811
-0.10369906 0.20803431 0.66800004 7042734
-0.10227334 0.20772287 0.66700006 7042734
-0.10100286 0.20772287 0.66700006 7042723
-0.099582858 0.20741142 0.66600001 6582172
-0.098314285 0.20741142 0.66600001 6911918
-0.097045712 0.20741142 0.66600001 7175090
-0.095777147 0.20741142 0.66600001 8095920
-0.094508573 0.20741142 0.66600001 8885436
-0.09324 0.20741142 0.66600001 8819150
-0.091971427 0.20741142 0.66600001 7634876
-0.090702854 0.20741142 0.66600001 7044049
-0.089434281 0.20741142 0.66600001 7109842
-0.088165708 0.20741142 0.66600001 7044801
-0.08689715 0.20741142 0.66600001 6584250
-0.085628577 0.20741142 0.66600001 6714555
-0.084360003 0.20741142 0.66600001 6780348
-0.08309143 0.20741142 0.66600001 6845873
-0.081945717 0.20772287 0.66700006 6714287
-0.080796197 0.20803431 0.66800004 6583480
-0.079523817 0.20803431 0.66800004 7701961
-0.07848572 0.20865715 0.67000002 8030156
-0.077209525 0.20865715 0.67000002 8030156
-0.076046668 0.20896858 0.671 7439559
-0.074768573 0.20896858 0.671 6847422
-0.073600002 0.20928001 0.67200005 5797832
-0.072535239 0.20990287 0.67400002 4547765
-0.071462862 0.21052572 0.67600006 3957179
-0.070175245 0.21052572 0.67600006 3036077
-0.069091432 0.21114857 0.67800003 2969533
-0.067900002 0.21146001 0.67900002 2969533
-0.066900954 0.2123943 0.68200004 2904242
-0.065698095 0.21270572 0.68300003 2904242
-0.064491428 0.21301714 0.68400002 3166382
-0.063373342 0.21364002 0.68600005 3100589
-0.06215715 0.21395144 0.68700004 5463189
-0.061114289 0.21488573 0.69000006 8555460
-0.059800003 0.21488573 0.69000006 9539476
-0.12424096 0.21400668 0.68300003 9012608
-0.12294 0.21400668 0.68300003 9275780
-0.12163905 0.21400668 0.68300003 7699080
-0.1203381 0.21400668 0.68300003 5198946
-0.11834 0.21275334 0.67900002 4150670
-0.11687429 0.21244001 0.67800003 5005979
-0.11507143 0.21149999 0.67500001 6057888
-0.11361714 0.21118666 0.67400002 6057888
-0.112 0.21056001 0.67200005 6123170
-0.11072001 0.21056001 0.67200005 6188963
-0.10927714 0.21024667 0.671 6319529
-0.10799905 0.21024667 0.671 6516908
-0.10656191 0.20993334 0.67000002 6516908
-0.10528572 0.20993334 0.67000002 6582701
-0.10400952 0.20993334 0.67000002 7174320
-0.10242667 0.20930669 0.66800004 7174320
-0.10100286 0.20899336 0.66700006 6977711
-0.099732392 0.20899336 0.66700006 6977711
-0.098461911 0.20899336 0.66700006 7371704
-0.097191438 0.20899336 0.66700006 7503290
-0.095920965 0.20899336 0.66700006 8029625
-0.094508573 0.20867999 0.66600001 8555969
-0.09324 0.20867999 0.66600001 8293841
-0.091971427 0.20867999 0.66600001 7833290
-0.090702854 0.20867999 0.66600001 7965901
-0.089434281 0.20867999 0.66600001 7702729
-0.088165708 0.20867999 0.66600001 7506113
-0.08689715 0.20867999 0.66600001 7374527
-0.085628577 0.20867999 0.66600001 7111355
-0.084360003 0.20867999 0.66600001 6979769
-0.08309143 0.20867999 0.66600001 7438262
-0.081945717 0.20899336 0.66700006 7240883
-0.080796197 0.20930669 0.66800004 6845880
-0.079761907 0.20993334 0.67000002 7503810
-0.07848572 0.20993334 0.67000002 7241676
-0.077324763 0.21024667 0.671 6978504
-0.076046668 0.21024667 0.671 6323658
-0.074768573 0.21024667 0.671 6060486
-0.073600002 0.21056001 0.67200005 5601741
-0.072642855 0.21149999 0.67500001 4154295
-0.071462862 0.21181335 0.67600006 3892413
-0.070382856 0.21244001 0.67800003 2971311
-0.069193333 0.21275334 0.67900002 3100093
-0.068000004 0.21306667 0.68000001 2836921
-0.066900954 0.21369334 0.68200004 3100338
-0.065698095 0.21400668 0.68300003 3166131
-0.064680003 0.21494667 0.68600005 3166119
-0.063465714 0.21526001 0.68700004 2968740
-0.062247619 0.21557334 0.68800002 5856407
-0.061114289 0.21620002 0.69000006 8619713
-0.059886672 0.21651335 0.69100004 9539476
-0.058570478 0.21651335 0.69100004 9605269
-0.12424096 0.21530762 0.68300003 9275782
-0.12294 0.21530762 0.68300003 9341575
-0.12163905 0.21530762 0.68300003 7961734
-0.1203381 0.21530762 0.68300003 5264221
-0.11903714 0.21530762 0.68300003 4281997
-0.11704667 0.21404667 0.67900002 4939927
-0.11524191 0.21310095 0.67600006 5992347
-0.11378571 0.21278572 0.67500001 6321312
-0.112 0.21184002 0.67200005 6584227
-0.11072001 0.21184002 0.67200005 6781606
-0.10927714 0.21152475 0.671 6912175
-0.10799905 0.21152475 0.671 7043761
-0.10672095 0.21152475 0.671 7110069
-0.10528572 0.21120952 0.67000002 7373241
-0.10400952 0.21120952 0.67000002 7176889
-0.10242667 0.21057907 0.66800004 7440061
-0.10115429 0.21057907 0.66800004 7570625
-0.099732392 0.21026383 0.66700006 7504832
-0.098461911 0.21026383 0.66700006 7504582
-0.097191438 0.21026383 0.66700006 7833547
-0.095920965 0.21026383 0.66700006 7767747
-0.094650485 0.21026383 0.66700006 7701954
-0.09324 0.20994857 0.66600001 7439566
-0.091971427 0.20994857 0.66600001 7373773
-0.090702854 0.20994857 0.66600001 8293569
-0.089434281 0.20994857 0.66600001 8425155
-0.088165708 0.20994857 0.66600001 8686780
-0.08689715 0.20994857 0.66600001 8226229
-0.085628577 0.20994857 0.66600001 8160175
-0.084360003 0.20994857 0.66600001 8094382
-0.083216198 0.21026383 0.66700006 7832239
-0.082068577 0.21057907 0.66800004 7832239
-0.081038095 0.21120952 0.67000002 7307453
-0.079761907 0.21120952 0.67000002 7307453
-0.07860285 0.21152475 0.671 7176405
-0.077324763 0.21152475 0.671 7176405
-0.076159999 0.21184002 0.67200005 6521044
-0.074880004 0.21184002 0.67200005 5073598
-0.073819049 0.21247049 0.67400002 3565514
-0.072642855 0.21278572 0.67500001 2907584
-0.071462862 0.21310095 0.67600006 3957698
-0.070382856 0.21373144 0.67800003 3497147
-0.069193333 0.21404667 0.67900002 2904767
-0.0682 0.2149924 0.68200004 2115251
-0.066999055 0.21530762 0.68300003 2772404
-0.065794282 0.21562286 0.68400002 2903990
-0.064680003 0.21625334 0.68600005 3034535
-0.063465714 0.21656859 0.68700004 2837156
-0.062247619 0.21688382 0.68800002 5396369
-0.061114289 0.21751429 0.69000006 8159675
-0.059886672 0.21782953 0.69100004 9604756
-0.058570478 0.21782953 0.69100004 9670549
-0.12442286 0.21692571 0.68400002 9275782
-0.12312 0.21692571 0.68400002 9407368
-0.12181715 0.21692571 0.68400002 8093572
-0.12051429 0.21692571 0.68400002 5330266
-0.11903714 0.21660858 0.68300003 4150670
-0.11756381 0.21629144 0.68200004 4940186
-0.11558286 0.21502288 0.67800003 5268122
-0.11378571 0.21407144 0.67500001 6057638
-0.112 0.21312001 0.67200005 6191277
-0.11072001 0.21312001 0.67200005 6322863
-0.10927714 0.21280286 0.671 6650806
-0.10799905 0.21280286 0.671 6650806
-0.10672095 0.21280286 0.671 6716858
-0.10528572 0.21248572 0.67000002 6782651
-0.10400952 0.21248572 0.67000002 6717115
-0.10242667 0.21185145 0.66800004 6914494
-0.10115429 0.21185145 0.66800004 6849727
-0.099732392 0.21153431 0.66700006 6718141
-0.098461911 0.21153431 0.66700006 6717378
-0.097191438 0.21153431 0.66700006 7112136
-0.095920965 0.21153431 0.66700006 6981061
-0.094650485 0.21153431 0.66700006 6454717
-0.093380012 0.21153431 0.66700006 6519488
-0.092109531 0.21153431 0.66700006 6716867
-0.090839051 0.21153431 0.66700006 8686528
-0.089568578 0.21153431 0.66700006 9278665
-0.088298097 0.21153431 0.66700006 9539784
-0.087027624 0.21153431 0.66700006 8684475
-0.085757144 0.21153431 0.66700006 8487339
-0.084486671 0.21153431 0.66700006 8684718
-0.083340958 0.21185145 0.66800004 8094384
-0.082314283 0.21248572 0.67000002 8028591
-0.081038095 0.21248572 0.67000002 7374016
-0.079761907 0.21248572 0.67000002 7242430
-0.07860285 0.21280286 0.671 6980309
-0.077324763 0.21280286 0.671 6980309
-0.076159999 0.21312001 0.67200005 6259414
-0.074880004 0.21312001 0.67200005 4943554
-0.073928572 0.21407144 0.67500001 3368650
-0.072750486 0.21438858 0.67600006 3171271
-0.071674287 0.21502288 0.67800003 4153794
-0.070486665 0.21534 0.67900002 3561657
-0.069295242 0.21565714 0.68000001 3496641
-0.0682 0.21629144 0.68200004 2707125
-0.066999055 0.21660858 0.68300003 2838197
-0.065794282 0.21692571 0.68400002 2903990
-0.064774282 0.21787715 0.68700004 3558567
-0.063465714 0.21787715 0.68700004 3098016
-0.06215715 0.21787715 0.68700004 4870802
-0.060937144 0.21819429 0.68800002 7963073
-0.059886672 0.21914573 0.69100004 9670551
-0.058570478 0.21914573 0.69100004 9867930
-0.12348001 0.21886668 0.68600005 9603968
-0.12181715 0.21822856 0.68400002 8159361
-0.12051429 0.21822856 0.68400002 5593434
-0.11903714 0.21790953 0.68300003 4872601
-0.1177362 0.21790953 0.68300003 5135773
-0.11575333 0.21663333 0.67900002 5070743
-0.11395429 0.2156762 0.67600006 5004950
-0.11233333 0.21503811 0.67400002 4809127
-0.11072001 0.21440001 0.67200005 4809127
-0.10927714 0.21408096 0.671 4481713
-0.10799905 0.21408096 0.671 4415920
-0.10672095 0.21408096 0.671 4876471
-0.10528572 0.21376191 0.67000002 5073850
-0.10400952 0.21376191 0.67000002 5797046
-0.10273334 0.21376191 0.67000002 5797046
-0.10145715 0.21376191 0.67000002 6191293
-0.09988191 0.21312381 0.66800004 6191293
-0.098609529 0.21312381 0.66800004 6585792
-0.097337149 0.21312381 0.66800004 6717378
-0.096064761 0.21312381 0.66800004 6717889
-0.094792388 0.21312381 0.66800004 5796787
-0.093520008 0.21312381 0.66800004 5731771
-0.092109531 0.21280478 0.66700006 6060736
-0.090839051 0.21280478 0.66700006 8555196
-0.08970286 0.21312381 0.66800004 9410505
-0.088298097 0.21280478 0.66700006 9802181
-0.087027624 0.21280478 0.66700006 8815286
-0.085757144 0.21280478 0.66700006 8486823
-0.084613338 0.21312381 0.66800004 8815788
-0.083590478 0.21376191 0.67000002 7898030
-0.082314283 0.21376191 0.67000002 6911135
-0.081159048 0.21408096 0.671 6256845
-0.079880953 0.21408096 0.671 6848982
-0.078720003 0.21440001 0.67200005 6718164
-0.077440001 0.21440001 0.67200005 6718164
-0.076159999 0.21440001 0.67200005 6390741
-0.075102858 0.21503811 0.67400002 6324948
-0.074038103 0.2156762 0.67600006 5667538
-0.072965719 0.21631429 0.67800003 4285885
-0.071780004 0.21663333 0.67900002 4023486
-0.070590481 0.21695238 0.68000001 3168177
-0.069295242 0.21695238 0.68000001 3299775
-0.0682 0.2175905 0.68200004 3036603
-0.066999055 0.21790953 0.68300003 3364021
-0.065986671 0.21886668 0.68600005 2903470
-0.064774282 0.21918572 0.68700004 3100074
-0.063465714 0.21918572 0.68700004 2836902
-0.06215715 0.21918572 0.68700004 4673432
-0.060937144 0.21950477 0.68800002 7831496
-0.059886672 0.22046192 0.69100004 9604754
-0.058570478 0.22046192 0.69100004 9802133
-0.12348001 0.22017336 0.68600005 9603972
-0.12217335 0.22017336 0.68600005 8290940
-0.12086668 0.22017336 0.68600005 5725013
-0.11921144 0.21953143 0.68400002 4938900
-0.11790857 0.21953143 0.68400002 4873107
-0.11643524 0.21921048 0.68300003 4348562
-0.11429143 0.21760572 0.67800003 4545941
-0.1125 0.21664286 0.67500001 4349348
-0.11072001 0.21568002 0.67200005 4151969
-0.10927714 0.21535905 0.671 3693487
-0.10799905 0.21535905 0.671 3561901
-0.10672095 0.21535905 0.671 4547763
-0.10544286 0.21535905 0.671 4942521
-0.10400952 0.21503811 0.67000002 5862841
-0.10273334 0.21503811 0.67000002 6060220
-0.10145715 0.21503811 0.67000002 6389183
-0.09988191 0.21439619 0.66800004 6454976
-0.098609529 0.21439619 0.66800004 6651333
-0.097337149 0.21439619 0.66800004 7440849
-0.096064761 0.21439619 0.66800004 7245006
-0.094792388 0.21439619 0.66800004 6192318
-0.093520008 0.21439619 0.66800004 5666746
-0.092247628 0.21439619 0.66800004 5929918
-0.090975247 0.21439619 0.66800004 8160702
-0.08970286 0.21439619 0.66800004 9279183
-0.088430479 0.21439619 0.66800004 9934019
-0.087158099 0.21439619 0.66800004 8683952
-0.085885718 0.21439619 0.66800004 8682921
-0.084613338 0.21439619 0.66800004 9143472
-0.083590478 0.21503811 0.67000002 8028852
-0.082437143 0.21535905 0.671 6712992
-0.081159048 0.21535905 0.671 5600710
-0.079880953 0.21535905 0.671 6456019
-0.078720003 0.21568002 0.67200005 6652628
-0.077440001 0.21568002 0.67200005 6850007
-0.076386668 0.21632192 0.67400002 7441117
-0.075102858 0.21632192 0.67400002 7572703
-0.074038103 0.21696383 0.67600006 6522323
-0.072965719 0.21760572 0.67800003 5074877
-0.071780004 0.21792668 0.67900002 4286663
-0.070590481 0.21824762 0.68000001 3233975
-0.069295242 0.21824762 0.68000001 2708669
-0.068300001 0.21921048 0.68300003 2774462
-0.067097142 0.21953143 0.68400002 3429303
-0.065986671 0.22017336 0.68600005 3034545
-0.064774282 0.2204943 0.68700004 3034281
-0.063465714 0.2204943 0.68700004 2639523
-0.06215715 0.2204943 0.68700004 4279957
-0.060937144 0.22081524 0.68800002 7372228
-0.059886672 0.22177811 0.69100004 9209496
-0.058570478 0.22177811 0.69100004 9670047
-0.12478668 0.22148001 0.68600005 9209214
-0.12348001 0.22148001 0.68600005 9472386
-0.12217335 0.22148001 0.68600005 8356731
-0.12086668 0.22148001 0.68600005 5856597
-0.11921144 0.22083429 0.68400002 4742548
-0.11790857 0.22083429 0.68400002 4413583
-0.11643524 0.22051142 0.68300003 3889290
-0.11446001 0.21922 0.67900002 4218255
-0.11266667 0.21825144 0.67600006 4284582
-0.11104953 0.21760572 0.67400002 4284582
-0.10927714 0.21663713 0.671 4022193
-0.10799905 0.21663713 0.671 3759021
-0.10672095 0.21663713 0.671 4285624
-0.10544286 0.21663713 0.671 4680382
-0.10400952 0.21631429 0.67000002 5601207
-0.10273334 0.21631429 0.67000002 5995965
-0.10145715 0.21631429 0.67000002 6324156
-0.09988191 0.21566857 0.66800004 6389949
-0.098609529 0.21566857 0.66800004 6915018
-0.097337149 0.21566857 0.66800004 7572948
-0.096064761 0.21566857 0.66800004 7966934
-0.094792388 0.21566857 0.66800004 7506383
-0.093520008 0.21566857 0.66800004 6652103
-0.092247628 0.21566857 0.66800004 6783689
-0.090975247 0.21566857 0.66800004 8292549
-0.089971431 0.21631429 0.67000002 9213651
-0.088695243 0.21631429 0.67000002 9540279
-0.087419048 0.21631429 0.67000002 8356005
-0.08614286 0.21631429 0.67000002 8421032
-0.084866665 0.21631429 0.67000002 8749997
-0.083590478 0.21631429 0.67000002 7372467
-0.082437143 0.21663713 0.671 5859228
-0.081159048 0.21663713 0.671 5535698
-0.079880953 0.21663713 0.671 6588386
-0.078720003 0.21696001 0.67200005 7704532
-0.077670477 0.21760572 0.67400002 8428255
-0.076386668 0.21760572 0.67400002 8755930
-0.075214282 0.21792857 0.67500001 7966414
-0.074257143 0.21889715 0.67800003 6521798
-0.072965719 0.21889715 0.67800003 5666489
-0.07188572 0.21954286 0.68000001 4813517
-0.070590481 0.21954286 0.68000001 3695036
-0.069499053 0.22018859 0.68200004 3562170
-0.068300001 0.22051142 0.68300003 3167412
-0.067097142 0.22083429 0.68400002 3429303
-0.065986671 0.22148001 0.68600005 3363510
-0.064774282 0.22180286 0.68700004 3232171
-0.063465714 0.22180286 0.68700004 2771620
-0.062247619 0.22212572 0.68800002 4083094
-0.060937144 0.22212572 0.68800002 6912193
-0.059886672 0.22309428 0.69100004 9143962
-0.058570478 0.22309428 0.69100004 9604513
-0.12366 0.22311144 0.68700004 9603718
-0.12217335 0.22278668 0.68600005 8423039
-0.12051429 0.22213714 0.68400002 6054491
-0.11921144 0.22213714 0.68400002 5071247
-0.11790857 0.22213714 0.68400002 4347524
-0.11660571 0.22213714 0.68400002 3430799
-0.11446001 0.22051333 0.67900002 4022936
-0.11266667 0.21953906 0.67600006 4351127
-0.11104953 0.21888953 0.67400002 4153748
-0.10944001 0.21824002 0.67200005 3759521
-0.10799905 0.21791524 0.671 3759521
-0.10672095 0.21791524 0.671 4088488
-0.10544286 0.21791524 0.671 4483246
-0.10416476 0.21791524 0.671 5010092
-0.10273334 0.21759048 0.67000002 5470643
-0.10145715 0.21759048 0.67000002 5864118
-0.10018095 0.21759048 0.67000002 6127290
-0.098904766 0.21759048 0.67000002 6520769
-0.097337149 0.21694095 0.66800004 7112906
-0.096064761 0.21694095 0.66800004 7310024
-0.094792388 0.21694095 0.66800004 7178438
-0.093800001 0.21759048 0.67000002 6587330
-0.092523813 0.21759048 0.67000002 6784709
-0.091247626 0.21759048 0.67000002 8490178
-0.089971431 0.21759048 0.67000002 8687557
-0.088695243 0.21759048 0.67000002 9079476
-0.087419048 0.21759048 0.67000002 8355753
-0.08614286 0.21759048 0.67000002 8421028
-0.084866665 0.21759048 0.67000002 8684200
-0.083715238 0.21791524 0.671 6651313
-0.082437143 0.21791524 0.671 5467039
-0.081159048 0.21791524 0.671 4683462
-0.080000006 0.21824002 0.67200005 5933529
-0.078954287 0.21888953 0.67400002 7245010
-0.077670477 0.21888953 0.67400002 8495077
-0.076500006 0.21921429 0.67500001 9085154
-0.075214282 0.21921429 0.67500001 7900880
-0.074257143 0.22018859 0.67800003 6456010
-0.073073335 0.22051333 0.67900002 5008564
-0.07188572 0.2208381 0.68000001 5010381
-0.070590481 0.2208381 0.68000001 4220865
-0.069499053 0.22148763 0.68200004 3890873
-0.068300001 0.2218124 0.68300003 3232943
-0.067097142 0.22213714 0.68400002 3166392
-0.065986671 0.22278668 0.68600005 3166392
-0.064774282 0.22311144 0.68700004 3232173
-0.063558094 0.22343619 0.68800002 2771622
-0.062247619 0.22343619 0.68800002 4083094
-0.060937144 0.22343619 0.68800002 6714814
-0.059886672 0.22441049 0.69100004 8816028
-0.058570478 0.22441049 0.69100004 9539751
-0.12181715 0.22343999 0.68400002 8554112
-0.1203381 0.22311334 0.68300003 6251357
-0.11903714 0.22311334 0.68300003 5070988
-0.1177362 0.22311334 0.68300003 4281472
-0.11643524 0.22311334 0.68300003 4938646
-0.11496571 0.22278668 0.68200004 6583471
-0.11300001 0.22148001 0.67800003 7174796
-0.11121429 0.22050001 0.67500001 7174796
-0.10944001 0.21952002 0.67200005 6517919
-0.10816 0.21952002 0.67200005 5991575
-0.10688 0.21952002 0.67200005 5860779
-0.10544286 0.21919332 0.671 6321330
-0.10416476 0.21919332 0.671 6059176
-0.10288666 0.21919332 0.671 6256555
-0.10145715 0.21886668 0.67000002 6846643
-0.10018095 0.21886668 0.67000002 7109815
-0.098904766 0.21886668 0.67000002 7044272
-0.097628571 0.21886668 0.67000002 7175858
-0.096352383 0.21886668 0.67000002 7111096
-0.095076188 0.21886668 0.67000002 7242682
-0.093800001 0.21886668 0.67000002 7898559
-0.092523813 0.21886668 0.67000002 8556489
-0.091247626 0.21886668 0.67000002 9081272
-0.089971431 0.21886668 0.67000002 8752307
-0.088695243 0.21886668 0.67000002 8816304
-0.087419048 0.21886668 0.67000002 8355753
-0.08614286 0.21886668 0.67000002 8224419
-0.084866665 0.21886668 0.67000002 8619177
-0.083715238 0.21919332 0.671 7504055
-0.082437143 0.21919332 0.671 7175090
-0.081280008 0.21952002 0.67200005 6717385
-0.080000006 0.21952002 0.67200005 7309522
-0.078954287 0.22017334 0.67400002 7834826
-0.077670477 0.22017334 0.67400002 8887514
-0.076500006 0.22050001 0.67500001 8953552
-0.075214282 0.22050001 0.67500001 7966657
-0.074257143 0.22148001 0.67800003 6455499
-0.073073335 0.22180666 0.67900002 3692193
-0.07188572 0.22213334 0.68000001 3368135
-0.070590481 0.22213334 0.68000001 3960272
-0.069499053 0.22278668 0.68200004 4614580
-0.068399996 0.22343999 0.68400002 3035548
-0.067097142 0.22343999 0.68400002 3100347
-0.065986671 0.22409335 0.68600005 3166140
-0.064774282 0.22442001 0.68700004 3232173
-0.063558094 0.22474667 0.68800002 2640036
-0.062247619 0.22474667 0.68800002 3689108
-0.061114289 0.22540002 0.69000006 6386621
-0.059800003 0.22540002 0.69000006 8816280
-0.12181715 0.22474286 0.68400002 8619905
-0.1203381 0.22441429 0.68300003 6185564
-0.11903714 0.22441429 0.68300003 4874118
-0.1177362 0.22441429 0.68300003 4413567
-0.11643524 0.22441429 0.68300003 5528205
-0.11496571 0.22408572 0.68200004 7501995
-0.11300001 0.22277145 0.67800003 8223891
-0.11137906 0.22211429 0.67600006 8158098
-0.10976572 0.22145715 0.67400002 7763865
-0.10816 0.22080001 0.67200005 7632279
-0.10688 0.22080001 0.67200005 7501986
-0.10560001 0.22080001 0.67200005 7436193
-0.10416476 0.22047143 0.671 7764899
-0.10288666 0.22047143 0.671 7764899
-0.10160857 0.22047143 0.671 8093355
-0.10018095 0.22014286 0.67000002 8159148
-0.098904766 0.22014286 0.67000002 7962285
-0.097628571 0.22014286 0.67000002 7896492
-0.096352383 0.22014286 0.67000002 7634610
-0.095076188 0.22014286 0.67000002 7897782
-0.093800001 0.22014286 0.67000002 8488892
-0.092523813 0.22014286 0.67000002 9409994
-0.091247626 0.22014286 0.67000002 9540547
-0.090105712 0.22047143 0.671 8619445
-0.088827617 0.22047143 0.671 8684202
-0.087549523 0.22047143 0.671 8421030
-0.086271428 0.22047143 0.671 8224419
-0.084993333 0.22047143 0.671 8684970
-0.083715238 0.22047143 0.671 8488892
-0.082437143 0.22047143 0.671 8554685
-0.081280008 0.22080001 0.67200005 8555714
-0.080000006 0.22080001 0.67200005 8424128
-0.078954287 0.22145715 0.67400002 8490180
-0.077785715 0.22178571 0.67500001 9148110
-0.076500006 0.22178571 0.67500001 8886987
-0.07532572 0.22211429 0.67600006 7900092
-0.074257143 0.22277145 0.67800003 6192322
-0.073073335 0.22310001 0.67900002 3626395
-0.07188572 0.22342858 0.68000001 3039431
-0.070590481 0.22342858 0.68000001 3631568
-0.069600955 0.22441429 0.68300003 4811194
-0.068399996 0.22474286 0.68400002 3429541
-0.067293338 0.22540002 0.68600005 3035317
-0.066082858 0.22572859 0.68700004 2969524
-0.064774282 0.22572859 0.68700004 3166380
-0.063742861 0.2267143 0.69000006 2640036
-0.062519051 0.22704287 0.69100004 3557781
-0.061380003 0.22770001 0.69300002 6123708
-0.060060002 0.22770001 0.69300002 8487065
-0.12181715 0.22604571 0.68400002 8816512
-0.1203381 0.22571525 0.68300003 6447964
-0.11903714 0.22571525 0.68300003 5332614
-0.1177362 0.22571525 0.68300003 5266821
-0.11626477 0.22538477 0.68200004 5988497
-0.11446001 0.22439334 0.67900002 7567529
-0.11300001 0.22406286 0.67800003 7895180
-0.11137906 0.22340192 0.67600006 8289938
-0.10992857 0.22307143 0.67500001 8355990
-0.10864286 0.22307143 0.67500001 8421783
-0.10735714 0.22307143 0.67500001 8357278
-0.10591429 0.22274096 0.67400002 8423071
-0.10463049 0.22274096 0.67400002 8554918
-0.10288666 0.22174953 0.671 8554918
-0.10160857 0.22174953 0.671 8685999
-0.10033047 0.22174953 0.671 8685999
-0.098904766 0.22141905 0.67000002 8751792
-0.097628571 0.22141905 0.67000002 8817585
-0.096352383 0.22141905 0.67000002 8620726
-0.095076188 0.22141905 0.67000002 8357554
-0.093939997 0.22174953 0.671 8751551
-0.092661902 0.22174953 0.671 9738446
-0.091383815 0.22174953 0.671 9934019
-0.090105712 0.22174953 0.671 8815538
-0.088827617 0.22174953 0.671 8223653
-0.087549523 0.22174953 0.671 8223653
-0.086271428 0.22174953 0.671 8355237
-0.084993333 0.22174953 0.671 9539511
-0.083840005 0.22208002 0.67200005 9672646
-0.082560003 0.22208002 0.67200005 9409474
-0.081280008 0.22208002 0.67200005 9147576
-0.080238096 0.22274096 0.67400002 8687025
-0.079071432 0.22307143 0.67500001 8620989
-0.077785715 0.22307143 0.67500001 8620989
-0.076613337 0.22340192 0.67600006 8425396
-0.07532572 0.22340192 0.67600006 8162224
-0.074257143 0.22406286 0.67800003 6324156
-0.073180959 0.22472382 0.68000001 3363471
-0.07188572 0.22472382 0.68000001 2908617
-0.070798099 0.22538477 0.68200004 3566547
-0.069600955 0.22571525 0.68300003 4679860
-0.068399996 0.22604571 0.68400002 3561379
-0.067293338 0.22670668 0.68600005 3232181
-0.066082858 0.22703715 0.68700004 3100595
-0.064774282 0.22703715 0.68700004 3035307
-0.063742861 0.2280286 0.69000006 2508963
-0.062519051 0.22835906 0.69100004 3425945
-0.061380003 0.22902 0.69300002 5860286
-0.060060002 0.22902 0.69300002 8552858
-0.12163905 0.2270162 0.68300003 8816512
-0.1203381 0.2270162 0.68300003 6513757
-0.11903714 0.2270162 0.68300003 5595260
-0.1177362 0.2270162 0.68300003 5726846
-0.11626477 0.22668383 0.68200004 7039367
-0.11446001 0.22568667 0.67900002 7894676
-0.11300001 0.2253543 0.67800003 7828615
-0.11137906 0.22468954 0.67600006 8420752
-0.10992857 0.22435714 0.67500001 8487324
-0.10864286 0.22435714 0.67500001 8816289
-0.10735714 0.22435714 0.67500001 8488871
-0.10607143 0.22435714 0.67500001 8949422
-0.10463049 0.22402477 0.67400002 8883891
-0.10334668 0.22402477 0.67400002 8883891
-0.10176001 0.22336002 0.67200005 8883378
-0.10033047 0.22302762 0.671 8817585
-0.099052377 0.22302762 0.671 8883378
-0.09777429 0.22302762 0.671 9080757
-0.096496187 0.22302762 0.671 8949945
-0.0952181 0.22302762 0.671 8884152
-0.093939997 0.22302762 0.671 9146811
-0.092661902 0.22302762 0.671 9673155
-0.091383815 0.22302762 0.671 9934019
-0.090105712 0.22302762 0.671 8618159
-0.088827617 0.22302762 0.671 8420001
-0.087549523 0.22302762 0.671 8551587
-0.086271428 0.22302762 0.671 8617126
-0.084993333 0.22302762 0.671 9735607
-0.083840005 0.22336002 0.67200005 9541571
-0.082560003 0.22336002 0.67200005 9212606
-0.081280008 0.22336002 0.67200005 9278399
-0.080238096 0.22402477 0.67400002 8883641
-0.079071432 0.22435714 0.67500001 8817589
-0.077785715 0.22435714 0.67500001 8751796
-0.076613337 0.22468954 0.67600006 8621239
-0.07532572 0.22468954 0.67600006 8555446
-0.074366666 0.22568667 0.67900002 6849984
-0.073180959 0.22601905 0.68000001 4613022
-0.07188572 0.22601905 0.68000001 3105476
-0.070798099 0.22668383 0.68200004 3368648
-0.069600955 0.2270162 0.68300003 4613810
-0.068399996 0.22734857 0.68400002 3429536
-0.067293338 0.22801335 0.68600005 3166388
-0.066082858 0.22834572 0.68700004 2837423
-0.064774282 0.22834572 0.68700004 2969514
-0.063742861 0.22934286 0.69000006 2443170
-0.062519051 0.22967525 0.69100004 3294357
-0.061202858 0.22967525 0.69100004 5728698
-0.12163905 0.22831716 0.68300003 8882046
-0.1203381 0.22831716 0.68300003 6645084
-0.11886286 0.22798288 0.68200004 5922172
-0.11756381 0.22798288 0.68200004 6316930
-0.11626477 0.22798288 0.68200004 7039619
-0.11462857 0.22731429 0.68000001 7763342
-0.11316667 0.22698 0.67900002 7763074
-0.11170857 0.22664572 0.67800003 8355211
-0.11009143 0.22597715 0.67600006 8487074
-0.10880382 0.22597715 0.67600006 9013418
-0.1075162 0.22597715 0.67600006 8685742
-0.10607143 0.22564286 0.67500001 9212086
-0.10478572 0.22564286 0.67500001 9146550
-0.10334668 0.22530857 0.67400002 9212343
-0.10206286 0.22530857 0.67400002 8949682
-0.10048001 0.22464003 0.67200005 8818096
-0.099052377 0.2243057 0.671 8883639
-0.09777429 0.2243057 0.671 8883639
-0.096496187 0.2243057 0.671 8949945
-0.0952181 0.2243057 0.671 9081531
-0.093939997 0.2243057 0.671 9081531
-0.092661902 0.2243057 0.671 9476289
-0.091383815 0.2243057 0.671 9802433
-0.090105712 0.2243057 0.671 8420780
-0.088827617 0.2243057 0.671 8223649
-0.087549523 0.2243057 0.671 8486821
-0.08640001 0.22464003 0.67200005 8552616
-0.085120007 0.22464003 0.67200005 8815788
-0.084089532 0.22530857 0.67400002 8488109
-0.082805723 0.22530857 0.67400002 8422316
-0.081521906 0.22530857 0.67400002 8553913
-0.080238096 0.22530857 0.67400002 8685499
-0.079071432 0.22564286 0.67500001 8620206
-0.077900954 0.22597715 0.67600006 8685999
-0.076613337 0.22597715 0.67600006 8884663
-0.075548574 0.22664572 0.67800003 9082042
-0.074366666 0.22698 0.67900002 8294600
-0.073180959 0.22731429 0.68000001 7834049
-0.07188572 0.22731429 0.68000001 6390462
-0.070590481 0.22731429 0.68000001 3956121
-0.069600955 0.22831716 0.68300003 3826347
-0.068399996 0.22865142 0.68400002 2905245
-0.067293338 0.22932 0.68600005 3035315
-0.066082858 0.2296543 0.68700004 3035315
-0.064774282 0.2296543 0.68700004 2641835
-0.063558094 0.22998857 0.68800002 1918112
-0.062247619 0.22998857 0.68800002 3492760
-0.060937144 0.22998857 0.68800002 5400757
-0.059626669 0.22998857 0.68800002 8092559
-0.12163905 0.2296181 0.68300003 8947839
-0.1203381 0.2296181 0.68300003 6776670
-0.11886286 0.22928192 0.68200004 5986929
-0.11756381 0.22928192 0.68200004 6710652
-0.11626477 0.22928192 0.68200004 7499648
-0.11462857 0.22860953 0.68000001 7828613
-0.11316667 0.22827335 0.67900002 7632004
-0.11170857 0.22793716 0.67800003 8158348
-0.11009143 0.22726478 0.67600006 8093082
-0.10880382 0.22726478 0.67600006 8553633
-0.1075162 0.22726478 0.67600006 8423332
-0.10607143 0.22692858 0.67500001 8883883
-0.10478572 0.22692858 0.67500001 8818599
-0.1035 0.22692858 0.67500001 9015978
-0.10206286 0.22659239 0.67400002 9081521
-0.10077905 0.22659239 0.67400002 9147314
-0.099052377 0.22558381 0.671 9147835
-0.09777429 0.22558381 0.671 9213628
-0.096496187 0.22558381 0.671 9213376
-0.0952181 0.22558381 0.671 9015997
-0.093939997 0.22558381 0.671 9213117
-0.092661902 0.22558381 0.671 9476289
-0.091383815 0.22558381 0.671 9605831
-0.090105712 0.22558381 0.671 8092592
-0.088960007 0.22592002 0.67200005 7961244
-0.087680012 0.22592002 0.67200005 8158623
-0.08640001 0.22592002 0.67200005 8421795
-0.085120007 0.22592002 0.67200005 8619174
-0.084089532 0.22659239 0.67400002 8619177
-0.082928576 0.22692858 0.67500001 8684970
-0.081642851 0.22692858 0.67500001 8684718
-0.080357142 0.22692858 0.67500001 8947890
-0.079188578 0.22726478 0.67600006 8883378
-0.077900954 0.22726478 0.67600006 9080757
-0.076613337 0.22726478 0.67600006 9015999
-0.075548574 0.22793716 0.67800003 9279171
-0.074366666 0.22827335 0.67900002 9608650
-0.073180959 0.22860953 0.68000001 9608650
-0.07188572 0.22860953 0.68000001 7638732
-0.070590481 0.22860953 0.68000001 4743840
-0.069600955 0.2296181 0.68300003 3169190
-0.068399996 0.22995429 0.68400002 2642846
-0.067293338 0.23062669 0.68600005 3166129
-0.066082858 0.23096287 0.68700004 3166129
-0.064774282 0.23096287 0.68700004 2707626
-0.063558094 0.23129906 0.68800002 2510247
-0.062247619 0.23129906 0.68800002 4215198
-0.060937144 0.23129906 0.68800002 5070507
-0.059886672 0.23230763 0.69100004 7894156
-0.12163905 0.23091906 0.68300003 9013119
-0.1203381 0.23091906 0.68300003 6907743
-0.11886286 0.23058097 0.68200004 6118515
-0.11756381 0.23058097 0.68200004 6579066
-0.11626477 0.23058097 0.68200004 7237500
-0.11462857 0.22990477 0.68000001 7500672
-0.11316667 0.22956668 0.67900002 7828615
-0.11187334 0.22956668 0.67900002 7828615
-0.11041714 0.22922859 0.67800003 7960721
-0.10880382 0.2285524 0.67600006 7960721
-0.1075162 0.2285524 0.67600006 7829396
-0.10622858 0.2285524 0.67600006 8092568
-0.10478572 0.22821428 0.67500001 8224656
-0.1035 0.22821428 0.67500001 8816793
-0.10206286 0.22787619 0.67400002 8752297
-0.10077905 0.22787619 0.67400002 9410227
-0.09920001 0.22720002 0.67200005 9607614
-0.09777429 0.22686191 0.671 9607614
-0.096496187 0.22686191 0.671 9476035
-0.095360003 0.22720002 0.67200005 9278656
-0.094080001 0.22720002 0.67200005 9476541
-0.092800006 0.22720002 0.67200005 10068678
-0.091520004 0.22720002 0.67200005 9803217
-0.090240002 0.22720002 0.67200005 7829427
-0.088960007 0.22720002 0.67200005 7828891
-0.087680012 0.22720002 0.67200005 8157856
-0.086657144 0.22787619 0.67400002 8289695
-0.085373335 0.22787619 0.67400002 8552867
-0.084214285 0.22821428 0.67500001 8488614
-0.082928576 0.22821428 0.67500001 8949165
-0.081642851 0.22821428 0.67500001 9344684
-0.080357142 0.22821428 0.67500001 9410477
-0.079188578 0.2285524 0.67600006 10002612
-0.077900954 0.2285524 0.67600006 10068405
-0.076840006 0.22922859 0.67800003 9279171
-0.075659998 0.22956668 0.67900002 9147585
-0.074366666 0.22956668 0.67900002 9278908
-0.073180959 0.22990477 0.68000001 9673666
-0.07188572 0.22990477 0.68000001 9083578
-0.070590481 0.22990477 0.68000001 6583444
-0.069600955 0.23091906 0.68300003 4285093
-0.068399996 0.23125714 0.68400002 3035026
-0.067391433 0.23227143 0.68700004 3100336
-0.066082858 0.23227143 0.68700004 2968750
-0.064774282 0.23227143 0.68700004 3035305
-0.063742861 0.23328574 0.69000006 3035305
-0.062428575 0.23328574 0.69000006 4215200
-0.061202858 0.23362383 0.69100004 4741544
