# .PCD v0.7 - Point Cloud Data file format
VERSION 0.7
FIELDS x y z rgb
SIZE 4 4 4 4
TYPE F F F F
COUNT 1 1 1 1
WIDTH 972
HEIGHT 1
VIEWPOINT 0 0 0 1 0 0 0
POINTS 972
DATA ascii
-0.11673905 0.0093104765 0.75200003 1.3373421e-38
-0.11576667 0.0093476195 0.75500005 1.3557812e-38
-0.11432858 0.0093476195 0.75500005 1.3281225e-38
-0.11318953 0.0093723815 0.75700003 1.3465616e-38
-0.11174762 0.0093723815 0.75700003 1.3281228e-38
-0.11030572 0.0093723815 0.75700003 1.3650011e-38
-0.10915144 0.0093971435 0.75900006 1.383332e-38
-0.10770573 0.0093971435 0.75900006 1.4202102e-38
-0.10626 0.0093971435 0.75900006 1.4110623e-38
-0.10481429 0.0093971435 0.75900006 1.4202819e-38
-0.10336858 0.0093971435 0.75900006 1.4202821e-38
-0.10192287 0.0093971435 0.75900006 1.4387213e-38
-0.10047715 0.0093971435 0.75900006 1.4203537e-38
-0.099031433 0.0093971435 0.75900006 1.4203537e-38
-0.097585723 0.0093971435 0.75900006 1.4295733e-38
-0.096393339 0.0094219055 0.76100004 1.4480124e-38
-0.094943814 0.0094219055 0.76100004 1.4847109e-38
-0.093494289 0.0094219055 0.76100004 1.50315e-38
-0.092044763 0.0094219055 0.76100004 1.4847106e-38
-0.090595245 0.0094219055 0.76100004 1.4754911e-38
-0.08914572 0.0094219055 0.76100004 1.4479761e-38
-0.087696187 0.0094219055 0.76100004 1.4571957e-38
-0.086020008 0.0093971435 0.75900006 1.4479761e-38
-0.084574297 0.0093971435 0.75900006 1.4479761e-38
-0.08345715 0.0094342856 0.76200002 1.4479756e-38
-0.082005717 0.0094342856 0.76200002 1.4571951e-38
-0.080554284 0.0094342856 0.76200002 1.438721e-38
-0.079102859 0.0094342856 0.76200002 1.438721e-38
-0.077549525 0.0094219055 0.76100004 1.43872e-38
-0.076100007 0.0094219055 0.76100004 1.43872e-38
-0.074650481 0.0094219055 0.76100004 1.4110613e-38
-0.073008575 0.0093971435 0.75900006 1.4018417e-38
-0.071562864 0.0093971435 0.75900006 1.4018417e-38
-0.069932379 0.0093723815 0.75700003 1.4018417e-38
-0.068309531 0.0093476195 0.75500005 1.4018415e-38
-0.066782854 0.0093352385 0.75400001 1.3741828e-38
-0.065346666 0.0093352385 0.75400001 1.3649632e-38
-0.063740954 0.0093104765 0.75200003 1.3557437e-38
-0.062142864 0.0092857154 0.75000006 1.3465241e-38
-0.06071429 0.0092857154 0.75000006 1.3188654e-38
-0.059048574 0.0092485715 0.74700004 1.2911351e-38
-0.057548571 0.0092361914 0.74600005 1.2634764e-38
-0.055977143 0.0092114285 0.74400002 1.2450013e-38
-0.054560002 0.0092114285 0.74400002 1.2265622e-38
-0.053142861 0.0092114285 0.74400002 1.2816634e-38
-0.051725715 0.0092114285 0.74400002 1.3369808e-38
-0.12717524 0.010657143 0.74600005 1.3552717e-38
-0.12642859 0.010714287 0.75000006 1.4382478e-38
-0.12500001 0.010714287 0.75000006 1.3921916e-38
-0.12357144 0.010714287 0.75000006 1.4014111e-38
-0.12246858 0.010742858 0.75200003 1.3462377e-38
-0.12103619 0.010742858 0.75200003 1.3277985e-38
-0.11960381 0.010742858 0.75200003 1.3095389e-38
-0.11817143 0.010742858 0.75200003 1.3095389e-38
-0.11673905 0.010742858 0.75200003 1.2911727e-38
-0.11576667 0.010785715 0.75500005 1.3280509e-38
-0.11432858 0.010785715 0.75500005 1.3372695e-38
-0.11318953 0.010814286 0.75700003 1.3557086e-38
-0.11204287 0.010842858 0.75900006 1.3556733e-38
-0.11059715 0.010842858 0.75900006 1.383332e-38
-0.10915144 0.010842858 0.75900006 1.383332e-38
-0.10770573 0.010842858 0.75900006 1.4202102e-38
-0.10626 0.010842858 0.75900006 1.4202458e-38
-0.10481429 0.010842858 0.75900006 1.4294654e-38
-0.10336858 0.010842858 0.75900006 1.4294654e-38
-0.10192287 0.010842858 0.75900006 1.4479045e-38
-0.10047715 0.010842858 0.75900006 1.4295014e-38
-0.099292383 0.010871429 0.76100004 1.4202819e-38
-0.097842865 0.010871429 0.76100004 1.4295014e-38
-0.096393339 0.010871429 0.76100004 1.4479405e-38
-0.094943814 0.010871429 0.76100004 1.4754913e-38
-0.093494289 0.010871429 0.76100004 1.4847109e-38
-0.092044763 0.010871429 0.76100004 1.4755264e-38
-0.090595245 0.010871429 0.76100004 1.4663068e-38
-0.08914572 0.010871429 0.76100004 1.4479761e-38
-0.087696187 0.010871429 0.76100004 1.4571957e-38
-0.086246669 0.010871429 0.76100004 1.4571238e-38
-0.084797144 0.010871429 0.76100004 1.4386847e-38
-0.08345715 0.010885715 0.76200002 1.4663068e-38
-0.082005717 0.010885715 0.76200002 1.4847459e-38
-0.080554284 0.010885715 0.76200002 1.4662718e-38
-0.079102859 0.010885715 0.76200002 1.4478326e-38
-0.077549525 0.010871429 0.76100004 1.43872e-38
-0.076100007 0.010871429 0.76100004 1.4202809e-38
-0.074650481 0.010871429 0.76100004 1.4202809e-38
-0.073008575 0.010842858 0.75900006 1.4018417e-38
-0.071562864 0.010842858 0.75900006 1.3833673e-38
-0.069932379 0.010814286 0.75700003 1.3833673e-38
-0.068490475 0.010814286 0.75700003 1.3741475e-38
-0.066871434 0.010785715 0.75500005 1.3557083e-38
-0.065346666 0.010771429 0.75400001 1.3649272e-38
-0.063740954 0.010742858 0.75200003 1.3649272e-38
-0.062142864 0.010714287 0.75000006 1.3373401e-38
-0.06071429 0.010714287 0.75000006 1.3004619e-38
-0.059206665 0.0107 0.74900001 1.3095745e-38
-0.057548571 0.010657143 0.74600005 1.2911354e-38
-0.055977143 0.010628571 0.74400002 1.2818795e-38
-0.054560002 0.010628571 0.74400002 1.2634404e-38
-0.053142861 0.010628571 0.74400002 1.2448228e-38
-0.051725715 0.010628571 0.74400002 1.1895054e-38
-0.050308574 0.010628571 0.74400002 1.2449982e-38
-0.045871433 0.010585715 0.74100006 1.6042415e-38
-0.12500001 0.012142858 0.75000006 1.2819887e-38
-0.12357144 0.012142858 0.75000006 1.2727691e-38
-0.12214287 0.012142858 0.75000006 1.2635496e-38
-0.12071429 0.012142858 0.75000006 1.2635496e-38
-0.11960381 0.012175239 0.75200003 1.2727691e-38
-0.11817143 0.012175239 0.75200003 1.2912083e-38
-0.11673905 0.012175239 0.75200003 1.2911366e-38
-0.11576667 0.01222381 0.75500005 1.3372345e-38
-0.11463144 0.012256191 0.75700003 1.3372695e-38
-0.11318953 0.012256191 0.75700003 1.3464891e-38
-0.11204287 0.012288572 0.75900006 1.3464537e-38
-0.11059715 0.012288572 0.75900006 1.3648929e-38
-0.10915144 0.012288572 0.75900006 1.3741124e-38
-0.10770573 0.012288572 0.75900006 1.4109907e-38
-0.10626 0.012288572 0.75900006 1.4110263e-38
-0.10481429 0.012288572 0.75900006 1.4202458e-38
-0.10364096 0.012320952 0.76100004 1.4293935e-38
-0.10219143 0.012320952 0.76100004 1.4386131e-38
-0.10074191 0.012320952 0.76100004 1.4294651e-38
-0.099292383 0.012320952 0.76100004 1.4386847e-38
-0.097842865 0.012320952 0.76100004 1.4387566e-38
-0.096519999 0.012337144 0.76200002 1.4479761e-38
-0.095068574 0.012337144 0.76200002 1.4571238e-38
-0.093617149 0.012337144 0.76200002 1.4571238e-38
-0.092165716 0.012337144 0.76200002 1.4479761e-38
-0.090714283 0.012337144 0.76200002 1.4387566e-38
-0.089262858 0.012337144 0.76200002 1.429537e-38
-0.087811433 0.012337144 0.76200002 1.429537e-38
-0.086246669 0.012320952 0.76100004 1.4479042e-38
-0.084797144 0.012320952 0.76100004 1.4294651e-38
-0.08345715 0.012337144 0.76200002 1.4477963e-38
-0.082005717 0.012337144 0.76200002 1.4570159e-38
-0.080554284 0.012337144 0.76200002 1.4570162e-38
-0.079102859 0.012337144 0.76200002 1.4570162e-38
-0.077651434 0.012337144 0.76200002 1.4295004e-38
-0.076200001 0.012337144 0.76200002 1.4295004e-38
-0.074650481 0.012320952 0.76100004 1.4018778e-38
-0.073200949 0.012320952 0.76100004 1.3926582e-38
-0.071562864 0.012288572 0.75900006 1.383367e-38
-0.070117153 0.012288572 0.75900006 1.3741475e-38
-0.068490475 0.012256191 0.75700003 1.3557799e-38
-0.066871434 0.01222381 0.75500005 1.3557799e-38
-0.065346666 0.012207619 0.75400001 1.3465604e-38
-0.063910477 0.012207619 0.75400001 1.3373408e-38
-0.062308576 0.012175239 0.75200003 1.3096461e-38
-0.060876191 0.012175239 0.75200003 1.3096461e-38
-0.059285719 0.012142858 0.75000006 1.3187938e-38
-0.057780001 0.012126666 0.74900001 1.2819155e-38
-0.056127623 0.012078096 0.74600005 1.2818439e-38
-0.054560002 0.012045715 0.74400002 1.2634048e-38
-0.053142861 0.012045715 0.74400002 1.2541129e-38
-0.051725715 0.012045715 0.74400002 1.2080151e-38
-0.050308574 0.012045715 0.74400002 1.088483e-38
-0.048891429 0.012045715 0.74400002 1.2267764e-38
-0.12717524 0.013499049 0.74600005 1.2632969e-38
-0.12592286 0.013517143 0.74700004 1.2540773e-38
-0.12483333 0.013553333 0.74900001 1.2173436e-38
-0.12340666 0.013553333 0.74900001 1.2450023e-38
-0.12198 0.013553333 0.74900001 1.2450025e-38
-0.12071429 0.013571429 0.75000006 1.2726612e-38
-0.11960381 0.01360762 0.75200003 1.2727691e-38
-0.11817143 0.01360762 0.75200003 1.2727691e-38
-0.11673905 0.01360762 0.75200003 1.2911011e-38
-0.11561333 0.01364381 0.75400001 1.3187597e-38
-0.11432858 0.013661906 0.75500005 1.3280499e-38
-0.11318953 0.013698095 0.75700003 1.3372695e-38
-0.11174762 0.013698095 0.75700003 1.3372342e-38
-0.11059715 0.013734287 0.75900006 1.3464537e-38
-0.10915144 0.013734287 0.75900006 1.34649e-38
-0.10770573 0.013734287 0.75900006 1.3833683e-38
-0.10626 0.013734287 0.75900006 1.4018417e-38
-0.10509048 0.013770477 0.76100004 1.4018417e-38
-0.10364096 0.013770477 0.76100004 1.4201737e-38
-0.10219143 0.013770477 0.76100004 1.4293932e-38
-0.10074191 0.013770477 0.76100004 1.4202456e-38
-0.099292383 0.013770477 0.76100004 1.4479042e-38
-0.097842865 0.013770477 0.76100004 1.4479396e-38
-0.096519999 0.013788572 0.76200002 1.4479396e-38
-0.095068574 0.013788572 0.76200002 1.4479042e-38
-0.093617149 0.013788572 0.76200002 1.4386847e-38
-0.092165716 0.013788572 0.76200002 1.4295014e-38
-0.090714283 0.013788572 0.76200002 1.4295014e-38
-0.089262858 0.013788572 0.76200002 1.429537e-38
-0.087811433 0.013788572 0.76200002 1.429537e-38
-0.086246669 0.013770477 0.76100004 1.4386847e-38
-0.084797144 0.013770477 0.76100004 1.4294651e-38
-0.083676197 0.013824763 0.76400006 1.4293935e-38
-0.082220957 0.013824763 0.76400006 1.4293935e-38
-0.080554284 0.013788572 0.76200002 1.4385768e-38
-0.079102859 0.013788572 0.76200002 1.4570159e-38
-0.077651434 0.013788572 0.76200002 1.4386837e-38
-0.076200001 0.013788572 0.76200002 1.4202446e-38
-0.074650481 0.013770477 0.76100004 1.411061e-38
-0.073200949 0.013770477 0.76100004 1.3926219e-38
-0.071562864 0.013734287 0.75900006 1.3834026e-38
-0.070117153 0.013734287 0.75900006 1.3649635e-38
-0.068490475 0.013698095 0.75700003 1.3741468e-38
-0.066871434 0.013661906 0.75500005 1.3649272e-38
-0.065346666 0.01364381 0.75400001 1.3373048e-38
-0.063910477 0.01364381 0.75400001 1.3280852e-38
-0.062308576 0.01360762 0.75200003 1.3188657e-38
-0.060876191 0.01360762 0.75200003 1.3096461e-38
-0.059285719 0.013571429 0.75000006 1.3095742e-38
-0.057780001 0.013553333 0.74900001 1.2819155e-38
-0.056202862 0.013517143 0.74700004 1.2634767e-38
-0.05470667 0.013499049 0.74600005 1.2542571e-38
-0.053142861 0.013462857 0.74400002 1.2542203e-38
-0.051725715 0.013462857 0.74400002 1.2265616e-38
-0.050105717 0.013408572 0.74100006 1.1620612e-38
-0.04869429 0.013408572 0.74100006 1.0422069e-38
-0.1285962 0.014920001 0.74600005 1.1989044e-38
-0.12717524 0.014920001 0.74600005 1.1621694e-38
-0.12592286 0.014940001 0.74700004 1.1898281e-38
-0.12450001 0.014940001 0.74700004 1.2173436e-38
-0.12340666 0.01498 0.74900001 1.2357827e-38
-0.12198 0.01498 0.74900001 1.226671e-38
-0.12071429 0.015000001 0.75000006 1.2635493e-38
-0.11960381 0.015040001 0.75200003 1.2727328e-38
-0.11817143 0.015040001 0.75200003 1.291172e-38
-0.11673905 0.015040001 0.75200003 1.3003559e-38
-0.11561333 0.01508 0.75400001 1.3187951e-38
-0.11432858 0.015100001 0.75500005 1.3188306e-38
-0.11318953 0.01514 0.75700003 1.3280502e-38
-0.11174762 0.01514 0.75700003 1.3280865e-38
-0.11059715 0.015180001 0.75900006 1.3373061e-38
-0.10915144 0.015180001 0.75900006 1.3373061e-38
-0.10770573 0.015180001 0.75900006 1.3557452e-38
-0.10654 0.01522 0.76100004 1.3649282e-38
-0.10509048 0.01522 0.76100004 1.3833673e-38
-0.10364096 0.01522 0.76100004 1.4018064e-38
-0.10219143 0.01522 0.76100004 1.411026e-38
-0.10074191 0.01522 0.76100004 1.4202456e-38
-0.099292383 0.01522 0.76100004 1.4202456e-38
-0.097842865 0.01522 0.76100004 1.4202456e-38
-0.096519999 0.015240001 0.76200002 1.4294651e-38
-0.095068574 0.015240001 0.76200002 1.4294651e-38
-0.093617149 0.015240001 0.76200002 1.4202456e-38
-0.092165716 0.015240001 0.76200002 1.4110623e-38
-0.090952389 0.015280001 0.76400006 1.4202819e-38
-0.089262858 0.015240001 0.76200002 1.4203174e-38
-0.087811433 0.015240001 0.76200002 1.4203174e-38
-0.08636 0.015240001 0.76200002 1.4202456e-38
-0.084908567 0.015240001 0.76200002 1.4202456e-38
-0.083676197 0.015280001 0.76400006 1.4293932e-38
-0.082220957 0.015280001 0.76400006 1.4201737e-38
-0.080765724 0.015280001 0.76400006 1.420209e-38
-0.079310484 0.015280001 0.76400006 1.420209e-38
-0.077855244 0.015280001 0.76400006 1.411025e-38
-0.076200001 0.015240001 0.76200002 1.411025e-38
-0.074748568 0.015240001 0.76200002 1.3925866e-38
-0.073200949 0.01522 0.76100004 1.3925866e-38
-0.071562864 0.015180001 0.75900006 1.3741831e-38
-0.070117153 0.015180001 0.75900006 1.3557439e-38
-0.068490475 0.01514 0.75700003 1.3373408e-38
-0.067048572 0.01514 0.75700003 1.3373408e-38
-0.065433331 0.015100001 0.75500005 1.3096824e-38
-0.063910477 0.01508 0.75400001 1.3096824e-38
-0.062308576 0.015040001 0.75200003 1.3096461e-38
-0.060876191 0.015040001 0.75200003 1.3096461e-38
-0.059285719 0.015000001 0.75000006 1.291207e-38
-0.057857145 0.015000001 0.75000006 1.2727679e-38
-0.056202862 0.014940001 0.74700004 1.2634764e-38
-0.05470667 0.014920001 0.74600005 1.2450373e-38
-0.053142861 0.014880001 0.74400002 1.2450007e-38
-0.051725715 0.014880001 0.74400002 1.2081225e-38
-0.050105717 0.014820001 0.74100006 1.2080148e-38
-0.04869429 0.014820001 0.74100006 1.1250388e-38
-0.13143429 0.016165715 0.73800004 1.1894681e-38
-0.13002859 0.016165715 0.73800004 1.1525898e-38
-0.12862286 0.016165715 0.73800004 1.1528054e-38
-0.12825143 0.016297143 0.74400002 1.1712445e-38
-0.12683429 0.016297143 0.74400002 1.1804287e-38
-0.1257543 0.016340952 0.74600005 1.1988679e-38
-0.12450001 0.016362859 0.74700004 1.208088e-38
-0.12307715 0.016362859 0.74700004 1.2357467e-38
-0.12214287 0.016428573 0.75000006 1.2357827e-38
-0.12071429 0.016428573 0.75000006 1.2818805e-38
-0.11960381 0.016472382 0.75200003 1.2819158e-38
-0.11817143 0.016472382 0.75200003 1.2911354e-38
-0.11673905 0.016472382 0.75200003 1.291172e-38
-0.11561333 0.016516192 0.75400001 1.3096111e-38
-0.11432858 0.016538097 0.75500005 1.3188301e-38
-0.11318953 0.016581906 0.75700003 1.3188301e-38
-0.11174762 0.016581906 0.75700003 1.3280502e-38
-0.11059715 0.016625715 0.75900006 1.3372698e-38
-0.10915144 0.016625715 0.75900006 1.3373061e-38
-0.10770573 0.016625715 0.75900006 1.3465256e-38
-0.10654 0.016669523 0.76100004 1.3832954e-38
-0.10509048 0.016669523 0.76100004 1.3832954e-38
-0.10364096 0.016669523 0.76100004 1.4017699e-38
-0.10219143 0.016669523 0.76100004 1.4109894e-38
-0.10074191 0.016669523 0.76100004 1.4109894e-38
-0.099422857 0.01669143 0.76200002 1.4109894e-38
-0.097971432 0.01669143 0.76200002 1.4201737e-38
-0.096519999 0.01669143 0.76200002 1.4386128e-38
-0.095318101 0.016735239 0.76400006 1.4202456e-38
-0.093862861 0.016735239 0.76400006 1.411026e-38
-0.092407629 0.016735239 0.76400006 1.4018783e-38
-0.090952389 0.016735239 0.76400006 1.4018783e-38
-0.089497149 0.016735239 0.76400006 1.4110979e-38
-0.087811433 0.01669143 0.76200002 1.4110979e-38
-0.08636 0.01669143 0.76200002 1.4202809e-38
-0.084908567 0.01669143 0.76200002 1.4110613e-38
-0.083676197 0.016735239 0.76400006 1.420209e-38
-0.082436197 0.016779048 0.76600003 1.4109894e-38
-0.080977142 0.016779048 0.76600003 1.420209e-38
-0.079518095 0.016779048 0.76600003 1.4017699e-38
-0.078059055 0.016779048 0.76600003 1.4017699e-38
-0.076400004 0.016735239 0.76400006 1.3925503e-38
-0.074944772 0.016735239 0.76400006 1.4018055e-38
-0.07329715 0.01669143 0.76200002 1.3833663e-38
-0.071751431 0.016669523 0.76100004 1.3741468e-38
-0.070301905 0.016669523 0.76100004 1.3464881e-38
-0.068671428 0.016625715 0.75900006 1.3280497e-38
-0.067048572 0.016581906 0.75700003 1.3280497e-38
-0.065433331 0.016538097 0.75500005 1.3096105e-38
-0.063995242 0.016538097 0.75500005 1.3096105e-38
-0.062474284 0.016516192 0.75400001 1.3096458e-38
-0.060876191 0.016472382 0.75200003 1.3004263e-38
-0.059443813 0.016472382 0.75200003 1.3003903e-38
-0.057857145 0.016428573 0.75000006 1.2819511e-38
-0.056353334 0.016406668 0.74900001 1.2726597e-38
-0.05470667 0.016340952 0.74600005 1.2542206e-38
-0.053142861 0.016297143 0.74400002 1.2357812e-38
-0.051725715 0.016297143 0.74400002 1.1896833e-38
-0.050105717 0.016231429 0.74100006 1.1804638e-38
-0.048562858 0.016187619 0.73900002 1.1435855e-38
-0.047155239 0.016187619 0.73900002 1.1435129e-38
-0.13143429 0.017571429 0.73800004 1.1067078e-38
-0.13002859 0.017571429 0.73800004 1.1159274e-38
-0.12862286 0.017571429 0.73800004 1.1434426e-38
-0.12790667 0.017666668 0.74200004 1.1895404e-38
-0.12683429 0.017714286 0.74400002 1.1805003e-38
-0.1257543 0.017761907 0.74600005 1.1989395e-38
-0.12450001 0.017785715 0.74700004 1.1989398e-38
-0.12307715 0.017785715 0.74700004 1.2173789e-38
-0.12198 0.017833333 0.74900001 1.2265631e-38
-0.12071429 0.017857144 0.75000006 1.2726609e-38
-0.11960381 0.017904762 0.75200003 1.254365e-38
-0.11848572 0.017952381 0.75400001 1.2728042e-38
-0.11704952 0.017952381 0.75400001 1.291172e-38
-0.11576667 0.017976193 0.75500005 1.3003915e-38
-0.11432858 0.017976193 0.75500005 1.3003915e-38
-0.11318953 0.018023811 0.75700003 1.3096111e-38
-0.11204287 0.01807143 0.75900006 1.3095755e-38
-0.11059715 0.01807143 0.75900006 1.3372342e-38
-0.10915144 0.01807143 0.75900006 1.3280865e-38
-0.10798953 0.018119048 0.76100004 1.3465256e-38
-0.10654 0.018119048 0.76100004 1.3557089e-38
-0.10509048 0.018119048 0.76100004 1.3649285e-38
-0.10377715 0.018142859 0.76200002 1.3740761e-38
-0.10232572 0.018142859 0.76200002 1.3925153e-38
-0.10087429 0.018142859 0.76200002 1.4017345e-38
-0.099683814 0.018190479 0.76400006 1.4017345e-38
-0.098228574 0.018190479 0.76400006 1.4109544e-38
-0.096773341 0.018190479 0.76400006 1.4109544e-38
-0.095318101 0.018190479 0.76400006 1.4110263e-38
-0.093862861 0.018190479 0.76400006 1.4018067e-38
-0.092649527 0.018238096 0.76600003 1.4018067e-38
-0.090952389 0.018190479 0.76400006 1.4018067e-38
-0.089497149 0.018190479 0.76400006 1.4018064e-38
-0.088041909 0.018190479 0.76400006 1.4018064e-38
-0.086586677 0.018190479 0.76400006 1.4109544e-38
-0.085131437 0.018190479 0.76400006 1.4109544e-38
-0.083895244 0.018238096 0.76600003 1.4109541e-38
-0.082436197 0.018238096 0.76600003 1.4109541e-38
-0.080977142 0.018238096 0.76600003 1.4018064e-38
-0.079518095 0.018238096 0.76600003 1.3925869e-38
-0.078059055 0.018238096 0.76600003 1.3832954e-38
-0.076400004 0.018190479 0.76400006 1.3832954e-38
-0.074944772 0.018190479 0.76400006 1.3741477e-38
-0.07329715 0.018142859 0.76200002 1.3649282e-38
-0.071751431 0.018119048 0.76100004 1.3373411e-38
-0.070301905 0.018119048 0.76100004 1.3281215e-38
-0.068671428 0.01807143 0.75900006 1.3280852e-38
-0.067225717 0.01807143 0.75900006 1.3280852e-38
-0.065606669 0.018023811 0.75700003 1.3096105e-38
-0.063995242 0.017976193 0.75500005 1.300391e-38
-0.062474284 0.017952381 0.75400001 1.291207e-38
-0.060876191 0.017904762 0.75200003 1.2819874e-38
-0.059443813 0.017904762 0.75200003 1.2819155e-38
-0.057857145 0.017857144 0.75000006 1.2819155e-38
-0.056353334 0.017833333 0.74900001 1.263512e-38
-0.05470667 0.017761907 0.74600005 1.2450729e-38
-0.053142861 0.017714286 0.74400002 1.2265616e-38
-0.051586669 0.017666668 0.74200004 1.1989029e-38
-0.050105717 0.017642858 0.74100006 1.1713161e-38
-0.048562858 0.017595239 0.73900002 1.1252183e-38
-0.047155239 0.017595239 0.73900002 1.1434776e-38
-0.13161239 0.019002859 0.73900002 1.1065643e-38
-0.13020477 0.019002859 0.73900002 1.134223e-38
-0.12879714 0.019002859 0.73900002 1.1434426e-38
-0.12790667 0.01908 0.74200004 1.1711013e-38
-0.12683429 0.019131429 0.74400002 1.1620615e-38
-0.1257543 0.019182859 0.74600005 1.1897202e-38
-0.12450001 0.019208571 0.74700004 1.1897202e-38
-0.12307715 0.019208571 0.74700004 1.1989398e-38
-0.12198 0.019259999 0.74900001 1.2265984e-38
-0.12071429 0.019285716 0.75000006 1.235818e-38
-0.11960381 0.019337144 0.75200003 1.2542571e-38
-0.11848572 0.019388571 0.75400001 1.2819158e-38
-0.11704952 0.019388571 0.75400001 1.2911354e-38
-0.11576667 0.019414287 0.75500005 1.3003549e-38
-0.11432858 0.019414287 0.75500005 1.3003194e-38
-0.11318953 0.019465715 0.75700003 1.3003194e-38
-0.11204287 0.019517144 0.75900006 1.2911366e-38
-0.11059715 0.019517144 0.75900006 1.3187953e-38
-0.10915144 0.019517144 0.75900006 1.3188313e-38
-0.10798953 0.019568572 0.76100004 1.3280509e-38
-0.10654 0.019568572 0.76100004 1.3280509e-38
-0.10522857 0.019594287 0.76200002 1.34649e-38
-0.10377715 0.019594287 0.76200002 1.3372705e-38
-0.10259429 0.019645717 0.76400006 1.3557096e-38
-0.10113905 0.019645717 0.76400006 1.3740764e-38
-0.099683814 0.019645717 0.76400006 1.3925155e-38
-0.098228574 0.019645717 0.76400006 1.3925155e-38
-0.096773341 0.019645717 0.76400006 1.4017351e-38
-0.095567621 0.019697145 0.76600003 1.4018067e-38
-0.094108574 0.019697145 0.76600003 1.4018067e-38
-0.092649527 0.019697145 0.76600003 1.4018067e-38
-0.09119048 0.019697145 0.76600003 1.4018067e-38
-0.089731432 0.019697145 0.76600003 1.4018067e-38
-0.088272385 0.019697145 0.76600003 1.3925872e-38
-0.086813338 0.019697145 0.76600003 1.4017351e-38
-0.085354283 0.019697145 0.76600003 1.4017351e-38
-0.083895244 0.019697145 0.76600003 1.3925153e-38
-0.082436197 0.019697145 0.76600003 1.3925153e-38
-0.080977142 0.019697145 0.76600003 1.3832957e-38
-0.079518095 0.019697145 0.76600003 1.3740761e-38
-0.078059055 0.019697145 0.76600003 1.3649285e-38
-0.0766 0.019697145 0.76600003 1.3649285e-38
-0.074944772 0.019645717 0.76400006 1.3464893e-38
-0.07329715 0.019594287 0.76200002 1.3464893e-38
-0.071845718 0.019594287 0.76200002 1.3372695e-38
-0.070301905 0.019568572 0.76100004 1.3280499e-38
-0.068852387 0.019568572 0.76100004 1.3280852e-38
-0.067225717 0.019517144 0.75900006 1.3096461e-38
-0.065780006 0.019517144 0.75900006 1.2820237e-38
-0.064164765 0.019465715 0.75700003 1.2820237e-38
-0.062557146 0.019414287 0.75500005 1.2912067e-38
-0.061038099 0.019388571 0.75400001 1.2819871e-38
-0.059443813 0.019337144 0.75200003 1.2634767e-38
-0.057857145 0.019285716 0.75000006 1.2542571e-38
-0.056353334 0.019259999 0.74900001 1.2634398e-38
-0.054780003 0.019208571 0.74700004 1.2450007e-38
-0.053142861 0.019131429 0.74400002 1.2081227e-38
-0.051586669 0.01908 0.74200004 1.1896836e-38
-0.050173335 0.01908 0.74200004 1.1712448e-38
-0.1335181 0.020272382 0.73400003 1.1711013e-38
-0.13212 0.020272382 0.73400003 1.1065643e-38
-0.13107811 0.02032762 0.73600006 1.1157116e-38
-0.13020477 0.020410476 0.73900002 1.1433703e-38
-0.12879714 0.020410476 0.73900002 1.134223e-38
-0.12790667 0.020493334 0.74200004 1.1711013e-38
-0.12683429 0.020548571 0.74400002 1.1528419e-38
-0.1257543 0.02060381 0.74600005 1.1805006e-38
-0.12450001 0.020631431 0.74700004 1.1897202e-38
-0.12307715 0.020631431 0.74700004 1.2081593e-38
-0.12214287 0.020714287 0.75000006 1.2173789e-38
-0.12071429 0.020714287 0.75000006 1.235818e-38
-0.1199219 0.020824762 0.75400001 1.2357827e-38
-0.11848572 0.020824762 0.75400001 1.2542218e-38
-0.11704952 0.020824762 0.75400001 1.2634414e-38
-0.11576667 0.020852383 0.75500005 1.2911001e-38
-0.11463144 0.02090762 0.75700003 1.2911001e-38
-0.11318953 0.02090762 0.75700003 1.3003196e-38
-0.11204287 0.020962859 0.75900006 1.2911364e-38
-0.11059715 0.020962859 0.75900006 1.3187951e-38
-0.10915144 0.020962859 0.75900006 1.3096474e-38
-0.10798953 0.021018095 0.76100004 1.3280865e-38
-0.10668 0.021045715 0.76200002 1.3280865e-38
-0.10522857 0.021045715 0.76200002 1.3373061e-38
-0.10404953 0.021100953 0.76400006 1.3373058e-38
-0.10259429 0.021100953 0.76400006 1.3465254e-38
-0.10113905 0.021100953 0.76400006 1.3740759e-38
-0.099683814 0.021100953 0.76400006 1.3832954e-38
-0.098228574 0.021100953 0.76400006 1.3833673e-38
-0.096773341 0.021100953 0.76400006 1.3925869e-38
-0.095567621 0.021156192 0.76600003 1.3925869e-38
-0.094108574 0.021156192 0.76600003 1.4018064e-38
-0.092649527 0.021156192 0.76600003 1.3925872e-38
-0.09119048 0.021156192 0.76600003 1.3833676e-38
-0.089731432 0.021156192 0.76600003 1.3925153e-38
-0.088272385 0.021156192 0.76600003 1.3925153e-38
-0.086813338 0.021156192 0.76600003 1.3832957e-38
-0.085354283 0.021156192 0.76600003 1.3832957e-38
-0.083895244 0.021156192 0.76600003 1.3832957e-38
-0.082436197 0.021156192 0.76600003 1.3832957e-38
-0.080977142 0.021156192 0.76600003 1.3832954e-38
-0.079518095 0.021156192 0.76600003 1.3740759e-38
-0.078059055 0.021156192 0.76600003 1.3649285e-38
-0.0766 0.021156192 0.76600003 1.3649285e-38
-0.074944772 0.021100953 0.76400006 1.3648203e-38
-0.073489532 0.021100953 0.76400006 1.3556007e-38
-0.071845718 0.021045715 0.76200002 1.3280499e-38
-0.070301905 0.021018095 0.76100004 1.3280499e-38
-0.068852387 0.021018095 0.76100004 1.3096824e-38
-0.067225717 0.020962859 0.75900006 1.3004628e-38
-0.065780006 0.020962859 0.75900006 1.2820237e-38
-0.064164765 0.02090762 0.75700003 1.2820237e-38
-0.062557146 0.020852383 0.75500005 1.291207e-38
-0.061038099 0.020824762 0.75400001 1.2635483e-38
-0.059601903 0.020824762 0.75400001 1.2450376e-38
-0.058011431 0.020769523 0.75200003 1.2450376e-38
-0.056428574 0.020714287 0.75000006 1.245001e-38
-0.054780003 0.020631431 0.74700004 1.2357814e-38
-0.053285718 0.02060381 0.74600005 1.208123e-38
-0.051725715 0.020548571 0.74400002 1.1804643e-38
-0.050308574 0.020548571 0.74400002 1.19876e-38
-0.1335181 0.021670477 0.73400003 1.1709571e-38
-0.13212 0.021670477 0.73400003 1.1064201e-38
-0.13107811 0.021729525 0.73600006 1.0881252e-38
-0.13020477 0.021818096 0.73900002 1.1157839e-38
-0.12879714 0.021818096 0.73900002 1.1250035e-38
-0.12790667 0.021906666 0.74200004 1.1526622e-38
-0.12649333 0.021906666 0.74200004 1.1527701e-38
-0.1257543 0.022024764 0.74600005 1.1896483e-38
-0.12450001 0.022054287 0.74700004 1.1989035e-38
-0.12307715 0.022054287 0.74700004 1.208123e-38
-0.12214287 0.022142859 0.75000006 1.217307e-38
-0.12071429 0.022142859 0.75000006 1.2265266e-38
-0.1199219 0.022260953 0.75400001 1.2357111e-38
-0.11848572 0.022260953 0.75400001 1.2541502e-38
-0.11704952 0.022260953 0.75400001 1.2542218e-38
-0.11576667 0.022290478 0.75500005 1.2726609e-38
-0.11463144 0.022349525 0.75700003 1.2818805e-38
-0.11318953 0.022349525 0.75700003 1.2911001e-38
-0.11204287 0.022408573 0.75900006 1.2819171e-38
-0.11059715 0.022408573 0.75900006 1.2911366e-38
-0.10943905 0.022467621 0.76100004 1.3095755e-38
-0.10813143 0.022497144 0.76200002 1.3280146e-38
-0.10668 0.022497144 0.76200002 1.3280862e-38
-0.10550477 0.022556191 0.76400006 1.3373058e-38
-0.10404953 0.022556191 0.76400006 1.3464891e-38
-0.10259429 0.022556191 0.76400006 1.3464891e-38
-0.10113905 0.022556191 0.76400006 1.3741112e-38
-0.099683814 0.022556191 0.76400006 1.3833307e-38
-0.098228574 0.022556191 0.76400006 1.3833307e-38
-0.097026668 0.022615239 0.76600003 1.3833307e-38
-0.095567621 0.022615239 0.76600003 1.4017699e-38
-0.094108574 0.022615239 0.76600003 1.4017699e-38
-0.092649527 0.022615239 0.76600003 1.392515e-38
-0.09119048 0.022615239 0.76600003 1.3832954e-38
-0.089731432 0.022615239 0.76600003 1.3832957e-38
-0.088272385 0.022615239 0.76600003 1.3832957e-38
-0.086813338 0.022615239 0.76600003 1.3649285e-38
-0.085354283 0.022615239 0.76600003 1.3649285e-38
-0.083895244 0.022615239 0.76600003 1.3740761e-38
-0.082436197 0.022615239 0.76600003 1.3740761e-38
-0.080977142 0.022615239 0.76600003 1.3740759e-38
-0.079518095 0.022615239 0.76600003 1.3648563e-38
-0.078059055 0.022615239 0.76600003 1.3740398e-38
-0.0766 0.022615239 0.76600003 1.3648203e-38
-0.075140953 0.022615239 0.76600003 1.3648916e-38
-0.073489532 0.022556191 0.76400006 1.3464525e-38
-0.071845718 0.022497144 0.76200002 1.3188306e-38
-0.070301905 0.022467621 0.76100004 1.3096111e-38
-0.068852387 0.022467621 0.76100004 1.3188657e-38
-0.067402862 0.022467621 0.76100004 1.3096461e-38
-0.065780006 0.022408573 0.75900006 1.2819518e-38
-0.064334288 0.022408573 0.75900006 1.2819518e-38
-0.062722854 0.022349525 0.75700003 1.2635843e-38
-0.06111905 0.022290478 0.75500005 1.2267061e-38
-0.059601903 0.022260953 0.75400001 1.2450376e-38
-0.058011431 0.022201905 0.75200003 1.2450376e-38
-0.056428574 0.022142859 0.75000006 1.2450013e-38
-0.054926667 0.022113333 0.74900001 1.208123e-38
-0.053285718 0.022024764 0.74600005 1.1804287e-38
-0.051864766 0.022024764 0.74600005 1.1804287e-38
-0.050443813 0.022024764 0.74600005 1.1804287e-38
-0.1347324 0.023037143 0.73300004 1.3735729e-38
-0.1333362 0.023037143 0.73300004 1.1340804e-38
-0.13212 0.023068571 0.73400003 1.078763e-38
-0.13107811 0.02313143 0.73600006 1.0972722e-38
-0.13020477 0.023225715 0.73900002 1.1249309e-38
-0.12879714 0.023225715 0.73900002 1.134223e-38
-0.1277343 0.023288572 0.74100006 1.1526622e-38
-0.12649333 0.023320002 0.74200004 1.1435505e-38
-0.1257543 0.023445716 0.74600005 1.1896483e-38
-0.12450001 0.023477143 0.74700004 1.1805006e-38
-0.12307715 0.023477143 0.74700004 1.1897202e-38
-0.12214287 0.02357143 0.75000006 1.1989044e-38
-0.12071429 0.02357143 0.75000006 1.2173436e-38
-0.1199219 0.023697143 0.75400001 1.2265634e-38
-0.11864287 0.023728572 0.75500005 1.2450025e-38
-0.11720477 0.023728572 0.75500005 1.2542218e-38
-0.11607334 0.023791429 0.75700003 1.2726609e-38
-0.11463144 0.023791429 0.75700003 1.2726612e-38
-0.11318953 0.023791429 0.75700003 1.2726612e-38
-0.11204287 0.023854287 0.75900006 1.2818452e-38
-0.11059715 0.023854287 0.75900006 1.3002843e-38
-0.10943905 0.023917144 0.76100004 1.2911364e-38
-0.10813143 0.023948571 0.76200002 1.3187951e-38
-0.10696001 0.024011429 0.76400006 1.3096474e-38
-0.10550477 0.024011429 0.76400006 1.3188669e-38
-0.10404953 0.024011429 0.76400006 1.3188667e-38
-0.10259429 0.024011429 0.76400006 1.3280862e-38
-0.10113905 0.024011429 0.76400006 1.3372698e-38
-0.099683814 0.024011429 0.76400006 1.3557089e-38
-0.098228574 0.024011429 0.76400006 1.3648563e-38
-0.097026668 0.024074288 0.76600003 1.3648563e-38
-0.095567621 0.024074288 0.76600003 1.3648563e-38
-0.094108574 0.024074288 0.76600003 1.3740759e-38
-0.092649527 0.024074288 0.76600003 1.3740761e-38
-0.09119048 0.024074288 0.76600003 1.3740761e-38
-0.089731432 0.024074288 0.76600003 1.3740761e-38
-0.088272385 0.024074288 0.76600003 1.3740761e-38
-0.086813338 0.024074288 0.76600003 1.3557089e-38
-0.085354283 0.024074288 0.76600003 1.3557089e-38
-0.08400476 0.024105715 0.76700002 1.3557089e-38
-0.082543813 0.024105715 0.76700002 1.3649285e-38
-0.081082858 0.024105715 0.76700002 1.3465254e-38
-0.079621911 0.024105715 0.76700002 1.3373058e-38
-0.078059055 0.024074288 0.76600003 1.3372698e-38
-0.0766 0.024074288 0.76600003 1.3372698e-38
-0.075140953 0.024074288 0.76600003 1.3464172e-38
-0.073489532 0.024011429 0.76400006 1.3464172e-38
-0.071845718 0.023948571 0.76200002 1.3096111e-38
-0.070301905 0.023917144 0.76100004 1.3096111e-38
-0.068852387 0.023917144 0.76100004 1.3096105e-38
-0.067402862 0.023917144 0.76100004 1.2911714e-38
-0.065780006 0.023854287 0.75900006 1.2635493e-38
-0.064334288 0.023854287 0.75900006 1.2635493e-38
-0.062722854 0.023791429 0.75700003 1.2451455e-38
-0.06111905 0.023728572 0.75500005 1.2359259e-38
-0.059601903 0.023697143 0.75400001 1.2541858e-38
-0.058011431 0.023634287 0.75200003 1.2541858e-38
-0.05657905 0.023634287 0.75200003 1.2265984e-38
-0.055000003 0.02357143 0.75000006 1.1989398e-38
-0.053357143 0.023477143 0.74700004 1.1896483e-38
-0.051864766 0.023445716 0.74600005 1.1988679e-38
-0.050443813 0.023445716 0.74600005 1.1896136e-38
-0.1347324 0.024433333 0.73300004 1.5395223e-38
-0.1333362 0.024433333 0.73300004 1.2908082e-38
-0.13248 0.024533335 0.73600006 1.0879778e-38
-0.13107811 0.024533335 0.73600006 1.0513186e-38
-0.13020477 0.024633335 0.73900002 1.0881968e-38
-0.12879714 0.024633335 0.73900002 1.1157486e-38
-0.1277343 0.024700001 0.74100006 1.1526268e-38
-0.12649333 0.024733335 0.74200004 1.1343309e-38
-0.1257543 0.024866669 0.74600005 1.1712092e-38
-0.12450001 0.024900001 0.74700004 1.1712092e-38
-0.12307715 0.024900001 0.74700004 1.1804287e-38
-0.12214287 0.025000002 0.75000006 1.1988684e-38
-0.12071429 0.025000002 0.75000006 1.208088e-38
-0.1199219 0.025133332 0.75400001 1.217272e-38
-0.11864287 0.025166668 0.75500005 1.2449307e-38
-0.11720477 0.025166668 0.75500005 1.2634054e-38
-0.11607334 0.025233334 0.75700003 1.2726249e-38
-0.11463144 0.025233334 0.75700003 1.2634417e-38
-0.11348858 0.025300002 0.75900006 1.2726612e-38
-0.11204287 0.025300002 0.75900006 1.2634064e-38
-0.11059715 0.025300002 0.75900006 1.2818455e-38
-0.10943905 0.025366668 0.76100004 1.2819171e-38
-0.10813143 0.0254 0.76200002 1.2911366e-38
-0.10696001 0.025466667 0.76400006 1.3095755e-38
-0.10550477 0.025466667 0.76400006 1.3095755e-38
-0.10404953 0.025466667 0.76400006 1.3004278e-38
-0.10286286 0.025533335 0.76600003 1.3096474e-38
-0.10140382 0.025533335 0.76600003 1.3280502e-38
-0.099944763 0.025533335 0.76600003 1.3372698e-38
-0.098485716 0.025533335 0.76600003 1.3372698e-38
-0.097026668 0.025533335 0.76600003 1.3372698e-38
-0.095567621 0.025533335 0.76600003 1.3464537e-38
-0.094108574 0.025533335 0.76600003 1.3556733e-38
-0.092649527 0.025533335 0.76600003 1.3557089e-38
-0.09119048 0.025533335 0.76600003 1.3557089e-38
-0.089731432 0.025533335 0.76600003 1.3557089e-38
-0.088272385 0.025533335 0.76600003 1.3464893e-38
-0.086813338 0.025533335 0.76600003 1.3464893e-38
-0.085354283 0.025533335 0.76600003 1.3557089e-38
-0.08400476 0.025566667 0.76700002 1.3464893e-38
-0.082543813 0.025566667 0.76700002 1.3557089e-38
-0.081082858 0.025566667 0.76700002 1.3464893e-38
-0.079621911 0.025566667 0.76700002 1.3372698e-38
-0.078160949 0.025566667 0.76700002 1.3372342e-38
-0.0766 0.025533335 0.76600003 1.3280146e-38
-0.075140953 0.025533335 0.76600003 1.3188306e-38
-0.073489532 0.025466667 0.76400006 1.3188306e-38
-0.071845718 0.0254 0.76200002 1.3096105e-38
-0.070394285 0.0254 0.76200002 1.300391e-38
-0.068852387 0.025366668 0.76100004 1.3187941e-38
-0.067402862 0.025366668 0.76100004 1.2819158e-38
-0.065953337 0.025366668 0.76100004 1.2451104e-38
-0.064334288 0.025300002 0.75900006 1.25433e-38
-0.062888578 0.025300002 0.75900006 1.2726963e-38
-0.061280955 0.025233334 0.75700003 1.2542571e-38
-0.059601903 0.025133332 0.75400001 1.2265634e-38
-0.058165714 0.025133332 0.75400001 1.2265634e-38
-0.05657905 0.025066668 0.75200003 1.208088e-38
-0.055000003 0.025000002 0.75000006 1.208088e-38
-0.0535 0.024966666 0.74900001 1.217307e-38
-0.051934287 0.024900001 0.74700004 1.2541852e-38
-0.050511431 0.024900001 0.74700004 1.2264918e-38
-0.13668573 0.02593524 0.73600006 1.1800312e-38
-0.13528381 0.02593524 0.73600006 1.4750572e-38
-0.13388193 0.02593524 0.73600006 1.3553486e-38
-0.13248 0.02593524 0.73600006 1.0972009e-38
-0.13107811 0.02593524 0.73600006 9.961807e-39
-0.13020477 0.026040953 0.73900002 1.0699372e-38
-0.12879714 0.026040953 0.73900002 1.0974527e-38
-0.1277343 0.02611143 0.74100006 1.1158918e-38
-0.12649333 0.026146669 0.74200004 1.1158918e-38
-0.1257543 0.026287619 0.74600005 1.1527701e-38
-0.12450001 0.026322858 0.74700004 1.1528419e-38
-0.12307715 0.026322858 0.74700004 1.1712811e-38
-0.12214287 0.026428573 0.75000006 1.1804293e-38
-0.12103619 0.026499048 0.75200003 1.1896489e-38
-0.1199219 0.026569525 0.75400001 1.1988331e-38
-0.11864287 0.026604762 0.75500005 1.2264918e-38
-0.11720477 0.026604762 0.75500005 1.2357467e-38
-0.11607334 0.026675239 0.75700003 1.2541858e-38
-0.11463144 0.026675239 0.75700003 1.2542218e-38
-0.11348858 0.026745716 0.75900006 1.2634414e-38
-0.11204287 0.026745716 0.75900006 1.2726612e-38
-0.11088858 0.026816191 0.76100004 1.2818808e-38
-0.10943905 0.026816191 0.76100004 1.2727691e-38
-0.10813143 0.026851429 0.76200002 1.2819887e-38
-0.10696001 0.026921906 0.76400006 1.2911364e-38
-0.10550477 0.026921906 0.76400006 1.3095755e-38
-0.10404953 0.026921906 0.76400006 1.3004275e-38
-0.10286286 0.026992382 0.76600003 1.3096471e-38
-0.10140382 0.026992382 0.76600003 1.3096827e-38
-0.099944763 0.026992382 0.76600003 1.3096827e-38
-0.098485716 0.026992382 0.76600003 1.3187951e-38
-0.097026668 0.026992382 0.76600003 1.3280146e-38
-0.095567621 0.026992382 0.76600003 1.3372698e-38
-0.094108574 0.026992382 0.76600003 1.3464893e-38
-0.092649527 0.026992382 0.76600003 1.3464537e-38
-0.09119048 0.026992382 0.76600003 1.3464537e-38
-0.089731432 0.026992382 0.76600003 1.3464893e-38
-0.088272385 0.026992382 0.76600003 1.3464893e-38
-0.086813338 0.026992382 0.76600003 1.3464893e-38
-0.085354283 0.026992382 0.76600003 1.3464893e-38
-0.08400476 0.02702762 0.76700002 1.3373061e-38
-0.082543813 0.02702762 0.76700002 1.3465256e-38
-0.081082858 0.02702762 0.76700002 1.3373414e-38
-0.079621911 0.02702762 0.76700002 1.3281218e-38
-0.078160949 0.02702762 0.76700002 1.3280499e-38
-0.076700002 0.02702762 0.76700002 1.3280499e-38
-0.075140953 0.026992382 0.76600003 1.3096111e-38
-0.073489532 0.026921906 0.76400006 1.3096111e-38
-0.071845718 0.026851429 0.76200002 1.3095392e-38
-0.070394285 0.026851429 0.76200002 1.3095392e-38
-0.068852387 0.026816191 0.76100004 1.3003194e-38
-0.067402862 0.026816191 0.76100004 1.2726607e-38
-0.065953337 0.026816191 0.76100004 1.2726612e-38
-0.064334288 0.026745716 0.75900006 1.2634417e-38
-0.062888578 0.026745716 0.75900006 1.2542218e-38
-0.061280955 0.026675239 0.75700003 1.2542218e-38
-0.059680957 0.026604762 0.75500005 1.2449662e-38
-0.058165714 0.026569525 0.75400001 1.2357467e-38
-0.05657905 0.026499048 0.75200003 1.2080874e-38
-0.055146668 0.026499048 0.75200003 1.217307e-38
-0.053714287 0.026499048 0.75200003 1.2449307e-38
-0.13668573 0.027337145 0.73600006 9.863838e-39
-0.13528381 0.027337145 0.73600006 1.4934598e-38
-0.13388193 0.027337145 0.73600006 1.4289244e-38
-0.13248 0.027337145 0.73600006 1.1892157e-38
-0.13107811 0.027337145 0.73600006 1.0972722e-38
-0.13055715 0.027522858 0.74100006 1.1157113e-38
-0.12914573 0.027522858 0.74100006 1.1158195e-38
-0.12790667 0.027560001 0.74200004 1.1158195e-38
-0.12649333 0.027560001 0.74200004 1.0974527e-38
-0.1257543 0.027708573 0.74600005 1.1343309e-38
-0.12450001 0.027745714 0.74700004 1.1528056e-38
-0.12307715 0.027745714 0.74700004 1.1620252e-38
-0.12214287 0.027857145 0.75000006 1.1895404e-38
-0.12103619 0.027931429 0.75200003 1.19876e-38
-0.1199219 0.028005714 0.75400001 1.1987252e-38
-0.11864287 0.028042858 0.75500005 1.2263839e-38
-0.11720477 0.028042858 0.75500005 1.2265266e-38
-0.11607334 0.028117143 0.75700003 1.2357461e-38
-0.11493429 0.02819143 0.75900006 1.2541852e-38
-0.11348858 0.02819143 0.75900006 1.2634048e-38
-0.1123381 0.028265715 0.76100004 1.2726244e-38
-0.11088858 0.028265715 0.76100004 1.2910635e-38
-0.10958286 0.028302858 0.76200002 1.2818805e-38
-0.10841525 0.028377144 0.76400006 1.2818805e-38
-0.10696001 0.028377144 0.76400006 1.3003196e-38
-0.10550477 0.028377144 0.76400006 1.3095392e-38
-0.10404953 0.028377144 0.76400006 1.3187941e-38
-0.10286286 0.02845143 0.76600003 1.3280136e-38
-0.10140382 0.02845143 0.76600003 1.3188306e-38
-0.099944763 0.02845143 0.76600003 1.3096111e-38
-0.098485716 0.02845143 0.76600003 1.3188306e-38
-0.097026668 0.02845143 0.76600003 1.3188306e-38
-0.095567621 0.02845143 0.76600003 1.3280502e-38
-0.094108574 0.02845143 0.76600003 1.3280502e-38
-0.092649527 0.02845143 0.76600003 1.3372698e-38
-0.09119048 0.02845143 0.76600003 1.3372698e-38
-0.089731432 0.02845143 0.76600003 1.3648203e-38
-0.088387616 0.028488571 0.76700002 1.3740398e-38
-0.086926669 0.028488571 0.76700002 1.3648203e-38
-0.085465722 0.028488571 0.76700002 1.3556007e-38
-0.08400476 0.028488571 0.76700002 1.3372698e-38
-0.082543813 0.028488571 0.76700002 1.3464893e-38
-0.081082858 0.028488571 0.76700002 1.3373048e-38
-0.079621911 0.028488571 0.76700002 1.3280852e-38
-0.078160949 0.028488571 0.76700002 1.3188301e-38
-0.076700002 0.028488571 0.76700002 1.3096105e-38
-0.075140953 0.02845143 0.76600003 1.3095392e-38
-0.073489532 0.028377144 0.76400006 1.3003196e-38
-0.071845718 0.028302858 0.76200002 1.3003549e-38
-0.070394285 0.028302858 0.76200002 1.2911354e-38
-0.068852387 0.028265715 0.76100004 1.2818808e-38
-0.067402862 0.028265715 0.76100004 1.2542221e-38
-0.065953337 0.028265715 0.76100004 1.2449669e-38
-0.064334288 0.02819143 0.75900006 1.2449669e-38
-0.062888578 0.02819143 0.75900006 1.2449307e-38
-0.061442863 0.02819143 0.75900006 1.2541502e-38
-0.059839047 0.028117143 0.75700003 1.2542221e-38
-0.058165714 0.028005714 0.75400001 1.2726612e-38
-0.056729525 0.028005714 0.75400001 1.2544003e-38
-0.055293337 0.028005714 0.75400001 1.2912786e-38
-0.13528381 0.02873905 0.73600006 1.4194865e-38
-0.13388193 0.02873905 0.73600006 1.3830777e-38
-0.13248 0.02873905 0.73600006 1.2171255e-38
-0.13161239 0.028856192 0.73900002 1.1432646e-38
-0.13020477 0.028856192 0.73900002 1.1340451e-38
-0.12914573 0.028934287 0.74100006 1.1065643e-38
-0.1277343 0.028934287 0.74100006 1.0973448e-38
-0.12649333 0.028973334 0.74200004 1.1065999e-38
-0.1257543 0.029129526 0.74600005 1.1526977e-38
-0.12483333 0.029246666 0.74900001 1.1343665e-38
-0.12340666 0.029246666 0.74900001 1.1528056e-38
-0.12214287 0.029285716 0.75000006 1.1527701e-38
-0.12103619 0.029363809 0.75200003 1.1712092e-38
-0.1199219 0.029441904 0.75400001 1.2079442e-38
-0.11864287 0.029480955 0.75500005 1.2263833e-38
-0.11720477 0.029480955 0.75500005 1.208088e-38
-0.11607334 0.029559048 0.75700003 1.2173076e-38
-0.11493429 0.029637145 0.75900006 1.2173076e-38
-0.11348858 0.029637145 0.75900006 1.2357467e-38
-0.1123381 0.02971524 0.76100004 1.2541852e-38
-0.11103429 0.029754287 0.76200002 1.2726244e-38
-0.10958286 0.029754287 0.76200002 1.2726609e-38
-0.10841525 0.029832384 0.76400006 1.2726609e-38
-0.10696001 0.029832384 0.76400006 1.2726609e-38
-0.10550477 0.029832384 0.76400006 1.2911001e-38
-0.1043219 0.029910479 0.76600003 1.3003199e-38
-0.10286286 0.029910479 0.76600003 1.3095395e-38
-0.10140382 0.029910479 0.76600003 1.3003915e-38
-0.099944763 0.029910479 0.76600003 1.3003915e-38
-0.098485716 0.029910479 0.76600003 1.3003559e-38
-0.097026668 0.029910479 0.76600003 1.3095755e-38
-0.095567621 0.029910479 0.76600003 1.3095755e-38
-0.094108574 0.029910479 0.76600003 1.3187951e-38
-0.092649527 0.029910479 0.76600003 1.3187951e-38
-0.09119048 0.029910479 0.76600003 1.3187951e-38
-0.089848571 0.029949524 0.76700002 1.3187951e-38
-0.088387616 0.029949524 0.76700002 1.3280146e-38
-0.086926669 0.029949524 0.76700002 1.3371976e-38
-0.085465722 0.029949524 0.76700002 1.3371976e-38
-0.084223814 0.030027622 0.76900005 1.3188304e-38
-0.082759053 0.030027622 0.76900005 1.3188304e-38
-0.081294291 0.030027622 0.76900005 1.3188306e-38
-0.079829529 0.030027622 0.76900005 1.3096111e-38
-0.078160949 0.029949524 0.76700002 1.2819884e-38
-0.076700002 0.029949524 0.76700002 1.2819884e-38
-0.075239047 0.029949524 0.76700002 1.2911004e-38
-0.073681906 0.029910479 0.76600003 1.2911004e-38
-0.072034292 0.029832384 0.76400006 1.2727691e-38
-0.070394285 0.029754287 0.76200002 1.2727691e-38
-0.068852387 0.02971524 0.76100004 1.2726612e-38
-0.067402862 0.02971524 0.76100004 1.2542221e-38
-0.065953337 0.02971524 0.76100004 1.2541502e-38
-0.064334288 0.029637145 0.75900006 1.2449307e-38
-0.062888578 0.029637145 0.75900006 1.2265266e-38
-0.061442863 0.029637145 0.75900006 1.2634048e-38
-0.059997149 0.029637145 0.75900006 1.2450748e-38
-0.058165714 0.029441904 0.75400001 1.263514e-38
-0.056729525 0.029441904 0.75400001 1.2727688e-38
-0.055293337 0.029441904 0.75400001 1.2819884e-38
-0.13583523 0.030263809 0.73900002 1.0970188e-38
-0.13442762 0.030263809 0.73900002 1.2262725e-38
-0.13302 0.030263809 0.73900002 1.3276877e-38
-0.13161239 0.030263809 0.73900002 1.2078742e-38
-0.13020477 0.030263809 0.73900002 1.0972394e-38
-0.12879714 0.030263809 0.73900002 1.0880532e-38
-0.1277343 0.030345717 0.74100006 1.0972727e-38
-0.12649333 0.030386668 0.74200004 1.0789412e-38
-0.1257543 0.030550478 0.74600005 1.1158195e-38
-0.12483333 0.030673334 0.74900001 1.1066728e-38
-0.12340666 0.030673334 0.74900001 1.1251119e-38
-0.12214287 0.030714288 0.75000006 1.1343315e-38
-0.12103619 0.030796193 0.75200003 1.1435511e-38
-0.1199219 0.030878095 0.75400001 1.1895051e-38
-0.11864287 0.030919051 0.75500005 1.2171638e-38
-0.11720477 0.030919051 0.75500005 1.2171991e-38
-0.11607334 0.031000955 0.75700003 1.2171991e-38
-0.11493429 0.031082857 0.75900006 1.2263839e-38
-0.11348858 0.031082857 0.75900006 1.2356035e-38
-0.1123381 0.031164765 0.76100004 1.2357467e-38
-0.11103429 0.031205716 0.76200002 1.2541858e-38
-0.10987048 0.031287622 0.76400006 1.2450025e-38
-0.10841525 0.031287622 0.76400006 1.2634417e-38
-0.10724001 0.031369522 0.76600003 1.2634417e-38
-0.10578096 0.031369522 0.76600003 1.2726612e-38
-0.1043219 0.031369522 0.76600003 1.2818808e-38
-0.10286286 0.031369522 0.76600003 1.2818808e-38
-0.10140382 0.031369522 0.76600003 1.2727691e-38
-0.099944763 0.031369522 0.76600003 1.2819887e-38
-0.098485716 0.031369522 0.76600003 1.2819887e-38
-0.097026668 0.031369522 0.76600003 1.2819887e-38
-0.095567621 0.031369522 0.76600003 1.3003559e-38
-0.094108574 0.031369522 0.76600003 1.3003559e-38
-0.092649527 0.031369522 0.76600003 1.3003559e-38
-0.09119048 0.031369522 0.76600003 1.3095755e-38
-0.089848571 0.031410474 0.76700002 1.318759e-38
-0.088387616 0.031410474 0.76700002 1.3279786e-38
-0.086926669 0.031410474 0.76700002 1.3187951e-38
-0.085465722 0.031410474 0.76700002 1.3095755e-38
-0.084223814 0.031492382 0.76900005 1.3095755e-38
-0.082759053 0.031492382 0.76900005 1.3003559e-38
-0.081294291 0.031492382 0.76900005 1.3003559e-38
-0.079829529 0.031492382 0.76900005 1.2911364e-38
-0.078160949 0.031410474 0.76700002 1.291172e-38
-0.076700002 0.031410474 0.76700002 1.291172e-38
-0.075239047 0.031410474 0.76700002 1.2450748e-38
-0.073681906 0.031369522 0.76600003 1.2358553e-38
-0.072034292 0.031287622 0.76400006 1.2634064e-38
-0.070394285 0.031205716 0.76200002 1.2541868e-38
-0.068852387 0.031164765 0.76100004 1.2541858e-38
-0.067402862 0.031164765 0.76100004 1.2541858e-38
-0.065953337 0.031164765 0.76100004 1.2358909e-38
-0.064334288 0.031082857 0.75900006 1.2819887e-38
-0.062888578 0.031082857 0.75900006 1.300391e-38
-0.061442863 0.031082857 0.75900006 1.3464888e-38
-0.059997149 0.031082857 0.75900006 1.3832957e-38
-0.058165714 0.030878095 0.75400001 1.3279783e-38
-0.052892383 0.028789524 0.70300001 1.2727691e-38
-0.051553335 0.028789524 0.70300001 1.1713539e-38
-0.050285716 0.02883048 0.70400006 1.0884842e-38
-0.048944768 0.02883048 0.70400006 8.3033646e-39
-0.13074286 0.03017143 0.70400006 7.9281053e-39
-0.12940191 0.03017143 0.70400006 9.2188441e-39
-0.13424572 0.031628575 0.73800004 1.0789738e-38
-0.13284001 0.031628575 0.73800004 1.2818041e-38
-0.13161239 0.031671431 0.73900002 1.2908853e-38
-0.13020477 0.031671431 0.73900002 1.1433722e-38
-0.12879714 0.031671431 0.73900002 1.106457e-38
-0.1277343 0.031757142 0.74100006 1.106457e-38
-0.12632287 0.031757142 0.74100006 1.0789057e-38
-0.1257543 0.031971432 0.74600005 1.1157839e-38
-0.12450001 0.032014288 0.74700004 1.1157486e-38
-0.12340666 0.032100003 0.74900001 1.1157486e-38
-0.12214287 0.032142859 0.75000006 1.1434073e-38
-0.12103619 0.03222857 0.75200003 1.171066e-38
-0.1199219 0.032314286 0.75400001 1.171066e-38
-0.11864287 0.032357145 0.75500005 1.1987247e-38
-0.11751524 0.03244286 0.75700003 1.1987247e-38
-0.11607334 0.03244286 0.75700003 1.1987247e-38
-0.11493429 0.032528572 0.75900006 1.2079448e-38
-0.11348858 0.032528572 0.75900006 1.2171643e-38
-0.1123381 0.032614287 0.76100004 1.2080527e-38
-0.11103429 0.032657143 0.76200002 1.2541505e-38
-0.10958286 0.032657143 0.76200002 1.2450025e-38
-0.10841525 0.032742858 0.76400006 1.2634417e-38
-0.10696001 0.032742858 0.76400006 1.2451104e-38
-0.10578096 0.032828573 0.76600003 1.25433e-38
-0.1043219 0.032828573 0.76600003 1.25433e-38
-0.10286286 0.032828573 0.76600003 1.2635496e-38
-0.10140382 0.032828573 0.76600003 1.2635496e-38
-0.099944763 0.032828573 0.76600003 1.2727691e-38
-0.098485716 0.032828573 0.76600003 1.2910648e-38
-0.097026668 0.032828573 0.76600003 1.3002843e-38
-0.095692381 0.032871429 0.76700002 1.2911366e-38
-0.094231427 0.032871429 0.76700002 1.2911366e-38
-0.09277048 0.032871429 0.76700002 1.3002843e-38
