# .PCD v0.7 - Point Cloud Data file format
VERSION 0.7
FIELDS x y z rgb
SIZE 4 4 4 4
TYPE F F F F
COUNT 1 1 1 1
WIDTH 1018
HEIGHT 1
VIEWPOINT 0 0 0 1 0 0 0
POINTS 1018
DATA ascii
-0.051380005 -0.13107145 1.1010001 1.6316459e-38
-0.04928286 -0.13107145 1.1010001 1.6222828e-38
-0.047185715 -0.13107145 1.1010001 1.576185e-38
-0.045088574 -0.13107145 1.1010001 1.576183e-38
-0.04299143 -0.13107145 1.1010001 1.576183e-38
-0.040745717 -0.13059524 1.097 1.5669622e-38
-0.03865619 -0.13059524 1.097 1.530084e-38
-0.036566667 -0.13059524 1.097 1.5208657e-38
-0.034477144 -0.13059524 1.097 1.5300852e-38
-0.032387618 -0.13059524 1.097 1.5024623e-38
-0.030215241 -0.13023812 1.0940001 1.4932427e-38
-0.028131431 -0.13023812 1.0940001 1.4932067e-38
-0.026047621 -0.13023812 1.0940001 1.4747676e-38
-0.023963811 -0.13023812 1.0940001 1.4747691e-38
-0.068157144 -0.12897429 1.1010001 1.6959677e-38
-0.066060007 -0.12897429 1.1010001 1.7051873e-38
-0.063962862 -0.12897429 1.1010001 1.732846e-38
-0.061865721 -0.12897429 1.1010001 1.7237336e-38
-0.059768576 -0.12897429 1.1010001 1.7237336e-38
-0.057671431 -0.12897429 1.1010001 1.723733e-38
-0.05557429 -0.12897429 1.1010001 1.7513917e-38
-0.053477146 -0.12897429 1.1010001 1.7514652e-38
-0.051380005 -0.12897429 1.1010001 1.7238065e-38
-0.04928286 -0.12897429 1.1010001 1.6776365e-38
-0.047185715 -0.12897429 1.1010001 1.6776365e-38
-0.045088574 -0.12897429 1.1010001 1.6867825e-38
-0.04299143 -0.12897429 1.1010001 1.6775629e-38
-0.040894289 -0.12897429 1.1010001 1.6222455e-38
-0.03865619 -0.12850571 1.097 1.613026e-38
-0.036466669 -0.12815429 1.0940001 1.6129541e-38
-0.034382861 -0.12815429 1.0940001 1.594515e-38
-0.032299049 -0.12815429 1.0940001 1.5301222e-38
-0.030215241 -0.12815429 1.0940001 1.5209027e-38
-0.028131431 -0.12815429 1.0940001 1.5209395e-38
-0.026047621 -0.12815429 1.0940001 1.5117199e-38
-0.023963811 -0.12815429 1.0940001 1.4747698e-38
-0.021880003 -0.12815429 1.0940001 1.4747698e-38
-0.019796191 -0.12815429 1.0940001 1.45633e-38
-0.017712383 -0.12815429 1.0940001 1.45633e-38
-0.015628573 -0.12815429 1.0940001 1.465549e-38
-0.076545723 -0.12687714 1.1010001 1.659269e-38
-0.074448578 -0.12687714 1.1010001 1.659269e-38
-0.072351426 -0.12687714 1.1010001 1.6961472e-38
-0.070254289 -0.12687714 1.1010001 1.6961472e-38
-0.068157144 -0.12687714 1.1010001 1.7238059e-38
-0.066060007 -0.12687714 1.1010001 1.7329904e-38
-0.063962862 -0.12687714 1.1010001 1.74221e-38
-0.061865721 -0.12687714 1.1010001 1.7238059e-38
-0.059768576 -0.12687714 1.1010001 1.7145863e-38
-0.057671431 -0.12687714 1.1010001 1.6962554e-38
-0.05557429 -0.12687714 1.1010001 1.7239141e-38
-0.053477146 -0.12687714 1.1010001 1.7514652e-38
-0.051380005 -0.12687714 1.1010001 1.7422456e-38
-0.04928286 -0.12687714 1.1010001 1.7514286e-38
-0.047185715 -0.12687714 1.1010001 1.7606481e-38
-0.045088574 -0.12687714 1.1010001 1.7422806e-38
-0.04299143 -0.12687714 1.1010001 1.7238415e-38
-0.040745717 -0.12641619 1.097 1.6869282e-38
-0.03865619 -0.12641619 1.097 1.6961478e-38
-0.036466669 -0.12607048 1.0940001 1.6868916e-38
-0.034382861 -0.12607048 1.0940001 1.6776721e-38
-0.032299049 -0.12607048 1.0940001 1.6316106e-38
-0.030215241 -0.12607048 1.0940001 1.622391e-38
-0.028131431 -0.12607048 1.0940001 1.5856206e-38
-0.026047621 -0.12607048 1.0940001 1.557962e-38
-0.023963811 -0.12607048 1.0940001 1.5485969e-38
-0.021880003 -0.12607048 1.0940001 1.48406e-38
-0.019796191 -0.12607048 1.0940001 1.4655142e-38
-0.017712383 -0.12607048 1.0940001 1.4655142e-38
-0.015571428 -0.12560952 1.09 1.4563294e-38
-0.011356192 -0.12491811 1.0840001 1.4839534e-38
-0.090645723 -0.12398667 1.0940001 1.5578165e-38
-0.088561907 -0.12398667 1.0940001 1.5762556e-38
-0.086715236 -0.12432666 1.097 1.5946229e-38
-0.084625714 -0.12432666 1.097 1.6038424e-38
-0.082536191 -0.12432666 1.097 1.5946597e-38
-0.080740005 -0.12478001 1.1010001 1.631538e-38
-0.07864286 -0.12478001 1.1010001 1.6131711e-38
-0.076545723 -0.12478001 1.1010001 1.6500494e-38
-0.074448578 -0.12478001 1.1010001 1.6317182e-38
-0.072351426 -0.12478001 1.1010001 1.6685964e-38
-0.070254289 -0.12478001 1.1010001 1.677816e-38
-0.068157144 -0.12478001 1.1010001 1.6962551e-38
-0.066060007 -0.12478001 1.1010001 1.6962198e-38
-0.063962862 -0.12478001 1.1010001 1.7146589e-38
-0.061865721 -0.12478001 1.1010001 1.6962551e-38
-0.059768576 -0.12478001 1.1010001 1.6870356e-38
-0.057671431 -0.12478001 1.1010001 1.6870356e-38
-0.05557429 -0.12478001 1.1010001 1.7146942e-38
-0.053477146 -0.12478001 1.1010001 1.7054394e-38
-0.051380005 -0.12478001 1.1010001 1.7238785e-38
-0.04928286 -0.12478001 1.1010001 1.742245e-38
-0.047185715 -0.12478001 1.1010001 1.7330255e-38
-0.045088574 -0.12478001 1.1010001 1.6963267e-38
-0.04299143 -0.12478001 1.1010001 1.6871072e-38
-0.040745717 -0.12432666 1.097 1.6409743e-38
-0.03865619 -0.12432666 1.097 1.6501939e-38
-0.036466669 -0.12398667 1.0940001 1.6225349e-38
-0.034382861 -0.12398667 1.0940001 1.6133153e-38
-0.032299049 -0.12398667 1.0940001 1.6041314e-38
-0.030215241 -0.12398667 1.0940001 1.6041314e-38
-0.028131431 -0.12398667 1.0940001 1.5579982e-38
-0.026047621 -0.12398667 1.0940001 1.5579982e-38
-0.023963811 -0.12398667 1.0940001 1.5210837e-38
-0.021880003 -0.12398667 1.0940001 1.4565468e-38
-0.01972381 -0.12353334 1.09 1.45633e-38
-0.01764762 -0.12353334 1.09 1.4194517e-38
-0.015571428 -0.12353334 1.09 1.4286347e-38
-0.013420953 -0.12285335 1.0840001 1.4470738e-38
-0.094466671 -0.12145714 1.09 1.4748755e-38
-0.092390478 -0.12145714 1.09 1.5025342e-38
-0.090314284 -0.12145714 1.09 1.5116824e-38
-0.088238098 -0.12145714 1.09 1.5762193e-38
-0.086478107 -0.12190286 1.0940001 1.57622e-38
-0.084625714 -0.12223714 1.097 1.5946592e-38
-0.082536191 -0.12223714 1.097 1.6038437e-38
-0.080740005 -0.12268285 1.1010001 1.6407219e-38
-0.07864286 -0.12268285 1.1010001 1.6131711e-38
-0.076545723 -0.12268285 1.1010001 1.659269e-38
-0.074448578 -0.12268285 1.1010001 1.6409377e-38
-0.072351426 -0.12268285 1.1010001 1.6593769e-38
-0.070254289 -0.12268285 1.1010001 1.6685964e-38
-0.068157144 -0.12268285 1.1010001 1.7054747e-38
-0.066060007 -0.12268285 1.1010001 1.6962551e-38
-0.063962862 -0.12268285 1.1010001 1.6962551e-38
-0.061865721 -0.12268285 1.1010001 1.7054747e-38
-0.059768576 -0.12268285 1.1010001 1.7146942e-38
-0.057671431 -0.12268285 1.1010001 1.714694e-38
-0.05557429 -0.12268285 1.1010001 1.714694e-38
-0.053477146 -0.12268285 1.1010001 1.7238062e-38
-0.051380005 -0.12268285 1.1010001 1.7330257e-38
-0.04928286 -0.12268285 1.1010001 1.7145863e-38
-0.047185715 -0.12268285 1.1010001 1.7053668e-38
-0.045088574 -0.12268285 1.1010001 1.6870709e-38
-0.04299143 -0.12268285 1.1010001 1.6870709e-38
-0.040894289 -0.12268285 1.1010001 1.640974e-38
-0.038797144 -0.12268285 1.1010001 1.6501936e-38
-0.036566667 -0.12223714 1.097 1.6224633e-38
-0.034477144 -0.12223714 1.097 1.6040242e-38
-0.032299049 -0.12190286 1.0940001 1.6040595e-38
-0.030215241 -0.12190286 1.0940001 1.6040595e-38
-0.028131431 -0.12190286 1.0940001 1.5762929e-38
-0.026047621 -0.12190286 1.0940001 1.594732e-38
-0.023963811 -0.12190286 1.0940001 1.5394146e-38
-0.0218 -0.12145714 1.09 1.4656581e-38
-0.01972381 -0.12145714 1.09 1.4287426e-38
-0.017599048 -0.12112286 1.087 1.3734252e-38
-0.015485716 -0.12078858 1.0840001 1.3825735e-38
-0.013420953 -0.12078858 1.0840001 1.3825735e-38
-0.011356192 -0.12078858 1.0840001 1.4930265e-38
-0.0092571434 -0.12034287 1.08 1.5391243e-38
-0.096542858 -0.11938096 1.09 1.4471101e-38
-0.094466671 -0.11938096 1.09 1.4102309e-38
-0.092390478 -0.11938096 1.09 1.4747678e-38
-0.090314284 -0.11938096 1.09 1.4747322e-38
-0.088238098 -0.11938096 1.09 1.5761474e-38
-0.086478107 -0.11981906 1.0940001 1.5670005e-38
-0.084625714 -0.12014762 1.097 1.5946592e-38
-0.082536191 -0.12014762 1.097 1.5946957e-38
-0.080740005 -0.12058572 1.1010001 1.631574e-38
-0.07864286 -0.12058572 1.1010001 1.6040595e-38
-0.076545723 -0.12058572 1.1010001 1.6409377e-38
-0.074448578 -0.12058572 1.1010001 1.6685241e-38
-0.072351426 -0.12058572 1.1010001 1.6777437e-38
-0.070254289 -0.12058572 1.1010001 1.6501573e-38
-0.068157144 -0.12058572 1.1010001 1.6870356e-38
-0.066060007 -0.12058572 1.1010001 1.7053668e-38
-0.063962862 -0.12058572 1.1010001 1.7330255e-38
-0.061865721 -0.12058572 1.1010001 1.714694e-38
-0.059768576 -0.12058572 1.1010001 1.714694e-38
-0.057880953 -0.12102381 1.105 1.7239135e-38
-0.055776194 -0.12102381 1.105 1.7239135e-38
-0.053671427 -0.12102381 1.105 1.7146589e-38
-0.051566668 -0.12102381 1.105 1.7146589e-38
-0.049461905 -0.12102381 1.105 1.7145863e-38
-0.047357146 -0.12102381 1.105 1.7053668e-38
-0.045088574 -0.12058572 1.1010001 1.6870353e-38
-0.04299143 -0.12058572 1.1010001 1.6870353e-38
-0.040894289 -0.12058572 1.1010001 1.6410096e-38
-0.038797144 -0.12058572 1.1010001 1.6410096e-38
-0.036566667 -0.12014762 1.097 1.6132437e-38
-0.034477144 -0.12014762 1.097 1.6132437e-38
-0.032299049 -0.11981906 1.0940001 1.613279e-38
-0.030215241 -0.11981906 1.0940001 1.5856204e-38
-0.028131431 -0.11981906 1.0940001 1.5762929e-38
-0.026047621 -0.11981906 1.0940001 1.5762929e-38
-0.023963811 -0.11981906 1.0940001 1.5209755e-38
-0.0218 -0.11938096 1.09 1.4564386e-38
-0.01972381 -0.11938096 1.09 1.4104484e-38
-0.017599048 -0.11905239 1.087 1.3366919e-38
-0.015485716 -0.11872382 1.0840001 1.336582e-38
-0.013371429 -0.11828572 1.08 1.3642407e-38
-0.011314286 -0.11828572 1.08 1.4744804e-38
-0.096542858 -0.11730476 1.09 1.3825704e-38
-0.094466671 -0.11730476 1.09 1.4285997e-38
-0.092390478 -0.11730476 1.09 1.5023562e-38
-0.090314284 -0.11730476 1.09 1.4747698e-38
-0.088238098 -0.11730476 1.09 1.5577459e-38
-0.086478107 -0.11773524 1.0940001 1.5486332e-38
-0.084394291 -0.11773524 1.0940001 1.594731e-38
-0.082536191 -0.11805809 1.097 1.5946957e-38
-0.080740005 -0.11848858 1.1010001 1.631574e-38
-0.07864286 -0.11848858 1.1010001 1.6223907e-38
-0.076545723 -0.11848858 1.1010001 1.659269e-38
-0.074448578 -0.11848858 1.1010001 1.6593046e-38
-0.072351426 -0.11848858 1.1010001 1.7054024e-38
-0.070254289 -0.11848858 1.1010001 1.6869632e-38
-0.068157144 -0.11848858 1.1010001 1.7054024e-38
-0.066060007 -0.11848858 1.1010001 1.6870356e-38
-0.063962862 -0.11848858 1.1010001 1.7239138e-38
-0.061865721 -0.11848858 1.1010001 1.7422803e-38
-0.059985716 -0.11891905 1.105 1.7330608e-38
-0.057880953 -0.11891905 1.105 1.7514999e-38
-0.055776194 -0.11891905 1.105 1.769939e-38
-0.053671427 -0.11891905 1.105 1.733026e-38
-0.051566668 -0.11891905 1.105 1.7238065e-38
-0.049461905 -0.11891905 1.105 1.6870358e-38
-0.047357146 -0.11891905 1.105 1.6870358e-38
-0.045252379 -0.11891905 1.105 1.7054024e-38
-0.04299143 -0.11848858 1.1010001 1.7146219e-38
-0.040894289 -0.11848858 1.1010001 1.6593766e-38
-0.038797144 -0.11848858 1.1010001 1.6685961e-38
-0.036700003 -0.11848858 1.1010001 1.6408301e-38
-0.034602862 -0.11848858 1.1010001 1.6408301e-38
-0.032387618 -0.11805809 1.097 1.6224263e-38
-0.030298095 -0.11805809 1.097 1.5855481e-38
-0.028208571 -0.11805809 1.097 1.5946957e-38
-0.026047621 -0.11773524 1.0940001 1.5854762e-38
-0.023963811 -0.11773524 1.0940001 1.5210111e-38
-0.0218 -0.11730476 1.09 1.4749133e-38
-0.01972381 -0.11730476 1.09 1.4379997e-38
-0.017599048 -0.1169819 1.087 1.3550237e-38
-0.015485716 -0.11665906 1.0840001 1.318071e-38
-0.013371429 -0.11622858 1.08 1.3826079e-38
-0.011314286 -0.11622858 1.08 1.4561852e-38
-0.0092571434 -0.11622858 1.08 1.4561852e-38
-0.096277148 -0.11491142 1.087 1.4561833e-38
-0.094206668 -0.11491142 1.087 1.4654051e-38
-0.092136197 -0.11491142 1.087 1.5115029e-38
-0.090314284 -0.11522858 1.09 1.4839894e-38
-0.088238098 -0.11522858 1.09 1.5577459e-38
-0.086478107 -0.11565144 1.0940001 1.530266e-38
-0.084394291 -0.11565144 1.0940001 1.5763638e-38
-0.082536191 -0.11596857 1.097 1.5946957e-38
-0.080740005 -0.11639144 1.1010001 1.6131349e-38
-0.07864286 -0.11639144 1.1010001 1.6222828e-38
-0.076545723 -0.11639144 1.1010001 1.6683806e-38
-0.074448578 -0.11639144 1.1010001 1.650085e-38
-0.072351426 -0.11639144 1.1010001 1.6961828e-38
-0.070254289 -0.11639144 1.1010001 1.7054021e-38
-0.068157144 -0.11639144 1.1010001 1.7054021e-38
-0.066060007 -0.11639144 1.1010001 1.7054024e-38
-0.063962862 -0.11639144 1.1010001 1.7330611e-38
-0.061865721 -0.11639144 1.1010001 1.7330611e-38
-0.059768576 -0.11639144 1.1010001 1.7422806e-38
-0.057880953 -0.11681429 1.105 1.7514999e-38
-0.055776194 -0.11681429 1.105 1.7607195e-38
-0.053671427 -0.11681429 1.105 1.7330255e-38
-0.051566668 -0.11681429 1.105 1.7238059e-38
-0.049461905 -0.11681429 1.105 1.7145863e-38
-0.047357146 -0.11681429 1.105 1.7053668e-38
-0.045252379 -0.11681429 1.105 1.6961828e-38
-0.04314762 -0.11681429 1.105 1.6777437e-38
-0.041042857 -0.11681429 1.105 1.6776718e-38
-0.038938098 -0.11681429 1.105 1.6868914e-38
-0.036700003 -0.11639144 1.1010001 1.6500497e-38
-0.034602862 -0.11639144 1.1010001 1.6316106e-38
-0.032505713 -0.11639144 1.1010001 1.6039516e-38
-0.030298095 -0.11596857 1.097 1.5855125e-38
-0.028208571 -0.11596857 1.097 1.5854762e-38
-0.026047621 -0.11565144 1.0940001 1.5762566e-38
-0.023963811 -0.11565144 1.0940001 1.5210111e-38
-0.0218 -0.11522858 1.09 1.4749133e-38
-0.01972381 -0.11522858 1.09 1.4471104e-38
-0.017550478 -0.1145943 1.0840001 1.3825735e-38
-0.015485716 -0.1145943 1.0840001 1.3273622e-38
-0.013371429 -0.11417143 1.08 1.4564361e-38
-0.011314286 -0.11417143 1.08 1.5485967e-38
-0.0092571434 -0.11417143 1.08 1.3457663e-38
-0.096277148 -0.11284095 1.087 1.465548e-38
-0.094206668 -0.11284095 1.087 1.465513e-38
-0.092136197 -0.11284095 1.087 1.4747325e-38
-0.090314284 -0.11315238 1.09 1.4747698e-38
-0.088238098 -0.11315238 1.09 1.5577459e-38
-0.086478107 -0.11356763 1.0940001 1.5394137e-38
-0.084394291 -0.11356763 1.0940001 1.5855115e-38
-0.082536191 -0.11387905 1.097 1.5854762e-38
-0.080740005 -0.1142943 1.1010001 1.6223544e-38
-0.07864286 -0.1142943 1.1010001 1.631538e-38
-0.076545723 -0.1142943 1.1010001 1.6684162e-38
-0.074448578 -0.1142943 1.1010001 1.6500847e-38
-0.072351426 -0.1142943 1.1010001 1.6777434e-38
-0.070254289 -0.1142943 1.1010001 1.6869983e-38
-0.068157144 -0.1142943 1.1010001 1.6962178e-38
-0.066060007 -0.1142943 1.1010001 1.7054021e-38
-0.063962862 -0.1142943 1.1010001 1.7054021e-38
-0.061865721 -0.1142943 1.1010001 1.7053668e-38
-0.059768576 -0.1142943 1.1010001 1.7053668e-38
-0.057880953 -0.11470952 1.105 1.742244e-38
-0.055776194 -0.11470952 1.105 1.7514636e-38
-0.053671427 -0.11470952 1.105 1.7330248e-38
-0.051566668 -0.11470952 1.105 1.7330248e-38
-0.049461905 -0.11470952 1.105 1.7146217e-38
-0.047357146 -0.11470952 1.105 1.6961825e-38
-0.045252379 -0.11470952 1.105 1.6961109e-38
-0.04314762 -0.11470952 1.105 1.6776718e-38
-0.041042857 -0.11470952 1.105 1.6591611e-38
-0.038938098 -0.11470952 1.105 1.6683806e-38
-0.036700003 -0.1142943 1.1010001 1.6315387e-38
-0.034602862 -0.1142943 1.1010001 1.5946604e-38
-0.032505713 -0.1142943 1.1010001 1.5761863e-38
-0.030298095 -0.11387905 1.097 1.5577471e-38
-0.028208571 -0.11387905 1.097 1.5393786e-38
-0.026047621 -0.11356763 1.0940001 1.5117199e-38
-0.023963811 -0.11356763 1.0940001 1.474877e-38
-0.0218 -0.11315238 1.09 1.4564379e-38
-0.019669523 -0.11284095 1.087 1.4839518e-38
-0.017550478 -0.11252954 1.0840001 1.5116105e-38
-0.015485716 -0.11252954 1.0840001 1.5117537e-38
-0.013371429 -0.11211429 1.08 1.548632e-38
-0.011282858 -0.11180286 1.077 1.5670333e-38
-0.0092314286 -0.11180286 1.077 1.3457637e-38
-0.096277148 -0.11077047 1.087 1.4931338e-38
-0.094206668 -0.11077047 1.087 1.4839887e-38
-0.092390478 -0.11107619 1.09 1.4839887e-38
-0.090314284 -0.11107619 1.09 1.4656209e-38
-0.088238098 -0.11107619 1.09 1.5393774e-38
-0.086478107 -0.11148382 1.0940001 1.5301938e-38
-0.084394291 -0.11148382 1.0940001 1.5762916e-38
-0.082536191 -0.11178952 1.097 1.5762919e-38
-0.080446668 -0.11178952 1.097 1.6223897e-38
-0.078357145 -0.11178952 1.097 1.6224263e-38
-0.076545723 -0.11219715 1.1010001 1.6408654e-38
-0.074448578 -0.11219715 1.1010001 1.6316103e-38
-0.072351426 -0.11219715 1.1010001 1.659269e-38
-0.070254289 -0.11219715 1.1010001 1.6685238e-38
-0.068157144 -0.11219715 1.1010001 1.686963e-38
-0.066060007 -0.11219715 1.1010001 1.6961825e-38
-0.063962862 -0.11219715 1.1010001 1.6961825e-38
-0.061865721 -0.11219715 1.1010001 1.7053305e-38
-0.059768576 -0.11219715 1.1010001 1.7053305e-38
-0.057880953 -0.11260476 1.105 1.7053661e-38
-0.055776194 -0.11260476 1.105 1.7238052e-38
-0.053671427 -0.11260476 1.105 1.6961109e-38
-0.051566668 -0.11260476 1.105 1.6961109e-38
-0.049461905 -0.11260476 1.105 1.6961465e-38
-0.047357146 -0.11260476 1.105 1.686927e-38
-0.045252379 -0.11260476 1.105 1.6868551e-38
-0.04314762 -0.11260476 1.105 1.6776355e-38
-0.041042857 -0.11260476 1.105 1.6683083e-38
-0.038938098 -0.11260476 1.105 1.6775279e-38
-0.036700003 -0.11219715 1.1010001 1.6130988e-38
-0.034602862 -0.11219715 1.1010001 1.5946597e-38
-0.032505713 -0.11219715 1.1010001 1.5578175e-38
-0.030408574 -0.11219715 1.1010001 1.5485979e-38
-0.028208571 -0.11178952 1.097 1.5210464e-38
-0.026047621 -0.11148382 1.0940001 1.5118269e-38
-0.023963811 -0.11148382 1.0940001 1.48406e-38
-0.0218 -0.11107619 1.09 1.5117187e-38
-0.019669523 -0.11077047 1.087 1.5392357e-38
-0.017550478 -0.11046477 1.0840001 1.576114e-38
-0.015485716 -0.11046477 1.0840001 1.6315367e-38
-0.013371429 -0.11005715 1.08 1.5116824e-38
-0.011282858 -0.10975143 1.077 1.4471436e-38
-0.0092314286 -0.10975143 1.077 1.3365089e-38
-0.094466671 -0.109 1.09 1.5669279e-38
-0.092390478 -0.109 1.09 1.5761474e-38
-0.090314284 -0.109 1.09 1.5669632e-38
-0.088238098 -0.109 1.09 1.5946219e-38
-0.086478107 -0.10940001 1.0940001 1.5762907e-38
-0.084394291 -0.10940001 1.0940001 1.6131689e-38
-0.082536191 -0.10969999 1.097 1.6131339e-38
-0.080446668 -0.10969999 1.097 1.6223534e-38
-0.078357145 -0.10969999 1.097 1.6223184e-38
-0.076545723 -0.11010001 1.1010001 1.631538e-38
-0.074448578 -0.11010001 1.1010001 1.6315387e-38
-0.072351426 -0.11010001 1.1010001 1.6315387e-38
-0.070254289 -0.11010001 1.1010001 1.6223547e-38
-0.068157144 -0.11010001 1.1010001 1.659233e-38
-0.066299997 -0.1105 1.105 1.6592327e-38
-0.064195238 -0.1105 1.105 1.6500131e-38
-0.062090475 -0.1105 1.105 1.6683446e-38
-0.059985716 -0.1105 1.105 1.6775642e-38
-0.057880953 -0.1105 1.105 1.6591964e-38
-0.055776194 -0.1105 1.105 1.6868551e-38
-0.053671427 -0.1105 1.105 1.6591251e-38
-0.051566668 -0.1105 1.105 1.6591251e-38
-0.049461905 -0.1105 1.105 1.6591604e-38
-0.047357146 -0.1105 1.105 1.6499408e-38
-0.045252379 -0.1105 1.105 1.6407212e-38
-0.04314762 -0.1105 1.105 1.6315017e-38
-0.041042857 -0.1105 1.105 1.6407212e-38
-0.038938098 -0.1105 1.105 1.6499408e-38
-0.036700003 -0.11010001 1.1010001 1.6684159e-38
-0.034602862 -0.11010001 1.1010001 1.6960746e-38
-0.032505713 -0.11010001 1.1010001 1.7329513e-38
-0.030408574 -0.11010001 1.1010001 1.7698296e-38
-0.02831143 -0.11010001 1.1010001 1.7606113e-38
-0.026119046 -0.10969999 1.097 1.7790504e-38
-0.022737145 -0.10380001 1.0380001 1.7238412e-38
-0.020760002 -0.10380001 1.0380001 1.7238412e-38
-0.019669523 -0.1087 1.087 1.6039191e-38
-0.016805716 -0.10380001 1.0380001 1.5578213e-38
-0.014828573 -0.10380001 1.0380001 1.4197749e-38
-0.01285143 -0.10380001 1.0380001 1.078651e-38
-0.010937143 -0.1044 1.044 1.1706991e-38
-0.008948571 -0.1044 1.044 1.2905534e-38
-0.08764381 -0.10143048 1.034 1.6038391e-38
-0.085674286 -0.10143048 1.034 1.6038427e-38
-0.088561907 -0.1073162 1.0940001 1.6038427e-38
-0.086715236 -0.10761047 1.097 1.6130973e-38
-0.084625714 -0.10761047 1.097 1.6499756e-38
-0.082536191 -0.10761047 1.097 1.6499405e-38
-0.080446668 -0.10761047 1.097 1.6683796e-38
-0.07864286 -0.10800286 1.1010001 1.6500131e-38
-0.076545723 -0.10800286 1.1010001 1.6500131e-38
-0.074448578 -0.10800286 1.1010001 1.6591967e-38
-0.072351426 -0.10800286 1.1010001 1.6591967e-38
-0.070254289 -0.10800286 1.1010001 1.6590885e-38
-0.068404764 -0.10839524 1.105 1.6867472e-38
-0.066299997 -0.10839524 1.105 1.6499415e-38
-0.059373334 -0.10025334 1.0220001 1.6683806e-38
-0.057426669 -0.10025334 1.0220001 1.6776002e-38
-0.055480003 -0.10025334 1.0220001 1.6868198e-38
-0.053533334 -0.10025334 1.0220001 1.6867835e-38
-0.051586669 -0.10025334 1.0220001 1.696003e-38
-0.049640004 -0.10025334 1.0220001 1.6775289e-38
-0.051706668 -0.10868952 1.108 1.7236267e-38
-0.04959619 -0.10868952 1.108 1.7327744e-38
-0.047485713 -0.10868952 1.108 1.7512135e-38
-0.045252379 -0.10839524 1.105 1.7421024e-38
-0.04314762 -0.10839524 1.105 1.7328828e-38
-0.040894289 -0.10800286 1.1010001 1.7421737e-38
-0.038797144 -0.10800286 1.1010001 1.7421737e-38
-0.034166671 -0.10054763 1.0250001 1.7697245e-38
-0.032214291 -0.10054763 1.0250001 1.7605049e-38
-0.030350477 -0.10084191 1.028 1.7973816e-38
-0.028475238 -0.10113619 1.031 1.8250403e-38
-0.026511429 -0.10113619 1.031 1.8619198e-38
-0.024619048 -0.10143048 1.034 1.8250416e-38
-0.022649525 -0.10143048 1.034 1.7147656e-38
-0.020760002 -0.10182287 1.0380001 1.5764721e-38
-0.01878286 -0.10182287 1.0380001 1.4570507e-38
-0.016805716 -0.10182287 1.0380001 1.4201724e-38
-0.014828573 -0.10182287 1.0380001 1.18043e-38
-0.01285143 -0.10182287 1.0380001 8.9462355e-39
-0.010905715 -0.10211714 1.041 1.0877225e-38
-0.008948571 -0.10241143 1.044 1.2997724e-38
-0.091937155 -0.099845722 1.0380001 8.2943697e-39
-0.089613333 -0.099460959 1.034 1.0598141e-38
-0.08764381 -0.099460959 1.034 1.4931335e-38
-0.085674286 -0.099460959 1.034 1.4932095e-38
-0.08370477 -0.099460959 1.034 1.4010139e-38
-0.081498094 -0.099172384 1.031 1.4842382e-38
-0.079534285 -0.099172384 1.031 1.6594099e-38
-0.077570483 -0.099172384 1.031 1.6776002e-38
-0.075606667 -0.099172384 1.031 1.6776002e-38
-0.07864286 -0.10590572 1.1010001 1.6317901e-38
-0.076545723 -0.10590572 1.1010001 1.696327e-38
-0.074448578 -0.10590572 1.1010001 1.7147649e-38
-0.07261429 -0.10629047 1.105 1.8161801e-38
-0.070509523 -0.10629047 1.105 1.8252564e-38
-0.068404764 -0.10629047 1.105 1.8529151e-38
-0.061319999 -0.098306671 1.0220001 1.8438034e-38
-0.059373334 -0.098306671 1.0220001 1.8899013e-38
-0.057426669 -0.098306671 1.0220001 1.9081972e-38
-0.055480003 -0.098306671 1.0220001 1.9635145e-38
-0.053533334 -0.098306671 1.0220001 1.9083416e-38
-0.051586669 -0.098306671 1.0220001 1.9175612e-38
-0.049640004 -0.098306671 1.0220001 1.945148e-38
-0.047693335 -0.098306671 1.0220001 2.0557828e-38
-0.045880955 -0.098595247 1.0250001 2.0558178e-38
-0.0438 -0.098306671 1.0220001 2.0650374e-38
-0.041853335 -0.098306671 1.0220001 1.9635887e-38
-0.040023815 -0.098595247 1.0250001 1.9267104e-38
-0.03796 -0.098306671 1.0220001 1.8622088e-38
-0.036013335 -0.098306671 1.0220001 1.899087e-38
-0.034166671 -0.098595247 1.0250001 1.7793041e-38
-0.032214291 -0.098595247 1.0250001 1.548815e-38
-0.030261908 -0.098595247 1.0250001 1.447544e-38
-0.02839238 -0.098883808 1.028 1.4844222e-38
-0.026511429 -0.099172384 1.031 1.5762951e-38
-0.024619048 -0.099460959 1.034 1.5947343e-38
-0.022649525 -0.099460959 1.034 1.2451102e-38
-0.020760002 -0.099845722 1.0380001 7.7491245e-39
-0.01878286 -0.099845722 1.0380001 9.5023058e-39
-0.016805716 -0.099845722 1.0380001 1.4204283e-38
-0.014828573 -0.099845722 1.0380001 1.4475417e-38
-0.012888571 -0.10013428 1.041 9.589049e-39
-0.010905715 -0.10013428 1.041 1.0599588e-38
-0.008948571 -0.10042286 1.044 1.2904479e-38
-0.091937155 -0.097868577 1.0380001 7.8366061e-39
-0.089613333 -0.097491436 1.034 8.9440201e-39
-0.08764381 -0.097491436 1.034 1.4106975e-38
-0.085674286 -0.097491436 1.034 1.3647104e-38
-0.08370477 -0.097491436 1.034 1.1065627e-38
-0.081498094 -0.097208567 1.031 1.1342875e-38
-0.079534285 -0.097208567 1.031 1.4477526e-38
-0.077570483 -0.097208567 1.031 1.6683796e-38
-0.075606667 -0.097208567 1.031 1.5854036e-38
-0.073642857 -0.097208567 1.031 1.475272e-38
-0.071470477 -0.096925713 1.028 1.5582481e-38
-0.069512382 -0.096925713 1.028 1.6226784e-38
-0.067357145 -0.096642859 1.0250001 1.7609718e-38
-0.065404765 -0.096642859 1.0250001 1.751752e-38
-0.063452385 -0.096642859 1.0250001 1.6964346e-38
-0.061319999 -0.096360005 1.0220001 1.7700786e-38
-0.059373334 -0.096360005 1.0220001 1.9268112e-38
-0.057426669 -0.096360005 1.0220001 1.8623517e-38
-0.055480003 -0.096360005 1.0220001 1.8254735e-38
-0.053533334 -0.096360005 1.0220001 1.7887735e-38
-0.051586669 -0.096360005 1.0220001 1.7518952e-38
-0.049640004 -0.096360005 1.0220001 1.7150535e-38
-0.047693335 -0.096360005 1.0220001 1.8256883e-38
-0.045746669 -0.096360005 1.0220001 1.8991584e-38
-0.0438 -0.096360005 1.0220001 1.9175975e-38
-0.041853335 -0.096360005 1.0220001 1.8715716e-38
-0.040023815 -0.096642859 1.0250001 1.7701564e-38
-0.03796 -0.096360005 1.0220001 1.7701914e-38
-0.036013335 -0.096360005 1.0220001 1.8531675e-38
-0.034166671 -0.096642859 1.0250001 1.6966532e-38
-0.032214291 -0.096642859 1.0250001 1.3831881e-38
-0.030261908 -0.096642859 1.0250001 1.2178077e-38
-0.02839238 -0.096925713 1.028 1.3284424e-38
-0.026511429 -0.097208567 1.031 1.4753118e-38
-0.024619048 -0.097491436 1.034 1.3462379e-38
-0.022737145 -0.097868577 1.0380001 1.1622395e-38
-0.020819999 -0.098151423 1.041 6.2750482e-39
-0.018837143 -0.098151423 1.041 8.5849457e-39
-0.016854286 -0.098151423 1.041 1.3840097e-38
-0.014871428 -0.098151423 1.041 1.5579627e-38
-0.012888571 -0.098151423 1.041 1.0140084e-38
-0.0070266668 -0.09937714 1.054 1.3731706e-38
-0.092468575 -0.096445717 1.044 8.8507707e-39
-0.090220004 -0.09616857 1.041 1.0511028e-38
-0.087982871 -0.095891438 1.0380001 1.3922266e-38
-0.086005718 -0.095891438 1.0380001 1.1254321e-38
-0.084028579 -0.095891438 1.0380001 4.7084315e-39
-0.081735246 -0.095521905 1.034 4.7138559e-39
-0.079534285 -0.095244765 1.031 9.7846156e-39
-0.077570483 -0.095244765 1.031 1.3920827e-38
-0.075606667 -0.095244765 1.031 1.5395957e-38
-0.073642857 -0.095244765 1.031 1.5120043e-38
-0.071470477 -0.094967619 1.028 1.5765412e-38
-0.069512382 -0.094967619 1.028 1.7149065e-38
-0.067357145 -0.094690487 1.0250001 1.7702239e-38
-0.065404765 -0.094690487 1.0250001 1.6225712e-38
-0.063452385 -0.094690487 1.0250001 1.1062757e-38
-0.061500005 -0.094690487 1.0250001 1.30903e-38
-0.059373334 -0.09441334 1.0220001 1.8253255e-38
-0.057426669 -0.09441334 1.0220001 1.8712479e-38
-0.055480003 -0.09441334 1.0220001 1.7698327e-38
-0.053533334 -0.09441334 1.0220001 1.6321463e-38
-0.051586669 -0.09441334 1.0220001 1.5768289e-38
-0.049640004 -0.09441334 1.0220001 1.5768652e-38
-0.047693335 -0.09441334 1.0220001 1.7151586e-38
-0.045746669 -0.09441334 1.0220001 1.8347637e-38
-0.043928575 -0.094690487 1.0250001 1.7794463e-38
-0.041976195 -0.094690487 1.0250001 1.5677576e-38
-0.040023815 -0.094690487 1.0250001 1.328049e-38
-0.038071431 -0.094690487 1.0250001 1.4203181e-38
-0.036119051 -0.094690487 1.0250001 1.7245637e-38
-0.034166671 -0.094690487 1.0250001 1.7979227e-38
-0.032214291 -0.094690487 1.0250001 1.5858727e-38
-0.030261908 -0.094690487 1.0250001 1.5860848e-38
-0.02839238 -0.094967619 1.028 1.7520369e-38
-0.026511429 -0.095244765 1.031 1.5584677e-38
-0.024619048 -0.095521905 1.034 1.0698308e-38
-0.022737145 -0.095891438 1.0380001 5.182778e-39
-0.020819999 -0.09616857 1.041 3.4310611e-39
-0.018837143 -0.09616857 1.041 6.9265314e-39
-0.016902858 -0.096445717 1.044 1.1259726e-38
-0.014914286 -0.096445717 1.044 1.3276148e-38
-0.012925714 -0.096445717 1.044 9.0351493e-39
-0.092468575 -0.094457142 1.044 9.4032256e-39
-0.090220004 -0.094185717 1.041 1.1155305e-38
-0.087982871 -0.093914293 1.0380001 1.1892871e-38
-0.086005718 -0.093914293 1.0380001 9.2281852e-39
-0.084028579 -0.093914293 1.0380001 4.7105993e-39
-0.081735246 -0.093552381 1.034 2.5130228e-39
-0.079765722 -0.093552381 1.034 5.2788917e-39
-0.077796191 -0.093552381 1.034 1.253965e-38
-0.075826667 -0.093552381 1.034 1.5674301e-38
-0.073642857 -0.093280949 1.031 1.6041301e-38
-0.071679048 -0.093280949 1.031 1.733204e-38
-0.069715239 -0.093280949 1.031 1.7702267e-38
-0.06775143 -0.093280949 1.031 1.7241289e-38
-0.065596186 -0.093009517 1.028 1.5121513e-38
-0.063638091 -0.093009517 1.028 1.0419535e-38
-0.061500005 -0.092738099 1.0250001 1.0969761e-38
-0.059547622 -0.092738099 1.0250001 1.5856129e-38
-0.057595242 -0.092738099 1.0250001 1.9080144e-38
-0.055480003 -0.092466667 1.0220001 1.917234e-38
-0.053533334 -0.092466667 1.0220001 1.7150182e-38
-0.051738098 -0.092738099 1.0250001 1.6043835e-38
-0.049640004 -0.092466667 1.0220001 1.5676847e-38
-0.047693335 -0.092466667 1.0220001 1.835052e-38
-0.045880955 -0.092738099 1.0250001 1.9085574e-38
-0.043928575 -0.092738099 1.0250001 1.7057271e-38
-0.041976195 -0.092738099 1.0250001 1.4117437e-38
-0.040023815 -0.092738099 1.0250001 1.2089134e-38
-0.038071431 -0.092738099 1.0250001 1.2826345e-38
-0.036119051 -0.092738099 1.0250001 1.5131236e-38
-0.034166671 -0.092738099 1.0250001 1.7889177e-38
-0.032214291 -0.092738099 1.0250001 1.7889177e-38
-0.030261908 -0.092738099 1.0250001 1.7516817e-38
-0.02839238 -0.093009517 1.028 1.7977795e-38
-0.026588572 -0.093552381 1.034 1.4575188e-38
-0.024619048 -0.093552381 1.034 6.9229511e-39
-0.022737145 -0.093914293 1.0380001 2.8875787e-39
-0.020819999 -0.094185717 1.041 3.1641656e-39
-0.018837143 -0.094185717 1.041 6.3751527e-39
-0.016902858 -0.094457142 1.044 9.6019998e-39
-0.014914286 -0.094457142 1.044 1.1342581e-38
-0.013049524 -0.095361911 1.054 8.8532986e-39
-0.011041905 -0.095361911 1.054 1.059886e-38
-0.092734285 -0.092734285 1.0470001 8.2057642e-39
-0.090480007 -0.092468575 1.044 8.8572475e-39
-0.088491425 -0.092468575 1.044 9.8713994e-39
-0.086254284 -0.092202857 1.041 7.3868005e-39
-0.084028579 -0.091937155 1.0380001 5.1741054e-39
-0.081735246 -0.091582857 1.034 3.9867488e-39
-0.079765722 -0.091582857 1.034 3.8945532e-39
-0.077796191 -0.091582857 1.034 7.4771815e-39
-0.075826667 -0.091582857 1.034 1.3469897e-38
-0.073857144 -0.091582857 1.034 1.6409387e-38
-0.07188762 -0.091582857 1.034 1.8068909e-38
-0.069715239 -0.091317147 1.031 1.7425655e-38
-0.06775143 -0.091317147 1.031 1.2078309e-38
-0.065787621 -0.091317147 1.031 1.1432964e-38
-0.063638091 -0.091051422 1.028 1.152516e-38
-0.061500005 -0.090785727 1.0250001 1.1615921e-38
-0.059547622 -0.090785727 1.0250001 1.1431529e-38
-0.057595242 -0.090785727 1.0250001 1.521075e-38
-0.055480003 -0.090520002 1.0220001 1.9175162e-38
-0.053533334 -0.090520002 1.0220001 1.8898322e-38
-0.051738098 -0.090785727 1.0250001 2.0096865e-38
-0.049785718 -0.090785727 1.0250001 1.9178123e-38
-0.047833338 -0.090785727 1.0250001 1.8809341e-38
-0.045880955 -0.090785727 1.0250001 1.6877198e-38
-0.043928575 -0.090785727 1.0250001 1.4387916e-38
-0.041976195 -0.090785727 1.0250001 1.2277135e-38
-0.040023815 -0.090785727 1.0250001 1.2277135e-38
-0.038071431 -0.090785727 1.0250001 1.2552295e-38
-0.036119051 -0.090785727 1.0250001 1.2183512e-38
-0.034166671 -0.090785727 1.0250001 1.4942494e-38
-0.032214291 -0.090785727 1.0250001 1.7431776e-38
-0.030350477 -0.091051422 1.028 1.8256533e-38
-0.02839238 -0.091051422 1.028 1.5121881e-38
-0.026588572 -0.091582857 1.034 1.0063344e-38
-0.024714287 -0.091937155 1.0380001 5.5457578e-39
-0.022737145 -0.091937155 1.0380001 3.7155541e-39
-0.020819999 -0.092202857 1.041 2.977989e-39
-0.01889143 -0.092468575 1.044 6.1929573e-39
-0.016902858 -0.092468575 1.044 9.512e-39
-0.014914286 -0.092468575 1.044 1.1529461e-38
-0.013 -0.09300001 1.0500001 8.5792004e-39
-0.011041905 -0.093354285 1.054 1.0691083e-38
-0.09300001 -0.091000006 1.0500001 8.8511308e-39
-0.09074001 -0.09074001 1.0470001 7.9381624e-39
-0.088491425 -0.090480007 1.044 8.8601187e-39
-0.086502858 -0.090480007 1.044 4.8121654e-39
-0.084271431 -0.090220004 1.041 4.2589916e-39
-0.082051434 -0.089960009 1.0380001 3.4371595e-39
-0.079765722 -0.089613333 1.034 2.330812e-39
-0.077796191 -0.089613333 1.034 4.3526068e-39
-0.075826667 -0.089613333 1.034 9.9765402e-39
-0.073857144 -0.089613333 1.034 1.5490295e-38
-0.07188762 -0.089613333 1.034 1.6135665e-38
-0.069918096 -0.089613333 1.034 1.5303736e-38
-0.06775143 -0.08935333 1.031 1.0878346e-38
-0.065787621 -0.08935333 1.031 1.041881e-38
-0.063823812 -0.08935333 1.031 1.1801744e-38
-0.06168 -0.089093328 1.028 1.1801394e-38
-0.059547622 -0.08883334 1.0250001 1.1156024e-38
-0.057595242 -0.08883334 1.0250001 1.1340375e-38
-0.055642862 -0.08883334 1.0250001 1.4843809e-38
-0.053690478 -0.08883334 1.0250001 1.8804659e-38
-0.051738098 -0.08883334 1.0250001 2.1478332e-38
-0.049785718 -0.08883334 1.0250001 1.9732033e-38
-0.047833338 -0.08883334 1.0250001 1.6873968e-38
-0.045880955 -0.08883334 1.0250001 1.3381693e-38
-0.044057142 -0.089093328 1.028 1.2459736e-38
-0.042099047 -0.089093328 1.028 1.1817964e-38
-0.040140949 -0.089093328 1.028 1.2094551e-38
-0.038071431 -0.08883334 1.0250001 1.1817251e-38
-0.036119051 -0.08883334 1.0250001 1.0895295e-38
-0.034266666 -0.089093328 1.028 1.199837e-38
-0.032308571 -0.089093328 1.028 1.5870587e-38
-0.030350477 -0.089093328 1.028 1.7338559e-38
-0.028475238 -0.08935333 1.031 1.3466342e-38
-0.026588572 -0.089613333 1.034 5.6473211e-39
-0.024714287 -0.089960009 1.0380001 3.9877998e-39
-0.022737145 -0.089960009 1.0380001 3.9924913e-39
-0.020819999 -0.090220004 1.041 2.8861437e-39
-0.018945716 -0.09074001 1.0470001 5.4575376e-39
-0.016951431 -0.09074001 1.0470001 9.6985366e-39
-0.015000001 -0.091000006 1.0500001 1.199083e-38
-0.013 -0.091000006 1.0500001 9.2249608e-39
-0.011073334 -0.091606669 1.057 1.1151315e-38
-0.09300001 -0.089000002 1.0500001 1.0234043e-38
-0.09074001 -0.088745721 1.0470001 9.5944341e-39
-0.088745721 -0.088745721 1.0470001 1.1069564e-38
-0.086751431 -0.088745721 1.0470001 7.4808066e-39
-0.08451429 -0.088491425 1.044 4.4383508e-39
-0.082051434 -0.087982871 1.0380001 2.0589068e-39
-0.080074295 -0.087982871 1.0380001 2.2432981e-39
-0.07809715 -0.087982871 1.0380001 3.067298e-39
-0.075826667 -0.08764381 1.034 5.8331669e-39
-0.073857144 -0.08764381 1.034 1.4386412e-38
-0.07188762 -0.08764381 1.034 1.5216173e-38
-0.069918096 -0.08764381 1.034 1.5026744e-38
-0.067948572 -0.08764381 1.034 1.0877941e-38
-0.065787621 -0.087389529 1.031 1.0971633e-38
-0.063823812 -0.087389529 1.031 1.1801394e-38
-0.061860003 -0.087389529 1.031 1.1801043e-38
-0.059721906 -0.087135233 1.028 1.207763e-38
-0.057763807 -0.087135233 1.028 1.1340791e-38
-0.055642862 -0.08688096 1.0250001 1.0603226e-38
-0.053690478 -0.08688096 1.0250001 1.4289579e-38
-0.051738098 -0.08688096 1.0250001 2.0835468e-38
-0.049785718 -0.08688096 1.0250001 1.9087732e-38
-0.047833338 -0.08688096 1.0250001 1.429356e-38
-0.045880955 -0.08688096 1.0250001 1.163286e-38
-0.044057142 -0.087135233 1.028 1.2186033e-38
-0.042099047 -0.087135233 1.028 1.2277869e-38
-0.040140949 -0.087135233 1.028 1.2277869e-38
-0.038182855 -0.087135233 1.028 1.2001645e-38
-0.03622476 -0.087135233 1.028 1.126408e-38
-0.034266666 -0.087135233 1.028 1.2181702e-38
-0.032402854 -0.087389529 1.031 1.4947571e-38
-0.030439047 -0.087389529 1.031 1.6509864e-38
-0.028558096 -0.08764381 1.034 1.3006431e-38
-0.026691431 -0.087982871 1.0380001 4.727925e-39
-0.024714287 -0.087982871 1.0380001 3.0684036e-39
-0.022802858 -0.088237144 1.041 1.7855864e-39
-0.020819999 -0.088237144 1.041 1.3246082e-39
-0.018945716 -0.088745721 1.0470001 7.6651853e-39
-0.017000001 -0.089000002 1.0500001 1.2367162e-38
-0.015000001 -0.089000002 1.0500001 1.4383572e-38
-0.013 -0.089000002 1.0500001 1.2078681e-38
-0.011041905 -0.089339048 1.054 1.2350586e-38
-0.091000006 -0.087000005 1.0500001 1.1246373e-38
-0.088745721 -0.086751431 1.0470001 1.2813699e-38
-0.086751431 -0.086751431 1.0470001 9.5055232e-39
-0.08451429 -0.086502858 1.044 5.817698e-39
-0.082051434 -0.086005718 1.0380001 1.5068022e-39
-0.080074295 -0.086005718 1.0380001 1.6911935e-39
-0.077796191 -0.085674286 1.034 1.229865e-39
-0.075826667 -0.085674286 1.034 5.3786684e-39
-0.073857144 -0.085674286 1.034 1.2912771e-38
-0.07188762 -0.085674286 1.034 1.4848879e-38
-0.069918096 -0.085674286 1.034 1.373643e-38
-0.067948572 -0.085674286 1.034 1.0693974e-38
-0.065979049 -0.085674286 1.034 1.0879791e-38
-0.063823812 -0.085425712 1.031 1.1709551e-38
-0.061860003 -0.085425712 1.031 1.1892517e-38
-0.059896193 -0.085425712 1.031 1.22613e-38
-0.057763807 -0.085177138 1.028 1.0698656e-38
-0.055805713 -0.085177138 1.028 9.7766996e-39
-0.053847618 -0.085177138 1.028 1.2541447e-38
-0.051889524 -0.085177138 1.028 2.0009294e-38
-0.049931429 -0.085177138 1.028 1.8351625e-38
-0.048113335 -0.085425712 1.031 1.3649648e-38
-0.046149526 -0.085425712 1.031 1.1448103e-38
-0.044057142 -0.085177138 1.028 1.2370059e-38
-0.042099047 -0.085177138 1.028 1.2553018e-38
-0.040258095 -0.085425712 1.031 1.2460822e-38
-0.038294286 -0.085425712 1.031 1.2001645e-38
-0.036330476 -0.085425712 1.031 1.126408e-38
-0.034366667 -0.085425712 1.031 1.2089872e-38
-0.032402854 -0.085425712 1.031 1.5316719e-38
-0.03052762 -0.085674286 1.034 1.6051766e-38
-0.028558096 -0.085674286 1.034 1.4207853e-38
-0.026691431 -0.086005718 1.0380001 6.2023516e-39
-0.024785714 -0.086254284 1.041 2.4223308e-39
-0.022802858 -0.086254284 1.041 1.1398092e-39
-0.020819999 -0.086254284 1.041 2.430548e-39
-0.018945716 -0.086751431 1.0470001 9.3204158e-39
-0.016951431 -0.086751431 1.0470001 1.2731654e-38
-0.015000001 -0.087000005 1.0500001 1.4566168e-38
-0.013 -0.087000005 1.0500001 1.2814451e-38
-0.011000001 -0.087000005 1.0500001 1.2902308e-38
-0.089339048 -0.085323811 1.054 1.2078316e-38
-0.087000005 -0.085000008 1.0500001 1.0516451e-38
-0.084757142 -0.084757142 1.0470001 9.2257119e-39
-0.082051434 -0.084028579 1.0380001 3.2520578e-39
-0.080074295 -0.084028579 1.0380001 1.8691234e-39
-0.077796191 -0.08370477 1.034 4.2636706e-39
-0.075826667 -0.08370477 1.034 1.0532973e-38
-0.073857144 -0.08370477 1.034 1.6689182e-38
-0.07188762 -0.08370477 1.034 1.797992e-38
-0.069918096 -0.08370477 1.034 1.6686678e-38
-0.067948572 -0.08370477 1.034 1.0786157e-38
-0.065979049 -0.08370477 1.034 9.7759612e-39
-0.064009525 -0.08370477 1.034 1.0882309e-38
-0.061860003 -0.083461903 1.031 1.1432261e-38
-0.059896193 -0.083461903 1.031 1.1432261e-38
-0.057763807 -0.083219044 1.028 1.0789407e-38
-0.055805713 -0.083219044 1.028 1.2633319e-38
-0.053847618 -0.083219044 1.028 1.4012709e-38
-0.052040953 -0.083461903 1.031 2.0282011e-38
-0.050077144 -0.083461903 1.031 1.9363603e-38
-0.048113335 -0.083461903 1.031 1.6413343e-38
-0.046149526 -0.083461903 1.031 1.2460825e-38
-0.044185713 -0.083461903 1.031 1.2276434e-38
-0.042221904 -0.083461903 1.031 1.1909093e-38
-0.040258095 -0.083461903 1.031 1.1816898e-38
-0.038294286 -0.083461903 1.031 1.200021e-38
-0.036330476 -0.083461903 1.031 1.2184601e-38
-0.034366667 -0.083461903 1.031 1.4942532e-38
-0.032402854 -0.083461903 1.031 1.6970836e-38
-0.03052762 -0.08370477 1.034 1.7704801e-38
-0.028558096 -0.08370477 1.034 1.8073583e-38
-0.026768571 -0.084271431 1.041 1.466633e-38
-0.024785714 -0.084271431 1.041 8.7658099e-39
-0.022802858 -0.084271431 1.041 6.9336991e-39
-0.020879999 -0.08451429 1.044 9.9761549e-39
-0.018945716 -0.084757142 1.0470001 1.2544742e-38
-0.016951431 -0.084757142 1.0470001 1.1346199e-38
-0.015000001 -0.085000008 1.0500001 1.2447098e-38
-0.013 -0.085000008 1.0500001 1.2815881e-38
-0.011000001 -0.085000008 1.0500001 1.327182e-38
-0.0090000005 -0.085000008 1.0500001 1.3548407e-38
-0.087000005 -0.083000004 1.0500001 1.2355268e-38
-0.084757142 -0.08276286 1.0470001 1.1986486e-38
-0.082288571 -0.082288571 1.041 7.207084e-39
-0.080074295 -0.082051434 1.0380001 4.4412151e-39
-0.077796191 -0.081735246 1.034 7.1152611e-39
-0.075826667 -0.081735246 1.034 1.3200173e-38
-0.073857144 -0.081735246 1.034 1.7056189e-38
-0.07188762 -0.081735246 1.034 1.7332776e-38
-0.069918096 -0.081735246 1.034 1.6688854e-38
-0.067948572 -0.081735246 1.034 1.3093224e-38
-0.065979049 -0.081735246 1.034 9.960756e-39
-0.064009525 -0.081735246 1.034 1.0052952e-38
-0.062040005 -0.081735246 1.034 1.0880488e-38
-0.059896193 -0.081498094 1.031 1.0788293e-38
-0.057932384 -0.081498094 1.031 1.0881602e-38
-0.055968571 -0.081498094 1.031 1.4753819e-38
-0.054004762 -0.081498094 1.031 1.8341914e-38
-0.052040953 -0.081498094 1.031 2.0370218e-38
-0.050077144 -0.081498094 1.031 1.9178829e-38
-0.048113335 -0.081498094 1.031 1.8164677e-38
-0.046149526 -0.081498094 1.031 1.4577374e-38
-0.044185713 -0.081498094 1.031 1.2825657e-38
-0.042221904 -0.081498094 1.031 1.1265159e-38
-0.040258095 -0.081498094 1.031 1.1080768e-38
-0.038294286 -0.081498094 1.031 1.1539222e-38
-0.036436193 -0.081735246 1.034 1.3290939e-38
-0.034466669 -0.081735246 1.034 1.6966527e-38
-0.032497145 -0.081735246 1.034 1.6782135e-38
-0.03052762 -0.081735246 1.034 1.7514621e-38
-0.028558096 -0.081735246 1.034 1.9081946e-38
-0.026768571 -0.082288571 1.041 1.8164354e-38
-0.024785714 -0.082288571 1.041 1.3554572e-38
-0.022868572 -0.082525715 1.044 9.4151226e-39
-0.020879999 -0.082525715 1.044 1.2273187e-38
-0.018945716 -0.08276286 1.0470001 1.4018067e-38
-0.017000001 -0.083000004 1.0500001 1.0053655e-38
-0.015000001 -0.083000004 1.0500001 9.7773779e-39
-0.013 -0.083000004 1.0500001 1.1713486e-38
-0.011000001 -0.083000004 1.0500001 1.3456205e-38
-0.0090000005 -0.083000004 1.0500001 1.3732792e-38
-0.087000005 -0.081 1.0500001 8.2972564e-39
-0.084757142 -0.080768578 1.0470001 1.5119733e-38
-0.082288571 -0.08030571 1.041 1.4015887e-38
-0.080074295 -0.080074295 1.0380001 1.2632952e-38
-0.07809715 -0.080074295 1.0380001 1.3096827e-38
-0.076120012 -0.080074295 1.0380001 1.5678305e-38
-0.074142866 -0.080074295 1.0380001 1.5307709e-38
-0.07216572 -0.080074295 1.0380001 1.4477948e-38
-0.070188574 -0.080074295 1.0380001 1.5766895e-38
-0.068211436 -0.080074295 1.0380001 1.7795198e-38
-0.066234291 -0.080074295 1.0380001 1.5489607e-38
-0.064009525 -0.079765722 1.034 1.0972021e-38
-0.062040005 -0.079765722 1.034 1.0513151e-38
-0.060070477 -0.079765722 1.034 1.3094628e-38
-0.058100954 -0.079765722 1.034 1.6133507e-38
-0.055968571 -0.079534285 1.031 2.0558897e-38
-0.054004762 -0.079534285 1.031 1.8716091e-38
-0.052040953 -0.079534285 1.031 1.5397049e-38
-0.050077144 -0.079534285 1.031 1.7060449e-38
-0.048113335 -0.079534285 1.031 1.9918513e-38
-0.046149526 -0.079534285 1.031 1.8718612e-38
-0.044185713 -0.079534285 1.031 1.6966895e-38
-0.042221904 -0.079534285 1.031 1.3657564e-38
-0.040258095 -0.079534285 1.031 1.2551216e-38
-0.038405713 -0.079765722 1.034 1.4390813e-38
-0.036436193 -0.079765722 1.034 1.7894246e-38
-0.034466669 -0.079765722 1.034 1.834659e-38
-0.032497145 -0.079765722 1.034 1.3368026e-38
-0.03052762 -0.079765722 1.034 1.2906245e-38
-0.028668575 -0.080074295 1.0380001 1.5395527e-38
-0.026768571 -0.08030571 1.041 1.659451e-38
-0.024857143 -0.080537148 1.044 1.7977444e-38
-0.022868572 -0.080537148 1.044 1.7151242e-38
-0.020879999 -0.080537148 1.044 1.549172e-38
-0.019000001 -0.081 1.0500001 1.2914941e-38
-0.017000001 -0.081 1.0500001 9.3193116e-39
-0.015000001 -0.081 1.0500001 9.7777716e-39
-0.013 -0.081 1.0500001 1.1345097e-38
-0.011000001 -0.081 1.0500001 1.3364015e-38
-0.0090000005 -0.081 1.0500001 1.3824993e-38
-0.089847624 -0.079752386 1.0600001 6.0848962e-39
-0.087580003 -0.07952667 1.057 8.3861029e-39
-0.085000008 -0.079000004 1.0500001 1.4931993e-38
-0.082525715 -0.078548573 1.044 1.5394502e-38
-0.08030571 -0.078322858 1.041 1.6316459e-38
-0.078322858 -0.078322858 1.041 1.5124399e-38
-0.076120012 -0.07809715 1.0380001 1.4294639e-38
-0.074142866 -0.07809715 1.0380001 1.2822746e-38
-0.07216572 -0.07809715 1.0380001 1.1992985e-38
-0.070188574 -0.07809715 1.0380001 1.5490283e-38
-0.068211436 -0.07809715 1.0380001 1.8256151e-38
-0.065979049 -0.077796191 1.034 1.7793769e-38
-0.064009525 -0.077796191 1.034 1.2354227e-38
-0.062040005 -0.077796191 1.034 1.1340025e-38
-0.060070477 -0.077796191 1.034 1.4935654e-38
-0.058100954 -0.077796191 1.034 1.8802158e-38
-0.055968571 -0.077570483 1.031 2.0369483e-38
-0.054004762 -0.077570483 1.031 1.6878297e-38
-0.052040953 -0.077570483 1.031 1.0701189e-38
-0.050077144 -0.077570483 1.031 1.2454278e-38
-0.048113335 -0.077570483 1.031 1.706406e-38
-0.046149526 -0.077570483 1.031 2.0006442e-38
-0.044185713 -0.077570483 1.031 1.9176681e-38
-0.042221904 -0.077570483 1.031 1.6326195e-38
-0.04037524 -0.077796191 1.034 1.5312043e-38
-0.038405713 -0.077796191 1.034 1.6507349e-38
-0.036436193 -0.077796191 1.034 1.7890284e-38
-0.034466669 -0.077796191 1.034 1.8345135e-38
-0.032497145 -0.077796191 1.034 1.0877289e-38
-0.030645715 -0.07809715 1.0380001 1.0322975e-38
-0.028668575 -0.07809715 1.0380001 1.1798105e-38
-0.026768571 -0.078322858 1.041 1.6219203e-38
-0.024857143 -0.078548573 1.044 1.9814833e-38
-0.022868572 -0.078548573 1.044 1.825475e-38
-0.020940002 -0.078774288 1.0470001 1.530449e-38
-0.019000001 -0.079000004 1.0500001 1.1626366e-38
-0.017000001 -0.079000004 1.0500001 8.7683014e-39
-0.015000001 -0.079000004 1.0500001 9.5025888e-39
-0.013049524 -0.079300947 1.054 1.1438697e-38
-0.011041905 -0.079300947 1.054 1.336401e-38
-0.0090342853 -0.079300947 1.054 1.4101575e-38
-0.089847624 -0.077733338 1.0600001 6.17711e-39
-0.087580003 -0.07751333 1.057 6.9132079e-39
-0.085000008 -0.077000007 1.0500001 1.0969816e-38
-0.082525715 -0.076559998 1.044 1.4011205e-38
-0.080537148 -0.076559998 1.044 1.6592683e-38
-0.078322858 -0.076339997 1.041 1.4755592e-38
-0.076339997 -0.076339997 1.041 1.2358505e-38
-0.074142866 -0.076120012 1.0380001 1.033924e-38
-0.07216572 -0.076120012 1.0380001 1.0523631e-38
-0.070188574 -0.076120012 1.0380001 1.2547215e-38
-0.068211436 -0.076120012 1.0380001 1.4944302e-38
-0.065979049 -0.075826667 1.034 1.7055485e-38
-0.064009525 -0.075826667 1.034 1.7977442e-38
-0.062040005 -0.075826667 1.034 1.8255063e-38
-0.060070477 -0.075826667 1.034 1.9545801e-38
-0.058100954 -0.075826667 1.034 1.7979963e-38
-0.05613143 -0.075826667 1.034 1.4476529e-38
-0.054161906 -0.075826667 1.034 8.0387084e-39
-0.052040953 -0.075606667 1.031 5.3650351e-39
-0.050077144 -0.075606667 1.031 5.9242863e-39
-0.048113335 -0.075606667 1.031 8.8745465e-39
-0.046283811 -0.075826667 1.034 1.540203e-38
-0.044314288 -0.075826667 1.034 1.8905464e-38
-0.042344764 -0.075826667 1.034 1.945436e-38
-0.04037524 -0.075826667 1.034 1.945436e-38
-0.038405713 -0.075826667 1.034 1.8439857e-38
-0.036436193 -0.075826667 1.034 1.4659837e-38
-0.034600001 -0.076120012 1.0380001 1.216947e-38
-0.032622863 -0.076120012 1.0380001 1.1063122e-38
-0.030645715 -0.076120012 1.0380001 1.0788321e-38
-0.028668575 -0.076120012 1.0380001 1.0327343e-38
-0.026768571 -0.076339997 1.041 1.1429712e-38
-0.024857143 -0.076559998 1.044 1.6500472e-38
-0.022868572 -0.076559998 1.044 1.6688491e-38
-0.020940002 -0.076779999 1.0470001 1.3461644e-38
-0.019000001 -0.077000007 1.0500001 1.0244878e-38
-0.017000001 -0.077000007 1.0500001 8.4009651e-39
-0.015000001 -0.077000007 1.0500001 1.0606069e-38
-0.013 -0.077000007 1.0500001 1.2542178e-38
-0.011000001 -0.077000007 1.0500001 1.4101208e-38
-0.0090000005 -0.077000007 1.0500001 1.4562186e-38
-0.089847624 -0.07571429 1.0600001 6.271821e-39
-0.087828577 -0.07571429 1.0600001 5.8093785e-39
-0.085000008 -0.075000003 1.0500001 8.2064648e-39
-0.08276286 -0.074785717 1.0470001 1.2628618e-38
-0.080537148 -0.074571431 1.044 1.6132052e-38
-0.078322858 -0.074357137 1.041 1.3926935e-38
-0.076339997 -0.074357137 1.041 1.0976675e-38
-0.074357137 -0.074357137 1.041 9.2361165e-39
-0.07216572 -0.074142866 1.0380001 1.0065877e-38
-0.070188574 -0.074142866 1.0380001 1.0525401e-38
-0.068211436 -0.074142866 1.0380001 1.1631748e-38
-0.066234291 -0.074142866 1.0380001 1.5399541e-38
-0.064009525 -0.073857144 1.034 1.8257606e-38
-0.062040005 -0.073857144 1.034 1.9544039e-38
-0.060070477 -0.073857144 1.034 1.9267452e-38
-0.058100954 -0.073857144 1.034 1.6325476e-38
-0.05613143 -0.073857144 1.034 9.5951951e-39
-0.054161906 -0.073857144 1.034 5.5587436e-39
-0.052192383 -0.073857144 1.034 5.7431349e-39
-0.050222859 -0.073857144 1.034 3.9071256e-39
-0.048253331 -0.073857144 1.034 2.7085824e-39
-0.046283811 -0.073857144 1.034 1.0613606e-38
-0.044314288 -0.073857144 1.034 1.6145343e-38
-0.042344764 -0.073857144 1.034 2.0189398e-38
-0.04037524 -0.073857144 1.034 2.0558181e-38
-0.038405713 -0.073857144 1.034 1.871536e-38
-0.036436193 -0.073857144 1.034 1.1063122e-38
-0.034600001 -0.074142866 1.0380001 1.1244614e-38
-0.032622863 -0.074142866 1.0380001 1.2350962e-38
-0.030645715 -0.074142866 1.0380001 1.1985782e-38
-0.028668575 -0.074142866 1.0380001 1.0418456e-38
-0.026845716 -0.074571431 1.044 9.6826543e-39
