# .PCD v0.7 - Point Cloud Data file format
VERSION 0.7
FIELDS x y z rgb
SIZE 4 4 4 4
TYPE F F F F
COUNT 1 1 1 1
WIDTH 1034
HEIGHT 1
VIEWPOINT 0 0 0 1 0 0 0
POINTS 1034
DATA ascii
-0.086313337 -0.15357049 1.177 1.4658364e-38
-0.084071428 -0.15357049 1.177 1.5026073e-38
-0.081829526 -0.15357049 1.177 1.5118269e-38
-0.079587616 -0.15357049 1.177 1.5393786e-38
-0.077345721 -0.15357049 1.177 1.5854764e-38
-0.075103812 -0.15357049 1.177 1.5762919e-38
-0.07286191 -0.15357049 1.177 1.5670724e-38
-0.07062 -0.15357049 1.177 1.567037e-38
-0.068378098 -0.15357049 1.177 1.5762566e-38
-0.066136189 -0.15357049 1.177 1.5579247e-38
-0.063894287 -0.15357049 1.177 1.5579247e-38
-0.061652381 -0.15357049 1.177 1.5486348e-38
-0.059208576 -0.15304859 1.1730001 1.5578543e-38
-0.056974292 -0.15304859 1.1730001 1.5301951e-38
-0.054740004 -0.15304859 1.1730001 1.5301951e-38
-0.052326668 -0.15252666 1.169 1.5209395e-38
-0.050099999 -0.15252666 1.169 1.5117199e-38
-0.047873333 -0.15252666 1.169 1.5025354e-38
-0.045490477 -0.15200476 1.1650001 1.4840963e-38
-0.04327143 -0.15200476 1.1650001 1.4471114e-38
-0.040911429 -0.15148287 1.161 1.4471114e-38
-0.038700003 -0.15148287 1.161 1.3826095e-38
-0.03636286 -0.15096095 1.1570001 1.3365117e-38
-0.034159049 -0.15096095 1.1570001 1.3456586e-38
-0.031734288 -0.14991716 1.149 1.3087804e-38
-0.029545715 -0.14991716 1.149 1.2995959e-38
-0.027452381 -0.15043904 1.153 1.465548e-38
-0.025256189 -0.15043904 1.153 1.5485601e-38
-0.10725429 -0.14927143 1.161 1.5672551e-38
-0.10504285 -0.14927143 1.161 1.3554205e-38
-0.10318572 -0.14978573 1.1650001 1.2540053e-38
-0.10096667 -0.14978573 1.1650001 1.3640612e-38
-0.098747626 -0.14978573 1.1650001 1.4009395e-38
-0.096528575 -0.14978573 1.1650001 1.3918275e-38
-0.094309531 -0.14978573 1.1650001 1.4287058e-38
-0.092406668 -0.1503 1.169 1.4287779e-38
-0.090180002 -0.1503 1.169 1.4840953e-38
-0.088254295 -0.15081429 1.1730001 1.474948e-38
-0.086020008 -0.15081429 1.1730001 1.5210459e-38
-0.084071428 -0.15132858 1.177 1.5486332e-38
-0.081829526 -0.15132858 1.177 1.5578528e-38
-0.079587616 -0.15132858 1.177 1.567001e-38
-0.077345721 -0.15132858 1.177 1.5854402e-38
-0.075103812 -0.15132858 1.177 1.6038793e-38
-0.07286191 -0.15132858 1.177 1.6038793e-38
-0.07062 -0.15132858 1.177 1.6130988e-38
-0.068378098 -0.15132858 1.177 1.6038793e-38
-0.066136189 -0.15132858 1.177 1.5854402e-38
-0.063894287 -0.15132858 1.177 1.5946597e-38
-0.061652381 -0.15132858 1.177 1.5854764e-38
-0.059208576 -0.15081429 1.1730001 1.5762569e-38
-0.056974292 -0.15081429 1.1730001 1.5301951e-38
-0.054740004 -0.15081429 1.1730001 1.5209755e-38
-0.052326668 -0.1503 1.169 1.4932805e-38
-0.050099999 -0.1503 1.169 1.5025001e-38
-0.047873333 -0.1503 1.169 1.5025354e-38
-0.045490477 -0.14978573 1.1650001 1.4840963e-38
-0.04327143 -0.14978573 1.1650001 1.4379632e-38
-0.041052382 -0.14978573 1.1650001 1.4379632e-38
-0.038700003 -0.14927143 1.161 1.3826448e-38
-0.03636286 -0.14875714 1.1570001 1.3734252e-38
-0.034159049 -0.14875714 1.1570001 1.3364391e-38
-0.031734288 -0.14772858 1.149 1.2995608e-38
-0.029545715 -0.14772858 1.149 1.244384e-38
-0.027452381 -0.14824286 1.153 1.244384e-38
-0.025256189 -0.14824286 1.153 1.4653665e-38
-0.11129239 -0.14655334 1.1570001 1.2812704e-38
-0.10688476 -0.14655334 1.1570001 1.1708104e-38
-0.10468096 -0.14655334 1.1570001 1.2720814e-38
-0.10318572 -0.14756668 1.1650001 1.3366183e-38
-0.10096667 -0.14756668 1.1650001 1.3733889e-38
-0.098747626 -0.14756668 1.1650001 1.4471454e-38
-0.096528575 -0.14756668 1.1650001 1.4563294e-38
-0.094309531 -0.14756668 1.1650001 1.4932077e-38
-0.092406668 -0.14807333 1.169 1.4932796e-38
-0.090180002 -0.14807333 1.169 1.5301578e-38
-0.088254295 -0.14858001 1.1730001 1.5209392e-38
-0.086020008 -0.14858001 1.1730001 1.5485979e-38
-0.084071428 -0.14908667 1.177 1.5485979e-38
-0.081829526 -0.14908667 1.177 1.5578175e-38
-0.079587616 -0.14908667 1.177 1.5578178e-38
-0.077345721 -0.14908667 1.177 1.5670373e-38
-0.075103812 -0.14908667 1.177 1.5762213e-38
-0.07286191 -0.14908667 1.177 1.6223191e-38
-0.07062 -0.14908667 1.177 1.6039153e-38
-0.068378098 -0.14908667 1.177 1.5946957e-38
-0.066136189 -0.14908667 1.177 1.6038793e-38
-0.063894287 -0.14908667 1.177 1.5946597e-38
-0.061652381 -0.14908667 1.177 1.5854409e-38
-0.059410479 -0.14908667 1.177 1.5854409e-38
-0.056974292 -0.14858001 1.1730001 1.5301954e-38
-0.054740004 -0.14858001 1.1730001 1.5301954e-38
-0.052505717 -0.14858001 1.1730001 1.5301588e-38
-0.050099999 -0.14807333 1.169 1.5301588e-38
-0.047873333 -0.14807333 1.169 1.4932805e-38
-0.045490477 -0.14756668 1.1650001 1.4932805e-38
-0.04327143 -0.14756668 1.1650001 1.4656569e-38
-0.041052382 -0.14756668 1.1650001 1.4379982e-38
-0.038700003 -0.14705999 1.161 1.4102682e-38
-0.03636286 -0.14655334 1.1570001 1.4010486e-38
-0.034159049 -0.14655334 1.1570001 1.3824297e-38
-0.031734288 -0.14554 1.149 1.3455514e-38
-0.029545715 -0.14554 1.149 1.2534983e-38
-0.027357142 -0.14554 1.149 1.1797418e-38
-0.025168573 -0.14554 1.149 1.3362933e-38
-0.10908858 -0.14434953 1.1570001 1.1703062e-38
-0.10688476 -0.14434953 1.1570001 1.3270388e-38
-0.10468096 -0.14434953 1.1570001 1.3364025e-38
-0.10318572 -0.14534763 1.1650001 1.410159e-38
-0.10096667 -0.14534763 1.1650001 1.3918275e-38
-0.098747626 -0.14534763 1.1650001 1.4471449e-38
-0.096528575 -0.14534763 1.1650001 1.456365e-38
-0.094633341 -0.14584666 1.169 1.4932433e-38
-0.092406668 -0.14584666 1.169 1.4748404e-38
-0.090180002 -0.14584666 1.169 1.5117187e-38
-0.088254295 -0.14634572 1.1730001 1.5116831e-38
-0.086020008 -0.14634572 1.1730001 1.5670005e-38
-0.084071428 -0.14684477 1.177 1.5486332e-38
-0.081829526 -0.14684477 1.177 1.5670724e-38
-0.079587616 -0.14684477 1.177 1.5578894e-38
-0.077345721 -0.14684477 1.177 1.5671089e-38
-0.075103812 -0.14684477 1.177 1.5671089e-38
-0.07286191 -0.14684477 1.177 1.5947676e-38
-0.07062 -0.14684477 1.177 1.5946957e-38
-0.068378098 -0.14684477 1.177 1.5946957e-38
-0.066136189 -0.14684477 1.177 1.613027e-38
-0.063894287 -0.14684477 1.177 1.613027e-38
-0.061652381 -0.14684477 1.177 1.5946597e-38
-0.059410479 -0.14684477 1.177 1.5854402e-38
-0.056974292 -0.14634572 1.1730001 1.5394146e-38
-0.054740004 -0.14634572 1.1730001 1.5301951e-38
-0.052505717 -0.14634572 1.1730001 1.5394137e-38
-0.050271433 -0.14634572 1.1730001 1.5301941e-38
-0.047873333 -0.14584666 1.169 1.4749133e-38
-0.045646667 -0.14584666 1.169 1.4749133e-38
-0.04327143 -0.14534763 1.1650001 1.4933158e-38
-0.041052382 -0.14534763 1.1650001 1.447218e-38
-0.038700003 -0.14484857 1.161 1.4194517e-38
-0.03636286 -0.14434953 1.1570001 1.3825735e-38
-0.034159049 -0.14434953 1.1570001 1.3732454e-38
-0.031734288 -0.14335144 1.149 1.3548063e-38
-0.029545715 -0.14335144 1.149 1.2719006e-38
-0.027357142 -0.14335144 1.149 1.2534615e-38
-0.025168573 -0.14335144 1.149 1.3454755e-38
-0.10688476 -0.14214572 1.1570001 1.3548432e-38
-0.10468096 -0.14214572 1.1570001 1.3640612e-38
-0.10318572 -0.14312857 1.1650001 1.4193786e-38
-0.10096667 -0.14312857 1.1650001 1.4101953e-38
-0.098747626 -0.14312857 1.1650001 1.4747322e-38
-0.096528575 -0.14312857 1.1650001 1.4747678e-38
-0.094633341 -0.14362001 1.169 1.5024265e-38
-0.092406668 -0.14362001 1.169 1.4931717e-38
-0.090180002 -0.14362001 1.169 1.5300499e-38
-0.088254295 -0.14411144 1.1730001 1.5116836e-38
-0.086020008 -0.14411144 1.1730001 1.5762206e-38
-0.084071428 -0.14460286 1.177 1.5670358e-38
-0.081829526 -0.14460286 1.177 1.5946945e-38
-0.079587616 -0.14460286 1.177 1.5670721e-38
-0.077345721 -0.14460286 1.177 1.5670721e-38
-0.075103812 -0.14460286 1.177 1.5670733e-38
-0.07286191 -0.14460286 1.177 1.5855125e-38
-0.07062 -0.14460286 1.177 1.594731e-38
-0.068378098 -0.14460286 1.177 1.5855115e-38
-0.066136189 -0.14460286 1.177 1.5946597e-38
-0.063894287 -0.14460286 1.177 1.5946597e-38
-0.061652381 -0.14460286 1.177 1.5946947e-38
-0.059410479 -0.14460286 1.177 1.5946947e-38
-0.057168569 -0.14460286 1.177 1.5485263e-38
-0.054926671 -0.14460286 1.177 1.5485263e-38
-0.052684762 -0.14460286 1.177 1.5485967e-38
-0.050271433 -0.14411144 1.1730001 1.5301575e-38
-0.048037145 -0.14411144 1.1730001 1.4840613e-38
-0.045802858 -0.14411144 1.1730001 1.4748417e-38
-0.043419998 -0.14362001 1.169 1.4564013e-38
-0.041193336 -0.14362001 1.169 1.4103035e-38
-0.038833335 -0.14312857 1.1650001 1.400977e-38
-0.036614288 -0.14312857 1.1650001 1.3364401e-38
-0.034277145 -0.14263713 1.161 1.3640612e-38
-0.031734288 -0.14116286 1.149 1.3825003e-38
-0.029545715 -0.14116286 1.149 1.3918268e-38
-0.027357142 -0.14116286 1.149 1.3918268e-38
-0.10696382 -0.13449906 1.1120001 1.2443867e-38
-0.10725429 -0.14042571 1.161 1.4007953e-38
-0.10504285 -0.14042571 1.161 1.3640609e-38
-0.10318572 -0.14090954 1.1650001 1.4193783e-38
-0.10096667 -0.14090954 1.1650001 1.4102309e-38
-0.098747626 -0.14090954 1.1650001 1.4471092e-38
-0.096528575 -0.14090954 1.1650001 1.4562568e-38
-0.094633341 -0.14139333 1.169 1.474696e-38
-0.092722863 -0.14187714 1.1730001 1.4746243e-38
-0.090488575 -0.14187714 1.1730001 1.5207222e-38
-0.088555239 -0.14236096 1.177 1.5116108e-38
-0.086313337 -0.14236096 1.177 1.5761477e-38
-0.084071428 -0.14236096 1.177 1.5669998e-38
-0.081829526 -0.14236096 1.177 1.5669998e-38
-0.079587616 -0.14236096 1.177 1.5486329e-38
-0.077345721 -0.14236096 1.177 1.5670721e-38
-0.075103812 -0.14236096 1.177 1.5578894e-38
-0.07286191 -0.14236096 1.177 1.5671089e-38
-0.07062 -0.14236096 1.177 1.5855115e-38
-0.068378098 -0.14236096 1.177 1.5855115e-38
-0.066136189 -0.14236096 1.177 1.5854402e-38
-0.063677147 -0.14187714 1.1730001 1.5854402e-38
-0.061442863 -0.14187714 1.1730001 1.5762553e-38
-0.059410479 -0.14236096 1.177 1.5762553e-38
-0.057168569 -0.14236096 1.177 1.5393423e-38
-0.054926671 -0.14236096 1.177 1.5209032e-38
-0.052684762 -0.14236096 1.177 1.5393408e-38
-0.05044286 -0.14236096 1.177 1.5301212e-38
-0.048200954 -0.14236096 1.177 1.4840237e-38
-0.045802858 -0.14187714 1.1730001 1.4840237e-38
-0.043568578 -0.14187714 1.1730001 1.4378896e-38
-0.041193336 -0.14139333 1.169 1.4194505e-38
-0.038833335 -0.14090954 1.1650001 1.428706e-38
-0.036614288 -0.14090954 1.1650001 1.4102669e-38
-0.034277145 -0.14042571 1.161 1.400977e-38
-0.031955238 -0.13994192 1.1570001 1.400977e-38
-0.029751431 -0.13994192 1.1570001 1.4285984e-38
-0.02754762 -0.13994192 1.1570001 1.3825006e-38
-0.10696382 -0.13238096 1.1120001 1.1614504e-38
-0.10484572 -0.13238096 1.1120001 1.2625394e-38
-0.10725429 -0.13821429 1.161 1.4469306e-38
-0.10504285 -0.13821429 1.161 1.4562556e-38
-0.10318572 -0.13869049 1.1650001 1.447036e-38
-0.10096667 -0.13869049 1.1650001 1.4285979e-38
-0.098747626 -0.13869049 1.1650001 1.4562565e-38
-0.096859999 -0.13916667 1.169 1.5023897e-38
-0.094957151 -0.13964286 1.1730001 1.4931701e-38
-0.092722863 -0.13964286 1.1730001 1.4747678e-38
-0.090797149 -0.14011905 1.177 1.4747678e-38
-0.088555239 -0.14011905 1.177 1.5023912e-38
-0.086313337 -0.14011905 1.177 1.5577086e-38
-0.084071428 -0.14011905 1.177 1.5393408e-38
-0.081829526 -0.14011905 1.177 1.5393408e-38
-0.079587616 -0.14011905 1.177 1.5301222e-38
-0.077345721 -0.14011905 1.177 1.5577809e-38
-0.075103812 -0.14011905 1.177 1.5394137e-38
-0.07286191 -0.14011905 1.177 1.5394137e-38
-0.07062 -0.14011905 1.177 1.5394137e-38
-0.068378098 -0.14011905 1.177 1.5394137e-38
-0.065911435 -0.13964286 1.1730001 1.5301228e-38
-0.063677147 -0.13964286 1.1730001 1.5209032e-38
-0.061442863 -0.13964286 1.1730001 1.5024625e-38
-0.059410479 -0.14011905 1.177 1.5116821e-38
-0.057168569 -0.14011905 1.177 1.5116468e-38
-0.054926671 -0.14011905 1.177 1.4932077e-38
-0.052684762 -0.14011905 1.177 1.5024263e-38
-0.05044286 -0.14011905 1.177 1.5024263e-38
-0.048200954 -0.14011905 1.177 1.5024976e-38
-0.045959052 -0.14011905 1.177 1.5485954e-38
-0.043568578 -0.13964286 1.1730001 1.5485601e-38
-0.038797144 -0.13107145 1.1010001 1.5577796e-38
-0.036700003 -0.13107145 1.1010001 1.5670708e-38
-0.034602862 -0.13107145 1.1010001 1.6131686e-38
-0.032505713 -0.13107145 1.1010001 1.5210484e-38
-0.03051905 -0.13154761 1.105 1.4933897e-38
-0.028491428 -0.13190477 1.108 1.345983e-38
-0.026476193 -0.13238096 1.1120001 1.0970548e-38
-0.024358097 -0.13238096 1.1120001 1.1614106e-38
-0.022240004 -0.13238096 1.1120001 1.4472171e-38
-0.10696382 -0.13026287 1.1120001 1.0416689e-38
-0.10484572 -0.13026287 1.1120001 1.1242437e-38
-0.10272763 -0.13026287 1.1120001 1.4100501e-38
-0.10060953 -0.13026287 1.1120001 1.47473e-38
-0.09875714 -0.1306143 1.115 1.47473e-38
-0.095766664 -0.12944287 1.105 1.4930265e-38
-0.093661904 -0.12944287 1.105 1.4930265e-38
-0.096859999 -0.13694 1.169 1.5391613e-38
-0.094957151 -0.13740857 1.1730001 1.5391613e-38
-0.093039051 -0.13787715 1.177 1.4931726e-38
-0.090797149 -0.13787715 1.177 1.5116118e-38
-0.088555239 -0.13787715 1.177 1.5299793e-38
-0.086313337 -0.13787715 1.177 1.5484184e-38
-0.08435715 -0.13834573 1.1810001 1.5116824e-38
-0.082107626 -0.13834573 1.1810001 1.5301215e-38
-0.079587616 -0.13787715 1.177 1.5116831e-38
-0.077345721 -0.13787715 1.177 1.5485613e-38
-0.075103812 -0.13787715 1.177 1.511755e-38
-0.07261429 -0.13740857 1.1730001 1.5209745e-38
-0.07038001 -0.13740857 1.1730001 1.4933524e-38
-0.063323811 -0.12768573 1.09 1.4933524e-38
-0.061247624 -0.12768573 1.09 1.4933149e-38
-0.059171431 -0.12768573 1.09 1.5209736e-38
-0.061442863 -0.13740857 1.1730001 1.5392332e-38
-0.059410479 -0.13787715 1.177 1.5576723e-38
-0.057168569 -0.13787715 1.177 1.5761121e-38
-0.054926671 -0.13787715 1.177 1.557673e-38
-0.052684762 -0.13787715 1.177 1.5484174e-38
-0.05044286 -0.13787715 1.177 1.5668566e-38
-0.048200954 -0.13787715 1.177 1.54849e-38
-0.04299143 -0.12897429 1.1010001 1.5577096e-38
-0.040894289 -0.12897429 1.1010001 1.613097e-38
-0.038797144 -0.12897429 1.1010001 1.6591948e-38
-0.036700003 -0.12897429 1.1010001 1.6224616e-38
-0.034602862 -0.12897429 1.1010001 1.5118269e-38
-0.032505713 -0.12897429 1.1010001 1.4382871e-38
-0.03051905 -0.12944287 1.105 1.4290676e-38
-0.028491428 -0.1297943 1.108 1.1990088e-38
-0.026476193 -0.13026287 1.1120001 9.2242195e-39
-0.024358097 -0.13026287 1.1120001 1.0971239e-38
-0.022240004 -0.13026287 1.1120001 1.4105891e-38
-0.11190001 -0.12895143 1.1190001 1.7146602e-38
-0.10937619 -0.12849048 1.115 1.6501245e-38
-0.10696382 -0.12814477 1.1120001 9.9553554e-39
-0.10484572 -0.12814477 1.1120001 8.3894142e-39
-0.10272763 -0.12814477 1.1120001 9.3113705e-39
-0.10060953 -0.12814477 1.1120001 1.1614795e-38
-0.098491438 -0.12814477 1.1120001 1.3827491e-38
-0.095766664 -0.1273381 1.105 1.382607e-38
-0.093322858 -0.12687714 1.1010001 1.3641678e-38
-0.091225713 -0.12687714 1.1010001 1.4378921e-38
-0.09528096 -0.13563524 1.177 1.6499421e-38
-0.093039051 -0.13563524 1.177 1.640721e-38
-0.090797149 -0.13563524 1.177 1.640721e-38
-0.088555239 -0.13563524 1.177 1.6591601e-38
-0.086313337 -0.13563524 1.177 1.7144775e-38
-0.08435715 -0.13609621 1.1810001 1.6868904e-38
-0.082107626 -0.13609621 1.1810001 1.7053295e-38
-0.079587616 -0.13563524 1.177 1.6593769e-38
-0.077345721 -0.13563524 1.177 1.7054747e-38
-0.069552377 -0.12560952 1.09 1.7330608e-38
-0.067476191 -0.12560952 1.09 1.7791586e-38
-0.065400004 -0.12560952 1.09 1.7975617e-38
-0.063323811 -0.12560952 1.09 1.7883421e-38
-0.061247624 -0.12560952 1.09 1.7607551e-38
-0.059171431 -0.12560952 1.09 1.8068529e-38
-0.057461902 -0.12641619 1.097 1.8252204e-38
-0.05537238 -0.12641619 1.097 1.8067813e-38
-0.053282857 -0.12641619 1.097 1.7331334e-38
-0.05119333 -0.12641619 1.097 1.7423529e-38
-0.049103811 -0.12641619 1.097 1.705475e-38
-0.047014289 -0.12641619 1.097 1.7239141e-38
-0.044924762 -0.12641619 1.097 1.7238062e-38
-0.04299143 -0.12687714 1.1010001 1.6131714e-38
-0.040894289 -0.12687714 1.1010001 1.5855465e-38
-0.038797144 -0.12687714 1.1010001 1.6500835e-38
-0.036700003 -0.12687714 1.1010001 1.5672163e-38
-0.034602862 -0.12687714 1.1010001 1.0601403e-38
-0.032623809 -0.1273381 1.105 1.0880481e-38
-0.03051905 -0.1273381 1.105 1.2079025e-38
-0.028491428 -0.12768382 1.108 1.1435083e-38
-0.026476193 -0.12814477 1.1120001 8.5770186e-39
-0.024358097 -0.12814477 1.1120001 1.041774e-38
-0.022240004 -0.12814477 1.1120001 1.3921174e-38
-0.020248573 -0.12895143 1.1190001 1.4748039e-38
-0.11190001 -0.12682001 1.1190001 1.696293e-38
-0.10937619 -0.12636666 1.115 1.6778551e-38
-0.10725237 -0.12636666 1.115 1.1246813e-38
-0.10512857 -0.12636666 1.115 7.7462182e-39
-0.10272763 -0.12602669 1.1120001 6.7320662e-39
-0.10060953 -0.12602669 1.1120001 8.0219867e-39
-0.098491438 -0.12602669 1.1120001 1.1986399e-38
-0.095766664 -0.12523332 1.105 1.1892505e-38
-0.093322858 -0.12478001 1.1010001 1.1339331e-38
-0.091225713 -0.12478001 1.1010001 1.2354915e-38
-0.089128576 -0.12478001 1.1010001 1.521298e-38
-0.087031431 -0.12478001 1.1010001 1.5396304e-38
-0.084934294 -0.12478001 1.1010001 1.4935326e-38
-0.088856198 -0.13384669 1.1810001 1.5579244e-38
-0.086606674 -0.13384669 1.1810001 1.6869983e-38
-0.08435715 -0.13384669 1.1810001 1.6501223e-38
-0.082107626 -0.13384669 1.1810001 1.613244e-38
-0.079587616 -0.13339333 1.177 1.6133509e-38
-0.071891434 -0.12398667 1.0940001 1.6225705e-38
-0.069552377 -0.12353334 1.09 1.723875e-38
-0.067476191 -0.12353334 1.09 1.8345097e-38
-0.065400004 -0.12353334 1.09 1.8897217e-38
-0.063323811 -0.12353334 1.09 1.779087e-38
-0.061472386 -0.12398667 1.0940001 1.7607874e-38
-0.059388574 -0.12398667 1.0940001 1.8253244e-38
-0.057461902 -0.12432666 1.097 1.8438034e-38
-0.05537238 -0.12432666 1.097 1.7884861e-38
-0.053282857 -0.12432666 1.097 1.6411904e-38
-0.05119333 -0.12432666 1.097 1.585873e-38
-0.049103811 -0.12432666 1.097 1.5583933e-38
-0.047014289 -0.12432666 1.097 1.6505889e-38
-0.044924762 -0.12432666 1.097 1.6963277e-38
-0.04299143 -0.12478001 1.1010001 1.373643e-38
-0.040894289 -0.12478001 1.1010001 1.4010098e-38
-0.038797144 -0.12478001 1.1010001 1.5208641e-38
-0.036700003 -0.12478001 1.1010001 1.4569761e-38
-0.034602862 -0.12478001 1.1010001 1.1711697e-38
-0.032623809 -0.12523332 1.105 1.0880549e-38
-0.03051905 -0.12523332 1.105 1.1249331e-38
-0.028491428 -0.12557334 1.108 1.1249274e-38
-0.026476193 -0.12602669 1.1120001 9.1287743e-39
-0.024358097 -0.12602669 1.1120001 1.087762e-38
-0.022240004 -0.12602669 1.1120001 1.3735684e-38
-0.020248573 -0.12682001 1.1190001 1.4101593e-38
-0.10937619 -0.12424286 1.115 1.6408689e-38
-0.10696382 -0.12390859 1.1120001 1.2444277e-38
-0.10484572 -0.12390859 1.1120001 7.2834828e-39
-0.10272763 -0.12390859 1.1120001 4.6098095e-39
-0.10060953 -0.12390859 1.1120001 6.0823752e-39
-0.098491438 -0.12390859 1.1120001 1.1982896e-38
-0.095766664 -0.12312857 1.105 1.2167322e-38
-0.093322858 -0.12268285 1.1010001 1.2259517e-38
-0.091225713 -0.12268285 1.1010001 1.2815165e-38
-0.089128576 -0.12268285 1.1010001 1.502786e-38
-0.087031431 -0.12268285 1.1010001 1.3554555e-38
-0.084934294 -0.12268285 1.1010001 1.1434056e-38
-0.083138093 -0.12312857 1.105 1.2355662e-38
-0.080740005 -0.12268285 1.1010001 1.57669e-38
-0.07864286 -0.12268285 1.1010001 1.6132771e-38
-0.076545723 -0.12268285 1.1010001 1.235275e-38
-0.074448578 -0.12268285 1.1010001 1.1982956e-38
-0.071891434 -0.12190286 1.0940001 1.2075151e-38
-0.069807619 -0.12190286 1.0940001 1.6501852e-38
-0.067723818 -0.12190286 1.0940001 1.8714547e-38
-0.065640002 -0.12190286 1.0940001 1.7424243e-38
-0.063556202 -0.12190286 1.0940001 1.2353483e-38
-0.061472386 -0.12190286 1.0940001 1.1436208e-38
-0.059388574 -0.12190286 1.0940001 1.4755251e-38
-0.057461902 -0.12223714 1.097 1.668633e-38
-0.05537238 -0.12223714 1.097 1.7423895e-38
-0.053282857 -0.12223714 1.097 1.6595201e-38
-0.05119333 -0.12223714 1.097 1.4566897e-38
-0.049103811 -0.12223714 1.097 1.549027e-38
-0.047185715 -0.12268285 1.1010001 1.7334183e-38
-0.045088574 -0.12268285 1.1010001 1.6778876e-38
-0.04299143 -0.12268285 1.1010001 1.1431529e-38
-0.040894289 -0.12268285 1.1010001 9.6819452e-39
-0.038797144 -0.12268285 1.1010001 1.0603902e-38
-0.036700003 -0.12268285 1.1010001 1.2447098e-38
-0.034602862 -0.12268285 1.1010001 1.5397358e-38
-0.032623809 -0.12312857 1.105 1.4752004e-38
-0.03051905 -0.12312857 1.105 1.1156375e-38
-0.028491428 -0.12346286 1.108 8.948011e-39
-0.026476193 -0.12390859 1.1120001 8.3948372e-39
-0.024358097 -0.12390859 1.1120001 1.0601403e-38
-0.022300001 -0.12424286 1.115 1.3275076e-38
-0.020320952 -0.12513429 1.123 1.4101224e-38
-0.10696382 -0.12179048 1.1120001 1.2443909e-38
-0.10484572 -0.12179048 1.1120001 7.6511681e-39
-0.10272763 -0.12179048 1.1120001 5.1618861e-39
-0.10060953 -0.12179048 1.1120001 6.8184395e-39
-0.098491438 -0.12179048 1.1120001 1.0690656e-38
-0.095766664 -0.12102381 1.105 1.2443514e-38
-0.093661904 -0.12102381 1.105 1.4656209e-38
-0.091225713 -0.12058572 1.1010001 1.3830401e-38
-0.089128576 -0.12058572 1.1010001 1.4014792e-38
-0.087031431 -0.12058572 1.1010001 1.2268483e-38
-0.084934294 -0.12058572 1.1010001 1.0055788e-38
-0.083138093 -0.12102381 1.105 1.1346164e-38
-0.080740005 -0.12058572 1.1010001 1.438862e-38
-0.07864286 -0.12058572 1.1010001 1.6502995e-38
-0.076545723 -0.12058572 1.1010001 1.2907366e-38
-0.074448578 -0.12058572 1.1010001 1.2532141e-38
-0.071891434 -0.11981906 1.0940001 1.3915076e-38
-0.069807619 -0.11981906 1.0940001 1.7141888e-38
-0.067723818 -0.11981906 1.0940001 1.8893605e-38
-0.065820001 -0.12014762 1.097 1.6504816e-38
-0.063730478 -0.12014762 1.097 9.4979477e-39
-0.061640952 -0.12014762 1.097 7.8484653e-39
-0.059551429 -0.12014762 1.097 1.0890921e-38
-0.057461902 -0.12014762 1.097 1.6409708e-38
-0.05537238 -0.12014762 1.097 1.7700447e-38
-0.053477146 -0.12058572 1.1010001 1.7424974e-38
-0.051380005 -0.12058572 1.1010001 1.6134235e-38
-0.04928286 -0.12058572 1.1010001 1.4755279e-38
-0.047185715 -0.12058572 1.1010001 1.5769431e-38
-0.045088574 -0.12058572 1.1010001 1.6133497e-38
-0.04299143 -0.12058572 1.1010001 9.2188245e-39
-0.040894289 -0.12058572 1.1010001 8.5748816e-39
-0.038938098 -0.12102381 1.105 8.7592729e-39
-0.036833331 -0.12102381 1.105 1.1245998e-38
-0.034728572 -0.12102381 1.105 1.6224562e-38
-0.032623809 -0.12102381 1.105 1.4753128e-38
-0.03051905 -0.12102381 1.105 9.6823684e-39
-0.028491428 -0.12135238 1.108 8.1214719e-39
-0.026476193 -0.12179048 1.1120001 8.3058631e-39
-0.02442381 -0.12211905 1.115 1.0601033e-38
-0.022460001 -0.12299524 1.123 1.3090315e-38
-0.020375239 -0.12332381 1.126 1.3731719e-38
-0.018230475 -0.12332381 1.126 1.391611e-38
-0.10725237 -0.11999524 1.115 1.2720123e-38
-0.10512857 -0.11999524 1.115 8.2951446e-39
-0.10300476 -0.11999524 1.115 5.6214713e-39
-0.10088095 -0.11999524 1.115 6.2671196e-39
-0.098491438 -0.1196724 1.1120001 7.5578584e-39
-0.096373342 -0.1196724 1.1120001 8.5723985e-39
-0.093661904 -0.11891905 1.105 1.4841701e-38
-0.091557145 -0.11891905 1.105 1.3830761e-38
-0.089452386 -0.11891905 1.105 1.152587e-38
-0.087347619 -0.11891905 1.105 9.8739427e-39
-0.08524286 -0.11891905 1.105 1.015053e-38
-0.083138093 -0.11891905 1.105 1.0795884e-38
-0.080740005 -0.11848858 1.1010001 1.1810036e-38
-0.07864286 -0.11848858 1.1010001 1.4109521e-38
-0.076545723 -0.11848858 1.1010001 1.6322217e-38
-0.074448578 -0.11848858 1.1010001 1.705546e-38
-0.072088569 -0.11805809 1.097 1.8254003e-38
-0.069999047 -0.11805809 1.097 1.696329e-38
-0.067909524 -0.11805809 1.097 1.3736443e-38
-0.065820001 -0.11805809 1.097 9.1389211e-39
-0.063730478 -0.11805809 1.097 7.2028128e-39
-0.061640952 -0.11805809 1.097 6.2898192e-39
-0.059551429 -0.11805809 1.097 6.105428e-39
-0.057671431 -0.11848858 1.1010001 1.0336639e-38
-0.05557429 -0.11848858 1.1010001 1.3655682e-38
-0.053477146 -0.11848858 1.1010001 1.742568e-38
-0.051380005 -0.11848858 1.1010001 1.890081e-38
-0.04928286 -0.11848858 1.1010001 1.7884517e-38
-0.047185715 -0.11848858 1.1010001 1.3366931e-38
-0.045088574 -0.11848858 1.1010001 1.0418459e-38
-0.04314762 -0.11891905 1.105 9.2199161e-39
-0.041042857 -0.11891905 1.105 9.0362535e-39
-0.038938098 -0.11891905 1.105 8.2986885e-39
-0.036833331 -0.11891905 1.105 8.9411614e-39
-0.034728572 -0.11891905 1.105 1.3458747e-38
-0.032712381 -0.11924191 1.108 1.3738231e-38
-0.030712385 -0.1196724 1.1120001 9.7738186e-39
-0.028594287 -0.1196724 1.1120001 8.0292917e-39
-0.026642859 -0.12042572 1.1190001 8.3058786e-39
-0.02451143 -0.12042572 1.1190001 1.1061661e-38
-0.022520002 -0.12117905 1.126 1.3089965e-38
-0.020520002 -0.12204001 1.1340001 1.3732055e-38
-0.018360002 -0.12204001 1.1340001 1.3639859e-38
-0.10725237 -0.11787143 1.115 1.2721199e-38
-0.10512857 -0.11787143 1.115 1.0878368e-38
-0.10300476 -0.11787143 1.115 6.9139562e-39
-0.10088095 -0.11787143 1.115 5.7179017e-39
-0.09875714 -0.11787143 1.115 6.0866842e-39
-0.096373342 -0.1175543 1.1120001 8.0213323e-39
-0.093661904 -0.11681429 1.105 1.4751613e-38
-0.091557145 -0.11681429 1.105 1.337268e-38
-0.089452386 -0.11681429 1.105 1.0145832e-38
-0.087347619 -0.11681429 1.105 8.5882262e-39
-0.08524286 -0.11681429 1.105 9.7867694e-39
-0.083138093 -0.11681429 1.105 9.6023851e-39
-0.080740005 -0.11639144 1.1010001 9.6945807e-39
-0.07864286 -0.11639144 1.1010001 1.144089e-38
-0.076545723 -0.11639144 1.1010001 1.503652e-38
-0.074448578 -0.11639144 1.1010001 1.7149106e-38
-0.072351426 -0.11639144 1.1010001 1.770228e-38
-0.069999047 -0.11596857 1.097 1.5493548e-38
-0.067909524 -0.11596857 1.097 8.6710709e-39
-0.065820001 -0.11596857 1.097 4.6342706e-39
-0.063730478 -0.11596857 1.097 5.1874444e-39
-0.061640952 -0.11596857 1.097 5.0984857e-39
-0.059551429 -0.11596857 1.097 4.0843338e-39
-0.057671431 -0.11639144 1.1010001 5.2785134e-39
-0.05557429 -0.11639144 1.1010001 7.3068172e-39
-0.053477146 -0.11639144 1.1010001 1.5672879e-38
-0.051380005 -0.11639144 1.1010001 1.8991921e-38
-0.04928286 -0.11639144 1.1010001 1.8252587e-38
-0.047185715 -0.11639144 1.1010001 1.0047175e-38
-0.045252379 -0.11681429 1.105 9.7691088e-39
-0.04314762 -0.11681429 1.105 1.0691065e-38
-0.041042857 -0.11681429 1.105 1.005003e-38
-0.038938098 -0.11681429 1.105 8.6670955e-39
-0.036933336 -0.11713143 1.108 8.2990038e-39
-0.034822859 -0.11713143 1.108 1.3277568e-38
-0.032712381 -0.11713143 1.108 1.2818821e-38
-0.030712385 -0.1175543 1.1120001 9.0387997e-39
-0.028671429 -0.11787143 1.115 8.1207558e-39
-0.026642859 -0.11829429 1.1190001 8.6739296e-39
-0.024599047 -0.11871714 1.123 1.1614456e-38
-0.022520002 -0.11903429 1.126 1.3181782e-38
-0.020375239 -0.11903429 1.126 1.3455482e-38
-0.018230475 -0.11903429 1.126 1.3363287e-38
-0.10550572 -0.11616287 1.1190001 1.1154955e-38
-0.10300476 -0.11574762 1.115 7.6515212e-39
-0.10088095 -0.11574762 1.115 6.5480379e-39
-0.09875714 -0.11574762 1.115 5.7182772e-39
-0.096633337 -0.11574762 1.115 7.7436944e-39
-0.093661904 -0.11470952 1.105 1.4197389e-38
-0.091557145 -0.11470952 1.105 1.3188992e-38
-0.089452386 -0.11470952 1.105 1.0330927e-38
-0.087347619 -0.11470952 1.105 8.6807847e-39
-0.08524286 -0.11470952 1.105 9.6949367e-39
-0.083138093 -0.11470952 1.105 9.8782587e-39
-0.080740005 -0.1142943 1.1010001 1.0339237e-38
-0.07864286 -0.1142943 1.1010001 1.089024e-38
-0.076545723 -0.1142943 1.1010001 1.2918544e-38
-0.074448578 -0.1142943 1.1010001 1.4938944e-38
-0.072351426 -0.1142943 1.1010001 1.5123336e-38
-0.069999047 -0.11387905 1.097 1.2918143e-38
-0.067909524 -0.11387905 1.097 6.3722534e-39
-0.065820001 -0.11387905 1.097 2.7993459e-39
-0.063962862 -0.1142943 1.1010001 4.274476e-39
-0.061640952 -0.11387905 1.097 6.0179211e-39
-0.059551429 -0.11387905 1.097 5.8335298e-39
-0.057671431 -0.1142943 1.1010001 5.4640313e-39
-0.05557429 -0.1142943 1.1010001 3.9889012e-39
-0.053477146 -0.1142943 1.1010001 1.3002756e-38
-0.051380005 -0.1142943 1.1010001 1.798132e-38
-0.04928286 -0.1142943 1.1010001 1.7237674e-38
-0.047185715 -0.1142943 1.1010001 9.4932408e-39
-0.045252379 -0.11470952 1.105 8.3930365e-39
-0.04314762 -0.11470952 1.105 9.4993841e-39
-0.041042857 -0.11470952 1.105 9.5883483e-39
-0.038938098 -0.11470952 1.105 8.666392e-39
-0.036933336 -0.11502095 1.108 9.7719927e-39
-0.034822859 -0.11502095 1.108 1.4842752e-38
-0.03283048 -0.1154362 1.1120001 1.4566912e-38
-0.030795237 -0.11574762 1.115 1.1155674e-38
-0.028671429 -0.11574762 1.115 9.4075388e-39
-0.026642859 -0.11616287 1.1190001 9.7763213e-39
-0.024599047 -0.1165781 1.123 1.1520829e-38
-0.022520002 -0.11688953 1.126 1.2627176e-38
-0.020375239 -0.11688953 1.126 1.3178535e-38
-0.10588286 -0.11443905 1.123 1.1708479e-38
-0.10337429 -0.11403143 1.1190001 7.6518715e-39
-0.10124286 -0.11403143 1.1190001 7.0078992e-39
-0.09875714 -0.11362381 1.115 6.6391167e-39
-0.096633337 -0.11362381 1.115 8.4794742e-39
-0.094255246 -0.1133181 1.1120001 1.4748777e-38
-0.091557145 -0.11260476 1.105 1.328084e-38
-0.089452386 -0.11260476 1.105 1.0883753e-38
-0.087347619 -0.11260476 1.105 8.7726244e-39
-0.08524286 -0.11260476 1.105 9.6023851e-39
-0.083138093 -0.11260476 1.105 9.4187197e-39
-0.081033334 -0.11260476 1.105 9.8796979e-39
-0.07864286 -0.11219715 1.1010001 1.0062635e-38
-0.076545723 -0.11219715 1.1010001 1.2459721e-38
-0.074448578 -0.11219715 1.1010001 1.3745077e-38
-0.072351426 -0.11219715 1.1010001 1.3837273e-38
-0.070254289 -0.11219715 1.1010001 1.052507e-38
-0.068157144 -0.11219715 1.1010001 5.7308973e-39
-0.066060007 -0.11219715 1.1010001 3.0755699e-39
-0.063962862 -0.11219715 1.1010001 4.5506999e-39
-0.061865721 -0.11219715 1.1010001 6.2934318e-39
-0.059768576 -0.11219715 1.1010001 5.9246493e-39
-0.057671431 -0.11219715 1.1010001 3.3510848e-39
-0.05557429 -0.11219715 1.1010001 2.0603459e-39
-0.053477146 -0.11219715 1.1010001 1.0885533e-38
-0.051380005 -0.11219715 1.1010001 1.706264e-38
-0.04928286 -0.11219715 1.1010001 1.567362e-38
-0.047357146 -0.11260476 1.105 8.8511434e-39
-0.045252379 -0.11260476 1.105 9.0351591e-39
-0.04314762 -0.11260476 1.105 9.6805285e-39
-0.041042857 -0.11260476 1.105 8.944383e-39
-0.03904381 -0.11291048 1.108 9.7741437e-39
-0.036933336 -0.11291048 1.108 1.1611993e-38
-0.034822859 -0.11291048 1.108 1.5115427e-38
-0.03283048 -0.1133181 1.1120001 1.5120073e-38
-0.030795237 -0.11362381 1.115 1.2999574e-38
-0.028671429 -0.11362381 1.115 1.1157116e-38
-0.026738096 -0.11443905 1.123 1.0142964e-38
-0.024664761 -0.11474476 1.126 1.1335332e-38
-0.022599999 -0.11515237 1.13 1.3087049e-38
-0.10831048 -0.1126 1.126 1.4377839e-38
-0.10588286 -0.1123 1.123 1.1616649e-38
-0.10337429 -0.11190001 1.1190001 8.5741936e-39
-0.10124286 -0.11190001 1.1190001 8.6677835e-39
-0.09875714 -0.1115 1.115 9.7741311e-39
-0.096633337 -0.1115 1.115 1.0874803e-38
-0.094509527 -0.1115 1.115 1.4562629e-38
-0.09213715 -0.1112 1.1120001 1.3371594e-38
-0.089452386 -0.1105 1.105 1.3002811e-38
-0.087347619 -0.1105 1.105 1.0981354e-38
-0.08524286 -0.1105 1.105 1.0151593e-38
-0.083138093 -0.1105 1.105 9.2339809e-39
-0.081033334 -0.1105 1.105 9.3261766e-39
-0.078928567 -0.1105 1.105 1.1166101e-38
-0.076545723 -0.11010001 1.1010001 1.4392948e-38
-0.074448578 -0.11010001 1.1010001 1.6782106e-38
-0.072351426 -0.11010001 1.1010001 1.7704062e-38
-0.070254289 -0.11010001 1.1010001 1.4943608e-38
-0.068157144 -0.11010001 1.1010001 8.5821095e-39
-0.066060007 -0.11010001 1.1010001 2.3380315e-39
-0.063962862 -0.11010001 1.1010001 3.0755965e-39
-0.061865721 -0.11010001 1.1010001 4.4531289e-39
-0.059768576 -0.11010001 1.1010001 3.6233683e-39
-0.057671431 -0.11010001 1.1010001 5.2796204e-39
-0.05557429 -0.11010001 1.1010001 8.9674456e-39
-0.053477146 -0.11010001 1.1010001 1.4939282e-38
-0.051380005 -0.11010001 1.1010001 1.8166129e-38
-0.049461905 -0.1105 1.105 1.8161798e-38
-0.047357146 -0.1105 1.105 1.3183234e-38
-0.045252379 -0.1105 1.105 9.49798e-39
-0.04314762 -0.1105 1.105 8.1150455e-39
-0.041042857 -0.1105 1.105 8.9447585e-39
-0.03904381 -0.11080001 1.108 1.2724779e-38
-0.037066668 -0.1112 1.1120001 1.3367666e-38
-0.034948573 -0.1112 1.1120001 1.1984731e-38
-0.03283048 -0.1112 1.1120001 1.2725107e-38
-0.030795237 -0.1115 1.115 1.3647064e-38
-0.028671429 -0.1115 1.115 1.2998139e-38
-0.026738096 -0.1123 1.123 1.0601053e-38
-0.024599047 -0.1123 1.123 1.1242776e-38
-0.10831048 -0.11045524 1.126 1.4654423e-38
-0.10588286 -0.11016095 1.123 1.2076549e-38
-0.10337429 -0.10976858 1.1190001 8.3887233e-39
-0.10124286 -0.10976858 1.1190001 9.1273323e-39
-0.099111438 -0.10976858 1.1190001 1.2077592e-38
-0.096980006 -0.10976858 1.1190001 1.2445697e-38
-0.094509527 -0.10937619 1.115 1.216911e-38
-0.092385709 -0.10937619 1.115 1.189714e-38
-0.090019055 -0.10908192 1.1120001 1.3741053e-38
-0.087584764 -0.10868952 1.108 1.2544366e-38
-0.085474283 -0.10868952 1.108 1.0884845e-38
-0.083138093 -0.10839524 1.105 8.4989088e-39
-0.081033334 -0.10839524 1.105 9.2364739e-39
-0.078928567 -0.10839524 1.105 1.2636932e-38
-0.076823808 -0.10839524 1.105 1.5310605e-38
-0.074448578 -0.10800286 1.1010001 1.7516075e-38
-0.072351426 -0.10800286 1.1010001 1.7977053e-38
-0.070254289 -0.10800286 1.1010001 1.613893e-38
-0.068157144 -0.10800286 1.1010001 1.2358909e-38
-0.066060007 -0.10800286 1.1010001 5.1892885e-39
-0.063962862 -0.10800286 1.1010001 3.1609846e-39
-0.061865721 -0.10800286 1.1010001 1.7873324e-39
-0.059768576 -0.10800286 1.1010001 1.879528e-39
-0.057671431 -0.10800286 1.1010001 7.9439428e-39
-0.05557429 -0.10800286 1.1010001 1.2830311e-38
-0.053477146 -0.10800286 1.1010001 1.6871087e-38
-0.051566668 -0.10839524 1.105 1.7700848e-38
-0.049461905 -0.10839524 1.105 1.7793744e-38
-0.047357146 -0.10839524 1.105 1.5673244e-38
-0.045252379 -0.10839524 1.105 1.3091817e-38
-0.04314762 -0.10839524 1.105 8.2976445e-39
-0.041042857 -0.10839524 1.105 9.9542161e-39
-0.03904381 -0.10868952 1.108 1.5301563e-38
-0.037066668 -0.10908192 1.1120001 1.4659837e-38
-0.034948573 -0.10908192 1.1120001 8.2061425e-39
-0.032919046 -0.10937619 1.115 8.3929945e-39
-0.030905718 -0.10976858 1.1190001 1.2357407e-38
-0.028774286 -0.10976858 1.1190001 1.401012e-38
-0.026738096 -0.11016095 1.123 1.0783273e-38
-0.024599047 -0.11016095 1.123 1.0871856e-38
-0.10831048 -0.10831048 1.126 1.4931363e-38
-0.10588286 -0.10802191 1.123 1.2261303e-38
-0.10337429 -0.10763714 1.1190001 7.7437168e-39
-0.10124286 -0.10763714 1.1190001 9.2195476e-39
-0.099111438 -0.10763714 1.1190001 1.2999568e-38
-0.096980006 -0.10763714 1.1190001 1.1248596e-38
-0.094509527 -0.10725237 1.115 6.638814e-39
-0.092385709 -0.10725237 1.115 6.5548468e-39
-0.090261906 -0.10725237 1.115 1.2270976e-38
-0.087900959 -0.10696382 1.1120001 1.3740749e-38
-0.085474283 -0.10657905 1.108 1.3279771e-38
-0.083363816 -0.10657905 1.108 1.2730162e-38
-0.081033334 -0.10629047 1.105 1.4574074e-38
-0.078928567 -0.10629047 1.105 1.613603e-38
-0.076823808 -0.10629047 1.105 1.6043835e-38
-0.074719049 -0.10629047 1.105 1.5212607e-38
-0.07261429 -0.10629047 1.105 1.4843824e-38
-0.070254289 -0.10590572 1.1010001 1.5488541e-38
-0.068157144 -0.10590572 1.1010001 1.8346605e-38
-0.066060007 -0.10590572 1.1010001 1.4391178e-38
-0.064195238 -0.10629047 1.105 8.5828536e-39
-0.062090475 -0.10629047 1.105 6.108274e-39
-0.059985716 -0.10629047 1.105 9.5195123e-39
-0.057880953 -0.10629047 1.105 1.4942862e-38
-0.055776194 -0.10629047 1.105 1.7155558e-38
-0.053671427 -0.10629047 1.105 1.5860908e-38
-0.051566668 -0.10629047 1.105 1.4109191e-38
-0.049461905 -0.10629047 1.105 1.558355e-38
-0.047357146 -0.10629047 1.105 1.7427463e-38
-0.045252379 -0.10629047 1.105 1.6870384e-38
-0.04314762 -0.10629047 1.105 1.4288906e-38
-0.041154288 -0.10657905 1.108 1.4106973e-38
-0.03904381 -0.10657905 1.108 1.5397711e-38
-0.037066668 -0.10696382 1.1120001 1.2729098e-38
-0.034948573 -0.10696382 1.1120001 4.6158827e-39
-0.032919046 -0.10725237 1.115 4.7138559e-39
-0.030905718 -0.10763714 1.1190001 9.0470505e-39
-0.028774286 -0.10763714 1.1190001 1.152296e-38
-0.026738096 -0.10802191 1.123 9.8634386e-39
-0.024599047 -0.10802191 1.123 1.1517251e-38
-0.10588286 -0.10588286 1.123 1.2537887e-38
-0.10337429 -0.10550572 1.1190001 7.8359097e-39
-0.10124286 -0.10550572 1.1190001 9.2202664e-39
-0.099465713 -0.10588286 1.123 1.189394e-38
-0.096980006 -0.10550572 1.1190001 9.9621573e-39
-0.094848573 -0.10550572 1.1190001 4.4304195e-39
-0.092385709 -0.10512857 1.115 3.3369513e-39
-0.090261906 -0.10512857 1.115 8.5921022e-39
-0.087900959 -0.10484572 1.1120001 1.4015869e-38
-0.085474283 -0.10446857 1.108 1.4661238e-38
-0.083363816 -0.10446857 1.108 1.475202e-38
-0.081033334 -0.10418572 1.105 1.6503737e-38
-0.078928567 -0.10418572 1.105 1.7056545e-38
-0.076823808 -0.10418572 1.105 1.4567263e-38
-0.074719049 -0.10418572 1.105 1.2539297e-38
-0.07261429 -0.10418572 1.105 1.2447101e-38
-0.070509523 -0.10418572 1.105 1.6127373e-38
-0.068404764 -0.10418572 1.105 1.935422e-38
-0.066299997 -0.10418572 1.105 1.8163987e-38
-0.064195238 -0.10418572 1.105 1.3185423e-38
-0.062090475 -0.10418572 1.105 9.5083846e-39
-0.059985716 -0.10418572 1.105 1.3472797e-38
-0.057880953 -0.10418572 1.105 1.7241662e-38
-0.055776194 -0.10418572 1.105 1.6965075e-38
-0.053671427 -0.10418572 1.105 1.4482282e-38
-0.051566668 -0.10418572 1.105 1.1439827e-38
-0.049461905 -0.10418572 1.105 1.2820941e-38
-0.047357146 -0.10418572 1.105 1.5033636e-38
-0.045252379 -0.10418572 1.105 1.7791959e-38
-0.043264762 -0.10446857 1.108 1.7699763e-38
-0.041154288 -0.10446857 1.108 1.5032204e-38
-0.039184768 -0.10484572 1.1120001 1.1897552e-38
-0.037166666 -0.10512857 1.115 9.8721197e-39
-0.03504286 -0.10512857 1.115 4.5247731e-39
-0.033037145 -0.10550572 1.1190001 4.9007261e-39
-0.031016191 -0.10588286 1.123 7.8509862e-39
-0.028877143 -0.10588286 1.123 9.8638184e-39
-0.026809525 -0.10616572 1.126 9.7716227e-39
-0.024664761 -0.10616572 1.126 1.179491e-38
-0.10374381 -0.10374381 1.123 7.8362628e-39
-0.10160477 -0.10374381 1.123 8.0238911e-39
-0.099465713 -0.10374381 1.123 1.0052195e-38
-0.096980006 -0.10337429 1.1190001 8.398049e-39
-0.094848573 -0.10337429 1.1190001 4.894615e-39
-0.092717148 -0.10337429 1.1190001 2.6956344e-39
-0.090585716 -0.10337429 1.1190001 3.3410038e-39
-0.088138096 -0.10300476 1.115 8.6753393e-39
-0.085474283 -0.1023581 1.108 1.4022686e-38
-0.083363816 -0.1023581 1.108 1.6317908e-38
-0.081253335 -0.1023581 1.108 1.6133516e-38
-0.078928567 -0.10208096 1.105 1.3736796e-38
-0.076823808 -0.10208096 1.105 1.0141166e-38
-0.074719049 -0.10208096 1.105 9.774522e-39
-0.07261429 -0.10208096 1.105 9.774522e-39
-0.070700951 -0.1023581 1.108 1.1798831e-38
-0.068404764 -0.10208096 1.105 1.5210069e-38
-0.066299997 -0.10208096 1.105 1.6224648e-38
-0.064369529 -0.1023581 1.108 1.8437344e-38
-0.062259048 -0.1023581 1.108 1.7612953e-38
-0.060148574 -0.1023581 1.108 1.7520757e-38
-0.058038097 -0.1023581 1.108 1.5585403e-38
-0.055927619 -0.1023581 1.108 1.3557099e-38
-0.053817146 -0.1023581 1.108 1.1351591e-38
-0.051706668 -0.1023581 1.108 1.0982808e-38
-0.04959619 -0.1023581 1.108 1.1442708e-38
-0.047357146 -0.10208096 1.105 1.1442708e-38
-0.045252379 -0.10208096 1.105 1.5214402e-38
-0.043264762 -0.1023581 1.108 1.7611488e-38
-0.041154288 -0.1023581 1.108 1.5859446e-38
-0.039184768 -0.10272763 1.1120001 9.1291652e-39
-0.037166666 -0.10300476 1.115 3.8005344e-39
-0.035168573 -0.10337429 1.1190001 3.0629694e-39
-0.033037145 -0.10337429 1.1190001 5.8201909e-39
-0.031099049 -0.10402096 1.126 8.770451e-39
-0.028954286 -0.10402096 1.126 1.0050731e-38
-0.026904762 -0.10439047 1.13 9.5897524e-39
-0.024840001 -0.10476001 1.1340001 1.1427213e-38
-0.022680001 -0.10476001 1.1340001 1.3455517e-38
-0.10374381 -0.10160477 1.123 8.6656577e-39
-0.10160477 -0.10160477 1.123 7.3799384e-39
-0.10008571 -0.1022381 1.13 9.4082422e-39
-0.097586669 -0.10187619 1.126 7.2009701e-39
-0.095187619 -0.10160477 1.123 5.1726663e-39
-0.093048573 -0.10160477 1.123 2.144976e-39
-0.090585716 -0.10124286 1.1190001 1.4996066e-39
-0.088138096 -0.10088095 1.115 5.3616888e-39
-0.085782863 -0.10060953 1.1120001 1.3013926e-38
-0.083664767 -0.10060953 1.1120001 1.5767986e-38
-0.081253335 -0.10024762 1.108 1.4200661e-38
-0.079142861 -0.10024762 1.108 1.1067779e-38
-0.07703238 -0.10024762 1.108 9.316062e-39
-0.074921906 -0.10024762 1.108 9.9578413e-39
-0.072811432 -0.10024762 1.108 1.0234428e-38
-0.070700951 -0.10024762 1.108 1.0418066e-38
-0.068590477 -0.10024762 1.108 1.1801e-38
-0.066480003 -0.10024762 1.108 1.5116092e-38
-0.064369529 -0.10024762 1.108 1.9910265e-38
-0.062259048 -0.10024762 1.108 1.9361092e-38
-0.060148574 -0.10024762 1.108 1.7701571e-38
-0.058038097 -0.10024762 1.108 1.3656119e-38
-0.055927619 -0.10024762 1.108 1.1443424e-38
-0.053817146 -0.10024762 1.108 1.0617266e-38
-0.051706668 -0.10024762 1.108 1.1078244e-38
-0.04959619 -0.10024762 1.108 1.0800578e-38
-0.047485713 -0.10024762 1.108 1.0063013e-38
-0.045375239 -0.10024762 1.108 1.2822007e-38
-0.043264762 -0.10024762 1.108 1.6417637e-38
-0.04130286 -0.10060953 1.1120001 1.5309516e-38
-0.039290477 -0.10088095 1.115 7.0119097e-39
-0.037166666 -0.10088095 1.115 2.5151808e-39
-0.035168573 -0.10124286 1.1190001 2.7917677e-39
-0.033243813 -0.10187619 1.126 6.0034961e-39
-0.031099049 -0.10187619 1.126 9.1381475e-39
-0.028954286 -0.10187619 1.126 1.0512788e-38
-0.026904762 -0.1022381 1.13 9.9596139e-39
-0.024840001 -0.1026 1.1340001 1.1889608e-38
-0.022680001 -0.1026 1.1340001 1.3456934e-38
-0.1026 -0.10044 1.1340001 9.3124621e-39
-0.10008571 -0.10008571 1.13 1.1801744e-38
-0.097933337 -0.10008571 1.13 9.4121981e-39
-0.095441908 -0.09973143 1.126 4.8024166e-39
-0.093048573 -0.099465713 1.123 1.4102934e-39
-0.090585716 -0.099111438 1.1190001 1.502489e-39
-0.088138096 -0.09875714 1.115 4.1664429e-39
-0.085782863 -0.098491438 1.1120001 1.0159159e-38
-0.083664767 -0.098491438 1.1120001 1.3925481e-38
-0.081546672 -0.098491438 1.1120001 1.097522e-38
-0.079428576 -0.098491438 1.1120001 9.0384087e-39
-0.077310488 -0.098491438 1.1120001 9.8681694e-39
-0.074921906 -0.098137148 1.108 1.0880166e-38
-0.072811432 -0.098137148 1.108 1.0972362e-38
-0.070700951 -0.098137148 1.108 1.1155674e-38
-0.068590477 -0.098137148 1.108 1.0418109e-38
-0.066480003 -0.098137148 1.108 9.9567623e-39
-0.064369529 -0.098137148 1.108 1.6502652e-38
-0.062259048 -0.098137148 1.108 1.7704079e-38
-0.060148574 -0.098137148 1.108 1.4846015e-38
-0.058038097 -0.098137148 1.108 1.1535995e-38
-0.055927619 -0.098137148 1.108 1.162819e-38
-0.053817146 -0.098137148 1.108 1.1445231e-38
-0.051706668 -0.098137148 1.108 1.1537427e-38
-0.04959619 -0.098137148 1.108 1.1169716e-38
-0.047485713 -0.098137148 1.108 1.0432151e-38
-0.045539051 -0.098491438 1.1120001 1.2820588e-38
-0.043420956 -0.098491438 1.1120001 1.613963e-38
-0.041414287 -0.09875714 1.115 1.5034342e-38
-0.039290477 -0.09875714 1.115 6.1835616e-39
-0.037300002 -0.099111438 1.1190001 1.1369379e-39
-0.035294287 -0.099465713 1.123 9.5254664e-40
-0.033243813 -0.09973143 1.126 6.3712151e-39
-0.031209525 -0.10008571 1.13 1.070441e-38
-0.029057143 -0.10008571 1.13 1.2446738e-38
-0.027000003 -0.10044 1.1340001 1.1432586e-38
-0.024840001 -0.10044 1.1340001 1.2441363e-38
-0.022680001 -0.10044 1.1340001 1.3455514e-38
-0.020520002 -0.10044 1.1340001 1.373099e-38
-0.1026 -0.098280005 1.1340001 1.0689986e-38
-0.10044 -0.098280005 1.1340001 1.2810486e-38
-0.097933337 -0.097933337 1.13 1.0147986e-38
-0.095441908 -0.097586669 1.126 5.9069873e-39
-0.093048573 -0.097326666 1.123 1.318095e-39
-0.090909526 -0.097326666 1.123 1.2258993e-39
-0.088454291 -0.096980006 1.1190001 1.7761963e-39
-0.086014286 -0.096633337 1.115 9.059651e-39
-0.083664767 -0.096373342 1.1120001 1.3281931e-38
-0.081546672 -0.096373342 1.1120001 1.1253628e-38
-0.079428576 -0.096373342 1.1120001 8.8543706e-39
-0.077310488 -0.096373342 1.1120001 9.5919356e-39
-0.074921906 -0.096026666 1.108 1.0972359e-38
-0.072811432 -0.096026666 1.108 1.115675e-38
-0.070700951 -0.096026666 1.108 1.1063829e-38
-0.068838097 -0.096373342 1.1120001 1.0326264e-38
-0.066480003 -0.096026666 1.108 8.672831e-39
-0.064369529 -0.096026666 1.108 1.586409e-38
-0.062259048 -0.096026666 1.108 1.6785385e-38
-0.060148574 -0.096026666 1.108 1.4296103e-38
-0.058038097 -0.096026666 1.108 1.0433956e-38
-0.055927619 -0.096026666 1.108 1.0802739e-38
-0.053817146 -0.096026666 1.108 1.1445582e-38
-0.051706668 -0.096026666 1.108 1.1353386e-38
-0.049775243 -0.096373342 1.1120001 1.1077521e-38
-0.047657147 -0.096373342 1.1120001 1.0432151e-38
-0.045539051 -0.096373342 1.1120001 1.2912433e-38
-0.043538094 -0.096633337 1.115 1.6047084e-38
-0.041414287 -0.096633337 1.115 1.5126194e-38
-0.039290477 -0.096633337 1.115 8.0271309e-39
-0.037300002 -0.096980006 1.1190001 2.3300959e-39
-0.035294287 -0.097326666 1.123 2.3300959e-39
-0.033243813 -0.097586669 1.126 7.8452605e-39
-0.031209525 -0.097933337 1.13 1.0795521e-38
-0.029057143 -0.097933337 1.13 1.2997374e-38
-0.027000003 -0.098280005 1.1340001 1.2905178e-38
-0.024840001 -0.098280005 1.1340001 1.3179621e-38
-0.022680001 -0.098280005 1.1340001 1.3364012e-38
-0.020520002 -0.098280005 1.1340001 1.3731342e-38
-0.10296191 -0.096459046 1.138 1.0047879e-38
-0.10044 -0.09612 1.1340001 1.0416661e-38
-0.098280005 -0.09612 1.1340001 9.7763213e-39
-0.095780954 -0.095780954 1.13 9.7763213e-39
-0.093297146 -0.095441908 1.126 6.2851249e-39
-0.090909526 -0.095187619 1.123 3.7036473e-39
-0.088454291 -0.094848573 1.1190001 6.9258056e-39
-0.086014286 -0.094509527 1.115 1.33795e-38
-0.083890475 -0.094509527 1.115 1.558214e-38
-0.081766672 -0.094509527 1.115 1.5121162e-38
-0.079428576 -0.094255246 1.1120001 1.2265266e-38
-0.077310488 -0.094255246 1.1120001 9.2228098e-39
-0.074921906 -0.093916193 1.108 9.4071912e-39
-0.072811432 -0.093916193 1.108 1.0052561e-38
-0.070700951 -0.093916193 1.108 1.0418459e-38
-0.068838097 -0.094255246 1.1120001 1.1063829e-38
-0.066720009 -0.094255246 1.1120001 1.1431933e-38
-0.064369529 -0.093916193 1.108 1.7793431e-38
-0.062259048 -0.093916193 1.108 1.7980672e-38
-0.060148574 -0.093916193 1.108 1.6689933e-38
-0.058038097 -0.093916193 1.108 1.291785e-38
-0.056129526 -0.094255246 1.1120001 1.1258329e-38
-0.054011434 -0.094255246 1.1120001 1.0342474e-38
-0.051893339 -0.094255246 1.1120001 1.043467e-38
-0.049775243 -0.094255246 1.1120001 1.1720361e-38
-0.047657147 -0.094255246 1.1120001 1.2918904e-38
-0.045661904 -0.094509527 1.115 1.5399897e-38
-0.043538094 -0.094509527 1.115 1.6137462e-38
-0.041414287 -0.094509527 1.115 1.6044178e-38
-0.03943143 -0.094848573 1.1190001 1.5030026e-38
-0.037300002 -0.094848573 1.1190001 1.1532029e-38
-0.03538857 -0.095441908 1.126 9.1349428e-39
-0.033361904 -0.095780954 1.13 9.6891857e-39
-0.031320002 -0.09612 1.1340001 9.6891857e-39
-0.029160002 -0.09612 1.1340001 1.1435055e-38
-0.027000003 -0.09612 1.1340001 1.2357011e-38
-0.024840001 -0.09612 1.1340001 1.3824621e-38
-0.022680001 -0.09612 1.1340001 1.4101208e-38
-0.020520002 -0.09612 1.1340001 1.4100478e-38
-0.10296191 -0.094291434 1.138 1.1062364e-38
-0.10079429 -0.094291434 1.138 9.1262561e-39
-0.098280005 -0.093960002 1.1340001 9.2216495e-39
-0.095780954 -0.09362857 1.13 1.1065562e-38
-0.093297146 -0.093297146 1.126 8.581734e-39
-0.090909526 -0.093048573 1.123 6.7378214e-39
-0.088454291 -0.092717148 1.1190001 1.0420977e-38
-0.086014286 -0.092385709 1.115 1.5030759e-38
-0.083890475 -0.092385709 1.115 1.6776358e-38
-0.081766672 -0.092385709 1.115 1.6223184e-38
-0.079642855 -0.092385709 1.115 1.4661639e-38
-0.077310488 -0.09213715 1.1120001 1.1434792e-38
-0.075192392 -0.09213715 1.1120001 8.5788725e-39
-0.073074289 -0.09213715 1.1120001 8.8554594e-39
-0.070956193 -0.09213715 1.1120001 1.0234403e-38
-0.068838097 -0.09213715 1.1120001 1.2354902e-38
-0.066720009 -0.09213715 1.1120001 1.5850483e-38
-0.064601913 -0.09213715 1.1120001 1.9077331e-38
-0.062259048 -0.091805719 1.108 1.8530943e-38
-0.060148574 -0.091805719 1.108 1.7977769e-38
-0.058247626 -0.09213715 1.1120001 1.5220207e-38
-0.056129526 -0.09213715 1.1120001 1.2730925e-38
-0.054011434 -0.09213715 1.1120001 1.0434672e-38
-0.051893339 -0.09213715 1.1120001 1.0158085e-38
-0.049775243 -0.09213715 1.1120001 1.2179184e-38
-0.047785714 -0.092385709 1.115 1.4760661e-38
-0.045661904 -0.092385709 1.115 1.6688844e-38
-0.043538094 -0.092385709 1.115 1.466054e-38
-0.041562859 -0.092717148 1.1190001 1.4933482e-38
-0.03943143 -0.092717148 1.1190001 1.6500808e-38
-0.037300002 -0.092717148 1.1190001 1.5305556e-38
-0.035294287 -0.093048573 1.123 1.3646035e-38
-0.033480003 -0.093960002 1.1340001 9.9697285e-39
-0.031320002 -0.093960002 1.1340001 7.0194683e-39
-0.029160002 -0.093960002 1.1340001 9.2227285e-39
-0.027000003 -0.093960002 1.1340001 1.2080793e-38
-0.024840001 -0.093960002 1.1340001 1.4008659e-38
-0.022680001 -0.093960002 1.1340001 1.419305e-38
