# .PCD v0.7 - Point Cloud Data file format
VERSION 0.7
FIELDS x y z rgb
SIZE 4 4 4 4
TYPE F F F F
COUNT 1 1 1 1
WIDTH 980
HEIGHT 1
VIEWPOINT 0 0 0 1 0 0 0
POINTS 980
DATA ascii
-0.05675238 -0.097152382 1.01 1.5484187e-38
-0.054828569 -0.097152382 1.01 1.5391991e-38
-0.053061903 -0.097440958 1.013 1.5576723e-38
-0.11094762 -0.095511429 1.013 1.6405762e-38
-0.10901809 -0.095511429 1.013 1.6958936e-38
-0.10708857 -0.095511429 1.013 1.7327368e-38
-0.10547048 -0.095794283 1.016 1.7419564e-38
-0.08883334 -0.096642859 1.0250001 1.8619905e-38
-0.08688096 -0.096642859 1.0250001 1.87121e-38
-0.08492858 -0.096642859 1.0250001 1.8620268e-38
-0.0829762 -0.096642859 1.0250001 1.8896855e-38
-0.081023812 -0.096642859 1.0250001 1.9081609e-38
-0.07907144 -0.096642859 1.0250001 1.8897217e-38
-0.076893337 -0.096360005 1.0220001 1.8436595e-38
-0.074946672 -0.096360005 1.0220001 1.83444e-38
-0.073000006 -0.096360005 1.0220001 1.8343681e-38
-0.071053334 -0.096360005 1.0220001 1.8251485e-38
-0.069106668 -0.096360005 1.0220001 1.7883066e-38
-0.067160003 -0.096360005 1.0220001 1.7606479e-38
-0.06502191 -0.096077144 1.0190001 1.7512844e-38
-0.063080952 -0.096077144 1.0190001 1.7328453e-38
-0.061140005 -0.096077144 1.0190001 1.6960033e-38
-0.058850475 -0.095511429 1.013 1.6775642e-38
-0.05675238 -0.095228568 1.01 1.6683443e-38
-0.054828569 -0.095228568 1.01 1.6499052e-38
-0.052904762 -0.095228568 1.01 1.6222105e-38
-0.050980952 -0.095228568 1.01 1.6129909e-38
-0.049057141 -0.095228568 1.01 1.5852954e-38
-0.046853337 -0.09466286 1.0040001 1.5668563e-38
-0.044940956 -0.09466286 1.0040001 1.566855e-38
-0.043028574 -0.09466286 1.0040001 1.5852941e-38
-0.1202381 -0.093304761 1.01 1.8803943e-38
-0.11831428 -0.093304761 1.01 1.861992e-38
-0.11673619 -0.093581907 1.013 1.8343333e-38
-0.11480667 -0.093581907 1.013 1.8157504e-38
-0.11254285 -0.093304761 1.01 1.8065309e-38
-0.11061905 -0.093304761 1.01 1.7789428e-38
-0.10869523 -0.093304761 1.01 1.7973819e-38
-0.10708857 -0.093581907 1.013 1.7790497e-38
-0.10547048 -0.093859047 1.016 1.815928e-38
-0.10384095 -0.094136193 1.0190001 1.8160008e-38
-0.1019 -0.094136193 1.0190001 1.8805378e-38
-0.10025334 -0.09441334 1.0220001 1.8712826e-38
-0.098306671 -0.09441334 1.0220001 1.8897217e-38
-0.096360005 -0.09441334 1.0220001 1.8896867e-38
-0.09441334 -0.09441334 1.0220001 1.9081258e-38
-0.092738099 -0.094690487 1.0250001 1.889722e-38
-0.090785727 -0.094690487 1.0250001 1.9081612e-38
-0.08883334 -0.094690487 1.0250001 1.889722e-38
-0.08688096 -0.094690487 1.0250001 1.889722e-38
-0.08492858 -0.094690487 1.0250001 1.8989413e-38
-0.0829762 -0.094690487 1.0250001 1.9173804e-38
-0.081023812 -0.094690487 1.0250001 1.8990132e-38
-0.07907144 -0.094690487 1.0250001 1.8897936e-38
-0.076893337 -0.09441334 1.0220001 1.8897936e-38
-0.074946672 -0.09441334 1.0220001 1.9082328e-38
-0.073000006 -0.09441334 1.0220001 1.8528798e-38
-0.071053334 -0.09441334 1.0220001 1.8344407e-38
-0.069106668 -0.09441334 1.0220001 1.8344044e-38
-0.067160003 -0.09441334 1.0220001 1.8251848e-38
-0.06502191 -0.094136193 1.0190001 1.7975264e-38
-0.063080952 -0.094136193 1.0190001 1.8251851e-38
-0.061140005 -0.094136193 1.0190001 1.7790159e-38
-0.058850475 -0.093581907 1.013 1.7882355e-38
-0.056920953 -0.093581907 1.013 1.7514286e-38
-0.054828569 -0.093304761 1.01 1.7514286e-38
-0.052904762 -0.093304761 1.01 1.7052952e-38
-0.050980952 -0.093304761 1.01 1.6684169e-38
-0.048911434 -0.093027629 1.0070001 1.6406481e-38
-0.046853337 -0.092750482 1.0040001 1.6314285e-38
-0.044940956 -0.092750482 1.0040001 1.6313922e-38
-0.043028574 -0.092750482 1.0040001 1.6406118e-38
-0.040870477 -0.092196189 0.99800003 1.6314288e-38
-0.038969524 -0.092196189 0.99800003 1.6314288e-38
-0.037068572 -0.092196189 0.99800003 1.6130607e-38
-0.12334858 -0.090838097 1.0040001 1.8617759e-38
-0.1214362 -0.090838097 1.0040001 1.9081249e-38
-0.1202381 -0.091380946 1.01 1.8712466e-38
-0.11831428 -0.091380946 1.01 1.8712466e-38
-0.11639047 -0.091380946 1.01 1.8435879e-38
-0.11446667 -0.091380946 1.01 1.8157857e-38
-0.11254285 -0.091380946 1.01 1.8065662e-38
-0.11061905 -0.091380946 1.01 1.7605756e-38
-0.10869523 -0.091380946 1.01 1.751356e-38
-0.10708857 -0.091652378 1.013 1.7146567e-38
-0.10547048 -0.091923811 1.016 1.7699741e-38
-0.10353524 -0.091923811 1.016 1.7607918e-38
-0.1019 -0.092195243 1.0190001 1.8253287e-38
-0.099959053 -0.092195243 1.0190001 1.816181e-38
-0.098018102 -0.092195243 1.0190001 1.8254006e-38
-0.096360005 -0.092466667 1.0220001 1.8161457e-38
-0.09441334 -0.092466667 1.0220001 1.8345849e-38
-0.092738099 -0.092738099 1.0250001 1.8254009e-38
-0.090785727 -0.092738099 1.0250001 1.84384e-38
-0.08883334 -0.092738099 1.0250001 1.7884873e-38
-0.08688096 -0.092738099 1.0250001 1.8345851e-38
-0.08492858 -0.092738099 1.0250001 1.8437681e-38
-0.0829762 -0.092738099 1.0250001 1.8622072e-38
-0.081023812 -0.092738099 1.0250001 1.8530596e-38
-0.07907144 -0.092738099 1.0250001 1.8530596e-38
-0.077119052 -0.092738099 1.0250001 1.8161813e-38
-0.075166672 -0.092738099 1.0250001 1.8530596e-38
-0.073000006 -0.092466667 1.0220001 1.8069262e-38
-0.071053334 -0.092466667 1.0220001 1.7977066e-38
-0.069106668 -0.092466667 1.0220001 1.7976703e-38
-0.067160003 -0.092466667 1.0220001 1.7884507e-38
-0.065213338 -0.092466667 1.0220001 1.7515728e-38
-0.063266672 -0.092466667 1.0220001 1.7700119e-38
-0.061319999 -0.092466667 1.0220001 1.7422456e-38
-0.059024762 -0.091923811 1.016 1.7514652e-38
-0.056920953 -0.091652378 1.013 1.7145866e-38
-0.054991428 -0.091652378 1.013 1.7053671e-38
-0.052904762 -0.091380946 1.01 1.6592339e-38
-0.050980952 -0.091380946 1.01 1.6407948e-38
-0.048765715 -0.090838097 1.0040001 1.613062e-38
-0.046853337 -0.090838097 1.0040001 1.6038424e-38
-0.044806667 -0.090566665 1.001 1.6222092e-38
-0.042771429 -0.09029524 0.99800003 1.6222092e-38
-0.040870477 -0.09029524 0.99800003 1.6313566e-38
-0.038969524 -0.09029524 0.99800003 1.6405762e-38
-0.037068572 -0.09029524 0.99800003 1.6221727e-38
-0.12334858 -0.088925719 1.0040001 1.8342274e-38
-0.1214362 -0.088925719 1.0040001 1.723663e-38
-0.11952382 -0.088925719 1.0040001 1.6775652e-38
-0.11831428 -0.089457139 1.01 1.6775992e-38
-0.11639047 -0.089457139 1.01 1.6868188e-38
-0.11446667 -0.089457139 1.01 1.6775992e-38
-0.11254285 -0.089457139 1.01 1.6775992e-38
-0.11061905 -0.089457139 1.01 1.6776002e-38
-0.10869523 -0.089457139 1.01 1.7052589e-38
-0.10708857 -0.089722857 1.013 1.6962169e-38
-0.10547048 -0.089988574 1.016 1.7699734e-38
-0.10353524 -0.089988574 1.016 1.7607195e-38
-0.1019 -0.090254292 1.0190001 1.8068173e-38
-0.099959053 -0.090254292 1.0190001 1.7977056e-38
-0.098018102 -0.090254292 1.0190001 1.8161447e-38
-0.096360005 -0.090520002 1.0220001 1.8161094e-38
-0.09441334 -0.090520002 1.0220001 1.8161094e-38
-0.092738099 -0.090785727 1.0250001 1.8253293e-38
-0.090785727 -0.090785727 1.0250001 1.8714271e-38
-0.08883334 -0.090785727 1.0250001 1.8437681e-38
-0.08688096 -0.090785727 1.0250001 1.8345486e-38
-0.08492858 -0.090785727 1.0250001 1.8345488e-38
-0.0829762 -0.090785727 1.0250001 1.8437684e-38
-0.081023812 -0.090785727 1.0250001 1.8529877e-38
-0.07907144 -0.090785727 1.0250001 1.8714268e-38
-0.077119052 -0.090785727 1.0250001 1.8437681e-38
-0.075166672 -0.090785727 1.0250001 1.8622072e-38
-0.073214293 -0.090785727 1.0250001 1.825329e-38
-0.071053334 -0.090520002 1.0220001 1.825329e-38
-0.069106668 -0.090520002 1.0220001 1.8068896e-38
-0.067160003 -0.090520002 1.0220001 1.7884505e-38
-0.065213338 -0.090520002 1.0220001 1.7700119e-38
-0.063266672 -0.090520002 1.0220001 1.7792315e-38
-0.061319999 -0.090520002 1.0220001 1.7514649e-38
-0.059024762 -0.089988574 1.016 1.7514649e-38
-0.056920953 -0.089722857 1.013 1.7145866e-38
-0.054991428 -0.089722857 1.013 1.6961475e-38
-0.052904762 -0.089457139 1.01 1.6224633e-38
-0.050980952 -0.089457139 1.01 1.6224633e-38
-0.048765715 -0.088925719 1.0040001 1.6222818e-38
-0.046853337 -0.088925719 1.0040001 1.576184e-38
-0.044806667 -0.088660002 1.001 1.5483468e-38
-0.042771429 -0.088394284 0.99800003 1.5206881e-38
-0.040870477 -0.088394284 0.99800003 1.5759316e-38
-0.038969524 -0.088394284 0.99800003 1.6681273e-38
-0.037068572 -0.088394284 0.99800003 1.6681969e-38
-0.12334858 -0.087013341 1.0040001 1.7606491e-38
-0.1214362 -0.087013341 1.0040001 1.6407935e-38
-0.11952382 -0.087013341 1.0040001 1.6223544e-38
-0.11831428 -0.087533325 1.01 1.6315011e-38
-0.11639047 -0.087533325 1.01 1.6407207e-38
-0.11446667 -0.087533325 1.01 1.631538e-38
-0.11254285 -0.087533325 1.01 1.6591967e-38
-0.11061905 -0.087533325 1.01 1.6684522e-38
-0.10869523 -0.087533325 1.01 1.6868914e-38
-0.10708857 -0.087793328 1.013 1.6961099e-38
-0.10547048 -0.088053331 1.016 1.7883056e-38
-0.10353524 -0.088053331 1.016 1.769939e-38
-0.1019 -0.088313334 1.0190001 1.8068173e-38
-0.099959053 -0.088313334 1.0190001 1.7977056e-38
-0.098018102 -0.088313334 1.0190001 1.8161447e-38
-0.096360005 -0.088573337 1.0220001 1.8344763e-38
-0.09441334 -0.088573337 1.0220001 1.8436958e-38
-0.092738099 -0.08883334 1.0250001 1.8253293e-38
-0.090785727 -0.08883334 1.0250001 1.8714271e-38
-0.08883334 -0.08883334 1.0250001 1.8529877e-38
-0.08688096 -0.08883334 1.0250001 1.8437681e-38
-0.08492858 -0.08883334 1.0250001 1.8528801e-38
-0.0829762 -0.08883334 1.0250001 1.8620996e-38
-0.081023812 -0.08883334 1.0250001 1.8621719e-38
-0.07907144 -0.08883334 1.0250001 1.8713915e-38
-0.077119052 -0.08883334 1.0250001 1.825329e-38
-0.075166672 -0.08883334 1.0250001 1.8345486e-38
-0.073214293 -0.08883334 1.0250001 1.8345486e-38
-0.071261905 -0.08883334 1.0250001 1.8345486e-38
-0.069106668 -0.088573337 1.0220001 1.8069618e-38
-0.067160003 -0.088573337 1.0220001 1.7977422e-38
-0.065213338 -0.088573337 1.0220001 1.7792312e-38
-0.063266672 -0.088573337 1.0220001 1.7792312e-38
-0.061319999 -0.088573337 1.0220001 1.7606126e-38
-0.05919905 -0.088313334 1.0190001 1.7606126e-38
-0.057089522 -0.088053331 1.016 1.7145863e-38
-0.054991428 -0.087793328 1.013 1.6869277e-38
-0.052904762 -0.087533325 1.01 1.6316103e-38
-0.050980952 -0.087533325 1.01 1.6316103e-38
-0.048911434 -0.087273337 1.0070001 1.6222816e-38
-0.046853337 -0.087013341 1.0040001 1.5669642e-38
-0.044806667 -0.086753339 1.001 1.5391979e-38
-0.042771429 -0.086493336 0.99800003 1.5023196e-38
-0.040870477 -0.086493336 0.99800003 1.5483433e-38
-0.038969524 -0.086493336 0.99800003 1.6589781e-38
-0.037068572 -0.086493336 0.99800003 1.6773812e-38
-0.12334858 -0.085100956 1.0040001 1.4840262e-38
-0.1214362 -0.085100956 1.0040001 1.5300509e-38
-0.11988096 -0.085355245 1.0070001 1.6038074e-38
-0.11831428 -0.085609525 1.01 1.6129904e-38
-0.11639047 -0.085609525 1.01 1.6775273e-38
-0.11446667 -0.085609525 1.01 1.6683812e-38
-0.11287715 -0.085863806 1.013 1.6960399e-38
-0.11094762 -0.085863806 1.013 1.6777081e-38
-0.10901809 -0.085863806 1.013 1.7330255e-38
-0.10740571 -0.086118095 1.016 1.7330964e-38
-0.10547048 -0.086118095 1.016 1.7791942e-38
-0.10384095 -0.086372383 1.0190001 1.7791586e-38
-0.1019 -0.086372383 1.0190001 1.8160368e-38
-0.099959053 -0.086372383 1.0190001 1.8160371e-38
-0.098018102 -0.086372383 1.0190001 1.8252567e-38
-0.096360005 -0.086626671 1.0220001 1.8253287e-38
-0.09441334 -0.086626671 1.0220001 1.8253287e-38
-0.092738099 -0.08688096 1.0250001 1.8253293e-38
-0.090785727 -0.08688096 1.0250001 1.8714271e-38
-0.08883334 -0.08688096 1.0250001 1.8806461e-38
-0.08688096 -0.08688096 1.0250001 1.8898657e-38
-0.08492858 -0.08688096 1.0250001 1.8622072e-38
-0.0829762 -0.08688096 1.0250001 1.8714268e-38
-0.081023812 -0.08688096 1.0250001 1.8898309e-38
-0.07907144 -0.08688096 1.0250001 1.8898309e-38
-0.077119052 -0.08688096 1.0250001 1.8437328e-38
-0.075166672 -0.08688096 1.0250001 1.8252937e-38
-0.073214293 -0.08688096 1.0250001 1.8345486e-38
-0.071261905 -0.08688096 1.0250001 1.8437681e-38
-0.069106668 -0.086626671 1.0220001 1.8068899e-38
-0.067160003 -0.086626671 1.0220001 1.7976703e-38
-0.065213338 -0.086626671 1.0220001 1.7975624e-38
-0.063266672 -0.086626671 1.0220001 1.7975624e-38
-0.061319999 -0.086626671 1.0220001 1.7514646e-38
-0.05919905 -0.086372383 1.0190001 1.742245e-38
-0.057089522 -0.086118095 1.016 1.7329892e-38
-0.054991428 -0.085863806 1.013 1.7053305e-38
-0.052904762 -0.085609525 1.01 1.6408301e-38
-0.050980952 -0.085609525 1.01 1.6131714e-38
-0.048911434 -0.085355245 1.0070001 1.6223171e-38
-0.046853337 -0.085100956 1.0040001 1.5485606e-38
-0.044806667 -0.084846668 1.001 1.5300149e-38
-0.042771429 -0.08459238 0.99800003 1.4654779e-38
-0.040870477 -0.08459238 0.99800003 1.4932051e-38
-0.038969524 -0.08459238 0.99800003 1.6038399e-38
-0.037068572 -0.08459238 0.99800003 1.6313896e-38
-0.12179905 -0.083437152 1.0070001 1.5208657e-38
-0.11988096 -0.083437152 1.0070001 1.6222808e-38
-0.11831428 -0.083685718 1.01 1.6222455e-38
-0.11639047 -0.083685718 1.01 1.6775629e-38
-0.11446667 -0.083685718 1.01 1.6683809e-38
-0.11287715 -0.083934292 1.013 1.6960396e-38
-0.11094762 -0.083934292 1.013 1.6777081e-38
-0.10934096 -0.084182858 1.016 1.7330255e-38
-0.10740571 -0.084182858 1.016 1.7238412e-38
-0.10578191 -0.084431432 1.0190001 1.7791586e-38
-0.10384095 -0.084431432 1.0190001 1.7791586e-38
-0.1019 -0.084431432 1.0190001 1.8068173e-38
-0.10025334 -0.084680006 1.0220001 1.8068176e-38
-0.098306671 -0.084680006 1.0220001 1.8344763e-38
-0.096360005 -0.084680006 1.0220001 1.8436602e-38
-0.09441334 -0.084680006 1.0220001 1.8528798e-38
-0.092738099 -0.08492858 1.0250001 1.8345486e-38
-0.090785727 -0.08492858 1.0250001 1.8622072e-38
-0.08883334 -0.08492858 1.0250001 1.862207e-38
-0.08688096 -0.08492858 1.0250001 1.8806461e-38
-0.085177138 -0.085177138 1.028 1.8714268e-38
-0.083219044 -0.085177138 1.028 1.8714268e-38
-0.081023812 -0.08492858 1.0250001 1.8713915e-38
-0.07907144 -0.08492858 1.0250001 1.8806111e-38
-0.077119052 -0.08492858 1.0250001 1.8714268e-38
-0.075166672 -0.08492858 1.0250001 1.8622072e-38
-0.073214293 -0.08492858 1.0250001 1.8346204e-38
-0.071261905 -0.08492858 1.0250001 1.8254009e-38
-0.069106668 -0.084680006 1.0220001 1.7884507e-38
-0.067160003 -0.084680006 1.0220001 1.7976703e-38
-0.065213338 -0.084680006 1.0220001 1.7884505e-38
-0.063266672 -0.084680006 1.0220001 1.7792309e-38
-0.061319999 -0.084680006 1.0220001 1.7514649e-38
-0.05919905 -0.084431432 1.0190001 1.7330257e-38
-0.057089522 -0.084182858 1.016 1.742209e-38
-0.054991428 -0.083934292 1.013 1.7053308e-38
-0.052904762 -0.083685718 1.01 1.6684875e-38
-0.050980952 -0.083685718 1.01 1.6408289e-38
-0.048911434 -0.083437152 1.0070001 1.6406844e-38
-0.046853337 -0.083188578 1.0040001 1.5669279e-38
-0.044806667 -0.082940005 1.001 1.5300849e-38
-0.042771429 -0.082691431 0.99800003 1.5024263e-38
-0.040870477 -0.082691431 0.99800003 1.4932433e-38
-0.038969524 -0.082691431 0.99800003 1.5762193e-38
-0.037068572 -0.082691431 0.99800003 1.5945487e-38
-0.12179905 -0.081519052 1.0070001 1.5576723e-38
-0.11988096 -0.081519052 1.0070001 1.6406484e-38
-0.11831428 -0.081761904 1.01 1.640614e-38
-0.11639047 -0.081761904 1.01 1.6774923e-38
-0.11446667 -0.081761904 1.01 1.6591967e-38
-0.11254285 -0.081761904 1.01 1.6960749e-38
-0.11094762 -0.082004763 1.013 1.6869632e-38
-0.10901809 -0.082004763 1.013 1.7330611e-38
-0.10740571 -0.082247622 1.016 1.7330608e-38
-0.10578191 -0.082490481 1.0190001 1.7791586e-38
-0.10384095 -0.082490481 1.0190001 1.7791586e-38
-0.1022 -0.082733333 1.0220001 1.8068173e-38
-0.10025334 -0.082733333 1.0220001 1.806782e-38
-0.098306671 -0.082733333 1.0220001 1.8344407e-38
-0.096360005 -0.082733333 1.0220001 1.825329e-38
-0.09441334 -0.082733333 1.0220001 1.8437681e-38
-0.093009517 -0.083219044 1.028 1.8437678e-38
-0.091051422 -0.083219044 1.028 1.862207e-38
-0.089093328 -0.083219044 1.028 1.8622426e-38
-0.087135233 -0.083219044 1.028 1.8714621e-38
-0.085177138 -0.083219044 1.028 1.8897936e-38
-0.083219044 -0.083219044 1.028 1.8990132e-38
-0.081260949 -0.083219044 1.028 1.8714265e-38
-0.07907144 -0.0829762 1.0250001 1.8529874e-38
-0.077119052 -0.0829762 1.0250001 1.8714621e-38
-0.075166672 -0.0829762 1.0250001 1.8806817e-38
-0.073214293 -0.0829762 1.0250001 1.8437678e-38
-0.071261905 -0.0829762 1.0250001 1.8345483e-38
-0.069309533 -0.0829762 1.0250001 1.8252567e-38
-0.067357145 -0.0829762 1.0250001 1.8344763e-38
-0.065213338 -0.082733333 1.0220001 1.7792309e-38
-0.063266672 -0.082733333 1.0220001 1.7700113e-38
-0.061319999 -0.082733333 1.0220001 1.7606481e-38
-0.05919905 -0.082490481 1.0190001 1.7329895e-38
-0.057089522 -0.082247622 1.016 1.742209e-38
-0.055154286 -0.082247622 1.016 1.6868916e-38
-0.053061903 -0.082004763 1.013 1.668451e-38
-0.050980952 -0.081761904 1.01 1.6315727e-38
-0.049057141 -0.081761904 1.01 1.603878e-38
-0.046853337 -0.081276193 1.0040001 1.520902e-38
-0.044806667 -0.081033342 1.001 1.5393048e-38
-0.0429 -0.081033342 1.001 1.6499395e-38
-0.040993337 -0.081033342 1.001 1.6683794e-38
-0.038969524 -0.080790475 0.99800003 1.5854033e-38
-0.037068572 -0.080790475 0.99800003 1.5484515e-38
-0.12334858 -0.079363815 1.0040001 1.5944064e-38
-0.1214362 -0.079363815 1.0040001 1.5668919e-38
-0.11988096 -0.07960096 1.0070001 1.6406484e-38
-0.11831428 -0.079838097 1.01 1.6406496e-38
-0.11639047 -0.079838097 1.01 1.6775279e-38
-0.11446667 -0.079838097 1.01 1.6591964e-38
-0.11254285 -0.079838097 1.01 1.6960746e-38
-0.11094762 -0.080075242 1.013 1.686963e-38
-0.10901809 -0.080075242 1.013 1.7238412e-38
-0.10740571 -0.080312386 1.016 1.7238052e-38
-0.10578191 -0.080549523 1.0190001 1.7791226e-38
-0.10384095 -0.080549523 1.0190001 1.7699393e-38
-0.1022 -0.080786668 1.0220001 1.8068176e-38
-0.10025334 -0.080786668 1.0220001 1.8068176e-38
-0.098306671 -0.080786668 1.0220001 1.8344763e-38
-0.096360005 -0.080786668 1.0220001 1.8344763e-38
-0.094690487 -0.081023812 1.0250001 1.8436958e-38
-0.092738099 -0.081023812 1.0250001 1.8437678e-38
-0.090785727 -0.081023812 1.0250001 1.8437678e-38
-0.089093328 -0.081260949 1.028 1.8436595e-38
-0.08688096 -0.081023812 1.0250001 1.8897573e-38
-0.08492858 -0.081023812 1.0250001 1.8897573e-38
-0.0829762 -0.081023812 1.0250001 1.8805378e-38
-0.081260949 -0.081260949 1.028 1.8620993e-38
-0.07907144 -0.081023812 1.0250001 1.8528798e-38
-0.077119052 -0.081023812 1.0250001 1.8621349e-38
-0.075166672 -0.081023812 1.0250001 1.8713545e-38
-0.073214293 -0.081023812 1.0250001 1.825329e-38
-0.071261905 -0.081023812 1.0250001 1.8068899e-38
-0.069309533 -0.081023812 1.0250001 1.79767e-38
-0.067357145 -0.081023812 1.0250001 1.79767e-38
-0.065404765 -0.081023812 1.0250001 1.7791233e-38
-0.063266672 -0.080786668 1.0220001 1.7791233e-38
-0.061319999 -0.080786668 1.0220001 1.7514646e-38
-0.05919905 -0.080549523 1.0190001 1.7238059e-38
-0.057089522 -0.080312386 1.016 1.7329892e-38
-0.055154286 -0.080312386 1.016 1.6776718e-38
-0.053061903 -0.080075242 1.013 1.6592314e-38
-0.051132381 -0.080075242 1.013 1.6223532e-38
-0.049057141 -0.079838097 1.01 1.5946585e-38
-0.046993338 -0.07960096 1.0070001 1.5762193e-38
-0.044940956 -0.079363815 1.0040001 1.5761127e-38
-0.043028574 -0.079363815 1.0040001 1.6683083e-38
-0.041116193 -0.079363815 1.0040001 1.7236604e-38
-0.12334858 -0.07745143 1.0040001 1.6127395e-38
-0.1214362 -0.07745143 1.0040001 1.6220295e-38
-0.11988096 -0.077682868 1.0070001 1.6681273e-38
-0.11831428 -0.077914283 1.01 1.6314295e-38
-0.11639047 -0.077914283 1.01 1.6959664e-38
-0.11446667 -0.077914283 1.01 1.6684157e-38
-0.11287715 -0.078145713 1.013 1.7052939e-38
-0.11127619 -0.07837715 1.016 1.6961462e-38
-0.10934096 -0.07837715 1.016 1.7330245e-38
-0.10740571 -0.07837715 1.016 1.7421724e-38
-0.10578191 -0.078608572 1.0190001 1.7698311e-38
-0.10384095 -0.078608572 1.0190001 1.7697958e-38
-0.1022 -0.078840002 1.0220001 1.8251132e-38
-0.10025334 -0.078840002 1.0220001 1.8068173e-38
-0.098306671 -0.078840002 1.0220001 1.834476e-38
-0.096360005 -0.078840002 1.0220001 1.8344763e-38
-0.094690487 -0.07907144 1.0250001 1.8344763e-38
-0.092738099 -0.07907144 1.0250001 1.8528791e-38
-0.090785727 -0.07907144 1.0250001 1.8805378e-38
-0.089093328 -0.079302855 1.028 1.8713182e-38
-0.08688096 -0.07907144 1.0250001 1.8989769e-38
-0.08492858 -0.07907144 1.0250001 1.8896855e-38
-0.0829762 -0.07907144 1.0250001 1.8712463e-38
-0.081260949 -0.079302855 1.028 1.8620631e-38
-0.07907144 -0.07907144 1.0250001 1.8620631e-38
-0.077119052 -0.07907144 1.0250001 1.8620986e-38
-0.075166672 -0.07907144 1.0250001 1.8805378e-38
-0.073214293 -0.07907144 1.0250001 1.8160015e-38
-0.071261905 -0.07907144 1.0250001 1.7975624e-38
-0.069309533 -0.07907144 1.0250001 1.7791236e-38
-0.067357145 -0.07907144 1.0250001 1.7883431e-38
-0.065404765 -0.07907144 1.0250001 1.7606847e-38
-0.063266672 -0.078840002 1.0220001 1.7514652e-38
-0.061319999 -0.078840002 1.0220001 1.7237699e-38
-0.05919905 -0.078608572 1.0190001 1.6961112e-38
-0.057089522 -0.07837715 1.016 1.6868198e-38
-0.055154286 -0.07837715 1.016 1.6776002e-38
-0.053061903 -0.078145713 1.013 1.6408291e-38
-0.051132381 -0.078145713 1.013 1.6408291e-38
-0.046580002 -0.073980004 0.95900005 1.7514258e-38
-0.044753335 -0.073980004 0.95900005 1.8159627e-38
-0.042926669 -0.073980004 0.95900005 1.7883421e-38
-0.041100003 -0.073980004 0.95900005 1.6500487e-38
-0.039273337 -0.073980004 0.95900005 1.5854376e-38
-0.12179905 -0.075764768 1.0070001 1.6497607e-38
-0.11988096 -0.075764768 1.0070001 1.6589803e-38
-0.11831428 -0.075990476 1.01 1.6314651e-38
-0.11673619 -0.076216191 1.013 1.696002e-38
-0.11480667 -0.076216191 1.013 1.6868538e-38
-0.11287715 -0.076216191 1.013 1.6960734e-38
-0.11127619 -0.076441906 1.016 1.6960743e-38
-0.10934096 -0.076441906 1.016 1.7329526e-38
-0.10772286 -0.076667622 1.0190001 1.7513557e-38
-0.10609334 -0.076893337 1.0220001 1.7605753e-38
-0.10414667 -0.076893337 1.0220001 1.7513567e-38
-0.1022 -0.076893337 1.0220001 1.8158936e-38
-0.10025334 -0.076893337 1.0220001 1.8068173e-38
-0.098306671 -0.076893337 1.0220001 1.8252564e-38
-0.096360005 -0.076893337 1.0220001 1.8344763e-38
-0.094690487 -0.077119052 1.0250001 1.8344763e-38
-0.093009517 -0.07734476 1.028 1.83444e-38
-0.091051422 -0.07734476 1.028 1.8528791e-38
-0.089093328 -0.07734476 1.028 1.8620268e-38
-0.087135233 -0.07734476 1.028 1.8804659e-38
-0.085177138 -0.07734476 1.028 1.8712463e-38
-0.083219044 -0.07734476 1.028 1.8712463e-38
-0.081260949 -0.07734476 1.028 1.8620633e-38
-0.079302855 -0.07734476 1.028 1.8436242e-38
-0.077119052 -0.077119052 1.0250001 1.8528075e-38
-0.075166672 -0.077119052 1.0250001 1.862027e-38
-0.073214293 -0.077119052 1.0250001 1.7883782e-38
-0.071261905 -0.077119052 1.0250001 1.7791586e-38
-0.069309533 -0.077119052 1.0250001 1.7607195e-38
-0.067357145 -0.077119052 1.0250001 1.7607195e-38
-0.065404765 -0.077119052 1.0250001 1.7514639e-38
-0.063266672 -0.076893337 1.0220001 1.7514639e-38
-0.061319999 -0.076893337 1.0220001 1.7145856e-38
-0.05919905 -0.076667622 1.0190001 1.6961465e-38
-0.057089522 -0.076441906 1.016 1.6776352e-38
-0.055154286 -0.076441906 1.016 1.7052939e-38
-0.05007619 -0.071927622 0.95600003 1.714515e-38
-0.048255239 -0.071927622 0.95600003 1.7421737e-38
-0.046580002 -0.072153337 0.95900005 1.8251138e-38
-0.044753335 -0.072153337 0.95900005 1.8251138e-38
-0.042926669 -0.072153337 0.95900005 1.7699393e-38
-0.041100003 -0.072153337 0.95900005 1.4656937e-38
-0.039396197 -0.072379053 0.96200007 1.3550523e-38
-0.037641905 -0.072529532 0.96400005 1.4933457e-38
-0.035917144 -0.07275524 0.96700007 1.5760023e-38
-0.12059524 -0.074286662 1.013 1.7235538e-38
-0.11866571 -0.074286662 1.013 1.6959652e-38
-0.11673619 -0.074286662 1.013 1.7236239e-38
-0.11480667 -0.074286662 1.013 1.6960371e-38
-0.11321143 -0.07450667 1.016 1.6868175e-38
-0.11127619 -0.07450667 1.016 1.6959664e-38
-0.10934096 -0.07450667 1.016 1.7328447e-38
-0.10772286 -0.074726671 1.0190001 1.7236251e-38
-0.10609334 -0.074946672 1.0220001 1.7420643e-38
-0.10414667 -0.074946672 1.0220001 1.7421371e-38
-0.1022 -0.074946672 1.0220001 1.7974545e-38
-0.10025334 -0.074946672 1.0220001 1.7883419e-38
-0.098306671 -0.074946672 1.0220001 1.7883419e-38
-0.096360005 -0.074946672 1.0220001 1.7791589e-38
-0.094690487 -0.075166672 1.0250001 1.797598e-38
-0.093009517 -0.075386666 1.028 1.8067457e-38
-0.091051422 -0.075386666 1.028 1.8159652e-38
-0.089093328 -0.075386666 1.028 1.8251485e-38
-0.087135233 -0.075386666 1.028 1.8343681e-38
-0.085177138 -0.075386666 1.028 1.8159655e-38
-0.083219044 -0.075386666 1.028 1.806746e-38
-0.081260949 -0.075386666 1.028 1.7975264e-38
-0.079302855 -0.075386666 1.028 1.7975264e-38
-0.07734476 -0.075386666 1.028 1.8066378e-38
-0.075166672 -0.075166672 1.0250001 1.8250769e-38
-0.073214293 -0.075166672 1.0250001 1.8158927e-38
-0.071261905 -0.075166672 1.0250001 1.8251122e-38
-0.069309533 -0.075166672 1.0250001 1.8066731e-38
-0.067357145 -0.075166672 1.0250001 1.8251122e-38
-0.065404765 -0.075166672 1.0250001 1.8528422e-38
-0.063452385 -0.075166672 1.0250001 1.8897205e-38
-0.061319999 -0.074946672 1.0220001 1.9173441e-38
-0.05919905 -0.074726671 1.0190001 1.9357833e-38
-0.053605717 -0.069960006 0.95400006 1.954294e-38
-0.051788572 -0.069960006 0.95400006 2.0096114e-38
-0.05007619 -0.070106663 0.95600003 1.945148e-38
-0.048255239 -0.070106663 0.95600003 1.8621719e-38
-0.046434287 -0.070106663 0.95600003 1.7606511e-38
-0.044753335 -0.070326671 0.95900005 1.594699e-38
-0.042926669 -0.070326671 0.95900005 1.4289591e-38
-0.041100003 -0.070326671 0.95900005 1.0786157e-38
-0.039396197 -0.070546672 0.96200007 1.1430764e-38
-0.037641905 -0.070693336 0.96400005 1.4565416e-38
-0.035805713 -0.070693336 0.96400005 1.5944767e-38
-0.12095239 -0.072571434 1.016 1.7144365e-38
-0.11901715 -0.072571434 1.016 1.7328071e-38
-0.11708191 -0.072571434 1.016 1.714368e-38
-0.11514667 -0.072571434 1.016 1.6868178e-38
-0.11354572 -0.072785713 1.0190001 1.7144765e-38
-0.11160477 -0.072785713 1.0190001 1.7144424e-38
-0.10966381 -0.072785713 1.0190001 1.723662e-38
-0.10804 -0.073000006 1.0220001 1.705186e-38
-0.10609334 -0.073000006 1.0220001 1.7512838e-38
-0.10414667 -0.073000006 1.0220001 1.751356e-38
-0.1022 -0.073000006 1.0220001 1.7882342e-38
-0.10025334 -0.073000006 1.0220001 1.7422075e-38
-0.098306671 -0.073000006 1.0220001 1.7790857e-38
-0.096360005 -0.073000006 1.0220001 1.7606835e-38
-0.094690487 -0.073214293 1.0250001 1.7883421e-38
-0.093009517 -0.073428571 1.028 1.7791226e-38
-0.091051422 -0.073428571 1.028 1.7883421e-38
-0.089093328 -0.073428571 1.028 1.7790507e-38
-0.087389529 -0.073642857 1.031 1.8067094e-38
-0.085425712 -0.073642857 1.031 1.7699393e-38
-0.083461903 -0.073642857 1.031 1.7699393e-38
-0.081498094 -0.073642857 1.031 1.779087e-38
-0.079302855 -0.073428571 1.028 1.7975261e-38
-0.07734476 -0.073428571 1.028 1.8250416e-38
-0.075386666 -0.073428571 1.028 1.8434807e-38
-0.073214293 -0.073214293 1.0250001 1.8802864e-38
-0.071261905 -0.073214293 1.0250001 1.9079451e-38
-0.069309533 -0.073214293 1.0250001 1.8895425e-38
-0.067357145 -0.073214293 1.0250001 1.9172012e-38
-0.065213338 -0.073000006 1.0220001 1.9448959e-38
-0.063266672 -0.073000006 1.0220001 1.963335e-38
-0.057240006 -0.068142861 0.95400006 2.0002839e-38
-0.055422861 -0.068142861 0.95400006 2.0095035e-38
-0.053605717 -0.068142861 0.95400006 2.0280515e-38
-0.051788572 -0.068142861 0.95400006 2.0096124e-38
-0.05007619 -0.068285719 0.95600003 1.9175972e-38
-0.048255239 -0.068285719 0.95600003 1.7608646e-38
-0.046434287 -0.068285719 0.95600003 1.5218368e-38
-0.044753335 -0.068500005 0.95900005 1.4480803e-38
-0.042926669 -0.068500005 0.95900005 1.281666e-38
-0.041100003 -0.068500005 0.95900005 9.497617e-39
-0.039396197 -0.068714291 0.96200007 1.0876767e-38
-0.037641905 -0.068857148 0.96400005 1.5763131e-38
-0.035805713 -0.068857148 0.96400005 1.557671e-38
-0.12059524 -0.070427619 1.013 1.5670284e-38
-0.11866571 -0.070427619 1.013 1.6959959e-38
-0.11673619 -0.070427619 1.013 1.6867763e-38
-0.11514667 -0.07063619 1.016 1.6868185e-38
-0.11321143 -0.07063619 1.016 1.8527706e-38
-0.11127619 -0.07063619 1.016 1.8619554e-38
-0.10966381 -0.070844762 1.0190001 1.9080533e-38
-0.10804 -0.071053334 1.0220001 1.908053e-38
-0.10609334 -0.071053334 1.0220001 1.9172725e-38
-0.10414667 -0.071053334 1.0220001 1.9542214e-38
-0.1022 -0.071053334 1.0220001 1.9726605e-38
-0.10025334 -0.071053334 1.0220001 1.9543293e-38
-0.098306671 -0.071053334 1.0220001 1.9635489e-38
-0.096360005 -0.071053334 1.0220001 2.0188307e-38
-0.094690487 -0.071261905 1.0250001 2.0280502e-38
-0.093009517 -0.071470477 1.028 2.0372701e-38
-0.091051422 -0.071470477 1.028 2.0741483e-38
-0.089093328 -0.071470477 1.028 2.0741849e-38
-0.087389529 -0.071679048 1.031 2.0834045e-38
-0.085425712 -0.071679048 1.031 2.0742572e-38
-0.083461903 -0.071679048 1.031 2.0834768e-38
-0.081498094 -0.071679048 1.031 2.1111352e-38
-0.079534285 -0.071679048 1.031 2.1480134e-38
-0.077570483 -0.071679048 1.031 2.1664538e-38
-0.075386666 -0.071470477 1.028 2.1480147e-38
-0.073428571 -0.071470477 1.028 2.1203553e-38
-0.071470477 -0.071470477 1.028 2.1387944e-38
-0.069309533 -0.071261905 1.0250001 2.0833341e-38
-0.067357145 -0.071261905 1.0250001 2.0187972e-38
-0.065213338 -0.071053334 1.0220001 1.8253315e-38
-0.063266672 -0.071053334 1.0220001 1.7423555e-38
-0.05706 -0.066117145 0.95100003 1.6318629e-38
-0.055248573 -0.066117145 0.95100003 1.6687412e-38
-0.053605717 -0.066325717 0.95400006 1.7883434e-38
-0.051788572 -0.066325717 0.95400006 1.8528803e-38
-0.05007619 -0.066464759 0.95600003 1.6321481e-38
-0.048255239 -0.066464759 0.95600003 9.0380262e-39
-0.046434287 -0.066464759 0.95600003 9.5948419e-39
-0.044753335 -0.066673338 0.95900005 1.5403167e-38
-0.042926669 -0.066673338 0.95900005 1.6041674e-38
-0.041228574 -0.06688191 0.96200007 1.0786523e-38
-0.039396197 -0.06688191 0.96200007 1.0875793e-38
-0.037641905 -0.067020953 0.96400005 1.5485574e-38
-0.035805713 -0.067020953 0.96400005 1.5944414e-38
-0.12324668 -0.065793335 0.97300005 1.465731e-38
-0.12139334 -0.065793335 0.97300005 1.1342586e-38
-0.11917143 -0.065590478 0.97000003 7.654761e-39
-0.11696096 -0.065387622 0.96700007 1.0229688e-38
-0.11452381 -0.065049522 0.96200007 1.4378491e-38
-0.11198857 -0.064643808 0.95600003 1.3458732e-38
-0.10993715 -0.064508572 0.95400006 1.3827514e-38
-0.10812001 -0.064508572 0.95400006 1.5302269e-38
-0.10596858 -0.064305715 0.95100003 1.7514964e-38
-0.10415715 -0.064305715 0.95100003 1.7698321e-38
-0.10966381 -0.068903819 1.0190001 1.8620277e-38
-0.10804 -0.069106668 1.0220001 1.8990472e-38
-0.098411433 -0.064102866 0.94800007 1.9174864e-38
-0.096605718 -0.064102866 0.94800007 1.9910646e-38
-0.1022 -0.069106668 1.0220001 2.0095038e-38
-0.10025334 -0.069106668 1.0220001 2.0095761e-38
-0.090996191 -0.063967615 0.94600004 1.9819174e-38
-0.08919429 -0.063967615 0.94600004 2.0648559e-38
-0.087577149 -0.064102866 0.94800007 2.1109537e-38
-0.085590474 -0.063967615 0.94600004 2.1295023e-38
-0.083788574 -0.063967615 0.94600004 2.1295023e-38
-0.081986673 -0.063967615 0.94600004 2.1663805e-38
-0.079930477 -0.063764766 0.94300002 2.1295023e-38
-0.078134283 -0.063764766 0.94300002 2.1664881e-38
-0.07633809 -0.063764766 0.94300002 2.148049e-38
-0.074541911 -0.063764766 0.94300002 2.2125857e-38
-0.072977141 -0.063967615 0.94600004 2.2218052e-38
-0.070949525 -0.063764766 0.94300002 2.2034758e-38
-0.069153331 -0.063764766 0.94300002 2.1020606e-38
-0.067571431 -0.063967615 0.94600004 1.9822058e-38
-0.065769531 -0.063967615 0.94600004 2.0006449e-38
-0.064102866 -0.064102866 0.94800007 2.0007171e-38
-0.062494289 -0.064305715 0.95100003 1.9638388e-38
-0.060682859 -0.064305715 0.95100003 1.6783946e-38
-0.058871429 -0.064305715 0.95100003 1.4202468e-38
-0.05706 -0.064305715 0.95100003 1.1258583e-38
-0.055248573 -0.064305715 0.95100003 1.3747865e-38
-0.053605717 -0.064508572 0.95400006 1.6501245e-38
-0.051788572 -0.064508572 0.95400006 1.6962223e-38
-0.05007619 -0.064643808 0.95600003 1.4940349e-38
-0.048255239 -0.064643808 0.95600003 6.1817637e-39
-0.046434287 -0.064643808 0.95600003 7.756578e-39
-0.044753335 -0.064846672 0.95900005 1.4947837e-38
-0.042926669 -0.064846672 0.95900005 1.6962213e-38
-0.041228574 -0.065049522 0.96200007 1.0508519e-38
-0.039478097 -0.065184765 0.96400005 1.0136022e-38
-0.037641905 -0.065184765 0.96400005 1.6220934e-38
-0.035805713 -0.065184765 0.96400005 1.6036612e-38
-0.12324668 -0.063940004 0.97300005 1.5671106e-38
-0.12139334 -0.063940004 0.97300005 1.2263466e-38
-0.11917143 -0.063742854 0.97000003 8.9444236e-39
-0.11696096 -0.063545719 0.96700007 1.0233702e-38
-0.11416667 -0.063020006 0.95900005 1.1616637e-38
-0.11198857 -0.062822863 0.95600003 8.2994368e-39
-0.10993715 -0.062691435 0.95400006 5.7179591e-39
-0.10812001 -0.062691435 0.95400006 9.3131655e-39
-0.10596858 -0.062494289 0.95100003 1.4844903e-38
-0.10415715 -0.062494289 0.95100003 1.4841676e-38
-0.10234572 -0.062494289 0.95100003 1.2905568e-38
-0.10053429 -0.062494289 0.95100003 1.2998868e-38
-0.098411433 -0.062297143 0.94800007 1.696328e-38
-0.096605718 -0.062297143 0.94800007 1.9082302e-38
-0.09480001 -0.062297143 0.94800007 1.9451085e-38
-0.092994288 -0.062297143 0.94800007 1.7976e-38
-0.090996191 -0.062165715 0.94600004 1.5947696e-38
-0.08919429 -0.062165715 0.94600004 1.7331664e-38
-0.087577149 -0.062297143 0.94800007 2.0097533e-38
-0.085590474 -0.062165715 0.94600004 1.9912458e-38
-0.083788574 -0.062165715 0.94600004 1.9174893e-38
-0.081986673 -0.062165715 0.94600004 1.6319368e-38
-0.079930477 -0.061968572 0.94300002 1.4106673e-38
-0.078134283 -0.061968572 0.94300002 1.4296048e-38
-0.07633809 -0.061968572 0.94300002 1.448044e-38
-0.074541911 -0.061968572 0.94300002 1.6780684e-38
-0.072977141 -0.062165715 0.94600004 1.9730944e-38
-0.070949525 -0.061968572 0.94300002 1.9638019e-38
-0.069153331 -0.061968572 0.94300002 1.7056542e-38
-0.067571431 -0.062165715 0.94600004 1.6229652e-38
-0.065769531 -0.062165715 0.94600004 1.6506239e-38
-0.064102866 -0.062297143 0.94800007 1.8071425e-38
-0.062297143 -0.062297143 0.94800007 2.0560707e-38
-0.060682859 -0.062494289 0.95100003 1.9822764e-38
-0.058871429 -0.062494289 0.95100003 1.5489569e-38
-0.05706 -0.062494289 0.95100003 1.4570791e-38
-0.055422861 -0.062691435 0.95400006 1.8443008e-38
-0.053605717 -0.062691435 0.95400006 1.8993369e-38
-0.051788572 -0.062691435 0.95400006 1.4936761e-38
-0.05007619 -0.062822863 0.95600003 1.0522884e-38
-0.048255239 -0.062822863 0.95600003 5.1755375e-39
-0.046434287 -0.062822863 0.95600003 6.4691462e-39
-0.044753335 -0.063020006 0.95900005 1.1171123e-38
-0.042926669 -0.063020006 0.95900005 1.3920821e-38
-0.041228574 -0.063217148 0.96200007 8.6656703e-39
-0.039478097 -0.063348576 0.96400005 9.399613e-39
-0.037759051 -0.063545719 0.96700007 1.5484525e-38
-0.035917144 -0.063545719 0.96700007 1.6220275e-38
-0.034075242 -0.063545719 0.96700007 1.5851492e-38
-0.12324668 -0.062086668 0.97300005 1.6408301e-38
-0.12139334 -0.062086668 0.97300005 1.2908114e-38
-0.11917143 -0.061895244 0.97000003 9.4968757e-39
-0.1165981 -0.061512385 0.96400005 9.9628663e-39
-0.11416667 -0.06119334 0.95900005 9.04091e-39
-0.11234 -0.06119334 0.95900005 5.453209e-39
-0.11016762 -0.061001904 0.95600003 2.8717314e-39
-0.10834666 -0.061001904 0.95600003 7.2909335e-39
-0.10630286 -0.060874287 0.95400006 1.3007063e-38
-0.10448572 -0.060874287 0.95400006 1.4476146e-38
-0.10234572 -0.060682859 0.95100003 1.1802473e-38
-0.10053429 -0.060682859 0.95100003 1.0243754e-38
-0.098411433 -0.060491435 0.94800007 1.5314513e-38
-0.096605718 -0.060491435 0.94800007 1.7793394e-38
-0.09480001 -0.060491435 0.94800007 1.8069981e-38
-0.092994288 -0.060491435 0.94800007 1.7240583e-38
-0.090996191 -0.060363814 0.94600004 1.2538606e-38
-0.08919429 -0.060363814 0.94600004 1.3550891e-38
-0.087392382 -0.060363814 0.94600004 1.8160673e-38
-0.085590474 -0.060363814 0.94600004 1.9544745e-38
-0.083788574 -0.060363814 0.94600004 1.8714984e-38
-0.081986673 -0.060363814 0.94600004 1.4022762e-38
-0.080184758 -0.060363814 0.94600004 1.2639827e-38
-0.078382857 -0.060363814 0.94600004 1.1726074e-38
-0.076580957 -0.060363814 0.94600004 1.2279248e-38
-0.074779049 -0.060363814 0.94600004 1.5954526e-38
-0.072977141 -0.060363814 0.94600004 1.9273568e-38
-0.07117524 -0.060363814 0.94600004 1.936288e-38
-0.069373332 -0.060363814 0.94600004 1.6228229e-38
-0.067571431 -0.060363814 0.94600004 1.439115e-38
-0.065769531 -0.060363814 0.94600004 1.4667737e-38
-0.063967615 -0.060363814 0.94600004 1.7978851e-38
-0.062297143 -0.060491435 0.94800007 2.0468133e-38
-0.060491435 -0.060491435 0.94800007 2.0928758e-38
-0.058871429 -0.060682859 0.95100003 1.8623868e-38
-0.05706 -0.060682859 0.95100003 1.668634e-38
-0.055422861 -0.060874287 0.95400006 1.9728796e-38
-0.053605717 -0.060874287 0.95400006 1.8993742e-38
-0.051897142 -0.061001904 0.95600003 1.0972722e-38
-0.05007619 -0.061001904 0.95600003 8.0353999e-39
-0.048255239 -0.061001904 0.95600003 5.9149004e-39
-0.046580002 -0.06119334 0.95900005 4.6320705e-39
-0.044986669 -0.061512385 0.96400005 8.8730695e-39
-0.043150477 -0.061512385 0.96400005 1.2449307e-38
-0.04144286 -0.061703809 0.96700007 8.0239163e-39
-0.039600953 -0.061703809 0.96700007 9.7672773e-39
-0.037876189 -0.061895244 0.97000003 1.5944385e-38
-0.036028571 -0.061895244 0.97000003 1.6127723e-38
-0.03418095 -0.061895244 0.97000003 1.5851137e-38
-0.12324668 -0.060233336 0.97300005 1.6685579e-38
-0.12139334 -0.060233336 0.97300005 1.3829695e-38
-0.11880287 -0.059861906 0.96700007 8.7589352e-39
-0.1165981 -0.059676193 0.96400005 7.8448948e-39
-0.11452381 -0.059552386 0.96200007 6.2775691e-39
-0.11234 -0.05936667 0.95900005 3.0647673e-39
-0.11051334 -0.05936667 0.95900005 2.4193979e-39
-0.10834666 -0.059180956 0.95600003 5.3606631e-39
-0.10630286 -0.059057143 0.95400006 9.1406839e-39
-0.10448572 -0.059057143 0.95400006 1.2540073e-38
-0.10234572 -0.058871429 0.95100003 1.6227898e-38
-0.10053429 -0.058871429 0.95100003 1.7610056e-38
-0.09872286 -0.058871429 0.95100003 1.9730556e-38
-0.096605718 -0.05868572 0.94800007 1.8622082e-38
-0.09480001 -0.05868572 0.94800007 1.5948409e-38
-0.092994288 -0.05868572 0.94800007 1.3091091e-38
-0.090996191 -0.058561906 0.94600004 1.1247179e-38
-0.08919429 -0.058561906 0.94600004 1.1064905e-38
-0.087392382 -0.058561906 0.94600004 1.5029317e-38
-0.085590474 -0.058561906 0.94600004 1.8346167e-38
-0.083788574 -0.058561906 0.94600004 2.1849601e-38
-0.081986673 -0.058561906 0.94600004 1.9454392e-38
-0.080184758 -0.058561906 0.94600004 1.696511e-38
-0.078382857 -0.058561906 0.94600004 1.6971141e-38
-0.076580957 -0.058561906 0.94600004 1.9829206e-38
-0.074779049 -0.058561906 0.94600004 2.0101171e-38
-0.072977141 -0.058561906 0.94600004 1.927141e-38
-0.07117524 -0.058561906 0.94600004 1.7983546e-38
-0.069373332 -0.058561906 0.94600004 1.5586459e-38
-0.067571431 -0.058561906 0.94600004 1.4025983e-38
-0.065769531 -0.058561906 0.94600004 1.3933787e-38
-0.063967615 -0.058561906 0.94600004 1.5588599e-38
-0.062297143 -0.05868572 0.94800007 1.6233968e-38
-0.060491435 -0.05868572 0.94800007 1.9086631e-38
-0.058871429 -0.058871429 0.95100003 2.0930544e-38
-0.05706 -0.058871429 0.95100003 2.0928758e-38
-0.055422861 -0.059057143 0.95400006 1.8255085e-38
-0.053605717 -0.059057143 0.95400006 1.4943586e-38
-0.051897142 -0.059180956 0.95600003 7.9367177e-39
-0.05007619 -0.059180956 0.95600003 3.5322446e-39
-0.048406668 -0.05936667 0.95900005 3.6244403e-39
-0.046725716 -0.059552386 0.96200007 6.1947594e-39
-0.044986669 -0.059676193 0.96400005 9.6981933e-39
-0.043150477 -0.059676193 0.96400005 1.2175221e-38
-0.04144286 -0.059861906 0.96700007 7.8420263e-39
-0.039723814 -0.060047623 0.97000003 1.0229023e-38
-0.037876189 -0.060047623 0.97000003 1.5299783e-38
-0.036140002 -0.060233336 0.97300005 1.6035528e-38
-0.03428667 -0.060233336 0.97300005 1.5758941e-38
-0.12139334 -0.058380004 0.97300005 1.4104496e-38
-0.11880287 -0.058020003 0.96700007 9.4025193e-39
-0.11696096 -0.058020003 0.96700007 7.6615727e-39
-0.11452381 -0.057720002 0.96200007 5.5410732e-39
-0.11269144 -0.057720002 0.96200007 2.6037891e-39
-0.11051334 -0.057540003 0.95900005 3.5257454e-39
-0.10834666 -0.057360001 0.95600003 3.6179438e-39
-0.10630286 -0.057240006 0.95400006 4.078922e-39
-0.10448572 -0.057240006 0.95400006 1.1618782e-38
-0.10234572 -0.05706 0.95100003 1.7334911e-38
-0.10053429 -0.05706 0.95100003 1.9265652e-38
-0.09872286 -0.05706 0.95100003 1.9265652e-38
-0.096605718 -0.056880001 0.94800007 1.7793391e-38
-0.09480001 -0.056880001 0.94800007 1.3644587e-38
-0.092994288 -0.056880001 0.94800007 1.2078707e-38
-0.09118858 -0.056880001 0.94800007 1.2170902e-38
-0.089382865 -0.056880001 0.94800007 1.189429e-38
-0.087392382 -0.056760002 0.94600004 1.2908442e-38
-0.085590474 -0.056760002 0.94600004 1.5210802e-38
-0.083788574 -0.056760002 0.94600004 1.9451801e-38
-0.081986673 -0.056760002 0.94600004 2.1111354e-38
-0.080184758 -0.056760002 0.94600004 2.0005007e-38
-0.078382857 -0.056760002 0.94600004 1.9362151e-38
-0.076580957 -0.056760002 0.94600004 2.1113868e-38
-0.074779049 -0.056760002 0.94600004 2.0284483e-38
-0.072977141 -0.056760002 0.94600004 1.7703006e-38
-0.07117524 -0.056760002 0.94600004 1.457952e-38
-0.069520004 -0.056880001 0.94800007 1.3749759e-38
-0.067714289 -0.056880001 0.94800007 1.301651e-38
-0.065908574 -0.056880001 0.94800007 1.301651e-38
-0.064102866 -0.056880001 0.94800007 1.2279651e-38
-0.062494289 -0.05706 0.95100003 1.1726478e-38
-0.060682859 -0.05706 0.95100003 1.5586807e-38
-0.058871429 -0.05706 0.95100003 2.0196588e-38
-0.057240006 -0.057240006 0.95400006 2.0562172e-38
-0.055422861 -0.057240006 0.95400006 1.6228977e-38
-0.053718098 -0.057360001 0.95600003 9.7918014e-39
-0.051897142 -0.057360001 0.95600003 5.2742156e-39
-0.050233334 -0.057540003 0.95900005 3.9013775e-39
-0.048558097 -0.057720002 0.96200007 4.0857687e-39
-0.046822857 -0.057840001 0.96400005 5.5518885e-39
-0.045126669 -0.058020003 0.96700007 9.9772787e-39
-0.043284763 -0.058020003 0.96700007 1.2637301e-38
-0.04144286 -0.058020003 0.96700007 8.8572797e-39
-0.039723814 -0.058200002 0.97000003 1.124279e-38
-0.037993334 -0.058380004 0.97300005 1.566818e-38
-0.036140002 -0.058380004 0.97300005 1.6034812e-38
-0.03428667 -0.058380004 0.97300005 1.585042e-38
-0.12139334 -0.056526672 0.97300005 1.4842061e-38
-0.11880287 -0.056178097 0.96700007 9.4025193e-39
-0.11696096 -0.056178097 0.96700007 7.8456039e-39
-0.11452381 -0.055887621 0.96200007 8.0299951e-39
-0.11269144 -0.055887621 0.96200007 4.9043611e-39
-0.11085905 -0.055887621 0.96200007 4.3511873e-39
-0.10868668 -0.055713337 0.95900005 3.6190425e-39
-0.10652572 -0.055539049 0.95600003 2.3283036e-39
-0.10448572 -0.055422861 0.95400006 5.7269317e-39
-0.10266858 -0.055422861 0.95400006 1.3747951e-38
-0.10053429 -0.055248573 0.95100003 1.7516091e-38
-0.09872286 -0.055248573 0.95100003 1.5856569e-38
-0.096605718 -0.055074289 0.94800007 1.1802122e-38
-0.09480001 -0.055074289 0.94800007 1.078797e-38
-0.092994288 -0.055074289 0.94800007 1.1617375e-38
-0.090996191 -0.054958098 0.94600004 1.2631527e-38
-0.08919429 -0.054958098 0.94600004 1.2538606e-38
-0.087577149 -0.055074289 0.94800007 1.2262019e-38
-0.085771434 -0.055074289 0.94800007 1.2537864e-38
-0.083788574 -0.054958098 0.94600004 1.3367625e-38
-0.081986673 -0.054958098 0.94600004 1.530304e-38
-0.080354296 -0.055074289 0.94800007 2.1019169e-38
-0.078548573 -0.055074289 0.94800007 2.0929127e-38
-0.076742865 -0.055074289 0.94800007 1.9914975e-38
-0.074779049 -0.054958098 0.94600004 1.76144e-38
-0.072977141 -0.054958098 0.94600004 1.5309509e-38
-0.071325719 -0.055074289 0.94800007 1.310763e-38
-0.069520004 -0.055074289 0.94800007 1.3292021e-38
-0.067714289 -0.055074289 0.94800007 1.3476406e-38
-0.065908574 -0.055074289 0.94800007 1.3476406e-38
-0.064305715 -0.055248573 0.95100003 1.273956e-38
-0.062494289 -0.055248573 0.95100003 1.2001995e-38
-0.060682859 -0.055248573 0.95100003 1.3746878e-38
-0.059057143 -0.055422861 0.95400006 1.7434703e-38
-0.057240006 -0.055422861 0.95400006 1.8719691e-38
-0.055422861 -0.055422861 0.95400006 1.4478692e-38
-0.053718098 -0.055539049 0.95600003 6.5696627e-39
-0.052060001 -0.055713337 0.95900005 4.0803807e-39
-0.050233334 -0.055713337 0.95900005 3.8102763e-39
-0.048558097 -0.055887621 0.96200007 3.3492981e-39
-0.046822857 -0.056003813 0.96400005 7.1148856e-39
-0.045126669 -0.056178097 0.96700007 1.2277841e-38
-0.043284763 -0.056178097 0.96700007 1.502933e-38
-0.04144286 -0.056178097 0.96700007 1.290883e-38
-0.039723814 -0.056352381 0.97000003 1.3825719e-38
-0.037993334 -0.056526672 0.97300005 1.5393045e-38
-0.036140002 -0.056526672 0.97300005 1.5851139e-38
-0.03428667 -0.056526672 0.97300005 1.5574552e-38
-0.11696096 -0.054336194 0.96700007 9.316034e-39
-0.11476191 -0.054167621 0.96400005 1.0053599e-38
-0.11269144 -0.05405524 0.96200007 5.8241818e-39
-0.11085905 -0.05405524 0.96200007 4.2568561e-39
-0.10868668 -0.053886667 0.95900005 2.2407869e-39
-0.10652572 -0.053718098 0.95600003 1.6876132e-39
-0.10448572 -0.053605717 0.95400006 3.2491235e-39
-0.10266858 -0.053605717 0.95400006 1.1454535e-38
-0.10053429 -0.053437144 0.95100003 1.668852e-38
-0.09872286 -0.053437144 0.95100003 1.4475825e-38
-0.096605718 -0.053268574 0.94800007 9.6866298e-39
-0.09480001 -0.053268574 0.94800007 1.0424195e-38
-0.092994288 -0.053268574 0.94800007 1.2262006e-38
-0.090996191 -0.053156193 0.94600004 1.2630789e-38
-0.08919429 -0.053156193 0.94600004 1.2814467e-38
-0.087577149 -0.053268574 0.94800007 1.3183249e-38
-0.085771434 -0.053268574 0.94800007 1.2079413e-38
-0.083965719 -0.053268574 0.94800007 1.0973065e-38
-0.082160003 -0.053268574 0.94800007 1.2540352e-38
-0.080354296 -0.053268574 0.94800007 2.037698e-38
-0.078548573 -0.053268574 0.94800007 2.1021695e-38
-0.076742865 -0.053268574 0.94800007 1.8993391e-38
-0.07493715 -0.053268574 0.94800007 1.4672422e-38
-0.073131435 -0.053268574 0.94800007 1.3473878e-38
-0.071325719 -0.053268574 0.94800007 1.3200185e-38
-0.069740005 -0.053437144 0.95100003 1.3476772e-38
-0.067928575 -0.053437144 0.95100003 1.3292021e-38
-0.066117145 -0.053437144 0.95100003 1.3384216e-38
-0.064305715 -0.053437144 0.95100003 1.2739207e-38
-0.062494289 -0.053437144 0.95100003 1.2093838e-38
-0.060874287 -0.053605717 0.95400006 1.2919633e-38
-0.059057143 -0.053605717 0.95400006 1.6607458e-38
-0.057240006 -0.053605717 0.95400006 1.7800619e-38
-0.055422861 -0.053605717 0.95400006 1.4573772e-38
-0.053718098 -0.053718098 0.95600003 6.1104951e-39
-0.052060001 -0.053886667 0.95900005 3.3446262e-39
-0.050390478 -0.05405524 0.96200007 3.810251e-39
-0.048659049 -0.054167621 0.96400005 3.1648816e-39
-0.046822857 -0.054167621 0.96400005 7.7581222e-39
-0.045126669 -0.054336194 0.96700007 1.2736686e-38
-0.043284763 -0.054336194 0.96700007 1.6041674e-38
-0.04144286 -0.054336194 0.96700007 1.401337e-38
-0.039723814 -0.054504763 0.97000003 1.4377814e-38
-0.037876189 -0.054504763 0.97000003 1.529977e-38
-0.11476191 -0.052331429 0.96400005 1.1618782e-38
-0.11292572 -0.052331429 0.96400005 8.4016965e-39
-0.11085905 -0.052222859 0.96200007 4.5294801e-39
-0.10868668 -0.052060001 0.95900005 1.412848e-39
-0.10652572 -0.051897142 0.95600003 1.412848e-39
-0.10448572 -0.051788572 0.95400006 3.1569601e-39
-0.10266858 -0.051788572 0.95400006 1.0901393e-38
-0.10053429 -0.051625714 0.95100003 1.6413696e-38
-0.09872286 -0.051625714 0.95100003 1.3555632e-38
-0.096605718 -0.051462859 0.94800007 1.023733e-38
-0.09480001 -0.051462859 0.94800007 1.0698308e-38
-0.092994288 -0.051462859 0.94800007 1.1802826e-38
-0.09118858 -0.051462859 0.94800007 1.2356e-38
-0.089382865 -0.051462859 0.94800007 1.2907022e-38
-0.087854289 -0.051625714 0.95100003 1.3368001e-38
-0.086042859 -0.051625714 0.95100003 1.2816274e-38
-0.084231429 -0.051625714 0.95100003 1.1525536e-38
-0.082419999 -0.051625714 0.95100003 1.1158526e-38
-0.080608569 -0.051625714 0.95100003 1.844198e-38
-0.078797139 -0.051625714 0.95100003 2.0561421e-38
-0.076985717 -0.051625714 0.95100003 1.8533117e-38
-0.075174294 -0.051625714 0.95100003 1.4855744e-38
-0.073362865 -0.051625714 0.95100003 1.3472809e-38
-0.071551435 -0.051625714 0.95100003 1.2923611e-38
-0.069740005 -0.051625714 0.95100003 1.3292394e-38
-0.067928575 -0.051625714 0.95100003 1.3567173e-38
-0.066117145 -0.051625714 0.95100003 1.3567173e-38
-0.064305715 -0.051625714 0.95100003 1.2923248e-38
-0.062691435 -0.051788572 0.95400006 1.2185683e-38
-0.060874287 -0.051788572 0.95400006 1.4576273e-38
-0.059057143 -0.051788572 0.95400006 1.8264098e-38
