# .PCD v0.7 - Point Cloud Data file format
VERSION 0.7
FIELDS x y z rgba
SIZE 4 4 4 4
TYPE F F F U
COUNT 1 1 1 1
WIDTH 1074
HEIGHT 1
VIEWPOINT 0 0 0 1 0 0 0
POINTS 1074
DATA ascii
-0.04111905 0.030652381 0.78500003 8142891
-0.039724763 0.030730478 0.78700006 8735028
-0.038225718 0.030730478 0.78700006 7165016
-0.036726668 0.030730478 0.78700006 6638672
-0.035138097 0.030652381 0.78500003 6507599
-0.033642858 0.030652381 0.78500003 7823459
-0.03214762 0.030652381 0.78500003 9268834
-0.030730478 0.030730478 0.78700006 10124143
-0.029231431 0.030730478 0.78700006 9599591
-0.027732382 0.030730478 0.78700006 8810075
-0.026166666 0.030652381 0.78500003 8154707
-0.02467143 0.030652381 0.78500003 7430984
-0.023117144 0.030574286 0.78300005 11430726
-0.021625714 0.030574286 0.78300005 16102029
-0.020134287 0.030574286 0.78300005 14720603
-0.018642858 0.030574286 0.78300005 7614976
-0.1161762 0.032229528 0.78700006 10305583
-0.11467715 0.032229528 0.78700006 10437169
-0.11346572 0.032311428 0.78900003 11620864
-0.11196286 0.032311428 0.78900003 12805121
-0.11046 0.032311428 0.78900003 13998195
-0.10895715 0.032311428 0.78900003 14524539
-0.10745429 0.032311428 0.78900003 13736643
-0.10595144 0.032311428 0.78900003 13736643
-0.10444857 0.032311428 0.78900003 13275866
-0.10268477 0.032229528 0.78700006 12288971
-0.10118572 0.032229528 0.78700006 14071922
-0.099686667 0.032229528 0.78700006 14729852
-0.098187625 0.032229528 0.78700006 14071986
-0.096688583 0.032229528 0.78700006 13414056
-0.095189527 0.032229528 0.78700006 13541558
-0.093690485 0.032229528 0.78700006 14660039
-0.092191435 0.032229528 0.78700006 14266576
-0.090922855 0.032311428 0.78900003 14463955
-0.089420006 0.032311428 0.78900003 15709645
-0.088028572 0.03235238 0.79000002 13670062
-0.086523816 0.03235238 0.79000002 13193552
-0.085234292 0.032434288 0.79200006 11943485
-0.080977142 0.031369522 0.76600003 13582848
-0.079518095 0.031369522 0.76600003 13846016
-0.078059055 0.031369522 0.76600003 13780224
-0.0766 0.031369522 0.76600003 13780224
-0.075140953 0.031369522 0.76600003 13517056
-0.073681906 0.031369522 0.76600003 13780224
-0.072317138 0.031410474 0.76700002 13714467
-0.070856191 0.031410474 0.76700002 13714467
-0.069395244 0.031410474 0.76700002 13585152
-0.06793429 0.031410474 0.76700002 13453568
-0.066473335 0.031410474 0.76700002 13584128
-0.065181904 0.031492382 0.76900005 13518336
-0.063551433 0.031410474 0.76700002 13779968
-0.062090475 0.031410474 0.76700002 14108928
-0.060550477 0.031369522 0.76600003 13977600
-0.05909143 0.031369522 0.76600003 13911808
-0.057481907 0.031287622 0.76400006 14239508
-0.056026667 0.031287622 0.76400006 15226403
-0.05642857 0.03235238 0.79000002 14310400
-0.054854289 0.032311428 0.78900003 13784064
-0.053216193 0.032229528 0.78700006 14573095
-0.051717147 0.032229528 0.78700006 14902060
-0.050218098 0.032229528 0.78700006 14835024
-0.048595238 0.03214762 0.78500003 14835024
-0.0471 0.03214762 0.78500003 14506827
-0.045604762 0.03214762 0.78500003 14572620
-0.044109527 0.03214762 0.78500003 13329222
-0.042614289 0.03214762 0.78500003 12276534
-0.04111905 0.03214762 0.78500003 11361862
-0.03952286 0.032065716 0.78300005 12151378
-0.038031429 0.032065716 0.78300005 11495023
-0.036633331 0.03214762 0.78500003 11758195
-0.035048574 0.032065716 0.78300005 12221271
-0.033557143 0.032065716 0.78300005 12418650
-0.032065716 0.032065716 0.78300005 12747356
-0.030652381 0.03214762 0.78500003 13207907
-0.029082859 0.032065716 0.78300005 13142866
-0.027591432 0.032065716 0.78300005 13208659
-0.026166666 0.03214762 0.78500003 13342032
-0.024608573 0.032065716 0.78300005 13276239
-0.023117144 0.032065716 0.78300005 14651208
-0.021625714 0.032065716 0.78300005 16361826
-0.020134287 0.032065716 0.78300005 14979675
-0.018642858 0.032065716 0.78300005 7939840
-0.1161762 0.033728573 0.78700006 11224107
-0.11467715 0.033728573 0.78700006 13395276
-0.1131781 0.033728573 0.78700006 12869753
-0.11167905 0.033728573 0.78700006 15172508
-0.11018001 0.033728573 0.78700006 16040398
-0.10868096 0.033728573 0.78700006 15316675
-0.10718191 0.033728573 0.78700006 14070991
-0.10568286 0.033728573 0.78700006 13413061
-0.10418382 0.033728573 0.78700006 13150692
-0.10242382 0.033642858 0.78500003 12887520
-0.10092857 0.033642858 0.78500003 13156029
-0.09943334 0.033642858 0.78500003 13419201
-0.097938098 0.033642858 0.78500003 13353419
-0.096442863 0.033642858 0.78500003 11971766
-0.094947621 0.033642858 0.78500003 10453410
-0.093452379 0.033642858 0.78500003 12164028
-0.091957144 0.033642858 0.78500003 12559038
-0.090461902 0.033642858 0.78500003 12953796
-0.089193337 0.033728573 0.78700006 15843552
-0.087694295 0.033728573 0.78700006 13343418
-0.086523816 0.033857141 0.79000002 13715540
-0.082220957 0.032742858 0.76400006 12531266
-0.080765724 0.032742858 0.76400006 13843712
-0.079310484 0.032742858 0.76400006 14172672
-0.077855244 0.032742858 0.76400006 13780224
-0.076400004 0.032742858 0.76400006 13780224
-0.074944772 0.032742858 0.76400006 13584128
-0.073681906 0.032828573 0.76600003 13649920
-0.072222859 0.032828573 0.76600003 13584399
-0.070763811 0.032828573 0.76600003 13518606
-0.069395244 0.032871429 0.76700002 13519360
-0.06793429 0.032871429 0.76700002 13256192
-0.066473335 0.032871429 0.76700002 13584640
-0.06501238 0.032871429 0.76700002 13387264
-0.063468575 0.032828573 0.76600003 13778944
-0.062009525 0.032828573 0.76600003 14173696
-0.060550477 0.032828573 0.76600003 13976832
-0.05909143 0.032828573 0.76600003 14174208
-0.057481907 0.032742858 0.76400006 14370842
-0.056026667 0.032742858 0.76400006 14699807
-0.056357145 0.033814285 0.78900003 14371072
-0.054715242 0.033728573 0.78700006 14634240
-0.053216193 0.033728573 0.78700006 15162177
-0.051585715 0.033642858 0.78500003 15622728
-0.050090477 0.033642858 0.78500003 15229519
-0.048471432 0.033557143 0.78300005 15163726
-0.046980001 0.033557143 0.78300005 15162193
-0.045488574 0.033557143 0.78300005 15359572
-0.043884765 0.033471428 0.78100002 14246224
-0.042397145 0.033471428 0.78100002 13588294
-0.040909525 0.033471428 0.78100002 12868180
-0.039421905 0.033471428 0.78100002 13065559
-0.037934288 0.033471428 0.78100002 13392466
-0.036446668 0.033471428 0.78100002 14905705
-0.034959048 0.033471428 0.78100002 14645865
-0.033471428 0.033471428 0.78100002 14580072
-0.031983808 0.033471428 0.78100002 14775648
-0.030496189 0.033471428 0.78100002 15301992
-0.029008573 0.033471428 0.78100002 15238484
-0.027520953 0.033471428 0.78100002 15435863
-0.026100002 0.033557143 0.78300005 15635036
-0.024545714 0.033471428 0.78100002 15371864
-0.023058096 0.033471428 0.78100002 15501899
-0.021570476 0.033471428 0.78100002 16554587
-0.020082857 0.033471428 0.78100002 14846556
-0.018595237 0.033471428 0.78100002 7938304
-0.11737619 0.035138097 0.78500003 9128241
-0.11588095 0.035138097 0.78500003 10755328
-0.11438572 0.035138097 0.78500003 14702907
-0.1131781 0.035227619 0.78700006 12874411
-0.11167905 0.035227619 0.78700006 13861306
-0.10990001 0.035138097 0.78500003 12093349
-0.10840476 0.035138097 0.78500003 11172247
-0.10690953 0.035138097 0.78500003 10121104
-0.10541429 0.035138097 0.78500003 10121104
-0.10391905 0.035138097 0.78500003 10119351
-0.10242382 0.035138097 0.78500003 9856179
-0.10092857 0.035138097 0.78500003 11903625
-0.09943334 0.035138097 0.78500003 12298383
-0.097938098 0.035138097 0.78500003 11904699
-0.096442863 0.035138097 0.78500003 10983597
-0.094705723 0.035048574 0.78300005 10975640
-0.093214288 0.035048574 0.78300005 12159914
-0.091722861 0.035048574 0.78300005 13345708
-0.090231434 0.035048574 0.78300005 12885157
-0.088400006 0.034914285 0.78000003 16104887
-0.086914286 0.034914285 0.78000003 13473167
-0.083895244 0.03428762 0.76600003 13381703
-0.082005717 0.034108575 0.76200002 13052738
-0.080554284 0.034108575 0.76200002 13977600
-0.079310484 0.034198094 0.76400006 14767104
-0.077651434 0.034108575 0.76200002 13780224
-0.076200001 0.034108575 0.76200002 13648640
-0.074944772 0.034198094 0.76400006 13648896
-0.073489532 0.034198094 0.76400006 13648896
-0.072034292 0.034198094 0.76400006 13713667
-0.070579059 0.034198094 0.76400006 13845253
-0.069304764 0.03428762 0.76600003 13713920
-0.067845717 0.03428762 0.76600003 13779712
-0.06638667 0.03428762 0.76600003 13714176
-0.064927623 0.03428762 0.76600003 13516800
-0.06330286 0.034198094 0.76400006 13843712
-0.06184762 0.034198094 0.76400006 14041088
-0.060550477 0.03428762 0.76600003 13974786
-0.05909143 0.03428762 0.76600003 14830095
-0.057481907 0.034198094 0.76400006 14568732
-0.056026667 0.034198094 0.76400006 14173974
-0.056214292 0.035227619 0.78700006 14172416
-0.054715242 0.035227619 0.78700006 14304000
-0.053080954 0.035138097 0.78500003 15026230
-0.051585715 0.035138097 0.78500003 15881539
-0.04996286 0.035048574 0.78300005 15094835
-0.048347618 0.034959048 0.78100002 14831663
-0.046860002 0.034959048 0.78100002 15092809
-0.045372382 0.034959048 0.78100002 15290188
-0.043884765 0.034959048 0.78100002 14311240
-0.042397145 0.034959048 0.78100002 14771791
-0.040909525 0.034959048 0.78100002 13922399
-0.039421905 0.034959048 0.78100002 12738125
-0.037934288 0.034959048 0.78100002 13523541
-0.036446668 0.034959048 0.78100002 15234159
-0.034959048 0.034959048 0.78100002 14843501
-0.033471428 0.034959048 0.78100002 14843501
-0.031942859 0.034914285 0.78000003 14644314
-0.030457145 0.034914285 0.78000003 13920591
-0.02897143 0.034914285 0.78000003 14182707
-0.027485715 0.034914285 0.78000003 14051121
-0.026033334 0.034959048 0.78100002 14444087
-0.024514288 0.034914285 0.78000003 14509880
-0.023028571 0.034914285 0.78000003 15167532
-0.021542858 0.034914285 0.78000003 16748620
-0.020057144 0.034914285 0.78000003 14912090
-0.018571429 0.034914285 0.78000003 7477504
-0.1196 0.036400001 0.78000003 6769446
-0.11811429 0.036400001 0.78000003 9256738
-0.1167781 0.036446668 0.78100002 9388324
-0.11558571 0.036540005 0.78300005 10884864
-0.11409429 0.036540005 0.78300005 15095605
-0.11289048 0.036633331 0.78500003 13537686
-0.11139524 0.036633331 0.78500003 12353412
-0.10990001 0.036633331 0.78500003 8415897
-0.10840476 0.036633331 0.78500003 8152725
-0.10663715 0.036540005 0.78300005 8279926
-0.10514572 0.036540005 0.78300005 9003649
-0.10365429 0.036540005 0.78300005 9525665
-0.10216286 0.036540005 0.78300005 9854630
-0.10067143 0.036540005 0.78300005 10257026
-0.099180005 0.036540005 0.78300005 9072752
-0.097688578 0.036540005 0.78300005 8941445
-0.096197143 0.036540005 0.78300005 10125719
-0.09446381 0.036446668 0.78100002 11304065
-0.09297619 0.036446668 0.78100002 12554132
-0.091488577 0.036446668 0.78100002 15449546
-0.089885719 0.036400001 0.78000003 14791616
-0.088173337 0.036306668 0.77800006 16037568
-0.086245723 0.036120001 0.77400005 12879504
-0.083895244 0.035746668 0.76600003 12655365
-0.082005717 0.035560001 0.76200002 13444881
-0.080554284 0.035560001 0.76200002 14174464
-0.079102859 0.035560001 0.76200002 14108672
-0.077651434 0.035560001 0.76200002 13780736
-0.076200001 0.035560001 0.76200002 13714944
-0.074748568 0.035560001 0.76200002 13648128
-0.073489532 0.035653338 0.76400006 13779712
-0.071845718 0.035560001 0.76200002 13845251
-0.070394285 0.035560001 0.76200002 13779458
-0.068942852 0.035560001 0.76200002 13778432
-0.067491435 0.035560001 0.76200002 13910016
-0.066040002 0.035560001 0.76200002 13910272
-0.064588569 0.035560001 0.76200002 13910272
-0.063137144 0.035560001 0.76200002 14106880
-0.061685719 0.035560001 0.76200002 13909504
-0.060234286 0.035560001 0.76200002 13972224
-0.058782857 0.035560001 0.76200002 15288068
-0.057331428 0.035560001 0.76200002 14699809
-0.055880003 0.035560001 0.76200002 13581328
-0.054571431 0.035653338 0.76400006 13903872
-0.054298095 0.036446668 0.78100002 15417096
-0.052742857 0.036400001 0.78000003 14961189
-0.051257145 0.036400001 0.78000003 15882291
-0.049771432 0.036400001 0.78000003 15161400
-0.048161909 0.036306668 0.77800006 15029814
-0.046680003 0.036306668 0.77800006 15092557
-0.045198098 0.036306668 0.77800006 15289936
-0.043716192 0.036306668 0.77800006 14047046
-0.04223429 0.036306668 0.77800006 14573390
-0.040752385 0.036306668 0.77800006 14053706
-0.039270476 0.036306668 0.77800006 13066811
-0.037788574 0.036306668 0.77800006 13589584
-0.036306668 0.036306668 0.77800006 15300202
-0.034824762 0.036306668 0.77800006 14842491
-0.033257145 0.036213335 0.77600002 14710905
-0.031779047 0.036213335 0.77600002 14579057
-0.030300954 0.036213335 0.77600002 14052713
-0.028822856 0.036213335 0.77600002 14115633
-0.027344763 0.036213335 0.77600002 13128738
-0.025933335 0.036306668 0.77800006 14177289
-0.024451429 0.036306668 0.77800006 15164184
-0.022969525 0.036306668 0.77800006 14968347
-0.021432383 0.036213335 0.77600002 16746557
-0.019954285 0.036213335 0.77600002 14912860
-0.01852381 0.036306668 0.77800006 7478272
-0.1196 0.037885718 0.78000003 5189383
-0.11811429 0.037885718 0.78000003 8662280
-0.11662858 0.037885718 0.78000003 13991513
-0.11514286 0.037885718 0.78000003 13798167
-0.11365715 0.037885718 0.78000003 14324511
-0.11231524 0.037934288 0.78100002 14066057
-0.11082762 0.037934288 0.78100002 15052952
-0.1092 0.037885718 0.78000003 13217220
-0.10771429 0.037885718 0.78000003 10914465
-0.10622857 0.037885718 0.78000003 10518158
-0.10487714 0.037934288 0.78100002 11110295
-0.10325715 0.037885718 0.78000003 10773919
-0.10177143 0.037885718 0.78000003 10642333
-0.10028572 0.037885718 0.78000003 10702436
-0.098800004 0.037885718 0.78000003 10110299
-0.097314283 0.037885718 0.78000003 10569576
-0.095582865 0.037788574 0.77800006 13332882
-0.09410096 0.037788574 0.77800006 12677232
-0.092619054 0.037788574 0.77800006 12545646
-0.090902865 0.037691429 0.77600002 12803201
-0.08919429 0.037594289 0.77400005 11289962
-0.087719999 0.037594289 0.77400005 12598083
-0.08591143 0.037448574 0.77100003 11216430
-0.083676197 0.037108574 0.76400006 12720640
-0.082005717 0.037011426 0.76200002 13510145
-0.080554284 0.037011426 0.76200002 13646592
-0.079102859 0.037011426 0.76200002 14304514
-0.077549525 0.036962859 0.76100004 13911552
-0.076100007 0.036962859 0.76100004 14503683
-0.074650481 0.036962859 0.76100004 13977344
-0.073200949 0.036962859 0.76100004 13977344
-0.071751431 0.036962859 0.76100004 13911296
-0.070301905 0.036962859 0.76100004 13713920
-0.068852387 0.036962859 0.76100004 13777664
-0.067402862 0.036962859 0.76100004 13843456
-0.065953337 0.036962859 0.76100004 13711872
-0.064334288 0.036865719 0.75900006 14304000
-0.062888578 0.036865719 0.75900006 14307328
-0.061442863 0.036865719 0.75900006 14241536
-0.060155239 0.036962859 0.76100004 14502912
-0.058705717 0.036962859 0.76100004 14700288
-0.057256192 0.036962859 0.76100004 14305553
-0.05580667 0.036962859 0.76100004 13516037
-0.054357145 0.036962859 0.76100004 13643046
-0.053255241 0.037205715 0.76600003 15353664
-0.052742857 0.037885718 0.78000003 15028522
-0.051257145 0.037885718 0.78000003 15686452
-0.049643811 0.037788574 0.77800006 15095094
-0.048038095 0.037691429 0.77600002 15424059
-0.046560001 0.037691429 0.77600002 15161175
-0.045081906 0.037691429 0.77600002 15161175
-0.043603808 0.037691429 0.77600002 14375752
-0.042125717 0.037691429 0.77600002 12467755
-0.04054286 0.037594289 0.77400005 12929280
-0.039068572 0.037594289 0.77400005 14113547
-0.037691429 0.037691429 0.77600002 14048338
-0.036213335 0.037691429 0.77600002 16219507
-0.034735236 0.037691429 0.77600002 15699078
-0.03317143 0.037594289 0.77400005 15830664
-0.031697143 0.037594289 0.77400005 15633789
-0.030222857 0.037594289 0.77400005 14449515
-0.028748574 0.037594289 0.77400005 14776123
-0.027274288 0.037594289 0.77400005 13197091
-0.025866667 0.037691429 0.77600002 14374696
-0.024388572 0.037691429 0.77600002 15032626
-0.022910476 0.037691429 0.77600002 14968356
-0.021432383 0.037691429 0.77600002 16746052
-0.019954285 0.037691429 0.77600002 14781515
-0.01852381 0.037788574 0.77800006 7346944
-0.1196 0.039371427 0.78000003 4728580
-0.11811429 0.039371427 0.78000003 8335104
-0.11632954 0.039270476 0.77800006 16625011
-0.11484763 0.039270476 0.77800006 14990654
-0.11336572 0.039270476 0.77800006 15319619
-0.11217143 0.039371427 0.78000003 15450712
-0.11068571 0.039371427 0.78000003 16766829
-0.10892 0.039270476 0.77800006 15652010
-0.1074381 0.039270476 0.77800006 12954497
-0.1059562 0.039270476 0.77800006 10321033
-0.10474286 0.039371427 0.78000003 10255240
-0.10325715 0.039371427 0.78000003 10900372
-0.10151048 0.039270476 0.77800006 9979270
-0.10002857 0.039270476 0.77800006 11538736
-0.098546669 0.039270476 0.77800006 13249354
-0.097064771 0.039270476 0.77800006 12793152
-0.095582865 0.039270476 0.77800006 13187910
-0.093859047 0.039169524 0.77600002 13056819
-0.092380948 0.039169524 0.77600002 12267303
-0.090902865 0.039169524 0.77600002 12850769
-0.08919429 0.039068572 0.77400005 13179734
-0.087719999 0.039068572 0.77400005 12984633
-0.08591143 0.038917147 0.77100003 12326703
-0.083676197 0.038563814 0.76400006 12657920
-0.082005717 0.038462859 0.76200002 12526336
-0.080554284 0.038462859 0.76200002 13316608
-0.07899905 0.038412381 0.76100004 14566664
-0.077549525 0.038412381 0.76100004 14173440
-0.076100007 0.038412381 0.76100004 14502404
-0.074650481 0.038412381 0.76100004 14174466
-0.073200949 0.038412381 0.76100004 13845504
-0.071562864 0.038311433 0.75900006 13845504
-0.070117153 0.038311433 0.75900006 13648128
-0.068852387 0.038412381 0.76100004 13711360
-0.067402862 0.038412381 0.76100004 13711360
-0.065780006 0.038311433 0.75900006 13645056
-0.064334288 0.038311433 0.75900006 14697730
-0.062888578 0.038311433 0.75900006 14437398
-0.061442863 0.038311433 0.75900006 14240019
-0.059997149 0.038311433 0.75900006 14567185
-0.058551431 0.038311433 0.75900006 14567185
-0.05710572 0.038311433 0.75900006 14173456
-0.055660002 0.038311433 0.75900006 13318147
-0.054357145 0.038412381 0.76100004 12918272
-0.053255241 0.038664766 0.76600003 15418394
-0.052607622 0.039270476 0.77800006 15161402
-0.050994288 0.039169524 0.77600002 15621953
-0.04951619 0.039169524 0.77600002 15227702
-0.047914285 0.039068572 0.77400005 15359288
-0.046440005 0.039068572 0.77400005 15228492
-0.044965718 0.039068572 0.77400005 15096906
-0.043491431 0.039068572 0.77400005 14769995
-0.041962862 0.039018098 0.77300006 13256756
-0.040490478 0.039018098 0.77300006 13190656
-0.039068572 0.039068572 0.77400005 14309136
-0.037594289 0.039068572 0.77400005 14507606
-0.036073335 0.039018098 0.77300006 16481396
-0.034600955 0.039018098 0.77300006 15765121
-0.033128574 0.039018098 0.77300006 15830914
-0.031656191 0.039018098 0.77300006 15633552
-0.030183813 0.039018098 0.77300006 14383485
-0.028711431 0.039018098 0.77300006 15038802
-0.027274288 0.039068572 0.77400005 13525563
-0.025800001 0.039068572 0.77400005 14572586
-0.024325715 0.039068572 0.77400005 15230516
-0.02285143 0.039068572 0.77400005 14903607
-0.021432383 0.039169524 0.77600002 16680018
-0.019954285 0.039169524 0.77600002 14846804
-0.1196 0.040857144 0.78000003 9335392
-0.11781144 0.040752385 0.77800006 11236947
-0.11632954 0.040752385 0.77800006 15974043
-0.11484763 0.040752385 0.77800006 15979264
-0.11336572 0.040752385 0.77800006 16110848
-0.11188382 0.040752385 0.77800006 15979008
-0.11040191 0.040752385 0.77800006 16505344
-0.10892 0.040752385 0.77800006 15849224
-0.1074381 0.040752385 0.77800006 14928128
-0.1059562 0.040752385 0.77800006 13210799
-0.10447429 0.040752385 0.77800006 13079213
-0.10272762 0.040647618 0.77600002 13072318
-0.10124952 0.040647618 0.77600002 12480181
-0.099771433 0.040647618 0.77600002 13593717
-0.098293334 0.040647618 0.77600002 14054268
-0.096565716 0.04054286 0.77400005 14119017
-0.095091432 0.04054286 0.77400005 14119017
-0.093617149 0.04054286 0.77400005 14054489
-0.092142865 0.04054286 0.77400005 14449247
-0.090668574 0.04054286 0.77400005 14579566
-0.089079052 0.040490478 0.77300006 13461085
-0.087606676 0.040490478 0.77300006 13187910
-0.08591143 0.040385716 0.77100003 11411499
-0.084223814 0.040280953 0.76900005 12067584
-0.082436197 0.040123809 0.76600003 12199168
-0.080554284 0.039914284 0.76200002 12921356
-0.07899905 0.039861906 0.76100004 14237216
-0.077549525 0.039861906 0.76100004 14106880
-0.076100007 0.039861906 0.76100004 14238464
-0.074650481 0.039861906 0.76100004 14302983
-0.073008575 0.039757144 0.75900006 14631948
-0.071562864 0.039757144 0.75900006 14503426
-0.070117153 0.039757144 0.75900006 15292942
-0.068671428 0.039757144 0.75900006 14966565
-0.067225717 0.039757144 0.75900006 15098151
-0.065780006 0.039757144 0.75900006 15097397
-0.064334288 0.039757144 0.75900006 15952706
-0.062722854 0.039652381 0.75700003 15298365
-0.061280955 0.039652381 0.75700003 14179884
-0.059997149 0.039757144 0.75900006 14633757
-0.058551431 0.039757144 0.75900006 14436378
-0.05710572 0.039757144 0.75900006 14240798
-0.055660002 0.039757144 0.75900006 13517075
-0.054214288 0.039757144 0.75900006 13119500
-0.052768577 0.039757144 0.75900006 13909016
-0.052337144 0.04054286 0.77400005 14566206
-0.05086286 0.04054286 0.77400005 15816273
-0.049388573 0.04054286 0.77400005 15162663
-0.047914285 0.04054286 0.77400005 15294249
-0.046380006 0.040490478 0.77300006 15160378
-0.044907622 0.040490478 0.77300006 15160378
-0.043435238 0.040490478 0.77300006 14899768
-0.041962862 0.040490478 0.77300006 15228733
-0.040490478 0.040490478 0.77300006 14377544
-0.039018098 0.040490478 0.77300006 14114372
-0.037545718 0.040490478 0.77300006 14312021
-0.035980001 0.040385716 0.77100003 15364709
-0.034511428 0.040385716 0.77100003 15369295
-0.033042856 0.040385716 0.77100003 15698260
-0.031574287 0.040385716 0.77100003 15435636
-0.030105716 0.040385716 0.77100003 14185569
-0.028637143 0.040385716 0.77100003 14644030
-0.027239049 0.040490478 0.77300006 13722928
-0.025766669 0.040490478 0.77300006 14441518
-0.024325715 0.04054286 0.77400005 14638897
-0.02285143 0.04054286 0.77400005 13915944
-0.021377144 0.04054286 0.77400005 14508081
-0.019902857 0.04054286 0.77400005 13069070
-0.11929334 0.04223429 0.77800006 10980226
-0.11750858 0.042125717 0.77600002 12424528
-0.11603048 0.042125717 0.77600002 15516799
-0.11455239 0.042125717 0.77600002 15978507
-0.11307429 0.042125717 0.77600002 15912714
-0.11159619 0.042125717 0.77600002 15912960
-0.11011809 0.042125717 0.77600002 16768512
-0.10864001 0.042125717 0.77600002 16177234
-0.10716191 0.042125717 0.77600002 14663995
-0.10568381 0.042125717 0.77600002 14721666
-0.10420571 0.042125717 0.77600002 15182217
-0.10246287 0.042017147 0.77400005 15507376
-0.10098858 0.042017147 0.77400005 13994137
-0.099514291 0.042017147 0.77400005 15769230
-0.098040007 0.042017147 0.77400005 16163988
-0.096440956 0.041962862 0.77300006 15572147
-0.09496858 0.041962862 0.77300006 15177389
-0.093496196 0.041962862 0.77300006 15244167
-0.092023812 0.041962862 0.77300006 15704718
-0.090551436 0.041962862 0.77300006 15901364
-0.088848568 0.041854288 0.77100003 15111848
-0.087379999 0.041854288 0.77100003 12931439
-0.085688576 0.041745719 0.76900005 10891856
-0.083895244 0.04158286 0.76600003 11868700
-0.082436197 0.04158286 0.76600003 11671321
-0.080448568 0.041311432 0.76100004 12594944
-0.07899905 0.041311432 0.76100004 13713418
-0.077345721 0.041202862 0.75900006 14041088
-0.075900003 0.041202862 0.75900006 14172672
-0.074454293 0.041202862 0.75900006 14499840
-0.072816193 0.041094288 0.75700003 14960391
-0.071374282 0.041094288 0.75700003 14700051
-0.069932379 0.041094288 0.75700003 15489567
-0.068490475 0.041094288 0.75700003 15295548
-0.067048572 0.041094288 0.75700003 15098169
-0.065606669 0.041094288 0.75700003 15162938
-0.064164765 0.041094288 0.75700003 16018247
-0.062722854 0.041094288 0.75700003 15431000
-0.061280955 0.041094288 0.75700003 13588796
-0.059839047 0.041094288 0.75700003 14500892
-0.058551431 0.041202862 0.75900006 14829857
-0.05710572 0.041202862 0.75900006 14309162
-0.055660002 0.041202862 0.75900006 12861716
-0.054214288 0.041202862 0.75900006 13120512
-0.053255241 0.04158286 0.76600003 13975810
-0.051999051 0.041745719 0.76900005 14500149
-0.050797146 0.041962862 0.77300006 16079181
-0.049324766 0.041962862 0.77300006 15227990
-0.047852382 0.041962862 0.77300006 15030611
-0.046380006 0.041962862 0.77300006 15028790
-0.044907622 0.041962862 0.77300006 15094583
-0.043435238 0.041962862 0.77300006 15093583
-0.041854288 0.041854288 0.77100003 15554134
-0.040385716 0.041854288 0.77100003 14704442
-0.038917147 0.041854288 0.77100003 14638649
-0.037448574 0.041854288 0.77100003 14181462
-0.035886671 0.041745719 0.76900005 13720911
-0.034421906 0.041745719 0.76900005 13589019
-0.032957144 0.041745719 0.76900005 14181156
-0.031492382 0.041745719 0.76900005 14380122
-0.030105716 0.041854288 0.77100003 14182743
-0.028637143 0.041854288 0.77100003 14247730
-0.027168572 0.041854288 0.77100003 13918765
-0.025766669 0.041962862 0.77300006 14047530
-0.024294289 0.041962862 0.77300006 14113323
-0.022821905 0.041962862 0.77300006 13587247
-0.021294286 0.041854288 0.77100003 13060903
-0.019825716 0.041854288 0.77100003 12342799
-0.11868001 0.043491431 0.77400005 12427422
-0.11720572 0.043491431 0.77400005 13476714
-0.11558191 0.043435238 0.77300006 15318918
-0.11410953 0.043435238 0.77300006 15976960
-0.11263715 0.043435238 0.77300006 15845376
-0.11130857 0.043491431 0.77400005 15910656
-0.10983429 0.043491431 0.77400005 16767232
-0.10836001 0.043491431 0.77400005 16175705
-0.10688572 0.043491431 0.77400005 14925638
-0.10541143 0.043491431 0.77400005 15513201
-0.10393715 0.043491431 0.77400005 16039545
-0.10233048 0.043435238 0.77300006 15707553
-0.1008581 0.043435238 0.77300006 13075833
-0.099385723 0.043435238 0.77300006 15971458
-0.09791334 0.043435238 0.77300006 16762002
-0.096440956 0.043435238 0.77300006 16034515
-0.09496858 0.043435238 0.77300006 14521276
-0.093254283 0.043322857 0.77100003 14914451
-0.091785714 0.043322857 0.77100003 16493483
-0.090317145 0.043322857 0.77100003 15970223
-0.0886181 0.043210477 0.76900005 14983328
-0.087153338 0.043210477 0.76900005 13984420
-0.085465722 0.043098096 0.76700002 13918627
-0.083895244 0.043041904 0.76600003 12670288
-0.082220957 0.042929526 0.76400006 9446431
-0.080448568 0.042760953 0.76100004 11541504
-0.07899905 0.042760953 0.76100004 13054741
-0.077345721 0.042648572 0.75900006 13383942
-0.075900003 0.042648572 0.75900006 14041872
-0.074258097 0.042536192 0.75700003 14238984
-0.072816193 0.042536192 0.75700003 14370570
-0.071374282 0.042536192 0.75700003 14502672
-0.069932379 0.042536192 0.75700003 15160602
-0.068490475 0.042536192 0.75700003 14964010
-0.067048572 0.042536192 0.75700003 14766631
-0.065606669 0.042536192 0.75700003 14699046
-0.064164765 0.042536192 0.75700003 14633253
-0.062722854 0.042536192 0.75700003 14699020
-0.061280955 0.042536192 0.75700003 14304262
-0.059839047 0.042536192 0.75700003 14304799
-0.058551431 0.042648572 0.75900006 14567971
-0.05710572 0.042648572 0.75900006 14111256
-0.055660002 0.042648572 0.75900006 12598017
-0.054357145 0.042760953 0.76100004 12722432
-0.053116191 0.042929526 0.76400006 16077873
-0.051863808 0.043098096 0.76700002 15431254
-0.050534289 0.043210477 0.76900005 16747114
-0.049197145 0.043322857 0.77100003 15633512
-0.047728572 0.043322857 0.77100003 13922894
-0.046260003 0.043322857 0.77100003 15164755
-0.04479143 0.043322857 0.77100003 15493720
-0.043322857 0.043322857 0.77100003 15362162
-0.041854288 0.043322857 0.77100003 14638439
-0.040280953 0.043210477 0.76900005 14637857
-0.038816195 0.043210477 0.76900005 15229994
-0.037351429 0.043210477 0.76900005 14443092
-0.035793334 0.043098096 0.76700002 13521990
-0.03433238 0.043098096 0.76700002 12796686
-0.032957144 0.043210477 0.76900005 12665100
-0.031492382 0.043210477 0.76900005 12798720
-0.030027622 0.043210477 0.76900005 11943424
-0.028562859 0.043210477 0.76900005 12859906
-0.027098097 0.043210477 0.76900005 14109973
-0.025700001 0.043322857 0.77100003 13651500
-0.024231428 0.043322857 0.77100003 14046258
-0.022762857 0.043322857 0.77100003 13457737
-0.02123905 0.043210477 0.76900005 12668221
-0.019774286 0.043210477 0.76900005 12013831
-0.11852667 0.044907622 0.77300006 12623516
-0.1170543 0.044907622 0.77300006 13803871
-0.11528286 0.04479143 0.77100003 15317110
-0.11381429 0.04479143 0.77100003 15514113
-0.11263715 0.044907622 0.77300006 15316736
-0.11116477 0.044907622 0.77300006 15580160
-0.10969239 0.044907622 0.77300006 16764416
-0.10822001 0.044907622 0.77300006 16044092
-0.10674763 0.044907622 0.77300006 15846713
-0.10527524 0.044907622 0.77300006 16042320
-0.10380287 0.044907622 0.77300006 16568664
-0.10233048 0.044907622 0.77300006 16240306
-0.1008581 0.044907622 0.77300006 14727067
-0.099385723 0.044907622 0.77300006 15973812
-0.097660005 0.04479143 0.77100003 16039605
-0.096191436 0.04479143 0.77100003 15246518
-0.09472286 0.04479143 0.77100003 13864865
-0.093254283 0.04479143 0.77100003 14255484
-0.091547623 0.044675242 0.76900005 16426653
-0.090082861 0.044675242 0.76900005 15968938
-0.0886181 0.044675242 0.76900005 15508387
-0.086926669 0.04455905 0.76700002 14778270
-0.085465722 0.04455905 0.76700002 13988754
-0.083895244 0.044500954 0.76600003 13332332
-0.082220957 0.044384766 0.76400006 10700612
-0.080554284 0.044268575 0.76200002 10952960
-0.07899905 0.044210479 0.76100004 12268809
-0.077345721 0.044094287 0.75900006 13057280
-0.075900003 0.044094287 0.75900006 14109963
-0.074258097 0.043978095 0.75700003 13912337
-0.072816193 0.043978095 0.75700003 13912337
-0.071374282 0.043978095 0.75700003 14108946
-0.069747627 0.043861907 0.75500005 14108946
-0.068309531 0.043861907 0.75500005 14370055
-0.066871434 0.043861907 0.75500005 14633227
-0.065606669 0.043978095 0.75700003 14369558
-0.064164765 0.043978095 0.75700003 14106386
-0.062722854 0.043978095 0.75700003 14305027
-0.061280955 0.043978095 0.75700003 14568199
-0.059997149 0.044094287 0.75900006 14240548
-0.058551431 0.044094287 0.75900006 14043169
-0.057256192 0.044210479 0.76100004 13911567
-0.05580667 0.044210479 0.76100004 12793088
-0.054428574 0.044268575 0.76200002 12523008
-0.053116191 0.044384766 0.76400006 16735301
-0.051863808 0.04455905 0.76700002 15564412
-0.050402857 0.04455905 0.76700002 16749200
-0.049069528 0.044675242 0.76900005 15833749
-0.047604766 0.044675242 0.76900005 14583682
-0.04614 0.044675242 0.76900005 15099752
-0.044675242 0.044675242 0.76900005 15428717
-0.043210477 0.044675242 0.76900005 15429998
-0.041745719 0.044675242 0.76900005 14640482
-0.040280953 0.044675242 0.76900005 15096386
-0.03871524 0.04455905 0.76700002 15491144
-0.037254285 0.04455905 0.76700002 14638924
-0.035793334 0.04455905 0.76700002 13980994
-0.03433238 0.04455905 0.76700002 12797972
-0.032871429 0.04455905 0.76700002 12600593
-0.031410474 0.04455905 0.76700002 12799775
-0.029949524 0.04455905 0.76700002 11747087
-0.028488571 0.04455905 0.76700002 12598528
-0.02702762 0.04455905 0.76700002 13848592
-0.025633333 0.044675242 0.76900005 13324856
-0.024168573 0.044675242 0.76900005 13653821
-0.02270381 0.044675242 0.76900005 13195603
-0.02123905 0.044675242 0.76900005 13195603
-0.019774286 0.044675242 0.76900005 11947555
-0.11822 0.046260003 0.77100003 11899532
-0.11675143 0.046260003 0.77100003 13670743
-0.11528286 0.046260003 0.77100003 14723431
-0.11381429 0.046260003 0.77100003 15775001
-0.11234572 0.046260003 0.77100003 15775001
-0.11087715 0.046260003 0.77100003 15842816
-0.10940857 0.046260003 0.77100003 15711232
-0.10794 0.046260003 0.77100003 15778048
-0.10647143 0.046260003 0.77100003 15778048
-0.10500287 0.046260003 0.77100003 15711744
-0.10353429 0.046260003 0.77100003 16501248
-0.10206572 0.046260003 0.77100003 16039797
-0.10059715 0.046260003 0.77100003 15710832
-0.099128574 0.046260003 0.77100003 16037563
-0.097660005 0.046260003 0.77100003 14787496
-0.095941909 0.04614 0.76900005 15377552
-0.094477147 0.04614 0.76900005 15838103
-0.093012393 0.04614 0.76900005 15838868
-0.091547623 0.04614 0.76900005 16167833
-0.089848571 0.046020001 0.76700002 16103328
-0.088387616 0.046020001 0.76700002 16762543
-0.086926669 0.046020001 0.76700002 16171184
-0.085354283 0.045960002 0.76600003 14921117
-0.083895244 0.045960002 0.76600003 13606778
-0.082220957 0.045840003 0.76400006 11172437
-0.080554284 0.04572 0.76200002 11230265
-0.079102859 0.04572 0.76200002 9453854
-0.077345721 0.045540005 0.75900006 11939585
-0.075900003 0.045540005 0.75900006 12992273
-0.074258097 0.045420002 0.75700003 13252631
-0.072816193 0.045420002 0.75700003 13581596
-0.071374282 0.045420002 0.75700003 13910797
-0.069747627 0.045300003 0.75500005 14108176
-0.068309531 0.045300003 0.75500005 14172928
-0.066871434 0.045300003 0.75500005 14699264
-0.065606669 0.045420002 0.75700003 14237718
-0.064164765 0.045420002 0.75700003 13842960
-0.062722854 0.045420002 0.75700003 13975552
-0.061280955 0.045420002 0.75700003 14765065
-0.059997149 0.045540005 0.75900006 13580553
-0.058705717 0.04566 0.76100004 12330496
-0.057256192 0.04566 0.76100004 12655872
-0.05580667 0.04566 0.76100004 14761236
-0.054428574 0.04572 0.76200002 14311284
-0.053116191 0.045840003 0.76400006 16749223
-0.05179619 0.045960002 0.76600003 15768218
-0.050337147 0.045960002 0.76600003 15241874
-0.048941903 0.046020001 0.76700002 15699345
-0.047480952 0.046020001 0.76700002 15699345
-0.046020001 0.046020001 0.76700002 15631253
-0.04455905 0.046020001 0.76700002 15039116
-0.043098096 0.046020001 0.76700002 15498846
-0.041637145 0.046020001 0.76700002 16025190
-0.04017619 0.046020001 0.76700002 15565166
-0.03871524 0.046020001 0.76700002 14380892
-0.037254285 0.046020001 0.76700002 14574160
-0.035746668 0.045960002 0.76600003 14639953
-0.03428762 0.045960002 0.76600003 14179672
-0.032828573 0.045960002 0.76600003 13982293
-0.031369522 0.045960002 0.76600003 14245708
-0.029910479 0.045960002 0.76600003 14508880
-0.02845143 0.045960002 0.76600003 14444107
-0.026992382 0.045960002 0.76600003 14378314
-0.025566667 0.046020001 0.76700002 14377051
-0.024105715 0.046020001 0.76700002 15034981
-0.022644762 0.046020001 0.76700002 14051414
-0.021183809 0.046020001 0.76700002 13327691
-0.019722857 0.046020001 0.76700002 12143158
-0.11791334 0.047604766 0.76900005 12096652
-0.11644858 0.047604766 0.76900005 13933358
-0.11498382 0.047604766 0.76900005 15183425
-0.11351905 0.047604766 0.76900005 15445282
-0.11205429 0.047604766 0.76900005 15708454
-0.11058953 0.047604766 0.76900005 15840051
-0.10912477 0.047604766 0.76900005 15905844
-0.10766 0.047604766 0.76900005 15841575
-0.10619524 0.047604766 0.76900005 15709989
-0.10473049 0.047604766 0.76900005 15840768
-0.10326572 0.047604766 0.76900005 16432896
-0.10180096 0.047604766 0.76900005 15775081
-0.10033619 0.047604766 0.76900005 15577702
-0.09887144 0.047604766 0.76900005 15905431
-0.09740667 0.047604766 0.76900005 15379087
-0.095941909 0.047604766 0.76900005 15575676
-0.094477147 0.047604766 0.76900005 16036227
-0.093012393 0.047604766 0.76900005 15971726
-0.091309525 0.047480952 0.76700002 15774347
-0.089848571 0.047480952 0.76700002 14657681
-0.088387616 0.047480952 0.76700002 15710369
-0.086813338 0.047419049 0.76600003 14532794
-0.085354283 0.047419049 0.76600003 13151141
-0.083895244 0.047419049 0.76600003 12430733
-0.082220957 0.047295243 0.76400006 11246459
-0.080765724 0.047295243 0.76400006 11239796
-0.079102859 0.047171429 0.76200002 9200213
-0.077549525 0.047109526 0.76100004 11019776
-0.076100007 0.047109526 0.76100004 12533003
-0.074454293 0.046985716 0.75900006 13057280
-0.072816193 0.046861906 0.75700003 13517826
-0.071374282 0.046861906 0.75700003 13713667
-0.069932379 0.046861906 0.75700003 13647874
-0.068309531 0.046738099 0.75500005 13842944
-0.066871434 0.046738099 0.75500005 14171904
-0.065606669 0.046861906 0.75700003 14041094
-0.064164765 0.046861906 0.75700003 13777922
-0.062722854 0.046861906 0.75700003 13711872
-0.061442863 0.046985716 0.75900006 13843456
-0.059997149 0.046985716 0.75900006 13119232
-0.058705717 0.047109526 0.76100004 12921856
-0.057256192 0.047109526 0.76100004 12791848
-0.05580667 0.047109526 0.76100004 14568259
-0.054428574 0.047171429 0.76200002 15632268
-0.053116191 0.047295243 0.76400006 16752291
-0.051660955 0.047295243 0.76400006 15901609
-0.050337147 0.047419049 0.76600003 15309472
-0.048878096 0.047419049 0.76600003 15701390
-0.047419049 0.047419049 0.76600003 15898769
-0.045960002 0.047419049 0.76600003 15832743
-0.044500954 0.047419049 0.76600003 14845848
-0.043041904 0.047419049 0.76600003 15368566
-0.04158286 0.047419049 0.76600003 15763324
-0.040123809 0.047419049 0.76600003 15632769
-0.038664766 0.047419049 0.76600003 14514288
-0.037205715 0.047419049 0.76600003 14707543
-0.035746668 0.047419049 0.76600003 14773336
-0.034198094 0.047295243 0.76400006 15034722
-0.032742858 0.047295243 0.76400006 14179413
-0.031369522 0.047419049 0.76600003 14703400
-0.029832384 0.047295243 0.76400006 15690295
-0.028377144 0.047295243 0.76400006 15298162
-0.026992382 0.047419049 0.76600003 14837611
-0.025533335 0.047419049 0.76600003 14374987
-0.024074288 0.047419049 0.76600003 15164503
-0.022556191 0.047295243 0.76400006 14246499
-0.021100953 0.047295243 0.76400006 14114913
-0.019722857 0.047480952 0.76700002 12405828
-0.11760666 0.048941903 0.76700002 12359817
-0.11614572 0.048941903 0.76700002 13737216
-0.11468477 0.048941903 0.76700002 14197760
-0.11322381 0.048941903 0.76700002 14585856
-0.11176286 0.048941903 0.76700002 14585856
-0.1103019 0.048941903 0.76700002 14717216
-0.10884096 0.048941903 0.76700002 15111974
-0.10738 0.048941903 0.76700002 15244827
-0.10591905 0.048941903 0.76700002 15047448
-0.10445809 0.048941903 0.76700002 15113216
-0.10299715 0.048941903 0.76700002 15507968
-0.10153619 0.048941903 0.76700002 14783011
-0.10007524 0.048941903 0.76700002 14125081
-0.09861429 0.048941903 0.76700002 14125342
-0.097153336 0.048941903 0.76700002 14520100
-0.095692381 0.048941903 0.76700002 14849342
-0.094231427 0.048941903 0.76700002 15244100
-0.09277048 0.048941903 0.76700002 14715992
-0.09119048 0.048878096 0.76600003 14650199
-0.089731432 0.048878096 0.76600003 13661546
-0.088272385 0.048878096 0.76600003 13727339
-0.086813338 0.048878096 0.76600003 13206387
-0.085131437 0.048750479 0.76400006 13140594
-0.083676197 0.048750479 0.76400006 12423799
-0.082220957 0.048750479 0.76400006 13937038
-0.080765724 0.048750479 0.76400006 12688278
-0.079102859 0.048622858 0.76200002 11701383
-0.077549525 0.048559051 0.76100004 10967354
-0.076100007 0.048559051 0.76100004 9651494
-0.074454293 0.048431434 0.75900006 11745024
-0.073008575 0.048431434 0.75900006 11284480
-0.071562864 0.048431434 0.75900006 12260096
-0.069932379 0.048303809 0.75700003 12194304
-0.068490475 0.048303809 0.75700003 12455936
-0.067048572 0.048303809 0.75700003 12521728
-0.065606669 0.048303809 0.75700003 12521728
-0.064164765 0.048303809 0.75700003 12521728
-0.062888578 0.048431434 0.75900006 12325120
-0.061442863 0.048431434 0.75900006 14956830
-0.059997149 0.048431434 0.75900006 14581074
-0.058705717 0.048559051 0.76100004 16753271
-0.057256192 0.048559051 0.76100004 16173232
-0.055880003 0.048622858 0.76200002 16436404
-0.054571431 0.048750479 0.76400006 16305364
-0.053116191 0.048750479 0.76400006 16568536
-0.051660955 0.048750479 0.76400006 16043975
-0.050205719 0.048750479 0.76400006 15188666
-0.048750479 0.048750479 0.76400006 15908021
-0.047295243 0.048750479 0.76400006 16105400
-0.045840003 0.048750479 0.76400006 16037561
-0.044384766 0.048750479 0.76400006 15050666
-0.042929526 0.048750479 0.76400006 15835805
-0.04147429 0.048750479 0.76400006 15506840
-0.04001905 0.048750479 0.76400006 15767174
-0.038563814 0.048750479 0.76400006 15175037
-0.037011426 0.048622858 0.76200002 15369843
-0.035560001 0.048622858 0.76200002 15172464
-0.034108575 0.048622858 0.76200002 15499123
-0.032657143 0.048622858 0.76200002 14643814
-0.031287622 0.048750479 0.76400006 15168330
-0.029754287 0.048622858 0.76200002 16747876
-0.028302858 0.048622858 0.76200002 15634055
-0.026921906 0.048750479 0.76400006 14186609
-0.025533335 0.048878096 0.76600003 14837071
-0.024011429 0.048750479 0.76400006 14771278
-0.022556191 0.048750479 0.76400006 14444632
-0.021100953 0.048750479 0.76400006 14115667
-0.019645717 0.048750479 0.76400006 12538702
-0.11891238 0.050337147 0.76600003 13608862
-0.11745334 0.050337147 0.76600003 11569279
-0.11599429 0.050337147 0.76600003 13272832
-0.11468477 0.050402857 0.76700002 13470208
-0.11322381 0.050402857 0.76700002 13858304
-0.11161715 0.050337147 0.76600003 13924096
-0.1101581 0.050337147 0.76600003 13924096
-0.10869905 0.050337147 0.76600003 14318848
-0.10724001 0.050337147 0.76600003 14515522
-0.10578096 0.050337147 0.76600003 14120764
-0.1043219 0.050337147 0.76600003 14117892
-0.10286286 0.050337147 0.76600003 14315271
-0.10140382 0.050337147 0.76600003 14315826
-0.099944763 0.050337147 0.76600003 14315826
-0.098485716 0.050337147 0.76600003 13327659
-0.097026668 0.050337147 0.76600003 13525038
-0.095567621 0.050337147 0.76600003 14448959
-0.094108574 0.050337147 0.76600003 14646338
-0.092649527 0.050337147 0.76600003 13986357
-0.090952389 0.050205719 0.76400006 14710080
-0.089497149 0.050205719 0.76400006 14709335
-0.088041909 0.050205719 0.76400006 14840921
-0.086586677 0.050205719 0.76400006 14186082
-0.085131437 0.050205719 0.76400006 13857117
-0.083676197 0.050205719 0.76400006 12153908
-0.082005717 0.050074287 0.76200002 14193491
-0.080554284 0.050074287 0.76200002 12951200
-0.079102859 0.050074287 0.76200002 11766926
-0.077651434 0.050074287 0.76200002 11833896
-0.076100007 0.050008573 0.76100004 11504931
-0.074650481 0.050008573 0.76100004 12413782
-0.073008575 0.049877148 0.75900006 11163715
-0.071562864 0.049877148 0.75900006 12459118
-0.070117153 0.049877148 0.75900006 11932774
-0.068490475 0.049745716 0.75700003 12654602
-0.067048572 0.049745716 0.75700003 13246739
-0.065780006 0.049877148 0.75900006 12985151
-0.064334288 0.049877148 0.75900006 14169425
-0.062888578 0.049877148 0.75900006 13851198
-0.061442863 0.049877148 0.75900006 14969679
-0.060155239 0.050008573 0.76100004 15899340
-0.058705717 0.050008573 0.76100004 16754649
-0.057256192 0.050008573 0.76100004 16308187
-0.055880003 0.050074287 0.76200002 16242394
-0.054428574 0.050074287 0.76200002 16176610
-0.052977145 0.050074287 0.76200002 16176610
-0.051660955 0.050205719 0.76400006 16111328
-0.050074287 0.050074287 0.76200002 15387605
-0.048622858 0.050074287 0.76200002 15843523
-0.047171429 0.050074287 0.76200002 15975109
-0.04572 0.050074287 0.76200002 16104392
-0.044268575 0.050074287 0.76200002 15512255
-0.042817142 0.050074287 0.76200002 15969458
-0.041365717 0.050074287 0.76200002 15706286
-0.039914284 0.050074287 0.76200002 15572122
-0.038462859 0.050074287 0.76200002 14848399
-0.037011426 0.050074287 0.76200002 15437444
-0.035560001 0.050074287 0.76200002 15240065
-0.034063812 0.050008573 0.76100004 15500682
-0.032614287 0.050008573 0.76100004 15040131
-0.031205716 0.050074287 0.76200002 14907236
-0.029754287 0.050074287 0.76200002 15959924
-0.028302858 0.050074287 0.76200002 15698572
-0.026851429 0.050074287 0.76200002 14514298
-0.025466667 0.050205719 0.76400006 15035744
-0.024011429 0.050205719 0.76400006 15364709
-0.022497144 0.050074287 0.76200002 14378860
-0.021045715 0.050074287 0.76200002 14049895
-0.019594287 0.050074287 0.76200002 12934727
-0.11891238 0.05179619 0.76600003 13608083
-0.11745334 0.05179619 0.76600003 11371121
-0.11599429 0.05179619 0.76600003 13008128
-0.11453524 0.05179619 0.76600003 13797632
-0.1130762 0.05179619 0.76600003 14319360
-0.11161715 0.05179619 0.76600003 14056192
-0.1101581 0.05179619 0.76600003 13856771
-0.10841525 0.051660955 0.76400006 14317322
-0.10696001 0.051660955 0.76400006 14645882
-0.10550477 0.051660955 0.76400006 14580089
-0.10404953 0.051660955 0.76400006 14184558
-0.10259429 0.051660955 0.76400006 13000284
-0.10113905 0.051660955 0.76400006 14118003
-0.099944763 0.05179619 0.76600003 14907519
-0.098485716 0.05179619 0.76600003 14116994
-0.097026668 0.05179619 0.76600003 13590650
-0.095318101 0.051660955 0.76400006 13722223
-0.093862861 0.051660955 0.76400006 14774911
-0.092407629 0.051660955 0.76400006 14448477
-0.090714283 0.051525716 0.76200002 14645856
-0.089262858 0.051525716 0.76200002 14777708
-0.087811433 0.051525716 0.76200002 15172466
-0.086586677 0.051660955 0.76400006 14188653
-0.085131437 0.051660955 0.76400006 13267551
-0.08345715 0.051525716 0.76200002 12018528
-0.082005717 0.051525716 0.76200002 14255490
-0.080554284 0.051525716 0.76200002 13018022
-0.079102859 0.051525716 0.76200002 12031127
-0.077651434 0.051525716 0.76200002 11247695
-0.076100007 0.051458098 0.76100004 14603138
-0.074650481 0.051458098 0.76100004 16043723
-0.073008575 0.051322859 0.75900006 16438481
-0.071562864 0.051322859 0.75900006 16371455
-0.070117153 0.051322859 0.75900006 15845114
-0.068671428 0.051322859 0.75900006 16241102
-0.067225717 0.051322859 0.75900006 16768217
-0.065780006 0.051322859 0.75900006 16576504
-0.064334288 0.051322859 0.75900006 16774911
-0.063054286 0.051458098 0.76100004 16644605
-0.061604768 0.051458098 0.76100004 16513019
-0.060155239 0.051458098 0.76100004 16306687
-0.058705717 0.051458098 0.76100004 14661866
-0.057331428 0.051525716 0.76200002 14072786
-0.055880003 0.051525716 0.76200002 16770556
-0.054428574 0.051525716 0.76200002 16576252
-0.052977145 0.051525716 0.76200002 16181494
-0.051525716 0.051525716 0.76200002 16181489
-0.050074287 0.051525716 0.76200002 15786731
-0.048622858 0.051525716 0.76200002 15916003
-0.047109526 0.051458098 0.76100004 15718624
-0.04566 0.051458098 0.76100004 15847895
-0.044210479 0.051458098 0.76100004 15453137
-0.042760953 0.051458098 0.76100004 15910595
-0.041311432 0.051458098 0.76100004 15450044
-0.039861906 0.051458098 0.76100004 15970993
-0.038412381 0.051458098 0.76100004 15576235
-0.036962859 0.051458098 0.76100004 15836054
-0.035513334 0.051458098 0.76100004 15375503
-0.034063812 0.051458098 0.76100004 15768220
-0.032614287 0.051458098 0.76100004 15373462
-0.031164765 0.051458098 0.76100004 15436156
-0.02971524 0.051458098 0.76100004 14844019
-0.028265715 0.051458098 0.76100004 15038570
-0.026816191 0.051458098 0.76100004 14578019
-0.0254 0.051525716 0.76200002 14772834
-0.023948571 0.051525716 0.76200002 15101799
-0.022467621 0.051458098 0.76100004 14708585
-0.021018095 0.051458098 0.76100004 13853276
-0.019594287 0.051525716 0.76200002 12606782
-0.11860192 0.053116191 0.76400006 13212553
-0.11714668 0.053116191 0.76400006 10975591
-0.11569143 0.053116191 0.76400006 13071104
-0.1142362 0.053116191 0.76400006 14189568
-0.11278096 0.053116191 0.76400006 14977319
-0.11132572 0.053116191 0.76400006 14122010
-0.10987048 0.053116191 0.76400006 13988864
-0.10813143 0.052977145 0.76200002 14383616
-0.10668 0.052977145 0.76200002 14449997
-0.10522857 0.052977145 0.76200002 14186825
-0.10377715 0.052977145 0.76200002 13924414
-0.10232572 0.052977145 0.76200002 13332277
-0.10087429 0.052977145 0.76200002 13922601
-0.099683814 0.053116191 0.76400006 14975289
-0.098228574 0.053116191 0.76400006 14582330
-0.096773341 0.053116191 0.76400006 13200677
-0.095318101 0.053116191 0.76400006 13527040
-0.093617149 0.052977145 0.76200002 15237638
-0.092165716 0.052977145 0.76200002 14716928
-0.090714283 0.052977145 0.76200002 15045888
-0.089262858 0.052977145 0.76200002 15045663
-0.087811433 0.052977145 0.76200002 15374628
-0.08636 0.052977145 0.76200002 14652514
-0.084908567 0.052977145 0.76200002 12678724
-0.08345715 0.052977145 0.76200002 12543054
-0.082005717 0.052977145 0.76200002 15306360
-0.080554284 0.052977145 0.76200002 13544116
-0.079102859 0.052977145 0.76200002 10780810
-0.077651434 0.052977145 0.76200002 9148488
-0.076100007 0.05290762 0.76100004 12043380
-0.074650481 0.05290762 0.76100004 15125951
-0.073200949 0.05290762 0.76100004 16047053
-0.071751431 0.05290762 0.76100004 16644094
-0.070301905 0.05290762 0.76100004 16644094
-0.068671428 0.052768577 0.75900006 16644094
-0.067225717 0.052768577 0.75900006 16644094
-0.065953337 0.05290762 0.76100004 16645118
-0.064503811 0.05290762 0.76100004 16645118
-0.063137144 0.052977145 0.76200002 16645118
