# .PCD v0.7 - Point Cloud Data file format
VERSION 0.7
FIELDS x y z rgba
SIZE 4 4 4 4
TYPE F F F U
COUNT 1 1 1 1
WIDTH 1127
HEIGHT 1
VIEWPOINT 0 0 0 1 0 0 0
POINTS 1127
DATA ascii
-0.0018714287 0.19026192 0.65500003 11439202
-0.00062380952 0.19026192 0.65500003 11965546
0.00062380952 0.19026192 0.65500003 11703408
0.0018685715 0.18997145 0.65400004 11637615
0.0031142859 0.18997145 0.65400004 11703662
0.0043600001 0.18997145 0.65400004 11835248
0.005597143 0.18968098 0.65300006 11309674
0.0068409527 0.18968098 0.65300006 11309674
0.0080847619 0.18968098 0.65300006 11179124
0.0093142856 0.18939048 0.65200001 11047538
0.010556191 0.18939048 0.65200001 11309679
0.011798096 0.18939048 0.65200001 11112300
0.013040001 0.18939048 0.65200001 10848362
0.01430381 0.18968098 0.65300006 11308913
0.015547619 0.18968098 0.65300006 11243877
0.016791431 0.18968098 0.65300006 11572842
0.018062858 0.18997145 0.65400004 11769464
0.019308573 0.18997145 0.65400004 10716776
0.020554285 0.18997145 0.65400004 11042400
0.021833334 0.19026192 0.65500003 11437158
0.023080952 0.19026192 0.65500003 11371622
0.024402859 0.19084285 0.65700001 11240036
0.025654286 0.19084285 0.65700001 11241058
0.026946669 0.19113335 0.65800005 11109472
0.02824286 0.19142382 0.65900004 11240788
0.029498097 0.19142382 0.65900004 11438167
0.030753333 0.19142382 0.65900004 11371883
0.032105718 0.19200477 0.66100001 11240297
0.033415239 0.19229525 0.66200006 10190687
0.034780953 0.19287619 0.66400003 10585445
0.036208577 0.19374762 0.66700006 9409384
0.037535239 0.19403809 0.66800004 8883040
0.038923811 0.19461904 0.67000002 8686704
0.040259998 0.19490953 0.671 11713182
0.041538097 0.19490953 0.671 13749671
-0.021182857 0.19706477 0.67400002 13552544
-0.019780952 0.19589524 0.67000002 10592155
-0.018449524 0.19531049 0.66800004 9078916
-0.017177144 0.19531049 0.66800004 9145202
-0.015880954 0.1950181 0.66700006 9408374
-0.014588571 0.19472572 0.66600001 10258020
-0.013260001 0.19384858 0.66300005 10389606
-0.011979048 0.1935562 0.66200006 10846030
-0.010718096 0.1935562 0.66200006 10911823
-0.0094428575 0.19326381 0.66100001 10780768
-0.0081590479 0.19267906 0.65900004 10714975
-0.00690381 0.19267906 0.65900004 10649171
-0.0056400001 0.19238667 0.65800005 10780757
-0.0043799998 0.19209428 0.65700001 10649184
-0.0031285714 0.19209428 0.65700001 10649184
-0.0018771428 0.19209428 0.65700001 10715493
-0.00062380952 0.19150953 0.65500003 11702388
0.00062380952 0.19150953 0.65500003 10913894
0.0018714287 0.19150953 0.65500003 10716515
0.0031190477 0.19150953 0.65500003 10978915
0.0043600001 0.19121715 0.65400004 11307880
0.0056057149 0.19121715 0.65400004 10518381
0.0068514287 0.19121715 0.65400004 10386795
0.0080971438 0.19121715 0.65400004 10650221
0.0093285721 0.19092478 0.65300006 10913393
0.010572381 0.19092478 0.65300006 10781536
0.011816191 0.19092478 0.65300006 10715743
0.013060001 0.19092478 0.65300006 10715493
0.01430381 0.19092478 0.65300006 10715493
0.015571428 0.19121715 0.65400004 10979165
0.016817143 0.19121715 0.65400004 10979165
0.018062858 0.19121715 0.65400004 10714964
0.019308573 0.19121715 0.65400004 10254413
0.020585716 0.19150953 0.65500003 10384998
0.021833334 0.19150953 0.65500003 11108721
0.023151428 0.19209428 0.65700001 10648679
0.024440002 0.19238667 0.65800005 10188128
0.025732381 0.19267906 0.65900004 10518112
0.027069524 0.19326381 0.66100001 10715491
0.028328571 0.19326381 0.66100001 10519629
0.029587621 0.19326381 0.66100001 10782801
0.030846667 0.19326381 0.66100001 10782819
0.032154288 0.1935562 0.66200006 10848612
0.033465717 0.19384858 0.66300005 9931362
0.034780953 0.19414096 0.66400003 9470811
0.036262862 0.19531049 0.66800004 8159838
0.037535239 0.19531049 0.66800004 7765080
0.038923811 0.19589524 0.67000002 8357214
0.040259998 0.19618762 0.671 11910036
0.041538097 0.19618762 0.671 13947050
-0.021214286 0.19864285 0.67500001 14012843
-0.019810477 0.19746572 0.671 11775630
-0.018504761 0.19717142 0.67000002 9275496
-0.017228572 0.19717142 0.67000002 8422506
-0.015880954 0.19628859 0.66700006 8554092
-0.014588571 0.19599429 0.66600001 9865066
-0.01332 0.19599429 0.66600001 9996652
-0.012015239 0.19540572 0.66400003 10453841
-0.010734286 0.19511144 0.66300005 10453841
-0.009457144 0.19481716 0.66200006 10387802
-0.0081838099 0.19452286 0.66100001 10387802
-0.0069247619 0.19452286 0.66100001 9794641
-0.0056485715 0.19393429 0.65900004 9728848
-0.0043866672 0.19364002 0.65800005 10121800
-0.0031333335 0.19364002 0.65800005 10911316
-0.0018771428 0.19334571 0.65700001 10583893
-0.00062571431 0.19334571 0.65700001 10978651
0.00062571431 0.19334571 0.65700001 10584141
0.0018714287 0.19275714 0.65500003 10649934
0.0031190477 0.19275714 0.65500003 10714453
0.0043666665 0.19275714 0.65500003 10714453
0.0056142863 0.19275714 0.65500003 10583382
0.0068514287 0.19246286 0.65400004 10714968
0.0080971438 0.19246286 0.65400004 10912345
0.0093428576 0.19246286 0.65400004 10649173
0.010588572 0.19246286 0.65400004 10714196
0.011834286 0.19246286 0.65400004 10779989
0.013080001 0.19246286 0.65400004 11109474
0.014325715 0.19246286 0.65400004 10648923
0.015571428 0.19246286 0.65400004 10714453
0.016817143 0.19246286 0.65400004 10648660
0.018062858 0.19246286 0.65400004 10187593
0.019338096 0.19275714 0.65500003 10187593
0.020648571 0.19334571 0.65700001 9794643
0.0219 0.19334571 0.65700001 10386780
0.023221906 0.19393429 0.65900004 10322000
0.024477145 0.19393429 0.65900004 10322000
0.025810476 0.19452286 0.66100001 10256205
0.027069524 0.19452286 0.66100001 10387791
0.028328571 0.19452286 0.66100001 10060616
0.029632382 0.19481716 0.66200006 10718546
0.030893337 0.19481716 0.66200006 10654330
0.032154288 0.19481716 0.66200006 10588537
0.033465717 0.19511144 0.66300005 9079910
0.034780953 0.19540572 0.66400003 7961429
0.036371432 0.19717142 0.67000002 7238738
0.03764762 0.19717142 0.67000002 7830875
0.038923811 0.19717142 0.67000002 8093536
0.040259998 0.19746572 0.671 12106909
-0.021245716 0.20022479 0.67600006 14078638
-0.019928573 0.19992857 0.67500001 12105105
-0.01853238 0.19874381 0.671 9276006
-0.017228572 0.19844763 0.67000002 8422256
-0.015904762 0.19785525 0.66800004 8422256
-0.014610478 0.19755906 0.66700006 9143401
-0.01332 0.19726287 0.66600001 9801331
-0.012015239 0.19667049 0.66400003 11312234
-0.010734286 0.1963743 0.66300005 12233336
-0.009457144 0.19607811 0.66200006 12100483
-0.0081961909 0.19607811 0.66200006 12034690
-0.0069247619 0.1957819 0.66100001 11771520
-0.0056485715 0.19518952 0.65900004 9863523
-0.0043933336 0.19518952 0.65900004 10388066
-0.0031333335 0.19489335 0.65800005 11243375
-0.0018800002 0.19489335 0.65800005 11112554
-0.0006266667 0.19489335 0.65800005 11178347
0.00062571431 0.19459714 0.65700001 10850141
0.0018771428 0.19459714 0.65700001 10521176
0.0031285714 0.19459714 0.65700001 10454113
0.0043666665 0.19400477 0.65500003 10059355
0.0056142863 0.19400477 0.65500003 9993831
0.0068619051 0.19400477 0.65500003 10191210
0.0081095239 0.19400477 0.65500003 10191700
0.0093428576 0.19370858 0.65400004 9862735
0.010588572 0.19370858 0.65400004 9994071
0.011834286 0.19370858 0.65400004 10059864
0.013080001 0.19370858 0.65400004 10124898
0.014325715 0.19370858 0.65400004 10124898
0.015595238 0.19400477 0.65500003 10124898
0.016842859 0.19400477 0.65500003 10124898
0.018090477 0.19400477 0.65500003 9664353
0.019338096 0.19400477 0.65500003 9795939
0.020648571 0.19459714 0.65700001 10061143
0.021933336 0.19489335 0.65800005 10455901
0.023221906 0.19518952 0.65900004 10783837
0.024551429 0.1957819 0.66100001 12165490
0.025810476 0.1957819 0.66100001 12034935
0.027069524 0.1957819 0.66100001 12100728
0.028371431 0.19607811 0.66200006 12102002
0.029632382 0.19607811 0.66200006 12694139
0.030893337 0.19607811 0.66200006 11708297
0.032202858 0.1963743 0.66300005 10524023
0.033516191 0.19667049 0.66400003 9539171
0.034885716 0.19726287 0.66600001 8157518
0.036371432 0.19844763 0.67000002 7502964
0.03764762 0.19844763 0.67000002 7634550
0.038923811 0.19844763 0.67000002 8027750
0.040259998 0.19874381 0.671 12172709
0.041538097 0.19874381 0.671 14143652
0.04300762 0.19963239 0.67400002 16776143
-0.021214286 0.2012143 0.67500001 14539449
-0.019928573 0.2012143 0.67500001 12698272
-0.018615238 0.2009162 0.67400002 9145450
-0.017254286 0.20002189 0.671 8290915
-0.01595238 0.19972381 0.67000002 7896157
-0.014632382 0.19912763 0.66800004 8158041
-0.013340001 0.19882953 0.66700006 9342315
-0.012051429 0.19853143 0.66600001 10853237
-0.010750476 0.19793525 0.66400003 12234890
-0.0094714295 0.19763716 0.66300005 12430990
-0.0081961909 0.19733907 0.66200006 12496783
-0.0069352384 0.19733907 0.66200006 11773588
-0.0056657144 0.19704096 0.66100001 9931384
-0.0044066664 0.19704096 0.66100001 10521957
-0.0031380954 0.19644478 0.65900004 10916715
-0.0018828572 0.19644478 0.65900004 10916463
-0.0006276191 0.19644478 0.65900004 10850670
0.0006266667 0.19614667 0.65800005 10851949
0.0018800002 0.19614667 0.65800005 10786156
0.0031285714 0.19584857 0.65700001 10785918
0.0043799998 0.19584857 0.65700001 9601644
0.0056314287 0.19584857 0.65700001 9601884
0.0068619051 0.19525239 0.65500003 9733470
0.0081095239 0.19525239 0.65500003 10064234
0.0093571432 0.19525239 0.65500003 9143132
0.010604762 0.19525239 0.65500003 9865565
0.011852382 0.19525239 0.65500003 9997151
0.013100001 0.19525239 0.65500003 9272936
0.014347619 0.19525239 0.65500003 9338729
0.015595238 0.19525239 0.65500003 10061411
0.016842859 0.19525239 0.65500003 9666653
0.018145714 0.19584857 0.65700001 8747347
0.019397143 0.19584857 0.65700001 8813140
0.020680003 0.19614667 0.65800005 9405810
0.021966668 0.19644478 0.65900004 9603189
0.023292381 0.19704096 0.66100001 10522466
0.024551429 0.19704096 0.66100001 12035705
0.025849525 0.19733907 0.66200006 12167552
0.02711048 0.19733907 0.66200006 12299138
0.028371431 0.19733907 0.66200006 12234356
0.029632382 0.19733907 0.66200006 12431735
0.030893337 0.19733907 0.66200006 11576711
0.032202858 0.19763716 0.66300005 10195058
0.033617143 0.19853143 0.66600001 9342829
0.034938097 0.19882953 0.66700006 8026969
0.036425717 0.20002189 0.671 7699566
0.037703808 0.20002189 0.671 7765359
0.038981903 0.20002189 0.671 7962209
0.040320002 0.20032001 0.67200005 12107168
0.04172381 0.2009162 0.67400002 14077348
0.04300762 0.2009162 0.67400002 16774861
-0.021214286 0.2025 0.67500001 15196870
-0.019928573 0.2025 0.67500001 13684389
-0.018615238 0.20220001 0.67400002 9210465
-0.017280001 0.20160002 0.67200005 7962720
-0.015976191 0.20130001 0.671 7238997
-0.014632382 0.20040001 0.66800004 7830119
-0.013340001 0.2001 0.66700006 9080186
-0.012051429 0.1998 0.66600001 10787432
-0.010782857 0.1998 0.66600001 12300671
-0.0094857151 0.1992 0.66400003 12496517
-0.0082085719 0.19890001 0.66300005 13088654
-0.0069352384 0.19860001 0.66200006 11970439
-0.0056742863 0.19860001 0.66200006 9996649
-0.0044066664 0.1983 0.66100001 9997664
-0.0031476191 0.1983 0.66100001 10195043
-0.0018828572 0.19770001 0.65900004 9799273
-0.0006276191 0.19770001 0.65900004 9733480
0.0006276191 0.19770001 0.65900004 9602908
0.0018800002 0.19740002 0.65800005 9668701
0.0031285714 0.1971 0.65700001 9076577
0.0043799998 0.1971 0.65700001 8089682
0.0056314287 0.1971 0.65700001 8747336
0.0068828571 0.1971 0.65700001 9800024
0.0081342859 0.1971 0.65700001 8617049
0.0093571432 0.1965 0.65500003 7630154
0.010604762 0.1965 0.65500003 9076044
0.011852382 0.1965 0.65500003 11378799
0.013100001 0.1965 0.65500003 9733470
0.014347619 0.1965 0.65500003 8351817
0.015595238 0.1965 0.65500003 8353353
0.016842859 0.1965 0.65500003 8879697
0.018145714 0.1971 0.65700001 7037773
0.019397143 0.1971 0.65700001 6774601
0.020711429 0.19770001 0.65900004 6579300
0.022033334 0.1983 0.66100001 5987163
0.023292381 0.1983 0.66100001 9405028
0.024551429 0.1983 0.66100001 12299920
0.025849525 0.19860001 0.66200006 12233856
0.02711048 0.19860001 0.66200006 12299649
0.028371431 0.19860001 0.66200006 12365676
0.029677145 0.19890001 0.66300005 12431469
0.030940004 0.19890001 0.66300005 11379831
0.032348569 0.1998 0.66600001 9603420
0.03366762 0.2001 0.66700006 8225129
0.035095241 0.20100001 0.67000002 7567199
0.036425717 0.20130001 0.671 7371378
0.037703808 0.20130001 0.671 7766136
0.039040003 0.20160002 0.67200005 8159329
0.040320002 0.20160002 0.67200005 12172702
0.04172381 0.20220001 0.67400002 14077607
0.04300762 0.20220001 0.67400002 16775377
0.044291429 0.20220001 0.67400002 16446935
-0.019928573 0.20378572 0.67500001 13618860
-0.018615238 0.20348381 0.67400002 9210729
-0.017280001 0.20288001 0.67200005 8095088
-0.015976191 0.2025781 0.671 7173986
-0.014676191 0.20227619 0.67000002 7699035
-0.01336 0.20167239 0.66800004 9212274
-0.012069525 0.20137048 0.66700006 10459240
-0.010782857 0.20106858 0.66600001 11972479
-0.0095142853 0.20106858 0.66600001 12233091
-0.0082085719 0.20016287 0.66300005 12233091
-0.0069457148 0.20016287 0.66300005 11839616
-0.0056742863 0.19986098 0.66200006 9931619
-0.0044133337 0.19986098 0.66200006 9078613
-0.0031476191 0.19955905 0.66100001 9144406
-0.0018885714 0.19955905 0.66100001 9077328
-0.00062952383 0.19955905 0.66100001 9208914
0.0006276191 0.19895525 0.65900004 6906913
0.0018800002 0.19865334 0.65800005 8025394
0.0031285714 0.19835143 0.65700001 8090694
0.0043799998 0.19835143 0.65700001 7893315
0.0056314287 0.19835143 0.65700001 8287285
0.0068828571 0.19835143 0.65700001 8682043
0.0081342859 0.19835143 0.65700001 7431485
0.0093857143 0.19835143 0.65700001 7563071
0.010637143 0.19835143 0.65700001 8616261
0.011888571 0.19835143 0.65700001 11182188
0.013139999 0.19835143 0.65700001 9275505
0.014391429 0.19835143 0.65700001 7499094
0.015642857 0.19835143 0.65700001 7171109
0.016894286 0.19835143 0.65700001 7960625
0.018200954 0.19895525 0.65900004 6448172
0.019456191 0.19895525 0.65900004 6513965
0.020774284 0.19955905 0.66100001 7173986
0.022033334 0.19955905 0.66100001 6713435
0.023292381 0.19955905 0.66100001 8946262
0.024588574 0.19986098 0.66200006 11643775
0.025849525 0.19986098 0.66200006 11708532
0.02715143 0.20016287 0.66300005 12103290
0.028414289 0.20016287 0.66300005 12563582
0.029677145 0.20016287 0.66300005 12431996
0.031079998 0.20106858 0.66600001 11314819
0.032397144 0.20137048 0.66700006 9209443
0.03366762 0.20137048 0.66700006 7765593
0.035095241 0.20227619 0.67000002 6778698
0.036425717 0.2025781 0.671 6581599
0.037703808 0.2025781 0.671 7107943
0.039040003 0.20288001 0.67200005 8421988
0.040440001 0.20348381 0.67400002 12830119
0.041785713 0.20378572 0.67500001 14208939
0.04307143 0.20378572 0.67500001 16774866
-0.018615238 0.20476763 0.67400002 9341792
-0.017331429 0.20476763 0.67400002 7831168
-0.015976191 0.20385619 0.671 7896961
-0.014676191 0.2035524 0.67000002 8093536
-0.013400001 0.2035524 0.67000002 9475189
-0.012069525 0.20264097 0.66700006 10589542
-0.010799048 0.20264097 0.66700006 12431746
-0.0095142853 0.20233715 0.66600001 12298875
-0.008220952 0.20172954 0.66400003 11640945
-0.0069457148 0.20142572 0.66300005 11247454
-0.0056742863 0.20112193 0.66200006 10260559
-0.0044133337 0.20112193 0.66200006 9472095
-0.0031523814 0.20112193 0.66200006 9866853
-0.0018885714 0.20081811 0.66100001 10063959
-0.00062952383 0.20081811 0.66100001 10392924
0.0006276191 0.20021048 0.65900004 9340259
0.0018828572 0.20021048 0.65900004 9208673
0.0031333335 0.19990669 0.65800005 9604442
0.0043866672 0.19990669 0.65800005 9670235
0.0056400001 0.19990669 0.65800005 9866832
0.0068828571 0.19960286 0.65700001 9208902
0.0081342859 0.19960286 0.65700001 8155745
0.0093857143 0.19960286 0.65700001 7760987
0.010637143 0.19960286 0.65700001 8945492
0.011888571 0.19960286 0.65700001 11314040
0.013139999 0.19960286 0.65700001 10919007
0.014391429 0.19960286 0.65700001 9274182
0.015690476 0.20021048 0.65900004 9144143
0.016945716 0.20021048 0.65900004 9802073
0.018256191 0.20081811 0.66100001 8356185
0.019515239 0.20081811 0.66100001 7829841
0.020774284 0.20081811 0.66100001 7765089
0.022033334 0.20081811 0.66100001 7633503
0.023292381 0.20081811 0.66100001 9077850
0.024588574 0.20112193 0.66200006 10064745
0.025849525 0.20112193 0.66200006 10984521
0.02715143 0.20142572 0.66300005 11313486
0.028414289 0.20142572 0.66300005 12035696
0.029721906 0.20172954 0.66400003 12298868
0.031079998 0.20233715 0.66600001 11380346
0.032397144 0.20264097 0.66700006 9209177
0.03366762 0.20264097 0.66700006 7503707
0.035147619 0.20385619 0.671 5990468
0.036425717 0.20385619 0.671 6187629
0.037760001 0.20416 0.67200005 6911352
0.039040003 0.20416 0.67200005 7962209
0.0405 0.20507142 0.67500001 13094063
0.04184762 0.20537525 0.67600006 14341040
0.043135241 0.20537525 0.67600006 16776409
-0.020017143 0.2072743 0.67800003 14013364
-0.018642858 0.20635714 0.67500001 9539440
-0.017357143 0.20635714 0.67500001 7830902
-0.016047619 0.20605142 0.67400002 7567730
-0.014698096 0.20513429 0.671 8485730
-0.01342 0.20513429 0.671 9012074
-0.012087619 0.20421715 0.66800004 10192477
-0.010799048 0.20391145 0.66700006 12626818
-0.0095285727 0.20391145 0.66700006 12299397
-0.008245714 0.20360571 0.66600001 11444088
-0.0069561908 0.2029943 0.66400003 10195043
-0.0056828577 0.20268857 0.66300005 9273941
-0.0044133337 0.20238286 0.66200006 9272917
-0.0031523814 0.20238286 0.66200006 9667675
-0.0018914287 0.20238286 0.66200006 10128730
-0.00062952383 0.20207714 0.66100001 10128730
0.00062952383 0.20207714 0.66100001 9537631
0.0018828572 0.20146573 0.65900004 9998182
0.0031380954 0.20146573 0.65900004 9933159
0.0043866672 0.20116001 0.65800005 9933159
0.0056400001 0.20116001 0.65800005 10129766
0.0068933335 0.20116001 0.65800005 9077078
0.0081466679 0.20116001 0.65800005 8550235
0.0094000008 0.20116001 0.65800005 8221270
0.010653334 0.20116001 0.65800005 9405014
0.011906668 0.20116001 0.65800005 11378804
0.013160001 0.20116001 0.65800005 11640958
0.014413333 0.20116001 0.65800005 10259305
0.015690476 0.20146573 0.65900004 9734231
0.016945716 0.20146573 0.65900004 10063196
0.018256191 0.20207714 0.66100001 8684380
0.019515239 0.20207714 0.66100001 8421208
0.020805717 0.20238286 0.66200006 8552796
0.022066668 0.20238286 0.66200006 8158038
0.023327621 0.20238286 0.66200006 8484939
0.024588574 0.20238286 0.66200006 8945490
0.025888573 0.20268857 0.66300005 9404219
0.02715143 0.20268857 0.66300005 10720079
0.028542858 0.20360571 0.66600001 11376485
0.029811429 0.20360571 0.66600001 11705450
0.031126669 0.20391145 0.66700006 10261369
0.032397144 0.20391145 0.66700006 9077095
0.033718098 0.20421715 0.66800004 7373150
0.035147619 0.20513429 0.671 5794118
0.036425717 0.20513429 0.671 6055514
0.037760001 0.20544001 0.67200005 7173995
0.039040003 0.20544001 0.67200005 7502430
0.0405 0.20635714 0.67500001 12831663
0.04184762 0.20666288 0.67600006 14341551
0.043135241 0.20666288 0.67600006 16775892
-0.020017143 0.20856571 0.67800003 14473154
-0.018670477 0.2079505 0.67600006 9867644
-0.017357143 0.20764287 0.67500001 7830396
-0.016047619 0.20733525 0.67400002 7172466
-0.014720001 0.20672001 0.67200005 7762795
-0.01342 0.20641237 0.671 8223346
-0.01212381 0.20610477 0.67000002 9075309
-0.010815239 0.20548953 0.66800004 10654341
-0.0095285727 0.20518193 0.66700006 10720358
-0.008245714 0.20487428 0.66600001 10720358
-0.0069561908 0.20425905 0.66400003 10195045
-0.0056828577 0.20395145 0.66300005 9076564
-0.0044133337 0.20364383 0.66200006 9207395
-0.0031523814 0.20364383 0.66200006 9141602
-0.0018914287 0.20364383 0.66200006 9339214
-0.00062952383 0.20333619 0.66100001 9536593
0.00062952383 0.20333619 0.66100001 9536604
0.0018885714 0.20333619 0.66100001 10326120
0.0031476191 0.20333619 0.66100001 9932898
0.0043933336 0.20272096 0.65900004 9867105
0.0056485715 0.20272096 0.65900004 9801303
0.00690381 0.20272096 0.65900004 8748615
0.0081590479 0.20272096 0.65900004 8354146
0.0094000008 0.20241334 0.65800005 8419939
0.010653334 0.20241334 0.65800005 9011798
0.011906668 0.20241334 0.65800005 10722416
0.013180001 0.20272096 0.65900004 10786930
0.014435238 0.20272096 0.65900004 10523758
0.015690476 0.20272096 0.65900004 9735010
0.016997144 0.20333619 0.66100001 9800803
0.018256191 0.20333619 0.66100001 9012067
0.019515239 0.20333619 0.66100001 8683102
0.020805717 0.20364383 0.66200006 8814926
0.022066668 0.20364383 0.66200006 8946512
0.023327621 0.20364383 0.66200006 9077589
0.024625717 0.20395145 0.66300005 9406554
0.025888573 0.20395145 0.66300005 9471838
0.027192382 0.20425905 0.66400003 9998182
0.028542858 0.20487428 0.66600001 10128478
0.029856192 0.20518193 0.66700006 10194271
0.031126669 0.20518193 0.66700006 9209964
0.032445714 0.20548953 0.66800004 8354655
0.03381905 0.20610477 0.67000002 7634772
0.035147619 0.20641237 0.671 5989947
0.036480006 0.20672001 0.67200005 5989473
0.037760001 0.20672001 0.67200005 7173747
0.039156191 0.20733525 0.67400002 7830112
0.0405 0.20764287 0.67500001 13093552
0.04184762 0.2079505 0.67600006 15328176
0.043135241 0.2079505 0.67600006 16777165
-0.017357143 0.20892857 0.67500001 8488828
-0.016047619 0.20861904 0.67400002 7304554
-0.014720001 0.208 0.67200005 7237975
-0.01342 0.20769048 0.671 7566940
-0.01212381 0.20738095 0.67000002 8485473
-0.010815239 0.20676193 0.66800004 9603954
-0.0095285727 0.2064524 0.66700006 9538653
-0.0082580959 0.2064524 0.66700006 9867618
-0.0069771428 0.20614286 0.66600001 9932404
-0.0056914287 0.20552382 0.66400003 9077095
-0.0044133337 0.20490478 0.66200006 9206876
-0.0031523814 0.20490478 0.66200006 9338462
-0.0018914287 0.20490478 0.66200006 9470550
-0.00062952383 0.20459524 0.66100001 9404757
0.00062952383 0.20459524 0.66100001 8813638
0.0018885714 0.20459524 0.66100001 9603154
0.0031476191 0.20459524 0.66100001 9537881
0.0044066664 0.20459524 0.66100001 9537881
0.0056657144 0.20459524 0.66100001 9012309
0.0069247619 0.20459524 0.66100001 8485965
0.0081838099 0.20459524 0.66100001 8222810
0.0094142854 0.2039762 0.65900004 8485982
0.010669525 0.2039762 0.65900004 8814426
0.011924762 0.2039762 0.65900004 10261872
0.013180001 0.2039762 0.65900004 10327416
0.014435238 0.2039762 0.65900004 10195830
0.015738094 0.20459524 0.66100001 9603683
0.016997144 0.20459524 0.66100001 9735269
0.018256191 0.20459524 0.66100001 9800803
0.019515239 0.20459524 0.66100001 9669217
0.020805717 0.20490478 0.66200006 9734744
0.022066668 0.20490478 0.66200006 9537365
0.023327621 0.20490478 0.66200006 9274193
0.024625717 0.20521431 0.66300005 9603158
0.025888573 0.20521431 0.66300005 9406813
0.027274286 0.20614286 0.66600001 9472606
0.028585717 0.2064524 0.66700006 9342042
0.029856192 0.2064524 0.66700006 9144663
0.031173335 0.20676193 0.66800004 8356713
0.032445714 0.20676193 0.66800004 7896162
0.03381905 0.20738095 0.67000002 7372382
0.035200004 0.208 0.67200005 6122315
0.036480006 0.208 0.67200005 6186316
0.037872382 0.20861904 0.67400002 7239004
0.039156191 0.20861904 0.67400002 8026719
0.0405 0.20892857 0.67500001 13553331
0.04184762 0.20923811 0.67600006 15525312
0.043135241 0.20923811 0.67600006 16776150
-0.017382858 0.21052572 0.67600006 8291953
-0.016071428 0.21021429 0.67500001 7305058
-0.014720001 0.20928001 0.67200005 7041105
-0.01342 0.20896858 0.671 7106898
-0.01212381 0.20865715 0.67000002 7435104
-0.010815239 0.20803431 0.66800004 8685171
-0.0095285727 0.20772287 0.66700006 9211226
-0.0082580959 0.20772287 0.66700006 9605984
-0.0069771428 0.20741142 0.66600001 9539960
-0.0057085715 0.20741142 0.66600001 8947823
-0.004426667 0.20678857 0.66400003 9076847
-0.0031523814 0.20616573 0.66200006 9274226
-0.0018914287 0.20616573 0.66200006 9801062
-0.00063047622 0.20616573 0.66200006 9669476
0.00063047622 0.20616573 0.66200006 9604696
0.0018914287 0.20616573 0.66200006 9802075
0.0031523814 0.20616573 0.66200006 9801823
0.0044066664 0.20585428 0.66100001 9341272
0.0056657144 0.20585428 0.66100001 9209443
0.0069247619 0.20585428 0.66100001 9209443
0.0081838099 0.20585428 0.66100001 8880738
0.0094428575 0.20585428 0.66100001 8683359
0.010669525 0.20523144 0.65900004 8880231
0.011924762 0.20523144 0.65900004 9472368
0.013180001 0.20523144 0.65900004 9537646
0.014479048 0.20585428 0.66100001 9406060
0.015738094 0.20585428 0.66100001 9799786
0.016997144 0.20585428 0.66100001 10655095
0.018256191 0.20585428 0.66100001 10720599
0.019544763 0.20616573 0.66200006 10194255
0.020805717 0.20616573 0.66200006 10193753
0.022066668 0.20616573 0.66200006 10193753
0.023327621 0.20616573 0.66200006 9931612
0.024625717 0.20647715 0.66300005 9931612
0.026005713 0.20741142 0.66600001 9472860
0.027274286 0.20741142 0.66600001 9275481
0.028585717 0.20772287 0.66700006 8685402
0.029900953 0.20803431 0.66800004 8751195
0.031173335 0.20803431 0.66800004 8226160
0.032542858 0.20865715 0.67000002 6120784
0.033869524 0.20896858 0.671 6319717
0.035200004 0.20928001 0.67200005 6648682
0.036480006 0.20928001 0.67200005 6713937
0.037872382 0.20990287 0.67400002 7042902
0.039156191 0.20990287 0.67400002 8091994
0.0405 0.21021429 0.67500001 13881778
0.041785713 0.21021429 0.67500001 15524792
-0.017382858 0.21181335 0.67600006 8094567
-0.016071428 0.21149999 0.67500001 6712914
-0.014720001 0.21056001 0.67200005 6384470
-0.01342 0.21024667 0.671 6581849
-0.01212381 0.20993334 0.67000002 6648155
-0.010847619 0.20993334 0.67000002 7832429
-0.0095428573 0.20930669 0.66800004 8030302
-0.0082580959 0.20899336 0.66700006 8293474
-0.0069771428 0.20867999 0.66600001 8555114
-0.0057085715 0.20867999 0.66600001 8423528
-0.004426667 0.20805334 0.66400003 8684651
-0.003157143 0.20774001 0.66300005 8816237
-0.0018942858 0.20774001 0.66300005 9538677
-0.00063047622 0.20742668 0.66200006 9472884
0.00063047622 0.20742668 0.66200006 9868395
0.0018914287 0.20742668 0.66200006 9802602
0.0031523814 0.20742668 0.66200006 10065016
0.0044133337 0.20742668 0.66200006 9670258
0.0056742863 0.20742668 0.66200006 9604724
0.0069247619 0.20711334 0.66100001 9144173
0.0081838099 0.20711334 0.66100001 9077867
0.0094428575 0.20711334 0.66100001 9077867
0.010701905 0.20711334 0.66100001 9341291
0.011960953 0.20711334 0.66100001 9209705
0.01322 0.20711334 0.66100001 9143650
0.014500954 0.20742668 0.66200006 9077857
0.015738094 0.20711334 0.66100001 9537130
0.016997144 0.20711334 0.66100001 10852990
0.01828381 0.20742668 0.66200006 11508600
0.019544763 0.20742668 0.66200006 10653291
0.020805717 0.20742668 0.66200006 10718046
0.022066668 0.20742668 0.66200006 10783839
0.023327621 0.20742668 0.66200006 10390376
0.024737144 0.20867999 0.66600001 10258790
0.026005713 0.20867999 0.66600001 9604192
0.027315238 0.20899336 0.66700006 8946262
0.028585717 0.20899336 0.66700006 8225628
0.029900953 0.20930669 0.66800004 8554593
0.031173335 0.20930669 0.66800004 8161653
0.032542858 0.20993334 0.67000002 6582621
0.033869524 0.21024667 0.671 6516056
0.035200004 0.21056001 0.67200005 6581849
0.036480006 0.21056001 0.67200005 7239254
0.037872382 0.21118666 0.67400002 6844496
0.039156191 0.21118666 0.67400002 8026469
0.0405 0.21149999 0.67500001 13487288
0.041785713 0.21149999 0.67500001 15393456
0.04307143 0.21149999 0.67500001 16776137
-0.016142858 0.21373144 0.67800003 6777681
-0.014720001 0.21184002 0.67200005 6581351
-0.013440001 0.21184002 0.67200005 6712937
-0.012141905 0.21152475 0.671 6975330
-0.010847619 0.21120952 0.67000002 7633260
-0.0095428573 0.21057907 0.66800004 8357457
-0.0082580959 0.21026383 0.66700006 8752215
-0.0069876197 0.21026383 0.66700006 8817488
-0.0057085715 0.20994857 0.66600001 8488523
-0.004426667 0.2093181 0.66400003 8553063
-0.0031619049 0.2093181 0.66400003 8553063
-0.0018942858 0.20900287 0.66300005 8619365
-0.00063142861 0.20900287 0.66300005 8553572
0.00063047622 0.20868763 0.66200006 8225369
0.0018914287 0.20868763 0.66200006 7962197
0.0031523814 0.20868763 0.66200006 8027743
0.0044066664 0.20837238 0.66100001 8027743
0.0056657144 0.20837238 0.66100001 8093025
0.0069247619 0.20837238 0.66100001 8027232
0.0081838099 0.20837238 0.66100001 8027232
0.009457144 0.20868763 0.66200006 8027232
0.010718096 0.20868763 0.66200006 8683860
0.011979048 0.20868763 0.66200006 8420688
0.013240001 0.20868763 0.66200006 8026704
0.014500954 0.20868763 0.66200006 7895118
0.015738094 0.20837238 0.66100001 9273706
0.016997144 0.20837238 0.66100001 11115910
0.01828381 0.20868763 0.66200006 11508857
0.019544763 0.20868763 0.66200006 10587755
0.020805717 0.20868763 0.66200006 10652001
0.022066668 0.20868763 0.66200006 10783587
0.023362858 0.20900287 0.66300005 9931634
0.024737144 0.20994857 0.66600001 9207911
0.026005713 0.20994857 0.66600001 8290663
0.027315238 0.21026383 0.66700006 8224870
0.028585717 0.21026383 0.66700006 8751471
0.029900953 0.21057907 0.66800004 9080436
0.031173335 0.21057907 0.66800004 9080436
0.032542858 0.21120952 0.67000002 8290920
0.033920001 0.21184002 0.67200005 7765087
0.035200004 0.21184002 0.67200005 6646606
0.036480006 0.21184002 0.67200005 6582112
0.037872382 0.21247049 0.67400002 6713698
0.039156191 0.21247049 0.67400002 7828336
0.0405 0.21278572 0.67500001 13091776
0.041785713 0.21278572 0.67500001 15459228
0.04307143 0.21278572 0.67500001 16776887
-0.016142858 0.21502288 0.67800003 7106641
-0.014720001 0.21312001 0.67200005 6909269
-0.013440001 0.21312001 0.67200005 7106648
-0.012141905 0.21280286 0.671 7040103
-0.010863809 0.21280286 0.671 7566447
-0.0095428573 0.21185145 0.66800004 7763799
-0.0082580959 0.21153431 0.66700006 8158557
-0.0069876197 0.21153431 0.66700006 8356193
-0.0057085715 0.21121714 0.66600001 8290400
-0.0044400003 0.21121714 0.66600001 7698272
-0.0031619049 0.21058287 0.66400003 7500893
-0.001897143 0.21058287 0.66400003 7369820
-0.00063142861 0.21026573 0.66300005 7369820
0.00063142861 0.21026573 0.66300005 7634002
0.0018914287 0.20994858 0.66200006 7568209
0.0031523814 0.20994858 0.66200006 7568480
0.0044066664 0.20963143 0.66100001 7568480
0.0056657144 0.20963143 0.66100001 7568219
0.0069247619 0.20963143 0.66100001 7634012
0.0081838099 0.20963143 0.66100001 7568219
0.009457144 0.20994858 0.66200006 7831391
0.010718096 0.20994858 0.66200006 8619369
0.011979048 0.20994858 0.66200006 8224611
0.013240001 0.20994858 0.66200006 7566921
0.014500954 0.20994858 0.66200006 7566921
0.015738094 0.20963143 0.66100001 8814419
0.016997144 0.20963143 0.66100001 10722416
0.01828381 0.20994858 0.66200006 11179381
0.019544763 0.20994858 0.66200006 10653037
0.020837145 0.21026573 0.66300005 10323547
0.022100002 0.21026573 0.66300005 10718305
0.023362858 0.21026573 0.66300005 9734756
0.024737144 0.21121714 0.66600001 8155724
0.026044764 0.21153431 0.66700006 7764048
0.027315238 0.21153431 0.66700006 9079908
0.028628573 0.21185145 0.66800004 9080690
0.029990477 0.21248572 0.67000002 9212276
0.031266667 0.21248572 0.67000002 9474424
0.032591429 0.21280286 0.671 8684908
0.033920001 0.21312001 0.67200005 8488299
0.035200004 0.21312001 0.67200005 6843474
0.036588576 0.21375428 0.67400002 6319190
0.03792857 0.21407144 0.67500001 6450776
0.039214283 0.21407144 0.67500001 7696486
0.0405 0.21407144 0.67500001 13420477
0.041785713 0.21407144 0.67500001 15129761
0.04307143 0.21407144 0.67500001 16774586
-0.016142858 0.21631429 0.67800003 7304027
-0.014720001 0.21440001 0.67200005 6843994
-0.013440001 0.21440001 0.67200005 7765096
-0.012141905 0.21408096 0.671 7896180
-0.010863809 0.21408096 0.671 7304043
-0.0095428573 0.21312381 0.66800004 6186341
-0.0082704769 0.21312381 0.66800004 6054755
-0.0069876197 0.21280478 0.66700006 6778980
-0.005717143 0.21280478 0.66700006 7239531
-0.0044400003 0.21248572 0.66600001 6515819
-0.0031714286 0.21248572 0.66600001 5792096
-0.001897143 0.21184763 0.66400003 5859679
-0.00063142861 0.21152858 0.66300005 5662300
0.00063142861 0.21152858 0.66300005 6451026
0.0018914287 0.21120954 0.66200006 7437921
0.0031523814 0.21120954 0.66200006 7568998
0.0044066664 0.21089047 0.66100001 7568998
0.0056657144 0.21089047 0.66100001 7896673
0.0069352384 0.21120954 0.66200006 8225638
0.0081961909 0.21120954 0.66200006 7962470
0.009457144 0.21120954 0.66200006 8423021
0.010718096 0.21120954 0.66200006 8750962
0.011979048 0.21120954 0.66200006 9672064
0.013240001 0.21120954 0.66200006 8290915
0.014500954 0.21120954 0.66200006 8093536
0.015761906 0.21120954 0.66200006 9273437
0.017022859 0.21120954 0.66200006 10918262
0.01828381 0.21120954 0.66200006 11244649
0.019574286 0.21152858 0.66300005 10784098
0.020837145 0.21152858 0.66300005 10520676
0.022100002 0.21152858 0.66300005 11047020
0.023398096 0.21184763 0.66400003 9341272
0.024737144 0.21248572 0.66600001 7170103
0.026044764 0.21280478 0.66700006 7567197
0.027315238 0.21280478 0.66700006 9738366
0.028628573 0.21312381 0.66800004 10131308
0.029990477 0.21376191 0.67000002 10657652
0.031266667 0.21376191 0.67000002 9935219
0.032591429 0.21408096 0.671 8290394
0.034020953 0.21503811 0.67400002 7699546
0.035304762 0.21503811 0.67400002 7107409
0.036642861 0.21535714 0.67500001 6647655
0.03792857 0.21535714 0.67500001 6450276
0.039272383 0.2156762 0.67600006 7829088
0.0405 0.21535714 0.67500001 13487286
0.041785713 0.21535714 0.67500001 14998184
0.04307143 0.21535714 0.67500001 16511423
-0.020046666 0.21792668 0.67900002 15788736
-0.018753333 0.21792668 0.67900002 10788468
-0.017434288 0.21760572 0.67800003 8751473
-0.016142858 0.21760572 0.67800003 7172441
-0.01476381 0.21632192 0.67400002 6516562
-0.013440001 0.21568002 0.67200005 7503457
-0.01216 0.21568002 0.67200005 8225660
-0.010863809 0.21535905 0.671 6909800
-0.0095428573 0.21439619 0.66800004 5464131
-0.0082704769 0.21439619 0.66800004 5727303
-0.0069876197 0.21407525 0.66700006 6320223
-0.005717143 0.21407525 0.66700006 6517602
-0.0044400003 0.21375428 0.66600001 5860204
-0.0031714286 0.21375428 0.66600001 5597032
-0.001897143 0.21311238 0.66400003 5532763
-0.00063238095 0.21311238 0.66400003 5532763
0.00063142861 0.21279144 0.66300005 6123596
0.0018914287 0.2124705 0.66200006 7242077
0.0031523814 0.2124705 0.66200006 7635041
0.0044133337 0.2124705 0.66200006 7569248
0.0056742863 0.2124705 0.66200006 7831386
0.0069352384 0.2124705 0.66200006 7897179
0.0081961909 0.2124705 0.66200006 7830875
0.009457144 0.2124705 0.66200006 8423012
0.010718096 0.2124705 0.66200006 8554346
0.011979048 0.2124705 0.66200006 9212276
0.013260001 0.21279144 0.66300005 8159325
0.014522858 0.21279144 0.66300005 8290911
0.015761906 0.2124705 0.66200006 10456934
0.017022859 0.2124705 0.66200006 11180657
0.01831143 0.21279144 0.66300005 11178345
0.019574286 0.21279144 0.66300005 10652001
0.020837145 0.21279144 0.66300005 10389340
0.022100002 0.21279144 0.66300005 10784098
0.023398096 0.21311238 0.66400003 8816218
0.024774287 0.21407525 0.66700006 7368772
0.026044764 0.21407525 0.66700006 7501648
0.027356191 0.21439619 0.66800004 9409645
0.028714286 0.21503811 0.67000002 9999211
0.030035239 0.21535905 0.671 10788727
0.031313334 0.21535905 0.671 9869695
0.032640003 0.21568002 0.67200005 7566940
0.034020953 0.21632192 0.67400002 6911577
0.035304762 0.21632192 0.67400002 6977370
0.036697146 0.21696383 0.67600006 7041625
0.037984762 0.21696383 0.67600006 6712660
0.039272383 0.21696383 0.67600006 8026978
0.040560003 0.21696383 0.67600006 13027246
0.04184762 0.21696383 0.67600006 14801069
0.043135241 0.21696383 0.67600006 16511687
-0.020046666 0.21922 0.67900002 15920591
-0.018753333 0.21922 0.67900002 10920323
-0.01746 0.21922 0.67900002 8751221
-0.016142858 0.21889715 0.67800003 7040603
-0.014785714 0.21792857 0.67500001 6516065
-0.01348 0.21760572 0.67400002 7437167
-0.01216 0.21696001 0.67200005 7700064
-0.010863809 0.21663713 0.671 6515790
-0.0095428573 0.21566857 0.66800004 5989464
-0.0082704769 0.21566857 0.66800004 7107945
-0.0069876197 0.21534573 0.66700006 7829858
-0.005717143 0.21534573 0.66700006 8093030
-0.0044400003 0.21502286 0.66600001 7040896
-0.0031714286 0.21502286 0.66600001 6580345
-0.0019028571 0.21502286 0.66600001 6516308
-0.00063428574 0.21502286 0.66600001 6582101
0.00063238095 0.21437715 0.66400003 7040603
0.0018942858 0.2140543 0.66300005 8093291
0.0031523814 0.21373144 0.66200006 8224601
0.0044133337 0.21373144 0.66200006 8158808
0.0056742863 0.21373144 0.66200006 8289876
0.0069352384 0.21373144 0.66200006 8553048
0.0081961909 0.21373144 0.66200006 8749154
0.009457144 0.21373144 0.66200006 9275498
0.010718096 0.21373144 0.66200006 9275749
0.011997144 0.2140543 0.66300005 9802093
0.013260001 0.2140543 0.66300005 9406055
0.014522858 0.2140543 0.66300005 9406055
0.015761906 0.21373144 0.66200006 10653802
0.017022859 0.21373144 0.66200006 11706490
0.01831143 0.2140543 0.66300005 11112802
0.019603811 0.21437715 0.66400003 10520665
0.020868571 0.21437715 0.66400003 10324067
0.022133335 0.21437715 0.66400003 10718825
0.023468571 0.21502286 0.66600001 9405803
0.024774287 0.21534573 0.66700006 9011045
0.026044764 0.21534573 0.66700006 8946281
0.027356191 0.21566857 0.66800004 9670004
0.028714286 0.21631429 0.67000002 9998698
0.030035239 0.21663713 0.671 10854007
0.031313334 0.21663713 0.671 9803650
0.032640003 0.21696001 0.67200005 6974551
0.034071431 0.21792857 0.67500001 6583645
0.035357144 0.21792857 0.67500001 7438954
0.036697146 0.21825144 0.67600006 7502426
0.037984762 0.21825144 0.67600006 7107668
0.039272383 0.21825144 0.67600006 8091994
0.040560003 0.21825144 0.67600006 12894883
0.04184762 0.21825144 0.67600006 14471852
-0.020135241 0.22148763 0.68200004 16052436
-0.018753333 0.22051333 0.67900002 10854789
-0.017434288 0.22018859 0.67800003 9014645
-0.016142858 0.22018859 0.67800003 7040855
-0.014785714 0.21921429 0.67500001 6319190
-0.01348 0.21888953 0.67400002 7306085
-0.01216 0.21824002 0.67200005 7437664
-0.010863809 0.21791524 0.671 6319183
-0.0095714284 0.21759048 0.67000002 6317374
-0.0082704769 0.21694095 0.66800004 8620129
-0.0069980957 0.21694095 0.66800004 9538418
-0.005717143 0.21661621 0.66700006 9670004
-0.0044466672 0.21661621 0.66700006 8880497
-0.0031714286 0.21629143 0.66600001 7959395
-0.0019028571 0.21629143 0.66600001 8025680
-0.00063428574 0.21629143 0.66600001 8157266
0.00063238095 0.21564192 0.66400003 8354379
0.001897143 0.21564192 0.66400003 8683344
0.003157143 0.21531716 0.66300005 8748365
0.0044200001 0.21531716 0.66300005 9011537
0.0056828577 0.21531716 0.66300005 9208914
0.0069457148 0.21531716 0.66300005 9274707
0.0082085719 0.21531716 0.66300005 9274709
0.0094714295 0.21531716 0.66300005 9537881
0.010734286 0.21531716 0.66300005 9471836
0.011997144 0.21531716 0.66300005 9735008
0.013260001 0.21531716 0.66300005 10192990
0.014544763 0.21564192 0.66400003 10390369
0.015785715 0.21531716 0.66300005 11046761
0.017048571 0.21531716 0.66300005 10915175
0.018339047 0.21564192 0.66400003 10587235
0.019662857 0.21629143 0.66600001 10389856
0.020931428 0.21629143 0.66600001 10258270
0.0222 0.21629143 0.66600001 10718821
0.023503812 0.21661621 0.66700006 10522979
0.02481143 0.21694095 0.66800004 10588772
0.026083812 0.21694095 0.66800004 10326629
0.027356191 0.21694095 0.66800004 10260836
0.028757142 0.21791524 0.671 10656108
0.030035239 0.21791524 0.671 10787694
0.03136 0.21824002 0.67200005 9474937
0.032737143 0.21888953 0.67400002 7040596
0.034121908 0.21953906 0.67600006 5597000
0.035409529 0.21953906 0.67600006 6781274
0.036805719 0.22018859 0.67800003 7043156
0.038097143 0.22018859 0.67800003 6582605
0.039388571 0.22018859 0.67800003 8026201
0.040679999 0.22018859 0.67800003 12500125
0.04197143 0.22018859 0.67800003 14339498
-0.020046666 0.22180666 0.67900002 15920591
-0.018753333 0.22180666 0.67900002 10920323
-0.017434288 0.22148001 0.67800003 9014643
-0.016142858 0.22148001 0.67800003 7172439
-0.014785714 0.22050001 0.67500001 6581608
-0.01348 0.22017334 0.67400002 7502710
-0.01216 0.21952002 0.67200005 7765087
-0.010863809 0.21919332 0.671 7501915
-0.0095714284 0.21886668 0.67000002 8222802
-0.008295238 0.21886668 0.67000002 10262385
-0.0070190481 0.21886668 0.67000002 10851442
-0.0057257148 0.21821333 0.66800004 11114614
-0.0044466672 0.21788669 0.66700006 10391659
-0.0031761907 0.21788669 0.66700006 10062694
-0.0019028571 0.21756001 0.66600001 10064486
-0.00063428574 0.21756001 0.66600001 10327658
0.00063428574 0.21756001 0.66600001 10458213
0.001897143 0.21690668 0.66400003 10721385
0.0031619049 0.21690668 0.66400003 10457706
0.0044200001 0.21658 0.66300005 10391913
0.0056828577 0.21658 0.66300005 10457702
0.0069457148 0.21658 0.66300005 10786667
0.0082085719 0.21658 0.66300005 10195043
0.0094714295 0.21658 0.66300005 10458215
0.010750476 0.21690668 0.66400003 10522979
0.012015239 0.21690668 0.66400003 10457186
0.013280001 0.21690668 0.66400003 10587755
0.014544763 0.21690668 0.66400003 11574650
0.015809525 0.21690668 0.66400003 11180639
0.017074287 0.21690668 0.66400003 10456916
0.018394286 0.21756001 0.66600001 10718307
0.019662857 0.21756001 0.66600001 10718307
0.020931428 0.21756001 0.66600001 10586467
0.022233333 0.21788669 0.66700006 11902327
0.023503812 0.21788669 0.66700006 11378270
0.024885716 0.21886668 0.67000002 11312477
0.026200952 0.21919332 0.671 11115114
0.027479049 0.21919332 0.671 11049321
0.028757142 0.21919332 0.671 10787430
0.030080002 0.21952002 0.67200005 10853223
0.031453334 0.22017334 0.67400002 9540459
0.032785714 0.22050001 0.67500001 7566669
0.034121908 0.22082669 0.67600006 6845527
0.035514288 0.22148001 0.67800003 6911320
0.036805719 0.22148001 0.67800003 6976585
0.038153335 0.22180666 0.67900002 6647620
0.039446667 0.22180666 0.67900002 7631443
0.040739998 0.22180666 0.67900002 12039574
-0.020046666 0.22310001 0.67900002 15723214
-0.018753333 0.22310001 0.67900002 10788739
-0.017434288 0.22277145 0.67800003 9080436
-0.016142858 0.22277145 0.67800003 7238232
-0.014785714 0.22178571 0.67500001 6777951
-0.01348 0.22145715 0.67400002 7764846
-0.01216 0.22080001 0.67200005 8093536
-0.010880001 0.22080001 0.67200005 7961950
-0.0095714284 0.22014286 0.67000002 9273428
-0.008295238 0.22014286 0.67000002 10852460
-0.0070190481 0.22014286 0.67000002 11309931
-0.0057257148 0.21948573 0.66800004 11441517
-0.0044466672 0.21915716 0.66700006 10916200
-0.0031761907 0.21915716 0.66700006 11376751
-0.0019028571 0.21882857 0.66600001 11180664
-0.00063428574 0.21882857 0.66600001 10983285
0.00063428574 0.21882857 0.66600001 10654815
0.0019028571 0.21882857 0.66600001 10852194
0.0031714286 0.21882857 0.66600001 10850909
0.004426667 0.21817145 0.66400003 10850909
0.0056914287 0.21817145 0.66400003 10785118
0.0069561908 0.21817145 0.66400003 10982497
0.008220952 0.21817145 0.66400003 10390871
0.0094857151 0.21817145 0.66400003 10785629
0.010750476 0.21817145 0.66400003 10982499
0.012015239 0.21817145 0.66400003 10850913
0.01332 0.21882857 0.66600001 10653289
0.014588571 0.21882857 0.66600001 11311219
0.015857141 0.21882857 0.66600001 11246187
0.017125715 0.21882857 0.66600001 10193499
0.018394286 0.21882857 0.66600001 10256473
0.019662857 0.21882857 0.66600001 10585438
0.020931428 0.21882857 0.66600001 10651229
0.022233333 0.21915716 0.66700006 11769710
0.023503812 0.21915716 0.66700006 11442798
0.02481143 0.21948573 0.66800004 11311212
0.026200952 0.22047143 0.671 10785636
0.027479049 0.22047143 0.671 11246187
0.028800001 0.22080001 0.67200005 10918764
0.030080002 0.22080001 0.67200005 10852971
0.031453334 0.22145715 0.67400002 9933430
0.032785714 0.22178571 0.67500001 8880742
0.034121908 0.22211429 0.67600006 8159329
0.035514288 0.22277145 0.67800003 7238227
0.036805719 0.22277145 0.67800003 6252359
0.038153335 0.22310001 0.67900002 6581324
0.039446667 0.22310001 0.67900002 7302998
0.040739998 0.22310001 0.67900002 12171680
-0.020164762 0.22571525 0.68300003 15525581
-0.018780952 0.22472382 0.68000001 10722692
-0.01746 0.22439334 0.67900002 8554612
-0.016142858 0.22406286 0.67800003 7107166
-0.01480762 0.22340192 0.67600006 6648682
-0.01348 0.22274096 0.67400002 7240819
-0.01216 0.22208002 0.67200005 8683361
-0.010880001 0.22208002 0.67200005 9801842
-0.0095857149 0.22174953 0.671 10587755
-0.008295238 0.22141905 0.67000002 11048306
-0.0070190481 0.22141905 0.67000002 11178599
-0.0057428572 0.22141905 0.67000002 11770736
-0.0044533336 0.22075811 0.66800004 11442530
-0.0031809525 0.22075811 0.66800004 12166253
-0.0019057144 0.22042763 0.66700006 11705979
-0.00063523813 0.22042763 0.66700006 11245428
0.00063428574 0.22009714 0.66600001 11114601
0.0019028571 0.22009714 0.66600001 11772531
0.0031714286 0.22009714 0.66600001 11641692
0.004426667 0.2194362 0.66400003 11707485
0.0056914287 0.2194362 0.66400003 11180646
0.0069561908 0.2194362 0.66400003 11114853
0.008220952 0.2194362 0.66400003 11049060
0.0094857151 0.2194362 0.66400003 10983267
0.010782857 0.22009714 0.66600001 11245930
0.012051429 0.22009714 0.66600001 11509102
0.01332 0.22009714 0.66600001 11245939
0.014588571 0.22009714 0.66600001 11245939
0.015857141 0.22009714 0.66600001 11048803
0.017125715 0.22009714 0.66600001 10127701
0.018394286 0.22009714 0.66600001 10388577
0.019662857 0.22009714 0.66600001 10849128
0.020931428 0.22009714 0.66600001 10519904
0.022233333 0.22042763 0.66700006 10783076
0.023503812 0.22042763 0.66700006 10783587
0.02481143 0.22075811 0.66800004 10717794
0.026200952 0.22174953 0.671 10785118
0.027479049 0.22174953 0.671 11443048
0.028800001 0.22208002 0.67200005 11180657
0.030080002 0.22208002 0.67200005 11312243
0.031453334 0.22274096 0.67400002 11050628
0.032785714 0.22307143 0.67500001 11248007
0.034121908 0.22340192 0.67600006 10197864
0.035514288 0.22406286 0.67800003 7368765
0.036860004 0.22439334 0.67900002 6581599
0.038209524 0.22472382 0.68000001 6318427
0.039620955 0.22538477 0.68200004 7171158
0.040920004 0.22538477 0.68200004 12566184
-0.018836193 0.22668383 0.68200004 10525306
-0.017485715 0.22601905 0.68000001 8685428
-0.016166667 0.22568667 0.67900002 7040603
-0.01480762 0.22468954 0.67600006 6713948
-0.0135 0.22435714 0.67500001 7306085
-0.012196191 0.22402477 0.67400002 9142370
-0.010880001 0.22336002 0.67200005 10392437
-0.0095857149 0.22302762 0.671 10981220
-0.0083076181 0.22302762 0.671 11244392
-0.0070295236 0.22302762 0.671 10981731
-0.0057428572 0.22269523 0.67000002 11113317
-0.0044666668 0.22269523 0.67000002 10784080
-0.0031809525 0.22203049 0.66800004 11836768
-0.0019057144 0.22169811 0.66700006 11968122
-0.00063523813 0.22169811 0.66700006 11639157
0.00063428574 0.22136572 0.66600001 11311210
0.0019028571 0.22136572 0.66600001 11771761
0.0031714286 0.22136572 0.66600001 11380083
0.0044400003 0.22136572 0.66600001 11314290
0.0057085715 0.22136572 0.66600001 10984039
0.0069771428 0.22136572 0.66600001 10984039
0.008245714 0.22136572 0.66600001 10984037
0.0095142853 0.22136572 0.66600001 10918244
0.010782857 0.22136572 0.66600001 11180396
0.012051429 0.22136572 0.66600001 11311982
0.01332 0.22136572 0.66600001 11245937
0.014588571 0.22136572 0.66600001 11114351
0.015857141 0.22136572 0.66600001 10851683
0.017125715 0.22136572 0.66600001 10062167
0.018421907 0.22169811 0.66700006 10454622
0.019692382 0.22169811 0.66700006 10520415
0.020962859 0.22169811 0.66700006 10520406
0.022233333 0.22169811 0.66700006 10717785
0.02353905 0.22203049 0.66800004 10717787
0.024885716 0.22269523 0.67000002 10849373
0.026200952 0.22302762 0.671 11112802
0.027520001 0.22336002 0.67200005 11375974
0.028800001 0.22336002 0.67200005 10916704
0.030080002 0.22336002 0.67200005 11640427
0.031500001 0.22435714 0.67500001 11640445
0.032785714 0.22435714 0.67500001 11837824
0.034121908 0.22468954 0.67600006 10590854
0.035514288 0.2253543 0.67800003 7893341
0.036860004 0.22568667 0.67900002 6712408
0.038209524 0.22601905 0.68000001 6186064
0.03967905 0.2270162 0.68300003 7037773
0.040980004 0.2270162 0.68300003 12630178
-0.020135241 0.22798288 0.68200004 15459781
-0.018836193 0.22798288 0.68200004 10262134
-0.017537145 0.22798288 0.68200004 8225147
-0.016190477 0.22731429 0.68000001 6843494
-0.014851429 0.22664572 0.67800003 6910564
-0.0135 0.22564286 0.67500001 7897459
-0.012196191 0.22530857 0.67400002 9470818
-0.010880001 0.22464003 0.67200005 10457713
-0.0095857149 0.2243057 0.671 11047011
-0.0083076181 0.2243057 0.671 11244390
-0.0070295236 0.2243057 0.671 10916200
-0.0057514287 0.2243057 0.671 10981993
-0.0044666668 0.22397144 0.67000002 10982229
-0.0031904762 0.22397144 0.67000002 11048022
-0.0019057144 0.22296859 0.66700006 11245417
-0.00063523813 0.22296859 0.66700006 11311210
0.00063523813 0.22296859 0.66700006 11114603
