# .PCD v0.7 - Point Cloud Data file format
VERSION 0.7
FIELDS x y z rgba
SIZE 4 4 4 4
TYPE F F F U
COUNT 1 1 1 1
WIDTH 1101
HEIGHT 1
VIEWPOINT 0 0 0 1 0 0 0
POINTS 1101
DATA ascii
-0.060353335 0.14970763 0.82300001 12758527
-0.058642861 0.14934382 0.82100004 10851778
-0.056940004 0.14898001 0.81900007 11509708
-0.055244766 0.14861619 0.81700003 13548543
-0.053557146 0.14825238 0.81500006 11311586
-0.052004766 0.14825238 0.81500006 9066170
-0.050328571 0.14788857 0.81300002 4658039
-0.048660003 0.14752477 0.81100005 4719006
-0.04711524 0.14752477 0.81100005 16760319
-0.045570478 0.14752477 0.81100005 15919871
-0.043917142 0.14716095 0.80900002 7498367
-0.042376194 0.14716095 0.80900002 917620
-0.040835235 0.14716095 0.80900002 14075647
-0.039294288 0.14716095 0.80900002 16578303
-0.037753332 0.14716095 0.80900002 10788519
-0.036212385 0.14716095 0.80900002 7033034
-0.034585718 0.14679715 0.80700004 13546495
-0.03304857 0.14679715 0.80700004 16247039
-0.031589523 0.14716095 0.80900002 10194083
-0.030048572 0.14716095 0.80900002 8149065
-0.02850762 0.14716095 0.80900002 15715260
-0.026966667 0.14716095 0.80900002 16048383
-0.025488574 0.14752477 0.81100005 12232390
-0.02394381 0.14752477 0.81100005 10255532
-0.022399049 0.14752477 0.81100005 12492494
-0.020905714 0.14788857 0.81300002 14403583
-0.019357143 0.14788857 0.81300002 13285108
-0.017808573 0.14788857 0.81300002 11971290
-0.016300002 0.14825238 0.81500006 12892392
-0.01474762 0.14825238 0.81500006 13682943
-0.01322762 0.14861619 0.81700003 14340863
-0.011671429 0.14861619 0.81700003 14471679
-0.010140001 0.14898001 0.81900007 10260931
-0.0085800011 0.14898001 0.81900007 10388862
-0.0070371432 0.14934382 0.82100004 12428445
-0.0055000004 0.15007144 0.82500005 11839218
-0.0039380956 0.15043524 0.82700002 8023224
-0.0023628571 0.15043524 0.82700002 6580645
-0.00078952388 0.15079905 0.82900006 10133467
0.00078952388 0.15079905 0.82900006 10789046
0.0023628571 0.15043524 0.82700002 10525874
0.0039380956 0.15043524 0.82700002 10525876
0.0055133332 0.15043524 0.82700002 10591669
0.0070885718 0.15043524 0.82700002 10591669
-0.065530479 0.1523781 0.82900006 7897333
-0.063797139 0.15201049 0.82700002 7305196
-0.062071431 0.15164286 0.82500005 9730012
-0.060353335 0.15127525 0.82300001 11901181
-0.058785714 0.15127525 0.82300001 9076668
-0.057079051 0.15090762 0.82100004 12037353
-0.055380005 0.15054001 0.81900007 14471167
-0.053688571 0.15017238 0.81700003 10918350
-0.052004766 0.14980477 0.81500006 8668566
-0.050328571 0.14943716 0.81300002 5707881
-0.048780002 0.14943716 0.81300002 4787618
-0.04711524 0.14906953 0.81100005 16367103
-0.045570478 0.14906953 0.81100005 15657471
-0.043917142 0.14870191 0.80900002 7762311
-0.042376194 0.14870191 0.80900002 1179722
-0.040835235 0.14870191 0.80900002 14601215
-0.039294288 0.14870191 0.80900002 16184063
-0.037753332 0.14870191 0.80900002 10525865
-0.036212385 0.14870191 0.80900002 7494286
-0.034671426 0.14870191 0.80900002 13942000
-0.033130478 0.14870191 0.80900002 16115199
-0.031589523 0.14870191 0.80900002 10720173
-0.030048572 0.14870191 0.80900002 4916992
-0.02850762 0.14870191 0.80900002 16759730
-0.026966667 0.14870191 0.80900002 15655679
-0.025488574 0.14906953 0.81100005 11905480
-0.024002858 0.14943716 0.81300002 8869811
-0.022454288 0.14943716 0.81300002 11698910
-0.020905714 0.14943716 0.81300002 14532351
-0.019357143 0.14943716 0.81300002 13479668
-0.017808573 0.14943716 0.81300002 10523092
-0.016300002 0.14980477 0.81500006 12365296
-0.01474762 0.14980477 0.81500006 12434169
-0.01322762 0.15017238 0.81700003 13486847
-0.011671429 0.15017238 0.81700003 14733311
-0.010140001 0.15054001 0.81900007 7035534
-0.0086009521 0.15090762 0.82100004 7938135
-0.0070371432 0.15090762 0.82100004 11359371
-0.0055000004 0.15164286 0.82500005 10650065
-0.0039380956 0.15201049 0.82700002 8149931
-0.0023628571 0.15201049 0.82700002 6843052
-0.00078952388 0.1523781 0.82900006 10264288
0.00078952388 0.1523781 0.82900006 10854841
0.0023685717 0.1523781 0.82900006 10657462
0.0039476193 0.1523781 0.82900006 10656949
0.005526667 0.1523781 0.82900006 10656949
-0.065530479 0.15395716 0.82900006 8291566
-0.063797139 0.15358572 0.82700002 7831015
-0.062071431 0.15321431 0.82500005 9992671
-0.060500003 0.15321431 0.82500005 11769082
-0.058785714 0.15284285 0.82300001 9992660
-0.057079051 0.15247142 0.82100004 13150719
-0.055380005 0.15210001 0.81900007 15127551
-0.053688571 0.15172857 0.81700003 10851010
-0.052132383 0.15172857 0.81700003 7214495
-0.050452381 0.15135716 0.81500006 6424979
-0.048900004 0.15135716 0.81500006 6564771
-0.047231432 0.15098572 0.81300002 16763647
-0.045570478 0.15061429 0.81100005 16117247
-0.044025715 0.15061429 0.81100005 11972289
-0.042480957 0.15061429 0.81100005 10918618
-0.040835235 0.15024287 0.80900002 15260927
-0.039294288 0.15024287 0.80900002 16379903
-0.037753332 0.15024287 0.80900002 11050671
-0.036212385 0.15024287 0.80900002 8673983
-0.034671426 0.15024287 0.80900002 14595327
-0.033130478 0.15024287 0.80900002 16245503
-0.031589523 0.15024287 0.80900002 11705787
-0.030048572 0.15024287 0.80900002 6292146
-0.02850762 0.15024287 0.80900002 11884543
-0.026966667 0.15024287 0.80900002 11698687
-0.025551429 0.15098572 0.81300002 10909177
-0.024002858 0.15098572 0.81300002 9986259
-0.022454288 0.15098572 0.81300002 10315224
-0.020905714 0.15098572 0.81300002 11698905
-0.019357143 0.15098572 0.81300002 12356835
-0.017808573 0.15098572 0.81300002 10514656
-0.016300002 0.15135716 0.81500006 8869831
-0.01474762 0.15135716 0.81500006 8673436
-0.01322762 0.15172857 0.81700003 11173570
-0.011671429 0.15172857 0.81700003 10911184
-0.010140001 0.15210001 0.81900007 7160983
-0.0086009521 0.15247142 0.82100004 7679618
-0.0070371432 0.15247142 0.82100004 8666513
-0.0055000004 0.15321431 0.82500005 6505862
-0.0039380956 0.15358572 0.82700002 6440069
-0.0023685717 0.15395716 0.82900006 7763654
-0.00078952388 0.15395716 0.82900006 10263788
0.00078952388 0.15395716 0.82900006 10723255
0.0023685717 0.15395716 0.82900006 10591669
0.0039571431 0.15432858 0.83100003 10591417
0.0055400003 0.15432858 0.83100003 10591417
-0.065530479 0.15553619 0.82900006 8487909
-0.063797139 0.15516096 0.82700002 8356323
-0.062071431 0.15478572 0.82500005 10717146
-0.060500003 0.15478572 0.82500005 10519767
-0.058785714 0.15441047 0.82300001 9138618
-0.057079051 0.15403526 0.82100004 13151991
-0.055380005 0.15366001 0.81900007 14996223
-0.053820003 0.15366001 0.81900007 10127544
-0.052132383 0.15328476 0.81700003 7475595
-0.050452381 0.15290953 0.81500006 7146630
-0.048900004 0.15290953 0.81500006 8074385
-0.047231432 0.15253429 0.81300002 16761599
-0.045570478 0.15215907 0.81100005 15724031
-0.044025715 0.15215907 0.81100005 12434382
-0.042480957 0.15215907 0.81100005 12298733
-0.040835235 0.15178381 0.80900002 15193599
-0.039294288 0.15178381 0.80900002 15788543
-0.037753332 0.15178381 0.80900002 10261932
-0.036212385 0.15178381 0.80900002 9064875
-0.034671426 0.15178381 0.80900002 15052031
-0.033130478 0.15178381 0.80900002 15390975
-0.031589523 0.15178381 0.80900002 11311813
-0.030122858 0.15215907 0.81100005 6953127
-0.028578097 0.15215907 0.81100005 11098086
-0.027033335 0.15215907 0.81100005 11236835
-0.025551429 0.15253429 0.81300002 11236835
-0.024002858 0.15253429 0.81300002 10841055
-0.022454288 0.15253429 0.81300002 10643676
-0.020905714 0.15253429 0.81300002 11101156
-0.019357143 0.15253429 0.81300002 11627500
-0.017808573 0.15253429 0.81300002 11432658
-0.016300002 0.15290953 0.81500006 10051005
-0.01474762 0.15290953 0.81500006 9126037
-0.01322762 0.15328476 0.81700003 10376104
-0.011671429 0.15328476 0.81700003 10375886
-0.010140001 0.15366001 0.81900007 9257405
-0.0086009521 0.15403526 0.82100004 9063592
-0.0070371432 0.15403526 0.82100004 8668834
-0.0055000004 0.15478572 0.82500005 3873111
-0.0039380956 0.15516096 0.82700002 7031175
-0.0023685717 0.15553619 0.82900006 9405892
-0.00078952388 0.15553619 0.82900006 10787545
0.00078952388 0.15553619 0.82900006 10328497
0.0023742858 0.15591143 0.83100003 10460083
0.0039571431 0.15591143 0.83100003 10460344
0.0055400003 0.15591143 0.83100003 10526137
-0.065688573 0.15749429 0.83100003 8685006
-0.063797139 0.15673618 0.82700002 8948178
-0.062221903 0.15673618 0.82700002 11177424
-0.060500003 0.15635714 0.82500005 10848459
-0.058928575 0.15635714 0.82500005 10124223
-0.057218097 0.1559781 0.82300001 13742838
-0.055515241 0.15559906 0.82100004 14401023
-0.053820003 0.15522002 0.81900007 9729726
-0.052132383 0.15484096 0.81700003 7341445
-0.050576191 0.15484096 0.81700003 7275652
-0.048900004 0.15446192 0.81500006 6883170
-0.047231432 0.15408286 0.81300002 14251986
-0.045570478 0.15370381 0.81100005 13018879
-0.044025715 0.15370381 0.81100005 13018879
-0.042480957 0.15370381 0.81100005 11899387
-0.040835235 0.15332475 0.80900002 11767801
-0.039294288 0.15332475 0.80900002 11699455
-0.037753332 0.15332475 0.80900002 10252010
-0.036212385 0.15332475 0.80900002 10247616
-0.034671426 0.15332475 0.80900002 11431890
-0.033130478 0.15332475 0.80900002 11234770
-0.031667624 0.15370381 0.81100005 10708426
-0.030122858 0.15370381 0.81100005 10839249
-0.028578097 0.15370381 0.81100005 10970835
-0.027033335 0.15370381 0.81100005 11696591
-0.025551429 0.15408286 0.81300002 12222935
-0.024002858 0.15408286 0.81300002 12157678
-0.022454288 0.15408286 0.81300002 12420850
-0.020905714 0.15408286 0.81300002 12023805
-0.019357143 0.15408286 0.81300002 11497461
-0.017808573 0.15408286 0.81300002 11563476
-0.016300002 0.15446192 0.81500006 10905546
-0.01474762 0.15446192 0.81500006 10179536
-0.01322762 0.15484096 0.81700003 11429603
-0.011700001 0.15522002 0.81900007 11300570
-0.010164762 0.15559906 0.82100004 11234777
-0.0086009521 0.15559906 0.82100004 10315978
-0.0070371432 0.15559906 0.82100004 9065911
-0.0055000004 0.15635714 0.82500005 5980570
-0.0039380956 0.15673618 0.82700002 8612290
-0.0023685717 0.15711525 0.82900006 9210821
-0.00078952388 0.15711525 0.82900006 10395095
0.00078952388 0.15711525 0.82900006 10591662
0.0023742858 0.15749429 0.83100003 10525869
0.0039666672 0.15787335 0.83300006 10460085
-0.065688573 0.15907715 0.83100003 7894757
-0.063797139 0.15831143 0.82700002 8684273
-0.062221903 0.15831143 0.82700002 9927605
-0.060500003 0.15792859 0.82500005 9269675
-0.058928575 0.15792859 0.82500005 9069199
-0.057218097 0.15754572 0.82300001 12293056
-0.055515241 0.15716286 0.82100004 12623864
-0.053820003 0.15678002 0.81900007 9465800
-0.052260004 0.15678002 0.81900007 7734928
-0.050576191 0.15639715 0.81700003 8063893
-0.048900004 0.15601431 0.81500006 7341967
-0.047231432 0.15563144 0.81300002 13723888
-0.045682859 0.15563144 0.81300002 12095721
-0.044025715 0.15524858 0.81100005 11766756
-0.042480957 0.15524858 0.81100005 11895778
-0.040936191 0.15524858 0.81100005 10514125
-0.039391432 0.15524858 0.81100005 11232485
-0.03784667 0.15524858 0.81100005 11429864
-0.036301903 0.15524858 0.81100005 11232460
-0.034757145 0.15524858 0.81100005 11166667
-0.033212382 0.15524858 0.81100005 11033807
-0.031667624 0.15524858 0.81100005 12481253
-0.030122858 0.15524858 0.81100005 12485857
-0.028578097 0.15524858 0.81100005 12156892
-0.027033335 0.15524858 0.81100005 12025031
-0.025551429 0.15563144 0.81300002 12288203
-0.024002858 0.15563144 0.81300002 12418783
-0.022454288 0.15563144 0.81300002 12418783
-0.020905714 0.15563144 0.81300002 11827686
-0.019357143 0.15563144 0.81300002 11301342
-0.017808573 0.15563144 0.81300002 11034831
-0.016300002 0.15601431 0.81500006 10969038
-0.01478381 0.15639715 0.81700003 10310336
-0.013260001 0.15678002 0.81900007 11626196
-0.011700001 0.15678002 0.81900007 11366365
-0.010164762 0.15716286 0.82100004 11432158
-0.0086009521 0.15716286 0.82100004 10840782
-0.0070371432 0.15716286 0.82100004 9393336
-0.0055000004 0.15792859 0.82500005 6703228
-0.0039380956 0.15831143 0.82700002 9466534
-0.0023685717 0.1586943 0.82900006 9145028
-0.00078952388 0.1586943 0.82900006 10329302
0.00078952388 0.1586943 0.82900006 10657203
0.0023742858 0.15907715 0.83100003 10591410
0.0039571431 0.15907715 0.83100003 10459831
-0.065688573 0.16066001 0.83100003 7959276
-0.063797139 0.15988667 0.82700002 6709209
-0.062221903 0.15988667 0.82700002 7357802
-0.060646668 0.15988667 0.82700002 4199738
-0.058928575 0.1595 0.82500005 5901373
-0.057218097 0.15911333 0.82300001 6361924
-0.055515241 0.15872668 0.82100004 8800129
-0.053820003 0.15834002 0.81900007 9918610
-0.052260004 0.15834002 0.81900007 10705848
-0.050576191 0.15795334 0.81700003 11297985
-0.048900004 0.15756667 0.81500006 11101910
-0.047231432 0.15718 0.81300002 12154598
-0.045682859 0.15718 0.81300002 11632065
-0.044025715 0.15679334 0.81100005 11697858
-0.042480957 0.15679334 0.81100005 11827416
-0.040936191 0.15679334 0.81100005 11301072
-0.039391432 0.15679334 0.81100005 11497179
-0.03784667 0.15679334 0.81100005 11562972
-0.036301903 0.15679334 0.81100005 11562204
-0.034757145 0.15679334 0.81100005 11364825
-0.033212382 0.15679334 0.81100005 11364319
-0.031667624 0.15679334 0.81100005 12285421
-0.030122858 0.15679334 0.81100005 12221913
-0.028578097 0.15679334 0.81100005 11892948
-0.027033335 0.15679334 0.81100005 10770876
-0.025551429 0.15718 0.81300002 10639290
-0.024002858 0.15718 0.81300002 11032767
-0.022454288 0.15718 0.81300002 10769595
-0.020905714 0.15718 0.81300002 10836682
-0.019357143 0.15718 0.81300002 11494612
-0.017808573 0.15718 0.81300002 10508753
-0.016300002 0.15756667 0.81500006 10311374
-0.01478381 0.15795334 0.81700003 10246855
-0.013260001 0.15834002 0.81900007 11431129
-0.011700001 0.15834002 0.81900007 11501029
-0.010189524 0.15911333 0.82300001 11698408
-0.008621905 0.15911333 0.82300001 10251725
-0.0070542856 0.15911333 0.82300001 8343728
-0.0055133332 0.15988667 0.82700002 6837655
-0.0039380956 0.15988667 0.82700002 9403582
-0.0023685717 0.16027334 0.82900006 9210819
-0.00078952388 0.16027334 0.82900006 10329300
0.00078952388 0.16027334 0.82900006 10525874
0.0023685717 0.16027334 0.82900006 10789046
0.0039476193 0.16027334 0.82900006 10525626
-0.065688573 0.16224286 0.83100003 7630820
-0.063797139 0.1614619 0.82700002 7565027
-0.062221903 0.1614619 0.82700002 8344266
-0.060646668 0.1614619 0.82700002 5449374
-0.058928575 0.16107143 0.82500005 8666205
-0.057218097 0.16068095 0.82300001 9521514
-0.055515241 0.16029048 0.82100004 9390247
-0.053951431 0.16029048 0.82100004 11100865
-0.052260004 0.15990001 0.81900007 11235022
-0.050576191 0.15950952 0.81700003 12221917
-0.048900004 0.15911905 0.81500006 12092380
-0.047347624 0.15911905 0.81500006 10908106
-0.045682859 0.15872858 0.81300002 10770356
-0.044134285 0.15872858 0.81300002 11757251
-0.042480957 0.1583381 0.81100005 11562195
-0.040936191 0.1583381 0.81100005 11496402
-0.039391432 0.1583381 0.81100005 11693527
-0.03784667 0.1583381 0.81100005 11890906
-0.036301903 0.1583381 0.81100005 11694301
-0.034757145 0.1583381 0.81100005 11167957
-0.033212382 0.1583381 0.81100005 10771157
-0.031667624 0.1583381 0.81100005 11823845
-0.030122858 0.1583381 0.81100005 11694288
-0.028578097 0.1583381 0.81100005 12023253
-0.027033335 0.1583381 0.81100005 11165150
-0.025551429 0.15872858 0.81300002 10836185
-0.024002858 0.15872858 0.81300002 11295439
-0.022454288 0.15872858 0.81300002 11229646
-0.020905714 0.15872858 0.81300002 11033046
-0.019357143 0.15872858 0.81300002 11690976
-0.017808573 0.15872858 0.81300002 11365101
-0.016340001 0.15950952 0.81700003 11562480
-0.01478381 0.15950952 0.81700003 11369186
-0.013260001 0.15990001 0.81900007 11500772
-0.011700001 0.15990001 0.81900007 11963883
-0.010189524 0.16068095 0.82300001 12029676
-0.008621905 0.16068095 0.82300001 9859279
-0.0070542856 0.16068095 0.82300001 8082868
-0.0055133332 0.1614619 0.82700002 6969241
-0.0039476193 0.16185239 0.82900006 9074617
-0.0023685717 0.16185239 0.82900006 9210819
-0.00078952388 0.16185239 0.82900006 10329300
0.00078952388 0.16185239 0.82900006 10394549
0.0023685717 0.16185239 0.82900006 10657721
-0.063951433 0.16343144 0.82900006 8488945
-0.062372386 0.16343144 0.82900006 10057471
-0.060646668 0.16303715 0.82700002 5780927
-0.059071429 0.16303715 0.82700002 8339349
-0.057357144 0.16264287 0.82500005 12023757
-0.055650476 0.16224858 0.82300001 11433946
-0.053951431 0.1618543 0.82100004 11170774
-0.052260004 0.16146001 0.81900007 11433180
-0.050700005 0.16146001 0.81900007 11762145
-0.04902 0.16106571 0.81700003 11761886
-0.047463812 0.16106571 0.81700003 10511819
-0.04579524 0.16067144 0.81500006 10640825
-0.044242859 0.16067144 0.81500006 10969790
-0.042585716 0.16027714 0.81300002 10902734
-0.040936191 0.15988287 0.81100005 10705355
-0.039391432 0.15988287 0.81100005 11166417
-0.03784667 0.15988287 0.81100005 11626968
-0.036301903 0.15988287 0.81100005 11167446
-0.03484286 0.16027714 0.81300002 10904274
-0.033294287 0.16027714 0.81300002 10969824
-0.031745713 0.16027714 0.81300002 11627754
-0.030197144 0.16027714 0.81300002 11631575
-0.028648572 0.16027714 0.81300002 14658047
-0.027100001 0.16027714 0.81300002 14134783
-0.025614288 0.16067144 0.81500006 13279482
-0.024061905 0.16067144 0.81500006 13015796
-0.022509526 0.16067144 0.81500006 12292073
-0.020905714 0.16027714 0.81300002 12555005
-0.019357143 0.16027714 0.81300002 12949759
-0.017852381 0.16067144 0.81500006 13543167
-0.016340001 0.16106571 0.81700003 13543167
-0.01478381 0.16106571 0.81700003 12885759
-0.013260001 0.16146001 0.81900007 12491007
-0.011700001 0.16146001 0.81900007 11832808
-0.010214286 0.16264287 0.82500005 12095980
-0.0086428579 0.16264287 0.82500005 10122451
-0.0070714285 0.16264287 0.82500005 8214454
-0.005526667 0.16343144 0.82900006 7035570
-0.0039476193 0.16343144 0.82900006 8483016
-0.0023685717 0.16343144 0.82900006 9145278
-0.00078952388 0.16343144 0.82900006 10658517
0.00078952388 0.16343144 0.82900006 10724279
0.0023685717 0.16343144 0.82900006 10790072
-0.063951433 0.1650105 0.82900006 6850298
-0.062372386 0.1650105 0.82900006 10125567
-0.060793336 0.1650105 0.82900006 5717442
-0.059071429 0.16461238 0.82700002 8599943
-0.057496194 0.16461238 0.82700002 12021179
-0.055785719 0.16421428 0.82500005 10973906
-0.053951431 0.1634181 0.82100004 12158180
-0.052387621 0.1634181 0.82100004 11766004
-0.050700005 0.16302001 0.81900007 11371246
-0.04902 0.16262192 0.81700003 11762663
-0.047463812 0.16262192 0.81700003 11367905
-0.04590762 0.16262192 0.81700003 11168466
-0.044242859 0.16222382 0.81500006 10971087
-0.042690478 0.16222382 0.81500006 10903511
-0.041138098 0.16222382 0.81500006 11429855
-0.039585717 0.16222382 0.81500006 11694812
-0.038033333 0.16222382 0.81500006 11957984
-0.036480956 0.16222382 0.81500006 11958509
-0.034928575 0.16222382 0.81500006 12221681
-0.033376191 0.16222382 0.81500006 12223212
-0.03182381 0.16222382 0.81500006 12157419
-0.03027143 0.16222382 0.81500006 11897577
-0.028719049 0.16222382 0.81500006 14266111
-0.027166668 0.16222382 0.81500006 14073599
-0.025677143 0.16262192 0.81700003 13547260
-0.024120953 0.16262192 0.81700003 12034047
-0.022564763 0.16262192 0.81700003 12823551
-0.021008572 0.16262192 0.81700003 12955903
-0.019452382 0.16262192 0.81700003 12890111
-0.01789619 0.16262192 0.81700003 13548031
-0.016340001 0.16262192 0.81700003 12561142
-0.014820001 0.16302001 0.81900007 12426751
-0.013260001 0.16302001 0.81900007 11637237
-0.011728572 0.1634181 0.82100004 10911447
-0.010214286 0.16421428 0.82500005 11240412
-0.0086638099 0.16461238 0.82700002 9926083
-0.0071057146 0.1650105 0.82900006 8149672
-0.0055400003 0.16540857 0.83100003 6905004
-0.0039571431 0.16540857 0.83100003 8484036
-0.0023742858 0.16540857 0.83100003 9276864
-0.00079142861 0.16540857 0.83100003 10526931
0.00079142861 0.16540857 0.83100003 10723768
0.0023742858 0.16540857 0.83100003 10723768
-0.065846674 0.16739334 0.83300006 3036880
-0.062673338 0.16739334 0.83300006 9339111
-0.061086673 0.16739334 0.83300006 5588910
-0.059357144 0.16699143 0.83100003 8205984
-0.057496194 0.16618763 0.82700002 10969290
-0.055785719 0.16578573 0.82500005 10578891
-0.053951431 0.1649819 0.82100004 13407990
-0.052387621 0.1649819 0.82100004 12819711
-0.050700005 0.16458002 0.81900007 12095996
-0.049140003 0.16458002 0.81900007 12490484
-0.047463812 0.1641781 0.81700003 13674751
-0.04590762 0.1641781 0.81700003 13543167
-0.044351429 0.1641781 0.81700003 13214207
-0.042795237 0.1641781 0.81700003 13345279
-0.041239049 0.1641781 0.81700003 13345279
-0.039682858 0.1641781 0.81700003 13279231
-0.038033333 0.1637762 0.81500006 14068735
-0.036480956 0.1637762 0.81500006 14399999
-0.035014287 0.1641781 0.81700003 14597375
-0.033376191 0.1637762 0.81500006 14270207
-0.03182381 0.1637762 0.81500006 14401791
-0.03027143 0.1637762 0.81500006 13744639
-0.028719049 0.1637762 0.81500006 13678847
-0.027166668 0.1637762 0.81500006 13745151
-0.025677143 0.1641781 0.81700003 13679359
-0.024120953 0.1641781 0.81700003 13613567
-0.022564763 0.1641781 0.81700003 13876735
-0.021008572 0.1641781 0.81700003 13414911
-0.019452382 0.1641781 0.81700003 11704300
-0.01789619 0.1641781 0.81700003 11899389
-0.016380001 0.16458002 0.81900007 10780908
-0.014820001 0.16458002 0.81900007 10319587
-0.013260001 0.16458002 0.81900007 10122208
-0.011728572 0.1649819 0.82100004 9464017
-0.010239048 0.16618763 0.82700002 8477122
-0.0086638099 0.16618763 0.82700002 7758255
-0.007122857 0.16699143 0.83100003 7166118
-0.0055400003 0.16699143 0.83100003 6054340
-0.0039571431 0.16699143 0.83100003 7830751
-0.0023742858 0.16699143 0.83100003 9869757
-0.0007933334 0.16739334 0.83300006 10461894
0.0007933334 0.16739334 0.83300006 10460853
0.002397143 0.16859905 0.83900005 10658232
-0.062673338 0.16898002 0.83300006 8553963
-0.061086673 0.16898002 0.83300006 6317001
-0.059357144 0.16857429 0.83100003 8469154
-0.057496194 0.16776286 0.82700002 10837702
-0.055785719 0.16735715 0.82500005 10380474
-0.054082859 0.16695142 0.82300001 13012194
-0.052387621 0.16654572 0.82100004 12362484
-0.050700005 0.16614002 0.81900007 11967726
-0.049140003 0.16614002 0.81900007 12098040
-0.047580004 0.16614002 0.81900007 13216511
-0.04590762 0.16573429 0.81700003 13085695
-0.044351429 0.16573429 0.81700003 12954111
-0.042795237 0.16573429 0.81700003 13547263
-0.041239049 0.16573429 0.81700003 12691960
-0.039682858 0.16573429 0.81700003 12623871
-0.038126666 0.16573429 0.81700003 13544959
-0.036570478 0.16573429 0.81700003 13943551
-0.035014287 0.16573429 0.81700003 13680383
-0.033376191 0.16532859 0.81500006 13549311
-0.03182381 0.16532859 0.81500006 13549311
-0.03027143 0.16532859 0.81500006 13548543
-0.028719049 0.16532859 0.81500006 13416959
-0.027166668 0.16532859 0.81500006 13416447
-0.025677143 0.16573429 0.81700003 13021695
-0.024120953 0.16573429 0.81700003 12691199
-0.022564763 0.16573429 0.81700003 12691199
-0.021008572 0.16573429 0.81700003 12755711
-0.019500002 0.16614002 0.81900007 11768823
-0.017940002 0.16614002 0.81900007 11964144
-0.016380001 0.16614002 0.81900007 10911456
-0.014820001 0.16614002 0.81900007 9791962
-0.013292382 0.16654572 0.82100004 10318306
-0.011757143 0.16695142 0.82300001 9334752
-0.010239048 0.16776286 0.82700002 9466338
-0.0086847618 0.16816857 0.82900006 8092378
-0.007122857 0.16857429 0.83100003 5197486
-0.0055400003 0.16857429 0.83100003 3231655
-0.0039666672 0.16898002 0.83300006 6981856
-0.00238 0.16898002 0.83300006 10001089
-0.00079523813 0.16938572 0.83500004 10395847
0.00079904764 0.17019716 0.83900005 10263735
0.002397143 0.17019716 0.83900005 10526907
-0.06282381 0.17097619 0.83500004 7634146
-0.061233338 0.17097619 0.83500004 7568353
-0.059500005 0.17056668 0.83300006 8872614
-0.057635244 0.16974764 0.82900006 8280477
-0.055920955 0.16933811 0.82700002 9390258
-0.054214288 0.16892858 0.82500005 11627220
-0.052515239 0.16851905 0.82300001 12228285
-0.050823811 0.16810954 0.82100004 12952008
-0.049260002 0.16810954 0.82100004 12491508
-0.047580004 0.16770001 0.81900007 12359922
-0.046020001 0.16770001 0.81900007 12227321
-0.044460002 0.16770001 0.81900007 12095735
-0.042795237 0.16729049 0.81700003 12162302
-0.041239049 0.16729049 0.81700003 12293887
-0.039682858 0.16729049 0.81700003 12228351
-0.038126666 0.16729049 0.81700003 12359935
-0.036570478 0.16729049 0.81700003 12163327
-0.035014287 0.16729049 0.81700003 11965950
-0.033458095 0.16729049 0.81700003 11637755
-0.031901907 0.16729049 0.81700003 11571962
-0.030345716 0.16729049 0.81700003 10715135
-0.028789526 0.16729049 0.81700003 10583551
-0.027233334 0.16729049 0.81700003 10320894
-0.025740001 0.16770001 0.81900007 9991929
-0.024180001 0.16770001 0.81900007 10255582
-0.022620002 0.16770001 0.81900007 9992410
-0.021060001 0.16770001 0.81900007 10454755
-0.019500002 0.16770001 0.81900007 10586341
-0.017940002 0.16770001 0.81900007 10324191
-0.016380001 0.16770001 0.81900007 10718949
-0.014856191 0.16810954 0.82100004 11707114
-0.013292382 0.16810954 0.82100004 12167665
-0.011757143 0.16851905 0.82300001 11971583
-0.01026381 0.16974764 0.82900006 11576831
-0.0086847618 0.16974764 0.82900006 10530299
-0.007122857 0.17015715 0.83100003 4937894
-0.0055400003 0.17015715 0.83100003 2970819
-0.0039761905 0.17097619 0.83500004 6852606
-0.0023857143 0.17097619 0.83500004 10067133
-0.00079714286 0.17138572 0.83700001 10330305
0.00079714286 0.17138572 0.83700001 10329019
0.0023914287 0.17138572 0.83700001 10592191
-0.063124768 0.17339334 0.83900005 5795807
-0.061379995 0.17298 0.83700001 6387944
-0.059642859 0.17256667 0.83500004 8810716
-0.057635244 0.17132667 0.82900006 7692235
-0.055920955 0.17091332 0.82700002 9257891
-0.054214288 0.17050001 0.82500005 11297474
-0.05264286 0.17050001 0.82500005 11500211
-0.050947621 0.17008667 0.82300001 11894969
-0.049260002 0.16967334 0.82100004 11963108
-0.047696192 0.16967334 0.82100004 11765729
-0.046020001 0.16926001 0.81900007 12028649
-0.044460002 0.16926001 0.81900007 11831270
-0.0429 0.16926001 0.81900007 11699446
-0.041239049 0.16884667 0.81700003 12225790
-0.039682858 0.16884667 0.81700003 12359420
-0.038126666 0.16884667 0.81700003 12227834
-0.036570478 0.16884667 0.81700003 11634175
-0.035014287 0.16884667 0.81700003 11305211
-0.033458095 0.16884667 0.81700003 11107563
-0.031901907 0.16884667 0.81700003 11370735
-0.030345716 0.16884667 0.81700003 10778622
-0.028789526 0.16884667 0.81700003 10778622
-0.027233334 0.16884667 0.81700003 9990655
-0.025740001 0.16926001 0.81900007 10516991
-0.024180001 0.16926001 0.81900007 11440119
-0.022620002 0.16926001 0.81900007 11505912
-0.021060001 0.16926001 0.81900007 10064342
-0.019500002 0.16926001 0.81900007 9406412
-0.017940002 0.16926001 0.81900007 6843586
-0.016420001 0.16967334 0.82100004 11054335
-0.014856191 0.16967334 0.82100004 12500991
-0.013324762 0.17008667 0.82300001 12500991
-0.011757143 0.17008667 0.82300001 12371199
-0.01026381 0.17132667 0.82900006 11055344
-0.0086847618 0.17132667 0.82900006 10136831
-0.007122857 0.17174001 0.83100003 3557540
-0.0055400003 0.17174001 0.83100003 1195943
-0.0039761905 0.17256667 0.83500004 6590969
-0.0023857143 0.17256667 0.83500004 10329278
-0.00079714286 0.17298 0.83700001 10526657
0.00079714286 0.17298 0.83700001 10066104
0.0023914287 0.17298 0.83700001 10526655
-0.062974289 0.17457429 0.83700001 5140700
-0.061379995 0.17457429 0.83700001 5930216
-0.059642859 0.17415714 0.83500004 8354815
-0.057635244 0.17290573 0.82900006 8223231
-0.055920955 0.17248857 0.82700002 8412340
-0.054214288 0.17207143 0.82500005 8149168
-0.05264286 0.17207143 0.82500005 9660833
-0.050947621 0.17165428 0.82300001 9989798
-0.049379997 0.17165428 0.82300001 10452438
-0.047696192 0.17123716 0.82100004 10386645
-0.046132382 0.17123716 0.82100004 10058973
-0.044460002 0.17082001 0.81900007 10387938
-0.0429 0.17082001 0.81900007 10849023
-0.041340005 0.17082001 0.81900007 11441151
-0.039780006 0.17082001 0.81900007 11836665
-0.038220003 0.17082001 0.81900007 12099837
-0.036660004 0.17082001 0.81900007 11573759
-0.035014287 0.17040285 0.81700003 10784252
-0.033458095 0.17040285 0.81700003 11772151
-0.031901907 0.17040285 0.81700003 13022207
-0.030345716 0.17040285 0.81700003 12695039
-0.028789526 0.17040285 0.81700003 12497663
-0.027233334 0.17040285 0.81700003 12171007
-0.025740001 0.17082001 0.81900007 10789362
-0.024180001 0.17082001 0.81900007 10262783
-0.022620002 0.17082001 0.81900007 10065407
-0.021060001 0.17082001 0.81900007 9014716
-0.019500002 0.17082001 0.81900007 8817337
-0.017983811 0.17123716 0.82100004 6515145
-0.016420001 0.17123716 0.82100004 11318015
-0.014856191 0.17123716 0.82100004 13092351
-0.013324762 0.17165428 0.82300001 12237047
-0.011757143 0.17165428 0.82300001 12764927
-0.01026381 0.17290573 0.82900006 11449073
-0.0086847618 0.17290573 0.82900006 9152741
-0.007122857 0.17332287 0.83100003 2968199
-0.0055533336 0.17374001 0.83300006 739015
-0.0039761905 0.17415714 0.83500004 5805055
-0.0023914287 0.17457429 0.83700001 10132675
-0.00079714286 0.17457429 0.83700001 10593226
0.00079714286 0.17457429 0.83700001 10395069
0.0023914287 0.17457429 0.83700001 10526655
-0.064568572 0.17616858 0.83700001 3762647
-0.062974289 0.17616858 0.83700001 4091617
-0.061379995 0.17616858 0.83700001 4025824
-0.059642859 0.17574762 0.83500004 6321649
-0.057635244 0.17448477 0.82900006 7242751
-0.055920955 0.1740638 0.82700002 8683239
-0.054345712 0.1740638 0.82700002 8485860
-0.05264286 0.17364287 0.82500005 9009099
-0.050947621 0.1732219 0.82300001 10127580
-0.049379997 0.1732219 0.82300001 10850549
-0.04781238 0.1732219 0.82300001 10521584
-0.046132382 0.17280096 0.82100004 8945651
-0.044568572 0.17280096 0.82100004 9143030
-0.043004762 0.17280096 0.82100004 10458879
-0.041340005 0.17238 0.81900007 10787839
-0.039780006 0.17238 0.81900007 11774207
-0.038220003 0.17238 0.81900007 12037375
-0.036660004 0.17238 0.81900007 12368895
-0.035100002 0.17238 0.81900007 11053041
-0.033540003 0.17238 0.81900007 11119871
-0.031901907 0.17195906 0.81700003 11646207
-0.030345716 0.17195906 0.81700003 12239359
-0.028789526 0.17195906 0.81700003 12173567
-0.027233334 0.17195906 0.81700003 11454207
-0.025740001 0.17238 0.81900007 9085665
-0.024180001 0.17238 0.81900007 6326003
-0.022620002 0.17238 0.81900007 6589175
-0.021111431 0.17280096 0.82100004 5003176
-0.019547621 0.17280096 0.82100004 6450622
-0.017983811 0.17280096 0.82100004 6972103
-0.016460001 0.1732219 0.82300001 11446015
-0.014892381 0.1732219 0.82300001 13027839
-0.013357143 0.17364287 0.82500005 13027839
-0.011785715 0.17364287 0.82500005 13094143
-0.01026381 0.17448477 0.82900006 11317737
-0.0087057147 0.17490572 0.83100003 7508459
-0.007122857 0.17490572 0.83100003 1850261
-0.0055533336 0.17532668 0.83300006 803248
-0.0039857142 0.17616858 0.83700001 6724607
-0.0023857143 0.17574762 0.83500004 10067395
-0.00079523813 0.17574762 0.83500004 10396360
0.00079523813 0.17574762 0.83500004 10329278
0.0023857143 0.17574762 0.83500004 10460864
-0.064722866 0.17818764 0.83900005 2910445
-0.063124768 0.17818764 0.83900005 4221667
-0.061526671 0.17818764 0.83900005 4090081
-0.059785716 0.17776285 0.83700001 4681185
-0.058052383 0.17733809 0.83500004 6260217
-0.056056194 0.17606382 0.82900006 8489727
-0.054345712 0.17563905 0.82700002 10858239
-0.05264286 0.17521429 0.82500005 11842303
-0.051071431 0.17521429 0.82500005 13816063
-0.049379997 0.17478953 0.82300001 14473983
-0.04781238 0.17478953 0.82300001 14408191
-0.046244759 0.17478953 0.82300001 12633087
-0.044568572 0.17436476 0.82100004 10330333
-0.043004762 0.17436476 0.82100004 9544191
-0.041340005 0.17394 0.81900007 8557307
-0.039780006 0.17394 0.81900007 7441407
-0.038220003 0.17394 0.81900007 6651903
-0.036660004 0.17394 0.81900007 6192383
-0.035100002 0.17394 0.81900007 6192383
-0.033540003 0.17394 0.81900007 6192895
-0.031901907 0.17351525 0.81700003 5337599
-0.030345716 0.17351525 0.81700003 8033779
-0.028789526 0.17351525 0.81700003 9481215
-0.027233334 0.17351525 0.81700003 11452671
-0.025740001 0.17394 0.81900007 9610474
-0.024180001 0.17394 0.81900007 9283064
-0.02267524 0.17436476 0.82100004 9809407
-0.021111431 0.17436476 0.82100004 8951776
-0.019547621 0.17436476 0.82100004 9543913
-0.01802762 0.17478953 0.82300001 8950774
-0.0165 0.17521429 0.82500005 8621809
-0.014928573 0.17521429 0.82500005 10002667
-0.013389524 0.17563905 0.82700002 11515903
-0.011814286 0.17563905 0.82700002 12830719
-0.01026381 0.17606382 0.82900006 10856936
-0.0087057147 0.17648858 0.83100003 6587878
-0.007122857 0.17648858 0.83100003 1061266
-0.0055533336 0.17691335 0.83300006 670660
-0.0039857142 0.17776285 0.83700001 7381503
-0.0023857143 0.17733809 0.83500004 10264774
-0.00079523813 0.17733809 0.83500004 10264774
0.00079523813 0.17733809 0.83500004 10395069
0.0023857143 0.17733809 0.83500004 10526655
-0.064722866 0.17978573 0.83900005 2777301
-0.063124768 0.17978573 0.83900005 3826648
-0.061526671 0.17978573 0.83900005 4352992
-0.059785716 0.17935714 0.83700001 4223457
-0.058052383 0.17892858 0.83500004 4091871
-0.056056194 0.17764287 0.82900006 6980863
-0.054345712 0.17721429 0.82700002 9744127
-0.05264286 0.17678572 0.82500005 10531839
-0.051071431 0.17678572 0.82500005 12637183
-0.049500003 0.17678572 0.82500005 13884415
-0.047928575 0.17678572 0.82500005 13818623
-0.046244759 0.17635715 0.82300001 12109567
-0.044677142 0.17635715 0.82300001 10201577
-0.043004762 0.17592858 0.82100004 8695551
-0.041440953 0.17592858 0.82100004 7248115
-0.039780006 0.17550001 0.81900007 6267135
-0.038220003 0.17550001 0.81900007 6464511
-0.036660004 0.17550001 0.81900007 6397951
-0.035100002 0.17550001 0.81900007 7319039
-0.033540003 0.17550001 0.81900007 8500991
-0.03198 0.17550001 0.81900007 7382520
-0.030420002 0.17550001 0.81900007 7051768
-0.028860003 0.17550001 0.81900007 9157119
-0.027300002 0.17550001 0.81900007 12174847
-0.025740001 0.17550001 0.81900007 11187959
-0.02423905 0.17592858 0.82100004 9808895
-0.02267524 0.17592858 0.82100004 10072063
-0.021111431 0.17592858 0.82100004 8688620
-0.019595239 0.17635715 0.82300001 8557034
-0.01802762 0.17635715 0.82300001 8491761
-0.0165 0.17678572 0.82500005 8097003
-0.014928573 0.17678572 0.82500005 7899624
-0.013389524 0.17721429 0.82700002 10662911
-0.011814286 0.17721429 0.82700002 12371967
-0.010288572 0.17807144 0.83100003 10200803
-0.0087057147 0.17807144 0.83100003 5535722
-0.007122857 0.17807144 0.83100003 864419
-0.0055533336 0.17850001 0.83300006 801460
-0.0039857142 0.17935714 0.83700001 7512319
-0.0023857143 0.17892858 0.83500004 10264774
-0.00079523813 0.17892858 0.83500004 10330567
0.00079523813 0.17892858 0.83500004 10526657
0.0023857143 0.17892858 0.83500004 10526657
-0.064877145 0.18181619 0.84100002 2513105
-0.06327524 0.18181619 0.84100002 3957201
-0.061673336 0.18181619 0.84100002 4483545
-0.059785716 0.18095143 0.83700001 3171818
-0.058052383 0.18051906 0.83500004 3369197
-0.056056194 0.17922191 0.82900006 6915583
-0.054345712 0.17878953 0.82700002 9678847
-0.052770477 0.17878953 0.82700002 10727167
-0.051071431 0.17835715 0.82500005 13029887
-0.049500003 0.17835715 0.82500005 13620991
-0.047928575 0.17835715 0.82500005 12699894
-0.046357144 0.17835715 0.82500005 11977468
-0.044677142 0.17792475 0.82300001 8950990
-0.043109521 0.17792475 0.82300001 8758774
-0.041440953 0.17749238 0.82100004 8627188
-0.039877143 0.17749238 0.82100004 9219839
-0.038313333 0.17749238 0.82100004 10733055
-0.036749527 0.17749238 0.82100004 10732031
-0.035100002 0.17706001 0.81900007 10797823
-0.033540003 0.17706001 0.81900007 10601215
-0.03198 0.17706001 0.81900007 10206463
-0.030420002 0.17706001 0.81900007 10138111
-0.028860003 0.17706001 0.81900007 11059199
-0.027300002 0.17706001 0.81900007 12306687
-0.025802858 0.17749238 0.82100004 12701439
-0.02423905 0.17749238 0.82100004 11189503
-0.02267524 0.17749238 0.82100004 10597373
-0.021162858 0.17792475 0.82300001 8623103
-0.019595239 0.17792475 0.82300001 7044082
-0.018071428 0.17835715 0.82500005 8228599
-0.01654 0.17878953 0.82700002 9215487
-0.014964762 0.17878953 0.82700002 8229375
-0.013389524 0.17878953 0.82700002 9018879
-0.011814286 0.17878953 0.82700002 9413631
-0.010288572 0.17965429 0.83100003 7308261
-0.0087057147 0.17965429 0.83100003 5273072
-0.0071400008 0.18008669 0.83300006 1391285
-0.0055666668 0.18051906 0.83500004 735431
-0.0039857142 0.18095143 0.83700001 7314687
-0.0023857143 0.18051906 0.83500004 10593477
-0.00079523813 0.18051906 0.83500004 10264512
0.00079523813 0.18051906 0.83500004 10460354
0.0023857143 0.18051906 0.83500004 10460354
-0.065494291 0.18516286 0.84900004 2644675
-0.06327524 0.1834181 0.84100002 3957203
-0.061673336 0.1834181 0.84100002 4088789
-0.060071427 0.1834181 0.84100002 2974437
-0.05819143 0.18254572 0.83700001 3829746
-0.056056194 0.18080097 0.82900006 7309311
-0.054345712 0.18036477 0.82700002 9809407
-0.052770477 0.18036477 0.82700002 10595839
-0.051195238 0.18036477 0.82700002 12569599
-0.049500003 0.17992859 0.82500005 12701183
-0.047928575 0.17992859 0.82500005 11319536
-0.046357144 0.17992859 0.82500005 9217278
-0.044785716 0.17992859 0.82500005 8230383
-0.043109521 0.17949238 0.82300001 10266616
-0.041541904 0.17949238 0.82300001 9871858
-0.039877143 0.1790562 0.82100004 10726655
-0.038313333 0.1790562 0.82100004 12108287
-0.036749527 0.1790562 0.82100004 11254527
-0.035100002 0.17862001 0.81900007 11254527
-0.033540003 0.17862001 0.81900007 10072575
-0.03198 0.17862001 0.81900007 10269951
-0.030420002 0.17862001 0.81900007 10727679
-0.028860003 0.17862001 0.81900007 11451391
-0.027300002 0.17862001 0.81900007 11977471
-0.025802858 0.1790562 0.82100004 11845887
-0.02423905 0.1790562 0.82100004 10992639
-0.022730477 0.17949238 0.82300001 10532095
-0.021162858 0.17949238 0.82300001 10268415
-0.019642858 0.17992859 0.82500005 9873663
-0.018071428 0.17992859 0.82500005 9938423
-0.01654 0.18036477 0.82700002 10135802
-0.014964762 0.18036477 0.82700002 7705596
-0.013389524 0.18036477 0.82700002 8429311
-0.011842857 0.18080097 0.82900006 8627199
-0.010288572 0.18123715 0.83100003 6127077
-0.0087057147 0.18123715 0.83100003 4813813
-0.0071400008 0.18167335 0.83300006 1129405
-0.0055666668 0.18210953 0.83500004 1456826
-0.0039857142 0.18254572 0.83700001 7970303
-0.0023857143 0.18210953 0.83500004 10724812
-0.00079523813 0.18210953 0.83500004 10198468
0.00079523813 0.18210953 0.83500004 10394561
0.0023857143 0.18210953 0.83500004 10526147
-0.065494291 0.18678001 0.84900004 2184635
-0.063726671 0.18634 0.84700006 3562193
-0.061820004 0.18546002 0.84300005 4154330
-0.060071427 0.18502001 0.84100002 3696361
-0.05819143 0.18414 0.83700001 5012221
-0.056191429 0.18282001 0.83100003 6915327
-0.054477148 0.18238001 0.82900006 8625919
-0.052770477 0.18194 0.82700002 10200825
-0.051195238 0.18194 0.82700002 11516671
-0.049620003 0.18194 0.82700002 11122175
-0.047928575 0.1815 0.82500005 7240397
-0.046357144 0.1815 0.82500005 5864189
-0.044785716 0.1815 0.82500005 6258943
-0.043214288 0.1815 0.82500005 8165118
-0.041541904 0.18106 0.82300001 8033532
-0.039974283 0.18106 0.82300001 9611255
-0.038406666 0.18106 0.82300001 11058687
-0.036749527 0.18062001 0.82100004 11254527
-0.035100002 0.18018001 0.81900007 11386111
-0.033540003 0.18018001 0.81900007 10663935
-0.03198 0.18018001 0.81900007 10729727
-0.030420002 0.18018001 0.81900007 10860543
-0.028860003 0.18018001 0.81900007 10531583
-0.027300002 0.18018001 0.81900007 10598655
-0.025802858 0.18062001 0.82100004 10203903
-0.024298096 0.18106 0.82300001 10794751
-0.022730477 0.18106 0.82300001 11650047
-0.021214288 0.1815 0.82500005 12501759
-0.019642858 0.1815 0.82500005 11580659
-0.018071428 0.1815 0.82500005 10266096
-0.01654 0.18194 0.82700002 10331889
-0.014964762 0.18194 0.82700002 9151487
-0.013389524 0.18194 0.82700002 9085694
-0.011842857 0.18238001 0.82900006 8627199
-0.010288572 0.18282001 0.83100003 5995491
-0.0087057147 0.18282001 0.83100003 3764728
-0.0071400008 0.18326002 0.83300006 409285
-0.0055666668 0.18370001 0.83500004 1194437
-0.0039857142 0.18414 0.83700001 7839487
-0.0023857143 0.18370001 0.83500004 11118792
-0.00079523813 0.18370001 0.83500004 10658241
0.00079523813 0.18370001 0.83500004 10396101
-0.068890475 0.18884096 0.85100001 4343905
-0.067269526 0.18884096 0.85100001 801708
-0.065340005 0.18795334 0.84700006 2183361
-0.063576192 0.18750954 0.84500003 3560907
-0.061966669 0.18750954 0.84500003 4021458
-0.060214289 0.18706572 0.84300005 4089831
-0.058330476 0.1861781 0.83900005 4747761
-0.056326672 0.18484668 0.83300006 6258175
-0.054477148 0.18395905 0.82900006 7837183
-0.052770477 0.18351525 0.82700002 8755711
-0.051195238 0.18351525 0.82700002 10005759
-0.049620003 0.18351525 0.82700002 10333695
-0.048044764 0.18351525 0.82700002 9675774
-0.046357144 0.18307143 0.82500005 9414911
-0.044785716 0.18307143 0.82500005 9480703
-0.043214288 0.18307143 0.82500005 9612543
-0.04164286 0.18307143 0.82500005 9809919
-0.039974283 0.18262762 0.82300001 10138111
-0.038406666 0.18262762 0.82300001 10269695
-0.036749527 0.18218382 0.82100004 10203135
-0.035185717 0.18218382 0.82100004 10334719
-0.033621907 0.18218382 0.82100004 10203135
-0.032058097 0.18218382 0.82100004 10597887
-0.030420002 0.18174002 0.81900007 10730239
-0.028860003 0.18174002 0.81900007 10467071
-0.027366666 0.18218382 0.82100004 9812479
-0.025865715 0.18262762 0.82300001 8891386
-0.024357144 0.18307143 0.82500005 9875199
-0.022785716 0.18307143 0.82500005 11585791
-0.021265715 0.18351525 0.82700002 13091839
-0.019690476 0.18351525 0.82700002 11841778
-0.018115237 0.18351525 0.82700002 10593005
-0.01654 0.18351525 0.82700002 10593005
-0.014964762 0.18351525 0.82700002 9479935
-0.013421906 0.18395905 0.82900006 9348351
-0.011842857 0.18395905 0.82900006 7642879
-0.010288572 0.18440285 0.83100003 6195446
-0.0087057147 0.18440285 0.83100003 4157941
-0.0071400008 0.18484668 0.83300006 868291
-0.0055666668 0.18529049 0.83500004 1786543
-0.0039857142 0.18573429 0.83700001 8102655
-0.0023857143 0.18529049 0.83500004 10988238
-0.00079523813 0.18529049 0.83500004 10527687
0.00079523813 0.18529049 0.83500004 10330565
-0.068890475 0.1904619 0.85100001 5198440
-0.066953339 0.18956667 0.84700006 998585
-0.065185711 0.18911906 0.84500003 1722308
-0.06342572 0.18867144 0.84300005 1985739
-0.061820004 0.18867144 0.84300005 2577876
-0.060214289 0.18867144 0.84300005 3499491
-0.058330476 0.18777619 0.83900005 3302112
-0.056326672 0.18643335 0.83300006 3959799
-0.054608572 0.18598571 0.83100003 5933567
-0.052898098 0.18553811 0.82900006 7770111
-0.051195238 0.18509048 0.82700002 8822783
-0.049620003 0.18509048 0.82700002 9414143
-0.048044764 0.18509048 0.82700002 9611519
-0.046357144 0.18464287 0.82500005 9679359
-0.044785716 0.18464287 0.82500005 9876735
-0.043214288 0.18464287 0.82500005 9942527
-0.04164286 0.18464287 0.82500005 10205695
-0.039974283 0.18419524 0.82300001 10140159
-0.038406666 0.18419524 0.82300001 9876991
-0.036839046 0.18419524 0.82300001 9482751
-0.035185717 0.18374763 0.82100004 9416959
-0.033621907 0.18374763 0.82100004 9022719
-0.032058097 0.18374763 0.82100004 8891135
-0.030420002 0.1833 0.81900007 9087999
-0.028860003 0.1833 0.81900007 9153791
-0.027366666 0.18374763 0.82100004 8957183
-0.025865715 0.18419524 0.82300001 8036091
-0.024357144 0.18464287 0.82500005 9676799
-0.022785716 0.18464287 0.82500005 11913727
-0.021265715 0.18509048 0.82700002 13091070
-0.019690476 0.18509048 0.82700002 11709417
-0.018115237 0.18509048 0.82700002 10133488
-0.01654 0.18509048 0.82700002 9278179
-0.014964762 0.18509048 0.82700002 8363007
-0.013421906 0.18553811 0.82900006 9218303
-0.011842857 0.18553811 0.82900006 9482751
-0.010288572 0.18598571 0.83100003 7969521
-0.0087057147 0.18598571 0.83100003 4881151
-0.0071400008 0.18643335 0.83300006 1196747
-0.0055666668 0.18688096 0.83500004 999368
-0.0039857142 0.18732858 0.83700001 7447039
-0.0023857143 0.18688096 0.83500004 10922440
-0.00079523813 0.18688096 0.83500004 10593475
0.00079523813 0.18688096 0.83500004 10461891
-0.068890475 0.19208285 0.85100001 5791083
-0.066953339 0.19118001 0.84700006 1130159
-0.065185711 0.19072857 0.84500003 1722296
-0.06342572 0.19027716 0.84300005 1854918
-0.061820004 0.19027716 0.84300005 2710227
-0.060214289 0.19027716 0.84300005 3367653
-0.058469526 0.18982571 0.84100002 3301860
-0.056461908 0.18847144 0.83500004 2582773
-0.054740004 0.18802002 0.83300006 4490751
-0.052898098 0.18711714 0.82900006 6064895
-0.051319048 0.18711714 0.82900006 7446527
-0.049620003 0.18666571 0.82700002 8102911
-0.048044764 0.18666571 0.82700002 8366079
-0.046469525 0.18666571 0.82700002 8563455
-0.044785716 0.1862143 0.82500005 8760831
-0.043214288 0.1862143 0.82500005 8826367
-0.04164286 0.1862143 0.82500005 8957951
-0.039974283 0.18576287 0.82300001 9221375
-0.038406666 0.18576287 0.82300001 8958207
-0.036839046 0.18576287 0.82300001 8499455
-0.035185717 0.18531144 0.82100004 8367871
-0.033621907 0.18531144 0.82100004 7251455
-0.032058097 0.18531144 0.82100004 7514623
-0.030494286 0.18531144 0.82100004 8563455
-0.028930476 0.18531144 0.82100004 9221375
-0.027366666 0.18531144 0.82100004 9745663
-0.025928574 0.1862143 0.82500005 8495604
-0.024416192 0.18666571 0.82700002 9478143
-0.022840953 0.18666571 0.82700002 11912447
-0.021265715 0.18666571 0.82700002 12828409
-0.019690476 0.18666571 0.82700002 11578342
-0.018115237 0.18666571 0.82700002 10200051
-0.016580001 0.18711714 0.82900006 8884191
-0.015000953 0.18711714 0.82900006 6918911
-0.013421906 0.18711714 0.82900006 8629503
-0.011842857 0.18711714 0.82900006 9876735
-0.010288572 0.18756858 0.83100003 8231919
-0.0087266676 0.18802002 0.83300006 6916091
-0.0071571432 0.18847144 0.83500004 2113202
-0.0055800001 0.18892285 0.83700001 1457076
-0.0039857142 0.18892285 0.83700001 7838975
-0.0023914287 0.18892285 0.83700001 10659021
-0.00079714286 0.18892285 0.83700001 10659021
0.00080285716 0.19027716 0.84300005 10593480
0.0024085718 0.19027716 0.84300005 10527687
-0.068890475 0.19370382 0.85100001 6448241
-0.067111433 0.19324858 0.84900004 1260980
-0.065340005 0.19279334 0.84700006 1589945
-0.063576192 0.19233809 0.84500003 1723850
-0.061966669 0.19233809 0.84500003 3105503
-0.060214289 0.19188288 0.84300005 2974437
-0.058469526 0.19142762 0.84100002 3106023
-0.056597143 0.19051714 0.83700001 2714874
-0.054740004 0.18960668 0.83300006 3833343
-0.053025715 0.18915144 0.83100003 6195967
-0.051319048 0.18869621 0.82900006 7117055
-0.049620003 0.18824095 0.82700002 8299519
-0.048044764 0.18824095 0.82700002 8233727
-0.046469525 0.18824095 0.82700002 7052031
-0.044785716 0.18778573 0.82500005 6723071
-0.043214288 0.18778573 0.82500005 6264575
-0.04164286 0.18778573 0.82500005 6264575
-0.040071428 0.18778573 0.82500005 6068223
-0.038406666 0.18733048 0.82300001 6791935
-0.036839046 0.18733048 0.82300001 8433919
-0.035185717 0.18687524 0.82100004 8697087
-0.033621907 0.18687524 0.82100004 8763391
-0.032058097 0.18687524 0.82100004 8960767
-0.030494286 0.18687524 0.82100004 10338815
-0.028930476 0.18687524 0.82100004 11325695
-0.027366666 0.18687524 0.82100004 11389183
-0.025928574 0.18778573 0.82500005 9678572
-0.024416192 0.18824095 0.82700002 10726655
-0.022840953 0.18824095 0.82700002 12437247
-0.021265715 0.18824095 0.82700002 12499946
-0.019690476 0.18824095 0.82700002 11315672
-0.018159049 0.18869621 0.82900006 10068985
-0.016580001 0.18869621 0.82900006 9345262
-0.015000953 0.18869621 0.82900006 8626175
-0.013421906 0.18869621 0.82900006 9810431
-0.011842857 0.18869621 0.82900006 10335743
-0.010288572 0.18915144 0.83100003 8230376
-0.0087266676 0.18960668 0.83300006 5996786
-0.0071571432 0.19006191 0.83500004 1917620
-0.0055800001 0.19051714 0.83700001 1261766
-0.0039857142 0.19051714 0.83700001 7314687
-0.0023914287 0.19051714 0.83700001 10659282
-0.00079904764 0.19097239 0.83900005 10527696
0.00080095237 0.19142762 0.84100002 10461388
0.0024085718 0.19188288 0.84300005 10461388
-0.067111433 0.19486572 0.84900004 2969260
-0.065340005 0.19440667 0.84700006 2311330
-0.063576192 0.19394763 0.84500003 1002948
-0.061966669 0.19394763 0.84500003 2187222
-0.060214289 0.19348858 0.84300005 1858534
-0.058469526 0.19302952 0.84100002 2582257
-0.056597143 0.19211143 0.83700001 2256124
-0.054871429 0.19165239 0.83500004 3769343
