# .PCD v0.7 - Point Cloud Data file format
VERSION 0.7
FIELDS x y z rgba
SIZE 4 4 4 4
TYPE F F F U
COUNT 1 1 1 1
WIDTH 1102
HEIGHT 1
VIEWPOINT 0 0 0 1 0 0 0
POINTS 1102
DATA ascii
-0.16354001 0.052408572 0.66300005 6894891
-0.16227715 0.052408572 0.66300005 7947579
-0.16077144 0.052329529 0.66200006 7488053
-0.15951048 0.052329529 0.66200006 7027502
-0.15848857 0.052408572 0.66300005 7618595
-0.15722571 0.052408572 0.66300005 7223837
-0.15596287 0.052408572 0.66300005 7620360
-0.15470001 0.052408572 0.66300005 7949325
-0.15343715 0.052408572 0.66300005 7685658
-0.15240382 0.052487623 0.66400003 7488279
-0.15113907 0.052487623 0.66400003 7685408
-0.14964858 0.052408572 0.66300005 7685408
-0.14838572 0.052408572 0.66300005 7619840
-0.14712286 0.052408572 0.66300005 7619840
-0.14608 0.052487623 0.66400003 7750690
-0.14481525 0.052487623 0.66400003 7553311
-0.14355049 0.052487623 0.66400003 7946536
-0.14228572 0.052487623 0.66400003 7485985
-0.14102095 0.052487623 0.66400003 7879444
-0.13975619 0.052487623 0.66400003 7813651
-0.13849142 0.052487623 0.66400003 8338982
-0.13722667 0.052487623 0.66400003 8141603
-0.13596192 0.052487623 0.66400003 8141824
-0.13510285 0.052645713 0.66600001 8076032
-0.13383429 0.052645713 0.66600001 8473100
-0.13216762 0.052487623 0.66400003 14460263
-0.12676285 0.050827619 0.64300001 15851665
-0.1255381 0.050827619 0.64300001 16777138
-0.12450667 0.050906669 0.64400005 16711674
-0.12328001 0.050906669 0.64400005 16711674
-0.12205334 0.050906669 0.64400005 16711422
-0.12082668 0.050906669 0.64400005 16711422
-0.11997144 0.051064763 0.64600003 16711420
-0.11874096 0.051064763 0.64600003 16711420
-0.11769238 0.05114381 0.64700001 16711420
-0.11646 0.05114381 0.64700001 16711420
-0.11522762 0.05114381 0.64700001 16645881
-0.11399524 0.05114381 0.64700001 16711674
-0.11258857 0.051064763 0.64600003 16711422
-0.1113581 0.051064763 0.64600003 16711422
-0.11012762 0.051064763 0.64600003 16645629
-0.10889714 0.051064763 0.64600003 16711422
-0.10766667 0.051064763 0.64600003 16711422
-0.10610668 0.050906669 0.64400005 16711422
-0.10488001 0.050906669 0.64400005 16711422
-0.10816 0.053120002 0.67200005 16711422
-0.10688 0.053120002 0.67200005 16183806
-0.10560001 0.053120002 0.67200005 10591401
-0.10416476 0.053040951 0.671 8478800
-0.10242667 0.052803814 0.66800004 8347214
-0.10115429 0.052803814 0.66800004 9199163
-0.099732392 0.052724764 0.66700006 8607026
-0.098461911 0.052724764 0.66700006 8476221
-0.097191438 0.052724764 0.66700006 8870979
-0.095920965 0.052724764 0.66700006 8937002
-0.094650485 0.052724764 0.66700006 9200174
-0.093520008 0.052803814 0.66800004 9133093
-0.092247628 0.052803814 0.66800004 9198886
-0.090975247 0.052803814 0.66800004 8870436
-0.08970286 0.052803814 0.66800004 9002022
-0.088430479 0.052803814 0.66800004 8279372
-0.087158099 0.052803814 0.66800004 8016200
-0.085885718 0.052803814 0.66800004 7885363
-0.084486671 0.052724764 0.66700006 8148535
-0.083216198 0.052724764 0.66700006 8213320
-0.081945717 0.052724764 0.66700006 7555390
-0.080675244 0.052724764 0.66700006 7685691
-0.079404771 0.052724764 0.66700006 7619898
-0.078134291 0.052724764 0.66700006 7621662
-0.076863818 0.052724764 0.66700006 7950627
-0.075706668 0.052803814 0.66800004 7753285
-0.074322864 0.052724764 0.66700006 7358527
-0.07294286 0.052645713 0.66600001 6835258
-0.071674287 0.052645713 0.66600001 9993322
-0.070194289 0.052487623 0.66400003 14929071
-0.068929531 0.052487623 0.66400003 16775130
-0.067664765 0.052487623 0.66400003 15061890
-0.16682382 0.053509526 0.66100001 16646120
-0.16556476 0.053509526 0.66100001 15853232
-0.1645543 0.05359048 0.66200006 6642212
-0.16329335 0.05359048 0.66200006 7353600
-0.1620324 0.05359048 0.66200006 8472074
-0.16052857 0.053509526 0.66100001 7616799
-0.15926953 0.053509526 0.66100001 8077350
-0.15824954 0.05359048 0.66200006 8406567
-0.15722571 0.053671431 0.66300005 8209188
-0.15572762 0.05359048 0.66200006 8209940
-0.15423334 0.053509526 0.66100001 8209940
-0.15297428 0.053509526 0.66100001 8341262
-0.15194477 0.05359048 0.66200006 8275469
-0.15068382 0.05359048 0.66200006 8406022
-0.14942287 0.05359048 0.66200006 8274436
-0.1479381 0.053509526 0.66100001 7549440
-0.14667904 0.053509526 0.66100001 8536325
-0.14564002 0.05359048 0.66200006 8144419
-0.14459716 0.053671431 0.66300005 8078626
-0.14333428 0.053671431 0.66300005 8209710
-0.14207143 0.053671431 0.66300005 7749159
-0.14080858 0.053671431 0.66300005 8338205
-0.13954572 0.053671431 0.66300005 8469791
-0.13849142 0.053752381 0.66400003 8996655
-0.13722667 0.053752381 0.66400003 8404518
-0.13596192 0.053752381 0.66400003 8075264
-0.13469715 0.053752381 0.66400003 8733192
-0.13343239 0.053752381 0.66400003 9197062
-0.12798762 0.052052379 0.64300001 16769939
-0.12676285 0.052052379 0.64300001 16447457
-0.1255381 0.052052379 0.64300001 16777194
-0.12450667 0.052133337 0.64400005 16711672
-0.12328001 0.052133337 0.64400005 16711672
-0.12205334 0.052133337 0.64400005 16711422
-0.12082668 0.052133337 0.64400005 16711422
-0.11960001 0.052133337 0.64400005 16645881
-0.11837334 0.052133337 0.64400005 16645881
-0.11751048 0.052295242 0.64600003 16645881
-0.11628 0.052295242 0.64600003 16645881
-0.11522762 0.052376192 0.64700001 16645879
-0.11399524 0.052376192 0.64700001 16711672
-0.11258857 0.052295242 0.64600003 16711422
-0.1113581 0.052295242 0.64600003 16711422
-0.11012762 0.052295242 0.64600003 16711422
-0.10889714 0.052295242 0.64600003 16711422
-0.10733335 0.052133337 0.64400005 16711422
-0.10610668 0.052133337 0.64400005 16711422
-0.10488001 0.052133337 0.64400005 16711422
-0.10349238 0.052052379 0.64300001 16711422
-0.10226762 0.052052379 0.64300001 16711422
-0.10560001 0.054400001 0.67200005 15263976
-0.10416476 0.054319046 0.671 8487290
-0.10242667 0.054076191 0.66800004 6316121
-0.10100286 0.05399524 0.66700006 8478028
-0.099582858 0.053914286 0.66600001 7951684
-0.098314285 0.053914286 0.66600001 7886145
-0.097045712 0.053914286 0.66600001 7688766
-0.095777147 0.053914286 0.66600001 7755060
-0.094508573 0.053914286 0.66600001 7755060
-0.093380012 0.05399524 0.66700006 7424803
-0.092109531 0.05399524 0.66700006 7687975
-0.090839051 0.05399524 0.66700006 7491634
-0.089568578 0.05399524 0.66700006 7886392
-0.088165708 0.053914286 0.66600001 7558986
-0.08689715 0.053914286 0.66600001 7295814
-0.085628577 0.053914286 0.66600001 7033662
-0.084360003 0.053914286 0.66600001 7165248
-0.08309143 0.053914286 0.66600001 7296084
-0.081822857 0.053914286 0.66600001 7098705
-0.080554284 0.053914286 0.66600001 7230791
-0.079404771 0.05399524 0.66700006 7164998
-0.078017138 0.053914286 0.66600001 7298098
-0.076748572 0.053914286 0.66600001 7363891
-0.075479999 0.053914286 0.66600001 7102546
-0.074211434 0.053914286 0.66600001 5655100
-0.072723806 0.053752381 0.66400003 4935729
-0.071459055 0.053752381 0.66400003 8949102
-0.070194289 0.053752381 0.66400003 15329269
-0.068825722 0.053671431 0.66300005 16710911
-0.067562856 0.053671431 0.66300005 11577600
-0.16631906 0.054602861 0.65900004 16646122
-0.16506383 0.054602861 0.65900004 15457704
-0.1643057 0.05476857 0.66100001 6773028
-0.16304667 0.05476857 0.66100001 7753261
-0.16178761 0.05476857 0.66100001 8476984
-0.16052857 0.05476857 0.66100001 8213817
-0.15926953 0.05476857 0.66100001 8608575
-0.15801048 0.05476857 0.66100001 8148528
-0.15698858 0.054851435 0.66200006 8214321
-0.15549238 0.05476857 0.66100001 8279361
-0.15423334 0.05476857 0.66100001 8213568
-0.15297428 0.05476857 0.66100001 8214321
-0.15171525 0.05476857 0.66100001 8345907
-0.15045619 0.05476857 0.66100001 8279846
-0.14919715 0.05476857 0.66100001 8279846
-0.1479381 0.05476857 0.66100001 8279846
-0.14667904 0.05476857 0.66100001 8345639
-0.14542001 0.05476857 0.66100001 8148528
-0.14437905 0.054851435 0.66200006 7753770
-0.14311811 0.054851435 0.66200006 7949633
-0.14185715 0.054851435 0.66200006 7752254
-0.1405962 0.054851435 0.66200006 8146482
-0.13954572 0.054934289 0.66300005 8541240
-0.13828287 0.054934289 0.66300005 8344897
-0.13702002 0.054934289 0.66300005 8015932
-0.13575715 0.054934289 0.66300005 8542794
-0.13469715 0.055017143 0.66400003 11832444
-0.13343239 0.055017143 0.66400003 12955293
-0.12778857 0.053194284 0.64200002 16775656
-0.12656571 0.053194284 0.64200002 16711670
-0.1255381 0.053277142 0.64300001 16646133
-0.12431334 0.053277142 0.64300001 16580340
-0.12308857 0.053277142 0.64300001 16711670
-0.12186381 0.053277142 0.64300001 16711422
-0.12063904 0.053277142 0.64300001 16711422
-0.11960001 0.053360004 0.64400005 16646133
-0.11837334 0.053360004 0.64400005 16646133
-0.11751048 0.053525716 0.64600003 16580340
-0.11628 0.053525716 0.64600003 16580340
-0.11504953 0.053525716 0.64600003 16580338
-0.11381905 0.053525716 0.64600003 16646131
-0.11258857 0.053525716 0.64600003 16711422
-0.11101335 0.053360004 0.64400005 16711422
-0.10978667 0.053360004 0.64400005 16711422
-0.10856 0.053360004 0.64400005 16711422
-0.10733335 0.053360004 0.64400005 16711422
-0.10610668 0.053360004 0.64400005 16711422
-0.10471714 0.053277142 0.64300001 16711422
-0.10349238 0.053277142 0.64300001 16711422
-0.10194953 0.05311143 0.64100003 16711422
-0.10072858 0.05311143 0.64100003 16711422
-0.10416476 0.055597141 0.671 12105392
-0.10227334 0.055265717 0.66700006 5197127
-0.10085143 0.055182859 0.66600001 5656649
-0.099283814 0.055017143 0.66400003 6051407
-0.098019049 0.055017143 0.66400003 6313028
-0.09675429 0.055017143 0.66400003 5391926
-0.095489532 0.055017143 0.66400003 5523010
-0.094224766 0.055017143 0.66400003 6049354
-0.09296 0.055017143 0.66400003 5851944
-0.091695242 0.055017143 0.66400003 5259807
-0.090430476 0.055017143 0.66400003 5456440
-0.089165725 0.055017143 0.66400003 5390647
-0.087900959 0.055017143 0.66400003 5129537
-0.086636193 0.055017143 0.66400003 4866365
-0.085371435 0.055017143 0.66400003 5129533
-0.083980009 0.054934289 0.66300005 5195326
-0.082717143 0.054934289 0.66300005 5195589
-0.081577145 0.055017143 0.66400003 4800831
-0.080312386 0.055017143 0.66400003 4997951
-0.079047628 0.055017143 0.66400003 5524295
-0.077782862 0.055017143 0.66400003 5197839
-0.076518096 0.055017143 0.66400003 5066253
-0.075253338 0.055017143 0.66400003 4933932
-0.073988572 0.055017143 0.66400003 3815451
-0.072504766 0.054851435 0.66200006 2640190
-0.071243815 0.054851435 0.66200006 7837837
-0.069982864 0.054851435 0.66200006 16711650
-0.068618096 0.05476857 0.66100001 16777187
-0.067359053 0.05476857 0.66100001 11511680
-0.16606668 0.055773336 0.65800005 16646120
-0.16481334 0.055773336 0.65800005 14472081
-0.16380858 0.055858098 0.65900004 6247956
-0.16255334 0.055858098 0.65900004 7492656
-0.1612981 0.055858098 0.65900004 7887414
-0.16004287 0.055858098 0.65900004 7558199
-0.15878762 0.055858098 0.65900004 7558199
-0.15753239 0.055858098 0.65900004 7492656
-0.15627715 0.055858098 0.65900004 7558449
-0.15502191 0.055858098 0.65900004 7427400
-0.15376668 0.055858098 0.65900004 7493193
-0.15251143 0.055858098 0.65900004 7756097
-0.1512562 0.055858098 0.65900004 7756097
-0.15000096 0.055858098 0.65900004 7492908
-0.14874573 0.055858098 0.65900004 7624494
-0.14749049 0.055858098 0.65900004 8216892
-0.14623524 0.055858098 0.65900004 8019513
-0.14498 0.055858098 0.65900004 8084802
-0.14416096 0.056027621 0.66100001 8019009
-0.1429019 0.056027621 0.66100001 8479570
-0.14164287 0.056027621 0.66100001 7821640
-0.14038381 0.056027621 0.66100001 8018750
-0.13912477 0.056027621 0.66100001 7952957
-0.13807429 0.056112386 0.66200006 8350296
-0.13681334 0.056112386 0.66200006 6508092
-0.13575715 0.056197144 0.66300005 8282692
-0.13449429 0.056197144 0.66300005 14269855
-0.13323143 0.056197144 0.66300005 13750708
-0.12778857 0.054417145 0.64200002 16777188
-0.12656571 0.054417145 0.64200002 16646131
-0.12534286 0.054417145 0.64200002 16646131
-0.12412 0.054417145 0.64200002 16646131
-0.12289715 0.054417145 0.64200002 16646131
-0.12186381 0.054501906 0.64300001 16645879
-0.12063904 0.054501906 0.64300001 16645879
-0.11941428 0.054501906 0.64300001 16580340
-0.11818952 0.054501906 0.64300001 16646133
-0.11714668 0.054586671 0.64400005 16711674
-0.11592001 0.054586671 0.64400005 16645881
-0.11504953 0.054756194 0.64600003 16580336
-0.11346667 0.054586671 0.64400005 16646129
-0.11224001 0.054586671 0.64400005 16711420
-0.11101335 0.054586671 0.64400005 16711420
-0.10978667 0.054586671 0.64400005 16711420
-0.10856 0.054586671 0.64400005 16711420
-0.10716667 0.054501906 0.64300001 16711422
-0.1059419 0.054501906 0.64300001 16711422
-0.10455429 0.054417145 0.64200002 16711422
-0.10333143 0.054417145 0.64200002 16711422
-0.10194953 0.054332383 0.64100003 16711422
-0.10072858 0.054332383 0.64100003 16711422
-0.099662863 0.054417145 0.64200002 13423046
-0.10181334 0.056281909 0.66400003 5067335
-0.10054857 0.056281909 0.66400003 1526601
-0.099134296 0.056197144 0.66300005 2645082
-0.097871438 0.056197144 0.66300005 4019274
-0.096608579 0.056197144 0.66300005 3163965
-0.095345721 0.056197144 0.66300005 3556915
-0.094082862 0.056197144 0.66300005 4083259
-0.092820004 0.056197144 0.66300005 3887920
-0.091557153 0.056197144 0.66300005 3756334
-0.090294287 0.056197144 0.66300005 3427641
-0.089031436 0.056197144 0.66300005 3427641
-0.087768577 0.056197144 0.66300005 3493182
-0.086505719 0.056197144 0.66300005 3493182
-0.08524286 0.056197144 0.66300005 3230260
-0.083980009 0.056197144 0.66300005 3098674
-0.08259239 0.056112386 0.66200006 3032888
-0.081331439 0.056112386 0.66200006 2769716
-0.080070481 0.056112386 0.66200006 2180134
-0.07880953 0.056112386 0.66200006 2772271
-0.077665716 0.056197144 0.66300005 3099916
-0.07628762 0.056112386 0.66200006 3165709
-0.075026676 0.056112386 0.66200006 4083456
-0.073765725 0.056112386 0.66200006 5201930
-0.072395235 0.056027621 0.66100001 4350533
-0.071136191 0.056027621 0.66100001 8890250
-0.069877148 0.056027621 0.66100001 16711422
-0.068410479 0.055858098 0.65900004 16711422
-0.067155235 0.055858098 0.65900004 9479039
-0.065900005 0.055858098 0.65900004 9084281
-0.16581428 0.056939997 0.65700001 15264462
-0.16456285 0.056939997 0.65700001 14144111
-0.16356 0.057026673 0.65800005 5130496
-0.16230668 0.057026673 0.65800005 5460518
-0.16105334 0.057026673 0.65800005 5789483
-0.15980001 0.057026673 0.65800005 5984574
-0.15854667 0.057026673 0.65800005 5852988
-0.15729335 0.057026673 0.65800005 5657391
-0.15627715 0.057113335 0.65900004 5723184
-0.15478668 0.057026673 0.65800005 5854282
-0.15353334 0.057026673 0.65800005 5525317
-0.15228 0.057026673 0.65800005 6247998
-0.15102668 0.057026673 0.65800005 6182205
-0.14977334 0.057026673 0.65800005 5919784
-0.14874573 0.057113335 0.65900004 5590819
-0.14749049 0.057113335 0.65900004 5919536
-0.14623524 0.057113335 0.65900004 5919536
-0.14498 0.057113335 0.65900004 5919031
-0.14372477 0.057113335 0.65900004 5655859
-0.14246953 0.057113335 0.65900004 5853242
-0.1412143 0.057113335 0.65900004 5590070
-0.13995907 0.057113335 0.65900004 6313770
-0.13912477 0.057286669 0.66100001 6511149
-0.13807429 0.057373337 0.66200006 5855552
-0.13681334 0.057373337 0.66200006 3947555
-0.13575715 0.057460003 0.66300005 7627808
-0.13449429 0.057460003 0.66300005 14536073
-0.12881048 0.055553336 0.64100003 15722682
-0.12739049 0.055466671 0.64000005 16777170
-0.12617144 0.055466671 0.64000005 16646131
-0.12514763 0.055553336 0.64100003 16580338
-0.12392667 0.055553336 0.64100003 16580336
-0.12270571 0.055553336 0.64100003 16580336
-0.12148476 0.055553336 0.64100003 16514797
-0.12045144 0.055640001 0.64200002 16580590
-0.11904286 0.055553336 0.64100003 16580336
-0.11782191 0.055553336 0.64100003 16646129
-0.11678286 0.055640001 0.64200002 16711420
-0.11574 0.055726666 0.64300001 16645627
-0.11451524 0.055726666 0.64300001 16514543
-0.11329047 0.055726666 0.64300001 16646129
-0.11206571 0.055726666 0.64300001 16711420
-0.11084095 0.055726666 0.64300001 16711420
-0.10961619 0.055726666 0.64300001 16711420
-0.10839143 0.055726666 0.64300001 16645627
-0.10700001 0.055640001 0.64200002 16645881
-0.10577714 0.055640001 0.64200002 16711674
-0.10455429 0.055640001 0.64200002 16711422
-0.10317048 0.055553336 0.64100003 16711422
-0.10194953 0.055553336 0.64100003 16711422
-0.10072858 0.055553336 0.64100003 16711422
-0.099507622 0.055553336 0.64100003 13095360
-0.10181334 0.057546668 0.66400003 5594958
-0.10054857 0.057546668 0.66400003 2778245
-0.098984763 0.057373337 0.66200006 3830933
-0.097723819 0.057373337 0.66200006 5203046
-0.096462868 0.057373337 0.66200006 5268839
-0.09520191 0.057373337 0.66200006 5597020
-0.093799047 0.057286669 0.66100001 5794399
-0.092539996 0.057286669 0.66100001 5794395
-0.091280952 0.057286669 0.66100001 5860188
-0.090021908 0.057286669 0.66100001 5794649
-0.088762857 0.057286669 0.66100001 5794649
-0.087503813 0.057286669 0.66100001 5794663
-0.086244762 0.057286669 0.66100001 6255214
-0.084985711 0.057286669 0.66100001 6189923
-0.083853334 0.057373337 0.66200006 6189923
-0.08259239 0.057373337 0.66200006 6321007
-0.081331439 0.057373337 0.66200006 7110523
-0.080070481 0.057373337 0.66200006 7636088
-0.07880953 0.057373337 0.66200006 8030846
-0.077548578 0.057373337 0.66200006 8294524
-0.07628762 0.057373337 0.66200006 8294524
-0.075026676 0.057373337 0.66200006 10331740
-0.073765725 0.057373337 0.66200006 10923877
-0.072395235 0.057286669 0.66100001 10135220
-0.071136191 0.057286669 0.66100001 13161698
-0.069877148 0.057286669 0.66100001 16711422
-0.068410479 0.057113335 0.65900004 16711422
-0.067155235 0.057113335 0.65900004 10331811
-0.065900005 0.057113335 0.65900004 9476502
-0.16706572 0.05819143 0.65700001 16646118
-0.16581428 0.05819143 0.65700001 14540998
-0.16456285 0.05819143 0.65700001 11909484
-0.16331144 0.05819143 0.65700001 5264391
-0.16205999 0.05819143 0.65700001 3494736
-0.16080856 0.05819143 0.65700001 4284252
-0.15980001 0.058280002 0.65800005 4741723
-0.15830572 0.05819143 0.65700001 4807516
-0.15705428 0.05819143 0.65700001 5202010
-0.15580286 0.05819143 0.65700001 5267803
-0.15455143 0.05819143 0.65700001 5267033
-0.1533 0.05819143 0.65700001 5069654
-0.15204857 0.05819143 0.65700001 4675918
-0.15079714 0.05819143 0.65700001 4675918
-0.14954571 0.05819143 0.65700001 4412994
-0.14852001 0.058280002 0.65800005 4741959
-0.14726667 0.058280002 0.65800005 5136969
-0.14601335 0.058280002 0.65800005 5071176
-0.14476001 0.058280002 0.65800005 4874824
-0.14350668 0.058280002 0.65800005 4809031
-0.14225334 0.058280002 0.65800005 5005381
-0.14100002 0.058280002 0.65800005 4873795
-0.13974668 0.058280002 0.65800005 4742979
-0.13849334 0.058280002 0.65800005 4677186
-0.13744858 0.058368575 0.65900004 4217166
-0.13619334 0.058368575 0.65900004 3427650
-0.13555239 0.058634292 0.66200006 7759682
-0.12942286 0.056508571 0.63800001 15062705
-0.12820761 0.056508571 0.63800001 16446683
-0.12699237 0.056508571 0.63800001 16776933
-0.12577716 0.056508571 0.63800001 16646131
-0.12495239 0.056685716 0.64000005 16580338
-0.12373334 0.056685716 0.64000005 16580336
-0.1225143 0.056685716 0.64000005 16580336
-0.12129524 0.056685716 0.64000005 16580336
-0.1200762 0.056685716 0.64000005 16580336
-0.11885715 0.056685716 0.64000005 16580336
-0.1176381 0.056685716 0.64000005 16646129
-0.11660096 0.056774288 0.64100003 16645881
-0.11538001 0.056774288 0.64100003 16645881
-0.11415905 0.056774288 0.64100003 16646133
-0.1129381 0.056774288 0.64100003 16646133
-0.11171715 0.056774288 0.64100003 16645881
-0.11049619 0.056774288 0.64100003 16711674
-0.10944572 0.056862857 0.64200002 16711674
-0.10822286 0.056862857 0.64200002 16645881
-0.10700001 0.056862857 0.64200002 16645881
-0.10577714 0.056862857 0.64200002 16711674
-0.10439143 0.056774288 0.64100003 16711422
-0.10317048 0.056774288 0.64100003 16711422
-0.10179048 0.056685716 0.64000005 16711422
-0.10057143 0.056685716 0.64000005 16711422
-0.099507622 0.056774288 0.64100003 13491901
-0.098286666 0.056774288 0.64100003 8623219
-0.10024572 0.058634292 0.66200006 8493196
-0.098835237 0.058545712 0.66100001 7637887
-0.097576194 0.058545712 0.66100001 8030848
-0.096317142 0.058545712 0.66100001 7767676
-0.094770476 0.058368575 0.65900004 7439220
-0.093515247 0.058368575 0.65900004 7505013
-0.092260011 0.058368575 0.65900004 7505015
-0.090866677 0.058280002 0.65800005 7505015
-0.089613341 0.058280002 0.65800005 7373945
-0.088494293 0.058368575 0.65900004 7637117
-0.087239049 0.058368575 0.65900004 7834496
-0.085983813 0.058368575 0.65900004 7966082
-0.084728576 0.058368575 0.65900004 8229254
-0.083726667 0.058545712 0.66100001 8097668
-0.082467623 0.058545712 0.66100001 8294520
-0.081208572 0.058545712 0.66100001 8689278
-0.079949521 0.058545712 0.66100001 8755346
-0.07880953 0.058634292 0.66200006 9018518
-0.077431425 0.058545712 0.66100001 10069911
-0.076172382 0.058545712 0.66100001 10135704
-0.074913338 0.058545712 0.66100001 10726287
-0.073654287 0.058545712 0.66100001 11186838
-0.072176196 0.058368575 0.65900004 12304295
-0.070920952 0.058368575 0.65900004 13949120
-0.069665715 0.058368575 0.65900004 16711422
-0.06830667 0.058280002 0.65800005 16711422
-0.06705334 0.058280002 0.65800005 10199975
-0.065800004 0.058280002 0.65800005 9607838
-0.16706572 0.059442859 0.65700001 16646122
-0.16581428 0.059442859 0.65700001 13488058
-0.16406192 0.059261907 0.65500003 11778148
-0.16281429 0.059261907 0.65500003 7304224
-0.16156667 0.059261907 0.65500003 6453640
-0.16031905 0.059261907 0.65500003 6651019
-0.15955715 0.059442859 0.65700001 6716807
-0.15782382 0.059261907 0.65500003 6782600
-0.1565762 0.059261907 0.65500003 7045770
-0.15532857 0.059261907 0.65500003 7243149
-0.15408096 0.059261907 0.65500003 7505799
-0.15283334 0.059261907 0.65500003 7637385
-0.15158573 0.059261907 0.65500003 7505799
-0.1503381 0.059261907 0.65500003 7308420
-0.14909048 0.059261907 0.65500003 7571592
-0.14829428 0.059442859 0.65700001 7768971
-0.14704286 0.059442859 0.65700001 8097418
-0.14579143 0.059442859 0.65700001 8557969
-0.14454 0.059442859 0.65700001 8557703
-0.14328857 0.059442859 0.65700001 8689289
-0.14203715 0.059442859 0.65700001 8492426
-0.14078571 0.059442859 0.65700001 8426633
-0.13953428 0.059442859 0.65700001 8295056
-0.13849334 0.059533339 0.65800005 8295056
-0.13724001 0.059533339 0.65800005 8163990
-0.13598667 0.059533339 0.65800005 7571853
-0.13534762 0.059804764 0.66100001 9932933
-0.12942286 0.057723809 0.63800001 15130580
-0.12820761 0.057723809 0.63800001 16512466
-0.12699237 0.057723809 0.63800001 16777180
-0.12577716 0.057723809 0.63800001 16646131
-0.12456191 0.057723809 0.63800001 16646131
-0.12334667 0.057723809 0.63800001 16580336
-0.12213144 0.057723809 0.63800001 16580336
-0.1209162 0.057723809 0.63800001 16646129
-0.11970095 0.057723809 0.63800001 16580336
-0.11885715 0.057904765 0.64000005 16580336
-0.1176381 0.057904765 0.64000005 16580336
-0.11641905 0.057904765 0.64000005 16580336
-0.11520001 0.057904765 0.64000005 16646129
-0.11398096 0.057904765 0.64000005 16711674
-0.11276191 0.057904765 0.64000005 16711674
-0.11154287 0.057904765 0.64000005 16711674
-0.11032382 0.057904765 0.64000005 16711674
-0.10910477 0.057904765 0.64000005 16645881
-0.10788572 0.057904765 0.64000005 16645881
-0.10683334 0.057995241 0.64100003 16645879
-0.10561238 0.057995241 0.64100003 16711672
-0.10422858 0.057904765 0.64000005 16711422
-0.10300954 0.057904765 0.64000005 16711422
-0.10179048 0.057904765 0.64000005 16711422
-0.10057143 0.057904765 0.64000005 14869218
-0.099507622 0.057995241 0.64100003 14343348
-0.098286666 0.057995241 0.64100003 14869692
-0.099640004 0.059533339 0.65800005 14411192
-0.098386675 0.059533339 0.65800005 12634781
-0.097133338 0.059533339 0.65800005 12043199
-0.095734291 0.059442859 0.65700001 11582648
-0.094482854 0.059442859 0.65700001 11385519
-0.093231425 0.059442859 0.65700001 11253933
-0.091980003 0.059442859 0.65700001 10991281
-0.090728574 0.059442859 0.65700001 10859695
-0.089477144 0.059442859 0.65700001 11057074
-0.088360004 0.059533339 0.65800005 11386039
-0.086974286 0.059442859 0.65700001 11188919
-0.085722856 0.059442859 0.65700001 11057333
-0.084471427 0.059442859 0.65700001 11254455
-0.083346672 0.059533339 0.65800005 11254455
-0.082093336 0.059533339 0.65800005 11451566
-0.080839999 0.059533339 0.65800005 12043703
-0.079586677 0.059533339 0.65800005 11583166
-0.078333341 0.059533339 0.65800005 11122615
-0.077080004 0.059533339 0.65800005 12767413
-0.075826667 0.059533339 0.65800005 12964792
-0.074573338 0.059533339 0.65800005 13751757
-0.073320009 0.059533339 0.65800005 15199203
-0.071957141 0.059442859 0.65700001 14804947
-0.070705712 0.059442859 0.65700001 14870740
-0.06945429 0.059442859 0.65700001 16711422
-0.068202853 0.059442859 0.65700001 16711422
-0.066951431 0.059442859 0.65700001 10924477
-0.065800004 0.059533339 0.65800005 9411238
-0.16831714 0.060694285 0.65700001 16646124
-0.16706572 0.060694285 0.65700001 16711650
-0.16530953 0.060509525 0.65500003 12961705
-0.16406192 0.060509525 0.65500003 10989429
-0.16281429 0.060509525 0.65500003 7370814
-0.16156667 0.060509525 0.65500003 6061451
-0.16031905 0.060509525 0.65500003 6258830
-0.15907143 0.060509525 0.65500003 6324364
-0.15758286 0.060417145 0.65400004 6850708
-0.15633714 0.060417145 0.65400004 6851221
-0.15509143 0.060417145 0.65400004 6785428
-0.15384573 0.060417145 0.65400004 6851730
-0.15260001 0.060417145 0.65400004 6983316
-0.1513543 0.060417145 0.65400004 7245200
-0.15010858 0.060417145 0.65400004 7310993
-0.14886287 0.060417145 0.65400004 7771031
-0.14761716 0.060417145 0.65400004 7639445
-0.14659524 0.060509525 0.65500003 7770765
-0.14534763 0.060509525 0.65500003 8099730
-0.14454 0.060694285 0.65700001 8229774
-0.14328857 0.060694285 0.65700001 8756118
-0.14203715 0.060694285 0.65700001 8625311
-0.14078571 0.060694285 0.65700001 8756897
-0.13910952 0.060509525 0.65500003 8494752
-0.13786191 0.060509525 0.65500003 8363166
-0.13703142 0.060694285 0.65700001 8166552
-0.13577999 0.060694285 0.65700001 7771794
-0.13452858 0.060694285 0.65700001 10197136
-0.12921999 0.058846667 0.63700002 14473681
-0.12800667 0.058846667 0.63700002 15921353
-0.12699237 0.058939047 0.63800001 16777178
-0.12577716 0.058939047 0.63800001 16646131
-0.12436667 0.058846667 0.63700002 16580338
-0.12315334 0.058846667 0.63700002 16580336
-0.12213144 0.058939047 0.63800001 16580336
-0.12072667 0.058846667 0.63700002 16580336
-0.11951334 0.058846667 0.63700002 16580336
-0.11830001 0.058846667 0.63700002 16580336
-0.11708666 0.058846667 0.63700002 16580336
-0.11587334 0.058846667 0.63700002 16646131
-0.11466 0.058846667 0.63700002 16646131
-0.11344667 0.058846667 0.63700002 16645879
-0.11240952 0.058939047 0.63800001 16645879
-0.11119429 0.058939047 0.63800001 16645881
-0.10997905 0.058939047 0.63800001 16645881
-0.10876381 0.058939047 0.63800001 16711674
-0.10754857 0.058939047 0.63800001 16645881
-0.10666667 0.059123814 0.64000005 16711674
-0.10544763 0.059123814 0.64000005 16711674
-0.10422858 0.059123814 0.64000005 16711420
-0.10300954 0.059123814 0.64000005 16711420
-0.10147239 0.058939047 0.63800001 16711674
-0.10025714 0.058939047 0.63800001 13948368
-0.099507622 0.05921619 0.64100003 14734501
-0.10089334 0.060786668 0.65800005 16510912
-0.099488571 0.060694285 0.65700001 15395555
-0.098237142 0.060694285 0.65700001 13750730
-0.096985713 0.060694285 0.65700001 12307141
-0.095734291 0.060694285 0.65700001 11451832
-0.094482854 0.060694285 0.65700001 11452082
-0.093231425 0.060694285 0.65700001 10991531
-0.091700003 0.060509525 0.65500003 10664628
-0.090452388 0.060509525 0.65500003 10598835
-0.089204758 0.060509525 0.65500003 10599083
-0.087957144 0.060509525 0.65500003 10993841
-0.086709529 0.060509525 0.65500003 11321273
-0.085461907 0.060509525 0.65500003 11255480
-0.084214285 0.060509525 0.65500003 10992308
-0.08296667 0.060509525 0.65500003 11255480
-0.081719048 0.060509525 0.65500003 11321009
-0.080471434 0.060509525 0.65500003 11649974
-0.079223812 0.060509525 0.65500003 11518652
-0.077976197 0.060509525 0.65500003 11716031
-0.076728575 0.060509525 0.65500003 12636097
-0.075480953 0.060509525 0.65500003 13030855
-0.07446 0.060694285 0.65700001 13489866
-0.07320857 0.060694285 0.65700001 14871519
-0.071738102 0.060509525 0.65500003 14805210
-0.070490479 0.060509525 0.65500003 15528933
-0.06945429 0.060694285 0.65700001 16711422
-0.067995243 0.060509525 0.65500003 16711422
-0.066747628 0.060509525 0.65500003 11122113
-0.065499999 0.060509525 0.65500003 9016737
-0.16831714 0.061945714 0.65700001 16646124
-0.16706572 0.061945714 0.65700001 16646104
-0.16530953 0.061757144 0.65500003 12304278
-0.16406192 0.061757144 0.65500003 8686977
-0.16281429 0.061757144 0.65500003 7371117
-0.16132002 0.06166286 0.65400004 6193550
-0.16007431 0.06166286 0.65400004 6325136
-0.15882857 0.06166286 0.65400004 6521997
-0.15758286 0.06166286 0.65400004 6850962
-0.15633714 0.06166286 0.65400004 6916494
-0.1548543 0.061568573 0.65300006 6916494
-0.15361048 0.061568573 0.65300006 6850456
-0.15236668 0.061568573 0.65300006 7113628
-0.15112287 0.061568573 0.65300006 7180168
-0.14987907 0.061568573 0.65300006 6982789
-0.14863525 0.061568573 0.65300006 7311502
-0.14739144 0.061568573 0.65300006 7640467
-0.14637144 0.06166286 0.65400004 7836560
-0.14512572 0.06166286 0.65400004 8231318
-0.14410001 0.061757144 0.65500003 8887447
-0.1428524 0.061757144 0.65500003 9150619
-0.14138858 0.06166286 0.65400004 9020073
-0.14014286 0.06166286 0.65400004 9020073
-0.13889715 0.06166286 0.65400004 8626844
-0.13765144 0.06166286 0.65400004 8232086
-0.13640572 0.06166286 0.65400004 8430226
-0.13495335 0.061568573 0.65300006 8364433
-0.13370954 0.061568573 0.65300006 10198937
-0.12921999 0.060060002 0.63700002 11777969
-0.12800667 0.060060002 0.63700002 15523722
-0.12679334 0.060060002 0.63700002 16777133
-0.12558001 0.060060002 0.63700002 16711411
-0.12436667 0.060060002 0.63700002 16711411
-0.12315334 0.060060002 0.63700002 16580590
-0.12174857 0.059965719 0.63600004 16580590
-0.12053715 0.059965719 0.63600004 16580590
-0.11932572 0.059965719 0.63600004 16580590
-0.11811429 0.059965719 0.63600004 16580336
-0.11708666 0.060060002 0.63700002 16646129
-0.11569143 0.059965719 0.63600004 16646133
-0.11448001 0.059965719 0.63600004 16580340
-0.11326858 0.059965719 0.63600004 16580340
-0.11223333 0.060060002 0.63700002 16646133
-0.11102001 0.060060002 0.63700002 16645879
-0.10980667 0.060060002 0.63700002 16645879
-0.10859334 0.060060002 0.63700002 16645881
-0.10738 0.060060002 0.63700002 16711674
-0.10633333 0.060154289 0.63800001 16711420
-0.1051181 0.060154289 0.63800001 16711420
-0.10390285 0.060154289 0.63800001 16711420
-0.10268762 0.060154289 0.63800001 16382455
-0.10147239 0.060154289 0.63800001 15131560
-0.10025714 0.060154289 0.63800001 11118187
-0.09935239 0.060342859 0.64000005 13023153
-0.10074 0.061945714 0.65700001 16773868
-0.09918572 0.061757144 0.65500003 15526115
-0.097938098 0.061757144 0.65500003 13881290
-0.096690476 0.061757144 0.65500003 12240571
-0.095442861 0.061757144 0.65500003 11253676
-0.094195247 0.061757144 0.65500003 10795435
-0.092947617 0.061757144 0.65500003 10269091
-0.091700003 0.061757144 0.65500003 10138284
-0.090452388 0.061757144 0.65500003 9940905
-0.089204758 0.061757144 0.65500003 10204318
-0.087957144 0.061757144 0.65500003 10862248
-0.086577147 0.06166286 0.65400004 11058864
-0.085331433 0.06166286 0.65400004 11453622
-0.084085725 0.06166286 0.65400004 11649713
-0.082840003 0.06166286 0.65400004 11715506
-0.081594288 0.06166286 0.65400004 11320759
-0.080348574 0.06166286 0.65400004 10926001
-0.079102859 0.06166286 0.65400004 11847094
-0.077857152 0.06166286 0.65400004 11781301
-0.076611437 0.06166286 0.65400004 12504502
-0.075480953 0.061757144 0.65500003 12965053
-0.074233338 0.061757144 0.65500003 13161151
-0.072985716 0.061757144 0.65500003 13687495
-0.071738102 0.061757144 0.65500003 13686993
-0.070490479 0.061757144 0.65500003 15989748
-0.069242857 0.061757144 0.65500003 16711422
-0.067891434 0.06166286 0.65400004 16711422
-0.066645719 0.06166286 0.65400004 11319253
-0.065200001 0.06147429 0.65200001 8753326
-0.063761905 0.061285719 0.65000004 10201272
-0.062523812 0.061285719 0.65000004 15727871
-0.16831714 0.063197143 0.65700001 16646124
-0.16706572 0.063197143 0.65700001 16711650
-0.16530953 0.063004769 0.65500003 11316880
-0.16381145 0.062908575 0.65400004 8490098
-0.16256572 0.062908575 0.65400004 7371617
-0.16132002 0.062908575 0.65400004 6390416
-0.16007431 0.062908575 0.65400004 6522002
-0.15858573 0.06281238 0.65300006 6587790
-0.15734191 0.06281238 0.65300006 6653583
-0.15609811 0.06281238 0.65300006 6915981
-0.1548543 0.06281238 0.65300006 6981774
-0.15337524 0.062716186 0.65200001 6653842
-0.15213333 0.062716186 0.65200001 6982807
-0.15089144 0.062716186 0.65200001 7377804
-0.14964953 0.062716186 0.65200001 6851460
-0.14795238 0.062523812 0.65000004 6456972
-0.14671429 0.062523812 0.65000004 6917523
-0.14592381 0.062716186 0.65200001 7114123
-0.14490382 0.06281238 0.65300006 7969432
-0.14366001 0.06281238 0.65300006 8494488
-0.14241621 0.06281238 0.65300006 8691867
-0.14138858 0.062908575 0.65400004 8823203
-0.14014286 0.062908575 0.65400004 8823203
-0.13889715 0.062908575 0.65400004 8626338
-0.13744096 0.06281238 0.65300006 8428959
-0.13619716 0.06281238 0.65300006 8299160
-0.13433333 0.062523812 0.65000004 8167574
-0.13309525 0.062523812 0.65000004 9937051
-0.12921999 0.061273336 0.63700002 10660774
-0.12800667 0.061273336 0.63700002 14008943
-0.12659429 0.061177142 0.63600004 16775333
-0.12538287 0.061177142 0.63600004 16646118
-0.12397619 0.061080955 0.63500005 16646118
-0.12276668 0.061080955 0.63500005 16711661
-0.12155715 0.061080955 0.63500005 16646124
-0.12034763 0.061080955 0.63500005 16580590
-0.1191381 0.061080955 0.63500005 16580590
-0.11792858 0.061080955 0.63500005 16580590
-0.11690287 0.061177142 0.63600004 16580590
-0.11569143 0.061177142 0.63600004 16580336
-0.11448001 0.061177142 0.63600004 16646129
-0.11326858 0.061177142 0.63600004 16580340
-0.11205714 0.061177142 0.63600004 16646133
-0.11084572 0.061177142 0.63600004 16646133
-0.10980667 0.061273336 0.63700002 16646133
-0.10859334 0.061273336 0.63700002 16645879
-0.10738 0.061273336 0.63700002 16711672
-0.10616667 0.061273336 0.63700002 16711672
-0.10495333 0.061273336 0.63700002 16711672
-0.10374 0.061273336 0.63700002 16711674
-0.10268762 0.061369527 0.63800001 15527400
-0.10131334 0.061273336 0.63700002 13158027
-0.1001 0.061273336 0.63700002 11184237
-0.099041909 0.061369527 0.63800001 12695700
-0.10043333 0.063004769 0.65500003 16577487
-0.099034294 0.062908575 0.65400004 15460842
-0.09778858 0.062908575 0.65400004 13750224
-0.096542865 0.062908575 0.65400004 12240317
-0.095297143 0.062908575 0.65400004 11253422
-0.094051436 0.062908575 0.65400004 10729901
-0.092805721 0.062908575 0.65400004 10269350
-0.091560006 0.062908575 0.65400004 10204077
-0.090314291 0.062908575 0.65400004 9940905
-0.089068577 0.062908575 0.65400004 9546397
-0.087822862 0.062908575 0.65400004 9875362
-0.086577147 0.062908575 0.65400004 10597802
-0.085200958 0.06281238 0.65300006 11058353
-0.083957151 0.06281238 0.65300006 11058866
-0.082713336 0.06281238 0.65300006 11190452
-0.081469528 0.06281238 0.65300006 11518129
-0.080225721 0.06281238 0.65300006 11518129
-0.078981914 0.06281238 0.65300006 12044473
-0.077857152 0.062908575 0.65400004 11912887
-0.076611437 0.062908575 0.65400004 12504504
-0.075365715 0.062908575 0.65400004 12636090
-0.07412 0.062908575 0.65400004 12701624
-0.072874293 0.062908575 0.65400004 12767417
-0.071628578 0.062908575 0.65400004 13423800
-0.070382863 0.062908575 0.65400004 16121313
-0.069137141 0.062908575 0.65400004 16711422
-0.067787625 0.06281238 0.65300006 16711422
-0.066543818 0.06281238 0.65300006 12964058
-0.064999998 0.062523812 0.65000004 9148064
-0.063761905 0.062523812 0.65000004 10331007
-0.062427621 0.062427621 0.64900005 16318170
-0.061191436 0.062427621 0.64900005 16646131
-0.16831714 0.064448565 0.65700001 16711661
-0.16706572 0.064448565 0.65700001 16645852
-0.16505715 0.06415429 0.65400004 10066552
-0.16356096 0.064056195 0.65300006 6649992
-0.16231716 0.064056195 0.65300006 6847371
-0.16107334 0.064056195 0.65300006 6587538
-0.15982954 0.064056195 0.65300006 7245468
-0.15834287 0.063958094 0.65200001 7048330
-0.15710096 0.063958094 0.65200001 6061435
-0.15585905 0.063958094 0.65200001 6850188
-0.15461715 0.063958094 0.65200001 6915981
-0.15337524 0.063958094 0.65200001 6719372
-0.15166669 0.063761905 0.65000004 6982544
-0.15042858 0.063761905 0.65000004 7048834
-0.14919049 0.063761905 0.65000004 7114627
-0.14795238 0.063761905 0.65000004 7114641
-0.14671429 0.063761905 0.65000004 7312020
-0.14547621 0.063761905 0.65000004 7311252
-0.1442381 0.063761905 0.65000004 7903389
-0.14343999 0.063958094 0.65200001 8363152
-0.14219809 0.063958094 0.65200001 8494738
-0.14117239 0.064056195 0.65300006 8494740
-0.13992859 0.064056195 0.65300006 8297361
-0.13847238 0.063958094 0.65200001 8494752
-0.13723047 0.063958094 0.65200001 8428959
-0.13557144 0.063761905 0.65000004 8232602
-0.13412668 0.063663818 0.64900005 7969430
-0.13289048 0.063663818 0.64900005 9345945
-0.12921999 0.062486667 0.63700002 9148566
-0.12780572 0.062388573 0.63600004 12431197
-0.12659429 0.062388573 0.63600004 14536573
-0.12518571 0.062290482 0.63500005 16445059
-0.12397619 0.062290482 0.63500005 16777108
-0.12257333 0.06219238 0.634 16711652
-0.12136571 0.06219238 0.634 16711652
-0.12015809 0.06219238 0.634 16711663
-0.11895048 0.06219238 0.634 16711663
-0.11774285 0.06219238 0.634 16711663
-0.11690287 0.062388573 0.63600004 16711663
-0.11569143 0.062388573 0.63600004 16711665
-0.11448001 0.062388573 0.63600004 16711665
-0.11326858 0.062388573 0.63600004 16646133
-0.11205714 0.062388573 0.63600004 16711670
-0.11084572 0.062388573 0.63600004 16711672
-0.10963429 0.062388573 0.63600004 16711672
-0.10842287 0.062388573 0.63600004 16711672
-0.10721143 0.062388573 0.63600004 16645879
-0.10616667 0.062486667 0.63700002 16711126
-0.10495333 0.062486667 0.63700002 15132094
-0.10374 0.062486667 0.63700002 13419936
-0.10268762 0.062584765 0.63800001 11775111
-0.10131334 0.062486667 0.63700002 10787948
-0.1001 0.062486667 0.63700002 9866846
-0.099041909 0.062584765 0.63800001 11906438
-0.09813334 0.062780954 0.64000005 16775634
-0.099034294 0.06415429 0.65400004 15395555
-0.09778858 0.06415429 0.65400004 12961214
-0.096542865 0.06415429 0.65400004 11517625
-0.095151439 0.064056195 0.65300006 10662316
-0.093907632 0.064056195 0.65300006 10335402
-0.09266381 0.064056195 0.65300006 10335402
-0.091420002 0.064056195 0.65300006 10335402
-0.090038098 0.063958094 0.65200001 10072230
-0.088796191 0.063958094 0.65200001 9743787
-0.087688573 0.064056195 0.65300006 9546408
-0.086312376 0.063958094 0.65200001 10401193
-0.085070483 0.063958094 0.65200001 10598572
-0.083828576 0.063958094 0.65200001 10532779
-0.082586668 0.063958094 0.65200001 10532779
-0.081344761 0.063958094 0.65200001 11190191
-0.080102861 0.063958094 0.65200001 11255984
-0.078981914 0.064056195 0.65300006 11847344
-0.077738099 0.064056195 0.65300006 11913137
-0.076494291 0.064056195 0.65300006 12307123
-0.075250484 0.064056195 0.65300006 12241330
-0.074006677 0.064056195 0.65300006 12438457
-0.072762862 0.064056195 0.65300006 12570043
-0.071519054 0.064056195 0.65300006 13226930
-0.070275247 0.064056195 0.65300006 15332306
-0.06903144 0.064056195 0.65300006 16711422
-0.067787625 0.064056195 0.65300006 16711422
-0.066543818 0.064056195 0.65300006 14146013
-0.064999998 0.063761905 0.65000004 12698567
-0.063761905 0.063761905 0.65000004 13028510
-0.062427621 0.063663818 0.64900005 16252367
-0.061191436 0.063663818 0.64900005 16711411
-0.16706572 0.065700002 0.65700001 15988686
-0.16455238 0.065200001 0.65200001 8685663
-0.16331047 0.065200001 0.65200001 6322045
-0.16157143 0.064999998 0.65000004 6782596
-0.16033334 0.064999998 0.65000004 6521743
-0.15909524 0.064999998 0.65000004 6982294
-0.15785715 0.064999998 0.65000004 7048078
-0.15661906 0.064999998 0.65000004 6390148
-0.15538096 0.064999998 0.65000004 6850188
-0.15390572 0.064900003 0.64900005 6718602
-0.15266953 0.064900003 0.64900005 6521997
-0.15143333 0.064900003 0.64900005 6719376
-0.15019716 0.064900003 0.64900005 6522508
-0.14896096 0.064900003 0.64900005 6654094
-0.14772476 0.064900003 0.64900005 7180438
-0.14648859 0.064900003 0.64900005 7114645
-0.14525239 0.064900003 0.64900005 6983055
-0.1442381 0.064999998 0.65000004 7246227
-0.14300001 0.064999998 0.65000004 7641237
-0.14219809 0.065200001 0.65200001 8101788
-0.14095619 0.065200001 0.65200001 8298136
-0.13971429 0.065200001 0.65200001 8298136
-0.13847238 0.065200001 0.65200001 8822953
-0.13723047 0.065200001 0.65200001 8559781
-0.13557144 0.064999998 0.65000004 8166804
-0.13392 0.064800002 0.648 8232597
-0.13268572 0.064800002 0.648 9807007
-0.12921999 0.063699998 0.63700002 9214870
-0.12780572 0.063600004 0.63600004 10919511
-0.12659429 0.063600004 0.63600004 12959094
-0.12518571 0.063500002 0.63500005 14469503
-0.12378095 0.0634 0.634 16772772
-0.12257333 0.0634 0.634 16578252
-0.12136571 0.0634 0.634 16776402
-0.11977905 0.063199997 0.63200003 16711663
-0.11857525 0.063199997 0.63200003 16711663
-0.11737143 0.063199997 0.63200003 16711665
-0.11653524 0.0634 0.634 16711665
-0.11550953 0.063500002 0.63500005 16711663
-0.11430001 0.063500002 0.63500005 16711663
-0.11309049 0.063500002 0.63500005 16646131
-0.11188096 0.063500002 0.63500005 16646131
-0.11067144 0.063500002 0.63500005 16646131
-0.10946192 0.063500002 0.63500005 16711668
-0.10842287 0.063600004 0.63600004 16711674
-0.10721143 0.063600004 0.63600004 16711674
-0.106 0.063600004 0.63600004 15592396
-0.10478858 0.063600004 0.63600004 14013364
-0.10357714 0.063600004 0.63600004 11974012
-0.10252667 0.063699998 0.63700002 10789738
-0.10131334 0.063699998 0.63700002 10854243
-0.1001 0.063699998 0.63700002 10064727
-0.098886669 0.063699998 0.63700002 11116145
-0.09813334 0.064000003 0.64000005 15787448
-0.098882869 0.065300003 0.65300006 14607329
-0.097639054 0.065300003 0.65300006 12436160
-0.096395247 0.065300003 0.65300006 10140083
-0.094714291 0.064999998 0.65000004 9876911
-0.093476199 0.064999998 0.65000004 10334898
-0.092238098 0.064999998 0.65000004 10071726
-0.091000006 0.064999998 0.65000004 9349036
-0.089761913 0.064999998 0.65000004 9612208
-0.088523813 0.064999998 0.65000004 10006696
-0.087285712 0.064999998 0.65000004 9743524
-0.086047627 0.064999998 0.65000004 9875630
-0.084809527 0.064999998 0.65000004 9941423
-0.083571434 0.064999998 0.65000004 9875882
-0.082333334 0.064999998 0.65000004 10204847
-0.081095241 0.064999998 0.65000004 11059127
-0.079857148 0.064999998 0.65000004 10993334
-0.078619048 0.064999998 0.65000004 11386543
-0.077380955 0.064999998 0.65000004 12044473
-0.076142862 0.064999998 0.65000004 12437948
-0.074904762 0.064999998 0.65000004 12437948
-0.073666669 0.064999998 0.65000004 12241598
-0.072651431 0.065200001 0.65200001 12241598
-0.071409523 0.065200001 0.65200001 13227196
-0.070167623 0.065200001 0.65200001 14937814
-0.068925716 0.065200001 0.65200001 16711422
-0.067683809 0.065200001 0.65200001 16711422
-0.066441901 0.065200001 0.65200001 14671839
-0.064999998 0.064999998 0.65000004 13290186
-0.063663818 0.064900003 0.64900005 13815716
-0.062427621 0.064900003 0.64900005 16776658
-0.061191436 0.064900003 0.64900005 16711665
-0.16354285 0.066034287 0.648 7435592
-0.16230856 0.066034287 0.648 6191751
-0.1610743 0.066034287 0.648 6652302
-0.15984 0.066034287 0.648 6521743
-0.15860571 0.066034287 0.648 6587536
-0.15737143 0.066034287 0.648 6522499
-0.15613714 0.066034287 0.648 6127741
-0.15490285 0.066034287 0.648 6588040
-0.15366857 0.066034287 0.648 6390661
-0.15243429 0.066034287 0.648 6456463
-0.1512 0.066034287 0.648 6785428
-0.14996572 0.066034287 0.648 6719642
-0.14873143 0.066034287 0.648 6456470
-0.14749713 0.066034287 0.648 6456470
-0.14626285 0.066034287 0.648 6522263
-0.14502856 0.066034287 0.648 6917257
-0.14379428 0.066034287 0.648 6983050
-0.14256001 0.066034287 0.648 7180438
-0.14154382 0.066136196 0.64900005 8298919
-0.14030764 0.066136196 0.64900005 8560279
-0.13907143 0.066136196 0.64900005 8428693
-0.13783523 0.066136196 0.64900005 8493738
-0.13659906 0.066136196 0.64900005 8362152
-0.13536286 0.066136196 0.64900005 8428945
-0.13392 0.066034287 0.648 8494738
-0.13268572 0.066034287 0.648 9214872
-0.12921999 0.06491334 0.63700002 8754321
-0.12780572 0.064811431 0.63600004 10130037
-0.12639524 0.064709529 0.63500005 11051139
-0.12498858 0.064607613 0.634 12429941
-0.12378095 0.064607613 0.634 13087871
-0.12218667 0.06440381 0.63200003 13481834
-0.12098286 0.06440381 0.63200003 14863487
-0.11977905 0.06440381 0.63200003 15062687
-0.11857525 0.06440381 0.63200003 16312754
-0.11737143 0.06440381 0.63200003 15985091
-0.11616762 0.06440381 0.63200003 15985091
-0.11532762 0.064607613 0.634 16381123
-0.11412 0.064607613 0.634 16446916
-0.11291238 0.064607613 0.634 16183753
-0.11170476 0.064607613 0.634 15328444
-0.11049715 0.064607613 0.634 14276017
-0.10946192 0.064709529 0.63500005 14210224
-0.10825239 0.064709529 0.63500005 12564144
-0.10704286 0.064709529 0.63500005 12103593
-0.10583334 0.064709529 0.63500005 12169315
-0.10478858 0.064811431 0.63600004 12169315
-0.10357714 0.064811431 0.63600004 11774325
-0.10236572 0.064811431 0.63600004 11116395
-0.10115429 0.064811431 0.63600004 10590837
-0.1001 0.06491334 0.63700002 10130286
-0.098886669 0.06491334 0.63700002 10656880
-0.099513337 0.066136196 0.64900005 13420186
-0.098428577 0.066238098 0.65000004 12370867
-0.097190477 0.066238098 0.65000004 10791835
-0.095952384 0.066238098 0.65000004 9415331
-0.094568573 0.066136196 0.64900005 8888987
-0.093332388 0.066136196 0.64900005 8888492
-0.092096195 0.066136196 0.64900005 8822699
-0.090860009 0.066136196 0.64900005 8823217
-0.089623809 0.066136196 0.64900005 8625838
-0.088523813 0.066238098 0.65000004 8626326
-0.087285712 0.066238098 0.65000004 9021084
-0.086047627 0.066238098 0.65000004 9086891
-0.084809527 0.066238098 0.65000004 9152684
-0.083571434 0.066238098 0.65000004 9152682
-0.082333334 0.066238098 0.65000004 9152682
-0.081095241 0.066238098 0.65000004 9809839
-0.079734296 0.066136196 0.64900005 10073011
-0.078498095 0.066136196 0.64900005 10926242
-0.07726191 0.066136196 0.64900005 11518379
-0.076025717 0.066136196 0.64900005 11648441
-0.074789532 0.066136196 0.64900005 11451062
-0.073553339 0.066136196 0.64900005 11124409
-0.072428577 0.066238098 0.65000004 10992823
-0.071190484 0.066238098 0.65000004 11845561
-0.069952384 0.066238098 0.65000004 13753558
-0.068714283 0.066238098 0.65000004 16711665
-0.067476198 0.066238098 0.65000004 16777202
-0.066238098 0.066238098 0.65000004 14473427
-0.064900003 0.066136196 0.64900005 12960188
-0.063663818 0.066136196 0.64900005 13684140
-0.062331427 0.066034287 0.648 16777183
-0.061097141 0.066034287 0.648 16711661
-0.16426858 0.067060955 0.64600003 14805173
-0.16303809 0.067060955 0.64600003 7107392
-0.16180763 0.067060955 0.64600003 6389126
-0.16057715 0.067060955 0.64600003 6718091
-0.15934667 0.067060955 0.64600003 6784397
-0.15836096 0.067164764 0.64700001 6718604
-0.15712857 0.067164764 0.64700001 6455952
-0.1558962 0.067164764 0.64700001 6324366
-0.15466382 0.067164764 0.64700001 7244694
-0.15343143 0.067164764 0.64700001 6718350
-0.15219904 0.067164764 0.64700001 6522256
-0.15096666 0.067164764 0.64700001 6719635
-0.14950287 0.067060955 0.64600003 6916762
-0.14827238 0.067060955 0.64600003 6522004
-0.14704192 0.067060955 0.64600003 6127757
-0.14581144 0.067060955 0.64600003 6785687
-0.14458096 0.067060955 0.64600003 6982537
-0.14335048 0.067060955 0.64600003 7179916
-0.14212 0.067060955 0.64600003 7048591
-0.14110763 0.067164764 0.64700001 7969693
-0.13987523 0.067164764 0.64700001 8231066
-0.13885714 0.067268573 0.648 8428445
-0.13762285 0.067268573 0.648 8427682
-0.13638857 0.067268573 0.648 8361889
-0.13515429 0.067268573 0.648 8362643
-0.13371333 0.067164764 0.64700001 8362643
-0.13248095 0.067164764 0.64700001 9017493
-0.12942286 0.066230476 0.63800001 8688528
-0.12780572 0.066022858 0.63600004 9801821
-0.12639524 0.065919049 0.63500005 10722923
