# .PCD v0.7 - Point Cloud Data file format
VERSION 0.7
FIELDS x y z rgba
SIZE 4 4 4 4
TYPE F F F U
COUNT 1 1 1 1
WIDTH 1099
HEIGHT 1
VIEWPOINT 0 0 0 1 0 0 0
POINTS 1099
DATA ascii
-0.079281911 0.021487622 0.77800006 12494952
-0.077600002 0.021432383 0.77600002 16705704
-0.076121904 0.021432383 0.77600002 16645587
-0.074643806 0.021432383 0.77600002 16777174
-0.17856954 0.022969525 0.77800006 16776127
-0.17708763 0.022969525 0.77800006 16577718
-0.17560573 0.022969525 0.77800006 12630138
-0.17367619 0.022910476 0.77600002 11443566
-0.1717543 0.02285143 0.77400005 10851429
-0.17028001 0.02285143 0.77400005 10983517
-0.16924191 0.022910476 0.77600002 11049310
-0.16776381 0.022910476 0.77600002 11048803
-0.16628572 0.022910476 0.77600002 10654045
-0.16480762 0.022910476 0.77600002 11113833
-0.16332953 0.022910476 0.77600002 11640177
-0.16185142 0.022910476 0.77600002 11114846
-0.16037333 0.022910476 0.77600002 10720088
-0.15889525 0.022910476 0.77600002 10916963
-0.15741715 0.022910476 0.77600002 10851170
-0.15593906 0.022910476 0.77600002 11378007
-0.15446095 0.022910476 0.77600002 11509593
-0.15298286 0.022910476 0.77600002 11378007
-0.15150476 0.022910476 0.77600002 11378007
-0.15002666 0.022910476 0.77600002 11575388
-0.14854857 0.022910476 0.77600002 11772767
-0.14707048 0.022910476 0.77600002 11706983
-0.14559239 0.022910476 0.77600002 11970155
-0.14411429 0.022910476 0.77600002 12035183
-0.14263619 0.022910476 0.77600002 11837804
-0.1411581 0.022910476 0.77600002 12298082
-0.13968 0.022910476 0.77600002 12166496
-0.13784572 0.02285143 0.77400005 12559991
-0.13637143 0.02285143 0.77400005 14007437
-0.13524573 0.022910476 0.77600002 15983746
-0.13376762 0.022910476 0.77600002 16774033
-0.13194858 0.02285143 0.77400005 16579013
-0.13047428 0.02285143 0.77400005 16777165
-0.12933333 0.022910476 0.77600002 16711663
-0.12785524 0.022910476 0.77600002 16711663
-0.12637714 0.022910476 0.77600002 16711665
-0.12489904 0.022910476 0.77600002 16711665
-0.12373906 0.022969525 0.77800006 16579566
-0.12225715 0.022969525 0.77800006 16250601
-0.12077525 0.022969525 0.77800006 15854268
-0.11929334 0.022969525 0.77800006 13156755
-0.11781144 0.022969525 0.77800006 13351558
-0.11632954 0.022969525 0.77800006 13417351
-0.11514286 0.023028571 0.78000003 13481595
-0.11365715 0.023028571 0.78000003 13613181
-0.11217143 0.023028571 0.78000003 13351031
-0.11068571 0.023028571 0.78000003 12693101
-0.1092 0.023028571 0.78000003 12627574
-0.10771429 0.023028571 0.78000003 12232816
-0.10622857 0.023028571 0.78000003 12101230
-0.10474286 0.023028571 0.78000003 11574886
-0.10325715 0.023028571 0.78000003 11640186
-0.10177143 0.023028571 0.78000003 11442807
-0.10028572 0.023028571 0.78000003 11639893
-0.098800004 0.023028571 0.78000003 11310928
-0.097314283 0.023028571 0.78000003 11310678
-0.09582857 0.023028571 0.78000003 10784334
-0.094342858 0.023028571 0.78000003 10522198
-0.092619054 0.022969525 0.77800006 10587991
-0.091137148 0.022969525 0.77800006 10389572
-0.089655243 0.022969525 0.77800006 10586951
-0.088173337 0.022969525 0.77800006 10716763
-0.086691439 0.022969525 0.77800006 10585177
-0.085209534 0.022969525 0.77800006 10519629
-0.083727628 0.022969525 0.77800006 10059078
-0.082245722 0.022969525 0.77800006 10652728
-0.080763817 0.022969525 0.77800006 10126384
-0.079281911 0.022969525 0.77800006 11442251
-0.077600002 0.022910476 0.77600002 16772512
-0.076121904 0.022910476 0.77600002 16646089
-0.074643806 0.022910476 0.77600002 16777163
-0.17856954 0.024451429 0.77800006 16776131
-0.17663239 0.024388572 0.77600002 16512950
-0.17515428 0.024388572 0.77600002 12302198
-0.17322858 0.024325715 0.77400005 11705702
-0.1717543 0.024325715 0.77400005 11179358
-0.17028001 0.024325715 0.77400005 10917724
-0.16880573 0.024325715 0.77400005 10851931
-0.16733144 0.024325715 0.77400005 10851692
-0.16585715 0.024325715 0.77400005 10785899
-0.16480762 0.024388572 0.77600002 10983028
-0.16332953 0.024388572 0.77600002 10917235
-0.16185142 0.024388572 0.77600002 10850416
-0.16037333 0.024388572 0.77600002 10916209
-0.15889525 0.024388572 0.77600002 10982004
-0.15741715 0.024388572 0.77600002 11047797
-0.15593906 0.024388572 0.77600002 11179892
-0.15446095 0.024388572 0.77600002 11311478
-0.15298286 0.024388572 0.77600002 11509361
-0.15150476 0.024388572 0.77600002 11509361
-0.15002666 0.024388572 0.77600002 11640945
-0.14854857 0.024388572 0.77600002 11575152
-0.14707048 0.024388572 0.77600002 11508861
-0.14559239 0.024388572 0.77600002 11706240
-0.14411429 0.024388572 0.77600002 12166778
-0.14263619 0.024388572 0.77600002 11772020
-0.1411581 0.024388572 0.77600002 12035685
-0.13968 0.024388572 0.77600002 12693615
-0.13784572 0.024325715 0.77400005 13875822
-0.13637143 0.024325715 0.77400005 15389061
-0.13489716 0.024325715 0.77400005 16446955
-0.13342287 0.024325715 0.77400005 16776948
-0.13194858 0.024325715 0.77400005 16711674
-0.13047428 0.024325715 0.77400005 16711674
-0.12933333 0.024388572 0.77600002 16711420
-0.12785524 0.024388572 0.77600002 16711420
-0.12637714 0.024388572 0.77600002 16711420
-0.12489904 0.024388572 0.77600002 16711420
-0.12373906 0.024451429 0.77800006 16711422
-0.12225715 0.024451429 0.77800006 16711422
-0.12077525 0.024451429 0.77800006 16711422
-0.11929334 0.024451429 0.77800006 15790320
-0.11781144 0.024451429 0.77800006 12695737
-0.11632954 0.024451429 0.77800006 11708842
-0.11514286 0.024514288 0.78000003 12953966
-0.11365715 0.024514288 0.78000003 12690794
-0.11217143 0.024514288 0.78000003 12164998
-0.11068571 0.024514288 0.78000003 12033412
-0.1092 0.024514288 0.78000003 11769462
-0.10771429 0.024514288 0.78000003 11572083
-0.10622857 0.024514288 0.78000003 11178356
-0.10474286 0.024514288 0.78000003 11046770
-0.10325715 0.024514288 0.78000003 10914424
-0.10177143 0.024514288 0.78000003 10782838
-0.10028572 0.024514288 0.78000003 10190671
-0.098800004 0.024514288 0.78000003 10190671
-0.097314283 0.024514288 0.78000003 10124367
-0.09582857 0.024514288 0.78000003 9992781
-0.094342858 0.024514288 0.78000003 9860945
-0.092857152 0.024514288 0.78000003 9860945
-0.091137148 0.024451429 0.77800006 9728584
-0.089655243 0.024451429 0.77800006 9728584
-0.088173337 0.024451429 0.77800006 9793355
-0.086691439 0.024451429 0.77800006 9859148
-0.085209534 0.024451429 0.77800006 9597269
-0.083727628 0.024451429 0.77800006 9597269
-0.082245722 0.024451429 0.77800006 9532491
-0.080763817 0.024451429 0.77800006 8742975
-0.079078101 0.024388572 0.77600002 10518571
-0.077400006 0.024325715 0.77400005 16769934
-0.075827621 0.024294289 0.77300006 16579776
-0.074355245 0.024294289 0.77300006 16777157
-0.17811048 0.025866667 0.77600002 16775370
-0.17663239 0.025866667 0.77600002 16579247
-0.17515428 0.025866667 0.77600002 12039530
-0.17322858 0.025800001 0.77400005 9730400
-0.1717543 0.025800001 0.77400005 9467228
-0.17028001 0.025800001 0.77400005 9271577
-0.16880573 0.025800001 0.77400005 9337370
-0.16733144 0.025800001 0.77400005 9270341
-0.16585715 0.025800001 0.77400005 9270341
-0.16480762 0.025866667 0.77600002 9598284
-0.16332953 0.025866667 0.77600002 9729870
-0.16185142 0.025866667 0.77600002 9267544
-0.16037333 0.025866667 0.77600002 9267544
-0.15889525 0.025866667 0.77600002 9464409
-0.15741715 0.025866667 0.77600002 9464409
-0.15593906 0.025866667 0.77600002 9529938
-0.15446095 0.025866667 0.77600002 9529938
-0.15298286 0.025866667 0.77600002 9728580
-0.15150476 0.025866667 0.77600002 9860166
-0.15002666 0.025866667 0.77600002 9728051
-0.14854857 0.025866667 0.77600002 9662258
-0.14707048 0.025866667 0.77600002 9661273
-0.14559239 0.025866667 0.77600002 9266515
-0.14411429 0.025866667 0.77600002 9069369
-0.14263619 0.025866667 0.77600002 9858885
-0.1411581 0.025866667 0.77600002 12627054
-0.13968 0.025866667 0.77600002 16775868
-0.13820191 0.025866667 0.77600002 16645861
-0.1367238 0.025866667 0.77600002 16777192
-0.13489716 0.025800001 0.77400005 16711422
-0.13342287 0.025800001 0.77400005 16711422
-0.13194858 0.025800001 0.77400005 16711422
-0.13047428 0.025800001 0.77400005 16711422
-0.12933333 0.025866667 0.77600002 16711422
-0.12785524 0.025866667 0.77600002 16711422
-0.12637714 0.025866667 0.77600002 16711422
-0.12489904 0.025866667 0.77600002 16711422
-0.12373906 0.025933335 0.77800006 16711422
-0.12225715 0.025933335 0.77800006 16711422
-0.12077525 0.025933335 0.77800006 16711422
-0.11929334 0.025933335 0.77800006 16711422
-0.11781144 0.025933335 0.77800006 15920886
-0.11632954 0.025933335 0.77800006 9736344
-0.11514286 0.026000001 0.78000003 10650418
-0.11365715 0.026000001 0.78000003 7031808
-0.11217143 0.026000001 0.78000003 8538703
-0.11068571 0.026000001 0.78000003 8472910
-0.1092 0.026000001 0.78000003 8472360
-0.10771429 0.026000001 0.78000003 8340774
-0.10622857 0.026000001 0.78000003 8077110
-0.10474286 0.026000001 0.78000003 7813938
-0.10325715 0.026000001 0.78000003 8077102
-0.10177143 0.026000001 0.78000003 8274481
-0.10028572 0.026000001 0.78000003 8209940
-0.098800004 0.026000001 0.78000003 8341526
-0.097314283 0.026000001 0.78000003 8342055
-0.09582857 0.026000001 0.78000003 8407848
-0.09410096 0.025933335 0.77800006 8145423
-0.092619054 0.025933335 0.77800006 7750665
-0.091137148 0.025933335 0.77800006 8209186
-0.089655243 0.025933335 0.77800006 7748635
-0.088173337 0.025933335 0.77800006 7944469
-0.086691439 0.025933335 0.77800006 8010262
-0.085209534 0.025933335 0.77800006 8010031
-0.083727628 0.025933335 0.77800006 7878445
-0.08203429 0.025866667 0.77600002 7878946
-0.080556192 0.025866667 0.77600002 7089430
-0.07887429 0.025800001 0.77400005 8345639
-0.077300005 0.025766669 0.77300006 14727560
-0.075631432 0.025700001 0.77100003 16446593
-0.074162856 0.025700001 0.77100003 16777105
-0.17811048 0.027344763 0.77600002 16644822
-0.17663239 0.027344763 0.77600002 16645317
-0.17515428 0.027344763 0.77600002 10592361
-0.17322858 0.027274288 0.77400005 9598745
-0.1717543 0.027274288 0.77400005 8611850
-0.17028001 0.027274288 0.77400005 9070616
-0.16880573 0.027274288 0.77400005 9399581
-0.16733144 0.027274288 0.77400005 9399365
-0.16585715 0.027274288 0.77400005 9136193
-0.16438286 0.027274288 0.77400005 9200435
-0.16290858 0.027274288 0.77400005 8674091
-0.16143429 0.027274288 0.77400005 9067034
-0.16037333 0.027344763 0.77600002 8540690
-0.15889525 0.027344763 0.77600002 8998438
-0.15741715 0.027344763 0.77600002 8669473
-0.15593906 0.027344763 0.77600002 8602651
-0.15446095 0.027344763 0.77600002 8668444
-0.15298286 0.027344763 0.77600002 8800771
-0.15150476 0.027344763 0.77600002 8669185
-0.15002666 0.027344763 0.77600002 8602883
-0.14854857 0.027344763 0.77600002 8866055
-0.14707048 0.027344763 0.77600002 8603412
-0.14559239 0.027344763 0.77600002 8274447
-0.14411429 0.027344763 0.77600002 8339712
-0.14263619 0.027344763 0.77600002 12221487
-0.1411581 0.027344763 0.77600002 13875831
-0.13572 0.026569525 0.75400001 16776634
-0.13428381 0.026569525 0.75400001 16711672
-0.13284762 0.026569525 0.75400001 16711672
-0.13158572 0.026604762 0.75500005 16711422
-0.13014764 0.026604762 0.75500005 16711422
-0.12870952 0.026604762 0.75500005 16711422
-0.13114858 0.027415238 0.77800006 16711422
-0.12583335 0.026604762 0.75500005 16711422
-0.12439524 0.026604762 0.75500005 16711422
-0.12279429 0.026569525 0.75400001 16711422
-0.1213581 0.026569525 0.75400001 16711422
-0.1199219 0.026569525 0.75400001 16711422
-0.11848572 0.026569525 0.75400001 16711422
-0.11704952 0.026569525 0.75400001 16711422
-0.11561333 0.026569525 0.75400001 16711422
-0.11811429 0.027485715 0.78000003 16711422
-0.11662858 0.027485715 0.78000003 14079702
-0.11514286 0.027485715 0.78000003 10977910
-0.11365715 0.027485715 0.78000003 6964537
-0.11217143 0.027485715 0.78000003 9058867
-0.11068571 0.027485715 0.78000003 9651004
-0.1092 0.027485715 0.78000003 9193505
-0.10771429 0.027485715 0.78000003 9127712
-0.10622857 0.027485715 0.78000003 8600098
-0.10474286 0.027485715 0.78000003 8797477
-0.10325715 0.027485715 0.78000003 8732711
-0.10177143 0.027485715 0.78000003 8732711
-0.10028572 0.027485715 0.78000003 8732688
-0.098800004 0.027485715 0.78000003 8798481
-0.097314283 0.027485715 0.78000003 8339218
-0.09582857 0.027485715 0.78000003 8602390
-0.09410096 0.027415238 0.77800006 8602908
-0.092619054 0.027415238 0.77800006 8668701
-0.091137148 0.027415238 0.77800006 8997925
-0.089655243 0.027415238 0.77800006 8208409
-0.088173337 0.027415238 0.77800006 8600064
-0.086691439 0.027415238 0.77800006 8797443
-0.085209534 0.027415238 0.77800006 8795426
-0.083727628 0.027415238 0.77800006 8466461
-0.08203429 0.027344763 0.77600002 8598528
-0.080556192 0.027344763 0.77600002 10638107
-0.07887429 0.027274288 0.77400005 9656664
-0.077300005 0.027239049 0.77300006 12814728
-0.075631432 0.027168572 0.77100003 15259734
-0.074162856 0.027168572 0.77100003 16777090
-0.17811048 0.028822856 0.77600002 16776418
-0.17663239 0.028822856 0.77600002 16644813
-0.17515428 0.028822856 0.77600002 9078618
-0.17322858 0.028748574 0.77400005 8937231
-0.1717543 0.028748574 0.77400005 7555584
-0.17006001 0.028711431 0.77300006 7884566
-0.16858763 0.028711431 0.77300006 7292429
-0.16711524 0.028711431 0.77300006 8080941
-0.16564287 0.028711431 0.77300006 8015148
-0.16438286 0.028748574 0.77400005 8211482
-0.16290858 0.028748574 0.77400005 7685138
-0.16143429 0.028748574 0.77400005 8276480
-0.15996 0.028748574 0.77400005 8473856
-0.15889525 0.028822856 0.77600002 8342300
-0.15741715 0.028822856 0.77600002 8013335
-0.15593906 0.028822856 0.77600002 8275242
-0.15446095 0.028822856 0.77600002 7946277
-0.15298286 0.028822856 0.77600002 8274465
-0.1511143 0.028748574 0.77400005 8406051
-0.14964001 0.028748574 0.77400005 8800581
-0.14816572 0.028748574 0.77400005 8537409
-0.14669144 0.028748574 0.77400005 8340008
-0.14521715 0.028748574 0.77400005 9392696
-0.14411429 0.028822856 0.77600002 10387306
-0.14263619 0.028822856 0.77600002 16775138
-0.1371562 0.028005714 0.75400001 16646131
-0.13572 0.028005714 0.75400001 16711668
-0.13428381 0.028005714 0.75400001 16711420
-0.13284762 0.028005714 0.75400001 16711420
-0.13158572 0.028042858 0.75500005 16711422
-0.13014764 0.028042858 0.75500005 16711422
-0.12870952 0.028042858 0.75500005 16711422
-0.12727144 0.028042858 0.75500005 16711422
-0.12566666 0.028005714 0.75400001 16711422
-0.12423047 0.028005714 0.75400001 16711422
-0.12246858 0.027931429 0.75200003 16711422
-0.12103619 0.027931429 0.75200003 16711422
-0.11960381 0.027931429 0.75200003 16711422
-0.11817143 0.027931429 0.75200003 16711422
-0.11673905 0.027931429 0.75200003 16711422
-0.11530667 0.027931429 0.75200003 16711422
-0.11387429 0.027931429 0.75200003 16711422
-0.1167781 0.029008573 0.78100002 16711422
-0.11529048 0.029008573 0.78100002 16578278
-0.11365715 0.02897143 0.78000003 6972500
-0.11217143 0.02897143 0.78000003 7817020
-0.11068571 0.02897143 0.78000003 9264466
-0.10892 0.028897146 0.77800006 8804666
-0.1074381 0.028897146 0.77800006 8804666
-0.1059562 0.028897146 0.77800006 8474437
-0.10447429 0.028897146 0.77800006 9000781
-0.10299239 0.028897146 0.77800006 8804139
-0.10151048 0.028897146 0.77800006 8672553
-0.10002857 0.028897146 0.77800006 8474938
-0.098546669 0.028897146 0.77800006 8540731
-0.097064771 0.028897146 0.77800006 8279104
-0.095582865 0.028897146 0.77800006 8410690
-0.093859047 0.028822856 0.77600002 7818310
-0.092380948 0.028822856 0.77600002 7752517
-0.090902865 0.028822856 0.77600002 7885367
-0.089424767 0.028822856 0.77600002 8016953
-0.087946668 0.028822856 0.77600002 7885349
-0.08646857 0.028822856 0.77600002 7951142
-0.084990479 0.028822856 0.77600002 8016179
-0.083512381 0.028822856 0.77600002 7489835
-0.08203429 0.028822856 0.77600002 9196058
-0.080348574 0.028748574 0.77400005 16301702
-0.07887429 0.028748574 0.77400005 13744522
-0.077300005 0.028711431 0.77300006 8152117
-0.075827621 0.028711431 0.77300006 11379265
-0.074355245 0.028711431 0.77300006 16775833
-0.17811048 0.030300954 0.77600002 16710879
-0.17617714 0.030222857 0.77400005 16579013
-0.17470287 0.030222857 0.77400005 8552267
-0.17322858 0.030222857 0.77400005 9397504
-0.17153239 0.030183813 0.77300006 8936960
-0.17006001 0.030183813 0.77300006 9132327
-0.16858763 0.030183813 0.77300006 9263913
-0.16711524 0.030183813 0.77300006 9462083
-0.16564287 0.030183813 0.77300006 9001532
-0.16417049 0.030183813 0.77300006 9067059
-0.1626981 0.030183813 0.77300006 9067059
-0.16122574 0.030183813 0.77300006 9067304
-0.15996 0.030222857 0.77400005 9198890
-0.15848571 0.030222857 0.77400005 9067847
-0.15701143 0.030222857 0.77400005 9331019
-0.15553716 0.030222857 0.77400005 9266008
-0.15406287 0.030222857 0.77400005 9068629
-0.15258859 0.030222857 0.77400005 9330511
-0.1511143 0.030222857 0.77400005 9396304
-0.14964001 0.030222857 0.77400005 9658193
-0.1479743 0.030183813 0.77300006 9197642
-0.14650191 0.030183813 0.77300006 8934694
-0.14521715 0.030222857 0.77400005 11632207
-0.14374286 0.030222857 0.77400005 12890514
-0.13859238 0.029441904 0.75400001 16776413
-0.1371562 0.029441904 0.75400001 16711674
-0.13572 0.029441904 0.75400001 16711674
-0.13428381 0.029441904 0.75400001 16711422
-0.13284762 0.029441904 0.75400001 16711422
-0.13158572 0.029480955 0.75500005 16711422
-0.12997523 0.029441904 0.75400001 16711422
-0.12853906 0.029441904 0.75400001 16711422
-0.12710287 0.029441904 0.75400001 16711422
-0.12566666 0.029441904 0.75400001 16711422
-0.12423047 0.029441904 0.75400001 16711422
-0.12246858 0.029363809 0.75200003 16711422
-0.12103619 0.029363809 0.75200003 16711422
-0.11960381 0.029363809 0.75200003 16711422
-0.11817143 0.029363809 0.75200003 16711422
-0.11642858 0.029285716 0.75000006 16711422
-0.11500001 0.029285716 0.75000006 16711422
-0.11357144 0.029285716 0.75000006 16711422
-0.1167781 0.030496189 0.78100002 16711422
-0.11529048 0.030496189 0.78100002 16711422
-0.11365715 0.030457145 0.78000003 8026746
-0.11217143 0.030457145 0.78000003 6177318
-0.11040191 0.030379049 0.77800006 7690557
-0.10892 0.030379049 0.77800006 7887166
-0.1074381 0.030379049 0.77800006 7887166
-0.10568381 0.030300954 0.77600002 7426615
-0.10420571 0.030300954 0.77600002 7887166
-0.10272762 0.030300954 0.77600002 8017738
-0.10124952 0.030300954 0.77600002 7886152
-0.099771433 0.030300954 0.77600002 7623484
-0.098293334 0.030300954 0.77600002 7689277
-0.096815243 0.030300954 0.77600002 7427652
-0.095091432 0.030222857 0.77400005 7559238
-0.093617149 0.030222857 0.77400005 7231561
-0.092142865 0.030222857 0.77400005 7231561
-0.090668574 0.030222857 0.77400005 7101256
-0.08919429 0.030222857 0.77400005 7430221
-0.087719999 0.030222857 0.77400005 7168591
-0.086245723 0.030222857 0.77400005 6971212
-0.084771432 0.030222857 0.77400005 7036742
-0.083297148 0.030222857 0.77400005 6049847
-0.081822865 0.030222857 0.77400005 8148789
-0.080348574 0.030222857 0.77400005 15583398
-0.07887429 0.030222857 0.77400005 13352406
-0.077300005 0.030183813 0.77300006 6444141
-0.075827621 0.030183813 0.77300006 8153856
-0.074355245 0.030183813 0.77300006 16049000
-0.17594953 0.031656191 0.77300006 16513410
-0.17447716 0.031656191 0.77300006 7302400
-0.17300478 0.031656191 0.77300006 7562562
-0.17153239 0.031656191 0.77300006 8286285
-0.16962001 0.031574287 0.77100003 7694170
-0.16815144 0.031574287 0.77100003 7628377
-0.16668287 0.031574287 0.77100003 7694683
-0.16521429 0.031574287 0.77100003 7694683
-0.16417049 0.031656191 0.77300006 7759963
-0.1626981 0.031656191 0.77300006 8088928
-0.16122574 0.031656191 0.77300006 7956828
-0.15975334 0.031656191 0.77300006 7891035
-0.15828095 0.031656191 0.77300006 7759461
-0.15680858 0.031656191 0.77300006 7891047
-0.1553362 0.031656191 0.77300006 7496552
-0.15386382 0.031656191 0.77300006 7496552
-0.15239145 0.031656191 0.77300006 7627102
-0.15091905 0.031656191 0.77300006 7429723
-0.14944667 0.031656191 0.77300006 7495507
-0.1479743 0.031656191 0.77300006 7495507
-0.14650191 0.031656191 0.77300006 8479820
-0.14521715 0.031697143 0.77400005 14993327
-0.13965714 0.030796193 0.75200003 15328474
-0.13822477 0.030796193 0.75200003 16776948
-0.13679238 0.030796193 0.75200003 16711422
-0.13536 0.030796193 0.75200003 16711422
-0.13392763 0.030796193 0.75200003 16711422
-0.13249524 0.030796193 0.75200003 16711422
-0.13141142 0.030878095 0.75400001 16580088
-0.12997523 0.030878095 0.75400001 16711674
-0.1281981 0.030796193 0.75200003 16711422
-0.12676571 0.030796193 0.75200003 16711422
-0.12533334 0.030796193 0.75200003 16711422
-0.12390096 0.030796193 0.75200003 16711422
-0.12246858 0.030796193 0.75200003 16711422
-0.12103619 0.030796193 0.75200003 16711422
-0.11960381 0.030796193 0.75200003 16711422
-0.11817143 0.030796193 0.75200003 16711422
-0.11642858 0.030714288 0.75000006 16711422
-0.11500001 0.030714288 0.75000006 16711422
-0.11357144 0.030714288 0.75000006 16711422
-0.1124419 0.030796193 0.75200003 16711422
-0.11100953 0.030796193 0.75200003 16711422
-0.11365715 0.031942859 0.78000003 8421504
-0.11217143 0.031942859 0.78000003 5397363
-0.10983429 0.031697143 0.77400005 6384258
-0.10836001 0.031697143 0.77400005 6579039
-0.10688572 0.031697143 0.77400005 6644832
-0.10541143 0.031697143 0.77400005 6117466
-0.10393715 0.031697143 0.77400005 6183259
-0.10246287 0.031697143 0.77400005 6380638
-0.10098858 0.031697143 0.77400005 6446431
-0.099385723 0.031656191 0.77300006 6183761
-0.09791334 0.031656191 0.77300006 6117968
-0.096440956 0.031656191 0.77300006 6249554
-0.09496858 0.031656191 0.77300006 6315347
-0.093496196 0.031656191 0.77300006 6053451
-0.092023812 0.031656191 0.77300006 5921865
-0.090551436 0.031656191 0.77300006 5856851
-0.089079052 0.031656191 0.77300006 6646367
-0.087606676 0.031656191 0.77300006 6515558
-0.086245723 0.031697143 0.77400005 6383972
-0.084771432 0.031697143 0.77400005 6253928
-0.083297148 0.031697143 0.77400005 6780272
-0.081822865 0.031697143 0.77400005 10980740
-0.080348574 0.031697143 0.77400005 16775150
-0.07887429 0.031697143 0.77400005 14932181
-0.077400006 0.031697143 0.77400005 3221027
-0.075827621 0.031656191 0.77300006 5127729
-0.074355245 0.031656191 0.77300006 12233373
-0.17594953 0.033128574 0.77300006 13882772
-0.17357428 0.032957144 0.76900005 6974507
-0.17210953 0.032957144 0.76900005 5664862
-0.17064478 0.032957144 0.76900005 6322792
-0.16918001 0.032957144 0.76900005 6059636
-0.16771525 0.032957144 0.76900005 6520187
-0.1662505 0.032957144 0.76900005 6718602
-0.16521429 0.033042856 0.77100003 5929086
-0.16374572 0.033042856 0.77100003 6255732
-0.16227715 0.033042856 0.77100003 6518904
-0.16080856 0.033042856 0.77100003 6650240
-0.15934001 0.033042856 0.77100003 6452861
-0.15787143 0.033042856 0.77100003 6124661
-0.15640286 0.033042856 0.77100003 6256247
-0.15493429 0.033042856 0.77100003 6322040
-0.15386382 0.033128574 0.77300006 5993075
-0.15239145 0.033128574 0.77300006 5861226
-0.15091905 0.033128574 0.77300006 5927019
-0.14944667 0.033128574 0.77300006 5927012
-0.1479743 0.033128574 0.77300006 5400668
-0.14650191 0.033128574 0.77300006 7302228
-0.14108953 0.03222857 0.75200003 15197388
-0.13965714 0.03222857 0.75200003 16251114
-0.13822477 0.03222857 0.75200003 16777202
-0.13679238 0.03222857 0.75200003 16711422
-0.13536 0.03222857 0.75200003 16711422
-0.13392763 0.03222857 0.75200003 16711422
-0.13249524 0.03222857 0.75200003 16711422
-0.13141142 0.032314286 0.75400001 16711422
-0.12963048 0.03222857 0.75200003 16711422
-0.1281981 0.03222857 0.75200003 16711422
-0.12676571 0.03222857 0.75200003 16711422
-0.12533334 0.03222857 0.75200003 16711422
-0.12390096 0.03222857 0.75200003 16711422
-0.12214287 0.032142859 0.75000006 16711422
-0.12071429 0.032142859 0.75000006 16711422
-0.11928572 0.032142859 0.75000006 16711422
-0.11785715 0.032142859 0.75000006 16711422
-0.11642858 0.032142859 0.75000006 16711422
-0.11484667 0.032100003 0.74900001 16711422
-0.11342 0.032100003 0.74900001 16711422
-0.11199334 0.032100003 0.74900001 16711422
-0.11056667 0.032100003 0.74900001 16646138
-0.10914 0.032100003 0.74900001 8750978
-0.11130857 0.03317143 0.77400005 8162686
-0.10969239 0.033128574 0.77300006 7570549
-0.10822001 0.033128574 0.77300006 7636090
-0.10674763 0.033128574 0.77300006 7438711
-0.10527524 0.033128574 0.77300006 6913653
-0.10380287 0.033128574 0.77300006 6847860
-0.10233048 0.033128574 0.77300006 6782330
-0.1008581 0.033128574 0.77300006 6387572
-0.099385723 0.033128574 0.77300006 5993575
-0.09791334 0.033128574 0.77300006 6256747
-0.096191436 0.033042856 0.77100003 6650231
-0.09472286 0.033042856 0.77100003 6650231
-0.093254283 0.033042856 0.77100003 6387561
-0.091785714 0.033042856 0.77100003 6453354
-0.090082861 0.032957144 0.76900005 6388344
-0.0886181 0.032957144 0.76900005 6651516
-0.087379999 0.033042856 0.77100003 6717566
-0.08591143 0.033042856 0.77100003 6585980
-0.084442854 0.033042856 0.77100003 5996664
-0.083189532 0.033128574 0.77300006 5601906
-0.081717148 0.033128574 0.77300006 10526099
-0.080348574 0.03317143 0.77400005 16776948
-0.078772388 0.033128574 0.77300006 14014440
-0.077300005 0.033128574 0.77300006 2632251
-0.075827621 0.033128574 0.77300006 2303488
-0.074355245 0.033128574 0.77300006 7172163
-0.17458381 0.03433238 0.76700002 13553832
-0.17312287 0.03433238 0.76700002 8224599
-0.17166191 0.03433238 0.76700002 6849938
-0.17020094 0.03433238 0.76700002 7244696
-0.16874 0.03433238 0.76700002 7376025
-0.16727905 0.03433238 0.76700002 7836576
-0.1658181 0.03433238 0.76700002 7902367
-0.16435714 0.03433238 0.76700002 8033953
-0.16332096 0.034421906 0.76900005 8296096
-0.16185619 0.034421906 0.76900005 8493475
-0.16039144 0.034421906 0.76900005 8361898
-0.15892668 0.034421906 0.76900005 8230312
-0.15746191 0.034421906 0.76900005 8625313
-0.15599716 0.034421906 0.76900005 9151657
-0.1545324 0.034421906 0.76900005 9150628
-0.15306762 0.034421906 0.76900005 9019042
-0.15199713 0.034511428 0.77100003 9019560
-0.15052858 0.034511428 0.77100003 9677490
-0.14906 0.034511428 0.77100003 9545125
-0.14759144 0.034511428 0.77100003 8887195
-0.14612286 0.034511428 0.77100003 10724248
-0.14108953 0.033660952 0.75200003 15132379
-0.13965714 0.033660952 0.75200003 16512987
-0.13822477 0.033660952 0.75200003 16777188
-0.13679238 0.033660952 0.75200003 16711422
-0.13500002 0.033571433 0.75000006 16711422
-0.13357145 0.033571433 0.75000006 16711422
-0.13214287 0.033571433 0.75000006 16711422
-0.13106287 0.033660952 0.75200003 16711422
-0.12963048 0.033660952 0.75200003 16711422
-0.12785715 0.033571433 0.75000006 16711422
-0.12642859 0.033571433 0.75000006 16711422
-0.12500001 0.033571433 0.75000006 16711422
-0.12357144 0.033571433 0.75000006 16711422
-0.12214287 0.033571433 0.75000006 16711422
-0.12071429 0.033571433 0.75000006 16711422
-0.11912666 0.033526666 0.74900001 16711422
-0.1177 0.033526666 0.74900001 16711422
-0.11627334 0.033526666 0.74900001 16711422
-0.11454 0.033437144 0.74700004 16711422
-0.11311714 0.033437144 0.74700004 16711422
-0.11169429 0.033437144 0.74700004 16711422
-0.11027143 0.033437144 0.74700004 16449470
-0.10884858 0.033437144 0.74700004 12633732
-0.11116477 0.034600955 0.77300006 11058884
-0.10969239 0.034600955 0.77300006 10993091
-0.10822001 0.034600955 0.77300006 10532788
-0.10647143 0.034511428 0.77100003 10203823
-0.10500287 0.034511428 0.77100003 10400432
-0.10353429 0.034511428 0.77100003 10663604
-0.10180096 0.034421906 0.76900005 10663343
-0.10033619 0.034421906 0.76900005 10531757
-0.09887144 0.034421906 0.76900005 10335150
-0.09740667 0.034421906 0.76900005 10400943
-0.095941909 0.034421906 0.76900005 10269368
-0.094477147 0.034421906 0.76900005 10006196
-0.093012393 0.034421906 0.76900005 9611686
-0.091547623 0.034421906 0.76900005 9677479
-0.090082861 0.034421906 0.76900005 9940151
-0.0886181 0.034421906 0.76900005 10005944
-0.087153338 0.034421906 0.76900005 10203314
-0.085688576 0.034421906 0.76900005 10466486
-0.084223814 0.034421906 0.76900005 10466747
-0.082759053 0.034421906 0.76900005 10203575
-0.081505716 0.034511428 0.77100003 12697270
-0.080244765 0.034600955 0.77300006 16776950
-0.07856857 0.034511428 0.77100003 14671078
-0.077100001 0.034511428 0.77100003 2499373
-0.075631432 0.034511428 0.77100003 206848
-0.074355245 0.034600955 0.77300006 4022838
-0.17435619 0.035746668 0.76600003 12896917
-0.17289715 0.035746668 0.76600003 8028235
-0.1714381 0.035746668 0.76600003 7114130
-0.16997905 0.035746668 0.76600003 7179923
-0.16852002 0.035746668 0.76600003 7048600
-0.16706096 0.035746668 0.76600003 7377565
-0.16560191 0.035746668 0.76600003 7705247
-0.16414286 0.035746668 0.76600003 7968419
-0.16268381 0.035746668 0.76600003 8297125
-0.16122477 0.035746668 0.76600003 8099746
-0.15976572 0.035746668 0.76600003 8166827
-0.15830666 0.035746668 0.76600003 8101034
-0.15705238 0.035793334 0.76700002 8298404
-0.15559143 0.035793334 0.76700002 8890541
-0.15413047 0.035793334 0.76700002 9152684
-0.15266953 0.035793334 0.76700002 9086891
-0.15120856 0.035793334 0.76700002 8298406
-0.1501381 0.035886671 0.76900005 8824750
-0.14867334 0.035886671 0.76900005 8824748
-0.14682572 0.035793334 0.76700002 8429990
-0.14536478 0.035793334 0.76700002 11184549
-0.14108953 0.035093337 0.75200003 14868957
-0.13928573 0.035000004 0.75000006 16316370
-0.13785715 0.035000004 0.75000006 16777181
-0.13642858 0.035000004 0.75000006 16711674
-0.13500002 0.035000004 0.75000006 16711674
-0.13357145 0.035000004 0.75000006 16711420
-0.13214287 0.035000004 0.75000006 16711420
-0.13106287 0.035093337 0.75200003 16711422
-0.12928572 0.035000004 0.75000006 16711422
-0.12785715 0.035000004 0.75000006 16711422
-0.12642859 0.035000004 0.75000006 16711422
-0.12500001 0.035000004 0.75000006 16711422
-0.12357144 0.035000004 0.75000006 16711422
-0.12198 0.034953333 0.74900001 16711422
-0.12055333 0.034953333 0.74900001 16711422
-0.11912666 0.034953333 0.74900001 16711422
-0.1177 0.034953333 0.74900001 16711422
-0.11596286 0.03486 0.74700004 16711422
-0.11454 0.03486 0.74700004 16711422
-0.11311714 0.03486 0.74700004 16711422
-0.11169429 0.03486 0.74700004 16119285
-0.11027143 0.03486 0.74700004 14476667
-0.10884858 0.03486 0.74700004 13687151
-0.11116477 0.036073335 0.77300006 12636894
-0.10940857 0.035980001 0.77100003 11518413
-0.10794 0.035980001 0.77100003 9944244
-0.10619524 0.035886671 0.76900005 10141623
-0.10473049 0.035886671 0.76900005 9614259
-0.10326572 0.035886671 0.76900005 9943224
-0.10180096 0.035886671 0.76900005 10336435
-0.10007524 0.035793334 0.76700002 10139056
-0.09861429 0.035793334 0.76700002 10007729
-0.097153336 0.035793334 0.76700002 10270901
-0.095692381 0.035793334 0.76700002 10139838
-0.094231427 0.035793334 0.76700002 9876666
-0.09277048 0.035793334 0.76700002 8628386
-0.091309525 0.035793334 0.76700002 9286316
-0.089848571 0.035793334 0.76700002 9810346
-0.088387616 0.035793334 0.76700002 10073518
-0.086926669 0.035793334 0.76700002 10073270
-0.085465722 0.035793334 0.76700002 10139063
-0.08400476 0.035793334 0.76700002 10467506
-0.082543813 0.035793334 0.76700002 10467506
-0.081294291 0.035886671 0.76900005 13290170
-0.080037147 0.035980001 0.77100003 16777200
-0.07856857 0.035980001 0.77100003 14541032
-0.077100001 0.035980001 0.77100003 1579811
-0.075631432 0.035980001 0.77100003 69376
-0.17535619 0.037108574 0.76400006 13882797
-0.17390096 0.037108574 0.76400006 12108151
-0.17244571 0.037108574 0.76400006 7436848
-0.17099048 0.037108574 0.76400006 6522513
-0.16953525 0.037108574 0.76400006 6785685
-0.16808 0.037108574 0.76400006 6917014
-0.16706096 0.037205715 0.76600003 7509151
-0.16560191 0.037205715 0.76600003 7574433
-0.16371429 0.037108574 0.76400006 7574433
-0.16225906 0.037108574 0.76400006 7574433
-0.16122477 0.037205715 0.76600003 7442847
-0.15976572 0.037205715 0.76600003 7641246
-0.15830666 0.037205715 0.76600003 7641246
-0.15684763 0.037205715 0.76600003 7969693
-0.15538858 0.037205715 0.76600003 8759209
-0.15352763 0.037108574 0.76400006 9152418
-0.15207238 0.037108574 0.76400006 9086625
-0.15101144 0.037205715 0.76600003 8890023
-0.14955239 0.037205715 0.76600003 8692644
-0.14712666 0.036962859 0.76100004 8496298
-0.14529429 0.036865719 0.75900006 8298919
-0.14290096 0.036622856 0.75400001 10331811
-0.1407143 0.036428574 0.75000006 11976636
-0.1391 0.03638 0.74900001 16314249
-0.13730572 0.036282856 0.74700004 16777119
-0.13570096 0.036234286 0.74600005 16711672
-0.13428 0.036234286 0.74600005 16711672
-0.13250287 0.036137141 0.74400002 16711674
-0.13108571 0.036137141 0.74400002 16711674
-0.13001715 0.036234286 0.74600005 16711422
-0.1285962 0.036234286 0.74600005 16711422
-0.12717524 0.036234286 0.74600005 16711422
-0.12592286 0.036282856 0.74700004 16711422
-0.12433334 0.036234286 0.74600005 16711422
-0.12291239 0.036234286 0.74600005 16711422
-0.12149144 0.036234286 0.74600005 16711422
-0.12007048 0.036234286 0.74600005 16711422
-0.11864953 0.036234286 0.74600005 16711422
-0.11722858 0.036234286 0.74600005 16711422
-0.11580762 0.036234286 0.74600005 16711422
-0.11438668 0.036234286 0.74600005 16711422
-0.11296572 0.036234286 0.74600005 16646115
-0.11169429 0.036282856 0.74700004 11843226
-0.11027143 0.036282856 0.74700004 13155708
-0.10870286 0.036234286 0.74600005 16777153
-0.10728192 0.036234286 0.74600005 15264739
-0.10798953 0.036962859 0.76100004 12369847
-0.10668 0.037011426 0.76200002 11191733
-0.10522857 0.037011426 0.76200002 10731182
-0.1043219 0.037205715 0.76600003 10336692
-0.10286286 0.037205715 0.76600003 10139313
-0.10140382 0.037205715 0.76600003 9679026
-0.099944763 0.037205715 0.76600003 9481647
-0.098485716 0.037205715 0.76600003 9547442
-0.096773341 0.037108574 0.76400006 10007993
-0.095318101 0.037108574 0.76400006 10204856
-0.093862861 0.037108574 0.76400006 10336442
-0.092407629 0.037108574 0.76400006 10270897
-0.090952389 0.037108574 0.76400006 10205104
-0.089497149 0.037108574 0.76400006 10205340
-0.088041909 0.037108574 0.76400006 10271133
-0.086586677 0.037108574 0.76400006 10467258
-0.085131437 0.037108574 0.76400006 11256774
-0.083676197 0.037108574 0.76400006 11782326
-0.082220957 0.037108574 0.76400006 12177084
-0.080554284 0.037011426 0.76200002 13159093
-0.079102859 0.037011426 0.76200002 16711659
-0.077855244 0.037108574 0.76400006 15461848
-0.076200001 0.037011426 0.76200002 1842697
-0.074748568 0.037011426 0.76200002 339738
-0.17681144 0.038563814 0.76400006 16646104
-0.17489713 0.038462859 0.76200002 12238485
-0.17344572 0.038462859 0.76200002 11514501
-0.1719943 0.038462859 0.76200002 8422230
-0.17054287 0.038462859 0.76200002 7114634
-0.16909143 0.038462859 0.76200002 7180427
-0.16764 0.038462859 0.76200002 6917532
-0.16662477 0.038563814 0.76400006 7180704
-0.16473714 0.038462859 0.76200002 7443095
-0.16328572 0.038462859 0.76200002 7443095
-0.1618343 0.038462859 0.76200002 7377824
-0.16038287 0.038462859 0.76200002 7312031
-0.15893143 0.038462859 0.76200002 7706782
-0.15748 0.038462859 0.76200002 7706782
-0.15602857 0.038462859 0.76200002 7837855
-0.15457714 0.038462859 0.76200002 8495785
-0.1531257 0.038462859 0.76200002 8955305
-0.15147525 0.038412381 0.76100004 9218477
-0.15002573 0.038412381 0.76100004 9087150
-0.14818573 0.038311433 0.75900006 8955564
-0.14674 0.038311433 0.75900006 8101545
-0.14452857 0.038109526 0.75500005 8233131
-0.14252192 0.037958097 0.75200003 10069157
-0.1407143 0.037857145 0.75000006 10990259
-0.13872857 0.037705716 0.74700004 14471048
-0.13712192 0.037655238 0.74600005 16776373
-0.13533714 0.037554283 0.74400002 16711411
-0.13356 0.037453339 0.74200004 16711411
-0.13214667 0.037453339 0.74200004 16711411
-0.13073334 0.037453339 0.74200004 16777204
-0.12932001 0.037453339 0.74200004 16711674
-0.12790667 0.037453339 0.74200004 16711674
-0.12683429 0.037554283 0.74400002 16711420
-0.1257543 0.037655238 0.74600005 16711420
-0.124 0.037554283 0.74400002 16711422
-0.12258286 0.037554283 0.74400002 16711422
-0.12149144 0.037655238 0.74600005 16711422
-0.12007048 0.037655238 0.74600005 16711422
-0.11864953 0.037655238 0.74600005 16711422
-0.11722858 0.037655238 0.74600005 16711422
-0.11580762 0.037655238 0.74600005 16711420
-0.11438668 0.037655238 0.74600005 16711420
-0.11296572 0.037655238 0.74600005 15657687
-0.11169429 0.037705716 0.74700004 11512728
-0.11027143 0.037705716 0.74700004 12824114
-0.10870286 0.037655238 0.74600005 16775549
-0.10728192 0.037655238 0.74600005 16052468
-0.10770573 0.038311433 0.75900006 13157576
-0.10654 0.038412381 0.76100004 12176582
-0.10509048 0.038412381 0.76100004 10926515
-0.10377715 0.038462859 0.76200002 10270647
-0.10232572 0.038462859 0.76200002 9744303
-0.10113905 0.038563814 0.76400006 9481397
-0.099683814 0.038563814 0.76400006 9547190
-0.098228574 0.038563814 0.76400006 9482153
-0.096519999 0.038462859 0.76200002 9745325
-0.095068574 0.038462859 0.76200002 10072498
-0.093617149 0.038462859 0.76200002 10598842
-0.092165716 0.038462859 0.76200002 10533299
-0.090714283 0.038462859 0.76200002 10270127
-0.089262858 0.038462859 0.76200002 10139808
-0.087811433 0.038462859 0.76200002 10337187
-0.08636 0.038462859 0.76200002 10532797
-0.084908567 0.038462859 0.76200002 11519692
-0.08345715 0.038462859 0.76200002 11782589
-0.081898101 0.038412381 0.76100004 11387831
-0.080448568 0.038412381 0.76100004 11912628
-0.07899905 0.038412381 0.76100004 16121844
-0.077549525 0.038412381 0.76100004 16514813
-0.076100007 0.038412381 0.76100004 3224627
-0.074650481 0.038412381 0.76100004 274176
-0.1778 0.039914284 0.76200002 16646113
-0.17634857 0.039914284 0.76200002 16580556
-0.17489713 0.039914284 0.76200002 11975302
-0.17344572 0.039914284 0.76200002 8754330
-0.17176858 0.039861906 0.76100004 7767435
-0.17031905 0.039861906 0.76100004 6918018
-0.16886953 0.039861906 0.76100004 7246983
-0.16764 0.039914284 0.76200002 7311789
-0.16618857 0.039914284 0.76200002 7114410
-0.16452096 0.039861906 0.76100004 7115649
-0.16307144 0.039861906 0.76100004 7313028
-0.1616219 0.039861906 0.76100004 7377822
-0.16017239 0.039861906 0.76100004 7443615
-0.15872286 0.039861906 0.76100004 7640985
-0.15727334 0.039861906 0.76100004 7377813
-0.15582381 0.039861906 0.76100004 7509160
-0.15437429 0.039861906 0.76100004 7969711
-0.15292478 0.039861906 0.76100004 8560808
-0.15107715 0.039757144 0.75900006 9284531
-0.14963144 0.039757144 0.75900006 9284018
-0.14818573 0.039757144 0.75900006 9152432
-0.14635333 0.039652381 0.75700003 8692401
-0.14452857 0.039547618 0.75500005 8560815
-0.14252192 0.039390475 0.75200003 9806507
-0.1407143 0.039285716 0.75000006 10003886
-0.13872857 0.039128575 0.74700004 13419384
-0.13712192 0.039076194 0.74600005 13814142
-0.13533714 0.038971432 0.74400002 16049298
-0.13356 0.038866669 0.74200004 16775334
-0.13196859 0.038814291 0.74100006 16646101
-0.13055715 0.038814291 0.74100006 16777175
-0.12932001 0.038866669 0.74200004 16711670
-0.12790667 0.038866669 0.74200004 16711670
-0.12649333 0.038866669 0.74200004 16711672
-0.12541714 0.038971432 0.74400002 16711672
-0.124 0.038971432 0.74400002 16711674
-0.12258286 0.038971432 0.74400002 16711674
-0.12116572 0.038971432 0.74400002 16711672
-0.11974857 0.038971432 0.74400002 16711672
-0.11833142 0.038971432 0.74400002 16579307
-0.11691429 0.038971432 0.74400002 15000275
-0.11580762 0.039076194 0.74600005 13419705
-0.11438668 0.039076194 0.74600005 13024947
-0.11296572 0.039076194 0.74600005 12564620
-0.11169429 0.039128575 0.74700004 10656623
-0.11027143 0.039128575 0.74700004 11905375
-0.10914 0.039233334 0.74900001 16445092
-0.10886382 0.039652381 0.75700003 15526628
-0.10770573 0.039757144 0.75900006 13223873
-0.10654 0.039861906 0.76100004 12044998
-0.10509048 0.039861906 0.76100004 10992310
-0.10364096 0.039861906 0.76100004 10073784
-0.10219143 0.039861906 0.76100004 9481647
-0.10074191 0.039861906 0.76100004 9547973
-0.099292383 0.039861906 0.76100004 9547973
-0.097842865 0.039861906 0.76100004 9416106
-0.096393339 0.039861906 0.76100004 9876657
-0.094943814 0.039861906 0.76100004 9942198
-0.093494289 0.039861906 0.76100004 10139577
-0.092044763 0.039861906 0.76100004 10074290
-0.090595245 0.039861906 0.76100004 10140083
-0.08914572 0.039861906 0.76100004 10797227
-0.087696187 0.039861906 0.76100004 10994606
-0.086246669 0.039861906 0.76100004 11190211
-0.084797144 0.039861906 0.76100004 11848141
-0.083347626 0.039861906 0.76100004 11912894
-0.081898101 0.039861906 0.76100004 11649722
-0.080448568 0.039861906 0.76100004 12831938
-0.07879144 0.039757144 0.75900006 16383992
-0.077345721 0.039757144 0.75900006 16646142
-0.075900003 0.039757144 0.75900006 4342851
-0.074650481 0.039861906 0.76100004 940157
-0.17756668 0.041311432 0.76100004 16645861
-0.17611715 0.041311432 0.76100004 16711378
-0.17466763 0.041311432 0.76100004 10658422
-0.17276287 0.041202862 0.75900006 7966070
-0.17131715 0.041202862 0.75900006 7768691
-0.16987145 0.041202862 0.75900006 7049352
-0.16842572 0.041202862 0.75900006 7180938
-0.16698001 0.041202862 0.75900006 7115165
-0.1655343 0.041202862 0.75900006 7115165
-0.16408858 0.041202862 0.75900006 7115147
-0.16264287 0.041202862 0.75900006 7115147
-0.16119716 0.041202862 0.75900006 7114650
-0.15975145 0.041202862 0.75900006 7246236
-0.15830572 0.041202862 0.75900006 7837596
-0.15686001 0.041202862 0.75900006 7640217
-0.1554143 0.041202862 0.75900006 7508897
-0.15396857 0.041202862 0.75900006 8035241
-0.15252288 0.041202862 0.75900006 8101025
-0.15107715 0.041202862 0.75900006 8956334
-0.14963144 0.041202862 0.75900006 9021616
-0.14779525 0.041094288 0.75700003 8890030
-0.14635333 0.041094288 0.75700003 8692401
-0.14452857 0.040985718 0.75500005 8692401
-0.14252192 0.04082286 0.75200003 9412778
-0.1407143 0.04071429 0.75000006 9412778
-0.13872857 0.040551431 0.74700004 11972981
-0.13712192 0.040497147 0.74600005 12696704
-0.13533714 0.040388573 0.74400002 14008180
-0.13356 0.040280003 0.74200004 15784591
-0.13196859 0.040225718 0.74100006 16246457
-0.13055715 0.040225718 0.74100006 16776656
-0.12932001 0.040280003 0.74200004 16711672
-0.12790667 0.040280003 0.74200004 16711672
-0.12649333 0.040280003 0.74200004 16711672
-0.12508002 0.040280003 0.74200004 16711672
-0.12366667 0.040280003 0.74200004 16711672
-0.12225334 0.040280003 0.74200004 16711672
-0.12116572 0.040388573 0.74400002 16711674
-0.11974857 0.040388573 0.74400002 16711674
-0.11833142 0.040388573 0.74400002 15723734
-0.11691429 0.040388573 0.74400002 14473667
-0.11580762 0.040497147 0.74600005 13288850
-0.11438668 0.040497147 0.74600005 11972990
-0.11296572 0.040497147 0.74600005 12038024
-0.11169429 0.040551431 0.74700004 10985336
-0.11056667 0.040660001 0.74900001 11183726
-0.10957715 0.04082286 0.75200003 15328685
-0.10886382 0.041094288 0.75700003 14937323
-0.10770573 0.041202862 0.75900006 12700361
-0.10626 0.041202862 0.75900006 11782339
-0.10481429 0.041202862 0.75900006 10861237
-0.10336858 0.041202862 0.75900006 9745845
-0.10192287 0.041202862 0.75900006 9680052
-0.10074191 0.041311432 0.76100004 10139338
-0.099292383 0.041311432 0.76100004 9349822
-0.097842865 0.041311432 0.76100004 8824489
-0.096393339 0.041311432 0.76100004 9679798
-0.094694294 0.041202862 0.75900006 9352114
-0.093248583 0.041202862 0.75900006 9417907
-0.091802858 0.041202862 0.75900006 9614775
-0.090357147 0.041202862 0.75900006 9812154
-0.088911436 0.041202862 0.75900006 10993584
-0.087465718 0.041202862 0.75900006 11125170
-0.086020008 0.041202862 0.75900006 11190209
-0.084574297 0.041202862 0.75900006 11519174
-0.083128572 0.041202862 0.75900006 11715515
-0.081682861 0.041202862 0.75900006 11912894
-0.08023715 0.041202862 0.75900006 13293259
-0.07879144 0.041202862 0.75900006 16252920
-0.077345721 0.041202862 0.75900006 16646142
-0.075900003 0.041202862 0.75900006 9474705
-0.074454293 0.041202862 0.75900006 6720889
-0.073008575 0.041202862 0.75900006 8826265
-0.17710002 0.042648572 0.75900006 16646122
-0.17565429 0.042648572 0.75900006 16053964
-0.1742086 0.042648572 0.75900006 8685148
-0.17230763 0.042536192 0.75700003 7572859
-0.17086573 0.042536192 0.75700003 7046515
-0.16942382 0.042536192 0.75700003 7115147
-0.16798191 0.042536192 0.75700003 7180940
-0.16654 0.042536192 0.75700003 7115154
-0.1650981 0.042536192 0.75700003 7115154
-0.16365619 0.042536192 0.75700003 7180947
-0.16221429 0.042536192 0.75700003 7180947
-0.16034763 0.042423811 0.75500005 6917532
-0.15890953 0.042423811 0.75500005 6917532
-0.15788858 0.042536192 0.75700003 7508890
-0.15644668 0.042536192 0.75700003 7508890
-0.15500477 0.042536192 0.75700003 7640735
-0.15356287 0.042536192 0.75700003 8364458
-0.15212096 0.042536192 0.75700003 8561060
-0.15067905 0.042536192 0.75700003 9416369
-0.14923714 0.042536192 0.75700003 9152682
-0.14779525 0.042536192 0.75700003 8494752
-0.14596668 0.042423811 0.75500005 8495024
-0.14452857 0.042423811 0.75500005 8692403
-0.14252192 0.042255241 0.75200003 9281708
-0.1407143 0.042142861 0.75000006 8755364
-0.13872857 0.041974287 0.74700004 11250284
-0.13675429 0.041805714 0.74400002 12105593
-0.13497335 0.041693337 0.74200004 12824701
-0.13356 0.041693337 0.74200004 13022080
-0.13196859 0.041637145 0.74100006 13547388
-0.13055715 0.041637145 0.74100006 13613181
-0.12932001 0.041693337 0.74200004 13747093
-0.12790667 0.041693337 0.74200004 13812886
-0.12649333 0.041693337 0.74200004 13617299
-0.12508002 0.041693337 0.74200004 13683092
-0.12366667 0.041693337 0.74200004 13486224
-0.12225334 0.041693337 0.74200004 13354638
-0.12084001 0.041693337 0.74200004 13484695
-0.11974857 0.041805714 0.74400002 13353109
-0.11833142 0.041805714 0.74400002 13024376
-0.11691429 0.041805714 0.74400002 12695411
-0.11580762 0.041918099 0.74600005 12498818
-0.11438668 0.041918099 0.74600005 12104060
-0.11296572 0.041918099 0.74600005 11708297
-0.11169429 0.041974287 0.74700004 10655609
-0.11056667 0.042086668 0.74900001 10525576
-0.10986857 0.042367619 0.75400001 12828331
-0.10857619 0.042423811 0.75500005 11779255
-0.10742191 0.042536192 0.75700003 10529188
-0.10598001 0.042536192 0.75700003 9416358
-0.1045381 0.042536192 0.75700003 9350565
-0.10309619 0.042536192 0.75700003 9285285
-0.10165429 0.042536192 0.75700003 9416871
-0.10047715 0.042648572 0.75900006 9415865
-0.099031433 0.042648572 0.75900006 9152693
-0.097585723 0.042648572 0.75900006 9022131
-0.096140005 0.042648572 0.75900006 9680061
-0.094444767 0.042536192 0.75700003 9483432
-0.093002863 0.042536192 0.75700003 9088674
-0.091560952 0.042536192 0.75700003 9285823
-0.090119049 0.042536192 0.75700003 9680581
-0.088677146 0.042536192 0.75700003 10797225
-0.087235235 0.042536192 0.75700003 11323569
-0.085793331 0.042536192 0.75700003 11518913
-0.084351428 0.042536192 0.75700003 11518913
-0.082909524 0.042536192 0.75700003 11453372
-0.081682861 0.042648572 0.75900006 11716544
-0.08023715 0.042648572 0.75900006 12766402
-0.07879144 0.042648572 0.75900006 16318456
-0.077141903 0.042536192 0.75700003 16646140
-0.0757 0.042536192 0.75700003 10395805
-0.074454293 0.042648572 0.75900006 9547192
-0.073008575 0.042648572 0.75900006 11718361
-0.17710002 0.044094287 0.75900006 16646122
-0.17565429 0.044094287 0.75900006 15265222
-0.17374954 0.043978095 0.75700003 8159578
-0.17185238 0.043861907 0.75500005 7049091
-0.1704143 0.043861907 0.75500005 7114884
-0.1689762 0.043861907 0.75500005 7049352
-0.16753811 0.043861907 0.75500005 7115145
-0.16610001 0.043861907 0.75500005 7049109
-0.16444381 0.043803807 0.75400001 7114902
-0.16300762 0.043803807 0.75400001 7246488
-0.16157143 0.043803807 0.75400001 7049109
-0.16013524 0.043803807 0.75400001 6850717
-0.15869905 0.043803807 0.75400001 6982303
-0.15726286 0.043803807 0.75400001 7574170
-0.15582666 0.043803807 0.75400001 7574170
-0.15459524 0.043861907 0.75500005 7837853
-0.15315716 0.043861907 0.75500005 8232611
-0.15212096 0.043978095 0.75700003 8430244
-0.15067905 0.043978095 0.75700003 9285553
-0.14923714 0.043978095 0.75700003 9284268
-0.14779525 0.043978095 0.75700003 8560545
-0.14596668 0.043861907 0.75500005 8428977
-0.14433715 0.043803807 0.75400001 8560563
-0.14214288 0.043571431 0.75000006 9151146
-0.14052667 0.043513332 0.74900001 7835286
-0.13872857 0.043397143 0.74700004 9408312
-0.13675429 0.04322286 0.74400002 11053137
-0.13497335 0.043106668 0.74200004 12430706
-0.13356 0.043106668 0.74200004 12562292
-0.13196859 0.043048576 0.74100006 13481845
-0.13055715 0.043048576 0.74100006 13547638
