# .PCD v0.7 - Point Cloud Data file format
VERSION 0.7
FIELDS x y z rgba
SIZE 4 4 4 4
TYPE F F F U
COUNT 1 1 1 1
WIDTH 1090
HEIGHT 1
VIEWPOINT 0 0 0 1 0 0 0
POINTS 1090
DATA ascii
-0.068274289 0.037782859 0.69600004 16711420
-0.066948578 0.037782859 0.69600004 16711420
-0.065622866 0.037782859 0.69600004 16711420
-0.064389527 0.037837144 0.69700003 16711420
-0.063061908 0.037837144 0.69700003 16711420
-0.061734285 0.037837144 0.69700003 16711420
-0.060406666 0.037837144 0.69700003 16711420
-0.059079047 0.037837144 0.69700003 16711420
-0.057751432 0.037837144 0.69700003 16711420
-0.056423813 0.037837144 0.69700003 16711420
-0.05509619 0.037837144 0.69700003 16711420
-0.053768571 0.037837144 0.69700003 16711420
-0.052440956 0.037837144 0.69700003 16711420
-0.051040001 0.037782859 0.69600004 16711420
-0.04971429 0.037782859 0.69600004 16711420
-0.048388574 0.037782859 0.69600004 15066595
-0.04713048 0.037837144 0.69700003 14673113
-0.045802858 0.037837144 0.69700003 15396836
-0.044475239 0.037837144 0.69700003 16185848
-0.043085717 0.037782859 0.69600004 15725297
-0.041760001 0.037782859 0.69600004 14738141
-0.040434286 0.037782859 0.69600004 15790829
-0.039108574 0.037782859 0.69600004 15987181
-0.037620001 0.037620001 0.69300002 16710904
-0.0363 0.037620001 0.69300002 16711420
-0.034979999 0.037620001 0.69300002 16711420
-0.033660002 0.037620001 0.69300002 16711420
-0.032340001 0.037620001 0.69300002 16711420
-0.031019999 0.037620001 0.69300002 14474210
-0.029700002 0.037620001 0.69300002 8552840
-0.13152096 0.039389525 0.70100003 7299148
-0.13000001 0.039333336 0.70000005 7300945
-0.12866667 0.039333336 0.70000005 16775908
-0.12733334 0.039333336 0.70000005 16711420
-0.126 0.039333336 0.70000005 16711420
-0.12466668 0.039333336 0.70000005 16711420
-0.12333335 0.039333336 0.70000005 16711420
-0.12165143 0.039220951 0.69800001 16711420
-0.12032191 0.039220951 0.69800001 16711420
-0.11933334 0.039333336 0.70000005 16711420
-0.11800001 0.039333336 0.70000005 16711420
-0.11666667 0.039333336 0.70000005 16711420
-0.11533334 0.039333336 0.70000005 16711420
-0.114 0.039333336 0.70000005 16711420
-0.11266667 0.039333336 0.70000005 16711420
-0.11133334 0.039333336 0.70000005 16711420
-0.11000001 0.039333336 0.70000005 16711420
-0.10866667 0.039333336 0.70000005 16711420
-0.10733334 0.039333336 0.70000005 16711420
-0.10569715 0.039220951 0.69800001 16711420
-0.10436761 0.039220951 0.69800001 16711420
-0.10333334 0.039333336 0.70000005 16711420
-0.10200001 0.039333336 0.70000005 16711420
-0.10037905 0.039220951 0.69800001 16711420
-0.099049523 0.039220951 0.69800001 16711420
-0.097720005 0.039220951 0.69800001 16711420
-0.096390471 0.039220951 0.69800001 16711420
-0.095060952 0.039220951 0.69800001 16711420
-0.093731426 0.039220951 0.69800001 16711420
-0.092401907 0.039220951 0.69800001 16711420
-0.091072381 0.039220951 0.69800001 16711420
-0.089742862 0.039220951 0.69800001 16711420
-0.088413335 0.039220951 0.69800001 16711420
-0.087083809 0.039220951 0.69800001 16711420
-0.085754283 0.039220951 0.69800001 16711420
-0.084424764 0.039220951 0.69800001 16711420
-0.082976192 0.039164763 0.69700003 16711420
-0.081648573 0.039164763 0.69700003 16711420
-0.080320954 0.039164763 0.69700003 16711420
-0.078993335 0.039164763 0.69700003 16711420
-0.077665716 0.039164763 0.69700003 16711420
-0.076338097 0.039164763 0.69700003 16711420
-0.075010478 0.039164763 0.69700003 16711420
-0.07368286 0.039164763 0.69700003 16711420
-0.072355241 0.039164763 0.69700003 16711420
-0.07092572 0.039108574 0.69600004 16711420
-0.069600001 0.039108574 0.69600004 16711420
-0.068274289 0.039108574 0.69600004 16711420
-0.066948578 0.039108574 0.69600004 16711420
-0.065717146 0.039164763 0.69700003 16711420
-0.064389527 0.039164763 0.69700003 16711420
-0.063061908 0.039164763 0.69700003 16711420
-0.061734285 0.039164763 0.69700003 16711420
-0.060406666 0.039164763 0.69700003 16711420
-0.059079047 0.039164763 0.69700003 16711420
-0.057751432 0.039164763 0.69700003 16711420
-0.056423813 0.039164763 0.69700003 16711420
-0.05509619 0.039164763 0.69700003 16711420
-0.053768571 0.039164763 0.69700003 16711420
-0.052440956 0.039164763 0.69700003 16711420
-0.051113334 0.039164763 0.69700003 16711420
-0.04971429 0.039108574 0.69600004 16711420
-0.048388574 0.039108574 0.69600004 15395560
-0.04713048 0.039164763 0.69700003 15198435
-0.045802858 0.039164763 0.69700003 15790572
-0.044411432 0.039108574 0.69600004 16711422
-0.043085717 0.039108574 0.69600004 16711422
-0.041760001 0.039108574 0.69600004 16645627
-0.040434286 0.039108574 0.69600004 16711420
-0.03899619 0.03899619 0.69400001 16711420
-0.037674285 0.03899619 0.69400001 16711420
-0.0363 0.038940001 0.69300002 16711420
-0.034979999 0.038940001 0.69300002 16711420
-0.033660002 0.038940001 0.69300002 16711420
-0.032340001 0.038940001 0.69300002 16711420
-0.13152096 0.040724762 0.70100003 7233871
-0.13000001 0.04066667 0.70000005 7366988
-0.12866667 0.04066667 0.70000005 16776415
-0.12733334 0.04066667 0.70000005 16711422
-0.126 0.04066667 0.70000005 16711422
-0.12466668 0.04066667 0.70000005 16711420
-0.12333335 0.04066667 0.70000005 16711420
-0.122 0.04066667 0.70000005 16711420
-0.12066668 0.04066667 0.70000005 16711420
-0.11933334 0.04066667 0.70000005 16711420
-0.11800001 0.04066667 0.70000005 16711420
-0.11666667 0.04066667 0.70000005 16711420
-0.11533334 0.04066667 0.70000005 16711420
-0.11416285 0.040724762 0.70100003 16711420
-0.11266667 0.04066667 0.70000005 16711420
-0.11133334 0.04066667 0.70000005 16711420
-0.11000001 0.04066667 0.70000005 16711420
-0.10866667 0.04066667 0.70000005 16711420
-0.10733334 0.04066667 0.70000005 16711420
-0.10569715 0.040550474 0.69800001 16711420
-0.10436761 0.040550474 0.69800001 16711420
-0.10333334 0.04066667 0.70000005 16711420
-0.10200001 0.04066667 0.70000005 16711420
-0.10037905 0.040550474 0.69800001 16711420
-0.099049523 0.040550474 0.69800001 16711420
-0.097720005 0.040550474 0.69800001 16711420
-0.096390471 0.040550474 0.69800001 16711420
-0.095060952 0.040550474 0.69800001 16711420
-0.093731426 0.040550474 0.69800001 16711420
-0.092401907 0.040550474 0.69800001 16711420
-0.091072381 0.040550474 0.69800001 16711420
-0.089742862 0.040550474 0.69800001 16711420
-0.088413335 0.040550474 0.69800001 16711420
-0.087083809 0.040550474 0.69800001 16711420
-0.085754283 0.040550474 0.69800001 16711420
-0.084424764 0.040550474 0.69800001 16711420
-0.083095238 0.040550474 0.69800001 16711420
-0.081648573 0.040492382 0.69700003 16711420
-0.080320954 0.040492382 0.69700003 16711420
-0.078993335 0.040492382 0.69700003 16711420
-0.077665716 0.040492382 0.69700003 16711420
-0.076338097 0.040492382 0.69700003 16711420
-0.075010478 0.040492382 0.69700003 16711420
-0.07368286 0.040492382 0.69700003 16711420
-0.072355241 0.040492382 0.69700003 16711420
-0.07092572 0.040434286 0.69600004 16711420
-0.069600001 0.040434286 0.69600004 16711420
-0.068274289 0.040434286 0.69600004 16711420
-0.066948578 0.040434286 0.69600004 16711420
-0.065717146 0.040492382 0.69700003 16711420
-0.064389527 0.040492382 0.69700003 16711420
-0.063061908 0.040492382 0.69700003 16711420
-0.061822858 0.040550474 0.69800001 16711420
-0.060493335 0.040550474 0.69800001 16711420
-0.059079047 0.040492382 0.69700003 16711420
-0.057751432 0.040492382 0.69700003 16711420
-0.056423813 0.040492382 0.69700003 16711420
-0.05509619 0.040492382 0.69700003 16711420
-0.053768571 0.040492382 0.69700003 16711420
-0.052440956 0.040492382 0.69700003 16711420
-0.051113334 0.040492382 0.69700003 16711420
-0.04971429 0.040434286 0.69600004 16711420
-0.048388574 0.040434286 0.69600004 16382455
-0.04713048 0.040492382 0.69700003 15921136
-0.045802858 0.040492382 0.69700003 16710652
-0.044411432 0.040434286 0.69600004 16711422
-0.043085717 0.040434286 0.69600004 16711422
-0.041760001 0.040434286 0.69600004 16711422
-0.040434286 0.040434286 0.69600004 16711422
-0.03899619 0.040318094 0.69400001 16711422
-0.037674285 0.040318094 0.69400001 16711422
-0.0363 0.040260002 0.69300002 16711420
-0.034979999 0.040260002 0.69300002 16711420
-0.033660002 0.040260002 0.69300002 16711422
-0.032340001 0.040260002 0.69300002 16711422
-0.13133334 0.042000003 0.70000005 7496277
-0.13000001 0.042000003 0.70000005 9202756
-0.12866667 0.042000003 0.70000005 16775376
-0.12733334 0.042000003 0.70000005 16711420
-0.126 0.042000003 0.70000005 16711420
-0.12466668 0.042000003 0.70000005 16711420
-0.12333335 0.042000003 0.70000005 16711420
-0.122 0.042000003 0.70000005 16711420
-0.12066668 0.042000003 0.70000005 16711420
-0.11933334 0.042000003 0.70000005 16711420
-0.11800001 0.042000003 0.70000005 16711420
-0.11666667 0.042000003 0.70000005 16711420
-0.11533334 0.042000003 0.70000005 16711420
-0.114 0.042000003 0.70000005 16711420
-0.11266667 0.042000003 0.70000005 16711420
-0.11133334 0.042000003 0.70000005 16711420
-0.11000001 0.042000003 0.70000005 16711420
-0.10866667 0.042000003 0.70000005 16711420
-0.10733334 0.042000003 0.70000005 16711420
-0.10569715 0.04188 0.69800001 16711420
-0.10436761 0.04188 0.69800001 16711420
-0.10333334 0.042000003 0.70000005 16711420
-0.10200001 0.042000003 0.70000005 16711420
-0.10066667 0.042000003 0.70000005 16711420
-0.099333346 0.042000003 0.70000005 16711420
-0.097720005 0.04188 0.69800001 16711420
-0.096390471 0.04188 0.69800001 16711420
-0.095060952 0.04188 0.69800001 16711420
-0.093731426 0.04188 0.69800001 16711420
-0.092401907 0.04188 0.69800001 16711420
-0.091072381 0.04188 0.69800001 16711420
-0.089742862 0.04188 0.69800001 16711420
-0.088413335 0.04188 0.69800001 16711420
-0.087083809 0.04188 0.69800001 16711420
-0.085754283 0.04188 0.69800001 16711420
-0.084424764 0.04188 0.69800001 16711420
-0.083095238 0.04188 0.69800001 16711420
-0.081765719 0.04188 0.69800001 16711420
-0.080320954 0.041820001 0.69700003 16711420
-0.078993335 0.041820001 0.69700003 16711420
-0.077665716 0.041820001 0.69700003 16711420
-0.076338097 0.041820001 0.69700003 16711420
-0.074902862 0.041760001 0.69600004 16711420
-0.073577143 0.041760001 0.69600004 16711420
-0.072251432 0.041760001 0.69600004 16711420
-0.07092572 0.041760001 0.69600004 16711420
-0.069700003 0.041820001 0.69700003 16711420
-0.068372384 0.041820001 0.69700003 16711420
-0.067044765 0.041820001 0.69700003 16711420
-0.065717146 0.041820001 0.69700003 16711420
-0.064389527 0.041820001 0.69700003 16711420
-0.063061908 0.041820001 0.69700003 16711420
-0.061822858 0.04188 0.69800001 16711420
-0.060493335 0.04188 0.69800001 16711420
-0.059163809 0.04188 0.69800001 16711420
-0.057751432 0.041820001 0.69700003 16711420
-0.056423813 0.041820001 0.69700003 16711420
-0.05509619 0.041820001 0.69700003 16711420
-0.053768571 0.041820001 0.69700003 16711420
-0.052440956 0.041820001 0.69700003 16711420
-0.051113334 0.041820001 0.69700003 16711420
-0.049785715 0.041820001 0.69700003 16711420
-0.048458096 0.041820001 0.69700003 16711420
-0.04713048 0.041820001 0.69700003 16711422
-0.045802858 0.041820001 0.69700003 16711422
-0.044411432 0.041760001 0.69600004 16711422
-0.043085717 0.041760001 0.69600004 16711422
-0.041760001 0.041760001 0.69600004 16711422
-0.040434286 0.041760001 0.69600004 16711422
-0.039108574 0.041760001 0.69600004 16711420
-0.037674285 0.041639999 0.69400001 16711420
-0.0363 0.041579999 0.69300002 16711420
-0.034979999 0.041579999 0.69300002 16711420
-0.033660002 0.041579999 0.69300002 16711420
-0.032340001 0.041579999 0.69300002 16711420
-0.13133334 0.043333337 0.70000005 8154457
-0.13000001 0.043333337 0.70000005 10577486
-0.12866667 0.043333337 0.70000005 16773079
-0.12733334 0.043333337 0.70000005 16645629
-0.126 0.043333337 0.70000005 16645629
-0.12466668 0.043333337 0.70000005 16645629
-0.12333335 0.043333337 0.70000005 16711422
-0.12165143 0.043209527 0.69800001 16711422
-0.12032191 0.043209527 0.69800001 16711422
-0.11899238 0.043209527 0.69800001 16711422
-0.11800001 0.043333337 0.70000005 16711422
-0.11666667 0.043333337 0.70000005 16711422
-0.11533334 0.043333337 0.70000005 16579836
-0.114 0.043333337 0.70000005 16644600
-0.11266667 0.043333337 0.70000005 16644600
-0.11133334 0.043333337 0.70000005 16644859
-0.11000001 0.043333337 0.70000005 16644859
-0.10866667 0.043333337 0.70000005 16644859
-0.10733334 0.043333337 0.70000005 16513273
-0.10569715 0.043209527 0.69800001 16578039
-0.10436761 0.043209527 0.69800001 16775418
-0.10333334 0.043333337 0.70000005 16645116
-0.10200001 0.043333337 0.70000005 16579323
-0.10066667 0.043333337 0.70000005 16644346
-0.099333346 0.043333337 0.70000005 16446967
-0.097720005 0.043209527 0.69800001 16380138
-0.096390471 0.043209527 0.69800001 16051173
-0.095060952 0.043209527 0.69800001 16051162
-0.093731426 0.043209527 0.69800001 16776684
-0.092401907 0.043209527 0.69800001 16711420
-0.091072381 0.043209527 0.69800001 16711420
-0.089742862 0.043209527 0.69800001 16711420
-0.08866667 0.043333337 0.70000005 16711420
-0.087333336 0.043333337 0.70000005 16711420
-0.086000003 0.043333337 0.70000005 16711420
-0.084424764 0.043209527 0.69800001 16711420
-0.083095238 0.043209527 0.69800001 16711420
-0.081765719 0.043209527 0.69800001 16711420
-0.080320954 0.04314762 0.69700003 16711420
-0.078993335 0.04314762 0.69700003 16711420
-0.077554293 0.043085717 0.69600004 16711420
-0.076228574 0.043085717 0.69600004 16711420
-0.074902862 0.043085717 0.69600004 16711420
-0.073577143 0.043085717 0.69600004 16711420
-0.072251432 0.043085717 0.69600004 15592939
-0.07092572 0.043085717 0.69600004 16050912
-0.069700003 0.04314762 0.69700003 16248291
-0.068372384 0.04314762 0.69700003 16314354
-0.067044765 0.04314762 0.69700003 16577526
-0.065717146 0.04314762 0.69700003 16643832
-0.064389527 0.04314762 0.69700003 16578039
-0.063061908 0.04314762 0.69700003 16446453
-0.061822858 0.043209527 0.69800001 16512246
-0.060493335 0.043209527 0.69800001 16512244
-0.059163809 0.043209527 0.69800001 16380658
-0.057834286 0.043209527 0.69800001 16379890
-0.056504764 0.043209527 0.69800001 16577269
-0.05509619 0.04314762 0.69700003 16643832
-0.053768571 0.04314762 0.69700003 16512246
-0.052440956 0.04314762 0.69700003 16577526
-0.051113334 0.04314762 0.69700003 16314354
-0.04971429 0.043085717 0.69600004 16247019
-0.048388574 0.043085717 0.69600004 16247019
-0.047062859 0.043085717 0.69600004 16376558
-0.045737144 0.043085717 0.69600004 16113386
-0.044411432 0.043085717 0.69600004 16046051
-0.043085717 0.043085717 0.69600004 15980258
-0.041760001 0.043085717 0.69600004 16176867
-0.040434286 0.043085717 0.69600004 16505832
-0.039108574 0.043085717 0.69600004 16311272
-0.037674285 0.042961907 0.69400001 16245479
-0.0363 0.0429 0.69300002 16179940
-0.034979999 0.0429 0.69300002 16772334
-0.13266666 0.044666667 0.70000005 9272938
-0.13133334 0.044666667 0.70000005 8812387
-0.13000001 0.044666667 0.70000005 10378066
-0.12866667 0.044666667 0.70000005 9456964
-0.12733334 0.044666667 0.70000005 11482489
-0.126 0.044666667 0.70000005 12074626
-0.12466668 0.044666667 0.70000005 11220372
-0.12298095 0.044539049 0.69800001 10562442
-0.12165143 0.044539049 0.69800001 10825857
-0.12032191 0.044539049 0.69800001 11154822
-0.11899238 0.044539049 0.69800001 11091078
-0.11766286 0.044539049 0.69800001 11156871
-0.11633334 0.044539049 0.69800001 11019650
-0.11500382 0.044539049 0.69800001 9966962
-0.11367428 0.044539049 0.69800001 10816363
-0.11234476 0.044539049 0.69800001 11079535
-0.11101524 0.044539049 0.69800001 11079035
-0.11000001 0.044666667 0.70000005 11079035
-0.10866667 0.044666667 0.70000005 11144063
-0.10733334 0.044666667 0.70000005 11078270
-0.10600001 0.044666667 0.70000005 11143806
-0.10466667 0.044666667 0.70000005 11275392
-0.10333334 0.044666667 0.70000005 11276160
-0.10200001 0.044666667 0.70000005 11276160
-0.10066667 0.044666667 0.70000005 11144819
-0.099333346 0.044666667 0.70000005 10486889
-0.097720005 0.044539049 0.69800001 9504864
-0.096390471 0.044539049 0.69800001 15031476
-0.095333338 0.044666667 0.70000005 15656378
-0.094000004 0.044666667 0.70000005 16777173
-0.092666671 0.044666667 0.70000005 16711420
-0.091333345 0.044666667 0.70000005 16711420
-0.090000004 0.044666667 0.70000005 16711420
-0.08866667 0.044666667 0.70000005 16711420
-0.087333336 0.044666667 0.70000005 16711420
-0.086000003 0.044666667 0.70000005 16711420
-0.084424764 0.044539049 0.69800001 16711420
-0.083095238 0.044539049 0.69800001 16711420
-0.081765719 0.044539049 0.69800001 16711420
-0.080320954 0.044475239 0.69700003 16711420
-0.078880005 0.044411432 0.69600004 16711420
-0.077554293 0.044411432 0.69600004 16711420
-0.076228574 0.044411432 0.69600004 16711420
-0.074902862 0.044411432 0.69600004 16711420
-0.073577143 0.044411432 0.69600004 16711420
-0.072251432 0.044411432 0.69600004 13619149
-0.07092572 0.044411432 0.69600004 14464147
-0.069700003 0.044475239 0.69700003 6108436
-0.068274289 0.044411432 0.69600004 10881908
-0.066948578 0.044411432 0.69600004 11342459
-0.065622866 0.044411432 0.69600004 12062598
-0.064389527 0.044475239 0.69700003 12128391
-0.063061908 0.044475239 0.69700003 11996794
-0.061822858 0.044539049 0.69800001 12062587
-0.060493335 0.044539049 0.69800001 12258946
-0.059163809 0.044539049 0.69800001 12258946
-0.057834286 0.044539049 0.69800001 12259196
-0.056423813 0.044475239 0.69700003 12390782
-0.05509619 0.044475239 0.69700003 12258694
-0.053768571 0.044475239 0.69700003 12127108
-0.052440956 0.044475239 0.69700003 12061565
-0.051040001 0.044411432 0.69600004 12061565
-0.04971429 0.044411432 0.69600004 12389496
-0.048388574 0.044411432 0.69600004 12389496
-0.047062859 0.044411432 0.69600004 12389487
-0.045605715 0.044283811 0.69400001 12455280
-0.044283811 0.044283811 0.69400001 12520550
-0.042961907 0.044283811 0.69400001 12652136
-0.041639999 0.044283811 0.69400001 12782964
-0.040318094 0.044283811 0.69400001 12848757
-0.039108574 0.044411432 0.69600004 12717176
-0.037674285 0.044283811 0.69400001 12585590
-0.036352381 0.044283811 0.69400001 12193127
-0.035030477 0.044283811 0.69400001 12061541
-0.033708572 0.044283811 0.69400001 11947115
-0.13266666 0.046000004 0.70000005 9273958
-0.13133334 0.046000004 0.70000005 8813407
-0.13000001 0.046000004 0.70000005 11168356
-0.12829906 0.045868572 0.69800001 10378840
-0.12696953 0.045868572 0.69800001 11799163
-0.12563999 0.045868572 0.69800001 12457093
-0.12466668 0.046000004 0.70000005 13045137
-0.12298095 0.045868572 0.69800001 13110930
-0.12165143 0.045868572 0.69800001 12782971
-0.12014953 0.045802858 0.69700003 12914557
-0.11882191 0.045802858 0.69700003 13176191
-0.11766286 0.045868572 0.69800001 13307777
-0.11633334 0.045868572 0.69800001 13372798
-0.11500382 0.045868572 0.69800001 13372798
-0.11367428 0.045868572 0.69800001 13241714
-0.11234476 0.045868572 0.69800001 13373300
-0.11101524 0.045868572 0.69800001 13373052
-0.10968572 0.045868572 0.69800001 13438845
-0.10835619 0.045868572 0.69800001 13438330
-0.10702667 0.045868572 0.69800001 13504123
-0.10569715 0.045868572 0.69800001 13438330
-0.10436761 0.045868572 0.69800001 13504123
-0.10303809 0.045868572 0.69800001 13438330
-0.10170857 0.045868572 0.69800001 13438330
-0.10037905 0.045868572 0.69800001 13110879
-0.099049523 0.045868572 0.69800001 12913500
-0.097720005 0.045868572 0.69800001 11537741
-0.096390471 0.045868572 0.69800001 16742070
-0.095333338 0.046000004 0.70000005 16379868
-0.094000004 0.046000004 0.70000005 16776682
-0.092666671 0.046000004 0.70000005 16711420
-0.091333345 0.046000004 0.70000005 16711420
-0.090000004 0.046000004 0.70000005 16711420
-0.085500002 0.044357143 0.67500001 16711420
-0.084214285 0.044357143 0.67500001 16711420
-0.082928576 0.044357143 0.67500001 16711420
-0.081642851 0.044357143 0.67500001 16711420
-0.083095238 0.045868572 0.69800001 16711420
-0.081765719 0.045868572 0.69800001 16711420
-0.080320954 0.045802858 0.69700003 16711420
-0.078880005 0.045737144 0.69600004 16711420
-0.077554293 0.045737144 0.69600004 16711420
-0.076228574 0.045737144 0.69600004 16711420
-0.074902862 0.045737144 0.69600004 16711420
-0.073577143 0.045737144 0.69600004 16711420
-0.072251432 0.045737144 0.69600004 15263974
-0.07092572 0.045737144 0.69600004 15449546
-0.069700003 0.045802858 0.69700003 7620179
-0.068274289 0.045737144 0.69600004 13897334
-0.066948578 0.045737144 0.69600004 14292092
-0.065622866 0.045737144 0.69600004 14750099
-0.064389527 0.045802858 0.69700003 14750099
-0.063061908 0.045802858 0.69700003 14618243
-0.061734285 0.045802858 0.69700003 14684036
-0.060493335 0.045868572 0.69800001 14683784
-0.059163809 0.045868572 0.69800001 14749577
-0.057834286 0.045868572 0.69800001 14683788
-0.056423813 0.045802858 0.69700003 14749581
-0.05509619 0.045802858 0.69700003 14683786
-0.053768571 0.045802858 0.69700003 14749579
-0.05236572 0.045737144 0.69600004 14684038
-0.051040001 0.045737144 0.69600004 14684038
-0.04971429 0.045737144 0.69600004 14684038
-0.04824952 0.045605715 0.69400001 14684038
-0.04692762 0.045605715 0.69400001 14684036
-0.045605715 0.045605715 0.69400001 14684036
-0.044283811 0.045605715 0.69400001 14749313
-0.042961907 0.045605715 0.69400001 14815106
-0.041639999 0.045605715 0.69400001 14749581
-0.040318094 0.045605715 0.69400001 14815374
-0.03899619 0.045605715 0.69400001 14683786
-0.037674285 0.045605715 0.69400001 14683786
-0.036352381 0.045605715 0.69400001 14683784
-0.035030477 0.045605715 0.69400001 14946956
-0.033708572 0.045605715 0.69400001 12785567
-0.1309581 0.047198098 0.69800001 8878679
-0.12962857 0.047198098 0.69800001 10514540
-0.12829906 0.047198098 0.69800001 12159365
-0.12696953 0.047198098 0.69800001 13072047
-0.12563999 0.047198098 0.69800001 14124735
-0.12431048 0.047198098 0.69800001 14124469
-0.12298095 0.047198098 0.69800001 14453434
-0.12147714 0.04713048 0.69700003 14123701
-0.12014953 0.04713048 0.69700003 14189494
-0.11882191 0.04713048 0.69700003 14188211
-0.11766286 0.047198098 0.69800001 14451383
-0.11633334 0.047198098 0.69800001 14384561
-0.11483905 0.04713048 0.69700003 14713526
-0.11351143 0.04713048 0.69700003 14778036
-0.11218382 0.04713048 0.69700003 14712243
-0.11085619 0.04713048 0.69700003 14711214
-0.10968572 0.047198098 0.69800001 14448042
-0.10835619 0.047198098 0.69800001 14514089
-0.10702667 0.047198098 0.69800001 14579882
-0.10569715 0.047198098 0.69800001 14579369
-0.10436761 0.047198098 0.69800001 14513576
-0.10303809 0.047198098 0.69800001 14644651
-0.10170857 0.047198098 0.69800001 14184100
-0.10037905 0.047198098 0.69800001 14185354
-0.099049523 0.047198098 0.69800001 16751795
-0.097720005 0.047198098 0.69800001 16377842
-0.096390471 0.047198098 0.69800001 16775167
-0.095060952 0.047198098 0.69800001 16711420
-0.093731426 0.047198098 0.69800001 16711420
-0.092401907 0.047198098 0.69800001 16711420
-0.087940954 0.045575239 0.67400002 16711420
-0.086657144 0.045575239 0.67400002 16711420
-0.085500002 0.045642857 0.67500001 16711420
-0.084214285 0.045642857 0.67500001 16711420
-0.082928576 0.045642857 0.67500001 16711420
-0.081642851 0.045642857 0.67500001 16711420
-0.080357142 0.045642857 0.67500001 16711420
-0.079071432 0.045642857 0.67500001 16711420
-0.077785715 0.045642857 0.67500001 16711420
-0.076500006 0.045642857 0.67500001 16711420
-0.077554293 0.047062859 0.69600004 16711420
-0.076228574 0.047062859 0.69600004 16711420
-0.075010478 0.04713048 0.69700003 16711420
-0.073577143 0.047062859 0.69600004 16711420
-0.072251432 0.047062859 0.69600004 16711420
-0.07092572 0.047062859 0.69600004 16645118
-0.069700003 0.04713048 0.69700003 13223882
-0.068274289 0.047062859 0.69600004 14189509
-0.066948578 0.047062859 0.69600004 14781646
-0.065717146 0.04713048 0.69700003 15830728
-0.064389527 0.04713048 0.69700003 15962314
-0.063061908 0.04713048 0.69700003 15764676
-0.061734285 0.04713048 0.69700003 15633090
-0.060406666 0.04713048 0.69700003 15698883
-0.059079047 0.04713048 0.69700003 15830469
-0.057751432 0.04713048 0.69700003 15764676
-0.056423813 0.04713048 0.69700003 15764676
-0.05509619 0.04713048 0.69700003 15698622
-0.053768571 0.04713048 0.69700003 15830208
-0.05236572 0.047062859 0.69600004 15698883
-0.050893333 0.04692762 0.69400001 15830469
-0.049571428 0.04692762 0.69400001 15764926
-0.04824952 0.04692762 0.69400001 15633340
-0.04692762 0.04692762 0.69400001 15698363
-0.045540001 0.046860002 0.69300002 15632570
-0.044220001 0.046860002 0.69300002 15697339
-0.0429 0.046860002 0.69300002 15960511
-0.041579999 0.046860002 0.69300002 15697346
-0.040260002 0.046860002 0.69300002 16223690
-0.038940001 0.046860002 0.69300002 15764422
-0.037620001 0.046860002 0.69300002 16027594
-0.0363 0.046860002 0.69300002 15830474
-0.034979999 0.046860002 0.69300002 16752090
-0.033708572 0.04692762 0.69400001 14720465
-0.032386668 0.04692762 0.69400001 9654404
-0.1309581 0.048527621 0.69800001 9075809
-0.12962857 0.048527621 0.69800001 9924756
-0.12811525 0.048458096 0.69700003 11372202
-0.12678762 0.048458096 0.69700003 11762393
-0.12546 0.048458096 0.69700003 12617702
-0.12431048 0.048527621 0.69800001 12157669
-0.12280477 0.048458096 0.69700003 13078771
-0.12147714 0.048458096 0.69700003 12618722
-0.12014953 0.048458096 0.69700003 12881894
-0.11882191 0.048458096 0.69700003 12748770
-0.11749429 0.048458096 0.69700003 13275114
-0.11616667 0.048458096 0.69700003 12945120
-0.11467429 0.048388574 0.69600004 13537257
-0.11334857 0.048388574 0.69600004 13536487
-0.11202286 0.048388574 0.69600004 13733866
-0.11069715 0.048388574 0.69600004 13995755
-0.10937143 0.048388574 0.69600004 13864169
-0.10804572 0.048388574 0.69600004 13930216
-0.10641333 0.04824952 0.69400001 13996009
-0.10509143 0.04824952 0.69400001 14193129
-0.10406857 0.048388574 0.69600004 14390508
-0.10289048 0.048458096 0.69700003 14390254
-0.10156287 0.048458096 0.69700003 13534945
-0.10023524 0.048458096 0.69700003 13140691
-0.099049523 0.048527621 0.69800001 16768255
-0.097720005 0.048527621 0.69800001 16711422
-0.096390471 0.048527621 0.69800001 16711422
-0.092064768 0.046998098 0.67600006 16711420
-0.090777151 0.046998098 0.67600006 16711420
-0.089357145 0.046928573 0.67500001 16711420
-0.087940954 0.046859052 0.67400002 16711420
-0.086657144 0.046859052 0.67400002 16711420
-0.085500002 0.046928573 0.67500001 16711420
-0.084214285 0.046928573 0.67500001 16711420
-0.082928576 0.046928573 0.67500001 16711420
-0.081642851 0.046928573 0.67500001 16711420
-0.080357142 0.046928573 0.67500001 16711420
-0.079071432 0.046928573 0.67500001 16711420
-0.077670477 0.046859052 0.67400002 16711420
-0.076386668 0.046859052 0.67400002 16711420
-0.074880004 0.046720002 0.67200005 16711420
-0.073600002 0.046720002 0.67200005 16711420
-0.075333342 0.048666667 0.70000005 16711420
-0.07368286 0.048458096 0.69700003 16711420
-0.072355241 0.048458096 0.69700003 16711420
-0.071027622 0.048458096 0.69700003 16711422
-0.069600001 0.048388574 0.69600004 15592941
-0.068274289 0.048388574 0.69600004 12886014
-0.066948578 0.048388574 0.69600004 12820221
-0.065622866 0.048388574 0.69600004 14326782
-0.06429714 0.048388574 0.69600004 14589951
-0.062971428 0.048388574 0.69600004 14457598
-0.061645716 0.048388574 0.69600004 14457598
-0.060320001 0.048388574 0.69600004 14654716
-0.059079047 0.048458096 0.69700003 14720509
-0.057751432 0.048458096 0.69700003 14522876
-0.056423813 0.048458096 0.69700003 14588669
-0.055017143 0.048388574 0.69600004 14588155
-0.053691432 0.048388574 0.69600004 14719741
-0.052215237 0.04824952 0.69400001 14392062
-0.050893333 0.04824952 0.69400001 14457855
-0.049571428 0.04824952 0.69400001 14327291
-0.048179999 0.048179999 0.69300002 14195705
-0.046860002 0.048179999 0.69300002 14063610
-0.045540001 0.048179999 0.69300002 14063610
-0.044220001 0.048179999 0.69300002 13931252
-0.0429 0.048179999 0.69300002 14326010
-0.041579999 0.048179999 0.69300002 13602805
-0.040260002 0.048179999 0.69300002 14458111
-0.038940001 0.048179999 0.69300002 13604601
-0.037620001 0.048179999 0.69300002 14130943
-0.0363 0.048179999 0.69300002 13539322
-0.034979999 0.048179999 0.69300002 14986751
-0.033660002 0.048179999 0.69300002 13478143
-0.032340001 0.048179999 0.69300002 7425195
-0.1309581 0.049857143 0.69800001 8682857
-0.12944287 0.049785715 0.69700003 7763634
-0.12811525 0.049785715 0.69700003 9211080
-0.12678762 0.049785715 0.69700003 9472767
-0.12546 0.049785715 0.69700003 9867519
-0.12413239 0.049785715 0.69700003 9867519
-0.12280477 0.049785715 0.69700003 10393855
-0.12147714 0.049785715 0.69700003 10394111
-0.12014953 0.049785715 0.69700003 10459903
-0.11882191 0.049785715 0.69700003 10656511
-0.11749429 0.049785715 0.69700003 10853887
-0.11616667 0.049785715 0.69700003 10721279
-0.11467429 0.04971429 0.69600004 10984447
-0.11334857 0.04971429 0.69600004 11181567
-0.11202286 0.04971429 0.69600004 11839487
-0.11069715 0.04971429 0.69600004 11773695
-0.10905714 0.049571428 0.69400001 11773695
-0.10773524 0.049571428 0.69400001 11642623
-0.10641333 0.049571428 0.69400001 11642623
-0.10509143 0.049571428 0.69400001 11773695
-0.10406857 0.04971429 0.69600004 11773695
-0.10289048 0.049785715 0.69700003 11574783
-0.10156287 0.049785715 0.69700003 11377407
-0.10023524 0.049785715 0.69700003 13019903
-0.099049523 0.049857143 0.69800001 16772095
-0.097720005 0.049857143 0.69800001 16711420
-0.093214288 0.048214287 0.67500001 16711420
-0.091928571 0.048214287 0.67500001 16711420
-0.090642862 0.048214287 0.67500001 16711420
-0.089357145 0.048214287 0.67500001 16711420
-0.088071428 0.048214287 0.67500001 16711420
-0.086785711 0.048214287 0.67500001 16711420
-0.085500002 0.048214287 0.67500001 16711420
-0.084214285 0.048214287 0.67500001 16711420
-0.082928576 0.048214287 0.67500001 16711420
-0.081642851 0.048214287 0.67500001 16711420
-0.080357142 0.048214287 0.67500001 16711420
-0.078954287 0.048142858 0.67400002 16711420
-0.077670477 0.048142858 0.67400002 16711420
-0.076386668 0.048142858 0.67400002 16711420
-0.074880004 0.048000004 0.67200005 16711420
-0.073490478 0.047928572 0.671 16711420
-0.072212376 0.047928572 0.671 16711420
-0.073788576 0.049857143 0.69800001 16711420
-0.07245905 0.049857143 0.69800001 16711420
-0.071027622 0.049785715 0.69700003 16711420
-0.069400005 0.049571428 0.69400001 16711420
-0.068078093 0.049571428 0.69400001 12894463
-0.066756189 0.049571428 0.69400001 11381229
-0.065434285 0.049571428 0.69400001 11972863
-0.06411238 0.049571428 0.69400001 12630783
-0.062790476 0.049571428 0.69400001 12432639
-0.061468571 0.049571428 0.69400001 12301055
-0.060146667 0.049571428 0.69400001 12235775
-0.058994289 0.04971429 0.69600004 12367359
-0.057668574 0.04971429 0.69600004 12169983
-0.056342859 0.04971429 0.69600004 12169983
-0.05485905 0.049571428 0.69400001 12301055
-0.053537142 0.049571428 0.69400001 12498431
-0.052215237 0.049571428 0.69400001 12432639
-0.05082 0.049500003 0.69300002 12630015
-0.049500003 0.049500003 0.69300002 12170495
-0.048179999 0.049500003 0.69300002 12170495
-0.046860002 0.049500003 0.69300002 11972351
-0.045540001 0.049500003 0.69300002 11972351
-0.044220001 0.049500003 0.69300002 11906559
-0.0429 0.049500003 0.69300002 11972351
-0.041579999 0.049500003 0.69300002 11840767
-0.04014381 0.049357146 0.69100004 12038143
-0.03882762 0.049357146 0.69100004 11644159
-0.037620001 0.049500003 0.69300002 11512575
-0.0363 0.049500003 0.69300002 11577855
-0.034979999 0.049500003 0.69300002 12696319
-0.033660002 0.049500003 0.69300002 11972863
-0.032340001 0.049500003 0.69300002 5722536
-0.13077047 0.051113334 0.69700003 8225129
-0.12888572 0.050893333 0.69400001 4684484
-0.1275638 0.050893333 0.69400001 5079242
-0.12624191 0.050893333 0.69400001 3771135
-0.12528001 0.051040001 0.69600004 3968511
-0.12395429 0.051040001 0.69600004 4362239
-0.12262858 0.051040001 0.69600004 4559615
-0.12130286 0.051040001 0.69600004 4100095
-0.11997715 0.051040001 0.69600004 4363263
-0.11865143 0.051040001 0.69600004 4691455
-0.11732572 0.051040001 0.69600004 4823039
-0.11600001 0.051040001 0.69600004 4756735
-0.11434477 0.050893333 0.69400001 5085695
-0.11302286 0.050893333 0.69400001 5085439
-0.11170095 0.050893333 0.69400001 5611775
-0.11037905 0.050893333 0.69400001 5743615
-0.1089 0.05082 0.69300002 5677823
-0.10758 0.05082 0.69300002 4955903
-0.10626 0.05082 0.69300002 5021695
-0.10494 0.05082 0.69300002 5480447
-0.10376953 0.050893333 0.69400001 4888319
-0.10274286 0.051040001 0.69600004 3445759
-0.10156287 0.051113334 0.69700003 4893183
-0.097071432 0.049500003 0.67500001 12765946
-0.095785715 0.049500003 0.67500001 15989759
-0.094499998 0.049500003 0.67500001 16711420
-0.093214288 0.049500003 0.67500001 16711420
-0.091928571 0.049500003 0.67500001 16711420
-0.090642862 0.049500003 0.67500001 16711420
-0.089357145 0.049500003 0.67500001 16711420
-0.088071428 0.049500003 0.67500001 16711420
-0.086785711 0.049500003 0.67500001 16711420
-0.085373335 0.049426667 0.67400002 16711420
-0.084089532 0.049426667 0.67400002 16711420
-0.082805723 0.049426667 0.67400002 16711420
-0.081521906 0.049426667 0.67400002 16711420
-0.080238096 0.049426667 0.67400002 16711420
-0.078954287 0.049426667 0.67400002 16711420
-0.077440001 0.049280003 0.67200005 16711420
-0.076159999 0.049280003 0.67200005 16711420
-0.074768573 0.049206667 0.671 16711420
-0.073490478 0.049206667 0.671 16711420
-0.072212376 0.049206667 0.671 16711420
-0.070617147 0.04898667 0.66800004 16711420
-0.069344766 0.04898667 0.66800004 16711420
-0.07092572 0.051040001 0.69600004 16711422
-0.069299996 0.05082 0.69300002 16579836
-0.067980006 0.05082 0.69300002 11917823
-0.066660002 0.05082 0.69300002 7378111
-0.065340005 0.05082 0.69300002 5679871
-0.06402 0.05082 0.69300002 6206207
-0.062699996 0.05082 0.69300002 6402559
-0.061202858 0.050673336 0.69100004 6073599
-0.059886672 0.050673336 0.69100004 5483519
-0.058740001 0.05082 0.69300002 5417727
-0.057502858 0.050893333 0.69400001 5482751
-0.056180954 0.050893333 0.69400001 5614335
-0.054779999 0.05082 0.69300002 5614079
-0.053460002 0.05082 0.69300002 6008831
-0.052140001 0.05082 0.69300002 6402559
-0.05082 0.05082 0.69300002 6402559
-0.049357146 0.050673336 0.69100004 5614335
-0.048040956 0.050673336 0.69100004 5745919
-0.046724766 0.050673336 0.69100004 6139135
-0.045408577 0.050673336 0.69100004 6007551
-0.044092383 0.050673336 0.69100004 5876223
-0.042776193 0.050673336 0.69100004 5876223
-0.04146 0.050673336 0.69100004 5875711
-0.04014381 0.050673336 0.69100004 6007295
-0.03882762 0.050673336 0.69100004 6007295
-0.037511431 0.050673336 0.69100004 5678335
-0.0363 0.05082 0.69300002 6662399
-0.034979999 0.05082 0.69300002 8109823
-0.033660002 0.05082 0.69300002 9285631
-0.032340001 0.05082 0.69300002 2311582
-0.13020761 0.052215237 0.69400001 8029547
-0.12888572 0.052215237 0.69400001 5210842
-0.1275638 0.052215237 0.69400001 5737186
-0.12624191 0.052215237 0.69400001 5018623
-0.12492 0.052215237 0.69400001 4821247
-0.12359809 0.052215237 0.69400001 4559871
-0.12227619 0.052215237 0.69400001 4954623
-0.12095428 0.052215237 0.69400001 4953855
-0.11963238 0.052215237 0.69400001 5217023
-0.11831047 0.052215237 0.69400001 5413887
-0.11682 0.052140001 0.69300002 5413887
-0.1155 0.052140001 0.69300002 5544959
-0.11418 0.052140001 0.69300002 5676543
-0.11286 0.052140001 0.69300002 5676287
-0.11154 0.052140001 0.69300002 5873663
-0.10990191 0.051989529 0.69100004 6071807
-0.10858572 0.051989529 0.69100004 6137599
-0.10726953 0.051989529 0.69100004 5940479
-0.10595334 0.051989529 0.69100004 5940479
-0.10463715 0.051989529 0.69100004 6006271
-0.10332096 0.051989529 0.69100004 5085183
-0.10274286 0.05236572 0.69600004 5543679
-0.10156287 0.052440956 0.69700003 8570111
-0.09692762 0.050710477 0.67400002 14475516
-0.095643811 0.050710477 0.67400002 16317695
-0.094360001 0.050710477 0.67400002 16711420
-0.093076192 0.050710477 0.67400002 16711420
-0.091792382 0.050710477 0.67400002 16711420
-0.090642862 0.050785713 0.67500001 16711420
-0.089224763 0.050710477 0.67400002 16711420
-0.087940954 0.050710477 0.67400002 16711420
-0.086657144 0.050710477 0.67400002 16711420
-0.085373335 0.050710477 0.67400002 16711420
-0.084089532 0.050710477 0.67400002 16711420
-0.082805723 0.050710477 0.67400002 16711420
-0.081280008 0.050560005 0.67200005 16711420
-0.080000006 0.050560005 0.67200005 16711420
-0.078720003 0.050560005 0.67200005 16711420
-0.077324763 0.050484762 0.671 16711420
-0.076046668 0.050484762 0.671 16711420
-0.074657142 0.050409522 0.67000002 16711420
-0.073380955 0.050409522 0.67000002 16711420
-0.07210476 0.050409522 0.67000002 16711420
-0.070617147 0.05025905 0.66800004 16711420
-0.069344766 0.05025905 0.66800004 16711420
-0.068072386 0.05025905 0.66800004 16711422
-0.069100007 0.051989529 0.69100004 16645629
-0.06778381 0.051989529 0.69100004 12180735
-0.066467628 0.051989529 0.69100004 7114678
-0.065151431 0.051989529 0.69100004 6009087
-0.063835248 0.051989529 0.69100004 6535423
-0.062519051 0.051989529 0.69100004 6797055
-0.061202858 0.051989529 0.69100004 6533887
-0.059886672 0.051989529 0.69100004 6008319
-0.058570478 0.051989529 0.69100004 6008319
-0.057254288 0.051989529 0.69100004 6139391
-0.056100003 0.052140001 0.69300002 6205183
-0.054779999 0.052140001 0.69300002 6270719
-0.053305719 0.051989529 0.69100004 6336511
-0.051989529 0.051989529 0.69100004 6598911
-0.050673336 0.051989529 0.69100004 6730495
-0.049285717 0.05191429 0.69000006 6467839
-0.047971431 0.05191429 0.69000006 6402047
-0.046521906 0.05176381 0.68800002 6270719
-0.045211427 0.05176381 0.68800002 6139135
-0.043900952 0.05176381 0.68800002 6139135
-0.042590477 0.05176381 0.68800002 6139135
-0.04146 0.051989529 0.69100004 6204415
-0.040085718 0.05191429 0.69000006 6270207
-0.038771432 0.05191429 0.69000006 6467327
-0.037457146 0.05191429 0.69000006 6335743
-0.036195237 0.051989529 0.69100004 8107263
-0.034879047 0.051989529 0.69100004 9488895
-0.033562858 0.051989529 0.69100004 9548543
-0.032246668 0.051989529 0.69100004 2179737
-0.12964478 0.053305719 0.69100004 7439722
-0.12832858 0.053305719 0.69100004 5474794
-0.12701239 0.053305719 0.69100004 5803759
-0.1256962 0.053305719 0.69100004 5018879
-0.12438001 0.053305719 0.69100004 4689919
-0.12306382 0.053305719 0.69100004 3903743
-0.1221 0.053460002 0.69300002 4430079
-0.12078 0.053460002 0.69300002 4560383
-0.11911524 0.053305719 0.69100004 4889343
-0.11762858 0.053228576 0.69000006 4955391
-0.1163143 0.053228576 0.69000006 4889599
-0.11500001 0.053228576 0.69000006 5021183
-0.11368572 0.053228576 0.69000006 5152767
-0.11237144 0.053228576 0.69000006 5480191
-0.11105715 0.053228576 0.69000006 5677567
-0.10974286 0.053228576 0.69000006 5743615
-0.10842858 0.053228576 0.69000006 5940991
-0.10711429 0.053228576 0.69000006 5613311
-0.10580001 0.053228576 0.69000006 5613311
-0.10403144 0.052997146 0.68700004 5940479
-0.10272286 0.052997146 0.68700004 4822011
-0.10141429 0.052997146 0.68700004 6066687
-0.10156287 0.053768571 0.69700003 9290495
-0.096640006 0.051840004 0.67200005 15856124
-0.0952181 0.051762857 0.671 16645631
-0.093939997 0.051762857 0.671 16711420
-0.092523813 0.051685713 0.67000002 16711420
-0.091247626 0.051685713 0.67000002 16711420
-0.089971431 0.051685713 0.67000002 16711420
-0.088695243 0.051685713 0.67000002 16711420
-0.087419048 0.051685713 0.67000002 16711420
-0.08614286 0.051685713 0.67000002 16711420
-0.084993333 0.051762857 0.671 16711420
-0.083590478 0.051685713 0.67000002 16711420
-0.082314283 0.051685713 0.67000002 16711420
-0.081038095 0.051685713 0.67000002 16711420
-0.079761907 0.051685713 0.67000002 16711420
-0.07848572 0.051685713 0.67000002 16711420
-0.077209525 0.051685713 0.67000002 16711420
-0.075933337 0.051685713 0.67000002 16711420
-0.074434288 0.05153143 0.66800004 16711420
-0.073161907 0.05153143 0.66800004 16711420
-0.071889527 0.05153143 0.66800004 16711420
-0.070617147 0.05153143 0.66800004 16711420
-0.069344766 0.05153143 0.66800004 16711420
-0.068072386 0.05153143 0.66800004 16711422
-0.069100007 0.053305719 0.69100004 16579836
-0.067685723 0.053228576 0.69000006 11722495
-0.066179045 0.053074285 0.68800002 7643334
-0.064868569 0.053074285 0.68800002 6075647
-0.063558094 0.053074285 0.68800002 6470399
-0.062247619 0.053074285 0.68800002 6797567
-0.060848575 0.052997146 0.68700004 6468607
-0.05954 0.052997146 0.68700004 6008319
-0.058231428 0.052997146 0.68700004 6139903
-0.05692286 0.052997146 0.68700004 6336511
-0.055614289 0.052997146 0.68700004 6270719
-0.054305717 0.052997146 0.68700004 6336511
-0.052997146 0.052997146 0.68700004 6336511
-0.051688574 0.052997146 0.68700004 6402047
-0.050380003 0.052997146 0.68700004 6467839
-0.049071431 0.052997146 0.68700004 6402559
-0.047762856 0.052997146 0.68700004 6336767
-0.04638667 0.052920006 0.68600005 6270719
-0.045080002 0.052920006 0.68600005 6139135
-0.043773334 0.052920006 0.68600005 6270719
-0.04246667 0.052920006 0.68600005 6204927
-0.041160002 0.052920006 0.68600005 6007807
-0.03991143 0.052997146 0.68700004 6205183
-0.038602859 0.052997146 0.68700004 6467327
-0.037294287 0.052997146 0.68700004 6467327
-0.036038093 0.053074285 0.68800002 8500991
-0.034727618 0.053074285 0.68800002 9290495
-0.033562858 0.053305719 0.69100004 9679359
-0.032246668 0.053305719 0.69100004 2376346
-0.13039239 0.054384761 0.68800002 6257769
-0.12908192 0.054384761 0.68800002 6718320
-0.12777144 0.054384761 0.68800002 5542138
-0.12646097 0.054384761 0.68800002 5476345
-0.12515049 0.054384761 0.68800002 4493823
-0.12384 0.054384761 0.68800002 4296447
-0.12252953 0.054384761 0.68800002 3706879
-0.12104286 0.054305717 0.68700004 4167423
-0.11973429 0.054305717 0.68700004 4035839
-0.11842572 0.054305717 0.68700004 4364799
-0.11694667 0.05422667 0.68600005 4561663
-0.11564001 0.05422667 0.68600005 4495871
-0.11433334 0.05422667 0.68600005 4430591
-0.11302667 0.05422667 0.68600005 4693759
-0.11172 0.05422667 0.68600005 4890111
-0.11057429 0.054305717 0.68700004 5087487
-0.10910667 0.05422667 0.68600005 5940991
-0.10780001 0.05422667 0.68600005 6006783
-0.10664857 0.054305717 0.68700004 5875199
-0.10518667 0.05422667 0.68600005 5743615
-0.10388 0.05422667 0.68600005 5678079
-0.10257334 0.05422667 0.68600005 4756990
-0.10126667 0.05422667 0.68600005 6198271
-0.099960007 0.05422667 0.68600005 9093119
-0.096352383 0.052961905 0.67000002 15132919
-0.095076188 0.052961905 0.67000002 16514559
-0.093800001 0.052961905 0.67000002 16711420
-0.092523813 0.052961905 0.67000002 16711420
-0.090975247 0.052803814 0.66800004 16711420
-0.08970286 0.052803814 0.66800004 16711420
-0.088430479 0.052803814 0.66800004 16711420
-0.087158099 0.052803814 0.66800004 16711420
-0.085885718 0.052803814 0.66800004 16711420
-0.084613338 0.052803814 0.66800004 16711420
-0.083340958 0.052803814 0.66800004 16711420
-0.082068577 0.052803814 0.66800004 16711420
-0.080796197 0.052803814 0.66800004 16711420
-0.079523817 0.052803814 0.66800004 16711420
-0.078017138 0.052645713 0.66600001 16711420
-0.076748572 0.052645713 0.66600001 16711420
-0.075706668 0.052803814 0.66800004 16711420
-0.074434288 0.052803814 0.66800004 16711420
-0.073052391 0.052724764 0.66700006 16711420
-0.071781911 0.052724764 0.66700006 16711420
-0.070617147 0.052803814 0.66800004 16711420
-0.069344766 0.052803814 0.66800004 16711420
-0.068072386 0.052803814 0.66800004 16711422
-0.069000006 0.054542862 0.69000006 16053492
-0.067391433 0.054305717 0.68700004 12311807
-0.066082858 0.054305717 0.68700004 9351122
-0.064774282 0.054305717 0.68700004 6468863
-0.063465714 0.054305717 0.68700004 6534655
-0.06215715 0.054305717 0.68700004 6273023
-0.060848575 0.054305717 0.68700004 6075647
-0.059453338 0.05422667 0.68600005 5877503
-0.05814667 0.05422667 0.68600005 6009087
-0.056840003 0.05422667 0.68600005 6008319
-0.055533338 0.05422667 0.68600005 6008319
-0.05422667 0.05422667 0.68600005 6008319
-0.052920006 0.05422667 0.68600005 6139903
-0.051613338 0.05422667 0.68600005 6205439
-0.050306667 0.05422667 0.68600005 6271231
-0.049000002 0.05422667 0.68600005 6205695
-0.047693335 0.05422667 0.68600005 6139903
-0.046251431 0.054068573 0.68400002 6205439
-0.04494857 0.054068573 0.68400002 6073855
-0.043645717 0.054068573 0.68400002 6008319
-0.042342857 0.054068573 0.68400002 6139903
-0.041040003 0.054068573 0.68400002 6139391
-0.039853338 0.05422667 0.68600005 6468351
-0.03854667 0.05422667 0.68600005 7124991
-0.037240002 0.05422667 0.68600005 7388159
-0.035933334 0.05422667 0.68600005 8567295
-0.034677144 0.054305717 0.68700004 9027839
-0.13039239 0.055695239 0.68800002 5535870
-0.12908192 0.055695239 0.68800002 6259593
-0.12777144 0.055695239 0.68800002 4756735
-0.12646097 0.055695239 0.68800002 4625151
-0.12515049 0.055695239 0.68800002 4100607
-0.12366 0.055614289 0.68700004 3969023
-0.12235144 0.055614289 0.68700004 4297983
-0.12086668 0.055533338 0.68600005 4363775
-0.11956001 0.055533338 0.68600005 4364543
-0.11825334 0.055533338 0.68600005 4364543
-0.11660571 0.055371426 0.68400002 3971583
-0.11530285 0.055371426 0.68400002 4037375
-0.114 0.055371426 0.68400002 4299775
-0.11269714 0.055371426 0.68400002 4497151
-0.11139429 0.055371426 0.68400002 4758783
-0.11041334 0.055533338 0.68600005 5087743
-0.10910667 0.055533338 0.68600005 5940991
-0.10780001 0.055533338 0.68600005 6006783
-0.10649334 0.055533338 0.68600005 5744383
-0.10488 0.055371426 0.68400002 5612799
-0.10357714 0.055371426 0.68400002 5415679
-0.10227428 0.055371426 0.68400002 4691967
-0.10097143 0.055371426 0.68400002 6526207
-0.09821143 0.054561906 0.67400002 7052543
-0.096352383 0.054238096 0.67000002 14539501
-0.095076188 0.054238096 0.67000002 16710655
-0.093800001 0.054238096 0.67000002 16711420
-0.092247628 0.054076191 0.66800004 16711420
-0.090975247 0.054076191 0.66800004 16711420
-0.08970286 0.054076191 0.66800004 16711420
-0.088430479 0.054076191 0.66800004 16711420
-0.087158099 0.054076191 0.66800004 16711420
-0.085885718 0.054076191 0.66800004 16711420
-0.084486671 0.05399524 0.66700006 16711420
-0.083216198 0.05399524 0.66700006 16711420
-0.081822857 0.053914286 0.66600001 16711420
-0.080554284 0.053914286 0.66600001 16711420
-0.079285711 0.053914286 0.66600001 16711420
-0.078017138 0.053914286 0.66600001 16711420
-0.076748572 0.053914286 0.66600001 16711420
-0.075479999 0.053914286 0.66600001 16711420
-0.074211434 0.053914286 0.66600001 16711420
-0.07294286 0.053914286 0.66600001 16711420
-0.071674287 0.053914286 0.66600001 16711420
-0.070511431 0.05399524 0.66700006 16711420
-0.069240957 0.05399524 0.66700006 16711420
-0.067970477 0.05399524 0.66700006 16711422
-0.069000006 0.055857148 0.69000006 15856113
-0.067293338 0.055533338 0.68600005 13034751
-0.065986671 0.055533338 0.68600005 10468824
-0.064680003 0.055533338 0.68600005 8109055
-0.063373342 0.055533338 0.68600005 7451134
-0.062066671 0.055533338 0.68600005 6010367
-0.060760003 0.055533338 0.68600005 5944575
-0.059453338 0.055533338 0.68600005 5746175
-0.05814667 0.055533338 0.68600005 5811967
-0.056840003 0.055533338 0.68600005 5811967
-0.055533338 0.055533338 0.68600005 5811967
-0.054068573 0.055371426 0.68400002 5877759
-0.052765712 0.055371426 0.68400002 5877759
-0.051462859 0.055371426 0.68400002 5680639
-0.050159998 0.055371426 0.68400002 5878015
-0.048857145 0.055371426 0.68400002 6009087
-0.047554284 0.055371426 0.68400002 6009087
-0.046251431 0.055371426 0.68400002 6074879
-0.04488286 0.055290479 0.68300003 5943295
-0.043581907 0.055290479 0.68300003 5680127
-0.042280953 0.055290479 0.68300003 5877503
-0.040980004 0.055290479 0.68300003 6074111
-0.039737143 0.055371426 0.68400002 6468863
-0.038434289 0.055371426 0.68400002 6993663
-0.037131429 0.055371426 0.68400002 7059455
-0.035828575 0.055371426 0.68400002 8043263
-0.034626666 0.055533338 0.68600005 8306431
-0.13020287 0.05692286 0.68700004 5471384
-0.12889428 0.05692286 0.68700004 6392486
-0.12758572 0.05692286 0.68700004 5807103
-0.12627715 0.05692286 0.68700004 5609727
-0.12496858 0.05692286 0.68700004 4627455
-0.12348001 0.056840003 0.68600005 4561663
-0.12181715 0.056674287 0.68400002 4430335
-0.12051429 0.056674287 0.68400002 4430335
-0.11921144 0.056674287 0.68400002 4299263
-0.11790857 0.056674287 0.68400002 4233471
-0.11660571 0.056674287 0.68400002 4102911
-0.11530285 0.056674287 0.68400002 4234495
-0.11383333 0.056591429 0.68300003 4365567
-0.11253238 0.056591429 0.68300003 4562943
