# .PCD v0.7 - Point Cloud Data file format
VERSION 0.7
FIELDS x y z rgb
SIZE 4 4 4 4
TYPE F F F F
COUNT 1 1 1 1
WIDTH 1029
HEIGHT 1
VIEWPOINT 0 0 0 1 0 0 0
POINTS 1029
DATA ascii
-0.084642865 -0.12075715 1.1850001 6.6370064e-39
-0.082385719 -0.12075715 1.1850001 7.6511583e-39
-0.080399044 -0.12116476 1.189 7.8359097e-39
-0.078134283 -0.12116476 1.189 8.4812791e-39
-0.076124765 -0.12157239 1.1930001 9.034806e-39
-0.073852383 -0.12157239 1.1930001 9.1270016e-39
-0.071820006 -0.12198001 1.197 9.3110398e-39
-0.069539994 -0.12198001 1.197 9.4032354e-39
-0.067540951 -0.12248952 1.202 9.4032354e-39
-0.065251425 -0.12248952 1.202 9.4032354e-39
-0.062961906 -0.12248952 1.202 9.495431e-39
-0.06067238 -0.12248952 1.202 9.4032354e-39
-0.058382858 -0.12248952 1.202 9.403957e-39
-0.056093335 -0.12248952 1.202 9.5883483e-39
-0.053803809 -0.12248952 1.202 9.5883455e-39
-0.051514287 -0.12248952 1.202 9.5883455e-39
-0.04922476 -0.12248952 1.202 9.5883455e-39
-0.046935238 -0.12248952 1.202 9.4961499e-39
-0.044645716 -0.12248952 1.202 9.4961527e-39
-0.042356189 -0.12248952 1.202 9.403957e-39
-0.040066667 -0.12248952 1.202 9.3117614e-39
-0.037777144 -0.12248952 1.202 9.2195658e-39
-0.035487618 -0.12248952 1.202 9.2188469e-39
-0.033198096 -0.12248952 1.202 9.0344557e-39
-0.030908573 -0.12248952 1.202 9.0344557e-39
-0.028619049 -0.12248952 1.202 9.0344557e-39
-0.026329523 -0.12248952 1.202 8.8507833e-39
-0.024040001 -0.12248952 1.202 8.8507833e-39
-0.021750478 -0.12248952 1.202 8.7585848e-39
-0.019380001 -0.12198001 1.197 8.5741936e-39
-0.017099999 -0.12198001 1.197 8.3890835e-39
-0.014770477 -0.12157239 1.1930001 8.2046922e-39
-0.012498097 -0.12157239 1.1930001 7.9281053e-39
-0.010191428 -0.12116476 1.189 6.268584e-39
-0.0079266662 -0.12116476 1.189 1.1217562e-39
-0.0056428574 -0.12075715 1.1850001 6.2847031e-39
-0.0033857145 -0.12075715 1.1850001 1.3639949e-38
-0.0011323809 -0.12116476 1.189 1.8249731e-38
-0.086606674 -0.11810001 1.1810001 5.8176755e-39
-0.08435715 -0.11810001 1.1810001 8.1132182e-39
-0.082107626 -0.11810001 1.1810001 8.8507833e-39
-0.080399044 -0.1189 1.189 8.9422572e-39
-0.078134283 -0.1189 1.189 8.9422572e-39
-0.076124765 -0.11930001 1.1930001 9.0344529e-39
-0.073852383 -0.11930001 1.1930001 9.1266485e-39
-0.071820006 -0.11970001 1.197 9.2188441e-39
-0.069539994 -0.11970001 1.197 9.2188441e-39
-0.067540951 -0.1202 1.202 9.2188441e-39
-0.065251425 -0.1202 1.202 9.3110398e-39
-0.062961906 -0.1202 1.202 9.3110398e-39
-0.06067238 -0.1202 1.202 9.3110398e-39
-0.058382858 -0.1202 1.202 9.4032354e-39
-0.056093335 -0.1202 1.202 9.4032354e-39
-0.053803809 -0.1202 1.202 9.4032354e-39
-0.051514287 -0.1202 1.202 9.4032354e-39
-0.04922476 -0.1202 1.202 9.4032354e-39
-0.046935238 -0.1202 1.202 9.4032354e-39
-0.044645716 -0.1202 1.202 9.3110426e-39
-0.042356189 -0.1202 1.202 9.3110426e-39
-0.040066667 -0.1202 1.202 9.1273702e-39
-0.037777144 -0.1202 1.202 9.0351745e-39
-0.035487618 -0.1202 1.202 9.0344557e-39
-0.033198096 -0.1202 1.202 8.94226e-39
-0.030908573 -0.1202 1.202 8.7575156e-39
-0.028619049 -0.1202 1.202 8.7575156e-39
-0.026329523 -0.1202 1.202 8.5741964e-39
-0.024040001 -0.1202 1.202 8.5741964e-39
-0.021750478 -0.1202 1.202 8.3890863e-39
-0.019380001 -0.11970001 1.197 8.204695e-39
-0.017099999 -0.11970001 1.197 8.203616e-39
-0.014770477 -0.11930001 1.1930001 8.203616e-39
-0.012456191 -0.1189 1.189 7.7433637e-39
-0.010191428 -0.1189 1.189 5.8994511e-39
-0.0079266662 -0.1189 1.189 5.4373589e-39
-0.0056428574 -0.1185 1.1850001 1.4195944e-38
-0.0033857145 -0.1185 1.1850001 1.6867546e-38
-0.0011285715 -0.1185 1.1850001 1.5761198e-38
-0.088856198 -0.11585049 1.1810001 4.9771319e-39
-0.086606674 -0.11585049 1.1810001 7.927392e-39
-0.08435715 -0.11585049 1.1810001 8.8482567e-39
-0.082107626 -0.11585049 1.1810001 8.9404524e-39
-0.080399044 -0.11663524 1.189 8.757866e-39
-0.078134283 -0.11663524 1.189 8.8500616e-39
-0.076124765 -0.11702763 1.1930001 8.8500644e-39
-0.073852383 -0.11702763 1.1930001 9.0344557e-39
-0.07158 -0.11702763 1.1930001 9.0344557e-39
-0.069539994 -0.11742 1.197 9.0344557e-39
-0.067540951 -0.11791047 1.202 9.034806e-39
-0.065251425 -0.11791047 1.202 9.034806e-39
-0.062961906 -0.11791047 1.202 9.0344529e-39
-0.06067238 -0.11791047 1.202 9.1266485e-39
-0.058382858 -0.11791047 1.202 9.1266485e-39
-0.056093335 -0.11791047 1.202 9.2188441e-39
-0.053803809 -0.11791047 1.202 9.2188441e-39
-0.051514287 -0.11791047 1.202 9.2188441e-39
-0.049388576 -0.11830287 1.2060001 9.2188441e-39
-0.047091432 -0.11830287 1.2060001 9.2188441e-39
-0.044645716 -0.11791047 1.202 9.1266513e-39
-0.042356189 -0.11791047 1.202 9.0344557e-39
-0.040066667 -0.11791047 1.202 9.0341025e-39
-0.037777144 -0.11791047 1.202 9.0341025e-39
-0.035487618 -0.11791047 1.202 8.94226e-39
-0.033198096 -0.11791047 1.202 8.7578688e-39
-0.030908573 -0.11791047 1.202 8.7578688e-39
-0.028619049 -0.11791047 1.202 8.4812819e-39
-0.026329523 -0.11791047 1.202 8.4809288e-39
-0.024040001 -0.11791047 1.202 8.3887331e-39
-0.021750478 -0.11791047 1.202 8.3880045e-39
-0.019380001 -0.11742 1.197 8.1114176e-39
-0.017042857 -0.11702763 1.1930001 8.2950886e-39
-0.014720952 -0.11663524 1.189 8.2950886e-39
-0.012456191 -0.11663524 1.189 7.4664013e-39
-0.010191428 -0.11663524 1.189 6.4522494e-39
-0.0078999996 -0.11624286 1.1850001 8.4704947e-39
-0.0056428574 -0.11624286 1.1850001 1.6307123e-38
-0.0033628573 -0.11545809 1.177 1.7329554e-38
-0.0011209524 -0.11545809 1.177 1.4748076e-38
-0.088856198 -0.11360096 1.1810001 8.6650187e-39
-0.086606674 -0.11360096 1.1810001 7.4664755e-39
-0.08435715 -0.11360096 1.1810001 8.0203009e-39
-0.082385719 -0.11398572 1.1850001 8.2046922e-39
-0.080399044 -0.11437048 1.189 8.2050453e-39
-0.078134283 -0.11437048 1.189 8.3894366e-39
-0.076124765 -0.11475525 1.1930001 8.4809316e-39
-0.073852383 -0.11475525 1.1930001 8.4809316e-39
-0.07158 -0.11475525 1.1930001 8.66532e-39
-0.069539994 -0.11514 1.197 8.66532e-39
-0.067259997 -0.11514 1.197 8.5738278e-39
-0.06498 -0.11514 1.197 8.7582191e-39
-0.062961906 -0.11562095 1.202 8.8500616e-39
-0.06067238 -0.11562095 1.202 8.9422572e-39
-0.058382858 -0.11562095 1.202 8.9422572e-39
-0.056093335 -0.11562095 1.202 8.9422572e-39
-0.053803809 -0.11562095 1.202 9.1255695e-39
-0.051514287 -0.11562095 1.202 9.1255695e-39
-0.04922476 -0.11562095 1.202 8.9422572e-39
-0.046935238 -0.11562095 1.202 8.9422572e-39
-0.044645716 -0.11562095 1.202 8.7575156e-39
-0.042356189 -0.11562095 1.202 8.7575156e-39
-0.040066667 -0.11562095 1.202 8.66532e-39
-0.037777144 -0.11562095 1.202 8.66532e-39
-0.035487618 -0.11562095 1.202 8.4809316e-39
-0.033198096 -0.11562095 1.202 8.3887359e-39
-0.030908573 -0.11562095 1.202 8.2043447e-39
-0.028619049 -0.11562095 1.202 8.112149e-39
-0.026329523 -0.11562095 1.202 7.9281179e-39
-0.024040001 -0.11562095 1.202 7.651531e-39
-0.021750478 -0.11562095 1.202 7.46713e-39
-0.019380001 -0.11514 1.197 7.46713e-39
-0.017042857 -0.11475525 1.1930001 8.0203037e-39
-0.014720952 -0.11437048 1.189 9.0344557e-39
-0.012456191 -0.11437048 1.189 9.6812292e-39
-0.010191428 -0.11437048 1.189 1.0971968e-38
-0.0078999996 -0.11398572 1.1850001 1.1982198e-38
-0.0056428574 -0.11398572 1.1850001 1.1705611e-38
-0.0033171428 -0.11167714 1.161 1.1156654e-38
-0.0011057142 -0.11167714 1.161 1.2539588e-38
-0.086448573 -0.10833429 1.149 1.22613e-38
-0.084260009 -0.10833429 1.149 9.0344529e-39
-0.08435715 -0.11135144 1.1810001 8.1132182e-39
-0.082107626 -0.11135144 1.1810001 8.1132182e-39
-0.080399044 -0.11210571 1.189 8.0206541e-39
-0.078134283 -0.11210571 1.189 8.2972409e-39
-0.076124765 -0.11248287 1.1930001 8.1124966e-39
-0.073852383 -0.11248287 1.1930001 8.3890835e-39
-0.07158 -0.11248287 1.1930001 8.6656731e-39
-0.069539994 -0.11286 1.197 8.5734775e-39
-0.067259997 -0.11286 1.197 8.2968878e-39
-0.06498 -0.11286 1.197 8.5734747e-39
-0.062961906 -0.11333143 1.202 8.6656703e-39
-0.06067238 -0.11333143 1.202 8.757866e-39
-0.058382858 -0.11333143 1.202 8.756787e-39
-0.056093335 -0.11333143 1.202 8.756787e-39
-0.053803809 -0.11333143 1.202 8.8489826e-39
-0.051514287 -0.11333143 1.202 8.9411782e-39
-0.04922476 -0.11333143 1.202 8.5734747e-39
-0.046935238 -0.11333143 1.202 8.5734747e-39
-0.044645716 -0.11333143 1.202 8.6656731e-39
-0.042356189 -0.11333143 1.202 8.6656731e-39
-0.040200002 -0.11370859 1.2060001 8.6645913e-39
-0.037902862 -0.11370859 1.2060001 8.6645913e-39
-0.035487618 -0.11333143 1.202 8.4802001e-39
-0.033198096 -0.11333143 1.202 8.5723957e-39
-0.030908573 -0.11333143 1.202 8.0206541e-39
-0.028619049 -0.11333143 1.202 7.8362628e-39
-0.026417146 -0.11370859 1.2060001 7.6518715e-39
-0.024040001 -0.11333143 1.202 7.5596759e-39
-0.021750478 -0.11333143 1.202 7.4674803e-39
-0.019380001 -0.11286 1.197 8.1128497e-39
-0.017042857 -0.11248287 1.1930001 9.033727e-39
-0.014770477 -0.11248287 1.1930001 9.4947051e-39
-0.012456191 -0.11210571 1.189 9.9571154e-39
-0.010191428 -0.11210571 1.189 1.134005e-38
-0.0078999996 -0.11172857 1.1850001 1.1525896e-38
-0.0056428574 -0.11172857 1.1850001 8.0224617e-39
-0.0033057143 -0.10908858 1.1570001 7.1936834e-39
-0.0010980952 -0.10871143 1.153 1.3186399e-38
0.0010980952 -0.10871143 1.153 1.4933919e-38
-0.090825714 -0.10614572 1.149 7.5629662e-39
-0.088637143 -0.10614572 1.149 6.364423e-39
-0.086147629 -0.1057762 1.1450001 8.6660613e-39
-0.083966672 -0.1057762 1.1450001 1.1063148e-38
-0.081785724 -0.1057762 1.1450001 1.0142601e-38
-0.082107626 -0.10910191 1.1810001 1.0050405e-38
-0.080399044 -0.10984095 1.189 1.0325895e-38
-0.078134283 -0.10984095 1.189 9.864917e-39
-0.076124765 -0.11021049 1.1930001 9.6812474e-39
-0.073852383 -0.11021049 1.1930001 9.6812474e-39
-0.071820006 -0.11058 1.197 9.1262982e-39
-0.069539994 -0.11058 1.197 8.7575156e-39
-0.067540951 -0.1110419 1.202 8.2968906e-39
-0.065251425 -0.1110419 1.202 8.2968906e-39
-0.062961906 -0.1110419 1.202 8.3890835e-39
-0.06067238 -0.1110419 1.202 8.3890835e-39
-0.058382858 -0.1110419 1.202 8.2050453e-39
-0.056093335 -0.1110419 1.202 8.1128497e-39
-0.053803809 -0.1110419 1.202 8.1128497e-39
-0.051514287 -0.1110419 1.202 8.0206541e-39
-0.04922476 -0.1110419 1.202 8.2046922e-39
-0.046935238 -0.1110419 1.202 8.2046922e-39
-0.044645716 -0.1110419 1.202 8.2046922e-39
-0.042356189 -0.1110419 1.202 8.1124966e-39
-0.040200002 -0.11141144 1.2060001 8.2050607e-39
-0.037902862 -0.11141144 1.2060001 8.6660389e-39
-0.035605714 -0.11141144 1.2060001 9.0351591e-39
-0.033198096 -0.1110419 1.202 9.4961373e-39
-0.030908573 -0.1110419 1.202 9.4039388e-39
-0.028619049 -0.1110419 1.202 9.4039388e-39
-0.026417146 -0.11141144 1.2060001 1.04195e-38
-0.024040001 -0.1110419 1.202 1.0696087e-38
-0.021750478 -0.1110419 1.202 1.0971633e-38
-0.019380001 -0.11058 1.197 1.124822e-38
-0.017042857 -0.11021049 1.1930001 1.1156024e-38
-0.014770477 -0.11021049 1.1930001 1.124822e-38
-0.011921904 -0.10512953 1.138 1.0327696e-38
-0.0097542861 -0.10512953 1.138 1.0143305e-38
-0.0079266662 -0.10984095 1.189 9.6837809e-39
-0.0054714289 -0.10614572 1.149 8.0242596e-39
-0.0032828571 -0.10614572 1.149 7.746951e-39
-0.0010942857 -0.10614572 1.149 1.3186493e-38
0.0010942857 -0.10614572 1.149 1.5026831e-38
-0.090825714 -0.10395715 1.149 8.0239415e-39
-0.088328578 -0.10359525 1.1450001 5.5346595e-39
-0.086147629 -0.10359525 1.1450001 7.1926913e-39
-0.083966672 -0.10359525 1.1450001 9.0366039e-39
-0.081500001 -0.10323334 1.141 1.0232996e-38
-0.078840002 -0.1026 1.1340001 1.0601779e-38
-0.076680005 -0.1026 1.1340001 1.1524088e-38
-0.078134283 -0.10757619 1.189 1.0233349e-38
-0.076124765 -0.1079381 1.1930001 9.7741689e-39
-0.073852383 -0.1079381 1.1930001 9.6819733e-39
-0.071820006 -0.1083 1.197 9.3117586e-39
-0.069539994 -0.1083 1.197 9.3117586e-39
-0.067540951 -0.10875238 1.202 9.3110398e-39
-0.065251425 -0.10875238 1.202 9.495431e-39
-0.062961906 -0.10875238 1.202 9.6798223e-39
-0.06067238 -0.10875238 1.202 9.495431e-39
-0.058382858 -0.10875238 1.202 9.4957841e-39
-0.056093335 -0.10875238 1.202 9.4035885e-39
-0.053803809 -0.10875238 1.202 9.034806e-39
-0.051514287 -0.10875238 1.202 9.1270016e-39
-0.04922476 -0.10875238 1.202 9.3113929e-39
-0.046935238 -0.10875238 1.202 9.4957841e-39
-0.044645716 -0.10875238 1.202 9.4035885e-39
-0.042356189 -0.10875238 1.202 9.2191972e-39
-0.040200002 -0.10911429 1.2060001 9.2199161e-39
-0.037777144 -0.10875238 1.202 9.3121117e-39
-0.035487618 -0.10875238 1.202 9.496503e-39
-0.030905718 -0.10124286 1.1190001 9.7730899e-39
-0.028774286 -0.10124286 1.1190001 9.9571154e-39
-0.026738096 -0.10160477 1.123 1.069468e-38
-0.024599047 -0.10160477 1.123 1.1340413e-38
-0.022460001 -0.10160477 1.123 1.1340413e-38
-0.021750478 -0.10875238 1.202 1.0972359e-38
-0.019315239 -0.1079381 1.1930001 1.0972359e-38
-0.017042857 -0.1079381 1.1930001 1.0421343e-38
-0.014040001 -0.1026 1.1340001 1.0329148e-38
-0.011880001 -0.1026 1.1340001 9.6855704e-39
-0.0097542861 -0.10296191 1.138 9.6855704e-39
-0.007606667 -0.10323334 1.141 9.3149984e-39
-0.0054714289 -0.10395715 1.149 7.8398683e-39
-0.0032828571 -0.10395715 1.149 7.5629129e-39
-0.0010942857 -0.10395715 1.149 1.3094651e-38
0.0010942857 -0.10395715 1.149 1.4843875e-38
0.0032828571 -0.10395715 1.149 1.7517548e-38
-0.093014285 -0.10176858 1.149 1.493573e-38
-0.090825714 -0.10176858 1.149 8.6682683e-39
-0.088328578 -0.10141429 1.1450001 5.9945951e-39
-0.086147629 -0.10141429 1.1450001 7.0097391e-39
-0.083966672 -0.10141429 1.1450001 8.3004779e-39
-0.081500001 -0.10106 1.141 9.0348214e-39
-0.078840002 -0.10044 1.1340001 9.4957996e-39
-0.076409526 -0.10008571 1.13 9.4046829e-39
-0.074257143 -0.10008571 1.13 9.7734654e-39
-0.07210476 -0.10008571 1.13 9.4986708e-39
-0.074100003 -0.10602 1.197 1.0051845e-38
-0.071820006 -0.10602 1.197 1.0235147e-38
-0.069830477 -0.10646286 1.202 1.0696125e-38
-0.067540951 -0.10646286 1.202 1.087981e-38
-0.065468572 -0.10681715 1.2060001 1.0972006e-38
-0.063171431 -0.10681715 1.2060001 1.1064557e-38
-0.060874287 -0.10681715 1.2060001 1.1248949e-38
-0.05435143 -0.099111438 1.1190001 1.1249665e-38
-0.052220006 -0.099111438 1.1190001 1.1526252e-38
-0.050088573 -0.099111438 1.1190001 1.1525886e-38
-0.047957145 -0.099111438 1.1190001 1.1802473e-38
-0.04582572 -0.099111438 1.1190001 1.1710274e-38
-0.043694288 -0.099111438 1.1190001 1.1986861e-38
-0.041562859 -0.099111438 1.1190001 1.1894668e-38
-0.03943143 -0.099111438 1.1190001 1.1894668e-38
-0.037300002 -0.099111438 1.1190001 1.1617728e-38
-0.035168573 -0.099111438 1.1190001 1.1433337e-38
-0.033037145 -0.099111438 1.1190001 1.1341141e-38
-0.030905718 -0.099111438 1.1190001 1.1433337e-38
-0.028774286 -0.099111438 1.1190001 1.1156753e-38
-0.026738096 -0.099465713 1.123 1.1156753e-38
-0.024599047 -0.099465713 1.123 1.1065273e-38
-0.022460001 -0.099465713 1.123 1.0973078e-38
-0.020320952 -0.099465713 1.123 1.0696491e-38
-0.018230475 -0.09973143 1.126 1.0604295e-38
-0.016085716 -0.09973143 1.126 1.0236599e-38
-0.013990476 -0.10008571 1.13 1.0144403e-38
-0.011880001 -0.10044 1.1340001 1.0052563e-38
-0.0097542861 -0.10079429 1.138 9.9603678e-39
-0.0075866668 -0.10079429 1.138 9.4993897e-39
-0.0054333331 -0.10106 1.141 7.932064e-39
-0.0032714289 -0.10141429 1.1450001 7.5636318e-39
-0.0010942857 -0.10176858 1.149 1.2910978e-38
0.0010942857 -0.10176858 1.149 1.4751676e-38
0.0032828571 -0.10176858 1.149 1.7609741e-38
-0.093014285 -0.099580005 1.149 1.4752418e-38
-0.090509534 -0.099233337 1.1450001 1.0236276e-38
-0.088328578 -0.099233337 1.1450001 6.2718644e-39
-0.085846663 -0.098886669 1.141 7.4692781e-39
-0.083673336 -0.098886669 1.141 8.760017e-39
-0.081500001 -0.098886669 1.141 9.0362507e-39
-0.078840002 -0.098280005 1.1340001 9.1284464e-39
-0.076409526 -0.097933337 1.13 9.3128376e-39
-0.074257143 -0.097933337 1.13 9.8660114e-39
-0.07210476 -0.097933337 1.13 9.49974e-39
-0.069704764 -0.097586669 1.126 9.8685225e-39
-0.067560002 -0.097586669 1.126 9.9607182e-39
-0.065008573 -0.096980006 1.1190001 1.0237305e-38
-0.062652387 -0.096633337 1.115 1.0145838e-38
-0.060528573 -0.096633337 1.115 1.0422425e-38
-0.063380957 -0.10486667 1.21 1.0146914e-38
-0.056482859 -0.096980006 1.1190001 1.0331306e-38
-0.05435143 -0.096980006 1.1190001 1.0515337e-38
-0.052220006 -0.096980006 1.1190001 1.0699728e-38
-0.050088573 -0.096980006 1.1190001 1.0791918e-38
-0.047957145 -0.096980006 1.1190001 1.1068505e-38
-0.04582572 -0.096980006 1.1190001 1.1159621e-38
-0.043694288 -0.096980006 1.1190001 1.1159621e-38
-0.041562859 -0.096980006 1.1190001 1.1159987e-38
-0.03943143 -0.096980006 1.1190001 1.1159987e-38
-0.037300002 -0.096980006 1.1190001 1.1159268e-38
-0.035168573 -0.096980006 1.1190001 1.1067073e-38
-0.033037145 -0.096980006 1.1190001 1.0699012e-38
-0.030905718 -0.096980006 1.1190001 1.0699012e-38
-0.028774286 -0.096980006 1.1190001 1.0514621e-38
-0.026738096 -0.097326666 1.123 1.0514621e-38
-0.024664761 -0.097586669 1.126 1.078941e-38
-0.022460001 -0.097326666 1.123 1.0697214e-38
-0.020320952 -0.097326666 1.123 1.0421343e-38
-0.018230475 -0.097586669 1.126 1.0421343e-38
-0.016085716 -0.097586669 1.126 1.032915e-38
-0.013990476 -0.097933337 1.13 1.0236955e-38
-0.011880001 -0.098280005 1.1340001 1.0144756e-38
-0.0097542861 -0.098626666 1.138 1.0052561e-38
-0.0075866668 -0.098626666 1.138 9.8678037e-39
-0.0054333331 -0.098886669 1.141 8.0238911e-39
-0.0032714289 -0.099233337 1.1450001 7.7462154e-39
-0.0010942857 -0.099580005 1.149 1.3185758e-38
0.0010942857 -0.099580005 1.149 1.4751676e-38
0.0032828571 -0.099580005 1.149 1.7517545e-38
-0.095202863 -0.097391427 1.149 2.0005408e-38
-0.093014285 -0.097391427 1.149 1.5580017e-38
-0.090509534 -0.097052388 1.1450001 1.115573e-38
-0.088328578 -0.097052388 1.1450001 6.9147311e-39
-0.085846663 -0.096713334 1.141 7.1937773e-39
-0.083673336 -0.096713334 1.141 8.761103e-39
-0.081500001 -0.096713334 1.141 9.1284464e-39
-0.078840002 -0.09612 1.1340001 9.4050332e-39
-0.076409526 -0.095780954 1.13 9.4972289e-39
-0.074257143 -0.095780954 1.13 1.0050403e-38
-0.07210476 -0.095780954 1.13 9.6834124e-39
-0.069704764 -0.095441908 1.126 9.9599993e-39
-0.067560002 -0.095441908 1.126 9.8681666e-39
-0.065008573 -0.094848573 1.1190001 1.042134e-38
-0.062652387 -0.094509527 1.115 1.0329148e-38
-0.060528573 -0.094509527 1.115 1.0421343e-38
-0.058614291 -0.094848573 1.1190001 1.0421343e-38
-0.056482859 -0.094848573 1.1190001 1.0421343e-38
-0.05435143 -0.094848573 1.1190001 1.0330227e-38
-0.052220006 -0.094848573 1.1190001 1.0514618e-38
-0.050088573 -0.094848573 1.1190001 1.0607167e-38
-0.047957145 -0.094848573 1.1190001 1.0975949e-38
-0.04582572 -0.094848573 1.1190001 1.0791558e-38
-0.043694288 -0.094848573 1.1190001 1.0699362e-38
-0.041562859 -0.094848573 1.1190001 1.0698656e-38
-0.03943143 -0.094848573 1.1190001 1.0698656e-38
-0.037300002 -0.094848573 1.1190001 1.0973801e-38
-0.035168573 -0.094848573 1.1190001 1.0973801e-38
-0.033155236 -0.095187619 1.123 1.0881605e-38
-0.031016191 -0.095187619 1.123 1.0881605e-38
-0.028954286 -0.095441908 1.126 1.0881605e-38
-0.026904762 -0.095780954 1.13 1.0881605e-38
-0.02475238 -0.095780954 1.13 1.0789407e-38
-0.022599999 -0.095780954 1.13 1.0697211e-38
-0.020447617 -0.095780954 1.13 1.0697564e-38
-0.018295238 -0.095780954 1.13 1.0513173e-38
-0.016142858 -0.095780954 1.13 1.0421346e-38
-0.014040001 -0.09612 1.1340001 1.032915e-38
-0.011880001 -0.09612 1.1340001 1.0144756e-38
-0.0097200004 -0.09612 1.1340001 9.960365e-39
-0.0075866668 -0.096459046 1.138 9.8678037e-39
-0.0054523814 -0.097052388 1.1450001 7.8394998e-39
-0.0032714289 -0.097052388 1.1450001 7.2866763e-39
-0.0010942857 -0.097391427 1.149 1.291061e-38
0.0010942857 -0.097391427 1.149 1.4934989e-38
0.0032828571 -0.097391427 1.149 1.7700857e-38
-0.093014285 -0.095202863 1.149 1.5487462e-38
-0.090825714 -0.095202863 1.149 1.3642815e-38
-0.088328578 -0.094871432 1.1450001 7.7422945e-39
-0.086147629 -0.094871432 1.1450001 7.5611206e-39
-0.083673336 -0.094540007 1.141 9.220642e-39
-0.081500001 -0.094540007 1.141 8.9454942e-39
-0.078840002 -0.093960002 1.1340001 9.1298855e-39
-0.076680005 -0.093960002 1.1340001 9.222437e-39
-0.074257143 -0.09362857 1.13 9.6834152e-39
-0.07210476 -0.09362857 1.13 9.8678037e-39
-0.069952376 -0.09362857 1.13 1.0052195e-38
-0.067560002 -0.093297146 1.126 1.0052561e-38
-0.065008573 -0.092717148 1.1190001 1.0329148e-38
-0.062877148 -0.092717148 1.1190001 1.0421343e-38
-0.06074572 -0.092717148 1.1190001 1.0513539e-38
-0.058614291 -0.092717148 1.1190001 1.0513539e-38
-0.056482859 -0.092717148 1.1190001 1.0513539e-38
-0.05435143 -0.092717148 1.1190001 1.0697214e-38
-0.052220006 -0.092717148 1.1190001 1.0881605e-38
-0.050088573 -0.092717148 1.1190001 1.0515337e-38
-0.047957145 -0.092717148 1.1190001 1.0515337e-38
-0.04582572 -0.092717148 1.1190001 1.0699009e-38
-0.043694288 -0.092717148 1.1190001 1.08834e-38
-0.041562859 -0.092717148 1.1190001 1.0974883e-38
-0.03943143 -0.092717148 1.1190001 1.0974883e-38
-0.037300002 -0.092717148 1.1190001 1.0791207e-38
-0.035168573 -0.092717148 1.1190001 1.0699012e-38
-0.033155236 -0.093048573 1.123 1.1065997e-38
-0.031099049 -0.093297146 1.126 1.1158192e-38
-0.028954286 -0.093297146 1.126 1.0973801e-38
-0.026904762 -0.09362857 1.13 1.0881605e-38
-0.02475238 -0.09362857 1.13 1.0881605e-38
-0.022599999 -0.09362857 1.13 1.078941e-38
-0.020447617 -0.09362857 1.13 1.0330229e-38
-0.018295238 -0.09362857 1.13 1.0238034e-38
-0.016142858 -0.09362857 1.13 1.032915e-38
-0.014040001 -0.093960002 1.1340001 1.032915e-38
-0.011880001 -0.093960002 1.1340001 1.0144756e-38
-0.0097200004 -0.093960002 1.1340001 1.0052561e-38
-0.0075866668 -0.094291434 1.138 1.0327696e-38
-0.0054523814 -0.094871432 1.1450001 8.3915876e-39
-0.0032714289 -0.094871432 1.1450001 7.2866763e-39
-0.0010904763 -0.094871432 1.1450001 1.291061e-38
0.0010942857 -0.095202863 1.149 1.4843875e-38
0.0032828571 -0.095202863 1.149 1.7333157e-38
-0.095202863 -0.093014285 1.149 1.7792347e-38
-0.093014285 -0.093014285 1.149 1.4934282e-38
-0.090825714 -0.093014285 1.149 1.3276143e-38
-0.088328578 -0.09269049 1.1450001 7.7444049e-39
-0.086147629 -0.09269049 1.1450001 7.470367e-39
-0.083673336 -0.092366666 1.141 8.945497e-39
-0.081500001 -0.092366666 1.141 8.9458502e-39
-0.078840002 -0.091800004 1.1340001 9.0380458e-39
-0.076680005 -0.091800004 1.1340001 9.4972289e-39
-0.074519999 -0.091800004 1.1340001 9.6816201e-39
-0.07210476 -0.091476195 1.13 9.4983177e-39
-0.069952376 -0.091476195 1.13 9.9592958e-39
-0.0678 -0.091476195 1.13 9.9603678e-39
-0.065647617 -0.091476195 1.13 1.0236955e-38
-0.063270479 -0.091152385 1.126 1.0421346e-38
-0.06096286 -0.090909526 1.123 1.0513542e-38
-0.058823813 -0.090909526 1.123 1.0605018e-38
-0.056482859 -0.090585716 1.1190001 1.0697214e-38
-0.05435143 -0.090585716 1.1190001 1.0881608e-38
-0.052220006 -0.090585716 1.1190001 1.0881608e-38
-0.050088573 -0.090585716 1.1190001 1.0328447e-38
-0.047957145 -0.090585716 1.1190001 1.0236251e-38
-0.04582572 -0.090585716 1.1190001 1.0513186e-38
-0.043694288 -0.090585716 1.1190001 1.1342946e-38
-0.041562859 -0.090585716 1.1190001 1.1434782e-38
-0.03943143 -0.090585716 1.1190001 1.1250391e-38
-0.037433334 -0.090909526 1.123 1.1065994e-38
-0.035294287 -0.090909526 1.123 1.1065994e-38
-0.033155236 -0.090909526 1.123 1.0606816e-38
-0.031099049 -0.091152385 1.126 1.0699012e-38
-0.028954286 -0.091152385 1.126 1.0881602e-38
-0.026904762 -0.091476195 1.13 1.0881602e-38
-0.02475238 -0.091476195 1.13 1.0881608e-38
-0.022599999 -0.091476195 1.13 1.0697217e-38
-0.020447617 -0.091476195 1.13 1.0605018e-38
-0.018295238 -0.091476195 1.13 1.0512823e-38
-0.016142858 -0.091476195 1.13 1.032915e-38
-0.014040001 -0.091800004 1.1340001 1.0144759e-38
-0.011880001 -0.091800004 1.1340001 1.0052561e-38
-0.0097542861 -0.092123814 1.138 1.0052561e-38
-0.007606667 -0.092366666 1.141 9.9603496e-39
-0.0054523814 -0.09269049 1.1450001 8.116437e-39
-0.0032714289 -0.09269049 1.1450001 7.6551085e-39
-0.0010904763 -0.09269049 1.1450001 1.3186846e-38
0.0010904763 -0.09269049 1.1450001 1.5028263e-38
-0.097730473 -0.091141902 1.153 1.5306302e-38
-0.09553428 -0.091141902 1.153 1.6870744e-38
-0.093014285 -0.090825714 1.149 1.4473657e-38
-0.090825714 -0.090825714 1.149 1.0054366e-38
-0.088328578 -0.090509534 1.1450001 7.1041054e-39
-0.086147629 -0.090509534 1.1450001 8.2064901e-39
-0.083966672 -0.090509534 1.1450001 9.220642e-39
-0.081500001 -0.090193339 1.141 9.038043e-39
-0.078840002 -0.089639999 1.1340001 9.2224342e-39
-0.076680005 -0.089639999 1.1340001 9.5894245e-39
-0.074519999 -0.089639999 1.1340001 9.7738158e-39
-0.07210476 -0.089323811 1.13 9.4064752e-39
-0.069952376 -0.089323811 1.13 1.0051845e-38
-0.067560002 -0.089007616 1.126 9.960365e-39
-0.065415241 -0.089007616 1.126 1.0329148e-38
-0.063270479 -0.089007616 1.126 1.0421343e-38
-0.06096286 -0.088770472 1.123 1.0513539e-38
-0.058823813 -0.088770472 1.123 1.0421346e-38
-0.056684762 -0.088770472 1.123 1.0605737e-38
-0.05435143 -0.088454291 1.1190001 1.060646e-38
-0.052220006 -0.088454291 1.1190001 1.0053287e-38
-0.050088573 -0.088454291 1.1190001 1.0235147e-38
-0.047957145 -0.088454291 1.1190001 1.0050756e-38
-0.04582572 -0.088454291 1.1190001 9.8656386e-39
-0.043694288 -0.088454291 1.1190001 1.0879791e-38
-0.041562859 -0.088454291 1.1190001 1.1802122e-38
-0.03943143 -0.088454291 1.1190001 1.1617731e-38
-0.037433334 -0.088770472 1.123 1.1158189e-38
-0.035294287 -0.088770472 1.123 1.1065994e-38
-0.033155236 -0.088770472 1.123 1.0607179e-38
-0.031099049 -0.089007616 1.126 1.0607179e-38
-0.028954286 -0.089007616 1.126 1.0606816e-38
-0.026904762 -0.089323811 1.13 1.0699012e-38
-0.02475238 -0.089323811 1.13 1.060646e-38
-0.022680001 -0.089639999 1.1340001 1.0514265e-38
-0.020520002 -0.089639999 1.1340001 1.0330229e-38
-0.018295238 -0.089323811 1.13 1.0330229e-38
-0.016142858 -0.089323811 1.13 1.0145835e-38
-0.014040001 -0.089639999 1.1340001 1.0145835e-38
-0.011921904 -0.089956194 1.138 9.7777716e-39
-0.0097542861 -0.089956194 1.138 9.685576e-39
-0.0076333336 -0.090509534 1.1450001 9.4990211e-39
-0.0054523814 -0.090509534 1.1450001 8.1160867e-39
-0.0032714289 -0.090509534 1.1450001 7.563266e-39
-0.0010904763 -0.090509534 1.1450001 1.3279395e-38
0.0010904763 -0.090509534 1.1450001 1.5120459e-38
-0.097730473 -0.088945709 1.153 8.3033548e-39
-0.09553428 -0.088945709 1.153 9.7756108e-39
-0.093014285 -0.088637143 1.149 1.0328785e-38
-0.090825714 -0.088637143 1.149 1.0880514e-38
-0.088328578 -0.088328578 1.1450001 9.4053836e-39
-0.086147629 -0.088328578 1.1450001 8.4845161e-39
-0.083966672 -0.088328578 1.1450001 8.761103e-39
-0.081785724 -0.088328578 1.1450001 8.8532986e-39
-0.078840002 -0.087480001 1.1340001 9.2220811e-39
-0.076680005 -0.087480001 1.1340001 9.4972289e-39
-0.074519999 -0.087480001 1.1340001 9.7738158e-39
-0.07210476 -0.087171428 1.13 9.4064752e-39
-0.069952376 -0.087171428 1.13 1.014404e-38
-0.067560002 -0.086862855 1.126 1.0052563e-38
-0.065415241 -0.086862855 1.126 1.0421346e-38
-0.063270479 -0.086862855 1.126 1.0421343e-38
-0.06096286 -0.086631432 1.123 1.0513539e-38
-0.058823813 -0.086631432 1.123 1.0513539e-38
-0.056482859 -0.086322866 1.1190001 1.0605734e-38
-0.05435143 -0.086322866 1.1190001 8.7622128e-39
-0.052220006 -0.086322866 1.1190001 7.1026915e-39
-0.050088573 -0.086322866 1.1190001 8.115386e-39
-0.047957145 -0.086322866 1.1190001 9.6827117e-39
-0.04582572 -0.086322866 1.1190001 9.6823236e-39
-0.043694288 -0.086322866 1.1190001 9.4979323e-39
-0.041711427 -0.086631432 1.123 1.0420993e-38
-0.039572384 -0.086631432 1.123 1.1342949e-38
-0.037433334 -0.086631432 1.123 1.1158189e-38
-0.035294287 -0.086631432 1.123 1.1065994e-38
-0.033155236 -0.086631432 1.123 1.0974883e-38
-0.031099049 -0.086862855 1.126 1.0974883e-38
-0.028954286 -0.086862855 1.126 1.0606816e-38
-0.026904762 -0.087171428 1.13 1.0606816e-38
-0.02475238 -0.087171428 1.13 1.0881605e-38
-0.022680001 -0.087480001 1.1340001 1.0697214e-38
-0.020520002 -0.087480001 1.1340001 1.0697211e-38
-0.018360002 -0.087480001 1.1340001 1.0605016e-38
-0.0162 -0.087480001 1.1340001 1.0421343e-38
-0.014040001 -0.087480001 1.1340001 1.0329148e-38
-0.011921904 -0.087788574 1.138 1.0145109e-38
-0.0097542861 -0.087788574 1.138 9.8685225e-39
-0.0076333336 -0.088328578 1.1450001 9.5912196e-39
-0.0054523814 -0.088328578 1.1450001 8.3926764e-39
-0.0032714289 -0.088328578 1.1450001 7.6558274e-39
-0.0010904763 -0.088328578 1.1450001 1.309537e-38
0.0010904763 -0.088328578 1.1450001 1.5488162e-38
-0.098069526 -0.087050483 1.1570001 8.6671529e-39
-0.09553428 -0.086749524 1.153 8.8543706e-39
-0.093014285 -0.086448573 1.149 9.9607182e-39
-0.090825714 -0.086448573 1.149 1.0881602e-38
-0.088637143 -0.086448573 1.149 9.6830593e-39
-0.086147629 -0.086147629 1.1450001 9.0362507e-39
-0.083966672 -0.086147629 1.1450001 8.8518595e-39
-0.081785724 -0.086147629 1.1450001 8.9444082e-39
-0.079118095 -0.085620955 1.138 9.4053864e-39
-0.076680005 -0.085320003 1.1340001 9.3146299e-39
-0.074519999 -0.085320003 1.1340001 9.4068255e-39
-0.072360002 -0.085320003 1.1340001 9.3142796e-39
-0.069952376 -0.085019045 1.13 1.0051845e-38
-0.0678 -0.085019045 1.13 1.0144756e-38
-0.065647617 -0.085019045 1.13 1.0421343e-38
-0.063270479 -0.084718093 1.126 1.0329148e-38
-0.06096286 -0.084492385 1.123 1.0421343e-38
-0.058823813 -0.084492385 1.123 1.0330229e-38
-0.056482859 -0.084191434 1.1190001 1.0238034e-38
-0.05435143 -0.084191434 1.1190001 8.5774334e-39
-0.052220006 -0.084191434 1.1190001 7.6554771e-39
-0.050088573 -0.084191434 1.1190001 8.666392e-39
-0.047957145 -0.084191434 1.1190001 9.9571308e-39
-0.04582572 -0.084191434 1.1190001 9.0391122e-39
-0.043694288 -0.084191434 1.1190001 8.4859384e-39
-0.041711427 -0.084492385 1.123 9.041989e-39
-0.039572384 -0.084492385 1.123 1.0793706e-38
-0.037433334 -0.084492385 1.123 1.0974877e-38
-0.035294287 -0.084492385 1.123 1.0790486e-38
-0.033243813 -0.084718093 1.126 1.0699012e-38
-0.031099049 -0.084718093 1.126 1.0883403e-38
-0.028954286 -0.084718093 1.126 1.0606816e-38
-0.026904762 -0.085019045 1.13 1.0606816e-38
-0.02475238 -0.085019045 1.13 1.0514621e-38
-0.022680001 -0.085320003 1.1340001 1.0514621e-38
-0.020520002 -0.085320003 1.1340001 1.0697211e-38
-0.018360002 -0.085320003 1.1340001 1.0789407e-38
-0.0162 -0.085320003 1.1340001 1.0421343e-38
-0.014040001 -0.085320003 1.1340001 1.0329148e-38
-0.011921904 -0.085620955 1.138 1.0052561e-38
-0.0097542861 -0.085620955 1.138 9.8681694e-39
-0.0076333336 -0.086147629 1.1450001 9.775608e-39
-0.0054523814 -0.086147629 1.1450001 8.2082823e-39
-0.0032714289 -0.086147629 1.1450001 7.7476573e-39
-0.0010942857 -0.086448573 1.149 1.3371591e-38
0.0010942857 -0.086448573 1.149 1.5672554e-38
-0.098069526 -0.084846668 1.1570001 1.216947e-38
-0.09553428 -0.084553331 1.153 1.00554e-38
-0.093338095 -0.084553331 1.153 9.3178346e-39
-0.090825714 -0.084260009 1.149 1.0146201e-38
-0.088637143 -0.084260009 1.149 9.3164404e-39
-0.086448573 -0.084260009 1.149 8.9451467e-39
-0.083966672 -0.083966672 1.1450001 8.6685598e-39
-0.081785724 -0.083966672 1.1450001 8.8518623e-39
-0.079118095 -0.083453335 1.138 9.3128404e-39
-0.076680005 -0.083160006 1.1340001 9.4050332e-39
-0.074519999 -0.083160006 1.1340001 9.7738158e-39
-0.072360002 -0.083160006 1.1340001 9.4068283e-39
-0.069952376 -0.082866669 1.13 9.8678065e-39
-0.0678 -0.082866669 1.13 9.960365e-39
-0.065647617 -0.082866669 1.13 1.0236952e-38
-0.063495234 -0.082866669 1.13 1.0329148e-38
-0.061125714 -0.082573339 1.126 1.0421343e-38
-0.058823813 -0.082353331 1.123 1.0513186e-38
-0.056482859 -0.082060009 1.1190001 1.0236599e-38
-0.05435143 -0.082060009 1.1190001 8.7607653e-39
-0.052220006 -0.082060009 1.1190001 8.4841784e-39
-0.050088573 -0.082060009 1.1190001 8.4841784e-39
-0.047957145 -0.082060009 1.1190001 6.824657e-39
-0.04582572 -0.082060009 1.1190001 1.0246631e-39
-0.043850474 -0.082353331 1.123 8.7104713e-42
-0.041711427 -0.082353331 1.123 4.2493031e-39
-0.039572384 -0.082353331 1.123 1.0334215e-38
-0.037433334 -0.082353331 1.123 1.1527325e-38
-0.035294287 -0.082353331 1.123 1.1066347e-38
-0.033243813 -0.082573339 1.126 1.0973798e-38
-0.031099049 -0.082573339 1.126 1.0973798e-38
-0.028954286 -0.082573339 1.126 1.0973798e-38
-0.026904762 -0.082866669 1.13 1.0881602e-38
-0.024840001 -0.083160006 1.1340001 1.0514618e-38
-0.022680001 -0.083160006 1.1340001 1.0514618e-38
-0.020520002 -0.083160006 1.1340001 1.078976e-38
-0.018360002 -0.083160006 1.1340001 1.0605369e-38
-0.0162 -0.083160006 1.1340001 1.0421696e-38
-0.014040001 -0.083160006 1.1340001 1.0145109e-38
-0.011921904 -0.083453335 1.138 1.0052563e-38
-0.0097542861 -0.083453335 1.138 9.7759766e-39
-0.0076333336 -0.083966672 1.1450001 9.6830593e-39
-0.0054523814 -0.083966672 1.1450001 8.2079292e-39
-0.0032600001 -0.083673336 1.141 7.5629129e-39
-0.0010866667 -0.083673336 1.141 1.3463433e-38
0.0010866667 -0.083673336 1.141 1.6410103e-38
-0.098069526 -0.082642861 1.1570001 1.5764759e-38
-0.09553428 -0.082357138 1.153 1.0240969e-38
-0.093338095 -0.082357138 1.153 8.6736437e-39
-0.090825714 -0.082071431 1.149 8.94909e-39
-0.088637143 -0.082071431 1.149 8.6725031e-39
-0.086448573 -0.082071431 1.149 9.405036e-39
-0.083966672 -0.081785724 1.1450001 8.8518623e-39
-0.081785724 -0.081785724 1.1450001 8.9440579e-39
-0.079326667 -0.081500001 1.141 9.405036e-39
-0.076950483 -0.081285715 1.138 9.3131907e-39
-0.074519999 -0.081 1.1340001 9.7741689e-39
-0.072360002 -0.081 1.1340001 9.5908636e-39
-0.070200004 -0.081 1.1340001 1.0144037e-38
-0.0678 -0.080714285 1.13 1.0052914e-38
-0.065647617 -0.080714285 1.13 1.0329501e-38
-0.063270479 -0.080428578 1.126 1.0420977e-38
-0.061125714 -0.080428578 1.126 1.0697564e-38
-0.058823813 -0.080214284 1.123 1.0697217e-38
-0.056684762 -0.080214284 1.123 1.0328434e-38
-0.05435143 -0.079928577 1.1190001 9.8678037e-39
-0.052220006 -0.079928577 1.1190001 9.775608e-39
-0.050088573 -0.079928577 1.1190001 8.1182727e-39
-0.047957145 -0.079928577 1.1190001 5.2602082e-39
-0.04582572 -0.079928577 1.1190001 2.8845869e-40
-0.043694288 -0.079928577 1.1190001 8.9907309e-42
-0.041711427 -0.080214284 1.123 5.1686684e-39
-0.039572384 -0.080214284 1.123 1.1161384e-38
-0.037433334 -0.080214284 1.123 1.1987583e-38
-0.035294287 -0.080214284 1.123 1.1342213e-38
-0.033243813 -0.080428578 1.126 1.0973798e-38
-0.031209525 -0.080714285 1.13 1.1065994e-38
-0.029057143 -0.080714285 1.13 1.0881608e-38
-0.027000003 -0.081 1.1340001 1.0881608e-38
-0.024840001 -0.081 1.1340001 1.0514621e-38
-0.022680001 -0.081 1.1340001 1.0422425e-38
-0.020520002 -0.081 1.1340001 1.0330229e-38
-0.018360002 -0.081 1.1340001 1.0330229e-38
-0.0162 -0.081 1.1340001 1.0421343e-38
-0.014089524 -0.081285715 1.138 1.0329148e-38
-0.011921904 -0.081285715 1.138 1.0052563e-38
-0.00978 -0.081500001 1.141 9.8681722e-39
-0.0076333336 -0.081785724 1.1450001 9.7752549e-39
-0.0054523814 -0.081785724 1.1450001 8.1157336e-39
-0.0032600001 -0.081500001 1.141 7.286326e-39
-0.0010866667 -0.081500001 1.141 1.3463433e-38
0.0010866667 -0.081500001 1.141 1.6594144e-38
-0.098069526 -0.080439053 1.1570001 1.8254738e-38
-0.09553428 -0.080160953 1.153 1.5304922e-38
-0.093338095 -0.080160953 1.153 1.0418553e-38
-0.090825714 -0.07988286 1.149 9.2263523e-39
-0.088637143 -0.07988286 1.149 7.9356135e-39
-0.086448573 -0.07988286 1.149 8.4841658e-39
-0.083966672 -0.079604767 1.1450001 8.4841658e-39
-0.081785724 -0.079604767 1.1450001 8.9440579e-39
-0.079326667 -0.079326667 1.141 9.3128404e-39
-0.076950483 -0.079118095 1.138 9.4050332e-39
-0.074519999 -0.078840002 1.1340001 9.6816201e-39
-0.072360002 -0.078840002 1.1340001 9.4990239e-39
-0.070200004 -0.078840002 1.1340001 1.0144393e-38
-0.0678 -0.078561902 1.13 1.0052914e-38
-0.065647617 -0.078561902 1.13 1.0237305e-38
-0.063270479 -0.078283817 1.126 1.0421343e-38
-0.061125714 -0.078283817 1.126 1.0513539e-38
-0.058823813 -0.078075238 1.123 1.0697217e-38
-0.056684762 -0.078075238 1.123 1.0697217e-38
-0.054545715 -0.078075238 1.123 1.0697917e-38
-0.052220006 -0.077797145 1.1190001 1.10667e-38
-0.050088573 -0.077797145 1.1190001 9.03915e-39
-0.047957145 -0.077797145 1.1190001 5.9966942e-39
-0.04582572 -0.077797145 1.1190001 5.446742e-39
-0.043694288 -0.077797145 1.1190001 6.1843071e-39
-0.041711427 -0.078075238 1.123 7.3774777e-39
-0.039572384 -0.078075238 1.123 1.0880912e-38
-0.037433334 -0.078075238 1.123 1.1064905e-38
-0.035294287 -0.078075238 1.123 1.0603927e-38
-0.033243813 -0.078283817 1.126 1.0145129e-38
-0.031209525 -0.078561902 1.13 1.0790498e-38
-0.029057143 -0.078561902 1.13 1.0973448e-38
-0.027000003 -0.078840002 1.1340001 1.0789057e-38
-0.024840001 -0.078840002 1.1340001 1.0514621e-38
-0.022680001 -0.078840002 1.1340001 1.0422425e-38
-0.020520002 -0.078840002 1.1340001 1.0237678e-38
-0.018360002 -0.078840002 1.1340001 1.0237678e-38
-0.0162 -0.078840002 1.1340001 1.0421343e-38
-0.014089524 -0.079118095 1.138 1.0236952e-38
-0.011921904 -0.079118095 1.138 1.0052563e-38
-0.00978 -0.079326667 1.141 9.8681722e-39
-0.0076333336 -0.079604767 1.1450001 9.5915797e-39
-0.0054523814 -0.079604767 1.1450001 8.2086453e-39
-0.0032600001 -0.079326667 1.141 7.3788874e-39
-0.0010866667 -0.079326667 1.141 1.3371603e-38
0.0010866667 -0.079326667 1.141 1.6502304e-38
-0.093338095 -0.07796476 1.153 1.4383282e-38
-0.090825714 -0.077694289 1.149 1.0146599e-38
-0.088637143 -0.077694289 1.149 7.657317e-39
-0.086448573 -0.077694289 1.149 8.1157364e-39
-0.083966672 -0.077423811 1.1450001 8.4845189e-39
-0.081785724 -0.077423811 1.1450001 8.8518595e-39
-0.079326667 -0.077153333 1.141 9.4972289e-39
-0.076950483 -0.076950483 1.138 9.497582e-39
-0.074782856 -0.076950483 1.138 9.6819733e-39
-0.072360002 -0.076680005 1.1340001 9.4068283e-39
-0.070200004 -0.076680005 1.1340001 1.0052198e-38
-0.068039998 -0.076680005 1.1340001 9.960365e-39
-0.065647617 -0.076409526 1.13 1.0329148e-38
-0.063495234 -0.076409526 1.13 1.0421343e-38
-0.061125714 -0.076139055 1.126 1.0513539e-38
-0.058980957 -0.076139055 1.126 1.0330229e-38
-0.056836192 -0.076139055 1.126 1.0422425e-38
-0.054545715 -0.075936191 1.123 1.023946e-38
-0.052406665 -0.075936191 1.123 1.023946e-38
-0.050267622 -0.075936191 1.123 1.0144759e-38
-0.048128571 -0.075936191 1.123 8.9462159e-39
-0.045989525 -0.075936191 1.123 9.405036e-39
-0.043850474 -0.075936191 1.123 9.6816229e-39
-0.041711427 -0.075936191 1.123 9.6812474e-39
-0.039572384 -0.075936191 1.123 9.5890518e-39
-0.037433334 -0.075936191 1.123 9.3128404e-39
-0.035294287 -0.075936191 1.123 8.9440579e-39
-0.033243813 -0.076139055 1.126 9.6837627e-39
-0.031209525 -0.076409526 1.13 1.0882306e-38
-0.029057143 -0.076409526 1.13 1.0698656e-38
-0.027000003 -0.076680005 1.1340001 1.0514265e-38
-0.024840001 -0.076680005 1.1340001 1.0422425e-38
-0.022680001 -0.076680005 1.1340001 1.0422425e-38
-0.02059238 -0.076950483 1.138 1.0238034e-38
-0.018424762 -0.076950483 1.138 1.0238034e-38
-0.016257143 -0.076950483 1.138 1.0329148e-38
-0.014089524 -0.076950483 1.138 1.0236952e-38
-0.011953333 -0.077153333 1.141 1.0052558e-38
-0.00978 -0.077153333 1.141 9.9603622e-39
-0.0076333336 -0.077423811 1.1450001 9.6837753e-39
-0.0054523814 -0.077423811 1.1450001 8.1164496e-39
-0.0032600001 -0.077153333 1.141 7.1026536e-39
-0.0010866667 -0.077153333 1.141 1.3556348e-38
0.0010866667 -0.077153333 1.141 1.6410825e-38
-0.093338095 -0.075768568 1.153 1.7978523e-38
-0.091141902 -0.075768568 1.153 1.6965441e-38
-0.088637143 -0.075505719 1.149 9.1288121e-39
-0.086448573 -0.075505719 1.149 7.1023033e-39
-0.084260009 -0.075505719 1.149 8.3008465e-39
-0.081785724 -0.075242862 1.1450001 8.760017e-39
-0.079326667 -0.074980006 1.141 9.4053864e-39
-0.076950483 -0.074782856 1.138 9.4053864e-39
-0.074782856 -0.074782856 1.138 9.5897776e-39
-0.072360002 -0.074519999 1.1340001 9.4068283e-39
-0.070200004 -0.074519999 1.1340001 9.9600021e-39
-0.068039998 -0.074519999 1.1340001 9.9607182e-39
-0.065647617 -0.074257143 1.13 1.0145109e-38
-0.063495234 -0.074257143 1.13 1.0329148e-38
-0.061342854 -0.074257143 1.13 1.0605734e-38
-0.058980957 -0.073994286 1.126 1.078976e-38
-0.056836192 -0.073994286 1.126 1.078976e-38
-0.05469143 -0.073994286 1.126 1.0514968e-38
-0.052406665 -0.073797144 1.123 1.0514968e-38
-0.050267622 -0.073797144 1.123 9.8685169e-39
-0.048128571 -0.073797144 1.123 9.0387562e-39
-0.045989525 -0.073797144 1.123 1.0048973e-38
-0.04396762 -0.073994286 1.126 1.1155321e-38
-0.041822858 -0.073994286 1.126 9.1287995e-39
-0.039678097 -0.073994286 1.126 7.745865e-39
-0.037533332 -0.073994286 1.126 8.3916324e-39
-0.03538857 -0.073994286 1.126 7.9306543e-39
-0.033361904 -0.074257143 1.13 8.7625099e-39
-0.031209525 -0.074257143 1.13 1.1343988e-38
-0.029057143 -0.074257143 1.13 1.1342583e-38
-0.027000003 -0.074519999 1.1340001 1.0881605e-38
-0.024840001 -0.074519999 1.1340001 1.0789407e-38
-0.022680001 -0.074519999 1.1340001 1.0697211e-38
-0.02059238 -0.074782856 1.138 1.0605018e-38
-0.018424762 -0.074782856 1.138 1.0512823e-38
-0.016257143 -0.074782856 1.138 1.0329148e-38
-0.014089524 -0.074782856 1.138 1.0236952e-38
-0.011953333 -0.074980006 1.141 1.0237305e-38
-0.00978 -0.074980006 1.141 9.9607182e-39
-0.0076600001 -0.075505719 1.149 9.4993897e-39
-0.0054714289 -0.075505719 1.149 8.1164552e-39
-0.0032714289 -0.075242862 1.1450001 7.3792405e-39
-0.0010904763 -0.075242862 1.1450001 1.3740739e-38
0.0010904763 -0.075242862 1.1450001 1.6502299e-38
-0.088637143 -0.07331714 1.149 1.0234103e-38
-0.086448573 -0.07331714 1.149 5.8144554e-39
-0.084260009 -0.07331714 1.149 7.5661723e-39
-0.081785724 -0.073061906 1.1450001 9.1287995e-39
-0.079326667 -0.072806664 1.141 9.497582e-39
-0.077153333 -0.072806664 1.141 9.2224342e-39
-0.074782856 -0.072615236 1.138 9.6834124e-39
-0.072615236 -0.072615236 1.138 9.6834124e-39
-0.070200004 -0.072360002 1.1340001 1.0144391e-38
-0.068039998 -0.072360002 1.1340001 1.0052914e-38
-0.065880001 -0.072360002 1.1340001 1.0237305e-38
-0.063720003 -0.072360002 1.1340001 1.0329501e-38
-0.061342854 -0.07210476 1.13 1.0513892e-38
-0.059190478 -0.07210476 1.13 1.078941e-38
-0.057038095 -0.07210476 1.13 1.0973801e-38
-0.054885715 -0.07210476 1.13 1.0606813e-38
-0.052733332 -0.07210476 1.13 9.5926615e-39
-0.050401904 -0.071849525 1.126 8.9465606e-39
-0.048257146 -0.071849525 1.126 8.854365e-39
-0.046112385 -0.071849525 1.126 9.6805411e-39
-0.04396762 -0.071849525 1.126 1.0233715e-38
-0.041822858 -0.071849525 1.126 8.7614561e-39
-0.039819047 -0.07210476 1.13 7.286326e-39
-0.037666667 -0.07210476 1.13 8.1175412e-39
-0.035514288 -0.07210476 1.13 8.0253456e-39
-0.033361904 -0.07210476 1.13 8.9447585e-39
-0.031209525 -0.07210476 1.13 1.0973062e-38
-0.029057143 -0.07210476 1.13 1.1159246e-38
-0.027000003 -0.072360002 1.1340001 1.0974855e-38
-0.024840001 -0.072360002 1.1340001 1.0789412e-38
-0.02276 -0.072615236 1.138 1.0605021e-38
-0.02059238 -0.072615236 1.138 1.0237678e-38
-0.018424762 -0.072615236 1.138 1.0237678e-38
-0.016257143 -0.072615236 1.138 1.0329148e-38
-0.014126667 -0.072806664 1.141 1.0236952e-38
-0.011995239 -0.073061906 1.1450001 1.0144756e-38
-0.0098142866 -0.073061906 1.1450001 9.8681694e-39
-0.0076600001 -0.07331714 1.149 9.5912196e-39
-0.0054714289 -0.07331714 1.149 8.0238939e-39
-0.0032714289 -0.073061906 1.1450001 7.5629129e-39
-0.0010904763 -0.073061906 1.1450001 1.4200998e-38
0.0010904763 -0.073061906 1.1450001 1.6410825e-38
-0.088637143 -0.071128577 1.149 1.1616652e-38
-0.086448573 -0.071128577 1.149 7.1934395e-39
-0.084260009 -0.071128577 1.149 8.2075915e-39
-0.081785724 -0.070880957 1.1450001 8.8532986e-39
-0.079604767 -0.070880957 1.1450001 9.1298855e-39
-0.077153333 -0.070633337 1.141 9.1298855e-39
-0.074980006 -0.070633337 1.141 9.5908636e-39
-0.072615236 -0.070447616 1.138 9.6834124e-39
-0.070447616 -0.070447616 1.138 9.9599993e-39
-0.068039998 -0.070200004 1.1340001 1.0052195e-38
-0.065880001 -0.070200004 1.1340001 1.0236586e-38
-0.063720003 -0.070200004 1.1340001 1.0329501e-38
-0.061560001 -0.070200004 1.1340001 1.0421696e-38
-0.059190478 -0.069952376 1.13 1.0513186e-38
-0.057038095 -0.069952376 1.13 1.0789773e-38
-0.054885715 -0.069952376 1.13 1.0881602e-38
-0.052733332 -0.069952376 1.13 8.3923205e-39
-0.050401904 -0.069704764 1.126 8.1167873e-39
-0.048257146 -0.069704764 1.126 8.6699611e-39
-0.046276189 -0.069952376 1.13 9.5890518e-39
-0.044123806 -0.069952376 1.13 9.8656386e-39
-0.041971426 -0.069952376 1.13 9.1284211e-39
-0.039819047 -0.069952376 1.13 6.5469435e-39
-0.037666667 -0.069952376 1.13 5.9041427e-39
-0.035514288 -0.069952376 1.13 7.1026859e-39
-0.033361904 -0.069952376 1.13 8.2068432e-39
-0.031209525 -0.069952376 1.13 8.0224519e-39
-0.029057143 -0.069952376 1.13 8.4841307e-39
-0.027000003 -0.070200004 1.1340001 1.0881217e-38
-0.024927618 -0.070447616 1.138 1.0881608e-38
-0.02276 -0.070447616 1.138 1.0605021e-38
-0.02059238 -0.070447616 1.138 1.0513188e-38
-0.018424762 -0.070447616 1.138 1.0328797e-38
-0.0163 -0.070633337 1.141 1.0236952e-38
-0.014126667 -0.070633337 1.141 1.0236952e-38
-0.011995239 -0.070880957 1.1450001 1.0052914e-38
-0.0098142866 -0.070880957 1.1450001 9.6841313e-39
-0.0076600001 -0.071128577 1.149 9.498668e-39
-0.0054714289 -0.071128577 1.149 8.1157336e-39
-0.0032828571 -0.071128577 1.149 7.8391467e-39
-0.0010942857 -0.071128577 1.149 1.4569428e-38
0.0010942857 -0.071128577 1.149 1.6502299e-38
-0.088945709 -0.069179997 1.153 1.2077277e-38
-0.086448573 -0.068939999 1.149 8.5731272e-39
-0.084260009 -0.068939999 1.149 8.4809316e-39
-0.082071431 -0.068939999 1.149 8.8522126e-39
-0.079604767 -0.068700008 1.1450001 9.3131907e-39
-0.077423811 -0.068700008 1.1450001 8.9458502e-39
-0.074980006 -0.068460003 1.141 9.6834152e-39
-0.072806664 -0.068460003 1.141 9.775608e-39
-0.070447616 -0.068279997 1.138 9.9599993e-39
-0.068039998 -0.068039998 1.1340001 1.0052195e-38
-0.065880001 -0.068039998 1.1340001 1.0328782e-38
-0.063720003 -0.068039998 1.1340001 1.0329148e-38
-0.061560001 -0.068039998 1.1340001 1.0421343e-38
-0.059400003 -0.068039998 1.1340001 1.0605018e-38
-0.057038095 -0.0678 1.13 1.0881605e-38
-0.054885715 -0.0678 1.13 1.0881605e-38
-0.052733332 -0.0678 1.13 8.5767145e-39
-0.050580952 -0.0678 1.13 7.0104202e-39
-0.048428569 -0.0678 1.13 8.7621371e-39
-0.046276189 -0.0678 1.13 9.127017e-39
-0.044123806 -0.0678 1.13 8.2050607e-39
-0.041971426 -0.0678 1.13 8.4805308e-39
-0.039819047 -0.0678 1.13 6.8210095e-39
-0.037666667 -0.0678 1.13 6.2689497e-39
-0.035514288 -0.0678 1.13 8.3894492e-39
-0.033480003 -0.068039998 1.1340001 8.7585722e-39
-0.031320002 -0.068039998 1.1340001 8.574181e-39
-0.029160002 -0.068039998 1.1340001 7.5617877e-39
-0.027095238 -0.068279997 1.138 1.0788635e-38
-0.024927618 -0.068279997 1.138 1.0789412e-38
-0.02276 -0.068279997 1.138 1.0605021e-38
-0.02059238 -0.068279997 1.138 1.042099e-38
-0.018473335 -0.068460003 1.141 1.042099e-38
-0.0163 -0.068460003 1.141 1.0236952e-38
-0.014126667 -0.068460003 1.141 1.0052561e-38
-0.011995239 -0.068700008 1.1450001 9.9596462e-39
-0.0098142866 -0.068700008 1.1450001 9.8674505e-39
-0.0076600001 -0.068939999 1.149 9.6834124e-39
-0.0054714289 -0.068939999 1.149 8.0238911e-39
-0.0032828571 -0.068939999 1.149 7.9313423e-39
-0.0010942857 -0.068939999 1.149 1.4846015e-38
0.0010942857 -0.068939999 1.149 1.6502299e-38
-0.091774285 -0.067448571 1.161 1.7055478e-38
-0.08925429 -0.067216195 1.1570001 1.3367653e-38
-0.086749524 -0.066983812 1.153 8.2980187e-39
-0.084260009 -0.066751435 1.149 7.7448449e-39
-0.082071431 -0.066751435 1.149 8.4830769e-39
-0.079604767 -0.066519052 1.1450001 9.220642e-39
-0.077423811 -0.066519052 1.1450001 9.0376927e-39
-0.074980006 -0.066286668 1.141 9.7752577e-39
-0.072806664 -0.066286668 1.141 9.775608e-39
-0.070447616 -0.066112377 1.138 9.8678037e-39
-0.068279997 -0.066112377 1.138 9.9596462e-39
-0.065880001 -0.065880001 1.1340001 1.0236233e-38
-0.063720003 -0.065880001 1.1340001 1.0144759e-38
-0.061560001 -0.065880001 1.1340001 1.0421346e-38
-0.059400003 -0.065880001 1.1340001 1.0696135e-38
-0.057240006 -0.065880001 1.1340001 1.0972722e-38
-0.054885715 -0.065647617 1.13 1.1065273e-38
-0.052733332 -0.065647617 1.13 9.4979477e-39
-0.050580952 -0.065647617 1.13 9.0376576e-39
-0.048428569 -0.065647617 1.13 1.0420592e-38
-0.046276189 -0.065647617 1.13 9.2210273e-39
-0.044123806 -0.065647617 1.13 5.4410065e-39
-0.041971426 -0.065647617 1.13 3.874715e-39
-0.039819047 -0.065647617 1.13 4.7044756e-39
-0.037666667 -0.065647617 1.13 6.6377322e-39
-0.035514288 -0.065647617 1.13 9.0348186e-39
-0.033480003 -0.065880001 1.1340001 9.4961373e-39
-0.031320002 -0.065880001 1.1340001 1.0418094e-38
