# .PCD v0.7 - Point Cloud Data file format
VERSION 0.7
FIELDS x y z rgb
SIZE 4 4 4 4
TYPE F F F F
COUNT 1 1 1 1
WIDTH 1022
HEIGHT 1
VIEWPOINT 0 0 0 1 0 0 0
POINTS 1022
DATA ascii
-0.18684 -0.093960002 1.1340001 1.6133516e-38
-0.18533143 -0.094291434 1.138 1.6225002e-38
-0.18316381 -0.094291434 1.138 1.6317197e-38
-0.18099619 -0.094291434 1.138 1.6408324e-38
-0.17882857 -0.094291434 1.138 1.6961497e-38
-0.17712666 -0.094540007 1.141 1.6961144e-38
-0.17495334 -0.094540007 1.141 1.6592362e-38
-0.17278001 -0.094540007 1.141 1.6503346e-38
-0.17060667 -0.094540007 1.141 1.6872128e-38
-0.16902383 -0.094871432 1.1450001 1.6409403e-38
-0.16742572 -0.095202863 1.149 1.6593794e-38
-0.16523714 -0.095202863 1.149 1.640904e-38
-0.16304858 -0.095202863 1.149 1.6777822e-38
-0.16086 -0.095202863 1.149 1.6316478e-38
-0.15867144 -0.095202863 1.149 1.6316478e-38
-0.15648286 -0.095202863 1.149 1.6316125e-38
-0.15483142 -0.09553428 1.153 1.6777103e-38
-0.15263523 -0.09553428 1.153 1.7146242e-38
-0.15043904 -0.09553428 1.153 1.7054046e-38
-0.14721429 -0.094871432 1.1450001 1.7146955e-38
-0.14503334 -0.094871432 1.1450001 1.7423542e-38
-0.14235334 -0.094540007 1.141 1.7791959e-38
-0.14018001 -0.094540007 1.141 1.8068546e-38
-0.12857239 -0.08807715 1.0630001 1.8068546e-38
-0.12654763 -0.08807715 1.0630001 1.8806111e-38
-0.12452286 -0.08807715 1.0630001 1.8992303e-38
-0.12249811 -0.08807715 1.0630001 1.8807911e-38
-0.12092667 -0.088408574 1.067 1.8439852e-38
-0.11889429 -0.088408574 1.067 1.8532047e-38
-0.11751906 -0.088905722 1.0730001 1.8347659e-38
-0.11590572 -0.089237146 1.077 1.8163268e-38
-0.11417143 -0.08948572 1.08 1.7150205e-38
-0.11252954 -0.089817151 1.0840001 1.6228248e-38
-0.11046477 -0.089817151 1.0840001 1.6320074e-38
-0.1087 -0.09006571 1.087 1.57669e-38
-0.10662952 -0.09006571 1.087 1.4292137e-38
-0.10484762 -0.090314284 1.09 1.318579e-38
-0.10380858 -0.091225713 1.1010001 1.410807e-38
-0.10272763 -0.09213715 1.1120001 1.5491004e-38
-0.10060953 -0.09213715 1.1120001 1.5673945e-38
-0.1948362 -0.088561907 1.0940001 7.3788874e-39
-0.19275239 -0.088561907 1.0940001 1.0513539e-38
-0.18997143 -0.088238098 1.09 1.2539312e-38
-0.18789524 -0.088238098 1.09 1.4014442e-38
-0.18240954 -0.086619049 1.0700001 1.4658739e-38
-0.18037143 -0.086619049 1.0700001 1.5949478e-38
-0.17833334 -0.086619049 1.0700001 1.6409387e-38
-0.17629525 -0.086619049 1.0700001 1.7792322e-38
-0.18582 -0.092366666 1.141 1.779269e-38
-0.18364668 -0.092366666 1.141 1.8253668e-38
-0.18147334 -0.092366666 1.141 1.8438773e-38
-0.1793 -0.092366666 1.141 1.8899751e-38
-0.17712666 -0.092366666 1.141 1.5675463e-38
-0.17495334 -0.092366666 1.141 1.0973486e-38
-0.17278001 -0.092366666 1.141 1.2453562e-38
-0.17060667 -0.092366666 1.141 1.5956996e-38
-0.16902383 -0.09269049 1.1450001 1.6687084e-38
-0.16742572 -0.093014285 1.149 1.7516845e-38
-0.16523714 -0.093014285 1.149 1.7977797e-38
-0.16304858 -0.093014285 1.149 1.8899754e-38
-0.16086 -0.093014285 1.149 1.9176328e-38
-0.15867144 -0.093014285 1.149 2.0559263e-38
-0.15648286 -0.093014285 1.149 2.0557477e-38
-0.15536858 -0.093661912 1.1570001 2.1202847e-38
-0.15316477 -0.093661912 1.1570001 2.0374528e-38
-0.15096095 -0.093661912 1.1570001 1.991355e-38
-0.14772858 -0.093014285 1.149 1.9637316e-38
-0.13464668 -0.086052381 1.0630001 1.9729512e-38
-0.13262191 -0.086052381 1.0630001 1.9452925e-38
-0.13108857 -0.08637619 1.067 1.9729512e-38
-0.12857239 -0.086052381 1.0630001 1.9360729e-38
-0.12654763 -0.086052381 1.0630001 1.9360729e-38
-0.12452286 -0.086052381 1.0630001 1.890047e-38
-0.12295906 -0.08637619 1.067 1.8808274e-38
-0.12092667 -0.08637619 1.067 1.8716439e-38
-0.11922857 -0.086619049 1.0700001 1.8808634e-38
-0.11751906 -0.086861916 1.0730001 1.8256182e-38
-0.11590572 -0.087185711 1.077 1.7795204e-38
-0.11417143 -0.08742857 1.08 1.7334226e-38
-0.11252954 -0.087752387 1.0840001 1.6504465e-38
-0.11046477 -0.087752387 1.0840001 1.6503746e-38
-0.1087 -0.087995239 1.087 1.5858377e-38
-0.10662952 -0.087995239 1.087 1.4199604e-38
-0.10484762 -0.088238098 1.09 1.281667e-38
-0.10314858 -0.088561907 1.0940001 1.3646738e-38
-0.1023581 -0.089695238 1.108 1.5675042e-38
-0.10060953 -0.090019055 1.1120001 1.6963581e-38
-0.098491438 -0.090019055 1.1120001 1.7516755e-38
-0.096373342 -0.090019055 1.1120001 1.7332763e-38
-0.19746001 -0.086715236 1.097 1.1341482e-38
-0.1948362 -0.086478107 1.0940001 8.4834049e-39
-0.19204763 -0.086161904 1.09 1.1064882e-38
-0.18997143 -0.086161904 1.09 1.180247e-38
-0.18686098 -0.085687622 1.0840001 1.3738578e-38
-0.18240954 -0.084580958 1.0700001 1.4475077e-38
-0.18037143 -0.084580958 1.0700001 1.5489229e-38
-0.17833334 -0.084580958 1.0700001 1.5859434e-38
-0.17580095 -0.084343813 1.067 1.7057977e-38
-0.17376857 -0.084343813 1.067 1.6780696e-38
-0.17173618 -0.084343813 1.067 1.6688501e-38
-0.16970381 -0.084343813 1.067 1.6782479e-38
-0.17992859 -0.090509534 1.1450001 1.6782479e-38
-0.17774762 -0.090509534 1.1450001 1.2090241e-38
-0.17556667 -0.090509534 1.1450001 8.2180241e-39
-0.17338574 -0.090509534 1.1450001 1.2087643e-38
-0.17120478 -0.090509534 1.1450001 1.5406685e-38
-0.16961429 -0.090825714 1.149 1.4755639e-38
-0.16742572 -0.090825714 1.149 1.6046378e-38
-0.16523714 -0.090825714 1.149 1.6505554e-38
-0.16304858 -0.090825714 1.149 1.6044576e-38
-0.14938 -0.084343813 1.067 1.6687406e-38
-0.14734763 -0.084343813 1.067 1.9084493e-38
-0.14531524 -0.084343813 1.067 1.9270319e-38
-0.15590572 -0.091774285 1.161 1.9639101e-38
-0.14125048 -0.084343813 1.067 1.9730584e-38
-0.13869619 -0.084027618 1.0630001 1.9546192e-38
-0.13667144 -0.084027618 1.0630001 1.9270331e-38
-0.13464668 -0.084027618 1.0630001 1.9178136e-38
-0.13262191 -0.084027618 1.0630001 1.8624609e-38
-0.13059716 -0.084027618 1.0630001 1.9085587e-38
-0.12857239 -0.084027618 1.0630001 1.8902628e-38
-0.1270238 -0.084343813 1.067 1.8626041e-38
-0.12499142 -0.084343813 1.067 1.8256903e-38
-0.12295906 -0.084343813 1.067 1.8349098e-38
-0.12126668 -0.084580958 1.0700001 1.8256903e-38
-0.11922857 -0.084580958 1.0700001 1.8256903e-38
-0.11751906 -0.084818102 1.0730001 1.7980318e-38
-0.11590572 -0.085134283 1.077 1.7980318e-38
-0.1145943 -0.085687622 1.0840001 1.7150205e-38
-0.11252954 -0.085687622 1.0840001 1.641264e-38
-0.11046477 -0.085687622 1.0840001 1.6596661e-38
-0.1087 -0.08592476 1.087 1.6043487e-38
-0.10662952 -0.08592476 1.087 1.5122251e-38
-0.10484762 -0.086161904 1.09 1.3278339e-38
-0.10277143 -0.086161904 1.09 1.4105919e-38
-0.1023581 -0.087584764 1.108 1.7056179e-38
-0.10060953 -0.087900959 1.1120001 1.7976328e-38
-0.098491438 -0.087900959 1.1120001 1.7699741e-38
-0.096373342 -0.087900959 1.1120001 1.7332769e-38
-0.19746001 -0.084625714 1.097 1.2815533e-38
-0.1948362 -0.084394291 1.0940001 1.0142598e-38
-0.19204763 -0.084085718 1.09 1.0972359e-38
-0.18944858 -0.083854288 1.087 1.2262006e-38
-0.18496478 -0.082774296 1.0730001 1.4474701e-38
-0.18240954 -0.082542859 1.0700001 1.3182568e-38
-0.18037143 -0.082542859 1.0700001 1.1799634e-38
-0.17833334 -0.082542859 1.0700001 1.1896108e-38
-0.17580095 -0.082311429 1.067 1.4661976e-38
-0.17376857 -0.082311429 1.067 1.3095402e-38
-0.17173618 -0.082311429 1.067 1.2357837e-38
-0.16970381 -0.082311429 1.067 1.364995e-38
-0.16767143 -0.082311429 1.067 1.4571907e-38
-0.17836857 -0.088637143 1.149 1.2549361e-38
-0.17618001 -0.088637143 1.149 9.230318e-39
-0.16157429 -0.082311429 1.067 1.2365332e-38
-0.15954192 -0.082311429 1.067 1.6975114e-38
-0.16961429 -0.088637143 1.149 1.8349076e-38
-0.15591429 -0.082542859 1.0700001 1.8441271e-38
-0.1538762 -0.082542859 1.0700001 1.7520409e-38
-0.15141238 -0.082311429 1.067 1.5031127e-38
-0.14938 -0.082311429 1.067 1.4390036e-38
-0.14734763 -0.082311429 1.067 1.3929058e-38
-0.14531524 -0.082311429 1.067 1.3560978e-38
-0.14274572 -0.082002863 1.0630001 1.3745369e-38
-0.14072096 -0.082002863 1.0630001 1.4571251e-38
-0.13869619 -0.082002863 1.0630001 1.8351272e-38
-0.13667144 -0.082002863 1.0630001 1.9546918e-38
-0.13464668 -0.082002863 1.0630001 1.9454723e-38
-0.13262191 -0.082002863 1.0630001 1.8993028e-38
-0.13059716 -0.082002863 1.0630001 1.8993028e-38
-0.12857239 -0.082002863 1.0630001 1.8993391e-38
-0.1270238 -0.082311429 1.067 1.8809e-38
-0.12499142 -0.082311429 1.067 1.8533489e-38
-0.12295906 -0.082311429 1.067 1.8625685e-38
-0.12126668 -0.082542859 1.0700001 1.8256549e-38
-0.11922857 -0.082542859 1.0700001 1.8072158e-38
-0.11795714 -0.083082855 1.077 1.7980318e-38
-0.11622858 -0.083314285 1.08 1.8072514e-38
-0.1145943 -0.083622865 1.0840001 1.7334599e-38
-0.11252954 -0.083622865 1.0840001 1.6320447e-38
-0.11046477 -0.083622865 1.0840001 1.6412264e-38
-0.10840001 -0.083622865 1.0840001 1.650446e-38
-0.10662952 -0.083854288 1.087 1.5768337e-38
-0.10484762 -0.084085718 1.09 1.5122967e-38
-0.10277143 -0.084085718 1.09 1.6412251e-38
-0.1023581 -0.085474283 1.108 1.9546903e-38
-0.10024762 -0.085474283 1.108 1.9637666e-38
-0.098137148 -0.085474283 1.108 1.9084493e-38
-0.096026666 -0.085474283 1.108 1.9268884e-38
-0.094255246 -0.085782863 1.1120001 1.9545471e-38
-0.09213715 -0.085782863 1.1120001 2.0005007e-38
-0.089695238 -0.085474283 1.108 2.0465985e-38
-0.087584764 -0.085474283 1.108 2.0927669e-38
-0.085474283 -0.085474283 1.108 2.0190104e-38
-0.083664767 -0.085782863 1.1120001 2.0006789e-38
-0.081546672 -0.085782863 1.1120001 1.6964334e-38
-0.19746001 -0.082536191 1.097 1.281518e-38
-0.1948362 -0.082310483 1.0940001 9.9585602e-39
-0.19204763 -0.082009524 1.09 1.0788321e-38
-0.18822858 -0.081257142 1.08 1.2445318e-38
-0.18496478 -0.080730483 1.0730001 1.2537514e-38
-0.18292096 -0.080730483 1.0730001 1.2262006e-38
-0.18037143 -0.080504768 1.0700001 1.1893224e-38
-0.17833334 -0.080504768 1.0700001 1.0425277e-38
-0.17580095 -0.080279045 1.067 1.2269189e-38
-0.17376857 -0.080279045 1.067 1.1438041e-38
-0.17173618 -0.080279045 1.067 1.2452193e-38
-0.16970381 -0.080279045 1.067 1.4475793e-38
-0.16767143 -0.080279045 1.067 1.5028967e-38
-0.16563906 -0.080279045 1.067 1.337696e-38
-0.16360667 -0.080279045 1.067 1.107207e-38
-0.16157429 -0.080279045 1.067 1.2733051e-38
-0.15954192 -0.080279045 1.067 1.7250637e-38
-0.15795238 -0.080504768 1.0700001 1.8811486e-38
-0.15591429 -0.080504768 1.0700001 1.8627095e-38
-0.15344477 -0.080279045 1.067 1.871895e-38
-0.15141238 -0.080279045 1.067 1.7981385e-38
-0.14938 -0.080279045 1.067 1.6603833e-38
-0.14734763 -0.080279045 1.067 1.4298942e-38
-0.14531524 -0.080279045 1.067 1.0432855e-38
-0.14274572 -0.079978101 1.0630001 1.052505e-38
-0.14072096 -0.079978101 1.0630001 1.3275792e-38
-0.13869619 -0.079978101 1.0630001 1.6594835e-38
-0.13667144 -0.079978101 1.0630001 2.055636e-38
-0.13464668 -0.079978101 1.0630001 2.0648556e-38
-0.13312095 -0.080279045 1.067 1.9454009e-38
-0.13108857 -0.080279045 1.067 1.9177422e-38
-0.12905619 -0.080279045 1.067 1.9085943e-38
-0.1270238 -0.080279045 1.067 1.8993747e-38
-0.12499142 -0.080279045 1.067 1.8533845e-38
-0.12330476 -0.080504768 1.0700001 1.8533845e-38
-0.12126668 -0.080504768 1.0700001 1.8256903e-38
-0.11956286 -0.080730483 1.0730001 1.8164707e-38
-0.11795714 -0.081031427 1.077 1.7979963e-38
-0.11622858 -0.081257142 1.08 1.7887767e-38
-0.1145943 -0.081558101 1.0840001 1.72424e-38
-0.11252954 -0.081558101 1.0840001 1.6597031e-38
-0.11046477 -0.081558101 1.0840001 1.6411548e-38
-0.10840001 -0.081558101 1.0840001 1.6042765e-38
-0.10662952 -0.081783809 1.087 1.5583582e-38
-0.10484762 -0.082009524 1.09 1.6321147e-38
-0.10277143 -0.082009524 1.09 1.7150555e-38
-0.10171143 -0.082837142 1.1010001 1.9547641e-38
-0.099976189 -0.083138093 1.105 1.973166e-38
-0.098137148 -0.083363816 1.108 1.9547269e-38
-0.096026666 -0.083363816 1.108 2.0098294e-38
-0.093916193 -0.083363816 1.108 2.0282685e-38
-0.091805719 -0.083363816 1.108 2.055926e-38
-0.089695238 -0.083363816 1.108 2.0282673e-38
-0.087584764 -0.083363816 1.108 2.0651092e-38
-0.085474283 -0.083363816 1.108 2.0743288e-38
-0.083664767 -0.083664767 1.1120001 2.0468499e-38
-0.081546672 -0.083664767 1.1120001 1.8624586e-38
-0.079428576 -0.083664767 1.1120001 1.6506277e-38
-0.19692002 -0.080226675 1.0940001 1.2815546e-38
-0.19305526 -0.079493344 1.0840001 9.1320715e-39
-0.19099049 -0.079493344 1.0840001 9.0398759e-39
-0.18822858 -0.0792 1.08 9.5912322e-39
-0.18565428 -0.078979999 1.077 9.0380584e-39
-0.18292096 -0.078686669 1.0730001 9.8692134e-39
-0.18037143 -0.078466676 1.0700001 1.3557039e-38
-0.17833334 -0.078466676 1.0700001 1.4939983e-38
-0.17629525 -0.078466676 1.0700001 1.6138526e-38
-0.17425716 -0.078466676 1.0700001 1.5216257e-38
-0.17173618 -0.078246668 1.067 1.5492844e-38
-0.16970381 -0.078246668 1.067 1.4478702e-38
-0.16767143 -0.078246668 1.067 1.3187963e-38
-0.16563906 -0.078246668 1.067 1.2178786e-38
-0.16360667 -0.078246668 1.067 1.2270981e-38
-0.16157429 -0.078246668 1.067 1.4295718e-38
-0.15954192 -0.078246668 1.067 1.7338173e-38
-0.15795238 -0.078466676 1.0700001 1.7890949e-38
-0.15591429 -0.078466676 1.0700001 1.7706558e-38
-0.15344477 -0.078246668 1.067 1.7890258e-38
-0.15141238 -0.078246668 1.067 1.7982454e-38
-0.14938 -0.078246668 1.067 1.7890984e-38
-0.14734763 -0.078246668 1.067 1.9273919e-38
-0.14531524 -0.078246668 1.067 1.9180291e-38
-0.14328286 -0.078246668 1.067 1.8627117e-38
-0.14125048 -0.078246668 1.067 1.6137472e-38
-0.13869619 -0.077953339 1.0630001 1.2634038e-38
-0.13667144 -0.077953339 1.0630001 1.5860497e-38
-0.13515334 -0.078246668 1.067 1.9640518e-38
-0.13312095 -0.078246668 1.067 2.0007183e-38
-0.13108857 -0.078246668 1.067 1.9638401e-38
-0.12941904 -0.078466676 1.0700001 1.9085943e-38
-0.12738095 -0.078466676 1.0700001 1.8993747e-38
-0.12534286 -0.078466676 1.0700001 1.8441647e-38
-0.12330476 -0.078466676 1.0700001 1.8441647e-38
-0.12160668 -0.078686669 1.0730001 1.8441294e-38
-0.11956286 -0.078686669 1.0730001 1.8441294e-38
-0.11751906 -0.078686669 1.0730001 1.8072161e-38
-0.11622858 -0.0792 1.08 1.7979965e-38
-0.1145943 -0.079493344 1.0840001 1.7334596e-38
-0.11252954 -0.079493344 1.0840001 1.6965813e-38
-0.11077047 -0.07971333 1.087 1.5860898e-38
-0.1087 -0.07971333 1.087 1.5031137e-38
-0.10662952 -0.07971333 1.087 1.5030772e-38
-0.10484762 -0.07993333 1.09 1.8165423e-38
-0.10277143 -0.07993333 1.09 2.0745452e-38
-0.10171143 -0.080740005 1.1010001 2.1483017e-38
-0.099614292 -0.080740005 1.1010001 2.1298257e-38
-0.097517148 -0.080740005 1.1010001 2.1667039e-38
-0.095766664 -0.081033334 1.105 2.0099026e-38
-0.093661904 -0.081033334 1.105 1.8992678e-38
-0.091557145 -0.081033334 1.105 1.7609378e-38
-0.089452386 -0.081033334 1.105 1.7517182e-38
-0.087584764 -0.081253335 1.108 1.751717e-38
-0.085474283 -0.081253335 1.108 1.8254735e-38
-0.083664767 -0.081546672 1.1120001 1.9545827e-38
-0.081546672 -0.081546672 1.1120001 2.0652174e-38
-0.079428576 -0.081546672 1.1120001 1.9545136e-38
-0.077310488 -0.081546672 1.1120001 1.7793419e-38
-0.075395241 -0.081766672 1.115 1.6503724e-38
-0.073271424 -0.081766672 1.115 1.659592e-38
-0.19692002 -0.078142866 1.0940001 1.3737136e-38
-0.19305526 -0.077428579 1.0840001 1.1619521e-38
-0.19099049 -0.077428579 1.0840001 8.4848692e-39
-0.18822858 -0.077142857 1.08 8.3940833e-39
-0.18565428 -0.076928571 1.077 9.4082352e-39
-0.18292096 -0.076642863 1.0730001 9.8717371e-39
-0.18037143 -0.076428577 1.0700001 1.4389323e-38
-0.17833334 -0.076428577 1.0700001 1.4849247e-38
-0.17629525 -0.076428577 1.0700001 1.4664856e-38
-0.17425716 -0.076428577 1.0700001 1.4847828e-38
-0.17173618 -0.076214284 1.067 1.5401002e-38
-0.16970381 -0.076214284 1.067 1.3283749e-38
-0.16767143 -0.076214284 1.067 9.0427499e-39
-0.16563906 -0.076214284 1.067 1.0421291e-38
-0.16360667 -0.076214284 1.067 1.383253e-38
-0.16157429 -0.076214284 1.067 1.5491017e-38
-0.15999047 -0.076428577 1.0700001 1.6781756e-38
-0.15795238 -0.076428577 1.0700001 1.5679718e-38
-0.15591429 -0.076428577 1.0700001 1.5126545e-38
-0.1538762 -0.076428577 1.0700001 1.4759573e-38
-0.15183809 -0.076428577 1.0700001 1.6326898e-38
-0.14938 -0.076214284 1.067 1.7427492e-38
-0.14734763 -0.076214284 1.067 1.8902622e-38
-0.14531524 -0.076214284 1.067 2.010007e-38
-0.14274572 -0.075928576 1.0630001 1.9823483e-38
-0.14072096 -0.075928576 1.0630001 1.7982113e-38
-0.13921809 -0.076214284 1.067 1.4755266e-38
-0.13718571 -0.076214284 1.067 1.364962e-38
-0.13515334 -0.076214284 1.067 1.7521836e-38
-0.13349526 -0.076428577 1.0700001 1.9729146e-38
-0.13145715 -0.076428577 1.0700001 1.9729146e-38
-0.12941904 -0.076428577 1.0700001 1.8994468e-38
-0.12738095 -0.076428577 1.0700001 1.8994468e-38
-0.12534286 -0.076428577 1.0700001 1.8809353e-38
-0.12330476 -0.076428577 1.0700001 1.8624962e-38
-0.12160668 -0.076642863 1.0730001 1.8533489e-38
-0.11956286 -0.076642863 1.0730001 1.8441294e-38
-0.11751906 -0.076642863 1.0730001 1.7888489e-38
-0.11622858 -0.077142857 1.08 1.7888489e-38
-0.1145943 -0.077428579 1.0840001 1.7243116e-38
-0.11252954 -0.077428579 1.0840001 1.6689943e-38
-0.11077047 -0.077642858 1.087 1.6413709e-38
-0.1087 -0.077642858 1.087 1.5307361e-38
-0.10662952 -0.077642858 1.087 1.4845645e-38
-0.10484762 -0.077857144 1.09 1.8441274e-38
-0.10277143 -0.077857144 1.09 2.0561793e-38
-0.1013419 -0.078357145 1.097 2.0285206e-38
-0.099614292 -0.07864286 1.1010001 2.0376313e-38
-0.097517148 -0.07864286 1.1010001 2.0191922e-38
-0.09542001 -0.07864286 1.1010001 1.8442729e-38
-0.093661904 -0.078928567 1.105 1.6322229e-38
-0.091557145 -0.078928567 1.105 1.4663055e-38
-0.089452386 -0.078928567 1.105 1.5124034e-38
-0.087347619 -0.078928567 1.105 1.5214427e-38
-0.08524286 -0.078928567 1.105 1.5675405e-38
-0.083138093 -0.078928567 1.105 1.631934e-38
-0.081253335 -0.079142861 1.108 1.7610079e-38
-0.079142861 -0.079142861 1.108 1.9543676e-38
-0.07703238 -0.079142861 1.108 1.8806111e-38
-0.075192392 -0.079428576 1.1120001 1.6597034e-38
-0.073074289 -0.079428576 1.1120001 1.5675077e-38
-0.070956193 -0.079428576 1.1120001 1.6136005e-38
-0.1941238 -0.07578095 1.09 1.1438006e-38
-0.19204763 -0.07578095 1.09 5.9062684e-39
-0.18822858 -0.075085714 1.08 7.567582e-39
-0.18565428 -0.074877143 1.077 1.2269559e-38
-0.18292096 -0.07459905 1.0730001 1.3555982e-38
-0.18087716 -0.07459905 1.0730001 1.5307699e-38
-0.17833334 -0.074390478 1.0700001 1.5122585e-38
-0.17629525 -0.074390478 1.0700001 1.4200628e-38
-0.17425716 -0.074390478 1.0700001 1.4570509e-38
-0.17173618 -0.074181899 1.067 1.6414422e-38
-0.16970381 -0.074181899 1.067 1.3377014e-38
-0.16767143 -0.074181899 1.067 4.5262333e-39
-0.16563906 -0.074181899 1.067 7.663756e-39
-0.16360667 -0.074181899 1.067 1.1812559e-38
-0.16157429 -0.074181899 1.067 1.4938191e-38
-0.15999047 -0.074390478 1.0700001 1.6689908e-38
-0.15795238 -0.074390478 1.0700001 1.5954163e-38
-0.15591429 -0.074390478 1.0700001 1.4847815e-38
-0.1538762 -0.074390478 1.0700001 1.4942532e-38
-0.15183809 -0.074390478 1.0700001 1.7708401e-38
-0.1498 -0.074390478 1.0700001 1.7612252e-38
-0.14734763 -0.074181899 1.067 1.6413709e-38
-0.14531524 -0.074181899 1.067 1.7612557e-38
-0.14274572 -0.073903814 1.0630001 1.8718905e-38
-0.14072096 -0.073903814 1.0630001 1.8718953e-38
-0.13869619 -0.073903814 1.0630001 1.8534561e-38
-0.13718571 -0.074181899 1.067 1.7428561e-38
-0.13515334 -0.074181899 1.067 1.5584649e-38
-0.13349526 -0.074390478 1.0700001 1.696652e-38
-0.13145715 -0.074390478 1.0700001 1.9363606e-38
-0.12941904 -0.074390478 1.0700001 1.9178859e-38
-0.12738095 -0.074390478 1.0700001 1.8994468e-38
-0.12569429 -0.07459905 1.0730001 1.8533492e-38
-0.12365048 -0.07459905 1.0730001 1.8256905e-38
-0.12160668 -0.07459905 1.0730001 1.8441297e-38
-0.11956286 -0.07459905 1.0730001 1.8717883e-38
-0.11795714 -0.074877143 1.077 1.7980328e-38
-0.11622858 -0.075085714 1.08 1.7795937e-38
-0.1145943 -0.075363822 1.0840001 1.7427861e-38
-0.11252954 -0.075363822 1.0840001 1.6690296e-38
-0.11077047 -0.075572379 1.087 1.6136772e-38
-0.1087 -0.075572379 1.087 1.5491402e-38
-0.10692381 -0.07578095 1.09 1.5121869e-38
-0.10484762 -0.07578095 1.09 1.7887737e-38
-0.10314858 -0.076059051 1.0940001 2.0836919e-38
-0.1013419 -0.076267622 1.097 2.0929114e-38
-0.099614292 -0.076545723 1.1010001 1.9454357e-38
-0.097517148 -0.076545723 1.1010001 1.5489945e-38
-0.09542001 -0.076545723 1.1010001 1.4570847e-38
-0.093322858 -0.076545723 1.1010001 1.5031825e-38
-0.091225713 -0.076545723 1.1010001 1.5675042e-38
-0.089128576 -0.076545723 1.1010001 1.6228216e-38
-0.087031431 -0.076545723 1.1010001 1.6320049e-38
-0.08524286 -0.076823808 1.105 1.6412244e-38
-0.082837142 -0.076545723 1.1010001 1.6503721e-38
-0.080740005 -0.076545723 1.1010001 1.6042743e-38
-0.078928567 -0.076823808 1.105 1.6318977e-38
-0.076823808 -0.076823808 1.105 1.8531672e-38
-0.074921906 -0.07703238 1.108 1.7886696e-38
-0.072811432 -0.07703238 1.108 1.5305219e-38
-0.070700951 -0.07703238 1.108 1.5121513e-38
-0.068590477 -0.07703238 1.108 1.7887382e-38
-0.19692002 -0.073975243 1.0940001 1.6134941e-38
-0.1941238 -0.073704764 1.09 1.1439801e-38
-0.19204763 -0.073704764 1.09 6.0924548e-39
-0.18944858 -0.073501907 1.087 8.0274616e-39
-0.18686098 -0.07329905 1.0840001 1.2637243e-38
-0.18411429 -0.073028572 1.08 1.3372673e-38
-0.18087716 -0.072555244 1.0730001 1.3925846e-38
-0.17883334 -0.072555244 1.0730001 1.3557074e-38
-0.17629525 -0.07235238 1.0700001 1.4202443e-38
-0.17425716 -0.07235238 1.0700001 1.4755617e-38
-0.17221905 -0.07235238 1.0700001 1.6138551e-38
-0.17018095 -0.07235238 1.0700001 1.4389005e-38
-0.16814286 -0.07235238 1.0700001 7.2899414e-39
-0.16563906 -0.07214953 1.067 9.2274663e-39
-0.16360667 -0.07214953 1.067 1.3468465e-38
-0.16157429 -0.07214953 1.067 1.4842793e-38
-0.15999047 -0.07235238 1.0700001 1.5856945e-38
-0.15795238 -0.07235238 1.0700001 1.5860503e-38
-0.15591429 -0.07235238 1.0700001 1.5676112e-38
-0.1538762 -0.07235238 1.0700001 1.5400273e-38
-0.15183809 -0.07235238 1.0700001 1.650662e-38
-0.1498 -0.07235238 1.0700001 1.7704785e-38
-0.14776191 -0.07235238 1.0700001 1.7704785e-38
-0.14531524 -0.07214953 1.067 1.761259e-38
-0.14328286 -0.07214953 1.067 1.8257959e-38
-0.14072096 -0.071879052 1.0630001 1.7520416e-38
-0.13869619 -0.071879052 1.0630001 1.7797003e-38
-0.13757144 -0.07235238 1.0700001 1.7613331e-38
-0.13553335 -0.07235238 1.0700001 1.4939658e-38
-0.13349526 -0.07235238 1.0700001 1.5310213e-38
-0.13145715 -0.07235238 1.0700001 1.8813647e-38
-0.12941904 -0.07235238 1.0700001 1.927141e-38
-0.12738095 -0.07235238 1.0700001 1.8810432e-38
-0.12569429 -0.072555244 1.0730001 1.8441297e-38
-0.12365048 -0.072555244 1.0730001 1.8349101e-38
-0.12160668 -0.072555244 1.0730001 1.8164354e-38
-0.11956286 -0.072555244 1.0730001 1.8256549e-38
-0.11795714 -0.072825715 1.077 1.8164357e-38
-0.11622858 -0.073028572 1.08 1.8164357e-38
-0.1145943 -0.07329905 1.0840001 1.7428221e-38
-0.11252954 -0.07329905 1.0840001 1.6506265e-38
-0.11077047 -0.073501907 1.087 1.5953094e-38
-0.1087 -0.073501907 1.087 1.5492115e-38
-0.10692381 -0.073704764 1.09 1.5304825e-38
-0.10523239 -0.073975243 1.0940001 1.7978498e-38
-0.10343143 -0.074178092 1.097 1.8900823e-38
-0.1013419 -0.074178092 1.097 1.8993019e-38
-0.09925238 -0.074178092 1.097 1.7794836e-38
-0.097162858 -0.074178092 1.097 1.5121162e-38
-0.09542001 -0.074448578 1.1010001 1.4845282e-38
-0.093322858 -0.074448578 1.1010001 1.6228216e-38
-0.091225713 -0.074448578 1.1010001 1.6595554e-38
-0.089128576 -0.074448578 1.1010001 1.6872141e-38
-0.087031431 -0.074448578 1.1010001 1.6872504e-38
-0.084934294 -0.074448578 1.1010001 1.7056895e-38
-0.082837142 -0.074448578 1.1010001 1.7148375e-38
-0.080740005 -0.074448578 1.1010001 1.6871788e-38
-0.07864286 -0.074448578 1.1010001 1.6226055e-38
-0.076823808 -0.074719049 1.105 1.7240207e-38
-0.074719049 -0.074719049 1.105 1.8439126e-38
-0.072811432 -0.074921906 1.108 1.604204e-38
-0.070700951 -0.074921906 1.108 1.5581033e-38
-0.068590477 -0.074921906 1.108 1.8070315e-38
-0.19692002 -0.071891434 1.0940001 1.6595917e-38
-0.1941238 -0.071628571 1.09 1.3187903e-38
-0.19204763 -0.071628571 1.09 6.5498176e-39
-0.18944858 -0.071431428 1.087 7.6569162e-39
-0.18686098 -0.071234293 1.0840001 1.116035e-38
-0.18411429 -0.070971429 1.08 1.2081205e-38
-0.18155143 -0.070774287 1.077 1.2634379e-38
-0.1795 -0.070774287 1.077 1.2818089e-38
-0.17678954 -0.070511431 1.0730001 1.4569806e-38
-0.17425716 -0.070314288 1.0700001 1.5031478e-38
-0.17221905 -0.070314288 1.0700001 1.6230021e-38
-0.17018095 -0.070314288 1.0700001 1.4664841e-38
-0.16814286 -0.070314288 1.0700001 7.3813859e-39
-0.16563906 -0.070117146 1.067 1.0054721e-38
-0.16360667 -0.070117146 1.067 1.7061589e-38
-0.16157429 -0.070117146 1.067 1.7518592e-38
-0.15999047 -0.070314288 1.0700001 1.4476136e-38
-0.15795238 -0.070314288 1.0700001 1.355779e-38
-0.15591429 -0.070314288 1.0700001 1.5309507e-38
-0.1538762 -0.070314288 1.0700001 1.5493194e-38
-0.15183809 -0.070314288 1.0700001 1.4479042e-38
-0.1498 -0.070314288 1.0700001 1.5493166e-38
-0.14776191 -0.070314288 1.0700001 1.8904405e-38
-0.14572382 -0.070314288 1.0700001 1.9730584e-38
-0.14368573 -0.070314288 1.0700001 1.9638388e-38
-0.14164762 -0.070314288 1.0700001 1.8534549e-38
-0.13960953 -0.070314288 1.0700001 1.5399897e-38
-0.13757144 -0.070314288 1.0700001 1.512658e-38
-0.13553335 -0.070314288 1.0700001 1.4204623e-38
-0.13349526 -0.070314288 1.0700001 1.4849229e-38
-0.13145715 -0.070314288 1.0700001 1.8998032e-38
-0.12941904 -0.070314288 1.0700001 1.9915701e-38
-0.12738095 -0.070314288 1.0700001 1.9178136e-38
-0.12569429 -0.070511431 1.0730001 1.8993744e-38
-0.12365048 -0.070511431 1.0730001 1.9178136e-38
-0.12160668 -0.070511431 1.0730001 1.8256549e-38
-0.12000857 -0.070774287 1.077 1.8072158e-38
-0.11795714 -0.070774287 1.077 1.8164354e-38
-0.11665906 -0.071234293 1.0840001 1.8256549e-38
-0.1145943 -0.071234293 1.0840001 1.7520056e-38
-0.11284095 -0.071431428 1.087 1.6690296e-38
-0.11077047 -0.071431428 1.087 1.6136769e-38
-0.109 -0.071628571 1.09 1.5767986e-38
-0.10692381 -0.071628571 1.09 1.5398112e-38
-0.10523239 -0.071891434 1.0940001 1.6043482e-38
-0.10343143 -0.072088569 1.097 1.6318624e-38
-0.1013419 -0.072088569 1.097 1.6226428e-38
-0.09925238 -0.072088569 1.097 1.5766519e-38
-0.097162858 -0.072088569 1.097 1.5674323e-38
-0.095073335 -0.072088569 1.097 1.6042393e-38
-0.093322858 -0.072351426 1.1010001 1.6687762e-38
-0.091225713 -0.072351426 1.1010001 1.668775e-38
-0.089128576 -0.072351426 1.1010001 1.6779945e-38
-0.087031431 -0.072351426 1.1010001 1.6872501e-38
-0.084934294 -0.072351426 1.1010001 1.6872501e-38
-0.082837142 -0.072351426 1.1010001 1.7148375e-38
-0.080740005 -0.072351426 1.1010001 1.7978135e-38
-0.07864286 -0.072351426 1.1010001 1.6963993e-38
-0.076823808 -0.07261429 1.105 1.576545e-38
-0.074719049 -0.07261429 1.105 1.6136018e-38
-0.07261429 -0.07261429 1.105 1.7057974e-38
-0.070509523 -0.07261429 1.105 1.6411526e-38
-0.068404764 -0.07261429 1.105 1.7886656e-38
-0.066299997 -0.07261429 1.105 1.8255438e-38
-0.19620001 -0.069552377 1.09 1.6318977e-38
-0.1941238 -0.069552377 1.09 1.4290676e-38
-0.19204763 -0.069552377 1.09 8.6667423e-39
-0.18944858 -0.069360957 1.087 7.9323961e-39
-0.18737811 -0.069360957 1.087 1.143583e-38
-0.18479621 -0.069169529 1.0840001 1.1160693e-38
-0.18205714 -0.068914287 1.08 1.2451432e-38
-0.1795 -0.068722859 1.077 1.2268503e-38
-0.17678954 -0.068467624 1.0730001 1.4112415e-38
-0.17474572 -0.068467624 1.0730001 1.5490664e-38
-0.17270191 -0.068467624 1.0730001 1.4568707e-38
-0.17018095 -0.068276189 1.0700001 1.1992237e-38
-0.16814286 -0.068276189 1.0700001 9.7795415e-39
-0.16610476 -0.068276189 1.0700001 1.1157101e-38
-0.16360667 -0.068084762 1.067 1.7518599e-38
-0.16157429 -0.068084762 1.067 1.6783949e-38
-0.15999047 -0.068276189 1.0700001 1.3741493e-38
-0.15795238 -0.068276189 1.0700001 1.2177376e-38
-0.15591429 -0.068276189 1.0700001 1.4021289e-38
-0.1538762 -0.068276189 1.0700001 1.7059063e-38
-0.15183809 -0.068276189 1.0700001 1.5307346e-38
-0.1498 -0.068276189 1.0700001 1.3191869e-38
-0.14776191 -0.068276189 1.0700001 1.6787498e-38
-0.14572382 -0.068276189 1.0700001 1.8716429e-38
-0.14368573 -0.068276189 1.0700001 1.9453994e-38
-0.14164762 -0.068276189 1.0700001 1.8902625e-38
-0.13960953 -0.068276189 1.0700001 1.5952365e-38
-0.13757144 -0.068276189 1.0700001 1.5585753e-38
-0.13553335 -0.068276189 1.0700001 1.4940384e-38
-0.13349526 -0.068276189 1.0700001 1.4936771e-38
-0.13145715 -0.068276189 1.0700001 1.8440205e-38
-0.12941904 -0.068276189 1.0700001 2.0006802e-38
-0.1277381 -0.068467624 1.0730001 1.9545824e-38
-0.12569429 -0.068467624 1.0730001 1.8533845e-38
-0.12365048 -0.068467624 1.0730001 1.844165e-38
-0.12206001 -0.068722859 1.077 1.8349101e-38
-0.12000857 -0.068722859 1.077 1.8256905e-38
-0.11828572 -0.068914287 1.08 1.8164354e-38
-0.11665906 -0.069169529 1.0840001 1.8072158e-38
-0.1145943 -0.069169529 1.0840001 1.75197e-38
-0.11284095 -0.069360957 1.087 1.6597744e-38
-0.11077047 -0.069360957 1.087 1.6505188e-38
-0.109 -0.069552377 1.09 1.5952015e-38
-0.10692381 -0.069552377 1.09 1.5582859e-38
-0.10523239 -0.069807619 1.0940001 1.5121881e-38
-0.10343143 -0.069999047 1.097 1.5030742e-38
-0.1013419 -0.069999047 1.097 1.549172e-38
-0.09925238 -0.069999047 1.097 1.5766156e-38
-0.097162858 -0.069999047 1.097 1.6227134e-38
-0.095073335 -0.069999047 1.097 1.641081e-38
-0.093322858 -0.070254289 1.1010001 1.6687396e-38
-0.091225713 -0.070254289 1.1010001 1.6503718e-38
-0.082536191 -0.069999047 1.097 1.7056179e-38
-0.080446668 -0.069999047 1.097 1.7609353e-38
-0.078357145 -0.069999047 1.097 1.7332778e-38
-0.076823808 -0.070509523 1.105 1.5857648e-38
-0.074719049 -0.070509523 1.105 1.5859068e-38
-0.07261429 -0.070509523 1.105 1.687322e-38
-0.070509523 -0.070509523 1.105 1.6504427e-38
-0.068404764 -0.070509523 1.105 1.7702971e-38
-0.066299997 -0.070509523 1.105 1.807141e-38
-0.1948362 -0.067723818 1.0940001 1.5303756e-38
-0.19204763 -0.067476191 1.09 9.4032354e-39
-0.18944858 -0.067290477 1.087 8.5777837e-39
-0.18737811 -0.067290477 1.087 1.1620239e-38
-0.18479621 -0.067104764 1.0840001 1.1713514e-38
-0.18205714 -0.066857144 1.08 1.4018405e-38
-0.17999999 -0.066857144 1.08 1.4385755e-38
-0.17744857 -0.066671431 1.077 1.5399907e-38
-0.17474572 -0.066423811 1.0730001 1.5031475e-38
-0.17270191 -0.066423811 1.0730001 9.7763241e-39
-0.1706581 -0.066423811 1.0730001 1.0238706e-38
-0.16814286 -0.066238098 1.0700001 1.4018727e-38
-0.16610476 -0.066238098 1.0700001 1.2447855e-38
-0.16406667 -0.066238098 1.0700001 1.466055e-38
-0.16202858 -0.066238098 1.0700001 1.7241677e-38
-0.15999047 -0.066238098 1.0700001 1.5950938e-38
-0.15795238 -0.066238098 1.0700001 1.3280509e-38
-0.15591429 -0.066238098 1.0700001 1.2819531e-38
-0.1538762 -0.066238098 1.0700001 1.457266e-38
-0.15183809 -0.066238098 1.0700001 1.6324377e-38
-0.1498 -0.066238098 1.0700001 1.6689557e-38
-0.14776191 -0.066238098 1.0700001 1.6597362e-38
-0.14572382 -0.066238098 1.0700001 1.7980274e-38
-0.14368573 -0.066238098 1.0700001 1.825686e-38
-0.14164762 -0.066238098 1.0700001 1.7704432e-38
-0.13960953 -0.066238098 1.0700001 1.6137106e-38
-0.13757144 -0.066238098 1.0700001 1.6045649e-38
-0.13553335 -0.066238098 1.0700001 1.7428584e-38
-0.13349526 -0.066238098 1.0700001 1.7151612e-38
-0.13145715 -0.066238098 1.0700001 1.5215503e-38
-0.12941904 -0.066238098 1.0700001 1.7978132e-38
-0.1277381 -0.066423811 1.0730001 1.9822045e-38
-0.12616286 -0.066671431 1.077 1.9453644e-38
-0.12411143 -0.066671431 1.077 1.8808274e-38
-0.12206001 -0.066671431 1.077 1.8349454e-38
-0.12034287 -0.066857144 1.08 1.844165e-38
-0.11872382 -0.067104764 1.0840001 1.8624962e-38
-0.11665906 -0.067104764 1.0840001 1.7887397e-38
-0.1145943 -0.067104764 1.0840001 1.7518987e-38
-0.11284095 -0.067290477 1.087 1.6597031e-38
-0.11077047 -0.067290477 1.087 1.6228248e-38
-0.109 -0.067476191 1.09 1.5859466e-38
-0.10692381 -0.067476191 1.09 1.5030411e-38
-0.10523239 -0.067723818 1.0940001 1.3739673e-38
-0.10343143 -0.067909524 1.097 1.410808e-38
-0.1013419 -0.067909524 1.097 1.5767601e-38
-0.099614292 -0.068157144 1.1010001 1.6227124e-38
-0.097517148 -0.068157144 1.1010001 1.6227124e-38
-0.09542001 -0.068157144 1.1010001 1.6318967e-38
-0.080446668 -0.067909524 1.097 1.7149093e-38
-0.078357145 -0.067909524 1.097 1.7056908e-38
-0.076545723 -0.068157144 1.1010001 1.5766169e-38
-0.074719049 -0.068404764 1.105 1.5951629e-38
-0.07261429 -0.068404764 1.105 1.7150172e-38
-0.070509523 -0.068404764 1.105 1.6503005e-38
-0.068404764 -0.068404764 1.105 1.7424961e-38
-0.066299997 -0.068404764 1.105 1.8163243e-38
-0.064195238 -0.068404764 1.105 1.8347634e-38
-0.1948362 -0.065640002 1.0940001 1.6041674e-38
-0.19275239 -0.065640002 1.0940001 1.0602132e-38
-0.18944858 -0.065219998 1.087 8.6689073e-39
-0.18737811 -0.065219998 1.087 1.1065994e-38
-0.18479621 -0.065040007 1.0840001 1.1713148e-38
-0.18205714 -0.064800002 1.08 1.3925843e-38
-0.17999999 -0.064800002 1.08 1.420244e-38
-0.17744857 -0.064619996 1.077 1.4018049e-38
-0.17474572 -0.064380005 1.0730001 1.2913124e-38
-0.17270191 -0.064380005 1.0730001 9.594081e-39
-0.1706581 -0.064380005 1.0730001 1.1341454e-38
-0.16814286 -0.064200006 1.0700001 1.5398062e-38
-0.16610476 -0.064200006 1.0700001 1.3182556e-38
-0.16406667 -0.064200006 1.0700001 1.2352795e-38
-0.16202858 -0.064200006 1.0700001 1.8066368e-38
-0.15999047 -0.064200006 1.0700001 1.843515e-38
-0.15795238 -0.064200006 1.0700001 1.5121195e-38
-0.15591429 -0.064200006 1.0700001 1.2539717e-38
-0.1538762 -0.064200006 1.0700001 1.2723723e-38
-0.15226382 -0.064380005 1.0730001 1.5858374e-38
-0.1498 -0.064200006 1.0700001 1.889505e-38
-0.14776191 -0.064200006 1.0700001 1.8526267e-38
-0.14572382 -0.064200006 1.0700001 1.7796611e-38
-0.14368573 -0.064200006 1.0700001 1.7427828e-38
-0.14164762 -0.064200006 1.0700001 1.6414425e-38
-0.13960953 -0.064200006 1.0700001 1.6414425e-38
-0.13757144 -0.064200006 1.0700001 1.6413358e-38
-0.13553335 -0.064200006 1.0700001 1.7704097e-38
-0.13386953 -0.064380005 1.0730001 1.7154854e-38
-0.13182572 -0.064380005 1.0730001 1.4849963e-38
-0.12978192 -0.064380005 1.0730001 1.6043472e-38
-0.1277381 -0.064380005 1.0730001 1.8532754e-38
-0.12569429 -0.064380005 1.0730001 1.9729139e-38
-0.12411143 -0.064619996 1.077 1.9360356e-38
-0.12206001 -0.064619996 1.077 1.8348745e-38
-0.12034287 -0.064800002 1.08 1.8625332e-38
-0.11872382 -0.065040007 1.0840001 1.8809e-38
-0.11665906 -0.065040007 1.0840001 1.8163631e-38
-0.1145943 -0.065040007 1.0840001 1.7610104e-38
-0.11284095 -0.065219998 1.087 1.705693e-38
-0.11077047 -0.065219998 1.087 1.6136766e-38
-0.109 -0.065400004 1.09 1.5767983e-38
-0.1073162 -0.065640002 1.0940001 1.5030409e-38
-0.10523239 -0.065640002 1.0940001 1.3831865e-38
-0.10343143 -0.065820001 1.097 1.4383575e-38
-0.10171143 -0.066060007 1.1010001 1.6135292e-38
-0.099614292 -0.066060007 1.1010001 1.6226406e-38
-0.097517148 -0.066060007 1.1010001 1.6226406e-38
-0.09542001 -0.066060007 1.1010001 1.5949822e-38
-0.080740005 -0.066060007 1.1010001 1.7149091e-38
-0.07864286 -0.066060007 1.1010001 1.6965431e-38
-0.076545723 -0.066060007 1.1010001 1.5490301e-38
-0.074719049 -0.066299997 1.105 1.6043812e-38
-0.07261429 -0.066299997 1.105 1.715016e-38
-0.070509523 -0.066299997 1.105 1.613422e-38
-0.068404764 -0.066299997 1.105 1.7424959e-38
-0.066299997 -0.066299997 1.105 1.7978135e-38
-0.064195238 -0.066299997 1.105 1.8070331e-38
-0.19537048 -0.063730478 1.097 1.5950194e-38
-0.19275239 -0.063556202 1.0940001 1.1524804e-38
-0.18944858 -0.063149519 1.087 8.5774334e-39
-0.18737811 -0.063149519 1.087 8.2086509e-39
-0.18479621 -0.062975243 1.0840001 9.2217308e-39
-0.18273145 -0.062975243 1.0840001 1.0789057e-38
-0.17999999 -0.062742859 1.08 1.0237302e-38
-0.17794287 -0.062742859 1.08 9.6841285e-39
-0.17539714 -0.062568568 1.077 1.1159952e-38
-0.17334571 -0.062568568 1.077 1.2542887e-38
-0.1706581 -0.062336192 1.0730001 1.5212251e-38
-0.1686143 -0.062336192 1.0730001 1.7793729e-38
-0.16657048 -0.062336192 1.0730001 1.5120109e-38
-0.16406667 -0.062161908 1.0700001 8.7586101e-39
-0.16202858 -0.062161908 1.0700001 1.2173076e-38
-0.15999047 -0.062161908 1.0700001 1.8811161e-38
-0.15795238 -0.062161908 1.0700001 1.8715375e-38
-0.15591429 -0.062161908 1.0700001 1.7332441e-38
-0.15430763 -0.062336192 1.0730001 1.3924089e-38
-0.15226382 -0.062336192 1.0730001 1.0973829e-38
-0.15022002 -0.062336192 1.0730001 1.337091e-38
-0.14817619 -0.062336192 1.0730001 1.6228974e-38
-0.14613239 -0.062336192 1.0730001 1.7059416e-38
-0.14408858 -0.062336192 1.0730001 1.7520394e-38
-0.14204477 -0.062336192 1.0730001 1.7979577e-38
-0.14000095 -0.062336192 1.0730001 1.8440555e-38
-0.13795716 -0.062336192 1.0730001 1.6596681e-38
-0.13591334 -0.062336192 1.0730001 1.5582529e-38
-0.13386953 -0.062336192 1.0730001 1.5035058e-38
-0.13182572 -0.062336192 1.0730001 1.5403841e-38
-0.12978192 -0.062336192 1.0730001 1.5493898e-38
-0.1277381 -0.062336192 1.0730001 1.503292e-38
-0.12569429 -0.062336192 1.0730001 1.6505163e-38
-0.12411143 -0.062568568 1.077 1.8164684e-38
-0.12206001 -0.062568568 1.077 1.8624612e-38
-0.12034287 -0.062742859 1.08 1.8993394e-38
-0.11872382 -0.062975243 1.0840001 1.9084861e-38
-0.11665906 -0.062975243 1.0840001 1.8347296e-38
-0.1145943 -0.062975243 1.0840001 1.7610457e-38
-0.11284095 -0.063149519 1.087 1.7426066e-38
-0.11077047 -0.063149519 1.087 1.6228962e-38
-0.109 -0.063323811 1.09 1.5767983e-38
-0.1073162 -0.063556202 1.0940001 1.5122607e-38
-0.10523239 -0.063556202 1.0940001 1.3831868e-38
-0.10343143 -0.063730478 1.097 1.4659824e-38
-0.10171143 -0.063962862 1.1010001 1.6134954e-38
-0.099614292 -0.063962862 1.1010001 1.6226403e-38
-0.097517148 -0.063962862 1.1010001 1.6410794e-38
-0.080740005 -0.063962862 1.1010001 1.7149091e-38
-0.07864286 -0.063962862 1.1010001 1.6873235e-38
-0.076823808 -0.064195238 1.105 1.5305909e-38
-0.074719049 -0.064195238 1.105 1.567539e-38
-0.07261429 -0.064195238 1.105 1.7703694e-38
-0.070509523 -0.064195238 1.105 1.7147661e-38
-0.068404764 -0.064195238 1.105 1.7424248e-38
-0.066299997 -0.064195238 1.105 1.7702264e-38
-0.064195238 -0.064195238 1.105 1.7702264e-38
-0.062090475 -0.064195238 1.105 1.7794107e-38
-0.19537048 -0.061640952 1.097 1.5674689e-38
-0.19275239 -0.061472386 1.0940001 1.143369e-38
-0.18997143 -0.061247624 1.09 9.7730899e-39
-0.18737811 -0.061079051 1.087 9.5886986e-39
-0.18479621 -0.060910482 1.0840001 8.9462005e-39
-0.18273145 -0.060910482 1.0840001 9.1305917e-39
-0.18066667 -0.060910482 1.0840001 8.8536545e-39
-0.17794287 -0.060685717 1.08 1.0328785e-38
-0.17539714 -0.060517143 1.077 1.2997401e-38
-0.17334571 -0.060517143 1.077 1.5302291e-38
-0.17129429 -0.060517143 1.077 1.6224986e-38
-0.1686143 -0.060292382 1.0730001 1.7792312e-38
-0.16657048 -0.060292382 1.0730001 1.6135349e-38
-0.16406667 -0.060123812 1.0700001 9.6816552e-39
-0.16202858 -0.060123812 1.0700001 1.0056126e-38
-0.16043906 -0.060292382 1.0730001 1.7523972e-38
-0.15795238 -0.060123812 1.0700001 1.9083792e-38
-0.15591429 -0.060123812 1.0700001 1.8438423e-38
-0.15430763 -0.060292382 1.0730001 1.6230041e-38
-0.15226382 -0.060292382 1.0730001 1.1159281e-38
-0.15022002 -0.060292382 1.0730001 9.6892138e-39
-0.14817619 -0.060292382 1.0730001 1.2178496e-38
-0.14613239 -0.060292382 1.0730001 1.383149e-38
-0.14408858 -0.060292382 1.0730001 1.4569055e-38
-0.14204477 -0.060292382 1.0730001 1.6225352e-38
-0.14000095 -0.060292382 1.0730001 1.6317547e-38
-0.13795716 -0.060292382 1.0730001 1.5399907e-38
-0.13591334 -0.060292382 1.0730001 1.5031125e-38
-0.13386953 -0.060292382 1.0730001 1.4206033e-38
-0.13182572 -0.060292382 1.0730001 1.5220185e-38
-0.12978192 -0.060292382 1.0730001 1.5678299e-38
-0.1277381 -0.060292382 1.0730001 1.3834386e-38
-0.12569429 -0.060292382 1.0730001 1.32812e-38
-0.12411143 -0.060517143 1.077 1.5862678e-38
-0.12206001 -0.060517143 1.077 1.6965811e-38
-0.12034287 -0.060685717 1.08 1.8533136e-38
-0.11872382 -0.060910482 1.0840001 1.8624612e-38
-0.1169819 -0.061079051 1.087 1.7979242e-38
-0.11491142 -0.061079051 1.087 1.7058006e-38
-0.11284095 -0.061079051 1.087 1.7058006e-38
-0.11107619 -0.061247624 1.09 1.622968e-38
-0.109 -0.061247624 1.09 1.5676507e-38
-0.10692381 -0.061247624 1.09 1.5123323e-38
-0.10523239 -0.061472386 1.0940001 1.4016976e-38
-0.10314858 -0.061472386 1.0940001 1.4660537e-38
-0.1013419 -0.061640952 1.097 1.5766885e-38
-0.099614292 -0.061865721 1.1010001 1.5857623e-38
-0.081253335 -0.062259048 1.108 1.7056895e-38
-0.079142861 -0.062259048 1.108 1.6872867e-38
-0.07703238 -0.062259048 1.108 1.5397737e-38
-0.074921906 -0.062259048 1.108 1.5397011e-38
-0.072811432 -0.062259048 1.108 1.7333119e-38
-0.070509523 -0.062090475 1.105 1.7332053e-38
-0.068404764 -0.062090475 1.105 1.7700835e-38
-0.066299997 -0.062090475 1.105 1.7333485e-38
-0.064195238 -0.062090475 1.105 1.7610072e-38
-0.062090475 -0.062090475 1.105 1.7701911e-38
-0.19537048 -0.059551429 1.097 1.6042393e-38
-0.19275239 -0.059388574 1.0940001 1.2907741e-38
-0.18997143 -0.059171431 1.09 1.0420624e-38
-0.18737811 -0.059008572 1.087 1.0789407e-38
-0.18479621 -0.058845717 1.0840001 1.1802826e-38
-0.18273145 -0.058845717 1.0840001 1.3462347e-38
-0.18066667 -0.058845717 1.0840001 1.429032e-38
-0.17794287 -0.05862857 1.08 1.576545e-38
-0.17588572 -0.05862857 1.08 1.5764739e-38
-0.17334571 -0.058465712 1.077 1.65945e-38
-0.17129429 -0.058465712 1.077 1.6595216e-38
-0.1686143 -0.058248572 1.0730001 1.7701564e-38
-0.16657048 -0.058248572 1.0730001 1.6505564e-38
-0.16406667 -0.058085714 1.0700001 9.6830873e-39
-0.16202858 -0.058085714 1.0700001 9.5941651e-39
-0.16043906 -0.058248572 1.0730001 1.687762e-38
-0.15839526 -0.058248572 1.0730001 1.8899401e-38
-0.15635143 -0.058248572 1.0730001 1.9452574e-38
-0.15430763 -0.058248572 1.0730001 1.844165e-38
-0.15226382 -0.058248572 1.0730001 1.844165e-38
-0.15022002 -0.058248572 1.0730001 1.7798075e-38
-0.14817619 -0.058248572 1.0730001 1.558538e-38
-0.14613239 -0.058248572 1.0730001 1.3279436e-38
-0.14408858 -0.058248572 1.0730001 1.3371631e-38
-0.14204477 -0.058248572 1.0730001 1.3922284e-38
-0.14000095 -0.058248572 1.0730001 1.3276915e-38
-0.13795716 -0.058248572 1.0730001 1.4662677e-38
-0.13591334 -0.058248572 1.0730001 1.650659e-38
-0.13386953 -0.058248572 1.0730001 1.6598097e-38
-0.13182572 -0.058248572 1.0730001 1.6782489e-38
-0.12978192 -0.058248572 1.0730001 1.6228967e-38
-0.12821428 -0.058465712 1.077 1.4569446e-38
-0.12616286 -0.058465712 1.077 1.4385052e-38
-0.12411143 -0.058465712 1.077 1.6136769e-38
-0.1224 -0.05862857 1.08 1.7056933e-38
-0.12034287 -0.05862857 1.08 1.9085237e-38
-0.11872382 -0.058845717 1.0840001 1.8715735e-38
-0.1169819 -0.059008572 1.087 1.8070366e-38
-0.11491142 -0.059008572 1.087 1.733387e-38
-0.11284095 -0.059008572 1.087 1.6965088e-38
-0.11107619 -0.059171431 1.09 1.6321157e-38
-0.109 -0.059171431 1.09 1.5675788e-38
-0.10692381 -0.059171431 1.09 1.4662705e-38
-0.10484762 -0.059171431 1.09 1.4109531e-38
-0.10314858 -0.059388574 1.0940001 1.4660903e-38
-0.1013419 -0.059551429 1.097 1.5490664e-38
-0.09925238 -0.059551429 1.097 1.5857989e-38
-0.082060009 -0.06074572 1.1190001 1.7056532e-38
-0.079642855 -0.060528573 1.115 1.6597352e-38
-0.077310488 -0.060365722 1.1120001 1.5030026e-38
-0.075192392 -0.060365722 1.1120001 1.5673254e-38
-0.072811432 -0.060148574 1.108 1.7148384e-38
-0.070509523 -0.059985716 1.105 1.7423532e-38
-0.068404764 -0.059985716 1.105 1.8437684e-38
-0.066299997 -0.059985716 1.105 1.7885937e-38
-0.064195238 -0.059985716 1.105 1.7793741e-38
-0.062090475 -0.059985716 1.105 1.7701911e-38
-0.19328095 -0.057461902 1.097 1.3460552e-38
-0.18997143 -0.057095237 1.09 1.1617002e-38
-0.18737811 -0.056938093 1.087 1.1063829e-38
-0.18479621 -0.056780957 1.0840001 1.2169823e-38
-0.18273145 -0.056780957 1.0840001 1.3737149e-38
-0.18066667 -0.056780957 1.0840001 1.4107341e-38
-0.17794287 -0.056571428 1.08 1.5582471e-38
-0.17588572 -0.056571428 1.08 1.5305566e-38
-0.17334571 -0.056414288 1.077 1.585874e-38
-0.17129429 -0.056414288 1.077 1.5584301e-38
-0.16924286 -0.056414288 1.077 1.6782844e-38
-0.16657048 -0.056204766 1.0730001 1.6139662e-38
-0.16406667 -0.056047622 1.0700001 1.1437685e-38
-0.16202858 -0.056047622 1.0700001 9.7699216e-39
-0.16043906 -0.056204766 1.0730001 1.5486051e-38
-0.15839526 -0.056204766 1.0730001 1.9265634e-38
-0.15635143 -0.056204766 1.0730001 1.9818808e-38
-0.15430763 -0.056204766 1.0730001 1.8532766e-38
-0.15226382 -0.056204766 1.0730001 1.8901549e-38
-0.15022002 -0.056204766 1.0730001 1.9085943e-38
-0.14817619 -0.056204766 1.0730001 1.8624965e-38
-0.14613239 -0.056204766 1.0730001 1.7703003e-38
-0.14408858 -0.056204766 1.0730001 1.7703003e-38
-0.14204477 -0.056204766 1.0730001 1.7978158e-38
-0.14000095 -0.056204766 1.0730001 1.7793766e-38
-0.13795716 -0.056204766 1.0730001 1.7794107e-38
-0.13591334 -0.056204766 1.0730001 1.8347281e-38
-0.13386953 -0.056204766 1.0730001 1.871536e-38
-0.13182572 -0.056204766 1.0730001 1.8530968e-38
-0.12978192 -0.056204766 1.0730001 1.8255463e-38
-0.12821428 -0.056414288 1.077 1.7794485e-38
-0.12616286 -0.056414288 1.077 1.7609731e-38
-0.12411143 -0.056414288 1.077 1.7794122e-38
-0.1224 -0.056571428 1.08 1.8622804e-38
-0.12078858 -0.056780957 1.0840001 1.9360369e-38
-0.11905239 -0.056938093 1.087 1.8348395e-38
-0.1169819 -0.056938093 1.087 1.7703025e-38
-0.11491142 -0.056938093 1.087 1.7610094e-38
-0.11284095 -0.056938093 1.087 1.7241311e-38
-0.11107619 -0.057095237 1.09 1.6504832e-38
-0.109 -0.057095237 1.09 1.5859463e-38
-0.10692381 -0.057095237 1.09 1.4662702e-38
-0.10484762 -0.057095237 1.09 1.4201724e-38
-0.10314858 -0.057304766 1.0940001 1.4476512e-38
-0.1013419 -0.057461902 1.097 1.5490664e-38
-0.09925238 -0.057461902 1.097 1.5858705e-38
-0.082353331 -0.058823813 1.123 1.6687394e-38
-0.079928577 -0.058614291 1.1190001 1.6044894e-38
-0.077519052 -0.058404762 1.115 1.5583916e-38
-0.075192392 -0.058247626 1.1120001 1.6226443e-38
-0.072811432 -0.058038097 1.108 1.6871813e-38
-0.070509523 -0.057880953 1.105 1.7330611e-38
-0.068404764 -0.057880953 1.105 1.8160371e-38
-0.066299997 -0.057880953 1.105 1.7701185e-38
-0.064195238 -0.057880953 1.105 1.7793381e-38
-0.062090475 -0.057880953 1.105 1.7701551e-38
-0.19537048 -0.05537238 1.097 1.604203e-38
-0.19328095 -0.05537238 1.097 1.4290313e-38
-0.18997143 -0.055019047 1.09 1.1433725e-38
-0.18737811 -0.054867618 1.087 1.0511769e-38
-0.18479621 -0.054716196 1.0840001 1.0238409e-38
-0.18273145 -0.054716196 1.0840001 8.6710836e-39
-0.18066667 -0.054716196 1.0840001 9.2256516e-39
-0.17794287 -0.054514285 1.08 1.2821281e-38
-0.17588572 -0.054514285 1.08 1.4198155e-38
-0.17382857 -0.054514285 1.08 1.5765481e-38
-0.17129429 -0.05436286 1.077 1.5492106e-38
-0.16924286 -0.05436286 1.077 1.6506258e-38
-0.16657048 -0.054160956 1.0730001 1.6783217e-38
-0.16452667 -0.054160956 1.0730001 1.5861261e-38
-0.16248286 -0.054160956 1.0730001 8.8569938e-39
-0.16043906 -0.054160956 1.0730001 5.5379511e-39
-0.15839526 -0.054160956 1.0730001 1.2172722e-38
-0.15635143 -0.054160956 1.0730001 1.8626417e-38
-0.15430763 -0.054160956 1.0730001 1.9084861e-38
-0.15226382 -0.054160956 1.0730001 1.8439492e-38
-0.15077999 -0.05436286 1.077 1.8440571e-38
-0.14872858 -0.05436286 1.077 1.908594e-38
-0.14613239 -0.054160956 1.0730001 1.9269613e-38
-0.14408858 -0.054160956 1.0730001 1.9638395e-38
-0.14204477 -0.054160956 1.0730001 1.9637679e-38
-0.14000095 -0.054160956 1.0730001 2.0006461e-38
-0.13795716 -0.054160956 1.0730001 1.9546202e-38
-0.13591334 -0.054160956 1.0730001 1.9638398e-38
-0.13386953 -0.054160956 1.0730001 1.9269618e-38
-0.13231714 -0.05436286 1.077 1.9177422e-38
-0.13026571 -0.05436286 1.077 1.9268896e-38
-0.12821428 -0.05436286 1.077 1.9545483e-38
-0.12616286 -0.05436286 1.077 1.890012e-38
-0.12411143 -0.05436286 1.077 1.8715728e-38
-0.1224 -0.054514285 1.08 1.8715728e-38
-0.12078858 -0.054716196 1.0840001 1.9176706e-38
-0.11905239 -0.054867618 1.087 1.8255476e-38
-0.1169819 -0.054867618 1.087 1.7886693e-38
-0.11491142 -0.054867618 1.087 1.7610447e-38
-0.11315238 -0.055019047 1.09 1.733386e-38
-0.11107619 -0.055019047 1.09 1.6966167e-38
-0.109 -0.055019047 1.09 1.604421e-38
-0.1073162 -0.055220958 1.0940001 1.5030409e-38
-0.10523239 -0.055220958 1.0940001 1.4661626e-38
-0.10343143 -0.05537238 1.097 1.4843509e-38
-0.1013419 -0.05537238 1.097 1.5857661e-38
-0.09925238 -0.05537238 1.097 1.5950182e-38
-0.082353331 -0.056684762 1.123 1.6135292e-38
-0.079928577 -0.056482859 1.1190001 1.5859771e-38
-0.077797145 -0.056482859 1.1190001 1.715051e-38
-0.075395241 -0.056280952 1.115 1.7793056e-38
