# .PCD v0.7 - Point Cloud Data file format
VERSION 0.7
FIELDS x y z rgba
SIZE 4 4 4 4
TYPE F F F U
COUNT 1 1 1 1
WIDTH 1149
HEIGHT 1
VIEWPOINT 0 0 0 1 0 0 0
POINTS 1149
DATA ascii
-0.08916191 0.18245715 0.62 10457702
-0.08812286 0.18275145 0.62100005 10786667
-0.087080002 0.18304573 0.62200004 10656108
-0.08589524 0.18304573 0.62200004 10458729
-0.084710479 0.18304573 0.62200004 10589799
-0.083659999 0.18334 0.62300003 10524006
-0.08247333 0.18334 0.62300003 9932891
-0.081286669 0.18334 0.62300003 9538133
-0.080228575 0.1836343 0.62400001 9472074
-0.079040006 0.1836343 0.62400001 9472074
-0.07785143 0.1836343 0.62400001 9406277
-0.076785713 0.18392856 0.625 9472070
-0.07583715 0.18451715 0.62700003 9472070
-0.074761905 0.18481143 0.62800002 9603656
-0.073565714 0.18481143 0.62800002 9473092
-0.0726 0.18540001 0.63000005 9538885
-0.07151334 0.18569431 0.63100004 9603672
-0.070422858 0.18598858 0.63200003 9669465
-0.0694381 0.18657714 0.634 9603933
-0.068338096 0.18687144 0.63500005 9801312
-0.067234285 0.18716572 0.63600004 9145165
-0.066126674 0.18746001 0.63700002 9737302
-0.065219052 0.18834287 0.64000005 9606488
-0.064099997 0.18863715 0.64100003 9869660
-0.062879048 0.18863715 0.64100003 10722630
-0.061658099 0.18863715 0.64100003 11643732
-0.060625713 0.1892257 0.64300001 11707510
-0.059493337 0.18952002 0.64400005 13747093
-0.13671429 0.18896952 0.63800001 16776412
-0.13549905 0.18896952 0.63800001 16249297
-0.13407335 0.18867335 0.63700002 13683370
-0.13244288 0.18808097 0.63500005 12696713
-0.13123335 0.18808097 0.63500005 9999200
-0.12981905 0.18778476 0.634 9801573
-0.12800287 0.1868962 0.63100004 9012057
-0.1261981 0.18600763 0.62800002 8880719
-0.12480287 0.18571143 0.62700003 8485961
-0.12321428 0.18511905 0.625 8551513
-0.12182858 0.18482287 0.62400001 8485720
-0.12064 0.18482287 0.62400001 8813638
-0.11926001 0.18452667 0.62300003 9339982
-0.11807334 0.18452667 0.62300003 9405775
-0.11688667 0.18452667 0.62300003 9339982
-0.11570001 0.18452667 0.62300003 9603154
-0.11432952 0.18423049 0.62200004 10063705
-0.11314477 0.18423049 0.62200004 9932114
-0.11196 0.18423049 0.62200004 9866321
-0.11059715 0.1839343 0.62100005 9931855
-0.10941429 0.1839343 0.62100005 10195027
-0.10823144 0.1839343 0.62100005 10260568
-0.10687619 0.1836381 0.62 10194775
-0.10552476 0.18334191 0.61900002 10128741
-0.10434572 0.18334191 0.61900002 9997155
-0.10316667 0.18334191 0.61900002 10128728
-0.10198762 0.18334191 0.61900002 10194521
-0.10080858 0.18334191 0.61900002 10391382
-0.099629521 0.18334191 0.61900002 10522968
-0.098450474 0.18334191 0.61900002 10522979
-0.097271428 0.18334191 0.61900002 10522979
-0.096092381 0.18334191 0.61900002 10523999
-0.094913334 0.18334191 0.61900002 10523999
-0.093734287 0.18334191 0.61900002 10129239
-0.09255524 0.18334191 0.61900002 9997653
-0.091376193 0.18334191 0.61900002 9865826
-0.090342857 0.1836381 0.62 9734240
-0.089305721 0.1839343 0.62100005 9734494
-0.08812286 0.1839343 0.62100005 9800287
-0.087080002 0.18423049 0.62200004 9537361
-0.086033337 0.18452667 0.62300003 9339982
-0.084846668 0.18452667 0.62300003 9208398
-0.083659999 0.18452667 0.62300003 9142605
-0.08247333 0.18452667 0.62300003 9143382
-0.081417143 0.18482287 0.62400001 8880210
-0.080357142 0.18511905 0.625 9472072
-0.079166666 0.18511905 0.625 9472072
-0.07797619 0.18511905 0.625 9603658
-0.077031434 0.18571143 0.62700003 9932623
-0.07583715 0.18571143 0.62700003 9472842
-0.074761905 0.18600763 0.62800002 9472842
-0.073565714 0.18600763 0.62800002 9472842
-0.0726 0.18660001 0.63000005 9538635
-0.07151334 0.1868962 0.63100004 9406552
-0.070422858 0.18719238 0.63200003 9340759
-0.069547623 0.18808097 0.63500005 9472599
-0.068338096 0.18808097 0.63500005 9998943
-0.067234285 0.18837714 0.63600004 9539675
-0.066230476 0.18896952 0.63800001 9802847
-0.065219052 0.1895619 0.64000005 9933918
-0.064099997 0.18985811 0.64100003 10591848
-0.062977143 0.19015428 0.64200002 11247954
-0.061946671 0.19074668 0.64400005 12432228
-0.060720004 0.19074668 0.64400005 12365694
-0.059493337 0.19074668 0.64400005 14471070
-0.13428381 0.19018476 0.63800001 13881259
-0.13244288 0.18929049 0.63500005 12828812
-0.13123335 0.18929049 0.63500005 10131299
-0.13002382 0.18929049 0.63500005 9670759
-0.12861143 0.18899238 0.634 8815450
-0.12700191 0.1883962 0.63200003 8487757
-0.12500191 0.18720382 0.62800002 8158792
-0.12360857 0.18690571 0.62700003 7830093
-0.12202381 0.18630952 0.625 7764300
-0.12083333 0.18630952 0.625 7828778
-0.11945143 0.18601142 0.62400001 8026157
-0.11826286 0.18601142 0.62400001 8945994
-0.11707429 0.18601142 0.62400001 8880201
-0.11570001 0.18571334 0.62300003 9078604
-0.11432952 0.18541524 0.62200004 9078604
-0.11314477 0.18541524 0.62200004 9077064
-0.11196 0.18541524 0.62200004 9077064
-0.11059715 0.18511716 0.62100005 9536843
-0.10941429 0.18511716 0.62100005 9668429
-0.10823144 0.18511716 0.62100005 9865558
-0.10704858 0.18511716 0.62100005 9865558
-0.10586572 0.18511716 0.62100005 9602645
-0.10451429 0.18481904 0.62 9865817
-0.10333333 0.18481904 0.62 9669726
-0.10198762 0.18452096 0.61900002 9603933
-0.10080858 0.18452096 0.61900002 9866330
-0.099629521 0.18452096 0.61900002 9866330
-0.098450474 0.18452096 0.61900002 9668177
-0.097271428 0.18452096 0.61900002 9931349
-0.096247613 0.18481904 0.62 9867098
-0.095066667 0.18481904 0.62 9472340
-0.093734287 0.18452096 0.61900002 9340234
-0.09255524 0.18452096 0.61900002 9340234
-0.091523804 0.18481904 0.62 9208398
-0.090342857 0.18481904 0.62 9208398
-0.089305721 0.18511716 0.62100005 9209173
-0.088264771 0.18541524 0.62200004 8748622
-0.087080002 0.18541524 0.62200004 8879683
-0.086033337 0.18571334 0.62300003 8945476
-0.084846668 0.18571334 0.62300003 8814408
-0.083659999 0.18571334 0.62300003 8814408
-0.08247333 0.18571334 0.62300003 9143121
-0.081417143 0.18601142 0.62400001 9077328
-0.080357142 0.18630952 0.625 9537867
-0.079166666 0.18630952 0.625 9603660
-0.07797619 0.18630952 0.625 9472849
-0.077031434 0.18690571 0.62700003 9341263
-0.07583715 0.18690571 0.62700003 9143623
-0.074761905 0.18720382 0.62800002 9143623
-0.07368286 0.18750191 0.62900001 9143359
-0.0726 0.18780002 0.63000005 9143359
-0.07151334 0.1880981 0.63100004 8945742
-0.070422858 0.1883962 0.63200003 9406293
-0.0694381 0.18899238 0.634 9275729
-0.068338096 0.18929049 0.63500005 9736280
-0.067234285 0.18958858 0.63600004 9539412
-0.066230476 0.19018476 0.63800001 9999963
-0.065320954 0.19107905 0.64100003 10328919
-0.064200006 0.19137713 0.64200002 10855263
-0.063075244 0.19167525 0.64300001 12233318
-0.061946671 0.19197336 0.64400005 12759662
-0.060720004 0.19197336 0.64400005 12562553
-0.059493337 0.19197336 0.64400005 14338964
-0.13407335 0.19110002 0.63700002 14209963
-0.13244288 0.19050001 0.63500005 13025678
-0.13123335 0.19050001 0.63500005 10525544
-0.13002382 0.19050001 0.63500005 9604204
-0.12861143 0.1902 0.634 8683102
-0.12700191 0.18960001 0.63200003 8487503
-0.12520096 0.18870001 0.62900001 8619089
-0.12360857 0.1881 0.62700003 7896658
-0.12202381 0.1875 0.625 7830865
-0.12083333 0.1875 0.625 8092211
-0.11945143 0.18719999 0.62400001 7763246
-0.11826286 0.18719999 0.62400001 8222030
-0.11707429 0.18719999 0.62400001 8945753
-0.11570001 0.1869 0.62300003 9210188
-0.11432952 0.1866 0.62200004 9210188
-0.11314477 0.1866 0.62200004 8945742
-0.11196 0.1866 0.62200004 8550984
-0.11059715 0.18630002 0.62100005 8879951
-0.10941429 0.18630002 0.62100005 8945744
-0.10823144 0.18630002 0.62100005 9076814
-0.10704858 0.18630002 0.62100005 9076814
-0.10586572 0.18630002 0.62100005 8945994
-0.10451429 0.186 0.62 8880201
-0.10333333 0.186 0.62 8749135
-0.10215238 0.186 0.62 8749135
-0.10097143 0.186 0.62 8880208
-0.099790476 0.186 0.62 8814415
-0.098609522 0.186 0.62 9010760
-0.097428575 0.186 0.62 9208139
-0.096247613 0.186 0.62 9011523
-0.095066667 0.186 0.62 8814144
-0.093885712 0.186 0.62 9011271
-0.092704765 0.186 0.62 9142857
-0.091523804 0.186 0.62 8880703
-0.090488575 0.18630002 0.62100005 8814910
-0.089305721 0.18630002 0.62100005 8749378
-0.088264771 0.1866 0.62200004 8551999
-0.087080002 0.1866 0.62200004 8683331
-0.086033337 0.1869 0.62300003 8749124
-0.084846668 0.1869 0.62300003 8749133
-0.083794288 0.18719999 0.62400001 8749133
-0.082605712 0.18719999 0.62400001 9011785
-0.081417143 0.18719999 0.62400001 9011785
-0.080357142 0.1875 0.625 9275461
-0.079166666 0.1875 0.625 9209668
-0.07797619 0.1875 0.625 8947018
-0.077031434 0.1881 0.62700003 8881225
-0.07583715 0.1881 0.62700003 8880710
-0.074761905 0.1884 0.62800002 8880710
-0.07368286 0.18870001 0.62900001 9012275
-0.0726 0.18900001 0.63000005 9275447
-0.07151334 0.18930002 0.63100004 9735008
-0.070422858 0.18960001 0.63200003 10590317
-0.0694381 0.1902 0.634 10590828
-0.068338096 0.19050001 0.63500005 10590828
-0.067234285 0.19080001 0.63600004 11183465
-0.066230476 0.19140001 0.63800001 12038774
-0.065422855 0.19260001 0.64200002 12104310
-0.064300001 0.1929 0.64300001 12433275
-0.063173339 0.19320001 0.64400005 12826232
-0.061946671 0.19320001 0.64400005 13220990
-0.060720004 0.19320001 0.64400005 12694139
-0.059493337 0.19320001 0.64400005 14009999
-0.13549905 0.19261524 0.63800001 16446412
-0.13407335 0.19231333 0.63700002 14341036
-0.13265143 0.19201145 0.63600004 13157518
-0.13123335 0.19170953 0.63500005 10591591
-0.13002382 0.19170953 0.63500005 9604446
-0.12861143 0.19140762 0.634 8814930
-0.12740381 0.19140762 0.634 8356687
-0.12579811 0.19080381 0.63200003 8290894
-0.12400286 0.1898981 0.62900001 7765331
-0.12241429 0.18929429 0.62700003 7765331
-0.12083333 0.18869047 0.625 8223563
-0.11945143 0.18838857 0.62400001 7697219
-0.11826286 0.18838857 0.62400001 7695929
-0.11707429 0.18838857 0.62400001 8945996
-0.11588571 0.18838857 0.62400001 9407063
-0.11451334 0.18808667 0.62300003 9275477
-0.11332667 0.18808667 0.62300003 8945742
-0.11196 0.18778478 0.62200004 8682570
-0.11077525 0.18778478 0.62200004 8945226
-0.10941429 0.18748286 0.62100005 8682054
-0.10823144 0.18748286 0.62100005 8354118
-0.10704858 0.18748286 0.62100005 8354118
-0.10586572 0.18748286 0.62100005 8749133
-0.10468286 0.18748286 0.62100005 8683340
-0.10333333 0.18718095 0.62 8223815
-0.10215238 0.18718095 0.62 8223815
-0.10097143 0.18718095 0.62 8419650
-0.099790476 0.18718095 0.62 8814408
-0.098609522 0.18718095 0.62 8814408
-0.097428575 0.18718095 0.62 8814408
-0.096247613 0.18718095 0.62 8945476
-0.095066667 0.18718095 0.62 8945476
-0.093885712 0.18718095 0.62 9011523
-0.092704765 0.18718095 0.62 9011523
-0.091523804 0.18718095 0.62 8420411
-0.090488575 0.18748286 0.62100005 8815169
-0.089305721 0.18748286 0.62100005 8683842
-0.088264771 0.18778478 0.62200004 8683842
-0.087080002 0.18778478 0.62200004 8552510
-0.086033337 0.18808667 0.62300003 8618303
-0.084846668 0.18808667 0.62300003 8815441
-0.083659999 0.18808667 0.62300003 8354890
-0.08247333 0.18808667 0.62300003 8289079
-0.081417143 0.18838857 0.62400001 8618044
-0.080357142 0.18869047 0.625 8683583
-0.079166666 0.18869047 0.625 8551997
-0.07797619 0.18869047 0.625 8420656
-0.077031434 0.18929429 0.62700003 8881207
-0.07583715 0.18929429 0.62700003 8750128
-0.074761905 0.18959619 0.62800002 8815921
-0.073800005 0.19020002 0.63000005 9735762
-0.0726 0.19020002 0.63000005 9801555
-0.07151334 0.19050191 0.63100004 10655333
-0.070422858 0.19080381 0.63200003 11115884
-0.0694381 0.19140762 0.634 11182440
-0.068338096 0.19170953 0.63500005 11445612
-0.067234285 0.19201145 0.63600004 11839868
-0.066230476 0.19261524 0.63800001 12366212
-0.065524764 0.19412477 0.64300001 12431737
-0.064300001 0.19412477 0.64300001 12629116
-0.063173339 0.19442667 0.64400005 12431737
-0.061946671 0.19442667 0.64400005 12629116
-0.060720004 0.19442667 0.64400005 12562551
-0.059493337 0.19442667 0.64400005 13352067
-0.13549905 0.19383048 0.63800001 16446407
-0.13407335 0.19352667 0.63700002 14669996
-0.13265143 0.19322287 0.63600004 13682322
-0.13123335 0.19291906 0.63500005 10919016
-0.13002382 0.19291906 0.63500005 9472867
-0.12881429 0.19291906 0.63500005 9012316
-0.12740381 0.19261524 0.634 8225369
-0.12619619 0.19261524 0.634 8159576
-0.12400286 0.19109619 0.62900001 7830865
-0.12260953 0.19079238 0.62800002 7107142
-0.12122001 0.19048859 0.62700003 7695953
-0.11964285 0.18988095 0.625 7695953
-0.11826286 0.18957715 0.62400001 7695434
-0.11707429 0.18957715 0.62400001 8221778
-0.11588571 0.18957715 0.62400001 8617542
-0.11469714 0.18957715 0.62400001 8617542
-0.11332667 0.18927334 0.62300003 8617279
-0.11214 0.18927334 0.62300003 8683072
-0.11077525 0.18896954 0.62200004 8551495
-0.10959049 0.18896954 0.62200004 8485702
-0.10823144 0.18866573 0.62100005 8420172
-0.10704858 0.18866573 0.62100005 8288586
-0.10586572 0.18866573 0.62100005 8486472
-0.10468286 0.18866573 0.62100005 8749644
-0.10350001 0.18866573 0.62100005 8486476
-0.10231715 0.18866573 0.62100005 8618062
-0.10113429 0.18866573 0.62100005 8617288
-0.099951431 0.18866573 0.62100005 8880460
-0.098609522 0.1883619 0.62 8945992
-0.097428575 0.1883619 0.62 8748613
-0.096247613 0.1883619 0.62 8814660
-0.095066667 0.1883619 0.62 8748867
-0.093885712 0.1883619 0.62 9011519
-0.092704765 0.1883619 0.62 9011519
-0.091523804 0.1883619 0.62 8748615
-0.090488575 0.18866573 0.62100005 8945994
-0.089305721 0.18866573 0.62100005 8684355
-0.088264771 0.18896954 0.62200004 8618562
-0.087080002 0.18896954 0.62200004 7829550
-0.086033337 0.18927334 0.62300003 7829550
-0.084846668 0.18927334 0.62300003 8157768
-0.083659999 0.18927334 0.62300003 7960389
-0.08247333 0.18927334 0.62300003 8222782
-0.081417143 0.18957715 0.62400001 8551747
-0.080357142 0.18988095 0.625 8748867
-0.079166666 0.18988095 0.625 9077832
-0.07797619 0.18988095 0.625 9209418
-0.077031434 0.19048859 0.62700003 10130520
-0.07583715 0.19048859 0.62700003 10526028
-0.07488095 0.19109619 0.62900001 10657614
-0.073800005 0.19140001 0.63000005 11117683
-0.0726 0.19140001 0.63000005 11117683
-0.07151334 0.19170383 0.63100004 11839598
-0.070645712 0.19261524 0.634 11971184
-0.0694381 0.19261524 0.634 11840102
-0.068338096 0.19291906 0.63500005 12234860
-0.067234285 0.19322287 0.63600004 12299908
-0.066230476 0.19383048 0.63800001 12299908
-0.065524764 0.19534953 0.64300001 12365692
-0.064300001 0.19534953 0.64300001 12563071
-0.063173339 0.19565335 0.64400005 12497276
-0.061946671 0.19565335 0.64400005 12760448
-0.060908575 0.19626096 0.64600003 12628862
-0.059678096 0.19626096 0.64600003 13155206
-0.13549905 0.19504571 0.63800001 16577998
-0.13428381 0.19504571 0.63800001 14867380
-0.13265143 0.19443429 0.63600004 14076308
-0.13144001 0.19443429 0.63600004 11576174
-0.13022858 0.19443429 0.63600004 10065515
-0.12881429 0.19412859 0.63500005 8881241
-0.12760478 0.19412859 0.63500005 8290894
-0.12619619 0.19382286 0.634 8290894
-0.12459429 0.19321144 0.63200003 8092999
-0.12260953 0.19198859 0.62800002 7369276
-0.12141334 0.19198859 0.62800002 7629870
-0.11964285 0.19107142 0.625 7761456
-0.11845238 0.19107142 0.625 7104310
-0.1172619 0.19107142 0.625 7564861
-0.11607143 0.19107142 0.625 7696186
-0.11469714 0.19076571 0.62400001 7827772
-0.11350857 0.19076571 0.62400001 8025151
-0.11214 0.19046 0.62300003 7893565
-0.11077525 0.1901543 0.62200004 7828276
-0.10959049 0.1901543 0.62200004 7959862
-0.10840572 0.1901543 0.62200004 8749135
-0.10722096 0.1901543 0.62200004 8551756
-0.10603619 0.1901543 0.62200004 8289093
-0.10485144 0.1901543 0.62200004 8486472
-0.10350001 0.18984859 0.62100005 8486476
-0.10231715 0.18984859 0.62100005 8618062
-0.10113429 0.18984859 0.62100005 8552258
-0.099951431 0.18984859 0.62100005 8815430
-0.098768577 0.18984859 0.62100005 8815439
-0.097428575 0.18954286 0.62 8618060
-0.096247613 0.18954286 0.62 8683594
-0.095066667 0.18954286 0.62 8552008
-0.093885712 0.18954286 0.62 8551486
-0.092704765 0.18954286 0.62 8617279
-0.091523804 0.18954286 0.62 8551238
-0.090488575 0.18984859 0.62100005 8551238
-0.089305721 0.18984859 0.62100005 8552265
-0.088264771 0.1901543 0.62200004 8486472
-0.087080002 0.1901543 0.62200004 7567641
-0.086033337 0.19046 0.62300003 7765020
-0.084846668 0.19046 0.62300003 7961915
-0.083659999 0.19046 0.62300003 8159294
-0.082605712 0.19076571 0.62400001 8552265
-0.081417143 0.19076571 0.62400001 8618058
-0.080357142 0.19107142 0.625 8946480
-0.079166666 0.19107142 0.625 9472824
-0.07797619 0.19107142 0.625 9801030
-0.077031434 0.19168288 0.62700003 10722132
-0.07583715 0.19168288 0.62700003 10657375
-0.07488095 0.19229428 0.62900001 10986340
-0.073800005 0.19260001 0.63000005 11248765
-0.072715245 0.19290572 0.63100004 11380351
-0.07151334 0.19290572 0.63100004 11904889
-0.070645712 0.19382286 0.634 12036475
-0.0694381 0.19382286 0.634 11971184
-0.068338096 0.19412859 0.63500005 11971184
-0.067234285 0.19443429 0.63600004 12036223
-0.066126674 0.19474 0.63700002 12167809
-0.065524764 0.19657429 0.64300001 12168054
-0.064300001 0.19657429 0.64300001 12562812
-0.063173339 0.19688001 0.64400005 12497276
-0.061946671 0.19688001 0.64400005 12760448
-0.060908575 0.19749144 0.64600003 12498041
-0.059678096 0.19749144 0.64600003 13090178
-0.13549905 0.19626096 0.63800001 16512198
-0.13428381 0.19626096 0.63800001 14998959
-0.13265143 0.19564572 0.63600004 14011285
-0.13144001 0.19564572 0.63600004 11774323
-0.13022858 0.19564572 0.63600004 10262915
-0.12881429 0.1953381 0.63500005 9802364
-0.12760478 0.1953381 0.63500005 9473882
-0.12619619 0.19503047 0.634 9408089
-0.12459429 0.19441526 0.63200003 9472606
-0.12280477 0.19349238 0.62900001 9604192
-0.12141334 0.19318476 0.62800002 9669701
-0.11964285 0.1922619 0.625 9143357
-0.11845238 0.1922619 0.625 8814919
-0.1172619 0.1922619 0.625 8288575
-0.11607143 0.1922619 0.625 7827539
-0.11469714 0.19195428 0.62400001 6972230
-0.11350857 0.19195428 0.62400001 7169609
-0.11214 0.19164667 0.62300003 6972230
-0.11077525 0.19133905 0.62200004 7104042
-0.10959049 0.19133905 0.62200004 7630386
-0.10840572 0.19133905 0.62200004 8420159
-0.10722096 0.19133905 0.62200004 8617538
-0.10603619 0.19133905 0.62200004 8617288
-0.10485144 0.19133905 0.62200004 8617288
-0.10350001 0.19103144 0.62100005 8749394
-0.10231715 0.19103144 0.62100005 8880980
-0.10113429 0.19103144 0.62100005 8552258
-0.099951431 0.19103144 0.62100005 8683844
-0.098768577 0.19103144 0.62100005 8289356
-0.097585723 0.19103144 0.62100005 8091977
-0.096402861 0.19103144 0.62100005 8157768
-0.095220007 0.19103144 0.62100005 8157768
-0.094037145 0.19103144 0.62100005 8288827
-0.092854291 0.19103144 0.62100005 8420413
-0.09167143 0.19103144 0.62100005 8550984
-0.090488575 0.19103144 0.62100005 8287812
-0.089449525 0.19133905 0.62200004 8485965
-0.088264771 0.19133905 0.62200004 9143895
-0.087219998 0.19164667 0.62300003 9210172
-0.086033337 0.19164667 0.62300003 9275965
-0.084846668 0.19164667 0.62300003 9669444
-0.083659999 0.19164667 0.62300003 9998409
-0.082605712 0.19195428 0.62400001 10064234
-0.081417143 0.19195428 0.62400001 10393199
-0.080357142 0.1922619 0.625 10722391
-0.079166666 0.1922619 0.625 11248735
-0.07797619 0.1922619 0.625 11378786
-0.077031434 0.19287716 0.62700003 11839337
-0.07583715 0.19287716 0.62700003 11248497
-0.07488095 0.19349238 0.62900001 11182704
-0.073800005 0.19380002 0.63000005 11380094
-0.072715245 0.19410764 0.63100004 11445887
-0.07151334 0.19410764 0.63100004 11707512
-0.070645712 0.19503047 0.634 11575926
-0.0694381 0.19503047 0.634 11905904
-0.068338096 0.1953381 0.63500005 12037490
-0.067234285 0.19564572 0.63600004 12102520
-0.066126674 0.19595334 0.63700002 12299899
-0.065524764 0.19779904 0.64300001 12233593
-0.064300001 0.19779904 0.64300001 12562558
-0.063173339 0.19810669 0.64400005 12431996
-0.062139049 0.1987219 0.64600003 13155719
-0.060908575 0.1987219 0.64600003 12629632
-0.058447622 0.1987219 0.64600003 14274457
-0.13549905 0.19747619 0.63800001 16380614
-0.13428381 0.19747619 0.63800001 15262133
-0.13265143 0.19685715 0.63600004 13880471
-0.13144001 0.19685715 0.63600004 11511923
-0.13002382 0.19654763 0.63500005 11249537
-0.12881429 0.19654763 0.63500005 10131056
-0.12760478 0.19654763 0.63500005 9998943
-0.12619619 0.1962381 0.634 9735771
-0.12459429 0.19561906 0.63200003 9800278
-0.12280477 0.19469048 0.62900001 9931864
-0.12141334 0.19438095 0.62800002 9735762
-0.11964285 0.19345237 0.625 9735762
-0.11845238 0.19345237 0.625 9801312
-0.1172619 0.19345237 0.625 9406554
-0.11607143 0.19345237 0.625 8355919
-0.11469714 0.19314286 0.62400001 7895368
-0.11350857 0.19314286 0.62400001 7500358
-0.11214 0.19283333 0.62300003 6776635
-0.11095334 0.19283333 0.62300003 7037202
-0.10976667 0.19283333 0.62300003 8024097
-0.10840572 0.19252382 0.62200004 8222269
-0.10722096 0.19252382 0.62200004 8485441
-0.10603619 0.19252382 0.62200004 8485965
-0.10485144 0.19252382 0.62200004 8551758
-0.10366667 0.19252382 0.62200004 8814928
-0.10248192 0.19252382 0.62200004 8749135
-0.10113429 0.1922143 0.62100005 8355651
-0.099951431 0.1922143 0.62100005 8355651
-0.098768577 0.1922143 0.62100005 7960389
-0.097585723 0.1922143 0.62100005 7960389
-0.096402861 0.1922143 0.62100005 7697737
-0.095220007 0.1922143 0.62100005 7829323
-0.094037145 0.1922143 0.62100005 8026436
-0.092854291 0.1922143 0.62100005 8223815
-0.09167143 0.1922143 0.62100005 8682054
-0.090634294 0.19252382 0.62200004 8682054
-0.089449525 0.19252382 0.62200004 8747838
-0.088264771 0.19252382 0.62200004 9603147
-0.087219998 0.19283333 0.62300003 9932092
-0.086033337 0.19283333 0.62300003 10063678
-0.084982857 0.19314286 0.62400001 10391114
-0.083794288 0.19314286 0.62400001 10588493
-0.082605712 0.19314286 0.62400001 10260586
-0.081417143 0.19314286 0.62400001 10589551
-0.080357142 0.19345237 0.625 11182179
-0.079166666 0.19345237 0.625 11313765
-0.07797619 0.19345237 0.625 11575658
-0.076785713 0.19345237 0.625 11509865
-0.07583715 0.19407144 0.62700003 10787432
-0.07488095 0.19469048 0.62900001 10984811
-0.07391715 0.19530953 0.63100004 10984823
-0.072715245 0.19530953 0.63100004 10721651
-0.07151334 0.19530953 0.63100004 10524274
-0.070645712 0.1962381 0.634 10524274
-0.0694381 0.1962381 0.634 10458733
-0.068338096 0.19654763 0.63500005 10985077
-0.067234285 0.19685715 0.63600004 11773303
-0.066126674 0.19716667 0.63700002 12102268
-0.065524764 0.19902381 0.64300001 12167800
-0.064300001 0.19902381 0.64300001 12562558
-0.063173339 0.19933335 0.64400005 12366201
-0.061946671 0.19933335 0.64400005 12826752
-0.061002858 0.20026191 0.64700001 12367734
-0.05977048 0.20026191 0.64700001 12894078
-0.13549905 0.19869143 0.63800001 16314569
-0.13428381 0.19869143 0.63800001 15261881
-0.13265143 0.19806859 0.63600004 14012055
-0.13144001 0.19806859 0.63600004 11314542
-0.13002382 0.19775715 0.63500005 10393979
-0.12881429 0.19775715 0.63500005 10459772
-0.12760478 0.19775715 0.63500005 9867616
-0.12619619 0.19744572 0.634 9801823
-0.12459429 0.19682287 0.63200003 9867607
-0.12280477 0.19588856 0.62900001 9867607
-0.12141334 0.19557714 0.62800002 9604176
-0.12002572 0.19526573 0.62700003 9275211
-0.11883143 0.19526573 0.62700003 9341004
-0.11763714 0.19526573 0.62700003 9209418
-0.11607143 0.19464286 0.625 9013070
-0.11469714 0.19433144 0.62400001 9078863
-0.11350857 0.19433144 0.62400001 8355149
-0.11214 0.19402 0.62300003 8289356
-0.11095334 0.19402 0.62300003 7695432
-0.10976667 0.19402 0.62300003 8550741
-0.10840572 0.19370858 0.62200004 7827783
-0.10722096 0.19370858 0.62200004 7696197
-0.10603619 0.19370858 0.62200004 8156494
-0.10485144 0.19370858 0.62200004 8288080
-0.10366667 0.19370858 0.62200004 8683594
-0.10248192 0.19370858 0.62200004 8617801
-0.10113429 0.19339715 0.62100005 8682824
-0.099951431 0.19339715 0.62100005 8814410
-0.098768577 0.19339715 0.62100005 8944974
-0.097742863 0.19370858 0.62200004 9273939
-0.096558101 0.19370858 0.62200004 9406302
-0.095220007 0.19339715 0.62100005 9537888
-0.094037145 0.19339715 0.62100005 10129764
-0.092854291 0.19339715 0.62100005 10195557
-0.091819048 0.19370858 0.62200004 10260838
-0.090634294 0.19370858 0.62200004 10129252
-0.089449525 0.19370858 0.62200004 10787671
-0.088406667 0.19402 0.62300003 10985050
-0.087219998 0.19402 0.62300003 10722130
-0.086033337 0.19402 0.62300003 10787923
-0.084982857 0.19433144 0.62400001 10918739
-0.083794288 0.19433144 0.62400001 10721360
-0.082605712 0.19433144 0.62400001 10720624
-0.081417143 0.19433144 0.62400001 10720624
-0.080357142 0.19464286 0.625 10524492
-0.079166666 0.19464286 0.625 10063941
-0.07797619 0.19464286 0.625 9668688
-0.076785713 0.19464286 0.625 9405516
-0.07583715 0.19526573 0.62700003 8946244
-0.07488095 0.19588856 0.62900001 8748865
-0.07391715 0.19651145 0.63100004 8092479
-0.072715245 0.19651145 0.63100004 7631928
-0.07151334 0.19651145 0.63100004 7367239
-0.070645712 0.19744572 0.634 6840895
-0.069547623 0.19775715 0.63500005 7105350
-0.06844572 0.19806859 0.63600004 7368522
-0.067234285 0.19806859 0.63600004 8812653
-0.066230476 0.19869143 0.63800001 12036510
-0.065524764 0.20024857 0.64300001 12299388
-0.064300001 0.20024857 0.64300001 12562560
-0.063173339 0.20056 0.64400005 12366451
-0.061946671 0.20056 0.64400005 12958588
-0.061002858 0.20149428 0.64700001 12630906
-0.05977048 0.20149428 0.64700001 12959871
-0.058809526 0.20242858 0.65000004 13814183
-0.13671429 0.19990668 0.63800001 16446666
-0.13549905 0.19990668 0.63800001 16183244
-0.13428381 0.19990668 0.63800001 15393728
-0.13265143 0.19928001 0.63600004 14012568
-0.13144001 0.19928001 0.63600004 11446641
-0.13002382 0.19896668 0.63500005 9934181
-0.12881429 0.19896668 0.63500005 10131560
-0.12760478 0.19896668 0.63500005 9801821
-0.12619619 0.19865333 0.634 9801821
-0.12459429 0.19802667 0.63200003 9802334
-0.12319525 0.19771335 0.63100004 9670748
-0.12160667 0.19708668 0.62900001 9276242
-0.12002572 0.19646001 0.62700003 9078863
-0.11883143 0.19646001 0.62700003 8880971
-0.11763714 0.19646001 0.62700003 8880971
-0.11607143 0.19583333 0.625 8552519
-0.11469714 0.19552 0.62400001 8618312
-0.11350857 0.19552 0.62400001 8289608
-0.11214 0.19520667 0.62300003 8158022
-0.11095334 0.19520667 0.62300003 7499050
-0.10976667 0.19520667 0.62300003 8091187
-0.10840572 0.19489335 0.62200004 7630895
-0.10722096 0.19489335 0.62200004 7762481
-0.10603619 0.19489335 0.62200004 8025664
-0.10485144 0.19489335 0.62200004 8354629
-0.10366667 0.19489335 0.62200004 8618035
-0.10248192 0.19489335 0.62200004 8683828
-0.10129715 0.19489335 0.62200004 9208132
-0.099951431 0.19458002 0.62100005 9537097
-0.098768577 0.19458002 0.62100005 9864016
-0.097742863 0.19489335 0.62200004 10127188
-0.096558101 0.19489335 0.62200004 10325605
-0.09537334 0.19489335 0.62200004 10588777
-0.094188571 0.19489335 0.62200004 10457965
-0.093003817 0.19489335 0.62200004 10392172
-0.091819048 0.19489335 0.62200004 10787698
-0.090634294 0.19489335 0.62200004 10656112
-0.089449525 0.19489335 0.62200004 10919018
-0.088406667 0.19520667 0.62300003 10919018
-0.087219998 0.19520667 0.62300003 10524510
-0.086033337 0.19520667 0.62300003 10656096
-0.084982857 0.19552 0.62400001 10787948
-0.083794288 0.19552 0.62400001 10393190
-0.082605712 0.19552 0.62400001 10128991
-0.081417143 0.19552 0.62400001 10128991
-0.080357142 0.19583333 0.625 9274443
-0.079166666 0.19583333 0.625 8879685
-0.07797619 0.19583333 0.625 8026436
-0.076785713 0.19583333 0.625 8026436
-0.07583715 0.19646001 0.62700003 7436609
-0.075000003 0.19740002 0.63000005 6712886
-0.07391715 0.19771335 0.63100004 6253625
-0.072715245 0.19771335 0.63100004 5924660
-0.071626663 0.19802667 0.63200003 6054478
-0.070645712 0.19865333 0.634 5462341
-0.069547623 0.19896668 0.63500005 5397052
-0.06844572 0.19928001 0.63600004 5002294
-0.067234285 0.19928001 0.63600004 8615986
-0.066438094 0.20053335 0.64000005 12103015
-0.065524764 0.20147333 0.64300001 12496515
-0.064400002 0.20178668 0.64400005 12628101
-0.063173339 0.20178668 0.64400005 12300660
-0.062139049 0.20241334 0.64600003 12892797
-0.061002858 0.20272668 0.64700001 12630911
-0.060047623 0.20366667 0.65000004 12894083
-0.058809526 0.20366667 0.65000004 13747615
-0.057748571 0.20429334 0.65200001 16774607
-0.13592382 0.20175239 0.64000005 16249037
-0.13470477 0.20175239 0.64000005 15459521
-0.13286 0.20080668 0.63700002 14275740
-0.13144001 0.20049143 0.63600004 11775606
-0.13022858 0.20049143 0.63600004 10328699
-0.12881429 0.20017619 0.63500005 10328699
-0.12760478 0.20017619 0.63500005 9670746
-0.12619619 0.19986096 0.634 9144402
-0.12459429 0.19923049 0.63200003 9407063
-0.12280477 0.19828476 0.62900001 9341270
-0.12160667 0.19828476 0.62900001 9341522
-0.12021714 0.19796953 0.62800002 9275729
-0.11902096 0.19796953 0.62800002 9275218
-0.11763714 0.19765431 0.62700003 9406804
-0.11644286 0.19765431 0.62700003 9208400
-0.11488095 0.19702381 0.625 9208400
-0.11350857 0.19670857 0.62400001 9274191
-0.11232001 0.19670857 0.62400001 9274191
-0.11095334 0.19639334 0.62300003 9734992
-0.10976667 0.19639334 0.62300003 9866578
-0.10840572 0.19607811 0.62200004 9800535
-0.10722096 0.19607811 0.62200004 9800535
-0.10620667 0.19639334 0.62300003 9735008
-0.10502 0.19639334 0.62300003 10327145
-0.10366667 0.19607811 0.62200004 10130502
-0.10248192 0.19607811 0.62200004 10525260
-0.10129715 0.19607811 0.62200004 10524256
-0.10011239 0.19607811 0.62200004 10853221
-0.098927625 0.19607811 0.62200004 10456675
-0.097742863 0.19607811 0.62200004 10390882
-0.096558101 0.19607811 0.62200004 10589792
-0.09537334 0.19607811 0.62200004 11116136
-0.094188571 0.19607811 0.62200004 10589549
-0.093003817 0.19607811 0.62200004 10128998
-0.091819048 0.19607811 0.62200004 10655587
-0.090634294 0.19607811 0.62200004 10721380
-0.089593336 0.19639334 0.62300003 10261336
-0.088406667 0.19639334 0.62300003 10063957
-0.087219998 0.19639334 0.62300003 9472086
-0.086033337 0.19639334 0.62300003 9274707
-0.084982857 0.19670857 0.62400001 8222802
-0.083794288 0.19670857 0.62400001 7762251
-0.082605712 0.19670857 0.62400001 7498773
-0.081417143 0.19670857 0.62400001 7367187
-0.080357142 0.19702381 0.625 6316831
-0.079166666 0.19702381 0.625 5790487
-0.07797619 0.19702381 0.625 5528610
-0.077031434 0.19765431 0.62700003 5594403
-0.075958095 0.19796953 0.62800002 5069601
-0.075119056 0.19891524 0.63100004 4674843
-0.074034289 0.19923049 0.63200003 4675366
-0.072830476 0.19923049 0.63200003 4872745
-0.071626663 0.19923049 0.63200003 5068619
-0.070645712 0.19986096 0.634 4673861
-0.069547623 0.20017619 0.63500005 4608072
-0.06844572 0.20049143 0.63600004 3884349
-0.067234285 0.20049143 0.63600004 6576956
-0.066126674 0.20080668 0.63700002 11511431
-0.065524764 0.2026981 0.64300001 12431235
-0.064400002 0.20301335 0.64400005 12760200
-0.063173339 0.20301335 0.64400005 12563580
-0.062139049 0.20364381 0.64600003 12958338
-0.061002858 0.20395905 0.64700001 12696193
-0.059955239 0.20458953 0.64900005 13222537
-0.058990479 0.20553523 0.65200001 13682336
-0.057748571 0.20553523 0.65200001 16774607
-0.13592382 0.20297144 0.64000005 16117708
-0.13470477 0.20297144 0.64000005 15591364
-0.13286 0.20202 0.63700002 14473378
-0.13144001 0.20170286 0.63600004 11841658
-0.13022858 0.20170286 0.63600004 10789490
-0.12881429 0.20138572 0.63500005 10328939
-0.12760478 0.20138572 0.63500005 9999452
-0.12619619 0.20106857 0.634 9473108
-0.12459429 0.2004343 0.63200003 9538129
-0.12280477 0.19948286 0.62900001 9538129
-0.12160667 0.19948286 0.62900001 9472338
-0.12021714 0.19916572 0.62800002 9406545
-0.11902096 0.19916572 0.62800002 9471563
-0.11782476 0.19916572 0.62800002 9603149
-0.11644286 0.19884859 0.62700003 9733961
-0.11488095 0.19821428 0.625 9931340
-0.11369047 0.19821428 0.625 10193751
-0.11232001 0.19789715 0.62400001 10720095
-0.11113143 0.19789715 0.62400001 10589549
-0.10994286 0.19789715 0.62400001 10457963
-0.10875428 0.19789715 0.62400001 10456925
-0.10739334 0.19758001 0.62300003 10522718
-0.10620667 0.19758001 0.62300003 9996901
-0.10502 0.19758001 0.62300003 10457452
-0.10383333 0.19758001 0.62300003 10327122
-0.10264667 0.19758001 0.62300003 10721880
-0.10129715 0.19726287 0.62200004 10392670
-0.10011239 0.19726287 0.62200004 10261084
-0.098927625 0.19726287 0.62200004 10128478
-0.097742863 0.19726287 0.62200004 10523236
-0.096558101 0.19726287 0.62200004 10524260
-0.09537334 0.19726287 0.62200004 10458467
-0.094188571 0.19726287 0.62200004 10458715
-0.093003817 0.19726287 0.62200004 10261336
-0.091819048 0.19726287 0.62200004 10721126
-0.090634294 0.19726287 0.62200004 10523747
-0.089593336 0.19758001 0.62300003 9538115
-0.088406667 0.19758001 0.62300003 9340736
-0.087219998 0.19758001 0.62300003 8947016
-0.086033337 0.19758001 0.62300003 8486465
-0.085119046 0.19821428 0.625 7632700
-0.083794288 0.19789715 0.62400001 6448426
-0.082605712 0.19789715 0.62400001 5989159
-0.081417143 0.19789715 0.62400001 5462815
-0.080357142 0.19821428 0.625 5331740
-0.079166666 0.19821428 0.625 5134361
-0.07797619 0.19821428 0.625 4675868
-0.077031434 0.19884859 0.62700003 4412696
-0.076079048 0.19948286 0.62900001 3954466
-0.075119056 0.20011716 0.63100004 3822880
-0.074034289 0.2004343 0.63200003 3100422
-0.072830476 0.2004343 0.63200003 4021524
-0.071626663 0.2004343 0.63200003 5002578
-0.070645712 0.20106857 0.634 4542027
-0.069547623 0.20138572 0.63500005 4212787
-0.06844572 0.20170286 0.63600004 4212787
-0.067234285 0.20170286 0.63600004 6511401
-0.066126674 0.20202 0.63700002 11248497
-0.065524764 0.20392285 0.64300001 12168315
-0.064400002 0.20424001 0.64400005 12760452
-0.063369527 0.20487429 0.64600003 12629114
-0.062235236 0.20519143 0.64700001 12826493
-0.061097141 0.20550856 0.648 12629627
-0.059955239 0.20582573 0.64900005 13024385
-0.058990479 0.20677714 0.65200001 13879451
-0.057748571 0.20677714 0.65200001 16774600
-0.13528667 0.20323333 0.63700002 16249548
-0.13286 0.20323333 0.63700002 14736037
-0.13144001 0.2029143 0.63600004 12038524
-0.13002382 0.20259526 0.63500005 10854518
-0.12881429 0.20259526 0.63500005 10722932
-0.12760478 0.20259526 0.63500005 10920565
-0.12619619 0.20227619 0.634 10986358
-0.12459429 0.2016381 0.63200003 11051120
-0.12319525 0.20131905 0.63100004 11051120
-0.12160667 0.20068094 0.62900001 10853489
-0.12021714 0.20036191 0.62800002 10721903
-0.11902096 0.20036191 0.62800002 10918764
-0.11782476 0.20036191 0.62800002 11050350
-0.11644286 0.20004287 0.62700003 11246943
-0.11488095 0.19940476 0.625 11312736
-0.11369047 0.19940476 0.625 10785636
-0.1125 0.19940476 0.625 10851429
-0.11113143 0.19908573 0.62400001 10720883
-0.10994286 0.19908573 0.62400001 10457711
-0.10875428 0.19908573 0.62400001 10523229
-0.10739334 0.19876666 0.62300003 10852194
-0.10620667 0.19876666 0.62300003 10851442
-0.10502 0.19876666 0.62300003 10719856
-0.10383333 0.19876666 0.62300003 10589288
-0.10264667 0.19876666 0.62300003 10984046
-0.10129715 0.19844763 0.62200004 10588754
-0.10011239 0.19844763 0.62200004 10128203
-0.098927625 0.19844763 0.62200004 10259292
-0.097742863 0.19844763 0.62200004 10785636
-0.096558101 0.19844763 0.62200004 10524247
-0.09537334 0.19844763 0.62200004 10392661
-0.094188571 0.19844763 0.62200004 9932857
-0.093003817 0.19844763 0.62200004 9077548
-0.091819048 0.19844763 0.62200004 9340234
-0.090779997 0.19876666 0.62300003 9274441
-0.089593336 0.19876666 0.62300003 8288804
-0.088406667 0.19876666 0.62300003 7696667
-0.087219998 0.19876666 0.62300003 7894046
-0.086171433 0.19908573 0.62400001 6972944
-0.085119046 0.19940476 0.625 6448926
-0.083794288 0.19908573 0.62400001 5593617
-0.082605712 0.19908573 0.62400001 5134892
-0.081547618 0.19940476 0.625 4937513
-0.080357142 0.19940476 0.625 4478500
-0.079166666 0.19940476 0.625 4478500
-0.078225717 0.20004287 0.62700003 4084748
-0.077154286 0.20036191 0.62800002 3887369
-0.076200008 0.20100002 0.63000005 3888172
-0.075119056 0.20131905 0.63100004 3888172
-0.074034289 0.2016381 0.63200003 3428381
-0.072830476 0.2016381 0.63200003 4152104
-0.071853332 0.20227619 0.634 5002319
-0.070645712 0.20227619 0.634 4607561
-0.069547623 0.20259526 0.63500005 4082489
-0.06844572 0.2029143 0.63600004 4345661
-0.067340001 0.20323333 0.63700002 6709058
-0.06654191 0.20450954 0.64100003 10854017
-0.065524764 0.20514761 0.64300001 12102761
-0.064400002 0.20546669 0.64400005 13023863
-0.063369527 0.20610477 0.64600003 12892029
-0.062235236 0.20642382 0.64700001 13023615
-0.061097141 0.20674285 0.648 12826754
-0.059955239 0.20706193 0.64900005 13024133
-0.058990479 0.20801905 0.65200001 13813138
-0.057748571 0.20801905 0.65200001 16774594
-0.13286 0.20444667 0.63700002 14933159
-0.13144001 0.20412573 0.63600004 12564611
-0.13002382 0.20380478 0.63500005 11775865
-0.12881429 0.20380478 0.63500005 11644279
-0.12760478 0.20380478 0.63500005 11380866
-0.12579811 0.20284191 0.63200003 11446659
-0.12459429 0.20284191 0.63200003 11510653
-0.12319525 0.20252097 0.63100004 11510653
-0.12160667 0.20187905 0.62900001 11378545
-0.12021714 0.2015581 0.62800002 11378545
-0.11902096 0.2015581 0.62800002 11246709
-0.11782476 0.2015581 0.62800002 11312502
-0.11662858 0.2015581 0.62800002 11707253
-0.11524858 0.20123716 0.62700003 11246702
-0.11369047 0.20059523 0.625 10719845
-0.1125 0.20059523 0.625 10851431
-0.11130952 0.20059523 0.625 10590067
-0.11011904 0.20059523 0.625 10326895
-0.10875428 0.20027429 0.62400001 10589038
-0.10739334 0.19995333 0.62300003 10457452
-0.10620667 0.19995333 0.62300003 10456164
-0.10518858 0.20027429 0.62400001 10324578
-0.104 0.20027429 0.62400001 9864529
-0.10264667 0.19995333 0.62300003 10061908
-0.10146 0.19995333 0.62300003 10192981
-0.10011239 0.19963239 0.62200004 10258774
-0.098927625 0.19963239 0.62200004 10390873
-0.097742863 0.19963239 0.62200004 10588252
-0.096558101 0.19963239 0.62200004 10392654
-0.09537334 0.19963239 0.62200004 10392654
-0.094188571 0.19963239 0.62200004 9604664
-0.093003817 0.19963239 0.62200004 8880941
-0.091819048 0.19963239 0.62200004 8684362
-0.090779997 0.19995333 0.62300003 8618569
-0.089593336 0.19995333 0.62300003 7895584
-0.088406667 0.19995333 0.62300003 7500826
-0.087219998 0.19995333 0.62300003 7894317
-0.086171433 0.20027429 0.62400001 7039008
-0.085119046 0.20059523 0.625 6448926
-0.08392857 0.20059523 0.625 5462031
-0.082738094 0.20059523 0.625 4215326
-0.081547618 0.20059523 0.625 4083740
-0.080357142 0.20059523 0.625 4018955
-0.079420008 0.20123716 0.62700003 4084748
-0.078350477 0.2015581 0.62800002 4084480
-0.077154286 0.2015581 0.62800002 4084480
-0.076200008 0.20220001 0.63000005 4018962
-0.075119056 0.20252097 0.63100004 4018962
-0.074034289 0.20284191 0.63200003 3953160
-0.073060952 0.20348381 0.634 4347918
-0.071853332 0.20348381 0.634 4739397
-0.070757151 0.20380478 0.63500005 4410432
-0.069547623 0.20380478 0.63500005 3950364
-0.06844572 0.20412573 0.63600004 4674087
-0.067340001 0.20444667 0.63700002 7103547
-0.066749521 0.2063724 0.64300001 10919541
-0.065626673 0.20669335 0.64400005 11707751
-0.064599998 0.20733525 0.64600003 12892025
-0.063467614 0.20765619 0.64700001 12497019
-0.062235236 0.20765619 0.64700001 12891777
-0.061191436 0.2082981 0.64900005 13089163
-0.060047623 0.20861906 0.65000004 12891784
-0.058990479 0.20926096 0.65200001 13878168
-0.057748571 0.20926096 0.65200001 16774088
-0.13286 0.20566 0.63700002 14998950
-0.13144001 0.20533715 0.63600004 12959367
-0.13002382 0.2050143 0.63500005 12104078
-0.12881429 0.2050143 0.63500005 12169871
-0.12760478 0.2050143 0.63500005 11840396
-0.12579811 0.20404573 0.63200003 11577224
-0.12459429 0.20404573 0.63200003 11773322
-0.12319525 0.20372286 0.63100004 11575943
-0.12160667 0.20307714 0.62900001 11510381
-0.12040857 0.20307714 0.62900001 11510381
-0.11921048 0.20307714 0.62900001 11181688
-0.11801238 0.20307714 0.62900001 11247481
-0.11662858 0.2027543 0.62800002 11444072
-0.11524858 0.20243144 0.62700003 10786142
-0.11405428 0.20243144 0.62700003 10719075
-0.1125 0.20178571 0.625 10653282
-0.11130952 0.20178571 0.625 10389592
-0.11011904 0.20178571 0.625 9863248
-0.10875428 0.20146286 0.62400001 9467489
-0.10756572 0.20146286 0.62400001 9270110
-0.10637714 0.20146286 0.62400001 9138989
-0.10518858 0.20146286 0.62400001 9138989
-0.104 0.20146286 0.62400001 9270080
-0.10281143 0.20146286 0.62400001 9928010
-0.10146 0.20114 0.62300003 9796942
-0.10027333 0.20114 0.62300003 10060114
-0.099086672 0.20114 0.62300003 9995350
-0.097742863 0.20081715 0.62200004 10521694
-0.096558101 0.20081715 0.62200004 10457929
-0.09537334 0.20081715 0.62200004 10589515
-0.094188571 0.20081715 0.62200004 9735487
-0.093003817 0.20081715 0.62200004 8485420
-0.091819048 0.20081715 0.62200004 8485702
-0.090779997 0.20114 0.62300003 8814667
-0.089593336 0.20114 0.62300003 8157995
-0.088406667 0.20114 0.62300003 7302686
-0.087219998 0.20114 0.62300003 7172138
-0.086171433 0.20146286 0.62400001 6843173
-0.085119046 0.20178571 0.625 5660430
-0.08392857 0.20178571 0.625 5528844
-0.082738094 0.20178571 0.625 5266210
-0.081547618 0.20178571 0.625 5134624
-0.080614291 0.20243144 0.62700003 5134615
-0.079420008 0.20243144 0.62700003 5068822
-0.078350477 0.2027543 0.62800002 5134615
-0.077154286 0.2027543 0.62800002 5660959
-0.076200008 0.20340002 0.63000005 5529900
-0.075119056 0.20372286 0.63100004 5990451
-0.074034289 0.20404573 0.63200003 5333298
-0.073060952 0.20469142 0.634 5464884
-0.071853332 0.20469142 0.634 4345166
-0.070757151 0.2050143 0.63500005 4081994
-0.069657147 0.20533715 0.63600004 4410691
-0.06844572 0.20533715 0.63600004 7305583
-0.067445718 0.20598285 0.63800001 8550764
-0.066749521 0.20759715 0.64300001 10853519
-0.065626673 0.20792001 0.64400005 11970927
-0.064599998 0.20856571 0.64600003 13023615
-0.063467614 0.20888858 0.64700001 12627849
-0.062235236 0.20888858 0.64700001 12759435
-0.061191436 0.2095343 0.64900005 12628623
-0.060047623 0.20985715 0.65000004 12826002
-0.058809526 0.20985715 0.65000004 13483678
-0.13164666 0.20687334 0.63700002 12959628
-0.13022858 0.20654857 0.63600004 12958347
-0.12901714 0.20654857 0.63600004 12300417
-0.12760478 0.20622383 0.63500005 11971469
-0.12619619 0.20589904 0.634 11576711
-0.12459429 0.20524953 0.63200003 11773305
-0.12319525 0.20492478 0.63100004 11641719
-0.12180001 0.20460002 0.63000005 11510651
-0.12040857 0.20427524 0.62900001 11247479
-0.11921048 0.20427524 0.62900001 11050115
-0.11801238 0.20427524 0.62900001 10721150
-0.11681429 0.20427524 0.62900001 10719856
-0.11543238 0.20395048 0.62800002 10588270
-0.1142362 0.20395048 0.62800002 9797719
-0.11286 0.20362572 0.62700003 9797719
-0.11166572 0.20362572 0.62700003 9729868
-0.11011904 0.20297618 0.625 9137731
-0.10892857 0.20297618 0.625 9201727
-0.10756572 0.20265144 0.62400001 9135934
-0.10637714 0.20265144 0.62400001 9005854
-0.10518858 0.20265144 0.62400001 9334819
-0.104 0.20265144 0.62400001 9597491
-0.10281143 0.20265144 0.62400001 9663284
-0.10146 0.20232667 0.62300003 9531703
-0.10027333 0.20232667 0.62300003 10452805
-0.099086672 0.20232667 0.62300003 9994823
-0.097900003 0.20232667 0.62300003 10586960
-0.096558101 0.20200193 0.62200004 10194757
-0.09537334 0.20200193 0.62200004 10260550
-0.094340004 0.20232667 0.62300003 9603136
-0.093153335 0.20232667 0.62300003 8747827
-0.091966666 0.20232667 0.62300003 8616513
-0.090779997 0.20232667 0.62300003 8748099
-0.089593336 0.20232667 0.62300003 8289079
-0.088406667 0.20232667 0.62300003 7367977
-0.087360002 0.20265144 0.62400001 7106588
-0.086171433 0.20265144 0.62400001 6580244
-0.085119046 0.20297618 0.625 5725440
-0.08392857 0.20297618 0.625 5725440
-0.082738094 0.20297618 0.625 5725696
-0.081808574 0.20362572 0.62700003 5923073
-0.080614291 0.20362572 0.62700003 6120211
-0.079546668 0.20395048 0.62800002 6449176
-0.078475237 0.20427524 0.62900001 6581537
-0.077277139 0.20427524 0.62900001 6976295
-0.076200008 0.20460002 0.63000005 7108923
-0.075119056 0.20492478 0.63100004 7306302
-0.07391715 0.20492478 0.63100004 7437638
-0.072830476 0.20524953 0.63200003 7108673
-0.071853332 0.20589904 0.634 6056797
-0.070757151 0.20622383 0.63500005 4017214
-0.069657147 0.20654857 0.63600004 5197855
-0.068553336 0.20687334 0.63700002 8948056
-0.06765715 0.20784764 0.64000005 10195295
-0.066749521 0.20882191 0.64300001 11116397
-0.065626673 0.20914668 0.64400005 12167791
-0.064599998 0.20979621 0.64600003 12759928
-0.063467614 0.21012095 0.64700001 12430972
-0.062235236 0.21012095 0.64700001 12694144
-0.061191436 0.21077049 0.64900005 12497285
-0.059955239 0.21077049 0.64900005 12826250
-0.058719054 0.21077049 0.64900005 13154967
-0.057571433 0.21109524 0.65000004 16773582
-0.13185333 0.20841333 0.63800001 13221773
-0.13043334 0.20808667 0.63700002 12695175
-0.12901714 0.20776001 0.63600004 12037245
-0.12780572 0.20776001 0.63600004 11905935
-0.12619619 0.20710666 0.634 11642763
-0.12498858 0.20710666 0.634 12036707
-0.12319525 0.20612668 0.63100004 11905121
-0.12180001 0.20580001 0.63000005 11179892
-0.12040857 0.20547333 0.62900001 9864032
-0.11921048 0.20547333 0.62900001 9203041
-0.11801238 0.20547333 0.62900001 9071455
-0.11681429 0.20547333 0.62900001 9004859
-0.11543238 0.20514667 0.62800002 8610101
-0.1142362 0.20514667 0.62800002 8807482
-0.11286 0.20482001 0.62700003 8939068
-0.11166572 0.20482001 0.62700003 9135412
-0.11047143 0.20482001 0.62700003 9069619
-0.10892857 0.20416667 0.625 9069619
-0.10773809 0.20416667 0.625 9266998
-0.10637714 0.20384 0.62400001 9005863
-0.10518858 0.20384 0.62400001 9269035
-0.104 0.20384 0.62400001 9663541
-0.10281143 0.20384 0.62400001 10058299
-0.10162286 0.20384 0.62400001 9795915
-0.10043429 0.20384 0.62400001 10585431
-0.099086672 0.20351334 0.62300003 10258760
-0.097900003 0.20351334 0.62300003 10587725
-0.096713334 0.20351334 0.62300003 10260287
-0.095526665 0.20351334 0.62300003 10194494
-0.094340004 0.20351334 0.62300003 9668159
-0.093153335 0.20351334 0.62300003 9141815
-0.091966666 0.20351334 0.62300003 8878924
-0.090779997 0.20351334 0.62300003 8813131
-0.089593336 0.20351334 0.62300003 8879949
-0.088406667 0.20351334 0.62300003 9143121
-0.087360002 0.20384 0.62400001 8683835
-0.086171433 0.20384 0.62400001 8552249
-0.085119046 0.20416667 0.625 8814908
-0.08392857 0.20416667 0.625 9012287
-0.083002865 0.20482001 0.62700003 9867584
-0.081808574 0.20482001 0.62700003 9999170
-0.080742866 0.20514667 0.62800002 10196588
-0.079546668 0.20514667 0.62800002 10525553
-0.078475237 0.20547333 0.62900001 10591600
-0.077400006 0.20580001 0.63000005 10723186
-0.076200008 0.20580001 0.63000005 10657654
-0.075119056 0.20612668 0.63100004 10591861
-0.07391715 0.20612668 0.63100004 10723445
-0.072830476 0.20645335 0.63200003 11052410
-0.071853332 0.20710666 0.634 10591861
-0.070645712 0.20710666 0.634 7828555
-0.069657147 0.20776001 0.63600004 8287597
-0.068553336 0.20808667 0.63700002 10919317
-0.06765715 0.20906669 0.64000005 10985554
-0.066645719 0.20972 0.64200002 10985554
-0.065626673 0.21037334 0.64400005 11839328
-0.064599998 0.21102667 0.64600003 12694637
-0.063467614 0.21135333 0.64700001 12562810
-0.062235236 0.21135333 0.64700001 13023361
-0.061191436 0.21200667 0.64900005 12760718
-0.059955239 0.21200667 0.64900005 13089683
-0.058809526 0.21233334 0.65000004 13221022
-0.057571433 0.21233334 0.65000004 16708051
-0.13411143 0.21127144 0.64300001 15261354
-0.13185333 0.20962857 0.63800001 13221771
-0.13043334 0.20930001 0.63700002 12695175
-0.12901714 0.20897144 0.63600004 12103038
-0.12780572 0.20897144 0.63600004 12103558
-0.12639524 0.20864287 0.63500005 11774593
-0.12498858 0.20831428 0.634 12233586
-0.12339049 0.20765714 0.63200003 11246691
-0.12180001 0.20700002 0.63000005 10782824
-0.12060001 0.20700002 0.63000005 8809034
-0.11921048 0.20667143 0.62900001 8869916
-0.11801238 0.20667143 0.62900001 9264674
-0.11681429 0.20667143 0.62900001 9396278
-0.11543238 0.20634286 0.62800002 9198899
-0.1142362 0.20634286 0.62800002 8607260
-0.11304 0.20634286 0.62800002 9396776
-0.11166572 0.20601431 0.62700003 9200676
-0.11047143 0.20601431 0.62700003 9200676
-0.10927714 0.20601431 0.62700003 8937222
-0.10773809 0.20535713 0.625 9463566
-0.10637714 0.20502856 0.62400001 8939550
-0.10518858 0.20502856 0.62400001 9465894
-0.104 0.20502856 0.62400001 9861445
-0.10281143 0.20502856 0.62400001 9927238
-0.10162286 0.20502856 0.62400001 9730874
-0.10043429 0.20502856 0.62400001 10586183
-0.099086672 0.20470001 0.62300003 10259024
-0.097900003 0.20470001 0.62300003 10587989
