# .PCD v0.7 - Point Cloud Data file format
VERSION 0.7
FIELDS x y z rgba
SIZE 4 4 4 4
TYPE F F F U
COUNT 1 1 1 1
WIDTH 1112
HEIGHT 1
VIEWPOINT 0 0 0 1 0 0 0
POINTS 1112
DATA ascii
-0.018154286 0.034291428 0.70600003 13283011
-0.016761906 0.034194287 0.70400006 10585498
-0.015420954 0.034194287 0.70400006 10315362
-0.01406 0.034145713 0.70300001 5578266
-0.012558095 0.033708572 0.69400001 8129794
-0.011236191 0.033708572 0.69400001 8853517
-0.0098999999 0.033660002 0.69300002 8983843
-0.0085552391 0.033562858 0.69100004 9115429
-0.0072076195 0.033417143 0.68800002 8788002
-0.005888572 0.033368573 0.68700004 8656416
-0.0045799999 0.033368573 0.68700004 8787726
0.0019885714 0.033805717 0.69600004 9049116
0.003314286 0.033805717 0.69600004 8788002
0.0046399999 0.033805717 0.69600004 8788002
0.0059657148 0.033805717 0.69600004 8918290
0.0071657142 0.033222858 0.68400002 9049876
0.0084685711 0.033222858 0.68400002 9049643
0.01889143 0.033222858 0.68400002 9184050
0.020164762 0.033174284 0.68300003 9381429
0.021465715 0.033174284 0.68300003 9251113
0.022766666 0.033174284 0.68300003 9448492
0.02406762 0.033174284 0.68300003 9383982
-0.091314279 0.034323812 0.68000001 14335458
-0.089489527 0.034121908 0.67600006 15459071
-0.08820191 0.034121908 0.67600006 12629973
-0.086914293 0.034121908 0.67600006 11773876
-0.083788574 0.034424767 0.68200004 7624297
-0.082489528 0.034424767 0.68200004 7297193
-0.08130952 0.034475237 0.68300003 13679103
-0.080008574 0.034475237 0.68300003 14736117
-0.078707621 0.034475237 0.68300003 12235983
-0.077520005 0.034525711 0.68400002 10192839
-0.076217145 0.034525711 0.68400002 8482221
-0.075133339 0.034626666 0.68600005 8019021
-0.073826671 0.034626666 0.68600005 8150607
-0.072520003 0.034626666 0.68600005 9930687
-0.071317144 0.034677144 0.68700004 15259903
-0.070008576 0.034677144 0.68700004 12764159
-0.027929526 0.034424767 0.68200004 11379911
-0.026630478 0.034424767 0.68200004 12301013
-0.02533143 0.034424767 0.68200004 12891092
-0.024032382 0.034424767 0.68200004 9864614
-0.022666667 0.034323812 0.68000001 8615294
-0.021371428 0.034323812 0.68000001 9536396
-0.020076191 0.034323812 0.68000001 11966633
-0.018753333 0.034273334 0.67900002 12361391
-0.017434288 0.03422286 0.67800003 12096170
-0.016142858 0.03422286 0.67800003 9530243
-0.014851429 0.03422286 0.67800003 7282249
-0.01388 0.035030477 0.69400001 6887491
-0.012558095 0.035030477 0.69400001 8851485
-0.011236191 0.035030477 0.69400001 9048864
-0.0098999999 0.034979999 0.69300002 9048360
-0.0085552391 0.034879047 0.69100004 9179946
-0.0072076195 0.034727618 0.68800002 8852775
-0.0058542858 0.034475237 0.68300003 8721189
-0.0045533334 0.034475237 0.68300003 8721693
-0.003252381 0.034475237 0.68300003 8853279
0.0019400001 0.034273334 0.67900002 9180949
0.003252381 0.034475237 0.68300003 8918290
0.0045533334 0.034475237 0.68300003 8984083
0.0058542858 0.034475237 0.68300003 9049382
0.0071552387 0.034475237 0.68300003 9115175
0.008456191 0.034475237 0.68300003 8983337
0.0097571434 0.034475237 0.68300003 8917544
0.011058095 0.034475237 0.68300003 8984324
0.017588571 0.034525711 0.68400002 9509926
0.01889143 0.034525711 0.68400002 9118257
0.020164762 0.034475237 0.68300003 9249843
0.021434287 0.034424767 0.68200004 9316906
0.022733334 0.034424767 0.68200004 9316906
0.024032382 0.034424767 0.68200004 9514025
-0.094457142 0.035828575 0.68400002 8611497
-0.092881911 0.035723813 0.68200004 9530564
-0.091314279 0.03561905 0.68000001 14136063
-0.090019047 0.03561905 0.68000001 15195605
-0.08820191 0.035409529 0.67600006 11511197
-0.086914293 0.035409529 0.67600006 10719882
-0.086133331 0.03561905 0.68000001 6706509
-0.0848381 0.03561905 0.68000001 8674380
-0.083788574 0.035723813 0.68200004 14332578
-0.082489528 0.035723813 0.68200004 14536169
-0.081190482 0.035723813 0.68200004 14470376
-0.080008574 0.035776194 0.68300003 13748459
-0.078707621 0.035776194 0.68300003 9406121
-0.077406667 0.035776194 0.68300003 8808585
-0.076105714 0.035776194 0.68300003 7229553
-0.074804768 0.035776194 0.68300003 8280320
-0.073611431 0.035828575 0.68400002 10977819
-0.072308578 0.035828575 0.68400002 11704282
-0.071213335 0.035933334 0.68600005 16770815
-0.070008576 0.035985716 0.68700004 14403071
-0.068700001 0.035985716 0.68700004 7363225
-0.064680003 0.035933334 0.68600005 13350397
-0.063373342 0.035933334 0.68600005 15916287
-0.06215715 0.035985716 0.68700004 13350374
-0.029228574 0.035723813 0.68200004 5899776
-0.027929526 0.035723813 0.68200004 5703680
-0.026630478 0.035723813 0.68200004 5769472
-0.02533143 0.035723813 0.68200004 6096899
-0.024032382 0.035723813 0.68200004 6360071
-0.022666667 0.03561905 0.68000001 6753811
-0.021371428 0.03561905 0.68000001 6951190
-0.020076191 0.03561905 0.68000001 7081217
-0.018753333 0.035566669 0.67900002 7081217
-0.017434288 0.035514288 0.67800003 7408133
-0.016142858 0.035514288 0.67800003 7342340
-0.014851429 0.035514288 0.67800003 8129043
-0.013520001 0.035409529 0.67600006 8589594
-0.012558095 0.036352381 0.69400001 8982047
-0.011236191 0.036352381 0.69400001 9047840
-0.0098999999 0.0363 0.69300002 9047592
-0.0085800001 0.0363 0.69300002 9047592
-0.0071133338 0.035566669 0.67900002 8916517
-0.0058200001 0.035566669 0.67900002 8916517
-0.0045266668 0.035566669 0.67900002 8982058
-0.0032333334 0.035566669 0.67900002 9047851
-0.001937143 0.035514288 0.67800003 9047592
-0.00064571429 0.035514288 0.67800003 8850213
0.00064666668 0.035566669 0.67900002 8982784
0.0019400001 0.035566669 0.67900002 10956574
0.0032333334 0.035566669 0.67900002 9711906
0.0045333337 0.03561905 0.68000001 9975078
0.0058457148 0.035723813 0.68200004 9975372
0.0071552387 0.035776194 0.68300003 11225439
0.008456191 0.035776194 0.68300003 10042428
0.0097571434 0.035776194 0.68300003 9713463
0.011058095 0.035776194 0.68300003 9778488
0.01886381 0.035776194 0.68300003 9779274
0.020164762 0.035776194 0.68300003 9647688
0.021434287 0.035723813 0.68200004 9647931
0.022633335 0.035566669 0.67900002 9516345
0.023820955 0.035409529 0.67600006 9649704
0.025071429 0.035357144 0.67500001 10176048
0.026318096 0.035304762 0.67400002 8986419
0.027601905 0.035304762 0.67400002 8262696
0.028800001 0.035200004 0.67200005 8459307
0.030080002 0.035200004 0.67200005 7998756
0.03136 0.035200004 0.67200005 8207389
-0.096779048 0.037022859 0.68200004 10193554
-0.095199995 0.036914289 0.68000001 8546972
-0.093904756 0.036914289 0.68000001 9204902
-0.092881911 0.037022859 0.68200004 11901351
-0.091314279 0.036914289 0.68000001 14204106
-0.090019047 0.036914289 0.68000001 15393259
-0.088723809 0.036914289 0.68000001 10919335
-0.08742857 0.036914289 0.68000001 10520461
-0.086133331 0.036914289 0.68000001 8283499
-0.0848381 0.036914289 0.68000001 10514290
-0.083542861 0.036914289 0.68000001 14790835
-0.082247622 0.036914289 0.68000001 14932460
-0.081190482 0.037022859 0.68200004 13616600
-0.080008574 0.037077144 0.68300003 12958409
-0.078707621 0.037077144 0.68300003 8945036
-0.077406667 0.037077144 0.68300003 9268575
-0.076105714 0.037077144 0.68300003 8347473
-0.074804768 0.037077144 0.68300003 9265664
-0.073611431 0.037131429 0.68400002 11371024
-0.072308578 0.037131429 0.68400002 11766944
-0.071005717 0.037131429 0.68400002 14530250
-0.070008576 0.037294287 0.68700004 13745638
-0.068700001 0.037294287 0.68700004 7561096
-0.065986671 0.037240002 0.68600005 12488841
-0.064680003 0.037240002 0.68600005 12429496
-0.062819049 0.036914289 0.68000001 12166324
-0.061523806 0.036914289 0.68000001 11832233
-0.030572383 0.037077144 0.68300003 8522503
-0.029228574 0.037022859 0.68200004 8456710
-0.027929526 0.037022859 0.68200004 8129536
-0.026630478 0.037022859 0.68200004 7997952
-0.02533143 0.037022859 0.68200004 8194816
-0.023961904 0.036914289 0.68000001 8392192
-0.022633335 0.036860004 0.67900002 8654099
-0.021308571 0.036805719 0.67800003 8390927
-0.020017143 0.036805719 0.67800003 8325888
-0.018753333 0.036860004 0.67900002 8325888
-0.017434288 0.036805719 0.67800003 8456960
-0.016142858 0.036805719 0.67800003 8588546
-0.014851429 0.036805719 0.67800003 8916239
-0.013520001 0.036697146 0.67600006 8982032
-0.012232382 0.036697146 0.67600006 8981272
-0.010944762 0.036697146 0.67600006 9047065
-0.0096571436 0.036697146 0.67600006 9244957
-0.008394286 0.036805719 0.67800003 9179164
-0.0071028573 0.036805719 0.67800003 8915992
-0.0058114287 0.036805719 0.67800003 8981785
-0.0045200004 0.036805719 0.67800003 8981531
-0.0032285715 0.036805719 0.67800003 9047324
-0.0019314287 0.036697146 0.67600006 9112846
-0.00064380956 0.036697146 0.67600006 9047053
0.00064666668 0.036860004 0.67900002 9048576
0.0019400001 0.036860004 0.67900002 10232844
0.0032333334 0.036860004 0.67900002 9511958
0.0045266668 0.036860004 0.67900002 10367267
0.005828571 0.036914289 0.68000001 9975106
0.0071238093 0.036914289 0.68000001 10172485
0.00844381 0.037022859 0.68200004 9975613
0.0097428579 0.037022859 0.68200004 9515062
0.018836193 0.037022859 0.68200004 9448767
0.020135241 0.037022859 0.68200004 9382974
0.021434287 0.037022859 0.68200004 9317433
0.022533335 0.036697146 0.67600006 9514812
0.023820955 0.036697146 0.67600006 9452092
0.025071429 0.036642861 0.67500001 9452092
0.026318096 0.036588576 0.67400002 8921902
0.027601905 0.036588576 0.67400002 8198179
0.028800001 0.036480006 0.67200005 8129302
0.030080002 0.036480006 0.67200005 8326681
0.03136 0.036480006 0.67200005 7415339
-0.10212477 0.038378097 0.68300003 8812176
-0.10082381 0.038378097 0.68300003 10519224
-0.098502867 0.037984762 0.67600006 12295635
-0.09721525 0.037984762 0.67600006 12296109
-0.096353337 0.038153335 0.67900002 11177628
-0.094920009 0.038097143 0.67800003 10517415
-0.093628578 0.038097143 0.67800003 10385829
-0.092337146 0.038097143 0.67800003 10779998
-0.091314279 0.038209524 0.68000001 11306342
-0.090019047 0.038209524 0.68000001 10647693
-0.088984765 0.038321909 0.68200004 9397626
-0.087685719 0.038321909 0.68200004 9395055
-0.086386673 0.038321909 0.68200004 9066090
-0.08508762 0.038321909 0.68200004 9325419
-0.083542861 0.038209524 0.68000001 8733282
-0.082247622 0.038209524 0.68000001 9525078
-0.081190482 0.038321909 0.68200004 10380387
-0.080125719 0.038434289 0.68400002 10319177
-0.078822859 0.038434289 0.68400002 9858626
-0.077406667 0.038378097 0.68300003 10448462
-0.076105714 0.038378097 0.68300003 9856325
-0.074804768 0.038378097 0.68300003 10316288
-0.073503807 0.038378097 0.68300003 10316288
-0.072202861 0.038378097 0.68300003 10315520
-0.070901908 0.038378097 0.68300003 9986560
-0.069600955 0.038378097 0.68300003 9988881
-0.068399996 0.038434289 0.68400002 9988881
-0.067097142 0.038434289 0.68400002 9264154
-0.065217145 0.038097143 0.67800003 11040565
-0.063925713 0.038097143 0.67800003 10383872
-0.062634289 0.038097143 0.67800003 9725952
-0.061161913 0.037984762 0.67600006 10119168
-0.059874289 0.037984762 0.67600006 8540160
-0.050785713 0.03792857 0.67500001 8129295
-0.049500003 0.03792857 0.67500001 7866123
-0.048142858 0.037872382 0.67400002 7408128
-0.046859052 0.037872382 0.67400002 7342336
-0.045575239 0.037872382 0.67400002 7277056
-0.030572383 0.038378097 0.68300003 8784392
-0.029228574 0.038321909 0.68200004 8784392
-0.027929526 0.038321909 0.68200004 8719616
-0.026552381 0.038209524 0.68000001 8653824
-0.025257142 0.038209524 0.68000001 8784896
-0.023961904 0.038209524 0.68000001 8850688
-0.022633335 0.038153335 0.67900002 8784646
-0.021308571 0.038097143 0.67800003 8784646
-0.020017143 0.038097143 0.67800003 8915973
-0.018725716 0.038097143 0.67800003 8981766
-0.017434288 0.038097143 0.67800003 8981251
-0.01609524 0.037984762 0.67600006 8981251
-0.01480762 0.037984762 0.67600006 8915973
-0.0135 0.03792857 0.67500001 8850180
-0.012214285 0.03792857 0.67500001 8719104
-0.010944762 0.037984762 0.67600006 8719104
-0.0096571436 0.037984762 0.67600006 8653586
-0.008369525 0.037984762 0.67600006 8916758
-0.0070819054 0.037984762 0.67600006 8457238
-0.0057942863 0.037984762 0.67600006 8325652
-0.0045066671 0.037984762 0.67600006 8522790
-0.003219048 0.037984762 0.67600006 8983341
-0.0019314287 0.037984762 0.67600006 8983580
-0.00064380956 0.037984762 0.67600006 9509924
0.00064571429 0.038097143 0.67800003 9251072
0.001937143 0.038097143 0.67800003 9580034
0.0032285715 0.038097143 0.67800003 9250067
0.0045200004 0.038097143 0.67800003 9118481
0.0058114287 0.038097143 0.67800003 9313067
0.0071028573 0.038097143 0.67800003 9049895
0.008406667 0.038153335 0.67900002 9508904
0.0097428579 0.038321909 0.68200004 9706283
0.01984 0.037760001 0.67200005 9837369
0.021214286 0.03792857 0.67500001 9967697
0.022499999 0.03792857 0.67500001 11546729
0.023785714 0.03792857 0.67500001 10827853
0.025034286 0.037872382 0.67400002 10827853
0.026318096 0.037872382 0.67400002 10697289
0.027601905 0.037872382 0.67400002 11026254
0.028800001 0.037760001 0.67200005 10898007
0.030080002 0.037760001 0.67200005 11555937
0.03136 0.037760001 0.67200005 10314119
0.032640003 0.037760001 0.67200005 12156323
-0.10388 0.039853338 0.68600005 9200749
-0.10197524 0.039620955 0.68200004 8740198
-0.10023333 0.039446667 0.67900002 8739694
-0.098357141 0.039214283 0.67500001 8542315
-0.097071432 0.039214283 0.67500001 8935274
-0.096211433 0.039388571 0.67800003 9198446
-0.094640009 0.039272383 0.67600006 9591673
-0.092800006 0.039040003 0.67200005 9065329
-0.091520004 0.039040003 0.67200005 9390909
-0.091045722 0.039388571 0.67800003 9259323
-0.090019047 0.039504763 0.68000001 9323091
-0.088723809 0.039504763 0.68000001 9652056
-0.08742857 0.039504763 0.68000001 9719895
-0.086133331 0.039504763 0.68000001 9588309
-0.0848381 0.039504763 0.68000001 9520722
-0.083542861 0.039504763 0.68000001 8468034
-0.082247622 0.039504763 0.68000001 9186603
-0.08130952 0.03967905 0.68300003 10173498
-0.079891428 0.039620955 0.68200004 12351326
-0.07813143 0.039388571 0.67800003 11824982
-0.076840006 0.039388571 0.67800003 11826785
-0.075771429 0.039504763 0.68000001 10971476
-0.074476197 0.039504763 0.68000001 11167279
-0.073180959 0.039504763 0.68000001 11298865
-0.07188572 0.039504763 0.68000001 11168837
-0.070486665 0.039446667 0.67900002 10379321
-0.069193333 0.039446667 0.67900002 10180132
-0.068000004 0.039504763 0.68000001 10574890
-0.066606671 0.039446667 0.67900002 10706478
-0.065313332 0.039446667 0.67900002 10245927
-0.063737147 0.039272383 0.67600006 10048512
-0.06244953 0.039272383 0.67600006 10048512
-0.061071429 0.039214283 0.67500001 10245398
-0.059697144 0.039156191 0.67400002 9587468
-0.058240004 0.039040003 0.67200005 9979700
-0.05687524 0.038981903 0.671 9124391
-0.055597141 0.038981903 0.671 9449530
-0.054400001 0.039040003 0.67200005 7344154
-0.053120002 0.039040003 0.67200005 8391435
-0.051840004 0.039040003 0.67200005 8457228
-0.050560005 0.039040003 0.67200005 8522259
-0.049426667 0.039156191 0.67400002 8522259
-0.048000004 0.039040003 0.67200005 8325904
-0.046720002 0.039040003 0.67200005 8391697
-0.04544 0.039040003 0.67200005 8522508
-0.044160005 0.039040003 0.67200005 8522508
-0.04300762 0.039156191 0.67400002 8522503
-0.04172381 0.039156191 0.67400002 8588296
-0.037984762 0.039272383 0.67600006 8784672
-0.036697146 0.039272383 0.67600006 8718879
-0.030080002 0.039040003 0.67200005 9113133
-0.028800001 0.039040003 0.67200005 8981547
-0.027520001 0.039040003 0.67200005 9112617
-0.026240002 0.039040003 0.67200005 9112617
-0.024960002 0.039040003 0.67200005 9308972
-0.023891428 0.039388571 0.67800003 9308972
-0.022533335 0.039272383 0.67600006 9308972
-0.021245716 0.039272383 0.67600006 9374765
-0.019958096 0.039272383 0.67600006 9440310
-0.018725716 0.039388571 0.67800003 9506103
-0.017382858 0.039272383 0.67600006 9570863
-0.01609524 0.039272383 0.67600006 9636656
-0.01480762 0.039272383 0.67600006 9308974
-0.0135 0.039214283 0.67500001 9440560
-0.012214285 0.039214283 0.67500001 9310789
-0.010928571 0.039214283 0.67500001 9508168
-0.0096428571 0.039214283 0.67500001 9248850
-0.008357143 0.039214283 0.67500001 9512022
-0.0070714285 0.039214283 0.67500001 9186137
-0.0057857144 0.039214283 0.67500001 9317723
-0.0044999998 0.039214283 0.67500001 9253468
-0.0032142857 0.039214283 0.67500001 9582433
-0.0019285715 0.039214283 0.67500001 9650016
-0.00064285717 0.039214283 0.67500001 9650016
0.00064380956 0.039272383 0.67600006 9649748
0.0019314287 0.039272383 0.67600006 9847127
0.003219048 0.039272383 0.67600006 10044506
0.0045066671 0.039272383 0.67600006 9649748
0.0057857144 0.039214283 0.67500001 9908577
0.007060953 0.039156191 0.67400002 9776991
0.008344762 0.039156191 0.67400002 10628171
0.0096000005 0.039040003 0.67200005 11022929
0.010880001 0.039040003 0.67200005 11087695
0.01216 0.039040003 0.67200005 10561351
0.013440001 0.039040003 0.67200005 10627072
0.014720001 0.039040003 0.67200005 11087622
0.016000001 0.039040003 0.67200005 10759502
0.017280001 0.039040003 0.67200005 12075362
0.01856 0.039040003 0.67200005 12212102
0.01984 0.039040003 0.67200005 11488379
0.021120002 0.039040003 0.67200005 11615852
0.022466667 0.039156191 0.67400002 11747438
0.023750478 0.039156191 0.67400002 12206948
0.025034286 0.039156191 0.67400002 12338534
0.026240002 0.039040003 0.67200005 12077438
0.027520001 0.039040003 0.67200005 12340610
0.028800001 0.039040003 0.67200005 11881352
0.030080002 0.039040003 0.67200005 11683973
0.03136 0.039040003 0.67200005 11038021
0.032640003 0.039040003 0.67200005 12419674
-0.10799905 0.040259998 0.671 8080384
-0.10672095 0.040259998 0.671 8341504
-0.10544286 0.040259998 0.671 8538880
-0.10416476 0.040259998 0.671 8339968
-0.10288666 0.040259998 0.671 7747840
-0.10388 0.041160002 0.68600005 7415296
-0.10197524 0.040920004 0.68200004 7283712
-0.10023333 0.040739998 0.67900002 7281408
-0.09821143 0.040440001 0.67400002 6886656
-0.09692762 0.040440001 0.67400002 6949632
-0.095785715 0.0405 0.67500001 6818048
-0.094499998 0.0405 0.67500001 7211520
-0.092800006 0.040320002 0.67200005 7211520
-0.091520004 0.040320002 0.67200005 7277056
-0.090105712 0.040259998 0.671 7277056
-0.088827617 0.040259998 0.671 7408128
-0.088593334 0.040739998 0.67900002 7408128
-0.087300003 0.040739998 0.67900002 7801600
-0.086006664 0.040739998 0.67900002 7867392
-0.08471334 0.040739998 0.67900002 8261382
-0.083297148 0.040679999 0.67800003 8261382
-0.082005717 0.040679999 0.67800003 8523008
-0.080952384 0.040800001 0.68000001 8523008
-0.079540007 0.040739998 0.67900002 8785664
-0.077900954 0.040560003 0.67600006 8456704
-0.076613337 0.040560003 0.67600006 8391172
-0.075548574 0.040679999 0.67800003 8259586
-0.074257143 0.040679999 0.67800003 8325888
-0.073073335 0.040739998 0.67900002 8260096
-0.071674287 0.040679999 0.67800003 8588288
-0.070175245 0.040560003 0.67600006 8522496
-0.068887629 0.040560003 0.67600006 8391168
-0.067600004 0.040560003 0.67600006 8325376
-0.066312388 0.040560003 0.67600006 8391424
-0.064928576 0.0405 0.67500001 8391424
-0.063642859 0.0405 0.67500001 8653586
-0.062264767 0.040440001 0.67400002 8456207
-0.06098095 0.040440001 0.67400002 8719630
-0.059520006 0.040320002 0.67200005 8851216
-0.058240004 0.040320002 0.67200005 9380363
-0.05687524 0.040259998 0.671 10169879
-0.055597141 0.040259998 0.671 9912139
-0.054319046 0.040259998 0.671 10438483
-0.053040951 0.040259998 0.671 10440788
-0.051762857 0.040259998 0.671 10769753
-0.050560005 0.040320002 0.67200005 10836836
-0.049280003 0.040320002 0.67200005 10836836
-0.048000004 0.040320002 0.67200005 10836321
-0.046720002 0.040320002 0.67200005 10770528
-0.045372378 0.040259998 0.671 10967391
-0.044094287 0.040259998 0.671 11164770
-0.042816192 0.040259998 0.671 11230563
-0.041538097 0.040259998 0.671 11362149
-0.040259998 0.040259998 0.671 11823727
-0.039040003 0.040320002 0.67200005 12481657
-0.037760001 0.040320002 0.67200005 12086908
-0.036480006 0.040320002 0.67200005 12021115
-0.035200004 0.040320002 0.67200005 12018818
-0.033869524 0.040259998 0.671 11689853
-0.032591429 0.040259998 0.671 11689331
-0.03136 0.040320002 0.67200005 12018296
-0.030035239 0.040259998 0.671 11886710
-0.028757142 0.040259998 0.671 11820917
-0.027479049 0.040259998 0.671 11886210
-0.026240002 0.040320002 0.67200005 11952003
-0.024960002 0.040320002 0.67200005 12017796
-0.023785714 0.0405 0.67500001 12017796
-0.022499999 0.0405 0.67500001 12280707
-0.021214286 0.0405 0.67500001 12675465
-0.019928573 0.0405 0.67500001 12479117
-0.018670477 0.040560003 0.67600006 12215945
-0.017357143 0.0405 0.67500001 12280457
-0.016071428 0.0405 0.67500001 12280457
-0.01476381 0.040440001 0.67400002 12611216
-0.01348 0.040440001 0.67400002 13203353
-0.012196191 0.040440001 0.67400002 13140386
-0.010912381 0.040440001 0.67400002 13337765
-0.0096285716 0.040440001 0.67400002 12876964
-0.008357143 0.0405 0.67500001 13008550
-0.0070714285 0.0405 0.67500001 12811412
-0.0057771429 0.040440001 0.67400002 12811412
-0.0044933339 0.040440001 0.67400002 12811916
-0.0032095239 0.040440001 0.67400002 13206674
-0.0019257143 0.040440001 0.67400002 12812439
-0.00064190477 0.040440001 0.67400002 12680853
0.00064285717 0.0405 0.67500001 12614283
0.0019257143 0.040440001 0.67400002 12680076
0.0032095239 0.040440001 0.67400002 12679817
0.0044933339 0.040440001 0.67400002 12679817
0.0057771429 0.040440001 0.67400002 12217501
0.007060953 0.040440001 0.67400002 13204396
0.008320001 0.040320002 0.67200005 12943761
0.0096000005 0.040320002 0.67200005 12746382
0.010863809 0.040259998 0.671 12348306
0.012141905 0.040259998 0.671 11624583
0.01342 0.040259998 0.671 11361612
0.014698096 0.040259998 0.671 12677472
0.015976191 0.040259998 0.671 11956646
0.017254286 0.040259998 0.671 13535678
0.01853238 0.040259998 0.671 13473490
0.01984 0.040320002 0.67200005 13934041
0.021120002 0.040320002 0.67200005 14131910
0.022400003 0.040320002 0.67200005 14395082
0.023680001 0.040320002 0.67200005 14593987
0.024960002 0.040320002 0.67200005 15186124
0.026240002 0.040320002 0.67200005 15121124
0.027520001 0.040320002 0.67200005 15121124
0.028800001 0.040320002 0.67200005 14922638
0.030080002 0.040320002 0.67200005 5316864
0.03136 0.040320002 0.67200005 7539518
0.032640003 0.040320002 0.67200005 13987232
0.033920001 0.040320002 0.67200005 11375005
-0.11039048 0.04147619 0.67000002 8002053
-0.10911428 0.04147619 0.67000002 8065541
-0.10783809 0.04147619 0.67000002 8131334
-0.10656191 0.04147619 0.67000002 7998976
-0.10544286 0.041538097 0.671 7998976
-0.10416476 0.041538097 0.671 7932928
-0.10288666 0.041538097 0.671 7998720
-0.10160857 0.041538097 0.671 7998210
-0.10197524 0.04221905 0.68200004 8327175
-0.10038095 0.04209524 0.68000001 7866881
-0.097920008 0.041600004 0.67200005 8064260
-0.096640006 0.041600004 0.67200005 7473664
-0.095360003 0.041600004 0.67200005 7736832
-0.094080001 0.041600004 0.67200005 7801114
-0.092661902 0.041538097 0.671 7932700
-0.091383815 0.041538097 0.671 7800880
-0.090105712 0.041538097 0.671 7866673
-0.088827617 0.041538097 0.671 8128564
-0.087549523 0.041538097 0.671 8391736
-0.086271428 0.041538097 0.671 8588115
-0.084993333 0.041538097 0.671 8522322
-0.083715238 0.041538097 0.671 8784438
-0.082437143 0.041538097 0.671 9047610
-0.081280008 0.041600004 0.67200005 9047358
-0.080357142 0.041785713 0.67500001 8915772
-0.078720003 0.041600004 0.67200005 8849968
-0.077440001 0.041600004 0.67200005 8784175
-0.076386668 0.04172381 0.67400002 8653100
-0.074880004 0.041600004 0.67200005 8718893
-0.073490478 0.041538097 0.671 8784184
-0.072212376 0.041538097 0.671 8849977
-0.071040004 0.041600004 0.67200005 9243188
-0.06976001 0.041600004 0.67200005 9308981
-0.068683811 0.04172381 0.67400002 9243442
-0.067400001 0.04172381 0.67400002 9243442
-0.066116191 0.04172381 0.67400002 9308729
-0.06464 0.041600004 0.67200005 9637694
-0.063360006 0.041600004 0.67200005 9903437
-0.062080003 0.041600004 0.67200005 9574472
-0.060709521 0.041538097 0.671 9705540
-0.059431426 0.041538097 0.671 10955607
-0.058153335 0.041538097 0.671 10830953
-0.05687524 0.041538097 0.671 11752055
-0.055597141 0.041538097 0.671 11493258
-0.054319046 0.041538097 0.671 11559051
-0.053040951 0.041538097 0.671 11428219
-0.051762857 0.041538097 0.671 11099254
-0.050484762 0.041538097 0.671 10903147
-0.049206667 0.041538097 0.671 10574182
-0.047928572 0.041538097 0.671 10639205
-0.046650477 0.041538097 0.671 10704998
-0.045372378 0.041538097 0.671 11164268
-0.044094287 0.041538097 0.671 11230061
-0.042816192 0.041538097 0.671 11428973
-0.041538097 0.041538097 0.671 11560559
-0.040259998 0.041538097 0.671 12154236
-0.038981903 0.041538097 0.671 11891064
-0.037703808 0.041538097 0.671 11954811
-0.036425717 0.041538097 0.671 12152190
-0.035147619 0.041538097 0.671 12084611
-0.033869524 0.041538097 0.671 11689853
-0.032591429 0.041538097 0.671 11951224
-0.031313334 0.041538097 0.671 12148603
-0.030035239 0.041538097 0.671 12213624
-0.028757142 0.041538097 0.671 12213624
-0.027479049 0.041538097 0.671 12213640
-0.026240002 0.041600004 0.67200005 12674191
-0.025034286 0.04172381 0.67400002 12478599
-0.023785714 0.041785713 0.67500001 12412806
-0.022499999 0.041785713 0.67500001 12544388
-0.021182857 0.04172381 0.67400002 12741767
-0.019899048 0.04172381 0.67400002 13269662
-0.018642858 0.041785713 0.67500001 13138076
-0.017331429 0.04172381 0.67400002 12941465
-0.016000001 0.041600004 0.67200005 13007258
-0.014720001 0.041600004 0.67200005 13139614
-0.013440001 0.041600004 0.67200005 13271200
-0.01216 0.041600004 0.67200005 13469094
-0.010880001 0.041600004 0.67200005 13140129
-0.0096000005 0.041600004 0.67200005 12546196
-0.008344762 0.04172381 0.67400002 12480403
-0.0070400005 0.041600004 0.67200005 12279685
-0.0057600001 0.041600004 0.67200005 12213892
-0.0044800006 0.041600004 0.67200005 12410242
-0.0032000002 0.041600004 0.67200005 12739207
-0.0019200002 0.041600004 0.67200005 12412293
-0.00064000004 0.041600004 0.67200005 12346500
0.00064000004 0.041600004 0.67200005 11754615
0.0019200002 0.041600004 0.67200005 11754615
0.0032000002 0.041600004 0.67200005 12082038
0.0044800006 0.041600004 0.67200005 11489901
0.0057600001 0.041600004 0.67200005 11359598
0.0070400005 0.041600004 0.67200005 15175592
0.008320001 0.041600004 0.67200005 13607574
0.0095857149 0.041538097 0.671 13936539
0.010863809 0.041538097 0.671 13805945
0.012141905 0.041538097 0.671 12292706
0.01342 0.041538097 0.671 12422181
0.014698096 0.041538097 0.671 14790729
0.015976191 0.041538097 0.671 14269145
0.017254286 0.041538097 0.671 14466524
0.01853238 0.041538097 0.671 14468351
0.019810477 0.041538097 0.671 13876214
0.021120002 0.041600004 0.67200005 12825033
0.022400003 0.041600004 0.67200005 13614549
0.023680001 0.041600004 0.67200005 13747166
0.024960002 0.041600004 0.67200005 15063026
0.026240002 0.041600004 0.67200005 15261693
0.027520001 0.041600004 0.67200005 15722239
0.028800001 0.041600004 0.67200005 14663423
0.030080002 0.041600004 0.67200005 4399721
0.03136 0.041600004 0.67200005 6949120
0.032640003 0.041600004 0.67200005 13725792
0.033920001 0.041600004 0.67200005 11243660
-0.12710857 0.042369526 0.66400003 6571316
-0.12584381 0.042369526 0.66400003 8067109
-0.12514192 0.042560954 0.66700006 9054004
-0.12387145 0.042560954 0.66700006 9055294
-0.12260097 0.042560954 0.66700006 8923708
-0.12151238 0.042624764 0.66800004 8986419
-0.1206 0.042752381 0.67000002 8591661
-0.1195019 0.042816192 0.671 9315114
-0.11804762 0.042752381 0.67000002 9249321
-0.11677143 0.042752381 0.67000002 9712944
-0.11549524 0.042752381 0.67000002 9976116
-0.1138781 0.042624764 0.66800004 9779285
-0.11260572 0.042624764 0.66800004 9647699
-0.11133334 0.042624764 0.66800004 9647449
-0.11006096 0.042624764 0.66800004 9910621
-0.10878857 0.042624764 0.66800004 9910633
-0.10751619 0.042624764 0.66800004 10108012
-0.10624382 0.042624764 0.66800004 9382772
-0.10497144 0.042624764 0.66800004 8527463
-0.10400952 0.042752381 0.67000002 8986180
-0.10242667 0.042624764 0.66800004 11223142
-0.10115429 0.042624764 0.66800004 10572656
-0.10018095 0.042752381 0.67000002 11033207
-0.099052377 0.042816192 0.671 11231610
-0.09777429 0.042816192 0.671 11494782
-0.096496187 0.042816192 0.671 11495023
-0.0952181 0.042816192 0.671 11823988
-0.093939997 0.042816192 0.671 12945533
-0.092661902 0.042816192 0.671 13471877
-0.091383815 0.042816192 0.671 13669047
-0.090105712 0.042816192 0.671 13866426
-0.088695243 0.042752381 0.67000002 13539255
-0.087419048 0.042752381 0.67000002 13407669
-0.086271428 0.042816192 0.671 13010365
-0.084993333 0.042816192 0.671 12089263
-0.083715238 0.042816192 0.671 12085656
-0.082437143 0.042816192 0.671 11690898
-0.081159048 0.042816192 0.671 11887766
-0.080000006 0.042880002 0.67200005 12019352
-0.078720003 0.042880002 0.67200005 12284055
-0.077440001 0.042880002 0.67200005 12678813
-0.076046668 0.042816192 0.671 12812191
-0.074768573 0.042816192 0.671 13141156
-0.073490478 0.042816192 0.671 13207217
-0.072212376 0.042816192 0.671 13273010
-0.070934288 0.042816192 0.671 13469871
-0.069656193 0.042816192 0.671 13733043
-0.068378091 0.042816192 0.671 13338285
-0.067100003 0.042816192 0.671 13404078
-0.065821901 0.042816192 0.671 13338031
-0.064543813 0.042816192 0.671 13403824
-0.063265711 0.042816192 0.671 13470130
-0.061987616 0.042816192 0.671 13535923
-0.060709521 0.042816192 0.671 13536171
-0.059431426 0.042816192 0.671 13799343
-0.058153335 0.042816192 0.671 13734074
-0.05687524 0.042816192 0.671 13602488
-0.055597141 0.042816192 0.671 12481704
-0.054319046 0.042816192 0.671 11100051
-0.053040951 0.042816192 0.671 11162242
-0.051762857 0.042816192 0.671 10306933
-0.050484762 0.042816192 0.671 10633311
-0.049206667 0.042816192 0.671 10633311
-0.047928572 0.042816192 0.671 10369121
-0.046650477 0.042816192 0.671 10105949
-0.045372378 0.042816192 0.671 10432863
-0.044094287 0.042816192 0.671 10103898
-0.042816192 0.042816192 0.671 10301257
-0.041538097 0.042816192 0.671 10630222
-0.040259998 0.042816192 0.671 10698073
-0.038981903 0.042816192 0.671 10566487
-0.037703808 0.042816192 0.671 11424887
-0.036425717 0.042816192 0.671 12740747
-0.035147619 0.042816192 0.671 11819647
-0.033869524 0.042816192 0.671 11424889
-0.032591429 0.042816192 0.671 11818107
-0.031313334 0.042816192 0.671 12410244
-0.030035239 0.042816192 0.671 12213878
-0.028757142 0.042816192 0.671 12279671
-0.027479049 0.042816192 0.671 12279435
-0.026240002 0.042880002 0.67200005 12147849
-0.024960002 0.042880002 0.67200005 12147833
-0.023750478 0.04300762 0.67400002 12016247
-0.022466667 0.04300762 0.67400002 12213878
-0.021120002 0.042880002 0.67200005 12411257
-0.01984 0.042880002 0.67200005 12345487
-0.01856 0.042880002 0.67200005 11819143
-0.017280001 0.042880002 0.67200005 12081540
-0.015976191 0.042816192 0.671 12278919
-0.014698096 0.042816192 0.671 12213640
-0.01342 0.042816192 0.671 12147847
-0.012141905 0.042816192 0.671 11950722
-0.010863809 0.042816192 0.671 11687550
-0.0095857149 0.042816192 0.671 11290489
-0.0083076181 0.042816192 0.671 11093110
-0.0070295236 0.042816192 0.671 11156064
-0.0057514287 0.042816192 0.671 11156064
-0.0044733332 0.042816192 0.671 11155292
-0.0031952381 0.042816192 0.671 10694741
-0.0019171429 0.042816192 0.671 10759750
-0.00063904759 0.042816192 0.671 10364992
0.00063904759 0.042816192 0.671 10560313
0.0019171429 0.042816192 0.671 10691899
0.0031952381 0.042816192 0.671 10691899
0.0044733332 0.042816192 0.671 9244453
0.0057514287 0.042816192 0.671 10497563
0.0070295236 0.042816192 0.671 16748412
0.0083076181 0.042816192 0.671 14856075
0.0095857149 0.042816192 0.671 16435107
0.010863809 0.042816192 0.671 15518302
0.012141905 0.042816192 0.671 14860372
0.01342 0.042816192 0.671 14139213
0.014698096 0.042816192 0.671 16777105
0.015976191 0.042816192 0.671 16711422
0.017254286 0.042816192 0.671 16711422
0.01853238 0.042816192 0.671 15195647
0.019810477 0.042816192 0.671 13353444
0.021120002 0.042880002 0.67200005 13286611
0.022400003 0.042880002 0.67200005 14339299
0.023680001 0.042880002 0.67200005 14076664
0.024960002 0.042880002 0.67200005 15721471
0.026240002 0.042880002 0.67200005 16578814
0.027520001 0.042880002 0.67200005 16776447
0.028800001 0.042880002 0.67200005 16644607
0.030080002 0.042880002 0.67200005 3683386
0.03136 0.042880002 0.67200005 7014656
0.032640003 0.042880002 0.67200005 12672852
0.033920001 0.042880002 0.67200005 10715760
0.035200004 0.042880002 0.67200005 12097413
-0.12876 0.043765716 0.66600001 10319491
-0.12710857 0.043634288 0.66400003 8477287
-0.12584381 0.043634288 0.66400003 10110549
-0.12514192 0.04383143 0.66700006 10702686
-0.12387145 0.04383143 0.66700006 10836071
-0.12260097 0.04383143 0.66700006 10836071
-0.12151238 0.043897144 0.66800004 10966630
-0.1206 0.044028569 0.67000002 10966630
-0.1195019 0.044094287 0.671 11162739
-0.11804762 0.044028569 0.67000002 11162739
-0.11677143 0.044028569 0.67000002 11030629
-0.11515048 0.043897144 0.66800004 11754352
-0.1138781 0.043897144 0.66800004 11427204
-0.11243715 0.04383143 0.66700006 11427204
-0.11116667 0.04383143 0.66700006 11623556
-0.11006096 0.043897144 0.66800004 12347279
-0.10862572 0.04383143 0.66700006 12282781
-0.10735524 0.04383143 0.66700006 12414367
-0.10608477 0.04383143 0.66700006 11626136
-0.10497144 0.043897144 0.66800004 10441862
-0.10369906 0.043897144 0.66800004 10373984
-0.10242667 0.043897144 0.66800004 11163500
-0.10115429 0.043897144 0.66800004 11361413
-0.10018095 0.044028569 0.67000002 12216722
-0.098904766 0.044028569 0.67000002 12351136
-0.09777429 0.044094287 0.671 12351136
-0.096496187 0.044094287 0.671 12218505
-0.0952181 0.044094287 0.671 12284298
-0.093939997 0.044094287 0.671 13469601
-0.092661902 0.044094287 0.671 13930152
-0.091247626 0.044028569 0.67000002 14392761
-0.089971431 0.044028569 0.67000002 14261175
-0.088695243 0.044028569 0.67000002 14065338
-0.087419048 0.044028569 0.67000002 13144236
-0.08614286 0.044028569 0.67000002 13208239
-0.084866665 0.044028569 0.67000002 12484516
-0.083590478 0.044028569 0.67000002 12811164
-0.082314283 0.044028569 0.67000002 12416406
-0.081038095 0.044028569 0.67000002 12481175
-0.079880953 0.044094287 0.671 12612761
-0.07860285 0.044094287 0.671 12942748
-0.077324763 0.044094287 0.671 12942748
-0.075933337 0.044028569 0.67000002 13075615
-0.074657142 0.044028569 0.67000002 13601959
-0.073380955 0.044028569 0.67000002 13470396
-0.07210476 0.044028569 0.67000002 13273017
-0.070828572 0.044028569 0.67000002 13338801
-0.069552377 0.044028569 0.67000002 13338801
-0.068276189 0.044028569 0.67000002 13140911
-0.066999994 0.044028569 0.67000002 13206704
-0.065723814 0.044028569 0.67000002 13141165
-0.064447619 0.044028569 0.67000002 13535923
-0.063171431 0.044028569 0.67000002 13470900
-0.061895236 0.044028569 0.67000002 13668279
-0.060619049 0.044028569 0.67000002 13668027
-0.059342857 0.044028569 0.67000002 13668027
-0.058066666 0.044028569 0.67000002 13668538
-0.056790475 0.044028569 0.67000002 13076401
-0.055514287 0.044028569 0.67000002 11693215
-0.054238096 0.044028569 0.67000002 10772113
-0.052961905 0.044028569 0.67000002 11160704
-0.051685713 0.044028569 0.67000002 10173809
-0.050409522 0.044028569 0.67000002 10761049
-0.049133334 0.044028569 0.67000002 11024221
-0.047857143 0.044028569 0.67000002 10760534
-0.046580952 0.044028569 0.67000002 10431569
-0.04530476 0.044028569 0.67000002 10758226
-0.044028569 0.044028569 0.67000002 10560847
-0.042752381 0.044028569 0.67000002 10558782
-0.04147619 0.044028569 0.67000002 11216712
-0.040200002 0.044028569 0.67000002 11286630
-0.038923811 0.044028569 0.67000002 11286630
-0.03764762 0.044028569 0.67000002 11882351
-0.036371432 0.044028569 0.67000002 12079730
-0.035095241 0.044028569 0.67000002 11884139
-0.03381905 0.044028569 0.67000002 11884139
-0.032542858 0.044028569 0.67000002 11884150
-0.031266667 0.044028569 0.67000002 12081529
-0.029990477 0.044028569 0.67000002 12082040
-0.028714286 0.044028569 0.67000002 12345212
-0.027438097 0.044028569 0.67000002 12213640
-0.026200952 0.044094287 0.671 11687296
-0.024922857 0.044094287 0.671 11818357
-0.023680001 0.044160005 0.67200005 11884150
-0.022366667 0.044094287 0.671 11884402
-0.02108857 0.044094287 0.671 12213367
-0.019810477 0.044094287 0.671 12147849
-0.01853238 0.044094287 0.671 11753091
-0.017254286 0.044094287 0.671 11751549
-0.015976191 0.044094287 0.671 12212100
-0.014676191 0.044028569 0.67000002 12147329
-0.013400001 0.044028569 0.67000002 12015743
-0.012141905 0.044094287 0.671 12015227
-0.010847619 0.044028569 0.67000002 11423090
-0.0095714284 0.044028569 0.67000002 11354724
-0.0083076181 0.044094287 0.671 11157345
-0.0070295236 0.044094287 0.671 11156064
-0.0057514287 0.044094287 0.671 11024478
-0.0044733332 0.044094287 0.671 11024723
-0.0031952381 0.044094287 0.671 10169414
-0.0019171429 0.044094287 0.671 10690618
-0.00063904759 0.044094287 0.671 10559032
0.00063904759 0.044094287 0.671 10690618
0.0019142857 0.044028569 0.67000002 10822204
0.0031904762 0.044028569 0.67000002 10690368
0.0044666668 0.044028569 0.67000002 9571887
0.0057514287 0.044094287 0.671 10030852
0.0070295236 0.044094287 0.671 16742252
0.0083076181 0.044094287 0.671 14527871
0.0095857149 0.044094287 0.671 15712145
0.010863809 0.044094287 0.671 14796378
0.012141905 0.044094287 0.671 14467413
0.01342 0.044094287 0.671 13220715
0.014698096 0.044094287 0.671 16777139
0.015976191 0.044094287 0.671 16646142
0.017254286 0.044094287 0.671 16646142
0.01853238 0.044094287 0.671 14605553
0.019810477 0.044094287 0.671 14473967
0.021120002 0.044160005 0.67200005 15064548
0.022400003 0.044160005 0.67200005 14603997
0.023680001 0.044160005 0.67200005 12959713
0.024960002 0.044160005 0.67200005 15130879
0.026240002 0.044160005 0.67200005 16119035
0.027520001 0.044160005 0.67200005 16711167
0.028800001 0.044160005 0.67200005 16644605
0.030080002 0.044160005 0.67200005 3880763
0.03136 0.044160005 0.67200005 7277056
0.032640003 0.044160005 0.67200005 12277317
0.033920001 0.044160005 0.67200005 10582886
0.035200004 0.044160005 0.67200005 12359297
-0.12876 0.045034286 0.66600001 10713486
-0.12749143 0.045034286 0.66600001 9660798
-0.12622285 0.045034286 0.66600001 10441322
-0.12532952 0.045169525 0.66800004 10507115
-0.12405715 0.045169525 0.66800004 11032423
-0.12315238 0.04530476 0.67000002 11361388
-0.12187619 0.04530476 0.67000002 11426670
-0.1206 0.04530476 0.67000002 12610944
-0.11932381 0.04530476 0.67000002 12481177
-0.11804762 0.04530476 0.67000002 12810142
-0.11642287 0.045169525 0.66800004 12613265
-0.11515048 0.045169525 0.66800004 12481679
-0.11370763 0.045101907 0.66700006 12546968
-0.11243715 0.045101907 0.66700006 13665449
-0.11116667 0.045101907 0.66700006 13206704
-0.1098962 0.045101907 0.66700006 13338290
-0.10862572 0.045101907 0.66700006 13469876
-0.10735524 0.045101907 0.66700006 13864634
-0.10608477 0.045101907 0.66700006 12877230
-0.10481429 0.045101907 0.66700006 12153507
-0.10369906 0.045169525 0.66800004 12416665
-0.10242667 0.045169525 0.66800004 13469353
-0.10115429 0.045169525 0.66800004 13207476
-0.09988191 0.045169525 0.66800004 13141683
-0.098609529 0.045169525 0.66800004 13141683
-0.097628571 0.04530476 0.67000002 12483753
-0.096352383 0.04530476 0.67000002 12086419
-0.095076188 0.04530476 0.67000002 11889040
-0.093800001 0.04530476 0.67000002 12216720
-0.092523813 0.04530476 0.67000002 12348306
-0.091247626 0.04530476 0.67000002 12283024
-0.08970286 0.045169525 0.66800004 12348817
-0.088430479 0.045169525 0.66800004 11888014
-0.087158099 0.045169525 0.66800004 11295877
-0.085885718 0.045169525 0.66800004 11888759
-0.084613338 0.045169525 0.66800004 12217724
-0.083340958 0.045169525 0.66800004 12151688
-0.082068577 0.045169525 0.66800004 11756930
-0.081038095 0.04530476 0.67000002 12151177
-0.079761907 0.04530476 0.67000002 12216970
-0.07848572 0.04530476 0.67000002 12480907
-0.077209525 0.04530476 0.67000002 12415114
-0.075933337 0.04530476 0.67000002 12415375
-0.074657142 0.04530476 0.67000002 13468063
-0.073161907 0.045169525 0.66800004 13338303
-0.071889527 0.045169525 0.66800004 13075131
-0.070828572 0.04530476 0.67000002 12943275
-0.069552377 0.04530476 0.67000002 13009068
-0.068276189 0.04530476 0.67000002 12943023
-0.066999994 0.04530476 0.67000002 13074609
-0.065723814 0.04530476 0.67000002 12943532
-0.064447619 0.04530476 0.67000002 13140911
-0.063171431 0.04530476 0.67000002 13206958
-0.061895236 0.04530476 0.67000002 13930681
-0.060619049 0.04530476 0.67000002 13535167
-0.059342857 0.04530476 0.67000002 13074616
-0.058066666 0.04530476 0.67000002 12942505
-0.056790475 0.04530476 0.67000002 11560852
-0.055514287 0.04530476 0.67000002 11756930
-0.054238096 0.04530476 0.67000002 11691137
-0.052961905 0.04530476 0.67000002 11292047
-0.051685713 0.04530476 0.67000002 10831496
-0.050409522 0.04530476 0.67000002 10958946
-0.049133334 0.04530476 0.67000002 11024739
-0.047857143 0.04530476 0.67000002 11091036
-0.046580952 0.04530476 0.67000002 11091036
-0.04530476 0.04530476 0.67000002 11553870
-0.044028569 0.04530476 0.67000002 11685456
-0.042624764 0.045169525 0.66800004 11619161
-0.041352384 0.045169525 0.66800004 12606056
-0.040080003 0.045169525 0.66800004 12807555
-0.038923811 0.04530476 0.67000002 12807555
-0.03764762 0.04530476 0.67000002 12148599
-0.036371432 0.04530476 0.67000002 10372188
-0.035095241 0.04530476 0.67000002 11354976
-0.03381905 0.04530476 0.67000002 12407664
-0.032542858 0.04530476 0.67000002 11883889
-0.031266667 0.04530476 0.67000002 11949682
-0.029990477 0.04530476 0.67000002 12279669
-0.028714286 0.04530476 0.67000002 12608634
-0.027438097 0.04530476 0.67000002 12279169
-0.026200952 0.045372378 0.671 11555446
-0.024922857 0.045372378 0.671 11752055
-0.023644762 0.045372378 0.671 11949434
-0.022366667 0.045372378 0.671 11818609
-0.02108857 0.045372378 0.671 11950195
-0.019810477 0.045372378 0.671 11950468
-0.01853238 0.045372378 0.671 11950468
-0.017254286 0.045372378 0.671 12081279
-0.01595238 0.04530476 0.67000002 11949693
-0.014676191 0.04530476 0.67000002 11683700
-0.013400001 0.04530476 0.67000002 11420528
-0.012141905 0.045372378 0.671 11486823
-0.010847619 0.04530476 0.67000002 11157858
-0.0095714284 0.04530476 0.67000002 11024219
-0.0083076181 0.045372378 0.671 10761047
-0.0070295236 0.045372378 0.671 10756452
-0.0057514287 0.045372378 0.671 10493280
-0.0044733332 0.045372378 0.671 10690625
-0.0031952381 0.045372378 0.671 10953797
-0.0019171429 0.045372378 0.671 10757694
-0.00063904759 0.045372378 0.671 10494522
0.00063904759 0.045372378 0.671 10623549
0.0019142857 0.04530476 0.67000002 10623549
0.0031904762 0.04530476 0.67000002 10490943
0.0044666668 0.04530476 0.67000002 9964599
0.0057514287 0.045372378 0.671 10095649
0.0070295236 0.045372378 0.671 10885165
0.0083076181 0.045372378 0.671 10892090
0.0095857149 0.045372378 0.671 13129052
0.010863809 0.045372378 0.671 11430953
0.012141905 0.045372378 0.671 14917982
0.01342 0.045372378 0.671 12429679
0.014698096 0.045372378 0.671 16311466
0.015976191 0.045372378 0.671 16711422
0.017254286 0.045372378 0.671 16711422
0.01853238 0.045372378 0.671 16645629
0.019810477 0.045372378 0.671 16711422
0.021120002 0.04544 0.67200005 16711422
0.022400003 0.04544 0.67200005 16711422
0.023680001 0.04544 0.67200005 15724277
0.024960002 0.04544 0.67200005 16184828
0.026240002 0.04544 0.67200005 16514045
0.027520001 0.04544 0.67200005 16711423
0.028800001 0.04544 0.67200005 16642047
0.030080002 0.04544 0.67200005 3680826
0.03136 0.04544 0.67200005 7277056
0.032640003 0.04544 0.67200005 11948352
0.033920001 0.04544 0.67200005 10385509
0.035200004 0.04544 0.67200005 12556678
0.036642861 0.045642857 0.67500001 11378832
-0.13080953 0.046580952 0.67000002 8613993
-0.12895335 0.046372388 0.66700006 9788525
-0.12768286 0.046372388 0.66700006 9130595
-0.12641239 0.046372388 0.66700006 9646927
-0.12532952 0.046441909 0.66800004 9712720
-0.12405715 0.046441909 0.66800004 10304080
-0.12278477 0.046441909 0.66800004 10238287
-0.12151238 0.046441909 0.66800004 10434128
-0.12024 0.046441909 0.66800004 12144746
-0.11896762 0.046441909 0.66800004 11557756
-0.11769524 0.046441909 0.66800004 12215686
-0.11642287 0.046441909 0.66800004 11954302
-0.1149781 0.046372388 0.66700006 11691130
-0.11370763 0.046372388 0.66700006 11820674
-0.11243715 0.046372388 0.66700006 13399706
-0.11116667 0.046372388 0.66700006 12615323
-0.1098962 0.046372388 0.66700006 12286358
-0.10862572 0.046372388 0.66700006 12547488
-0.10735524 0.046372388 0.66700006 12613281
-0.10608477 0.046372388 0.66700006 12613272
-0.10481429 0.046372388 0.66700006 12481686
-0.10354382 0.046372388 0.66700006 12679315
-0.10227334 0.046372388 0.66700006 13205659
-0.10100286 0.046372388 0.66700006 13274025
-0.099732392 0.046372388 0.66700006 12813474
-0.098461911 0.046372388 0.66700006 12746918
-0.097337149 0.046441909 0.66800004 11825816
-0.096064761 0.046441909 0.66800004 11823236
-0.094792388 0.046441909 0.66800004 11560064
-0.093520008 0.046441909 0.66800004 11558524
-0.092247628 0.046441909 0.66800004 10637422
-0.090975247 0.046441909 0.66800004 11029336
-0.08970286 0.046441909 0.66800004 12016231
-0.088298097 0.046372388 0.66700006 11688581
-0.087027624 0.046372388 0.66700006 11951753
-0.085757144 0.046372388 0.66700006 12414083
-0.084613338 0.046441909 0.66800004 12414083
-0.083340958 0.046441909 0.66800004 12019600
-0.082068577 0.046441909 0.66800004 12085393
-0.080796197 0.046441909 0.66800004 12414110
-0.079523817 0.046441909 0.66800004 12085145
-0.07848572 0.046580952 0.67000002 12281997
-0.077209525 0.046580952 0.67000002 12413583
-0.075706668 0.046441909 0.66800004 12283276
-0.074434288 0.046441909 0.66800004 13467550
-0.073161907 0.046441909 0.66800004 13470139
-0.071889527 0.046441909 0.66800004 13141174
-0.070617147 0.046441909 0.66800004 13271213
-0.069344766 0.046441909 0.66800004 13205420
-0.068072386 0.046441909 0.66800004 13008552
-0.066800006 0.046441909 0.66800004 13205931
-0.065527618 0.046441909 0.66800004 13009840
-0.064447619 0.046580952 0.67000002 13009840
-0.063171431 0.046580952 0.67000002 13338033
-0.061895236 0.046580952 0.67000002 13403826
-0.060619049 0.046580952 0.67000002 13337013
-0.059342857 0.046580952 0.67000002 13205427
-0.058066666 0.046580952 0.67000002 12612781
-0.056790475 0.046580952 0.67000002 11625886
-0.055514287 0.046580952 0.67000002 11886467
-0.054238096 0.046580952 0.67000002 11952260
-0.052961905 0.046580952 0.67000002 11621764
-0.051685713 0.046580952 0.67000002 10898041
-0.050409522 0.046580952 0.67000002 11418997
-0.049133334 0.046580952 0.67000002 11484790
-0.047714286 0.046441909 0.66800004 11354483
-0.046441909 0.046441909 0.66800004 11420276
-0.04530476 0.046580952 0.67000002 11685751
-0.043897144 0.046441909 0.66800004 11817337
-0.042624764 0.046441909 0.66800004 11620969
-0.041352384 0.046441909 0.66800004 12410485
-0.040080003 0.046441909 0.66800004 12808334
-0.038923811 0.046580952 0.67000002 12347783
-0.03764762 0.046580952 0.67000002 12083587
-0.036371432 0.046580952 0.67000002 10636141
-0.035095241 0.046580952 0.67000002 11355489
-0.03381905 0.046580952 0.67000002 12276591
-0.032542858 0.046580952 0.67000002 11818861
-0.031266667 0.046580952 0.67000002 12279412
-0.029990477 0.046580952 0.67000002 12280187
-0.028714286 0.046580952 0.67000002 12280187
-0.027438097 0.046580952 0.67000002 12015997
-0.026200952 0.046650477 0.671 11621239
-0.024922857 0.046650477 0.671 11685740
-0.023609525 0.046580952 0.67000002 12014705
-0.022333333 0.046580952 0.67000002 11753073
-0.021057144 0.046580952 0.67000002 11818866
-0.019780952 0.046580952 0.67000002 11884411
-0.018504761 0.046580952 0.67000002 11884411
-0.017228572 0.046580952 0.67000002 12015223
-0.01595238 0.046580952 0.67000002 11883637
-0.014676191 0.046580952 0.67000002 11354208
-0.013400001 0.046580952 0.67000002 11551587
-0.012141905 0.046650477 0.671 11486301
-0.010847619 0.046580952 0.67000002 11288922
-0.0095714284 0.046580952 0.67000002 10825550
-0.008295238 0.046580952 0.67000002 10430792
-0.0070190481 0.046580952 0.67000002 10623310
-0.0057514287 0.046650477 0.671 10491724
-0.0044733332 0.046650477 0.671 10623294
-0.0031952381 0.046650477 0.671 10623294
-0.0019171429 0.046650477 0.671 10623801
-0.00063904759 0.046650477 0.671 10689594
0.00063904759 0.046650477 0.671 10558764
0.0019142857 0.046580952 0.67000002 10492971
0.0031904762 0.046580952 0.67000002 10491699
