# .PCD v0.7 - Point Cloud Data file format
VERSION 0.7
FIELDS x y z rgb
SIZE 4 4 4 4
TYPE F F F F
COUNT 1 1 1 1
WIDTH 1021
HEIGHT 1
VIEWPOINT 0 0 0 1 0 0 0
POINTS 1021
DATA ascii
-0.078017138 0.13890858 0.66600001 1.1251119e-38
-0.076748572 0.13890858 0.66600001 1.1435511e-38
-0.075479999 0.13890858 0.66600001 1.1711013e-38
-0.18893144 0.13007429 0.61800003 8.8540203e-39
-0.18684286 0.12944287 0.61500001 8.6678564e-39
-0.18506762 0.12902191 0.61300004 8.2068782e-39
-0.18360001 0.12881143 0.61200005 7.8406068e-39
-0.18213618 0.12860096 0.611 5.9044986e-39
-0.18067619 0.12839048 0.61000001 4.7098959e-39
-0.17892572 0.12796953 0.60800004 7.0147866e-39
-0.17747524 0.12775907 0.60700005 8.8540147e-39
-0.17602856 0.12754856 0.60600001 8.9462103e-39
-0.17372002 0.12670667 0.60200006 8.4877559e-39
-0.17228666 0.12649618 0.60100001 8.8565384e-39
-0.17114191 0.12649618 0.60100001 8.6739422e-39
-0.1697143 0.12628572 0.60000002 9.0427247e-39
-0.1682905 0.12607525 0.59900004 9.0427373e-39
-0.16714953 0.12607525 0.59900004 8.9505417e-39
-0.16573144 0.12586476 0.59800005 8.4892132e-39
-0.1645924 0.12586476 0.59800005 8.7658001e-39
-0.16318001 0.12565428 0.597 8.8579831e-39
-0.16204286 0.12565428 0.597 8.5813963e-39
-0.16090572 0.12565428 0.597 8.7654442e-39
-0.15976857 0.12565428 0.597 1.0148379e-38
-0.15863143 0.12565428 0.597 1.0792649e-38
-0.15749429 0.12565428 0.597 9.5019106e-39
-0.15609525 0.12544382 0.59600002 7.9349605e-39
-0.15496001 0.12544382 0.59600002 6.8286129e-39
-0.15408286 0.12565428 0.597 7.3795782e-39
-0.15268953 0.12544382 0.59600002 9.684469e-39
-0.15155429 0.12544382 0.59600002 9.1313947e-39
-0.15041904 0.12544382 0.59600002 1.6635487e-39
-0.14928381 0.12544382 0.59600002 3.7867793e-39
-0.14814857 0.12544382 0.59600002 1.1439011e-38
-0.14701334 0.12544382 0.59600002 1.2080171e-38
-0.14563334 0.12523334 0.59500003 1.0051867e-38
-0.1445 0.12523334 0.59500003 7.6591149e-39
-0.14360763 0.12544382 0.59600002 4.9854416e-39
-0.14271143 0.12565428 0.597 5.1712397e-39
-0.14157428 0.12565428 0.597 7.5683261e-39
-0.14067239 0.12586476 0.59800005 1.0603551e-38
-0.13953334 0.12586476 0.59800005 1.0234769e-38
-0.1383943 0.12586476 0.59800005 1.0146574e-38
-0.13748477 0.12607525 0.59900004 1.1160726e-38
-0.13634382 0.12607525 0.59900004 1.0609009e-38
-0.13520287 0.12607525 0.59900004 5.9070321e-39
-0.13406192 0.12607525 0.59900004 4.5273025e-39
-0.13314286 0.12628572 0.60000002 8.122932e-39
-0.13222 0.12649618 0.60100001 1.0146561e-38
-0.13129334 0.12670667 0.60200006 9.9621699e-39
-0.13014667 0.12670667 0.60200006 9.5022988e-39
-0.12900001 0.12670667 0.60200006 9.4101031e-39
-0.12806572 0.12691715 0.60300004 9.3178949e-39
-0.12691715 0.12691715 0.60300004 9.3178949e-39
-0.12576857 0.12691715 0.60300004 9.0431031e-39
-0.12482667 0.12712763 0.60400003 9.1352987e-39
-0.12408572 0.12754856 0.60600001 9.2257091e-39
-0.1231343 0.12775907 0.60700005 8.1193615e-39
-0.1219781 0.12775907 0.60700005 7.6558624e-39
-0.12102096 0.12796953 0.60800004 1.0421731e-38
-0.12025715 0.12839048 0.61000001 1.1619912e-38
-0.11929047 0.12860096 0.611 1.0236977e-38
-0.11812666 0.12860096 0.611 9.5022834e-39
-0.11715429 0.12881143 0.61200005 7.4739795e-39
-0.1161781 0.12902191 0.61300004 4.8964675e-39
-0.1151981 0.12923238 0.61400002 6.4637932e-39
-0.11402857 0.12923238 0.61400002 7.3817867e-39
-0.11322667 0.12965335 0.61600006 7.0130042e-39
-0.11241715 0.13007429 0.61800003 7.1970423e-39
-0.1116 0.13049524 0.62 9.5941287e-39
-0.11059715 0.13070573 0.62100005 9.9614664e-39
-0.10976667 0.13112666 0.62300003 9.5926839e-39
-0.10875428 0.13133715 0.62400001 9.3164628e-39
-0.10773809 0.13154761 0.625 9.0398759e-39
-0.10688858 0.13196857 0.62700003 8.8558406e-39
-0.10620001 0.13260001 0.63000005 8.5792537e-39
-0.10566666 0.1334419 0.634 9.1295478e-39
-0.10445905 0.1334419 0.634 8.9451565e-39
-0.10357714 0.13386287 0.63600004 9.0373521e-39
-0.10252667 0.13407335 0.63700002 1.0051504e-38
-0.10131334 0.13407335 0.63700002 1.0512087e-38
-0.093076192 0.14186096 0.67400002 1.0511384e-38
-0.091520004 0.14144 0.67200005 9.5905259e-39
-0.090240002 0.14144 0.67200005 9.7749172e-39
-0.088827617 0.14122953 0.671 9.3171915e-39
-0.087549523 0.14122953 0.671 1.0423539e-38
-0.08614286 0.14101905 0.67000002 1.070012e-38
-0.084866665 0.14101905 0.67000002 1.1161098e-38
-0.083340958 0.1405981 0.66800004 1.1344416e-38
-0.081945717 0.14038762 0.66700006 1.1067829e-38
-0.080554284 0.14017715 0.66600001 1.125147e-38
-0.079285711 0.14017715 0.66600001 1.125147e-38
-0.078017138 0.14017715 0.66600001 1.1526622e-38
-0.076748572 0.14017715 0.66600001 1.1526622e-38
-0.18893144 0.13125144 0.61800003 9.407194e-39
-0.18684286 0.1306143 0.61500001 8.9451565e-39
-0.18536952 0.13040191 0.61400002 8.1153958e-39
-0.18360001 0.12997715 0.61200005 7.8406068e-39
-0.18213618 0.12976477 0.611 7.287433e-39
-0.18067619 0.12955238 0.61000001 7.1963164e-39
-0.17922001 0.12934001 0.60900003 8.4870552e-39
-0.17776762 0.12912764 0.60800004 8.5792228e-39
-0.17631905 0.12891525 0.60700005 8.4870272e-39
-0.17429715 0.12827809 0.60400003 8.4866769e-39
-0.17286 0.12806572 0.60300004 8.4866769e-39
-0.17142668 0.12785335 0.60200006 7.3828531e-39
-0.16999716 0.12764095 0.60100001 6.7374837e-39
-0.16857143 0.12742858 0.60000002 7.7519957e-39
-0.16742857 0.12742858 0.60000002 8.3051695e-39
-0.16600858 0.12721621 0.59900004 8.9494599e-39
-0.16486762 0.12721621 0.59900004 9.0416555e-39
-0.16345334 0.12700382 0.59800005 8.6732261e-39
-0.1623143 0.12700382 0.59800005 8.7654218e-39
-0.16117525 0.12700382 0.59800005 9.318255e-39
-0.16003619 0.12700382 0.59800005 1.005582e-38
-0.15863143 0.12679142 0.597 1.0148353e-38
-0.15749429 0.12679142 0.597 9.8717665e-39
-0.15635714 0.12679142 0.597 8.9487593e-39
-0.15522 0.12679142 0.597 5.8141078e-39
-0.15408286 0.12679142 0.597 7.0101049e-39
-0.15294571 0.12679142 0.597 1.1251104e-38
-0.15155429 0.12657905 0.59600002 1.0789447e-38
-0.15041904 0.12657905 0.59600002 2.2152539e-39
-0.14928381 0.12657905 0.59600002 5.6468965e-40
-0.14814857 0.12657905 0.59600002 9.5998614e-39
-0.14701334 0.12657905 0.59600002 1.1988684e-38
-0.14587809 0.12657905 0.59600002 1.1712097e-38
-0.14474286 0.12657905 0.59600002 1.0516112e-38
-0.14360763 0.12657905 0.59600002 8.5800034e-39
-0.14271143 0.12679142 0.597 7.0144237e-39
-0.14157428 0.12679142 0.597 5.9080761e-39
-0.14067239 0.12700382 0.59800005 7.5658052e-39
-0.13953334 0.12700382 0.59800005 9.0409353e-39
-0.1383943 0.12700382 0.59800005 1.0146214e-38
-0.1377143 0.12742858 0.60000002 1.1252561e-38
-0.13657144 0.12742858 0.60000002 1.1436599e-38
-0.13542858 0.12742858 0.60000002 1.0422447e-38
-0.13428572 0.12742858 0.60000002 9.318255e-39
-0.13336477 0.12764095 0.60100001 8.3041031e-39
-0.13222 0.12764095 0.60100001 9.2256965e-39
-0.13129334 0.12785335 0.60200006 1.042424e-38
-0.13014667 0.12785335 0.60200006 1.079123e-38
-0.12900001 0.12785335 0.60200006 1.0053665e-38
-0.12806572 0.12806572 0.60300004 9.5948419e-39
-0.12712763 0.12827809 0.60400003 9.5948419e-39
-0.12597714 0.12827809 0.60400003 9.6873879e-39
-0.12524 0.12870285 0.60600001 9.8717791e-39
-0.12429048 0.12891525 0.60700005 1.0423161e-38
-0.1231343 0.12891525 0.60700005 1.0054378e-38
-0.12217905 0.12912764 0.60800004 8.7632918e-39
-0.12122001 0.12934001 0.60900003 7.1037705e-39
-0.12025715 0.12955238 0.61000001 6.7371529e-39
-0.11929047 0.12976477 0.611 8.0278918e-39
-0.11832 0.12997715 0.61200005 8.3966645e-39
-0.11715429 0.12997715 0.61200005 9.1342295e-39
-0.1161781 0.13018952 0.61300004 7.7513049e-39
-0.1151981 0.13040191 0.61400002 7.3825224e-39
-0.11421429 0.1306143 0.61500001 7.1966864e-39
-0.11322667 0.13082668 0.61600006 7.0122951e-39
-0.11241715 0.13125144 0.61800003 7.9335521e-39
-0.11178001 0.13188858 0.62100005 9.5930735e-39
-0.11077525 0.13210095 0.62200004 9.8696267e-39
-0.10994286 0.13252573 0.62400001 9.5008442e-39
-0.10892857 0.1327381 0.625 9.2242671e-39
-0.10773809 0.1327381 0.625 9.0398759e-39
-0.10688858 0.13316287 0.62700003 8.8554846e-39
-0.10620001 0.1338 0.63000005 8.6710934e-39
-0.10566666 0.13464953 0.634 9.0373521e-39
-0.10462382 0.13486192 0.63500005 8.9451565e-39
-0.10374 0.13528667 0.63700002 9.0377025e-39
-0.10252667 0.13528667 0.63700002 1.014405e-38
-0.10147239 0.13549905 0.63800001 1.0419889e-38
-0.094080001 0.14272001 0.67200005 1.0143337e-38
-0.092800006 0.14272001 0.67200005 9.590163e-39
-0.091520004 0.14272001 0.67200005 9.4983303e-39
-0.090105712 0.14250761 0.671 1.0420287e-38
-0.088827617 0.14250761 0.671 1.0053677e-38
-0.087549523 0.14250761 0.671 1.0699047e-38
-0.08614286 0.14229524 0.67000002 1.1252571e-38
-0.084866665 0.14229524 0.67000002 1.2266723e-38
-0.083340958 0.14187048 0.66800004 1.2357123e-38
-0.081945717 0.14165811 0.66700006 1.1250776e-38
-0.080554284 0.14144571 0.66600001 1.0882687e-38
-0.079285711 0.14144571 0.66600001 1.1159274e-38
-0.18684286 0.13178571 0.61500001 9.2217434e-39
-0.18536952 0.13157144 0.61400002 8.2997871e-39
-0.18360001 0.13114287 0.61200005 8.299434e-39
-0.18243429 0.13114287 0.61200005 8.2072384e-39
-0.18067619 0.13071428 0.61000001 7.8409571e-39
-0.17922001 0.1305 0.60900003 8.3941309e-39
-0.17776762 0.13028571 0.60800004 8.3955603e-39
-0.17631905 0.13007143 0.60700005 8.3033646e-39
-0.17429715 0.12942858 0.60400003 8.3955659e-39
-0.17286 0.12921429 0.60300004 8.3033702e-39
-0.17142668 0.12900001 0.60200006 7.4746802e-39
-0.17028002 0.12900001 0.60200006 7.3824845e-39
-0.16885237 0.12878571 0.60100001 8.0278539e-39
-0.16770762 0.12878571 0.60100001 8.8576146e-39
-0.16628572 0.12857142 0.60000002 9.3182452e-39
-0.16514286 0.12857142 0.60000002 9.0416583e-39
-0.16372667 0.12835716 0.59900004 8.2118949e-39
-0.16258572 0.12835716 0.59900004 9.2260468e-39
-0.16144477 0.12835716 0.59900004 9.7792332e-39
-0.16003619 0.12814288 0.59800005 9.8714288e-39
-0.15889715 0.12814288 0.59800005 1.0148006e-38
-0.15749429 0.12792857 0.597 9.871419e-39
-0.15635714 0.12792857 0.597 9.041308e-39
-0.15522 0.12792857 0.597 5.1690916e-39
-0.15408286 0.12792857 0.597 4.711328e-39
-0.15294571 0.12792857 0.597 1.0243066e-38
-0.15180857 0.12792857 0.597 1.1526313e-38
-0.15067142 0.12792857 0.597 2.9521197e-39
-0.14953429 0.12792857 0.597 9.7216482e-41
-0.14839715 0.12792857 0.597 1.0515318e-38
-0.14726 0.12792857 0.597 1.1437315e-38
-0.14587809 0.12771429 0.59600002 1.0884142e-38
-0.14474286 0.12771429 0.59600002 1.1068199e-38
-0.14384857 0.12792857 0.597 1.0054047e-38
-0.14295048 0.12814288 0.59800005 8.3044787e-39
-0.14181143 0.12814288 0.59800005 6.2761748e-39
-0.14090762 0.12835716 0.59900004 3.9752371e-39
-0.13976666 0.12835716 0.59900004 5.5425628e-39
-0.13862573 0.12835716 0.59900004 9.1284464e-39
-0.1377143 0.12857142 0.60000002 1.1341141e-38
-0.13657144 0.12857142 0.60000002 1.1436599e-38
-0.13542858 0.12857142 0.60000002 1.079123e-38
-0.13428572 0.12857142 0.60000002 1.0883776e-38
-0.13358667 0.12900001 0.60200006 9.9618196e-39
-0.13244002 0.12900001 0.60200006 8.0286008e-39
-0.13129334 0.12900001 0.60200006 9.8725134e-39
-0.13036287 0.12921429 0.60300004 1.0975624e-38
-0.12921429 0.12921429 0.60300004 1.0145863e-38
-0.12827809 0.12942858 0.60400003 9.5948419e-39
-0.12754856 0.12985715 0.60600001 9.6870376e-39
-0.12639429 0.12985715 0.60600001 1.0054381e-38
-0.12524 0.12985715 0.60600001 1.0423163e-38
-0.12429048 0.13007143 0.60700005 1.0974905e-38
-0.1231343 0.13007143 0.60700005 1.0145144e-38
-0.12217905 0.13028571 0.60800004 8.3966617e-39
-0.12141905 0.13071428 0.61000001 4.8932277e-39
-0.12025715 0.13071428 0.61000001 1.3962608e-39
-0.11929047 0.13092858 0.611 6.7436073e-39
-0.11832 0.13114287 0.61200005 8.3044716e-39
-0.11734572 0.13135715 0.61300004 8.3966673e-39
-0.1161781 0.13135715 0.61300004 8.1200776e-39
-0.1151981 0.13157144 0.61400002 7.6590994e-39
-0.11421429 0.13178571 0.61500001 7.3807077e-39
-0.11322667 0.132 0.61600006 8.302664e-39
-0.11259905 0.13264287 0.61900002 1.0328091e-38
-0.11196 0.13328573 0.62200004 1.0235895e-38
-0.11095334 0.13349999 0.62300003 9.8696267e-39
-0.10994286 0.13371429 0.62400001 9.4086486e-39
-0.10892857 0.13392857 0.625 9.3153838e-39
-0.10808286 0.13435715 0.62700003 9.1309925e-39
-0.10705905 0.13457143 0.62800002 8.8558406e-39
-0.10653715 0.13542858 0.63200003 8.6714493e-39
-0.10583334 0.13607144 0.63500005 9.1298981e-39
-0.10495333 0.13650002 0.63700002 9.0377025e-39
-0.10390285 0.13671429 0.63800001 9.1298883e-39
-0.10268762 0.13671429 0.63800001 1.0051845e-38
-0.10147239 0.13671429 0.63800001 1.0603204e-38
-0.094360001 0.14442858 0.67400002 1.0326289e-38
-0.092800006 0.14400001 0.67200005 1.0141898e-38
-0.091383815 0.14378572 0.671 9.4983331e-39
-0.090105712 0.14378572 0.671 1.0512485e-38
-0.088827617 0.14378572 0.671 1.0146947e-38
-0.087419048 0.14357142 0.67000002 1.070012e-38
-0.08614286 0.14357142 0.67000002 1.1436599e-38
-0.084613338 0.14314286 0.66800004 1.1897577e-38
-0.083340958 0.14314286 0.66800004 1.208089e-38
-0.081945717 0.14292859 0.66700006 1.1066738e-38
-0.080675244 0.14292859 0.66700006 1.1158192e-38
-0.18684286 0.13295713 0.61500001 9.8674505e-39
-0.18536952 0.13274096 0.61400002 8.2079292e-39
-0.18390001 0.13252476 0.61300004 8.2072384e-39
-0.18243429 0.13230859 0.61200005 8.2072384e-39
-0.18097238 0.13209239 0.611 7.8409571e-39
-0.17951429 0.13187619 0.61000001 7.6565659e-39
-0.17806001 0.13166001 0.60900003 8.5774306e-39
-0.17660955 0.13144381 0.60800004 8.9462131e-39
-0.17487428 0.13101143 0.60600001 8.8551063e-39
-0.17314668 0.13057905 0.60400003 9.5004757e-39
-0.17199619 0.13057905 0.60400003 8.8586866e-39
-0.17028002 0.13014667 0.60200006 8.9508822e-39
-0.16913334 0.13014667 0.60200006 9.4114974e-39
-0.16770762 0.12993048 0.60100001 9.5958887e-39
-0.16656286 0.12993048 0.60100001 9.5948321e-39
-0.16514286 0.1297143 0.60000002 9.3182452e-39
-0.164 0.1297143 0.60000002 9.4104409e-39
-0.16285715 0.1297143 0.60000002 9.871419e-39
-0.16144477 0.12949809 0.59900004 1.0330965e-38
-0.16030382 0.12949809 0.59900004 1.0330965e-38
-0.15889715 0.12928192 0.59800005 1.0239476e-38
-0.1577581 0.12928192 0.59800005 7.657998e-39
-0.15635714 0.12906571 0.597 3.7908585e-39
-0.15522 0.12906571 0.597 4.7181579e-40
-0.15408286 0.12906571 0.597 4.0663187e-39
-0.15294571 0.12906571 0.597 1.0520013e-38
-0.15180857 0.12906571 0.597 1.1711394e-38
-0.15067142 0.12906571 0.597 4.8889173e-39
-0.14953429 0.12906571 0.597 5.6645248e-40
-0.14839715 0.12906571 0.597 7.0201466e-39
-0.14726 0.12906571 0.597 1.1436924e-38
-0.14612286 0.12906571 0.597 1.1160338e-38
-0.14498572 0.12906571 0.597 1.0700123e-38
-0.14408953 0.12928192 0.59800005 1.0700123e-38
-0.14318953 0.12949809 0.59900004 9.7781962e-39
-0.14204858 0.12949809 0.59900004 8.8562399e-39
-0.14090762 0.12949809 0.59900004 5.1727405e-39
-0.13976666 0.12949809 0.59900004 2.4990673e-39
-0.13862573 0.12949809 0.59900004 4.8052668e-39
-0.1377143 0.1297143 0.60000002 6.1882013e-39
-0.13657144 0.1297143 0.60000002 7.9335283e-39
-0.13542858 0.1297143 0.60000002 8.763289e-39
-0.13428572 0.1297143 0.60000002 1.0330577e-38
-0.13358667 0.13014667 0.60200006 1.1252533e-38
-0.13244002 0.13014667 0.60200006 1.0607179e-38
-0.13151143 0.13036287 0.60300004 1.0607179e-38
-0.13036287 0.13036287 0.60300004 1.0606839e-38
-0.12942858 0.13057905 0.60400003 1.0422447e-38
-0.12870285 0.13101143 0.60600001 1.0238769e-38
-0.12754856 0.13101143 0.60600001 1.0054378e-38
-0.12639429 0.13101143 0.60600001 9.2260594e-39
-0.12544668 0.13122763 0.60700005 8.3962987e-39
-0.12449524 0.13144381 0.60800004 7.1037943e-39
-0.12333716 0.13144381 0.60800004 6.181838e-39
-0.12217905 0.13144381 0.60800004 5.7226157e-39
-0.12141905 0.13187619 0.61000001 5.1694419e-39
-0.12045428 0.13209239 0.611 5.2634606e-39
-0.11929047 0.13209239 0.611 8.2137208e-39
-0.11832 0.13230859 0.61200005 8.7654624e-39
-0.11734572 0.13252476 0.61300004 8.6732668e-39
-0.11636762 0.13274096 0.61400002 9.3186054e-39
-0.11538571 0.13295713 0.61500001 9.410801e-39
-0.11440001 0.13317335 0.61600006 9.4104409e-39
-0.11359429 0.13360572 0.61800003 9.6870277e-39
-0.11278095 0.13403811 0.62 9.6866746e-39
-0.11196 0.13447049 0.62200004 9.594479e-39
-0.11095334 0.13468666 0.62300003 9.7770752e-39
-0.10994286 0.13490286 0.62400001 9.5004883e-39
-0.10892857 0.13511905 0.625 9.2242671e-39
-0.10808286 0.13555144 0.62700003 9.1320715e-39
-0.10740001 0.13620001 0.63000005 8.9480362e-39
-0.10687429 0.13706475 0.634 8.8558406e-39
-0.10616667 0.13771333 0.63700002 8.9473047e-39
-0.1051181 0.13792953 0.63800001 8.7629134e-39
-0.10390285 0.13792953 0.63800001 8.945497e-39
-0.10268762 0.13792953 0.63800001 9.8674533e-39
-0.10147239 0.13792953 0.63800001 1.0603201e-38
-0.095360003 0.14528 0.67200005 9.8674561e-39
-0.094080001 0.14528 0.67200005 9.4997778e-39
-0.092800006 0.14528 0.67200005 9.8685604e-39
-0.091383815 0.1450638 0.671 1.0145863e-38
-0.090105712 0.1450638 0.671 1.0791233e-38
-0.088827617 0.1450638 0.671 1.1068183e-38
-0.087419048 0.14484762 0.67000002 1.1344769e-38
-0.08614286 0.14484762 0.67000002 1.1528792e-38
-0.084613338 0.14441526 0.66800004 1.1436597e-38
-0.083340958 0.14441526 0.66800004 1.1159274e-38
-0.082068577 0.14441526 0.66800004 1.0882687e-38
-0.18684286 0.13412857 0.61500001 9.959649e-39
-0.18536952 0.13391048 0.61400002 8.5767145e-39
-0.18390001 0.1336924 0.61300004 8.2072384e-39
-0.18243429 0.13347429 0.61200005 8.299434e-39
-0.18097238 0.1332562 0.611 8.0253484e-39
-0.17951429 0.1330381 0.61000001 8.0253484e-39
-0.17806001 0.13282001 0.60900003 7.5643675e-39
-0.17660955 0.13260192 0.60800004 8.4863238e-39
-0.17516288 0.13238381 0.60700005 8.4877615e-39
-0.17372 0.13216572 0.60600001 8.856544e-39
-0.17199619 0.13172953 0.60400003 9.0420087e-39
-0.17084573 0.13172953 0.60400003 9.2263999e-39
-0.16913334 0.13129334 0.60200006 9.5033497e-39
-0.16798668 0.13129334 0.60200006 9.687741e-39
-0.16656286 0.13107523 0.60100001 9.9621825e-39
-0.1654181 0.13107523 0.60100001 9.6855956e-39
-0.164 0.13085715 0.60000002 1.0054366e-38
-0.16285715 0.13085715 0.60000002 1.0330952e-38
-0.16144477 0.13063905 0.59900004 1.0606123e-38
-0.16030382 0.13063905 0.59900004 9.9607532e-39
-0.15889715 0.13042097 0.59800005 9.0409297e-39
-0.1577581 0.13042097 0.59800005 6.459452e-39
-0.15661906 0.13042097 0.59800005 2.2246048e-39
-0.15522 0.13020286 0.597 5.6508341e-40
-0.15408286 0.13020286 0.597 3.2397852e-39
-0.15294571 0.13020286 0.597 9.9700662e-39
-0.15180857 0.13020286 0.597 1.2080183e-38
-0.15092382 0.13042097 0.59800005 6.3640544e-39
-0.14978477 0.13042097 0.59800005 2.952428e-39
-0.14864573 0.13042097 0.59800005 6.2714706e-39
-0.14750668 0.13042097 0.59800005 1.0051842e-38
-0.14636764 0.13042097 0.59800005 1.1619167e-38
-0.14522858 0.13042097 0.59800005 1.0792319e-38
-0.14433049 0.13063905 0.59900004 1.0515732e-38
-0.14318953 0.13063905 0.59900004 1.0883808e-38
-0.14204858 0.13063905 0.59900004 1.0607221e-38
-0.14090762 0.13063905 0.59900004 9.3193466e-39
-0.13976666 0.13063905 0.59900004 7.2910428e-39
-0.13885714 0.13085715 0.60000002 5.1744992e-39
-0.1379438 0.13107523 0.60100001 5.0823035e-39
-0.13679905 0.13107523 0.60100001 4.7110029e-39
-0.13565429 0.13107523 0.60100001 5.171981e-39
-0.13473335 0.13129334 0.60200006 7.7451616e-39
-0.13358667 0.13129334 0.60200006 9.9578567e-39
-0.13244002 0.13129334 0.60200006 1.0329876e-38
-0.13151143 0.13151143 0.60300004 1.0145485e-38
-0.13036287 0.13151143 0.60300004 9.5029966e-39
-0.12942858 0.13172953 0.60400003 9.1342141e-39
-0.12870285 0.13216572 0.60600001 9.0416555e-39
-0.12754856 0.13216572 0.60600001 8.8572643e-39
-0.12639429 0.13216572 0.60600001 7.2920896e-39
-0.12544668 0.13238381 0.60700005 6.923307e-39
-0.12449524 0.13260192 0.60800004 6.0002942e-39
-0.12333716 0.13260192 0.60800004 6.0002942e-39
-0.12238 0.13282001 0.60900003 7.0086952e-39
-0.12141905 0.1330381 0.61000001 8.0228471e-39
-0.12045428 0.1332562 0.611 1.0234444e-38
-0.11948572 0.13347429 0.61200005 1.0418835e-38
-0.11851335 0.1336924 0.61300004 9.7788829e-39
-0.11734572 0.1336924 0.61300004 9.6866872e-39
-0.11636762 0.13391048 0.61400002 9.6874005e-39
-0.11538571 0.13412857 0.61500001 9.6874005e-39
-0.11440001 0.13434668 0.61600006 9.6870376e-39
-0.11359429 0.13478287 0.61800003 9.5026463e-39
-0.11278095 0.13521904 0.62 9.5944818e-39
-0.11196 0.13565524 0.62200004 9.5944818e-39
-0.11095334 0.13587333 0.62300003 9.5934028e-39
-0.11011904 0.13630952 0.625 9.4090115e-39
-0.10892857 0.13630952 0.625 9.2242671e-39
-0.10808286 0.13674572 0.62700003 9.0398759e-39
-0.10774095 0.1378362 0.63200003 8.9480362e-39
-0.10704286 0.13849048 0.63500005 8.9480362e-39
-0.10616667 0.13892667 0.63700002 9.0395003e-39
-0.1051181 0.13914476 0.63800001 8.7629134e-39
-0.10390285 0.13914476 0.63800001 9.0376927e-39
-0.10268762 0.13914476 0.63800001 9.959649e-39
-0.10147239 0.13914476 0.63800001 1.0603201e-38
-0.09692762 0.1469962 0.67400002 9.6852201e-39
-0.095360003 0.14656001 0.67200005 9.3164376e-39
-0.094080001 0.14656001 0.67200005 8.9473299e-39
-0.092800006 0.14656001 0.67200005 1.0053677e-38
-0.091383815 0.1463419 0.671 1.0239145e-38
-0.090105712 0.1463419 0.671 1.1161101e-38
-0.088695243 0.14612381 0.67000002 1.116218e-38
-0.087419048 0.14612381 0.67000002 1.1438767e-38
-0.085885718 0.14568762 0.66800004 1.1898647e-38
-0.084613338 0.14568762 0.66800004 1.0792299e-38
-0.083590478 0.14612381 0.67000002 1.1157469e-38
-0.18567143 0.1353 0.61500001 8.6689073e-39
-0.1842 0.13507999 0.61400002 8.3916324e-39
-0.1827324 0.13486001 0.61300004 8.3916324e-39
-0.18097238 0.13442001 0.611 8.117544e-39
-0.17980857 0.13442001 0.611 8.2097397e-39
-0.17835239 0.13420001 0.61000001 8.3004934e-39
-0.17690001 0.13398001 0.60900003 7.1019502e-39
-0.17516288 0.13354 0.60700005 5.9073544e-39
-0.17400669 0.13354 0.60700005 6.0917457e-39
-0.17256571 0.13332 0.60600001 7.7487615e-39
-0.17084573 0.13288 0.60400003 8.7629134e-39
-0.1694143 0.13266002 0.60300004 9.6841257e-39
-0.16826573 0.13266002 0.60300004 9.9607125e-39
-0.16684002 0.13244002 0.60200006 9.3175166e-39
-0.1654181 0.13222 0.60100001 7.6579952e-39
-0.16427334 0.13222 0.60100001 7.4743326e-39
-0.16312857 0.13222 0.60100001 8.4884846e-39
-0.16171429 0.132 0.60000002 7.7495126e-39
-0.16057143 0.132 0.60000002 5.6290131e-39
-0.15889715 0.13156001 0.59800005 3.9755622e-39
-0.1577581 0.13156001 0.59800005 4.3443447e-39
-0.15661906 0.13156001 0.59800005 2.1338749e-39
-0.15548001 0.13156001 0.59800005 4.7435354e-40
-0.15408286 0.13134 0.597 1.9523451e-39
-0.15294571 0.13134 0.597 8.5904304e-39
-0.15180857 0.13134 0.597 1.1252211e-38
-0.15092382 0.13156001 0.59800005 8.3019507e-39
-0.14978477 0.13156001 0.59800005 1.3952435e-39
-0.14864573 0.13156001 0.59800005 3.8109153e-40
-0.14750668 0.13156001 0.59800005 6.4608814e-39
-0.14636764 0.13156001 0.59800005 1.0978467e-38
-0.14522858 0.13156001 0.59800005 1.1344769e-38
-0.14433049 0.13178 0.59900004 1.0791596e-38
-0.14318953 0.13178 0.59900004 1.0792322e-38
-0.14204858 0.13178 0.59900004 1.0976713e-38
-0.14090762 0.13178 0.59900004 1.0884512e-38
-0.14 0.132 0.60000002 1.1068903e-38
-0.13885714 0.132 0.60000002 1.0976707e-38
-0.1379438 0.13222 0.60100001 8.7640121e-39
-0.13702668 0.13244002 0.60200006 5.0794659e-39
-0.13588001 0.13244002 0.60200006 3.8809227e-39
-0.13473335 0.13244002 0.60200006 4.9875898e-39
-0.13358667 0.13244002 0.60200006 4.6188073e-39
-0.13244002 0.13244002 0.60200006 4.7109777e-39
-0.13151143 0.13266002 0.60300004 3.2358476e-39
-0.13036287 0.13266002 0.60300004 2.8699587e-39
-0.12942858 0.13288 0.60400003 3.4231325e-39
-0.12870285 0.13332 0.60600001 4.8038964e-39
-0.12754856 0.13332 0.60600001 4.7117007e-39
-0.12660287 0.13354 0.60700005 6.8303505e-39
-0.12544668 0.13354 0.60700005 7.4757199e-39
-0.12449524 0.13376001 0.60800004 9.5940838e-39
-0.12333716 0.13376001 0.60800004 1.0608236e-38
-0.12238 0.13398001 0.60900003 1.1066385e-38
-0.12141905 0.13420001 0.61000001 1.115858e-38
-0.12045428 0.13442001 0.611 1.0975624e-38
-0.11948572 0.13464001 0.61200005 1.0699037e-38
-0.11851335 0.13486001 0.61300004 1.0332047e-38
-0.11734572 0.13486001 0.61300004 9.9632643e-39
-0.11636762 0.13507999 0.61400002 9.9629084e-39
-0.11557335 0.13552001 0.61600006 9.7785171e-39
-0.11477143 0.13596001 0.61800003 9.4101031e-39
-0.1137781 0.13618 0.61900002 9.5022988e-39
-0.11296286 0.13662001 0.62100005 9.5019302e-39
-0.11196 0.13684 0.62200004 9.4097346e-39
-0.11095334 0.13706 0.62300003 9.4100905e-39
-0.11011904 0.1375 0.625 9.2256993e-39
-0.10892857 0.1375 0.625 9.3168187e-39
-0.10808286 0.13794 0.62700003 9.0402318e-39
-0.10808191 0.13947999 0.634 8.8558406e-39
-0.10704286 0.13970001 0.63500005 8.8558406e-39
-0.10633333 0.14036 0.63800001 9.3146453e-39
-0.1051181 0.14036 0.63800001 9.0380584e-39
-0.10422858 0.14080001 0.64000005 9.2220839e-39
-0.10300954 0.14080001 0.64000005 1.014404e-38
-0.09692762 0.14827999 0.67400002 9.4086332e-39
-0.095360003 0.14784001 0.67200005 9.7774157e-39
-0.094080001 0.14784001 0.67200005 9.6859712e-39
-0.092800006 0.14784001 0.67200005 1.0423536e-38
-0.091383815 0.14762001 0.671 1.0423186e-38
-0.089971431 0.14740001 0.67000002 1.1529533e-38
-0.088695243 0.14740001 0.67000002 1.2083411e-38
-0.087419048 0.14740001 0.67000002 1.1899019e-38
-0.085885718 0.14696001 0.66800004 1.1529483e-38
-0.084613338 0.14696001 0.66800004 1.0515331e-38
-0.083340958 0.14696001 0.66800004 1.0973781e-38
-0.1883619 0.13758096 0.62 1.0420624e-38
-0.18597335 0.13669334 0.61600006 8.761103e-39
-0.18450001 0.13647142 0.61500001 8.5760209e-39
-0.1827324 0.13602763 0.61300004 8.3916296e-39
-0.18126859 0.13580573 0.61200005 8.2097397e-39
-0.17980857 0.13558382 0.611 8.2097397e-39
-0.17835239 0.13536191 0.61000001 8.3019353e-39
-0.17719048 0.13536191 0.61000001 7.2877834e-39
-0.17545144 0.13491811 0.60800004 6.7338809e-39
-0.17400669 0.1346962 0.60700005 6.3650984e-39
-0.17256571 0.13447428 0.60600001 6.5484331e-39
-0.17141142 0.13447428 0.60600001 7.1016069e-39
-0.16969524 0.13403049 0.60400003 7.4692781e-39
-0.16826573 0.13380858 0.60300004 7.745865e-39
-0.16684002 0.13358667 0.60200006 8.5774306e-39
-0.16569334 0.13358667 0.60200006 6.9179092e-39
-0.16427334 0.13336477 0.60100001 4.3422078e-39
-0.16312857 0.13336477 0.60100001 5.9095335e-39
-0.16198382 0.13336477 0.60100001 6.2758021e-39
-0.16057143 0.13314286 0.60000002 5.3538458e-39
-0.15916288 0.13292095 0.59900004 4.1592556e-39
-0.15802191 0.13292095 0.59900004 5.7265813e-39
-0.15661906 0.13269906 0.59800005 7.5658248e-39
-0.15548001 0.13269906 0.59800005 6.1828904e-39
-0.15434097 0.13269906 0.59800005 5.2674081e-39
-0.15320192 0.13269906 0.59800005 9.1396245e-39
-0.15206286 0.13269906 0.59800005 1.0792669e-38
-0.15092382 0.13269906 0.59800005 9.4097346e-39
-0.14978477 0.13269906 0.59800005 4.8046769e-39
-0.14864573 0.13269906 0.59800005 5.6367791e-40
-0.14775334 0.13292095 0.59900004 5.0796509e-39
-0.14661239 0.13292095 0.59900004 1.1348938e-38
-0.14547144 0.13292095 0.59900004 1.116182e-38
-0.14457142 0.13314286 0.60000002 1.0608646e-38
-0.14342858 0.13314286 0.60000002 1.0700123e-38
-0.14228572 0.13314286 0.60000002 1.0700123e-38
-0.14114286 0.13314286 0.60000002 1.070012e-38
-0.14023332 0.13336477 0.60100001 1.0976707e-38
-0.13908857 0.13336477 0.60100001 1.0976004e-38
-0.13817334 0.13358667 0.60200006 1.0238439e-38
-0.13702668 0.13358667 0.60200006 8.5832193e-39
-0.13588001 0.13358667 0.60200006 8.1222412e-39
-0.13495716 0.13380858 0.60300004 8.3970302e-39
-0.13380858 0.13380858 0.60300004 6.5531176e-39
-0.13266002 0.13380858 0.60300004 6.4562374e-39
-0.13151143 0.13380858 0.60300004 5.4420855e-39
-0.13057905 0.13403049 0.60400003 3.970568e-39
-0.12942858 0.13403049 0.60400003 5.5378937e-39
-0.12870285 0.13447428 0.60600001 8.390531e-39
-0.12775907 0.1346962 0.60700005 8.390531e-39
-0.12681143 0.13491811 0.60800004 9.1306072e-39
-0.12565334 0.13491811 0.60800004 9.8681722e-39
-0.12470001 0.13514 0.60900003 1.0605757e-38
-0.12374286 0.13536191 0.61000001 1.0974539e-38
-0.12258096 0.13536191 0.61000001 1.0516451e-38
-0.12161809 0.13558382 0.611 1.0239864e-38
-0.12045428 0.13558382 0.611 1.0147312e-38
-0.11948572 0.13580573 0.61200005 1.0055117e-38
-0.11851335 0.13602763 0.61300004 9.8717974e-39
-0.11753714 0.13624953 0.61400002 9.7796017e-39
-0.11655714 0.13647142 0.61500001 9.6866844e-39
-0.11557335 0.13669334 0.61600006 9.5944888e-39
-0.11495715 0.13735905 0.61900002 9.5937783e-39
-0.11396191 0.13758096 0.62 9.5015827e-39
-0.11296286 0.13780287 0.62100005 9.5015771e-39
-0.11196 0.13802478 0.62200004 9.4093815e-39
-0.11113143 0.13846856 0.62400001 9.317539e-39
-0.11011904 0.13869047 0.625 9.0409521e-39
-0.10927714 0.13913429 0.62700003 9.1320715e-39
-0.10894477 0.14024381 0.63200003 8.9476803e-39
-0.10808191 0.14068761 0.634 8.8558406e-39
-0.10721143 0.14113143 0.63600004 8.6714493e-39
-0.10633333 0.14157525 0.63800001 9.1298981e-39
-0.10544763 0.14201906 0.64000005 9.0377025e-39
-0.10422858 0.14201906 0.64000005 9.2220839e-39
-0.10300954 0.14201906 0.64000005 1.0051845e-38
-0.09777429 0.14889809 0.671 1.0418109e-38
-0.096496187 0.14889809 0.671 9.2235413e-39
-0.0952181 0.14889809 0.671 1.0053302e-38
-0.093939997 0.14889809 0.671 1.0054031e-38
-0.092661902 0.14889809 0.671 1.0607204e-38
-0.091383815 0.14889809 0.671 1.0424255e-38
-0.089971431 0.14867619 0.67000002 1.1714994e-38
-0.088695243 0.14867619 0.67000002 1.2083774e-38
-0.087419048 0.14867619 0.67000002 1.0700839e-38
-0.085885718 0.14823239 0.66800004 1.078941e-38
-0.084613338 0.14823239 0.66800004 1.0973801e-38
-0.083340958 0.14823239 0.66800004 1.1065627e-38
-0.1883619 0.13876191 0.62 1.0144393e-38
-0.18687905 0.13853811 0.61900002 8.7614589e-39
-0.18480001 0.13786668 0.61600006 8.5760237e-39
-0.18303049 0.13741906 0.61400002 8.6682193e-39
-0.18126859 0.13697143 0.61200005 8.117544e-39
-0.18010287 0.13697143 0.61200005 8.3941309e-39
-0.17864476 0.13674763 0.611 8.5785194e-39
-0.17719048 0.13652381 0.61000001 8.7629106e-39
-0.17545144 0.1360762 0.60800004 8.3945065e-39
-0.17400669 0.1358524 0.60700005 8.025724e-39
-0.17285049 0.1358524 0.60700005 6.9186757e-39
-0.17141142 0.13562857 0.60600001 6.0889151e-39
-0.17025715 0.13562857 0.60600001 5.7208108e-39
-0.16854477 0.13518095 0.60400003 4.8910501e-39
-0.16711715 0.13495716 0.60300004 6.0928149e-39
-0.16569334 0.13473335 0.60200006 6.2772062e-39
-0.16454668 0.13473335 0.60200006 5.9077454e-39
-0.16340002 0.13473335 0.60200006 5.6311585e-39
-0.16198382 0.13450952 0.60100001 7.6576197e-39
-0.16083904 0.13450952 0.60100001 9.0405541e-39
-0.15942858 0.13428572 0.60000002 9.8692736e-39
-0.15802191 0.13406192 0.59900004 1.0514643e-38
-0.15688096 0.13406192 0.59900004 1.0330968e-38
-0.15574001 0.13406192 0.59900004 1.0054381e-38
-0.15434097 0.1338381 0.59800005 9.7795989e-39
-0.15320192 0.1338381 0.59800005 1.0148381e-38
-0.15231715 0.13406192 0.59900004 1.0148366e-38
-0.1511762 0.13406192 0.59900004 1.005617e-38
-0.15003523 0.13406192 0.59900004 8.5800132e-39
-0.14914286 0.13428572 0.60000002 5.8195925e-42
-0.148 0.13428572 0.60000002 9.6527043e-41
-0.14685716 0.13428572 0.60000002 1.0238046e-38
-0.14571428 0.13428572 0.60000002 1.208088e-38
-0.14481239 0.13450952 0.60100001 1.1343315e-38
-0.14366761 0.13450952 0.60100001 1.0516445e-38
-0.14252286 0.13450952 0.60100001 1.0516445e-38
-0.1413781 0.13450952 0.60100001 1.0791596e-38
-0.14023332 0.13450952 0.60100001 1.0883791e-38
-0.13908857 0.13450952 0.60100001 1.0792319e-38
-0.13817334 0.13473335 0.60200006 1.0700123e-38
-0.13702668 0.13473335 0.60200006 1.0792316e-38
-0.13610572 0.13495716 0.60300004 1.0792316e-38
-0.13495716 0.13495716 0.60300004 1.106818e-38
-0.13380858 0.13495716 0.60300004 1.1160375e-38
-0.13288 0.13518095 0.60400003 1.1067464e-38
-0.13172953 0.13518095 0.60400003 1.0883072e-38
-0.13101143 0.13562857 0.60600001 1.1342611e-38
-0.12985715 0.13562857 0.60600001 1.1619198e-38
-0.12891525 0.1358524 0.60700005 1.1435523e-38
-0.12775907 0.1358524 0.60700005 1.1343327e-38
-0.12681143 0.1360762 0.60800004 1.1159659e-38
-0.12586001 0.1363 0.60900003 1.1159659e-38
-0.12470001 0.1363 0.60900003 1.0883435e-38
-0.12374286 0.13652381 0.61000001 1.0699044e-38
-0.12278191 0.13674763 0.611 1.0239861e-38
-0.12161809 0.13674763 0.611 1.005547e-38
-0.12065144 0.13697143 0.61200005 1.005547e-38
-0.11968096 0.13719524 0.61300004 9.9632741e-39
-0.11851335 0.13719524 0.61300004 1.0054751e-38
-0.11753714 0.13741906 0.61400002 9.9625553e-39
-0.11655714 0.13764286 0.61500001 9.7788829e-39
-0.11557335 0.13786668 0.61600006 9.6866872e-39
-0.11514286 0.13876191 0.62 9.8703652e-39
-0.11396191 0.13876191 0.62 9.5015827e-39
-0.11296286 0.13898572 0.62100005 9.5015771e-39
-0.11196 0.13920954 0.62200004 9.4093815e-39
-0.11113143 0.13965714 0.62400001 9.4100905e-39
-0.11011904 0.13988096 0.625 9.1335036e-39
-0.10945143 0.14055239 0.62800002 9.1320715e-39
-0.10894477 0.14144762 0.63200003 9.0398759e-39
-0.10825239 0.14211905 0.63500005 8.8558406e-39
-0.10738 0.14256667 0.63700002 8.8558406e-39
-0.10633333 0.14279048 0.63800001 9.1295478e-39
-0.10544763 0.1432381 0.64000005 8.9451565e-39
-0.10422858 0.1432381 0.64000005 9.1298883e-39
-0.10317048 0.14346191 0.64100003 1.014404e-38
-0.10194953 0.14346191 0.64100003 1.060428e-38
-0.09920001 0.15040001 0.67200005 1.0051141e-38
-0.09777429 0.15017618 0.671 9.9589455e-39
-0.096496187 0.15017618 0.671 9.8689205e-39
-0.0952181 0.15017618 0.671 1.0698681e-38
-0.093939997 0.15017618 0.671 1.0791593e-38
-0.092661902 0.15017618 0.671 1.1252571e-38
-0.091247626 0.14995238 0.67000002 1.1714255e-38
-0.089971431 0.14995238 0.67000002 1.2267429e-38
-0.088430479 0.14950477 0.66800004 1.2542571e-38
-0.087158099 0.14950477 0.66800004 1.0237681e-38
-0.085885718 0.14950477 0.66800004 1.042099e-38
-0.084613338 0.14950477 0.66800004 1.0881968e-38
-0.083340958 0.14950477 0.66800004 1.1248946e-38
-0.18866573 0.14016859 0.62100005 9.9603678e-39
-0.18718095 0.13994285 0.62 8.7618246e-39
-0.18540001 0.13949142 0.61800003 8.8526008e-39
-0.18332858 0.13881429 0.61500001 8.5760139e-39
-0.18156476 0.13836285 0.61300004 8.2097369e-39
-0.18010287 0.13813715 0.61200005 8.3941281e-39
-0.17864476 0.13791144 0.611 8.4863238e-39
-0.17719048 0.13768572 0.61000001 8.5785194e-39
-0.17574 0.13746001 0.60900003 8.303743e-39
-0.17429334 0.13723429 0.60800004 8.303743e-39
-0.17285049 0.13700858 0.60700005 8.3963015e-39
-0.17169431 0.13700858 0.60700005 7.8431278e-39
-0.17025715 0.13678285 0.60600001 7.8409571e-39
-0.16910285 0.13678285 0.60600001 7.5643703e-39
-0.1673943 0.13633144 0.60400003 7.5650765e-39
-0.16596858 0.13610572 0.60300004 8.4870328e-39
-0.16482002 0.13610572 0.60300004 8.4881342e-39
-0.16340002 0.13588001 0.60200006 8.4881342e-39
-0.16225335 0.13588001 0.60200006 8.856544e-39
-0.16083904 0.13565429 0.60100001 1.0055087e-38
-0.15969428 0.13565429 0.60100001 1.0147656e-38
-0.15828572 0.13542858 0.60000002 1.0147656e-38
-0.15714286 0.13542858 0.60000002 1.0238772e-38
-0.156 0.13542858 0.60000002 1.0330968e-38
-0.15459906 0.13520287 0.59900004 1.0055107e-38
-0.1534581 0.13520287 0.59900004 1.0147302e-38
-0.15257144 0.13542858 0.60000002 1.0056176e-38
-0.15142857 0.13542858 0.60000002 1.0517154e-38
-0.15028572 0.13542858 0.60000002 9.5945154e-39
-0.14914286 0.13542858 0.60000002 1.2969087e-39
-0.148 0.13542858 0.60000002 1.5640733e-39
-0.14685716 0.13542858 0.60000002 9.86168e-39
-0.14571428 0.13542858 0.60000002 1.1434056e-38
-0.14481239 0.13565429 0.60100001 1.1618447e-38
-0.14366761 0.13565429 0.60100001 1.070012e-38
-0.14252286 0.13565429 0.60100001 1.0607925e-38
-0.1413781 0.13565429 0.60100001 1.0791596e-38
-0.14046669 0.13588001 0.60200006 1.0975987e-38
-0.13932002 0.13588001 0.60200006 1.079124e-38
-0.13817334 0.13588001 0.60200006 1.0606848e-38
-0.13725428 0.13610572 0.60300004 1.0424255e-38
-0.13610572 0.13610572 0.60300004 1.0516451e-38
-0.13518095 0.13633144 0.60400003 1.0791593e-38
-0.13403049 0.13633144 0.60400003 1.0883788e-38
-0.13332 0.13678285 0.60600001 1.0975631e-38
-0.13216572 0.13678285 0.60600001 1.0975631e-38
-0.13101143 0.13678285 0.60600001 1.0975987e-38
-0.13007143 0.13700858 0.60700005 1.0975987e-38
-0.12891525 0.13700858 0.60700005 1.0883788e-38
-0.12775907 0.13700858 0.60700005 1.0883788e-38
-0.12681143 0.13723429 0.60800004 1.0516451e-38
-0.12586001 0.13746001 0.60900003 1.0332059e-38
-0.12490477 0.13768572 0.61000001 1.0332059e-38
-0.12394572 0.13791144 0.611 1.0239864e-38
-0.12278191 0.13791144 0.611 1.0239511e-38
-0.12181716 0.13813715 0.61200005 1.0147315e-38
-0.12065144 0.13813715 0.61200005 1.0147312e-38
-0.11968096 0.13836285 0.61300004 1.0147312e-38
-0.11870667 0.13858858 0.61400002 9.8717974e-39
-0.11753714 0.13858858 0.61400002 9.6874061e-39
-0.11674668 0.13904002 0.61600006 9.7788829e-39
-0.11613619 0.13971715 0.61900002 9.7788829e-39
-0.11514286 0.13994285 0.62 9.9625553e-39
-0.11396191 0.13994285 0.62 9.5015771e-39
-0.11296286 0.14016859 0.62100005 9.4093843e-39
-0.11196 0.1403943 0.62200004 9.4093843e-39
-0.11113143 0.14084572 0.62400001 9.317539e-39
-0.11047143 0.14152287 0.62700003 9.1331477e-39
-0.10962571 0.14197429 0.62900001 9.1320715e-39
-0.10928952 0.14310285 0.634 8.9476803e-39
-0.10842287 0.1435543 0.63600004 8.9480362e-39
-0.10754857 0.14400572 0.63800001 8.7636449e-39
-0.10666667 0.14445715 0.64000005 9.1298981e-39
-0.10544763 0.14445715 0.64000005 9.0377025e-39
-0.10439143 0.14468287 0.64100003 9.4972317e-39
-0.10317048 0.14468287 0.64100003 1.0419188e-38
-0.10194953 0.14468287 0.64100003 1.0419538e-38
-0.10048001 0.15168001 0.67200005 9.7756234e-39
-0.099052377 0.15145428 0.671 9.315381e-39
-0.09777429 0.15145428 0.671 9.6841635e-39
-0.096496187 0.15145428 0.671 9.685618e-39
-0.095076188 0.15122858 0.67000002 1.0791966e-38
-0.093800001 0.15122858 0.67000002 1.051753e-38
-0.092523813 0.15122858 0.67000002 1.1439486e-38
-0.091247626 0.15122858 0.67000002 1.1899017e-38
-0.08970286 0.15077715 0.66800004 1.1530234e-38
-0.088430479 0.15077715 0.66800004 1.1527701e-38
-0.087158099 0.15077715 0.66800004 1.069794e-38
-0.085885718 0.15077715 0.66800004 1.1064557e-38
-0.084613338 0.15077715 0.66800004 1.1248949e-38
-0.18866573 0.14135143 0.62100005 1.0052563e-38
-0.18718095 0.14112382 0.62 9.2228028e-39
-0.1857 0.1408962 0.61900002 9.0373521e-39
-0.18422286 0.14066859 0.61800003 8.576374e-39
-0.18215714 0.13998571 0.61500001 8.1178944e-39
-0.18069144 0.1397581 0.61400002 8.4866769e-39
-0.17893715 0.13930286 0.61200005 8.5785194e-39
-0.17748095 0.13907525 0.611 8.5785194e-39
-0.17602856 0.13884762 0.61000001 8.5796012e-39
-0.17429334 0.13839239 0.60800004 8.5796012e-39
-0.17313524 0.13839239 0.60800004 8.8561881e-39
-0.17169431 0.13816477 0.60700005 9.0405793e-39
-0.17053811 0.13816477 0.60700005 9.6841663e-39
-0.16910285 0.13793714 0.60600001 9.9607532e-39
-0.1673943 0.13748191 0.60400003 9.6845166e-39
-0.16624382 0.13748191 0.60400003 9.8689079e-39
-0.16509333 0.13748191 0.60400003 9.594479e-39
-0.16367143 0.13725428 0.60300004 9.6866746e-39
-0.16225335 0.13702668 0.60200006 9.7788731e-39
-0.16110668 0.13702668 0.60200006 9.8710687e-39
-0.15969428 0.13679905 0.60100001 9.9621825e-39
-0.15854953 0.13679905 0.60100001 9.9621825e-39
-0.15740477 0.13679905 0.60100001 9.9621881e-39
-0.156 0.13657144 0.60000002 9.9621881e-39
-0.15485714 0.13657144 0.60000002 9.9618322e-39
-0.1537143 0.13657144 0.60000002 1.0146223e-38
-0.15257144 0.13657144 0.60000002 1.0055104e-38
-0.15142857 0.13657144 0.60000002 1.0423887e-38
-0.15028572 0.13657144 0.60000002 1.0791946e-38
-0.14914286 0.13657144 0.60000002 7.1041208e-39
-0.148 0.13657144 0.60000002 2.4072276e-39
-0.14685716 0.13657144 0.60000002 2.3150319e-39
-0.14571428 0.13657144 0.60000002 8.5777319e-39
-0.14481239 0.13679905 0.60100001 1.2081166e-38
-0.14366761 0.13679905 0.60100001 1.1896501e-38
-0.14252286 0.13679905 0.60100001 1.1158936e-38
-0.14161335 0.13702668 0.60200006 1.06994e-38
-0.14046669 0.13702668 0.60200006 1.0883791e-38
-0.13932002 0.13702668 0.60200006 1.0791596e-38
-0.13817334 0.13702668 0.60200006 1.0607204e-38
-0.13725428 0.13725428 0.60300004 1.0332057e-38
-0.13610572 0.13725428 0.60300004 1.0332057e-38
-0.13518095 0.13748191 0.60400003 1.0423533e-38
-0.13403049 0.13748191 0.60400003 1.0515729e-38
-0.13332 0.13793714 0.60600001 1.0699044e-38
-0.13216572 0.13793714 0.60600001 1.0606848e-38
-0.13101143 0.13793714 0.60600001 1.0423533e-38
-0.13007143 0.13816477 0.60700005 1.0423533e-38
-0.12912764 0.13839239 0.60800004 1.0423533e-38
-0.12796953 0.13839239 0.60800004 1.0515729e-38
-0.12681143 0.13839239 0.60800004 1.0699044e-38
-0.12606667 0.13884762 0.61000001 1.0606848e-38
-0.12510952 0.13907525 0.611 1.0332057e-38
-0.12394572 0.13907525 0.611 1.0332057e-38
-0.12298286 0.13930286 0.61200005 1.0332059e-38
-0.12181716 0.13930286 0.61200005 1.0147668e-38
-0.12084857 0.13953048 0.61300004 1.0239145e-38
-0.11968096 0.13953048 0.61300004 1.0239145e-38
-0.1189 0.13998571 0.61500001 1.0055107e-38
-0.11792001 0.14021334 0.61600006 9.9629112e-39
-0.11712572 0.14066859 0.61800003 9.6866844e-39
-0.11613619 0.1408962 0.61900002 9.6866844e-39
-0.11514286 0.14112382 0.62 1.0054384e-38
-0.11414573 0.14135143 0.62100005 9.7777969e-39
-0.11314477 0.14157905 0.62200004 9.5015771e-39
-0.11214 0.14180666 0.62300003 9.4093815e-39
-0.11130952 0.14226191 0.625 9.6848824e-39
-0.11064762 0.14294477 0.62800002 9.4082955e-39
-0.1098 0.1434 0.63000005 9.1313555e-39
-0.10928952 0.14431047 0.634 9.0391598e-39
-0.10859334 0.14499335 0.63700002 8.8558378e-39
-0.10754857 0.14522097 0.63800001 8.8558378e-39
-0.10666667 0.1456762 0.64000005 9.1295478e-39
-0.10544763 0.1456762 0.64000005 9.313939e-39
-0.10439143 0.14590381 0.64100003 9.6812726e-39
-0.10317048 0.14590381 0.64100003 1.0418838e-38
-0.10194953 0.14590381 0.64100003 1.0511734e-38
-0.10591429 0.15341523 0.67400002 1.0511734e-38
-0.10463049 0.15341523 0.67400002 1.0326992e-38
-0.10304001 0.15296002 0.67200005 1.0234797e-38
-0.10176001 0.15296002 0.67200005 9.9593084e-39
-0.10033047 0.15273239 0.671 1.01437e-38
-0.099052377 0.15273239 0.671 1.023698e-38
-0.097628571 0.15250477 0.67000002 1.023698e-38
-0.096352383 0.15250477 0.67000002 9.8693101e-39
-0.095076188 0.15250477 0.67000002 1.1067853e-38
-0.093800001 0.15250477 0.67000002 1.1622783e-38
-0.092523813 0.15250477 0.67000002 1.2083761e-38
-0.090975247 0.15204953 0.66800004 1.2266357e-38
-0.08970286 0.15204953 0.66800004 1.0145858e-38
-0.088298097 0.15182191 0.66700006 1.0328782e-38
-0.087027624 0.15182191 0.66700006 1.078976e-38
-0.085757144 0.15182191 0.66700006 1.1064557e-38
-0.18896954 0.14276381 0.62200004 9.9600119e-39
-0.18718095 0.14230476 0.62 9.4990337e-39
-0.1857 0.14207524 0.61900002 9.3142894e-39
-0.18422286 0.14184572 0.61800003 8.5767243e-39
-0.18215714 0.14115714 0.61500001 8.4848846e-39
-0.18069144 0.14092761 0.61400002 8.6692759e-39
-0.17922953 0.14069809 0.61300004 8.4863266e-39
-0.17777145 0.14046857 0.61200005 8.4863266e-39
-0.17602856 0.14000954 0.61000001 8.5781719e-39
-0.17458001 0.13978001 0.60900003 8.8547588e-39
-0.17342 0.13978001 0.60900003 8.6714465e-39
-0.17197716 0.13955049 0.60800004 8.8558378e-39
-0.17053811 0.13932097 0.60700005 9.315381e-39
-0.16910285 0.13909143 0.60600001 9.7763591e-39
-0.16794857 0.13909143 0.60600001 9.3168187e-39
-0.16624382 0.13863239 0.60400003 9.4090143e-39
-0.16509333 0.13863239 0.60400003 9.318255e-39
-0.16394287 0.13863239 0.60400003 9.4104507e-39
-0.16252287 0.13840286 0.60300004 9.4104507e-39
-0.16110668 0.13817334 0.60200006 9.5948419e-39
-0.15996002 0.13817334 0.60200006 9.6866774e-39
-0.15881334 0.13817334 0.60200006 9.6866774e-39
-0.15740477 0.1379438 0.60100001 9.9618322e-39
-0.15626 0.1379438 0.60100001 9.9618322e-39
-0.15511523 0.1379438 0.60100001 1.0054384e-38
-0.15397048 0.1379438 0.60100001 1.0146579e-38
-0.15282573 0.1379438 0.60100001 9.9629112e-39
-0.15168095 0.1379438 0.60100001 1.0239498e-38
-0.15053619 0.1379438 0.60100001 1.0424249e-38
-0.14914286 0.1377143 0.60000002 9.1335106e-39
-0.148 0.1377143 0.60000002 5.6326271e-39
-0.14710191 0.1379438 0.60100001 2.2213888e-39
-0.14595714 0.1379438 0.60100001 5.9047396e-39
-0.14505334 0.13817334 0.60200006 1.1620869e-38
-0.14390668 0.13817334 0.60200006 1.1897202e-38
-0.14276001 0.13817334 0.60200006 1.1159637e-38
-0.14161335 0.13817334 0.60200006 1.0700123e-38
-0.14070001 0.13840286 0.60300004 1.0607927e-38
-0.13955143 0.13840286 0.60300004 1.0332059e-38
-0.13840286 0.13840286 0.60300004 1.0239864e-38
-0.13725428 0.13840286 0.60300004 1.0239861e-38
-0.13610572 0.13840286 0.60300004 1.0332057e-38
-0.13518095 0.13863239 0.60400003 1.0699397e-38
-0.13403049 0.13863239 0.60400003 1.0699397e-38
-0.13332 0.13909143 0.60600001 1.06994e-38
-0.13216572 0.13909143 0.60600001 1.0791596e-38
-0.13101143 0.13909143 0.60600001 1.0790877e-38
-0.13007143 0.13932097 0.60700005 1.0698681e-38
-0.12912764 0.13955049 0.60800004 1.0791233e-38
-0.12796953 0.13955049 0.60800004 1.0791233e-38
-0.12702 0.13978001 0.60900003 1.0423536e-38
-0.12627333 0.14023906 0.611 1.0331341e-38
-0.12510952 0.14023906 0.611 1.0239508e-38
-0.12414857 0.14046857 0.61200005 1.0239508e-38
-0.12298286 0.14046857 0.61200005 1.0423536e-38
-0.12181716 0.14046857 0.61200005 1.0146949e-38
-0.12084857 0.14069809 0.61300004 1.0146949e-38
-0.11987619 0.14092761 0.61400002 1.0146949e-38
-0.1189 0.14115714 0.61500001 9.9625553e-39
-0.11792001 0.14138667 0.61600006 9.9625553e-39
-0.11731524 0.14207524 0.61900002 9.6866844e-39
-0.11632381 0.14230476 0.62 9.5944888e-39
-0.11532858 0.1425343 0.62100005 9.8696366e-39
-0.11414573 0.1425343 0.62100005 9.7774409e-39
-0.11314477 0.14276381 0.62200004 9.5015771e-39
-0.11214 0.14299333 0.62300003 9.5015771e-39
-0.11130952 0.14345238 0.625 9.2249902e-39
-0.11064762 0.14414096 0.62800002 8.9484033e-39
-0.1098 0.14460002 0.63000005 9.0398759e-39
-0.10928952 0.14551809 0.634 8.9476803e-39
-0.10859334 0.14620666 0.63700002 8.8558406e-39
-0.10754857 0.14643618 0.63800001 8.7636449e-39
-0.10666667 0.14689524 0.64000005 9.2217434e-39
-0.10561238 0.14712477 0.64100003 9.2217434e-39
-0.10439143 0.14712477 0.64100003 9.8660142e-39
-0.10317048 0.14712477 0.64100003 1.0511384e-38
-0.10194953 0.14712477 0.64100003 1.0419185e-38
-0.10591429 0.15469906 0.67400002 1.032699e-38
-0.10463049 0.15469906 0.67400002 1.0235883e-38
-0.10334668 0.15469906 0.67400002 1.0235883e-38
-0.10160857 0.15401047 0.671 9.7767151e-39
-0.10018095 0.15378095 0.67000002 1.0053302e-38
-0.098904766 0.15378095 0.67000002 9.7778137e-39
-0.097337149 0.15332191 0.66800004 1.0238792e-38
-0.096064761 0.15332191 0.66800004 1.0423899e-38
-0.094792388 0.15332191 0.66800004 1.125366e-38
-0.093520008 0.15332191 0.66800004 1.1531316e-38
-0.092109531 0.15309238 0.66700006 1.1162533e-38
-0.090702854 0.15286285 0.66600001 1.1528066e-38
-0.089434281 0.15286285 0.66600001 1.0513914e-38
-0.088165708 0.15286285 0.66600001 1.0880163e-38
-0.08689715 0.15286285 0.66600001 1.115675e-38
-0.1883619 0.14348571 0.62 9.9600147e-39
-0.18718095 0.14348571 0.62 9.7756234e-39
-0.1857 0.14325429 0.61900002 9.4983177e-39
-0.18422286 0.14302287 0.61800003 8.3919701e-39
-0.18245335 0.14256002 0.61600006 8.2997871e-39
-0.18098572 0.14232858 0.61500001 8.4841784e-39
-0.1795219 0.14209715 0.61400002 8.2093893e-39
-0.17806192 0.14186573 0.61300004 8.3937806e-39
-0.17660573 0.1416343 0.61200005 8.5781719e-39
-0.17486666 0.14117144 0.61000001 8.6703675e-39
-0.17342 0.14094 0.60900003 8.8547588e-39
-0.17226 0.14094 0.60900003 8.8547588e-39
-0.17081906 0.14070857 0.60800004 9.5912322e-39
-0.16938192 0.14047715 0.60700005 9.8678191e-39
-0.16794857 0.14024571 0.60600001 9.5919679e-39
-0.16679429 0.14024571 0.60600001 9.4997722e-39
-0.16564 0.14024571 0.60600001 9.7770752e-39
-0.16394287 0.13978286 0.60400003 9.9614664e-39
-0.16252287 0.13955143 0.60300004 9.594479e-39
-0.16137429 0.13955143 0.60300004 9.594479e-39
-0.15996002 0.13932002 0.60200006 9.6866774e-39
-0.15881334 0.13932002 0.60200006 9.6866774e-39
-0.15766668 0.13932002 0.60200006 1.0054028e-38
-0.15652001 0.13932002 0.60200006 1.0054028e-38
-0.15511523 0.13908857 0.60100001 1.0054384e-38
-0.15397048 0.13908857 0.60100001 1.0054384e-38
-0.15282573 0.13908857 0.60100001 1.0238422e-38
-0.15168095 0.13908857 0.60100001 1.0238422e-38
-0.15053619 0.13908857 0.60100001 1.0239851e-38
-0.14939143 0.13908857 0.60100001 1.0700829e-38
-0.14824666 0.13908857 0.60100001 8.856963e-39
-0.14710191 0.13908857 0.60100001 2.126682e-39
-0.14595714 0.13908857 0.60100001 3.8242136e-40
-0.14505334 0.13932002 0.60200006 5.2687897e-39
