# .PCD v0.7 - Point Cloud Data file format
VERSION 0.7
FIELDS x y z rgb
SIZE 4 4 4 4
TYPE F F F F
COUNT 1 1 1 1
WIDTH 1001
HEIGHT 1
VIEWPOINT 0 0 0 1 0 0 0
POINTS 1001
DATA ascii
-0.043785717 0.097496189 0.61300004 1.2265631e-38
-0.0426181 0.097496189 0.61300004 1.1343675e-38
-0.041450478 0.097496189 0.61300004 1.070012e-38
-0.040348571 0.097655237 0.61400002 1.070012e-38
-0.03924286 0.097814284 0.61500001 1.0425687e-38
-0.038133338 0.097973339 0.61600006 1.01491e-38
-0.036960002 0.097973339 0.61600006 1.0332776e-38
-0.035902858 0.098291434 0.61800003 1.0332776e-38
-0.034725714 0.098291434 0.61800003 1.0332054e-38
-0.033602856 0.098450474 0.61900002 1.0239858e-38
-0.03247619 0.098609522 0.62 1.005547e-38
-0.031345718 0.098768577 0.62100005 1.005547e-38
-0.03021143 0.098927625 0.62200004 9.962921e-39
-0.029026669 0.098927625 0.62200004 9.962921e-39
-0.027976191 0.09940476 0.625 9.9632713e-39
-0.026914285 0.09988191 0.62800002 9.6866844e-39
-0.025840953 0.10035905 0.63100004 9.5948447e-39
-0.024678096 0.1005181 0.63200003 9.3182578e-39
-0.023548571 0.10083619 0.634 9.1327946e-39
-0.022446666 0.10131334 0.63700002 9.040599e-39
-0.021233333 0.10131334 0.63700002 8.8565608e-39
-0.020114286 0.10179048 0.64000005 8.8565608e-39
-0.018954286 0.10210858 0.64200002 8.5799739e-39
-0.017731428 0.10210858 0.64200002 8.303387e-39
-0.015309525 0.10226762 0.64300001 1.1066748e-38
-0.12918191 0.1044581 0.64900005 9.9600147e-39
-0.12774858 0.10429715 0.648 1.0695419e-38
-0.12651429 0.10429715 0.648 1.1064201e-38
-0.12528001 0.10429715 0.648 1.0973804e-38
-0.12404571 0.10429715 0.648 1.0973804e-38
-0.12262191 0.10413619 0.64700001 1.0881602e-38
-0.12138952 0.10413619 0.64700001 1.0697211e-38
-0.12015714 0.10413619 0.64700001 1.1983634e-38
-0.11892476 0.10413619 0.64700001 1.3827547e-38
-0.11769238 0.10413619 0.64700001 1.5482439e-38
-0.11664 0.10429715 0.648 1.6127809e-38
-0.11540572 0.10429715 0.648 1.6773182e-38
-0.11417142 0.10429715 0.648 1.8801486e-38
-0.11293714 0.10429715 0.648 1.7977153e-38
-0.11170286 0.10429715 0.648 1.6870805e-38
-0.11046857 0.10429715 0.648 1.153316e-38
-0.10906572 0.10413619 0.64700001 7.292161e-39
-0.10483333 0.10123905 0.62900001 7.1037424e-39
-0.10347048 0.1010781 0.62800002 8.21009e-39
-0.10211143 0.10091715 0.62700003 8.7611156e-39
-0.10059524 0.10059524 0.625 8.8533112e-39
-0.09940476 0.10059524 0.625 8.670715e-39
-0.098057143 0.10043429 0.62400001 8.7629106e-39
-0.096868575 0.10043429 0.62400001 8.8551091e-39
-0.095526665 0.10027333 0.62300003 9.2238916e-39
-0.094188571 0.10011239 0.62200004 9.2235413e-39
-0.092854291 0.099951431 0.62100005 9.3157369e-39
-0.09167143 0.099951431 0.62100005 9.592321e-39
-0.090197146 0.099629521 0.61900002 9.8689079e-39
-0.089018099 0.099629521 0.61900002 9.5944818e-39
-0.087697141 0.099468574 0.61800003 9.9632643e-39
-0.086240008 0.099146679 0.61600006 9.9636146e-39
-0.084928572 0.098985717 0.61500001 1.0148006e-38
-0.083484761 0.098663814 0.61300004 1.0332407e-38
-0.082317151 0.098663814 0.61300004 1.0516798e-38
-0.081149533 0.098663814 0.61300004 1.097634e-38
-0.079981908 0.098663814 0.61300004 1.1160731e-38
-0.08948572 0.11202286 0.69600004 1.1344404e-38
-0.088160008 0.11202286 0.69600004 1.1620991e-38
-0.086834289 0.11202286 0.69600004 1.1804306e-38
-0.085508578 0.11202286 0.69600004 1.1804306e-38
-0.084182858 0.11202286 0.69600004 1.2080893e-38
-0.082857147 0.11202286 0.69600004 1.2080893e-38
-0.081531428 0.11202286 0.69600004 1.1713549e-38
-0.080320954 0.11218382 0.69700003 1.1713549e-38
-0.078993335 0.11218382 0.69700003 1.1897943e-38
-0.078111432 0.11282763 0.70100003 1.1621356e-38
-0.076776192 0.11282763 0.70100003 1.1436609e-38
-0.075656191 0.11314952 0.70300001 1.1344414e-38
-0.074422859 0.11331049 0.70400006 1.1160378e-38
-0.063323803 0.098180957 0.61000001 1.1805748e-38
-0.062060002 0.098020002 0.60900003 1.1622798e-38
-0.060900003 0.098020002 0.60900003 1.180719e-38
-0.059838098 0.098180957 0.61000001 1.2175253e-38
-0.058772378 0.098341905 0.611 1.1990862e-38
-0.057514288 0.098180957 0.61000001 1.2173811e-38
-0.056352381 0.098180957 0.61000001 1.198942e-38
-0.055190478 0.098180957 0.61000001 1.1989776e-38
-0.062265713 0.11314952 0.70300001 1.2358558e-38
-0.053040005 0.098502867 0.61200005 1.1806468e-38
-0.051874291 0.098502867 0.61200005 1.1898663e-38
-0.050708573 0.098502867 0.61200005 1.1899019e-38
-0.049542859 0.098502867 0.61200005 1.1806824e-38
-0.048377149 0.098502867 0.61200005 1.1899019e-38
-0.047288574 0.098663814 0.61300004 1.1714628e-38
-0.046045717 0.098502867 0.61200005 1.1069622e-38
-0.044880003 0.098502867 0.61200005 1.0977426e-38
-0.043785717 0.098663814 0.61300004 1.0976707e-38
-0.0426181 0.098663814 0.61300004 1.0884512e-38
-0.041518096 0.098824769 0.61400002 1.0701558e-38
-0.040414285 0.098985717 0.61500001 1.0701558e-38
-0.03930667 0.099146679 0.61600006 1.0425331e-38
-0.038133338 0.099146679 0.61600006 1.024094e-38
-0.036960002 0.099146679 0.61600006 1.0241659e-38
-0.035902858 0.099468574 0.61800003 1.0333855e-38
-0.034725714 0.099468574 0.61800003 1.0424249e-38
-0.033657141 0.099790476 0.62 1.0424249e-38
-0.032528572 0.099951431 0.62100005 1.0056549e-38
-0.031345718 0.099951431 0.62100005 1.0056549e-38
-0.03021143 0.10011239 0.62200004 9.7803304e-39
-0.029073333 0.10027333 0.62300003 9.7803304e-39
-0.028065715 0.10091715 0.62700003 9.6874131e-39
-0.026914285 0.1010781 0.62800002 9.5030218e-39
-0.025800001 0.10140001 0.63000005 9.5944916e-39
-0.02463905 0.10156096 0.63100004 9.1335135e-39
-0.023548571 0.10204381 0.634 9.1331505e-39
-0.022446666 0.10252667 0.63700002 9.0409549e-39
-0.021233333 0.10252667 0.63700002 8.8565608e-39
-0.020114286 0.10300954 0.64000005 8.6721696e-39
-0.018954286 0.10333143 0.64200002 8.8558378e-39
-0.017731428 0.10333143 0.64200002 8.5792509e-39
-0.016534286 0.10349238 0.64300001 9.0384438e-39
-0.015309525 0.10349238 0.64300001 1.0974552e-38
-0.13432001 0.10488001 0.64400005 1.1064908e-38
-0.13309334 0.10488001 0.64400005 9.4053864e-39
-0.12878382 0.10536857 0.64700001 9.4054214e-39
-0.12755142 0.10536857 0.64700001 9.4054214e-39
-0.12631905 0.10536857 0.64700001 1.0235182e-38
-0.12508667 0.10536857 0.64700001 9.9611063e-39
-0.12366287 0.10520571 0.64600003 9.6845194e-39
-0.12243238 0.10520571 0.64600003 9.5001254e-39
-0.12120191 0.10520571 0.64600003 8.9469516e-39
-0.12015714 0.10536857 0.64700001 9.2202945e-39
-0.11892476 0.10536857 0.64700001 8.8515119e-39
-0.11769238 0.10536857 0.64700001 8.6649725e-39
-0.11646 0.10536857 0.64700001 8.29619e-39
-0.11522762 0.10536857 0.64700001 7.8359125e-39
-0.11417142 0.10553142 0.648 8.1124994e-39
-0.11293714 0.10553142 0.648 8.024645e-39
-0.11170286 0.10553142 0.648 8.3934275e-39
-0.11046857 0.10553142 0.648 8.8565608e-39
-0.10906572 0.10536857 0.64700001 8.5799739e-39
-0.10783334 0.10536857 0.64700001 7.9331808e-39
-0.10363524 0.10243714 0.62900001 8.1175721e-39
-0.10227428 0.10227428 0.62800002 8.5778187e-39
-0.10059524 0.10178571 0.625 8.6700144e-39
-0.09940476 0.10178571 0.625 8.5785194e-39
-0.098057143 0.10162286 0.62400001 8.5785194e-39
-0.096868575 0.10162286 0.62400001 8.6703675e-39
-0.095526665 0.10146 0.62300003 9.2235413e-39
-0.094188571 0.10129715 0.62200004 9.3160872e-39
-0.092854291 0.10113429 0.62100005 9.4082829e-39
-0.09167143 0.10113429 0.62100005 9.4997722e-39
-0.090197146 0.10080858 0.61900002 9.7763591e-39
-0.088874295 0.10064572 0.61800003 9.4097346e-39
-0.087697141 0.10064572 0.61800003 9.6863215e-39
-0.086240008 0.10032 0.61600006 9.8710659e-39
-0.084928572 0.10015714 0.61500001 1.0055457e-38
-0.083484761 0.099831432 0.61300004 1.0147653e-38
-0.082317151 0.099831432 0.61300004 1.0239848e-38
-0.081149533 0.099831432 0.61300004 1.0332047e-38
-0.079981908 0.099831432 0.61300004 1.0424242e-38
-0.07881429 0.099831432 0.61300004 1.0699031e-38
-0.077520005 0.099668577 0.61200005 1.0791227e-38
-0.076354288 0.099668577 0.61200005 1.0883426e-38
-0.085508578 0.11334857 0.69600004 1.0975621e-38
-0.084182858 0.11334857 0.69600004 1.1252205e-38
-0.082857147 0.11334857 0.69600004 1.1436597e-38
-0.081531428 0.11334857 0.69600004 1.1529514e-38
-0.080205716 0.11334857 0.69600004 1.1529514e-38
-0.078993335 0.11351143 0.69700003 1.1530237e-38
-0.078111432 0.11416285 0.70100003 1.1714628e-38
-0.076776192 0.11416285 0.70100003 1.1806468e-38
-0.075656191 0.11448857 0.70300001 1.217525e-38
-0.064380005 0.099180005 0.60900003 1.2450751e-38
-0.063220002 0.099180005 0.60900003 1.2819534e-38
-0.062060002 0.099180005 0.60900003 1.2082707e-38
-0.060900003 0.099180005 0.60900003 1.1898316e-38
-0.059838098 0.09934286 0.61000001 1.1898666e-38
-0.058772378 0.099505715 0.611 1.1806471e-38
-0.057514288 0.09934286 0.61000001 1.1529884e-38
-0.056352381 0.09934286 0.61000001 1.1345493e-38
-0.055190478 0.09934286 0.61000001 1.1161098e-38
-0.054117143 0.099505715 0.611 1.1161098e-38
-0.052953333 0.099505715 0.611 1.1160751e-38
-0.051874291 0.099668577 0.61200005 1.1252947e-38
-0.050708573 0.099668577 0.61200005 1.1161817e-38
-0.049542859 0.099668577 0.61200005 1.1161817e-38
-0.048377149 0.099668577 0.61200005 1.1069622e-38
-0.047288574 0.099831432 0.61300004 1.088523e-38
-0.046045717 0.099668577 0.61200005 1.0701558e-38
-0.044880003 0.099668577 0.61200005 1.0701558e-38
-0.043785717 0.099831432 0.61300004 1.0885233e-38
-0.0426181 0.099831432 0.61300004 1.0793038e-38
-0.041518096 0.099994287 0.61400002 1.0701202e-38
-0.040414285 0.10015714 0.61500001 1.0609006e-38
-0.03930667 0.10032 0.61600006 1.0425331e-38
-0.038133338 0.10032 0.61600006 1.0333136e-38
-0.036960002 0.10032 0.61600006 1.0332776e-38
-0.035902858 0.10064572 0.61800003 1.0424971e-38
-0.034725714 0.10064572 0.61800003 1.0424249e-38
-0.033657141 0.10097143 0.62 1.0332054e-38
-0.032528572 0.10113429 0.62100005 1.0056196e-38
-0.031396192 0.10129715 0.62200004 1.0056196e-38
-0.03026 0.10146 0.62300003 1.005585e-38
-0.02912 0.10162286 0.62400001 9.7792626e-39
-0.028110476 0.10227428 0.62800002 9.687053e-39
-0.026914285 0.10227428 0.62800002 9.5026617e-39
-0.025800001 0.10260001 0.63000005 9.502296e-39
-0.02463905 0.10276286 0.63100004 9.3179047e-39
-0.023548571 0.10325143 0.634 9.2257063e-39
-0.022446666 0.10374 0.63700002 8.9491194e-39
-0.021233333 0.10374 0.63700002 8.8565636e-39
-0.020114286 0.10422858 0.64000005 8.6721724e-39
-0.018954286 0.10455429 0.64200002 8.7636421e-39
-0.017731428 0.10455429 0.64200002 8.6714465e-39
-0.016534286 0.10471714 0.64300001 9.0384438e-39
-0.015309525 0.10471714 0.64300001 1.0974552e-38
-0.13634858 0.10577714 0.64200002 1.0973804e-38
-0.13554667 0.10610668 0.64400005 1.0697217e-38
-0.13432001 0.10610668 0.64400005 1.0511734e-38
-0.13309334 0.10610668 0.64400005 8.760017e-39
-0.13186668 0.10610668 0.64400005 8.7575184e-39
-0.13064002 0.10610668 0.64400005 9.4950835e-39
-0.12941335 0.10610668 0.64400005 9.4961723e-39
-0.12858477 0.10643619 0.64600003 9.7727592e-39
-0.12735428 0.10643619 0.64600003 9.313939e-39
-0.12612382 0.10643619 0.64600003 1.0051504e-38
-0.12489333 0.10643619 0.64600003 9.9611063e-39
-0.12366287 0.10643619 0.64600003 9.8689107e-39
-0.12243238 0.10643619 0.64600003 9.7767151e-39
-0.12120191 0.10643619 0.64600003 9.8689107e-39
-0.12015714 0.10660095 0.64700001 9.6841635e-39
-0.11892476 0.10660095 0.64700001 9.4997722e-39
-0.11769238 0.10660095 0.64700001 8.7643652e-39
-0.11646 0.10660095 0.64700001 8.4877783e-39
-0.11522762 0.10660095 0.64700001 8.5792509e-39
-0.11399524 0.10660095 0.64700001 8.5792509e-39
-0.11293714 0.10676572 0.648 8.4874252e-39
-0.11153048 0.10660095 0.64700001 8.8562077e-39
-0.1102981 0.10660095 0.64700001 9.317539e-39
-0.10906572 0.10660095 0.64700001 9.2253433e-39
-0.10783334 0.10660095 0.64700001 9.4994219e-39
-0.10660095 0.10660095 0.64700001 8.7618569e-39
-0.10243714 0.10363524 0.62900001 8.5785222e-39
-0.10091715 0.10330572 0.62700003 8.7629134e-39
-0.09940476 0.10297619 0.625 8.5785194e-39
-0.098214284 0.10297619 0.625 8.5785194e-39
-0.097023807 0.10297619 0.625 8.5778187e-39
-0.095680006 0.10281143 0.62400001 9.2231881e-39
-0.094188571 0.10248192 0.62200004 9.4079325e-39
-0.093003817 0.10248192 0.62200004 9.5001282e-39
-0.09167143 0.10231715 0.62100005 9.3168187e-39
-0.090197146 0.10198762 0.61900002 9.5934056e-39
-0.088874295 0.10182286 0.61800003 9.5022862e-39
-0.087697141 0.10182286 0.61800003 9.7788731e-39
-0.086240008 0.10149334 0.61600006 9.9632615e-39
-0.084928572 0.10132857 0.61500001 1.0147653e-38
-0.083620951 0.10116381 0.61400002 1.0147656e-38
-0.082317151 0.10099905 0.61300004 1.0239851e-38
-0.081149533 0.10099905 0.61300004 1.0239851e-38
-0.079981908 0.10099905 0.61300004 1.0239851e-38
-0.07881429 0.10099905 0.61300004 1.0606836e-38
-0.077520005 0.10083429 0.61200005 1.0606836e-38
-0.076354288 0.10083429 0.61200005 1.0699753e-38
-0.075188577 0.10083429 0.61200005 1.0884144e-38
-0.074022859 0.10083429 0.61200005 1.0884144e-38
-0.072857149 0.10083429 0.61200005 1.097634e-38
-0.071574286 0.10066953 0.611 1.0884867e-38
-0.070410475 0.10066953 0.611 1.0884867e-38
-0.069133334 0.10050476 0.61000001 1.0885228e-38
-0.067971431 0.10050476 0.61000001 1.1069619e-38
-0.066700004 0.10034 0.60900003 1.1069624e-38
-0.065540001 0.10034 0.60900003 1.1438407e-38
-0.064380005 0.10034 0.60900003 1.1438401e-38
-0.063220002 0.10034 0.60900003 1.125401e-38
-0.062060002 0.10034 0.60900003 1.125366e-38
-0.060900003 0.10034 0.60900003 1.1161464e-38
-0.059838098 0.10050476 0.61000001 1.1161464e-38
-0.058772378 0.10066953 0.611 1.1161464e-38
-0.057514288 0.10050476 0.61000001 1.1069269e-38
-0.056352381 0.10050476 0.61000001 1.1069269e-38
-0.055280954 0.10066953 0.611 1.1069624e-38
-0.054117143 0.10066953 0.611 1.1069624e-38
-0.052953333 0.10066953 0.611 1.0977436e-38
-0.051874291 0.10083429 0.61200005 1.0977436e-38
-0.050708573 0.10083429 0.61200005 1.1069985e-38
-0.049542859 0.10083429 0.61200005 1.1069985e-38
-0.048377149 0.10083429 0.61200005 1.0885593e-38
-0.047288574 0.10099905 0.61300004 1.0793398e-38
-0.046120953 0.10099905 0.61300004 1.088523e-38
-0.044953335 0.10099905 0.61300004 1.088523e-38
-0.043785717 0.10099905 0.61300004 1.0885233e-38
-0.042687621 0.10116381 0.61400002 1.0885233e-38
-0.041518096 0.10116381 0.61400002 1.0701921e-38
-0.040414285 0.10132857 0.61500001 1.0701921e-38
-0.03930667 0.10149334 0.61600006 1.051753e-38
-0.038133338 0.10149334 0.61600006 1.0240943e-38
-0.037080001 0.10182286 0.61800003 1.0424615e-38
-0.035902858 0.10182286 0.61800003 1.033242e-38
-0.034725714 0.10182286 0.61800003 1.0332776e-38
-0.033657141 0.10215238 0.62 1.024058e-38
-0.032528572 0.10231715 0.62100005 1.0056905e-38
-0.031396192 0.10248192 0.62200004 1.01491e-38
-0.03026 0.10264667 0.62300003 9.9640028e-39
-0.029166667 0.10297619 0.625 9.7796115e-39
-0.028110476 0.10347048 0.62800002 9.5948545e-39
-0.026957143 0.10363524 0.62900001 9.5948545e-39
-0.025800001 0.10380001 0.63000005 9.502296e-39
-0.024678096 0.10412953 0.63200003 9.3179047e-39
-0.023585714 0.10462382 0.63500005 9.1335135e-39
-0.022446666 0.10495333 0.63700002 8.8569266e-39
-0.021233333 0.10495333 0.63700002 8.8565608e-39
-0.020051429 0.1051181 0.63800001 8.6721696e-39
-0.018954286 0.10577714 0.64200002 8.6717968e-39
-0.017731428 0.10577714 0.64200002 8.5796012e-39
-0.016534286 0.1059419 0.64300001 9.0387969e-39
-0.015380953 0.10643619 0.64600003 1.0882709e-38
-0.014150477 0.10643619 0.64600003 1.134186e-38
-0.13735715 0.10683334 0.64100003 1.1065999e-38
-0.13634858 0.10700001 0.64200002 1.0606463e-38
-0.13533619 0.10716667 0.64300001 8.2093767e-39
-0.13432001 0.10733335 0.64400005 8.1160867e-39
-0.13309334 0.10733335 0.64400005 8.5770648e-39
-0.13186668 0.10733335 0.64400005 9.1273898e-39
-0.13064002 0.10733335 0.64400005 9.8649548e-39
-0.12941335 0.10733335 0.64400005 9.7752731e-39
-0.12818667 0.10733335 0.64400005 1.0512838e-38
-0.12696001 0.10733335 0.64400005 1.0421366e-38
-0.12573333 0.10733335 0.64400005 1.0697952e-38
-0.12450667 0.10733335 0.64400005 1.1436221e-38
-0.12328001 0.10733335 0.64400005 1.1620612e-38
-0.12205334 0.10733335 0.64400005 1.1528792e-38
-0.12082668 0.10733335 0.64400005 1.1620988e-38
-0.11997144 0.10766667 0.64600003 1.1621356e-38
-0.11874096 0.10766667 0.64600003 1.1344769e-38
-0.11769238 0.10783334 0.64700001 1.1068886e-38
-0.11628 0.10766667 0.64600003 1.1161082e-38
-0.11504953 0.10766667 0.64600003 1.1069256e-38
-0.11399524 0.10783334 0.64700001 1.1161452e-38
-0.11276285 0.10783334 0.64700001 1.1160731e-38
-0.1113581 0.10766667 0.64600003 1.097634e-38
-0.11012762 0.10766667 0.64600003 1.097634e-38
-0.10889714 0.10766667 0.64600003 1.1252927e-38
-0.10733335 0.10733335 0.64400005 1.1527713e-38
-0.10610668 0.10733335 0.64400005 8.9462355e-39
-0.10243714 0.10483333 0.62900001 8.5785194e-39
-0.10091715 0.1045 0.62700003 8.7629106e-39
-0.099722862 0.1045 0.62700003 8.8536671e-39
-0.098214284 0.10416666 0.625 8.8536671e-39
-0.097023807 0.10416666 0.625 8.6700144e-39
-0.095680006 0.104 0.62400001 9.3153838e-39
-0.094188571 0.10366667 0.62200004 9.4079325e-39
-0.092854291 0.10350001 0.62100005 9.5001282e-39
-0.09167143 0.10350001 0.62100005 9.4090143e-39
-0.090197146 0.10316667 0.61900002 9.6856012e-39
-0.088874295 0.10300001 0.61800003 9.594479e-39
-0.087697141 0.10300001 0.61800003 9.7788702e-39
-0.086240008 0.10266668 0.61600006 1.0146574e-38
-0.084928572 0.1025 0.61500001 1.0238769e-38
-0.083620951 0.10233334 0.61400002 1.0147656e-38
-0.082317151 0.10216668 0.61300004 1.0239851e-38
-0.081149533 0.10216668 0.61300004 1.0331691e-38
-0.079981908 0.10216668 0.61300004 1.0239495e-38
-0.07881429 0.10216668 0.61300004 1.0332047e-38
-0.077520005 0.10200001 0.61200005 1.0424242e-38
-0.076354288 0.10200001 0.61200005 1.0699753e-38
-0.075188577 0.10200001 0.61200005 1.0791949e-38
-0.074022859 0.10200001 0.61200005 1.0791949e-38
-0.072857149 0.10200001 0.61200005 1.0884144e-38
-0.071574286 0.10183334 0.611 1.0793025e-38
-0.070410475 0.10183334 0.611 1.0793025e-38
-0.069133334 0.10166667 0.61000001 1.0792669e-38
-0.067971431 0.10166667 0.61000001 1.0884865e-38
-0.066700004 0.1015 0.60900003 1.0884512e-38
-0.065540001 0.1015 0.60900003 1.1161098e-38
-0.064380005 0.1015 0.60900003 1.1069622e-38
-0.063220002 0.1015 0.60900003 1.0977426e-38
-0.062060002 0.1015 0.60900003 1.0793761e-38
-0.060900003 0.1015 0.60900003 1.0885956e-38
-0.059838098 0.10166667 0.61000001 1.1069269e-38
-0.058772378 0.10183334 0.611 1.1069269e-38
-0.057514288 0.10166667 0.61000001 1.0793761e-38
-0.056352381 0.10166667 0.61000001 1.0701565e-38
-0.055280954 0.10183334 0.611 1.0701921e-38
-0.054117143 0.10183334 0.611 1.0886312e-38
-0.052953333 0.10183334 0.611 1.1069985e-38
-0.051874291 0.10200001 0.61200005 1.0977789e-38
-0.050708573 0.10200001 0.61200005 1.0977789e-38
-0.049542859 0.10200001 0.61200005 1.0977789e-38
-0.048377149 0.10200001 0.61200005 1.0977789e-38
-0.047288574 0.10216668 0.61300004 1.0885593e-38
-0.046120953 0.10216668 0.61300004 1.0794117e-38
-0.044953335 0.10216668 0.61300004 1.0701921e-38
-0.043785717 0.10216668 0.61300004 1.0885233e-38
-0.042687621 0.10233334 0.61400002 1.0885233e-38
-0.041585714 0.1025 0.61500001 1.0701921e-38
-0.040414285 0.1025 0.61500001 1.0609725e-38
-0.03930667 0.10266668 0.61600006 1.0701202e-38
-0.038133338 0.10266668 0.61600006 1.0424615e-38
-0.037080001 0.10300001 0.61800003 1.0424615e-38
-0.035902858 0.10300001 0.61800003 1.0424615e-38
-0.034781903 0.10316667 0.61900002 1.0332776e-38
-0.03371143 0.10350001 0.62100005 1.0332776e-38
-0.032580953 0.10366667 0.62200004 1.0332773e-38
-0.031446666 0.10383333 0.62300003 1.0240577e-38
-0.03026 0.10383333 0.62300003 9.8718044e-39
-0.02926 0.1045 0.62700003 9.7796087e-39
-0.028155237 0.10483333 0.62900001 9.8714316e-39
-0.027000003 0.105 0.63000005 9.6870404e-39
-0.025800001 0.105 0.63000005 9.502296e-39
-0.024678096 0.10533334 0.63200003 9.3179047e-39
-0.023585714 0.10583334 0.63500005 9.2249902e-39
-0.022446666 0.10616667 0.63700002 9.040599e-39
-0.021233333 0.10616667 0.63700002 8.8565608e-39
-0.020051429 0.10633333 0.63800001 8.6721696e-39
-0.018954286 0.10700001 0.64200002 8.6721527e-39
-0.017759047 0.10716667 0.64300001 8.6721527e-39
-0.016534286 0.10716667 0.64300001 9.2231853e-39
-0.015380953 0.10766667 0.64600003 1.0790511e-38
-0.1385781 0.1080543 0.64100003 1.106492e-38
-0.13735715 0.1080543 0.64100003 1.1249312e-38
-0.13634858 0.10822286 0.64200002 1.0513892e-38
-0.13533619 0.10839143 0.64300001 7.3792405e-39
-0.13411143 0.10839143 0.64300001 7.5607703e-39
-0.13288668 0.10839143 0.64300001 9.2202917e-39
-0.13166189 0.10839143 0.64300001 8.9455068e-39
-0.13043714 0.10839143 0.64300001 9.5908763e-39
-0.12901144 0.10822286 0.64200002 9.5919707e-39
-0.12778857 0.10822286 0.64200002 1.0421731e-38
-0.12656571 0.10822286 0.64200002 1.005546e-38
-0.1255381 0.10839143 0.64300001 1.0793025e-38
-0.12431334 0.10839143 0.64300001 1.1344767e-38
-0.12289715 0.10822286 0.64200002 1.1436962e-38
-0.12167428 0.10822286 0.64200002 1.1161454e-38
-0.12045144 0.10822286 0.64200002 1.1161454e-38
-0.11941428 0.10839143 0.64300001 1.1070338e-38
-0.11837334 0.10856 0.64400005 1.0885946e-38
-0.11714668 0.10856 0.64400005 1.0885934e-38
-0.11592001 0.10856 0.64400005 1.097813e-38
-0.11469334 0.10856 0.64400005 1.1255082e-38
-0.11381905 0.10889714 0.64600003 1.1162886e-38
-0.11258857 0.10889714 0.64600003 1.1162531e-38
-0.11101335 0.10856 0.64400005 1.1070335e-38
-0.10978667 0.10856 0.64400005 1.0885233e-38
-0.10856 0.10856 0.64400005 1.116182e-38
-0.10700001 0.10822286 0.64200002 1.1528089e-38
-0.1051181 0.10754857 0.63800001 8.8544154e-39
-0.10260001 0.10620001 0.63000005 8.4863266e-39
-0.10123905 0.10603143 0.62900001 8.6707178e-39
-0.09988191 0.10586286 0.62800002 8.9458628e-39
-0.098685719 0.10586286 0.62800002 8.8536671e-39
-0.097023807 0.10535714 0.625 8.5778187e-39
-0.095680006 0.10518858 0.62400001 9.2231881e-39
-0.094188571 0.10485144 0.62200004 9.1324246e-39
-0.092854291 0.10468286 0.62100005 9.3168159e-39
-0.09167143 0.10468286 0.62100005 9.5012072e-39
-0.090342857 0.10451429 0.62 9.7777941e-39
-0.089018099 0.10434572 0.61900002 9.8699869e-39
-0.087697141 0.10417714 0.61800003 1.0054378e-38
-0.086240008 0.10384001 0.61600006 9.9632643e-39
-0.084928572 0.10367143 0.61500001 1.0147656e-38
-0.083620951 0.10350285 0.61400002 1.005582e-38
-0.082451433 0.10350285 0.61400002 1.0148016e-38
-0.081149533 0.10333429 0.61300004 1.0331694e-38
-0.079981908 0.10333429 0.61300004 1.0331694e-38
-0.07881429 0.10333429 0.61300004 1.0331691e-38
-0.077646673 0.10333429 0.61300004 1.0423887e-38
-0.076479048 0.10333429 0.61300004 1.0699753e-38
-0.075188577 0.10316572 0.61200005 1.0791949e-38
-0.074022859 0.10316572 0.61200005 1.0516801e-38
-0.072857149 0.10316572 0.61200005 1.0608997e-38
-0.071574286 0.10299715 0.611 1.0792669e-38
-0.070410475 0.10299715 0.611 1.0792669e-38
-0.069246665 0.10299715 0.611 1.0792672e-38
-0.067971431 0.10282857 0.61000001 1.0884867e-38
-0.066700004 0.10266001 0.60900003 1.088523e-38
-0.065540001 0.10266001 0.60900003 1.1069622e-38
-0.064380005 0.10266001 0.60900003 1.0886309e-38
-0.063220002 0.10266001 0.60900003 1.0886309e-38
-0.062060002 0.10266001 0.60900003 1.0977789e-38
-0.061000001 0.10282857 0.61000001 1.0977789e-38
-0.059838098 0.10282857 0.61000001 1.0886309e-38
-0.058772378 0.10299715 0.611 1.0886309e-38
-0.057608571 0.10299715 0.611 1.0702284e-38
-0.05644476 0.10299715 0.611 1.0517893e-38
-0.055280954 0.10299715 0.611 1.0701918e-38
-0.054117143 0.10299715 0.611 1.0886309e-38
-0.052953333 0.10299715 0.611 1.0977789e-38
-0.051874291 0.10316572 0.61200005 1.1069985e-38
-0.050708573 0.10316572 0.61200005 1.1069985e-38
-0.049542859 0.10316572 0.61200005 1.1069985e-38
-0.048377149 0.10316572 0.61200005 1.0885956e-38
-0.047288574 0.10333429 0.61300004 1.0793761e-38
-0.046120953 0.10333429 0.61300004 1.0977429e-38
-0.044953335 0.10333429 0.61300004 1.0885233e-38
-0.043857146 0.10350285 0.61400002 1.0885233e-38
-0.042757142 0.10367143 0.61500001 1.0885233e-38
-0.041585714 0.10367143 0.61500001 1.0609725e-38
-0.040480006 0.10384001 0.61600006 1.0609725e-38
-0.039434288 0.10417714 0.61800003 1.0609372e-38
-0.038257144 0.10417714 0.61800003 1.0517177e-38
-0.037140001 0.10434572 0.61900002 1.0149113e-38
-0.035960954 0.10434572 0.61900002 1.0149113e-38
-0.034838095 0.10451429 0.62 1.0332776e-38
-0.033765715 0.10485144 0.62200004 1.0332776e-38
-0.032633334 0.10502 0.62300003 1.0332776e-38
-0.031446666 0.10502 0.62300003 1.0148384e-38
-0.030308573 0.10518858 0.62400001 9.8718044e-39
-0.02926 0.10569429 0.62700003 9.7796087e-39
-0.028155237 0.10603143 0.62900001 9.6870502e-39
-0.027000003 0.10620001 0.63000005 9.5948545e-39
-0.025800001 0.10620001 0.63000005 9.4101003e-39
-0.024756189 0.10687429 0.634 9.2257091e-39
-0.023585714 0.10704286 0.63500005 9.1327946e-39
-0.022446666 0.10738 0.63700002 8.9484033e-39
-0.021233333 0.10738 0.63700002 8.8565608e-39
-0.020145716 0.1080543 0.64100003 8.7643652e-39
-0.018983809 0.10839143 0.64300001 8.8561881e-39
-0.017759047 0.10839143 0.64300001 8.6717968e-39
-0.016534286 0.10839143 0.64300001 9.2231853e-39
-0.015380953 0.10889714 0.64600003 1.0882707e-38
-0.014150477 0.10889714 0.64600003 1.1065994e-38
-0.14124 0.10944572 0.64200002 1.0881252e-38
-0.13979904 0.10927524 0.64100003 1.0881252e-38
-0.1385781 0.10927524 0.64100003 1.0973448e-38
-0.13735715 0.10927524 0.64100003 1.0235883e-38
-0.13634858 0.10944572 0.64200002 9.2238383e-39
-0.13512571 0.10944572 0.64200002 7.1955345e-39
-0.13390286 0.10944572 0.64200002 7.6555121e-39
-0.13288668 0.10961619 0.64300001 8.7618597e-39
-0.13166189 0.10961619 0.64300001 9.406485e-39
-0.13023429 0.10944572 0.64200002 1.0605028e-38
-0.12901144 0.10944572 0.64200002 1.1159637e-38
-0.12778857 0.10944572 0.64200002 1.1620615e-38
-0.12656571 0.10944572 0.64200002 1.1437303e-38
-0.12534286 0.10944572 0.64200002 1.1529498e-38
-0.12412 0.10944572 0.64200002 1.1160028e-38
-0.12270571 0.10927524 0.64100003 1.0422463e-38
-0.12148476 0.10927524 0.64100003 9.9625553e-39
-0.12026381 0.10927524 0.64100003 9.778164e-39
-0.11904286 0.10927524 0.64100003 9.6870376e-39
-0.11818952 0.10961619 0.64300001 9.6870376e-39
-0.11696476 0.10961619 0.64300001 1.0330965e-38
-0.11592001 0.10978667 0.64400005 1.0884139e-38
-0.11469334 0.10978667 0.64400005 1.1530568e-38
-0.11346667 0.10978667 0.64400005 1.1714959e-38
-0.11224001 0.10978667 0.64400005 1.1530234e-38
-0.11101335 0.10978667 0.64400005 1.2083408e-38
-0.10978667 0.10978667 0.64400005 1.217525e-38
-0.10839143 0.10961619 0.64300001 1.2267446e-38
-0.10700001 0.10944572 0.64200002 1.1621354e-38
-0.10495333 0.10859334 0.63700002 8.9476803e-39
-0.10292572 0.10774095 0.63200003 8.2108187e-39
-0.10156096 0.10757048 0.63100004 8.3030143e-39
-0.10004095 0.10722952 0.62900001 8.7611156e-39
-0.098842859 0.10722952 0.62900001 8.9455068e-39
-0.097489528 0.10705905 0.62800002 8.5778187e-39
-0.095680006 0.10637714 0.62400001 9.1309925e-39
-0.094340004 0.10620667 0.62300003 9.4082801e-39
-0.093003817 0.10603619 0.62200004 9.5004757e-39
-0.09167143 0.10586572 0.62100005 9.4090087e-39
-0.090488575 0.10586572 0.62100005 9.5934e-39
-0.08916191 0.10569524 0.62 9.594479e-39
-0.087980948 0.10569524 0.62 9.8710659e-39
-0.086520009 0.10535429 0.61800003 1.0054381e-38
-0.085066676 0.10501334 0.61600006 1.0146577e-38
-0.08375714 0.10484286 0.61500001 9.9629112e-39
-0.082451433 0.10467239 0.61400002 1.0239498e-38
-0.081281908 0.10467239 0.61400002 1.0331338e-38
-0.079981908 0.10450191 0.61300004 1.0331338e-38
-0.07881429 0.10450191 0.61300004 1.0331691e-38
-0.077646673 0.10450191 0.61300004 1.0423887e-38
-0.076479048 0.10450191 0.61300004 1.033241e-38
-0.075188577 0.10433144 0.61200005 1.0424605e-38
-0.074022859 0.10433144 0.61200005 1.0700473e-38
-0.072857149 0.10433144 0.61200005 1.0608278e-38
-0.071691439 0.10433144 0.61200005 1.0700473e-38
-0.070525721 0.10433144 0.61200005 1.0792669e-38
-0.069360003 0.10433144 0.61200005 1.0792672e-38
-0.068194285 0.10433144 0.61200005 1.0792672e-38
-0.066919044 0.10416096 0.611 1.0609006e-38
-0.065755233 0.10416096 0.611 1.0885593e-38
-0.064485714 0.10399048 0.61000001 1.0886309e-38
-0.063323803 0.10399048 0.61000001 1.0794114e-38
-0.062161908 0.10399048 0.61000001 1.0977789e-38
-0.061099999 0.10416096 0.611 1.0977789e-38
-0.059936188 0.10416096 0.611 1.0794114e-38
-0.058772378 0.10416096 0.611 1.0886309e-38
-0.057608571 0.10416096 0.611 1.0977789e-38
-0.05644476 0.10416096 0.611 1.0885593e-38
-0.05537143 0.10433144 0.61200005 1.0977423e-38
-0.054205719 0.10433144 0.61200005 1.1069619e-38
-0.053040005 0.10433144 0.61200005 1.1069624e-38
-0.051874291 0.10433144 0.61200005 1.1069624e-38
-0.050708573 0.10433144 0.61200005 1.0977792e-38
-0.049542859 0.10433144 0.61200005 1.0977792e-38
-0.048456192 0.10450191 0.61300004 1.0885956e-38
-0.047288574 0.10450191 0.61300004 1.0793761e-38
-0.046120953 0.10450191 0.61300004 1.0793761e-38
-0.044953335 0.10450191 0.61300004 1.0793761e-38
-0.043857146 0.10467239 0.61400002 1.0701565e-38
-0.042757142 0.10484286 0.61500001 1.0701565e-38
-0.041653335 0.10501334 0.61600006 1.0701921e-38
-0.040480006 0.10501334 0.61600006 1.0609725e-38
-0.039434288 0.10535429 0.61800003 1.0701568e-38
-0.038319048 0.10552476 0.61900002 1.0517177e-38
-0.037140001 0.10552476 0.61900002 1.0149113e-38
-0.036019046 0.10569524 0.62 1.0149113e-38
-0.034894288 0.10586572 0.62100005 1.033242e-38
-0.03382 0.10620667 0.62300003 1.033242e-38
-0.032633334 0.10620667 0.62300003 9.964e-39
-0.031446666 0.10620667 0.62300003 9.8718044e-39
-0.030308573 0.10637714 0.62400001 1.005547e-38
-0.02926 0.10688858 0.62700003 9.8710785e-39
-0.028155237 0.10722952 0.62900001 9.6870502e-39
-0.027000003 0.10740001 0.63000005 9.5026589e-39
-0.025800001 0.10740001 0.63000005 9.4108192e-39
-0.024678096 0.10774095 0.63200003 9.1342323e-39
-0.023585714 0.10825239 0.63500005 8.9498383e-39
-0.022481905 0.10876381 0.63800001 8.765447e-39
-0.021266667 0.10876381 0.63800001 8.8565608e-39
-0.020145716 0.10927524 0.64100003 8.7643652e-39
-0.018983809 0.10961619 0.64300001 8.8558378e-39
-0.017759047 0.10961619 0.64300001 8.8558378e-39
-0.016534286 0.10961619 0.64300001 9.4075766e-39
-0.015309525 0.10961619 0.64300001 1.0882707e-38
-0.14124 0.11066858 0.64200002 1.0696861e-38
-0.14001715 0.11066858 0.64200002 1.0789057e-38
-0.13879429 0.11066858 0.64200002 1.1065997e-38
-0.13757142 0.11066858 0.64200002 8.945497e-39
-0.13634858 0.11066858 0.64200002 8.116437e-39
-0.13512571 0.11066858 0.64200002 7.6554589e-39
-0.13390286 0.11066858 0.64200002 7.7480581e-39
-0.13288668 0.11084095 0.64300001 9.499775e-39
-0.13145714 0.11066858 0.64200002 9.4100877e-39
-0.13023429 0.11066858 0.64200002 1.0332044e-38
-0.12881048 0.11049619 0.64100003 1.0608634e-38
-0.12758954 0.11049619 0.64100003 1.1069612e-38
-0.12636858 0.11049619 0.64100003 1.1345473e-38
-0.12514763 0.11049619 0.64100003 1.1068886e-38
-0.12392667 0.11049619 0.64100003 1.0147302e-38
-0.12270571 0.11049619 0.64100003 9.8707156e-39
-0.12129524 0.11032382 0.64000005 1.0052946e-38
-0.1200762 0.11032382 0.64000005 9.8685548e-39
-0.11885715 0.11032382 0.64000005 9.8696267e-39
-0.11818952 0.11084095 0.64300001 9.8696267e-39
-0.11696476 0.11084095 0.64300001 9.9614566e-39
-0.11592001 0.11101335 0.64400005 1.0145848e-38
-0.11469334 0.11101335 0.64400005 1.0146561e-38
-0.11346667 0.11101335 0.64400005 1.1068517e-38
-0.11224001 0.11101335 0.64400005 1.1346199e-38
-0.11101335 0.11101335 0.64400005 1.1714981e-38
-0.10978667 0.11101335 0.64400005 1.1899735e-38
-0.10839143 0.11084095 0.64300001 1.180754e-38
-0.10700001 0.11066858 0.64200002 1.1254729e-38
-0.10495333 0.10980667 0.63700002 8.765447e-39
-0.10325143 0.10928952 0.634 8.0264274e-39
-0.10172191 0.10894477 0.63200003 8.2108187e-39
-0.1005181 0.10894477 0.63200003 8.7611156e-39
-0.099000007 0.10860001 0.63000005 8.8533112e-39
-0.097644761 0.10842761 0.62900001 8.7625631e-39
-0.095833331 0.10773809 0.625 9.1313456e-39
-0.094340004 0.10739334 0.62300003 9.132775e-39
-0.093003817 0.10722096 0.62200004 9.3171662e-39
-0.09167143 0.10704858 0.62100005 9.4090087e-39
-0.090488575 0.10704858 0.62100005 9.5934e-39
-0.08916191 0.10687619 0.62 9.5022834e-39
-0.087980948 0.10687619 0.62 9.7788702e-39
-0.086660005 0.10670381 0.61900002 9.7792332e-39
-0.085342854 0.10653143 0.61800003 9.9636244e-39
-0.083893336 0.10618667 0.61600006 1.0055104e-38
-0.082585715 0.10601429 0.61500001 1.0239495e-38
-0.081281908 0.1058419 0.61400002 1.0147663e-38
-0.080112383 0.1058419 0.61400002 1.0239858e-38
-0.078942858 0.1058419 0.61400002 1.0331691e-38
-0.077646673 0.10566953 0.61300004 1.0423887e-38
-0.076479048 0.10566953 0.61300004 1.033241e-38
-0.07531143 0.10566953 0.61300004 1.0516801e-38
-0.074143812 0.10566953 0.61300004 1.0424968e-38
-0.072976194 0.10566953 0.61300004 1.0332773e-38
-0.071691439 0.10549715 0.61200005 1.0424966e-38
-0.070525721 0.10549715 0.61200005 1.0517161e-38
-0.069360003 0.10549715 0.61200005 1.0792316e-38
-0.068194285 0.10549715 0.61200005 1.0884512e-38
-0.066919044 0.10532477 0.611 1.0701202e-38
-0.065755233 0.10532477 0.611 1.0977789e-38
-0.06459143 0.10532477 0.611 1.0794833e-38
-0.06342762 0.10532477 0.611 1.0702637e-38
-0.062263809 0.10532477 0.611 1.0977789e-38
-0.061099999 0.10532477 0.611 1.0977789e-38
-0.059936188 0.10532477 0.611 1.0886309e-38
-0.058772378 0.10532477 0.611 1.0886309e-38
-0.057702862 0.10549715 0.61200005 1.0977789e-38
-0.056537148 0.10549715 0.61200005 1.0977789e-38
-0.05537143 0.10549715 0.61200005 1.1161817e-38
-0.054205719 0.10549715 0.61200005 1.1161817e-38
-0.05312667 0.10566953 0.61300004 1.1161464e-38
-0.051959049 0.10566953 0.61300004 1.1069269e-38
-0.050791427 0.10566953 0.61300004 1.0977792e-38
-0.049623813 0.10566953 0.61300004 1.1069987e-38
-0.048456192 0.10566953 0.61300004 1.0886675e-38
-0.047365714 0.1058419 0.61400002 1.0886675e-38
-0.046196189 0.1058419 0.61400002 1.079448e-38
-0.045026667 0.1058419 0.61400002 1.079448e-38
-0.043928571 0.10601429 0.61500001 1.0793761e-38
-0.042826667 0.10618667 0.61600006 1.0793761e-38
-0.041788574 0.10653143 0.61800003 1.0701565e-38
-0.040611431 0.10653143 0.61800003 1.0609369e-38
-0.039434288 0.10653143 0.61800003 1.0516823e-38
-0.038319048 0.10670381 0.61900002 1.0516823e-38
-0.0372 0.10687619 0.62 1.0332785e-38
-0.036077145 0.10704858 0.62100005 1.0332785e-38
-0.034894288 0.10704858 0.62100005 1.0056914e-38
-0.03382 0.10739334 0.62300003 1.0056914e-38
-0.032633334 0.10739334 0.62300003 9.7796087e-39
-0.031497143 0.10756572 0.62400001 9.8718044e-39
-0.030357143 0.10773809 0.625 1.005547e-38
-0.02926 0.10808286 0.62700003 9.8710785e-39
-0.028155237 0.10842761 0.62900001 9.6870502e-39
-0.027000003 0.10860001 0.63000005 9.5948545e-39
-0.025840953 0.10877238 0.63100004 9.3186236e-39
-0.024678096 0.10894477 0.63200003 9.2264279e-39
-0.023622857 0.10963429 0.63600004 9.041315e-39
-0.022446666 0.10980667 0.63700002 8.9491194e-39
-0.021266667 0.10997905 0.63800001 8.8569168e-39
-0.020145716 0.11049619 0.64100003 8.5803299e-39
-0.019013334 0.11101335 0.64400005 8.7636421e-39
-0.017786669 0.11101335 0.64400005 8.5792509e-39
-0.016559999 0.11101335 0.64400005 9.5905287e-39
-0.14124 0.11189143 0.64200002 1.0513186e-38
-0.14001715 0.11189143 0.64200002 1.0881968e-38
-0.13879429 0.11189143 0.64200002 1.0514618e-38
-0.13757142 0.11189143 0.64200002 7.6565533e-39
-0.13634858 0.11189143 0.64200002 7.2884896e-39
-0.13512571 0.11189143 0.64200002 7.7494678e-39
-0.13390286 0.11189143 0.64200002 8.3012318e-39
-0.13288668 0.11206571 0.64300001 1.0329536e-38
-0.13145714 0.11189143 0.64200002 1.115999e-38
-0.13023429 0.11189143 0.64200002 1.0883403e-38
-0.12881048 0.11171715 0.64100003 1.0239478e-38
-0.12758954 0.11171715 0.64100003 1.0055087e-38
-0.12636858 0.11171715 0.64100003 9.9614692e-39
-0.12514763 0.11171715 0.64100003 9.5926867e-39
-0.12392667 0.11171715 0.64100003 9.869261e-39
-0.12270571 0.11171715 0.64100003 1.0145848e-38
-0.12129524 0.11154287 0.64000005 1.0145135e-38
-0.1200762 0.11154287 0.64000005 1.0145135e-38
-0.11885715 0.11154287 0.64000005 1.0420993e-38
-0.11818952 0.11206571 0.64300001 1.0420993e-38
-0.11696476 0.11206571 0.64300001 1.0420993e-38
-0.11592001 0.11224001 0.64400005 1.0328797e-38
-0.11469334 0.11224001 0.64400005 9.5933804e-39
-0.11346667 0.11224001 0.64400005 9.5011847e-39
-0.11224001 0.11224001 0.64400005 9.4104409e-39
-0.11101335 0.11224001 0.64400005 9.7792234e-39
-0.10978667 0.11224001 0.64400005 1.0055457e-38
-0.10839143 0.11206571 0.64300001 1.0516435e-38
-0.10700001 0.11189143 0.64200002 1.0700827e-38
-0.1051181 0.11119429 0.63800001 9.2256965e-39
-0.10325143 0.11049715 0.634 8.1186427e-39
-0.10172191 0.11014858 0.63200003 8.026447e-39
-0.1005181 0.11014858 0.63200003 8.4859762e-39
-0.099157147 0.10997429 0.63100004 8.6703675e-39
-0.097800009 0.1098 0.63000005 8.7629134e-39
-0.096140005 0.10927714 0.62700003 8.9473047e-39
-0.09449143 0.10875428 0.62400001 9.3160844e-39
-0.093003817 0.10840572 0.62200004 9.5004757e-39
-0.091819048 0.10840572 0.62200004 9.3168187e-39
-0.090488575 0.10823144 0.62100005 9.5934056e-39
-0.089305721 0.10823144 0.62100005 9.8696267e-39
-0.087980948 0.10805714 0.62 9.9618224e-39
-0.086660005 0.10788286 0.61900002 9.9621853e-39
-0.085342854 0.10770858 0.61800003 1.0146577e-38
-0.083893336 0.10736001 0.61600006 1.01473e-38
-0.082720011 0.10736001 0.61600006 1.0239495e-38
-0.081414282 0.10718571 0.61500001 1.0240214e-38
-0.080242857 0.10718571 0.61500001 1.033241e-38
-0.079071432 0.10718571 0.61500001 1.033241e-38
-0.077773333 0.10701144 0.61400002 1.033241e-38
-0.076603815 0.10701144 0.61400002 1.0332054e-38
-0.07531143 0.10683715 0.61300004 1.0516445e-38
-0.074143812 0.10683715 0.61300004 1.0424968e-38
-0.072976194 0.10683715 0.61300004 1.0332773e-38
-0.071808569 0.10683715 0.61300004 1.060936e-38
-0.070640959 0.10683715 0.61300004 1.0978142e-38
-0.069473341 0.10683715 0.61300004 1.1438041e-38
-0.068194285 0.10666286 0.61200005 1.1438041e-38
-0.067028575 0.10666286 0.61200005 1.1437685e-38
-0.065862864 0.10666286 0.61200005 1.1529881e-38
-0.064697146 0.10666286 0.61200005 1.1438401e-38
-0.06342762 0.10648857 0.611 1.1161815e-38
-0.062263809 0.10648857 0.611 1.0977789e-38
-0.061099999 0.10648857 0.611 1.0977789e-38
-0.059936188 0.10648857 0.611 1.0977789e-38
-0.058868576 0.10666286 0.61200005 1.0977789e-38
-0.057702862 0.10666286 0.61200005 1.0977789e-38
-0.056537148 0.10666286 0.61200005 1.0977789e-38
-0.05546191 0.10683715 0.61300004 1.0977073e-38
-0.054294288 0.10683715 0.61300004 1.0977073e-38
-0.05312667 0.10683715 0.61300004 1.0977076e-38
-0.051959049 0.10683715 0.61300004 1.1069271e-38
-0.050791427 0.10683715 0.61300004 1.0885956e-38
-0.049623813 0.10683715 0.61300004 1.0978152e-38
-0.048535239 0.10701144 0.61400002 1.1069987e-38
-0.047365714 0.10701144 0.61400002 1.0977792e-38
-0.046196189 0.10701144 0.61400002 1.088524e-38
-0.0451 0.10718571 0.61500001 1.0977436e-38
-0.044000003 0.10736001 0.61600006 1.0885593e-38
-0.042826667 0.10736001 0.61600006 1.0885593e-38
-0.041788574 0.10770858 0.61800003 1.0794114e-38
-0.040611431 0.10770858 0.61800003 1.0609723e-38
-0.039498094 0.10788286 0.61900002 1.0424628e-38
-0.038380951 0.10805714 0.62 1.0332432e-38
-0.037260003 0.10823144 0.62100005 1.0424618e-38
-0.036077145 0.10823144 0.62100005 1.0424618e-38
-0.034950476 0.10840572 0.62200004 1.033242e-38
-0.03382 0.10858 0.62300003 1.0148028e-38
-0.032633334 0.10858 0.62300003 9.87181e-39
-0.031497143 0.10875428 0.62400001 9.87181e-39
-0.030357143 0.10892857 0.625 1.005547e-38
-0.029306667 0.10945143 0.62800002 9.7788829e-39
-0.028200002 0.1098 0.63000005 9.5026617e-39
-0.027000003 0.1098 0.63000005 9.5026617e-39
-0.025840953 0.10997429 0.63100004 9.5026491e-39
-0.024756189 0.11049715 0.634 9.3182578e-39
-0.02366 0.11102001 0.63700002 9.0420311e-39
-0.022446666 0.11102001 0.63700002 8.8576398e-39
-0.021266667 0.11119429 0.63800001 8.8569168e-39
-0.020145716 0.11171715 0.64100003 8.6725255e-39
-0.018983809 0.11206571 0.64300001 8.4881342e-39
-0.017759047 0.11206571 0.64300001 8.4881342e-39
-0.016637143 0.11276285 0.64700001 9.4079297e-39
-0.14124 0.11311429 0.64200002 1.0513188e-38
-0.14001715 0.11311429 0.64200002 1.0881971e-38
-0.13879429 0.11311429 0.64200002 1.1064918e-38
-0.13778572 0.11329047 0.64300001 7.6536792e-39
-0.13656096 0.11329047 0.64300001 6.6416601e-39
-0.13512571 0.11311429 0.64200002 8.7621595e-39
-0.13390286 0.11311429 0.64200002 8.9480362e-39
-0.13288668 0.11329047 0.64300001 1.0330971e-38
-0.13145714 0.11311429 0.64200002 1.033241e-38
-0.13023429 0.11311429 0.64200002 9.9636272e-39
-0.12881048 0.1129381 0.64100003 1.0238409e-38
-0.12758954 0.1129381 0.64100003 1.0054018e-38
-0.12636858 0.1129381 0.64100003 9.8674631e-39
-0.12514763 0.1129381 0.64100003 1.0236246e-38
-0.12392667 0.1129381 0.64100003 1.0788333e-38
-0.12270571 0.1129381 0.64100003 1.0788333e-38
-0.12148476 0.1129381 0.64100003 1.0788336e-38
-0.12026381 0.1129381 0.64100003 1.0788336e-38
-0.11592001 0.11346667 0.64400005 1.0603945e-38
-0.11469334 0.11346667 0.64400005 1.0328431e-38
-0.11346667 0.11346667 0.64400005 1.0236236e-38
-0.11224001 0.11346667 0.64400005 9.6834278e-39
-0.11101335 0.11346667 0.64400005 9.7756234e-39
-0.10978667 0.11346667 0.64400005 9.8699799e-39
-0.10839143 0.11329047 0.64300001 1.0423154e-38
-0.10700001 0.11311429 0.64200002 1.0791943e-38
-0.1051181 0.11240952 0.63800001 9.5934e-39
-0.10341429 0.11188096 0.63500005 9.3171662e-39
-0.10204381 0.11170476 0.634 8.118623e-39
-0.1005181 0.11135238 0.63200003 8.2097369e-39
-0.099157147 0.1111762 0.63100004 8.4863238e-39
-0.097955242 0.1111762 0.63100004 8.7629134e-39
-0.096293338 0.11064762 0.62800002 9.131696e-39
-0.094642855 0.11011904 0.625 9.0405793e-39
-0.093153335 0.10976667 0.62300003 9.2249706e-39
-0.091819048 0.10959049 0.62200004 9.3168131e-39
-0.090634294 0.10959049 0.62200004 9.5934e-39
-0.089305721 0.10941429 0.62100005 9.5022834e-39
-0.08812286 0.10941429 0.62100005 9.7788702e-39
-0.086800002 0.1092381 0.62 9.9621853e-39
-0.085342854 0.10888571 0.61800003 1.0146577e-38
-0.084165722 0.10888571 0.61800003 1.01473e-38
-0.082720011 0.10853334 0.61600006 1.0331691e-38
-0.081546672 0.10853334 0.61600006 1.0240214e-38
-0.080373339 0.10853334 0.61600006 1.0424605e-38
-0.079071432 0.10835715 0.61500001 1.033277e-38
-0.077773333 0.10818096 0.61400002 1.033277e-38
-0.076603815 0.10818096 0.61400002 1.0424968e-38
-0.075434282 0.10818096 0.61400002 1.0517164e-38
-0.074143812 0.10800476 0.61300004 1.0609362e-38
-0.072976194 0.10800476 0.61300004 1.0701558e-38
-0.071808569 0.10800476 0.61300004 1.0885593e-38
-0.070640959 0.10800476 0.61300004 1.0885593e-38
-0.069473341 0.10800476 0.61300004 1.1254003e-38
-0.068305716 0.10800476 0.61300004 1.1346199e-38
-0.067028575 0.10782858 0.61200005 1.1438394e-38
-0.065862864 0.10782858 0.61200005 1.1438394e-38
-0.064697146 0.10782858 0.61200005 1.1807174e-38
-0.063531436 0.10782858 0.61200005 1.1530587e-38
-0.062365722 0.10782858 0.61200005 1.1161817e-38
-0.0612 0.10782858 0.61200005 1.1069622e-38
-0.060034286 0.10782858 0.61200005 1.1069985e-38
-0.058868576 0.10782858 0.61200005 1.0977789e-38
-0.057702862 0.10782858 0.61200005 1.0977789e-38
-0.056537148 0.10782858 0.61200005 1.0977789e-38
-0.05546191 0.10800476 0.61300004 1.0885593e-38
-0.054294288 0.10800476 0.61300004 1.0793398e-38
-0.05312667 0.10800476 0.61300004 1.0701565e-38
-0.051959049 0.10800476 0.61300004 1.0793761e-38
-0.050791427 0.10800476 0.61300004 1.1069624e-38
-0.049704764 0.10818096 0.61400002 1.1254016e-38
-0.048614286 0.10835715 0.61500001 1.1161464e-38
-0.047442857 0.10835715 0.61500001 1.1069269e-38
-0.046271428 0.10835715 0.61500001 1.0885956e-38
-0.045173336 0.10853334 0.61600006 1.0885956e-38
-0.044000003 0.10853334 0.61600006 1.0702284e-38
-0.042965718 0.10888571 0.61800003 1.0702284e-38
-0.041788574 0.10888571 0.61800003 1.0885593e-38
-0.040611431 0.10888571 0.61800003 1.0609006e-38
-0.039498094 0.10906191 0.61900002 1.0424978e-38
-0.038380951 0.1092381 0.62 1.0332783e-38
-0.037260003 0.10941429 0.62100005 1.0332783e-38
-0.036077145 0.10941429 0.62100005 1.0424978e-38
-0.034950476 0.10959049 0.62200004 1.0240587e-38
-0.03382 0.10976667 0.62300003 1.0240587e-38
-0.032685712 0.10994286 0.62400001 1.0056198e-38
-0.031497143 0.10994286 0.62400001 9.9640028e-39
-0.030357143 0.11011904 0.625 9.7796087e-39
-0.029353334 0.1108238 0.62900001 9.7796087e-39
-0.028244764 0.1111762 0.63100004 9.5026617e-39
-0.027042858 0.1111762 0.63100004 9.5026617e-39
-0.025881905 0.11135238 0.63200003 9.5026491e-39
-0.02479524 0.11188096 0.63500005 9.4104535e-39
-0.02366 0.11223333 0.63700002 9.0420339e-39
-0.022446666 0.11223333 0.63700002 8.765447e-39
-0.021333335 0.11276191 0.64000005 8.8565608e-39
-0.020177143 0.11311429 0.64200002 8.6721696e-39
-0.018983809 0.11329047 0.64300001 8.8561881e-39
-0.017869525 0.11399524 0.64700001 8.8561881e-39
-0.016637143 0.11399524 0.64700001 9.3157369e-39
-0.14124 0.11433714 0.64200002 1.106457e-38
-0.14001715 0.11433714 0.64200002 1.1156766e-38
-0.13879429 0.11433714 0.64200002 1.0605719e-38
-0.13757142 0.11433714 0.64200002 6.7335026e-39
-0.13634858 0.11433714 0.64200002 5.8162434e-39
-0.13512571 0.11433714 0.64200002 8.7665036e-39
-0.13390286 0.11433714 0.64200002 9.9614664e-39
-0.13288668 0.11451524 0.64300001 1.0606836e-38
-0.13145714 0.11433714 0.64200002 1.0054028e-38
-0.13023429 0.11433714 0.64200002 9.3164628e-39
-0.12881048 0.11415905 0.64100003 9.5919707e-39
-0.12758954 0.11415905 0.64100003 1.0052949e-38
-0.12636858 0.11415905 0.64100003 1.0236955e-38
-0.12534286 0.11433714 0.64200002 1.0513542e-38
-0.12412 0.11433714 0.64200002 1.0788333e-38
-0.11469334 0.11469334 0.64400005 1.0420627e-38
-0.11346667 0.11469334 0.64400005 1.0328431e-38
-0.11224001 0.11469334 0.64400005 1.0052208e-38
-0.11101335 0.11469334 0.64400005 9.7756206e-39
-0.10978667 0.11469334 0.64400005 9.3160844e-39
-0.10839143 0.11451524 0.64300001 9.5004757e-39
-0.10700001 0.11433714 0.64200002 9.3178921e-39
-0.10544763 0.11398096 0.64000005 9.3178921e-39
-0.10341429 0.11309049 0.63500005 9.4089891e-39
-0.10204381 0.11291238 0.634 8.1182503e-39
-0.10083619 0.11291238 0.634 8.0253456e-39
-0.099628568 0.11291238 0.634 8.3941281e-39
-0.098110482 0.1125562 0.63200003 8.4859762e-39
-0.096293338 0.11184381 0.62800002 9.03915e-39
-0.094945721 0.11166572 0.62700003 8.9483837e-39
-0.093302861 0.11113143 0.62400001 9.0405793e-39
-0.091819048 0.11077525 0.62200004 9.2246231e-39
-0.090634294 0.11077525 0.62200004 9.4090143e-39
-0.089305721 0.11059715 0.62100005 9.5022834e-39
-0.08812286 0.11059715 0.62100005 9.6866746e-39
-0.086800002 0.11041905 0.62 9.6866774e-39
-0.085480958 0.11024096 0.61900002 9.8710687e-39
-0.084165722 0.11006287 0.61800003 1.0055104e-38
-0.082988568 0.11006287 0.61800003 1.0331691e-38
-0.081546672 0.10970668 0.61600006 1.0331691e-38
-0.080373339 0.10970668 0.61600006 1.0331691e-38
-0.079200007 0.10970668 0.61600006 1.0332054e-38
-0.0779 0.10952857 0.61500001 1.0424249e-38
-0.076603815 0.10935047 0.61400002 1.0516448e-38
-0.075434282 0.10935047 0.61400002 1.088523e-38
-0.074143812 0.10917238 0.61300004 1.1254016e-38
-0.072976194 0.10917238 0.61300004 1.1714994e-38
-0.071808569 0.10917238 0.61300004 1.0977073e-38
-0.070640959 0.10917238 0.61300004 6.7360739e-39
-0.069473341 0.10917238 0.61300004 5.1741236e-39
-0.068305716 0.10917238 0.61300004 5.6351018e-39
-0.067138098 0.10917238 0.61300004 5.726231e-39
-0.06597048 0.10917238 0.61300004 7.1091655e-39
-0.064802863 0.10917238 0.61300004 9.0423996e-39
-0.063635238 0.10917238 0.61300004 1.1439486e-38
-0.06246762 0.10917238 0.61300004 1.162243e-38
-0.061300006 0.10917238 0.61300004 1.1253647e-38
-0.060132384 0.10917238 0.61300004 1.116218e-38
-0.058964763 0.10917238 0.61300004 1.0977789e-38
-0.057797145 0.10917238 0.61300004 1.0978145e-38
-0.056629524 0.10917238 0.61300004 1.0978145e-38
-0.05546191 0.10917238 0.61300004 1.0977792e-38
-0.054382857 0.10935047 0.61400002 1.0977792e-38
-0.053213332 0.10935047 0.61400002 1.079448e-38
-0.052043814 0.10935047 0.61400002 1.079448e-38
-0.050874289 0.10935047 0.61400002 1.0977789e-38
-0.049785715 0.10952857 0.61500001 1.1069985e-38
-0.04869334 0.10970668 0.61600006 1.1069985e-38
-0.047520004 0.10970668 0.61600006 1.0977789e-38
-0.046346672 0.10970668 0.61600006 1.0977789e-38
-0.045173336 0.10970668 0.61600006 1.0885593e-38
-0.044142857 0.11006287 0.61800003 1.0701565e-38
-0.042965718 0.11006287 0.61800003 1.0701565e-38
