# .PCD v0.7 - Point Cloud Data file format
VERSION 0.7
FIELDS x y z rgba
SIZE 4 4 4 4
TYPE F F F U
COUNT 1 1 1 1
WIDTH 1169
HEIGHT 1
VIEWPOINT 0 0 0 1 0 0 0
POINTS 1169
DATA ascii
-0.066174291 0.03366762 1.2190001 13680067
-0.063852385 0.03366762 1.2190001 12760001
-0.061732382 0.033778097 1.223 12957380
-0.059402857 0.033778097 1.223 12431045
-0.057073336 0.033778097 1.223 12365252
-0.054743811 0.033778097 1.223 12429512
-0.052414287 0.033778097 1.223 12561098
-0.050084762 0.033778097 1.223 12560330
-0.047911432 0.033888575 1.2270001 12823502
-0.045574289 0.033888575 1.2270001 12627141
-0.043096192 0.033778097 1.223 12692934
-0.040766668 0.033778097 1.223 12561348
-0.038437143 0.033778097 1.223 12561348
-0.036107622 0.033778097 1.223 12428992
-0.033888575 0.033888575 1.2270001 12560578
-0.031551428 0.033888575 1.2270001 12560578
-0.029119048 0.033778097 1.223 12560578
-0.026789526 0.033778097 1.223 12100295
-0.024540002 0.033888575 1.2270001 12297674
-0.022202859 0.033888575 1.2270001 12165563
-0.019736191 0.03366762 1.2190001 12297149
-0.017342858 0.033529524 1.2140001 12427963
-0.015030477 0.033529524 1.2140001 12625342
-0.012676191 0.033419047 1.21 13018805
-0.010371429 0.033419047 1.21 12887219
-0.0080666672 0.033419047 1.21 12427695
-0.0057619051 0.033419047 1.21 11638179
-0.003457143 0.033419047 1.21 10524313
-0.001152381 0.033419047 1.21 9669004
0.001152381 0.033419047 1.21 8420250
-0.093342856 0.035723813 1.21 13746071
-0.0910381 0.035723813 1.21 15454620
-0.088733338 0.035723813 1.21 15849378
-0.086714298 0.035841908 1.2140001 15323339
-0.084401913 0.035841908 1.2140001 15323339
-0.08181905 0.035723813 1.21 15256769
-0.079514287 0.035723813 1.21 15125183
-0.077464767 0.035841908 1.2140001 15190978
-0.075709529 0.036107622 1.223 15125185
-0.073140003 0.035989527 1.2190001 14730689
-0.070818104 0.035989527 1.2190001 14204345
-0.068496197 0.035989527 1.2190001 14073792
-0.066174291 0.035989527 1.2190001 14007999
-0.063852385 0.035989527 1.2190001 13745856
-0.061732382 0.036107622 1.223 13614270
-0.059402857 0.036107622 1.223 12627911
-0.057073336 0.036107622 1.223 12364739
-0.054743811 0.036107622 1.223 12560844
-0.052414287 0.036107622 1.223 12758223
-0.050084762 0.036107622 1.223 12889293
-0.047911432 0.036225718 1.2270001 12889293
-0.045425717 0.036107622 1.223 12495303
-0.043096192 0.036107622 1.223 12495303
-0.040766668 0.036107622 1.223 12626371
-0.038437143 0.036107622 1.223 12494785
-0.036107622 0.036107622 1.223 12494785
-0.033778097 0.036107622 1.223 12428992
-0.031448569 0.036107622 1.223 12625090
-0.029119048 0.036107622 1.223 12493504
-0.026789526 0.036107622 1.223 12559308
-0.024540002 0.036225718 1.2270001 12756687
-0.022202859 0.036225718 1.2270001 12230845
-0.019800952 0.036107622 1.223 11967673
-0.017342858 0.035841908 1.2140001 12099509
-0.015030477 0.035841908 1.2140001 12033716
-0.012718096 0.035841908 1.2140001 12164523
-0.010371429 0.035723813 1.21 11769765
-0.0080666672 0.035723813 1.21 11638681
-0.0057619051 0.035723813 1.21 11507095
-0.003457143 0.035723813 1.21 11508374
-0.001152381 0.035723813 1.21 12495269
0.001152381 0.035723813 1.21 11181982
-0.093342856 0.038028572 1.21 15914678
-0.0910381 0.038028572 1.21 16241856
-0.088733338 0.038028572 1.21 16044477
-0.086428568 0.038028572 1.21 15321279
-0.084123813 0.038028572 1.21 15716037
-0.08181905 0.038028572 1.21 15651279
-0.079514287 0.038028572 1.21 15519693
-0.077464767 0.038154289 1.2140001 15059908
-0.075461909 0.038311433 1.2190001 14665150
-0.073140003 0.038311433 1.2190001 14730689
-0.070818104 0.038311433 1.2190001 14862275
-0.068496197 0.038311433 1.2190001 14928331
-0.066174291 0.038311433 1.2190001 14533573
-0.064061902 0.038437143 1.223 14074053
-0.061732382 0.038437143 1.223 13745088
-0.059402857 0.038437143 1.223 12825290
-0.057260003 0.03856286 1.2270001 12364739
-0.054922864 0.03856286 1.2270001 12561350
-0.052585717 0.03856286 1.2270001 12692936
-0.050248574 0.03856286 1.2270001 12757957
-0.047911432 0.03856286 1.2270001 12626371
-0.045425717 0.038437143 1.223 12363717
-0.043096192 0.038437143 1.223 12495303
-0.040766668 0.038437143 1.223 12758209
-0.038437143 0.038437143 1.223 12626623
-0.036107622 0.038437143 1.223 12691137
-0.033778097 0.038437143 1.223 12625344
-0.031448569 0.038437143 1.223 12690367
-0.029119048 0.038437143 1.223 12756160
-0.026789526 0.038437143 1.223 12624579
-0.024540002 0.03856286 1.2270001 12492993
-0.022130478 0.038437143 1.223 12230843
-0.019800952 0.038437143 1.223 12099257
-0.017414287 0.038311433 1.2190001 12165300
-0.015030477 0.038154289 1.2140001 12033714
-0.012718096 0.038154289 1.2140001 11638951
-0.010405715 0.038154289 1.2140001 11507365
-0.0080666672 0.038028572 1.21 11572895
-0.0057619051 0.038028572 1.21 10980758
-0.0034457145 0.037902862 1.2060001 11571091
-0.0011485715 0.037902862 1.2060001 13610674
0.0011485715 0.037902862 1.2060001 12561868
0.0034457145 0.037902862 1.2060001 10456492
-0.092725717 0.040066667 1.202 15846827
-0.09043619 0.040066667 1.202 16240558
-0.088146664 0.040066667 1.202 16503730
-0.08614286 0.040200002 1.2060001 16242113
-0.084123813 0.040333334 1.21 16768457
-0.08181905 0.040333334 1.21 15650777
-0.079777151 0.04046667 1.2140001 15321812
-0.077464767 0.04046667 1.2140001 15059133
-0.075461909 0.040633336 1.2190001 14861754
-0.073140003 0.040633336 1.2190001 14533564
-0.070818104 0.040633336 1.2190001 14533564
-0.068496197 0.040633336 1.2190001 14335681
-0.066174291 0.040633336 1.2190001 13546165
-0.064061902 0.040766668 1.223 12822455
-0.061732382 0.040766668 1.223 12559283
-0.059402857 0.040766668 1.223 12428992
-0.057260003 0.040900003 1.2270001 12363199
-0.054922864 0.040900003 1.2270001 12429246
-0.052585717 0.040900003 1.2270001 12495039
-0.050248574 0.040900003 1.2270001 12429746
-0.047911432 0.040900003 1.2270001 12100781
-0.045574289 0.040900003 1.2270001 12166338
-0.043096192 0.040766668 1.223 12495303
-0.040766668 0.040766668 1.223 12626364
-0.038437143 0.040766668 1.223 12494778
-0.036107622 0.040766668 1.223 12560062
-0.033778097 0.040766668 1.223 12494269
-0.031448569 0.040766668 1.223 12690365
-0.029119048 0.040766668 1.223 12690365
-0.026789526 0.040766668 1.223 12559038
-0.024540002 0.040900003 1.2270001 12427452
-0.022130478 0.040766668 1.223 12362168
-0.019800952 0.040766668 1.223 12230582
-0.017414287 0.040633336 1.2190001 12099250
-0.015030477 0.04046667 1.2140001 11967664
-0.012718096 0.04046667 1.2140001 11835817
-0.010405715 0.04046667 1.2140001 11704231
-0.0080666672 0.040333334 1.21 11045288
-0.0057619051 0.040333334 1.21 10321565
-0.0034457145 0.040200002 1.2060001 11043464
-0.0011485715 0.040200002 1.2060001 14135735
0.0011485715 0.040200002 1.2060001 13941445
0.0034342855 0.040066667 1.202 12099241
0.0057238098 0.040066667 1.202 8681087
-0.092725717 0.042356189 1.202 16108466
-0.09043619 0.042356189 1.202 16108979
-0.088146664 0.042356189 1.202 16569530
-0.08614286 0.042497143 1.2060001 16373958
-0.084123813 0.042638097 1.21 16373958
-0.08181905 0.042638097 1.21 15255495
-0.079777151 0.042779051 1.2140001 14992323
-0.077464767 0.042779051 1.2140001 14926782
-0.075461909 0.042955242 1.2190001 14663610
-0.073140003 0.042955242 1.2190001 14335419
-0.070818104 0.042955242 1.2190001 14006454
-0.068496197 0.042955242 1.2190001 13612469
-0.066391431 0.043096192 1.223 12691367
-0.064061902 0.043096192 1.223 12427695
-0.061732382 0.043096192 1.223 12296109
-0.059402857 0.043096192 1.223 12165820
-0.057260003 0.04323715 1.2270001 12231613
-0.054922864 0.04323715 1.2270001 12231356
-0.052585717 0.04323715 1.2270001 12757700
-0.050248574 0.04323715 1.2270001 12496318
-0.047911432 0.04323715 1.2270001 12167353
-0.045574289 0.04323715 1.2270001 12231613
-0.043096192 0.043096192 1.223 12494785
-0.040766668 0.043096192 1.223 12363199
-0.038437143 0.043096192 1.223 12494785
-0.036107622 0.043096192 1.223 12559556
-0.033778097 0.043096192 1.223 12493763
-0.031448569 0.043096192 1.223 12625085
-0.029119048 0.043096192 1.223 12690878
-0.026789526 0.043096192 1.223 12493758
-0.024540002 0.04323715 1.2270001 12362172
-0.022130478 0.043096192 1.223 12362172
-0.019800952 0.043096192 1.223 12230586
-0.017414287 0.042955242 1.2190001 11967153
-0.015030477 0.042779051 1.2140001 11901360
-0.012718096 0.042779051 1.2140001 11770024
-0.010371429 0.042638097 1.21 11243680
-0.0080666672 0.042638097 1.21 10453894
-0.0057428577 0.042497143 1.2060001 10190722
-0.0034342855 0.042356189 1.202 11174023
-0.0011447619 0.042356189 1.202 15253189
0.0011447619 0.042356189 1.202 14862029
0.00342 0.042180002 1.197 10914449
0.0057000001 0.042180002 1.197 9925244
-0.092725717 0.044645716 1.202 16634794
-0.09043619 0.044645716 1.202 16240304
-0.088146664 0.044645716 1.202 16108718
-0.08614286 0.044794288 1.2060001 16042416
-0.084123813 0.04494286 1.21 15910830
-0.08181905 0.04494286 1.21 15188662
-0.079514287 0.04494286 1.21 15057076
-0.077464767 0.045091432 1.2140001 14992829
-0.075152382 0.045091432 1.2140001 14598071
-0.073140003 0.045277145 1.2190001 14335165
-0.070818104 0.045277145 1.2190001 13611442
-0.068496197 0.045277145 1.2190001 12953514
-0.066391431 0.045425717 1.223 12624549
-0.064061902 0.045425717 1.223 12952758
-0.061732382 0.045425717 1.223 13018551
-0.059402857 0.045425717 1.223 13152181
-0.057260003 0.045574289 1.2270001 13283767
-0.054922864 0.045574289 1.2270001 13152190
-0.052585717 0.045574289 1.2270001 13217983
-0.050248574 0.045574289 1.2270001 13021129
-0.047911432 0.045574289 1.2270001 12823750
-0.045574289 0.045574289 1.2270001 12692670
-0.04323715 0.045574289 1.2270001 12758463
-0.040900003 0.045574289 1.2270001 12691396
-0.038437143 0.045425717 1.223 12757189
-0.036107622 0.045425717 1.223 12756426
-0.033778097 0.045425717 1.223 12295875
-0.031448569 0.045425717 1.223 12427195
-0.029119048 0.045425717 1.223 12690367
-0.026789526 0.045425717 1.223 12427193
-0.024460001 0.045425717 1.223 12098228
-0.022130478 0.045425717 1.223 12031926
-0.019736191 0.045277145 1.2190001 11900340
-0.017414287 0.045277145 1.2190001 11899820
-0.015030477 0.045091432 1.2140001 11768234
-0.012718096 0.045091432 1.2140001 11832735
-0.010371429 0.04494286 1.21 11766942
-0.0080400007 0.044794288 1.2060001 13414528
-0.0057238098 0.044645716 1.202 14335630
-0.0034342855 0.044645716 1.202 14664132
-0.0011400001 0.044460002 1.197 15651027
0.0011400001 0.044460002 1.197 14270866
0.0034085717 0.04431143 1.1930001 9073219
0.0056809527 0.04431143 1.1930001 8217981
-0.092725717 0.046935238 1.202 16436652
-0.090060003 0.046739999 1.197 16173743
-0.087779999 0.046739999 1.197 16239536
-0.08614286 0.047091432 1.2060001 16042424
-0.084123813 0.047247618 1.21 15976631
-0.08181905 0.047247618 1.21 15253428
-0.079514287 0.047247618 1.21 15385014
-0.077464767 0.047403816 1.2140001 15123913
-0.075152382 0.047403816 1.2140001 14663362
-0.073140003 0.047599051 1.2190001 14203831
-0.070818104 0.047599051 1.2190001 12756385
-0.068496197 0.047599051 1.2190001 12821158
-0.066391431 0.047755238 1.223 12952744
-0.064061902 0.047755238 1.223 13477814
-0.061732382 0.047755238 1.223 13675193
-0.059402857 0.047755238 1.223 13873090
-0.057260003 0.047911432 1.2270001 13807297
-0.054922864 0.047911432 1.2270001 13216196
-0.052585717 0.047911432 1.2270001 13150403
-0.050248574 0.047911432 1.2270001 12823484
-0.047911432 0.047911432 1.2270001 12757691
-0.045574289 0.047911432 1.2270001 12757698
-0.04323715 0.047911432 1.2270001 12560319
-0.040900003 0.047911432 1.2270001 12165302
-0.038437143 0.047755238 1.223 12231095
-0.036107622 0.047755238 1.223 12427195
-0.033778097 0.047755238 1.223 12098230
-0.031448569 0.047755238 1.223 12031922
-0.029119048 0.047755238 1.223 12163508
-0.026789526 0.047755238 1.223 12098219
-0.024460001 0.047755238 1.223 12032426
-0.022130478 0.047755238 1.223 11966117
-0.019736191 0.047599051 1.2190001 11966117
-0.017414287 0.047599051 1.2190001 12031138
-0.015030477 0.047403816 1.2140001 11833759
-0.012718096 0.047403816 1.2140001 12620204
-0.010371429 0.047247618 1.21 13804478
-0.0080400007 0.047091432 1.2060001 14924220
-0.0057238098 0.046935238 1.202 15055806
-0.0034342855 0.046935238 1.202 14795448
-0.0011400001 0.046739999 1.197 14532276
0.0011400001 0.046739999 1.197 11050133
0.0034085717 0.046583813 1.1930001 7826276
0.0056809527 0.046583813 1.1930001 7563892
-0.091722853 0.048692379 1.189 13280574
-0.089458093 0.048692379 1.189 14660743
-0.087779999 0.04902 1.197 15713431
-0.08614286 0.049388576 1.2060001 16108981
-0.08384572 0.049388576 1.2060001 15911602
-0.08181905 0.049552381 1.21 15648699
-0.079514287 0.049552381 1.21 16109250
-0.077464767 0.049716193 1.2140001 15847121
-0.075152382 0.049716193 1.2140001 14991812
-0.073140003 0.049920954 1.2190001 14400438
-0.070818104 0.049920954 1.2190001 12952992
-0.068496197 0.049920954 1.2190001 12426932
-0.066391431 0.050084762 1.223 12492725
-0.064061902 0.050084762 1.223 12491437
-0.061732382 0.050084762 1.223 12557230
-0.059402857 0.050084762 1.223 12491700
-0.057260003 0.050248574 1.2270001 12360114
-0.054922864 0.050248574 1.2270001 12162742
-0.052585717 0.050248574 1.2270001 11965363
-0.050248574 0.050248574 1.2270001 11768736
-0.047911432 0.050248574 1.2270001 11900322
-0.045574289 0.050248574 1.2270001 12031926
-0.04323715 0.050248574 1.2270001 11900340
-0.040900003 0.050248574 1.2270001 12031656
-0.038437143 0.050084762 1.223 12294828
-0.036107622 0.050084762 1.223 12556969
-0.033778097 0.050084762 1.223 12556969
-0.031448569 0.050084762 1.223 13016502
-0.029023811 0.049920954 1.2190001 13213881
-0.026701907 0.049920954 1.2190001 13809325
-0.024380002 0.049920954 1.2190001 14072497
-0.022058096 0.049920954 1.2190001 14401728
-0.019736191 0.049920954 1.2190001 14993865
-0.017342858 0.049716193 1.2140001 15190217
-0.015030477 0.049716193 1.2140001 15321803
-0.012079047 0.047218092 1.153 15583958
-0.0098828571 0.047218092 1.153 15649751
-0.0077133342 0.047381908 1.1570001 14199990
-0.0055095241 0.047381908 1.1570001 11765649
-0.0033057143 0.047381908 1.1570001 10052192
-0.0011019048 0.047381908 1.1570001 10052192
0.0011057142 0.047545712 1.161 9071961
-0.091105722 0.05061429 1.1810001 9272903
-0.088856198 0.05061429 1.1810001 10781536
-0.087486669 0.051128577 1.1930001 14005393
-0.08614286 0.051685717 1.2060001 14466733
-0.08384572 0.051685717 1.2060001 14795698
-0.08181905 0.051857144 1.21 15319734
-0.079514287 0.051857144 1.21 15977664
-0.077464767 0.052028574 1.2140001 16242133
-0.075152382 0.052028574 1.2140001 15386824
-0.073140003 0.05224286 1.2190001 14860737
-0.070818104 0.05224286 1.2190001 13479084
-0.068720959 0.052414287 1.223 12493747
-0.066608571 0.052585717 1.2270001 12427954
-0.064271435 0.052585717 1.2270001 11835569
-0.061934292 0.052585717 1.2270001 12098741
-0.059597149 0.052585717 1.2270001 11900340
-0.057260003 0.052585717 1.2270001 12229305
-0.054922864 0.052585717 1.2270001 12294330
-0.052585717 0.052585717 1.2270001 12360123
-0.050248574 0.052585717 1.2270001 12359349
-0.047911432 0.052585717 1.2270001 12556728
-0.045574289 0.052585717 1.2270001 12491457
-0.04323715 0.052585717 1.2270001 12557250
-0.040900003 0.052585717 1.2270001 12557500
-0.038437143 0.052414287 1.223 12952258
-0.036107622 0.052414287 1.223 13542851
-0.033778097 0.052414287 1.223 13871816
-0.031345718 0.05224286 1.2190001 14792650
-0.029023811 0.05224286 1.2190001 14924236
-0.026701907 0.05224286 1.2190001 14795214
-0.024380002 0.05224286 1.2190001 14729421
-0.021967622 0.052028574 1.2140001 15387085
-0.018667618 0.049414285 1.153 15518671
-0.016414287 0.049242858 1.149 15648972
-0.014225715 0.049242858 1.149 15254214
-0.012079047 0.049414285 1.153 15121092
-0.0098828571 0.049414285 1.153 14528955
-0.0076866667 0.049414285 1.153 11306879
-0.0055095241 0.049585715 1.1570001 9069917
-0.0033057143 0.049585715 1.1570001 8142341
-0.0011057142 0.049757142 1.161 10905647
0.0011057142 0.049757142 1.161 9401927
0.0033285718 0.049928572 1.1650001 8546618
-0.090488575 0.052505717 1.1730001 3745024
-0.087953337 0.052326668 1.169 5375744
-0.085726663 0.052326668 1.169 6231046
-0.08321429 0.052147623 1.1650001 7476305
-0.080717139 0.051968571 1.161 12147608
-0.07850571 0.051968571 1.161 11499365
-0.079514287 0.054161906 1.21 12288881
-0.07331714 0.051431429 1.149 12817056
-0.071128577 0.051431429 1.149 14001330
-0.073140003 0.054564763 1.2190001 14203822
-0.070818104 0.054564763 1.2190001 14269615
-0.068720959 0.054743811 1.223 13876672
-0.066608571 0.054922864 1.2270001 14337223
-0.064271435 0.054922864 1.2270001 14337482
-0.061934292 0.054922864 1.2270001 14863826
-0.059597149 0.054922864 1.2270001 14798537
-0.057260003 0.054922864 1.2270001 14995916
-0.054922864 0.054922864 1.2270001 14799312
-0.052800007 0.055146672 1.2320001 14865105
-0.050248574 0.054922864 1.2270001 14995923
-0.047911432 0.054922864 1.2270001 15127509
-0.045574289 0.054922864 1.2270001 15193302
-0.04323715 0.054922864 1.2270001 15390681
-0.040900003 0.054922864 1.2270001 14863830
-0.038437143 0.054743811 1.223 14798037
-0.036107622 0.054743811 1.223 14268382
-0.033778097 0.054743811 1.223 14136796
-0.031345718 0.054564763 1.2190001 14333625
-0.029023811 0.054564763 1.2190001 13609902
-0.025080955 0.051252387 1.1450001 12951218
-0.022900002 0.051252387 1.1450001 11635358
-0.02079143 0.051431429 1.149 9387428
-0.018602857 0.051431429 1.149 8334740
-0.016414287 0.051431429 1.149 8261685
-0.014225715 0.051431429 1.149 7340583
-0.012079047 0.051610474 1.153 7604736
-0.0098828571 0.051610474 1.153 7736320
-0.0076866667 0.051610474 1.153 8461312
-0.0055095241 0.051789526 1.1570001 9119233
-0.0033057143 0.051789526 1.1570001 9784370
-0.0011057142 0.051968571 1.161 15047810
0.0011095239 0.052147623 1.1650001 14598266
0.0033285718 0.052147623 1.1650001 14400887
-0.090180002 0.054553334 1.169 4532794
-0.087652385 0.054366671 1.1650001 4523264
-0.085433342 0.054366671 1.1650001 4654848
-0.08321429 0.054366671 1.1650001 4982528
-0.080717139 0.05418 1.161 5706244
-0.07796476 0.053806666 1.153 8462350
-0.075505719 0.053620003 1.149 10567726
-0.073061906 0.053433336 1.1450001 10776176
-0.070633337 0.053246666 1.141 11499899
-0.068279997 0.053106666 1.138 11111310
-0.066112377 0.053106666 1.138 11571861
-0.064113334 0.053246666 1.141 11835808
-0.061940003 0.053246666 1.141 12098980
-0.064271435 0.057260003 1.2270001 12361909
-0.057441905 0.053106666 1.138 12756667
-0.055274285 0.053106666 1.138 12955327
-0.053106666 0.053106666 1.138 13152706
-0.051073335 0.053246666 1.141 13285573
-0.048900001 0.053246666 1.141 13088194
-0.046726666 0.053246666 1.141 13086663
-0.04443619 0.053106666 1.138 12955077
-0.042268571 0.053106666 1.138 12954566
-0.040100951 0.053106666 1.138 13020359
-0.037800003 0.052920002 1.1340001 12954818
-0.035640001 0.052920002 1.1340001 12625853
-0.033598095 0.053106666 1.138 12427704
-0.031430475 0.053106666 1.138 11901360
-0.029262858 0.053106666 1.138 11767707
-0.027095238 0.053106666 1.138 11043984
-0.025080955 0.053433336 1.1450001 8937327
-0.022900002 0.053433336 1.1450001 4529196
-0.02079143 0.053620003 1.149 7145984
-0.018602857 0.053620003 1.149 7145984
-0.016471429 0.053806666 1.153 7014912
-0.014275238 0.053806666 1.153 7146496
-0.012079047 0.053806666 1.153 7932416
-0.0098828571 0.053806666 1.153 8129792
-0.0077133342 0.053993337 1.1570001 8851200
-0.0055095241 0.053993337 1.1570001 10364430
-0.0033171428 0.05418 1.161 10440238
-0.0011057142 0.05418 1.161 16295815
0.0011057142 0.05418 1.161 15581593
0.0033285718 0.054366671 1.1650001 15384214
0.0055476194 0.054366671 1.1650001 15515268
-0.089871436 0.056585718 1.1650001 6310727
-0.087351426 0.056391429 1.161 4982279
-0.085140005 0.056391429 1.161 5771795
-0.082928576 0.056391429 1.161 6293760
-0.080439053 0.056197144 1.1570001 6227968
-0.07796476 0.056002859 1.153 6162432
-0.075505719 0.055808574 1.149 6228224
-0.073061906 0.055614289 1.1450001 5900288
-0.070633337 0.05542 1.141 5702912
-0.068279997 0.055274285 1.138 4982528
-0.066112377 0.055274285 1.138 4916736
-0.064113334 0.05542 1.141 4785920
-0.061940003 0.05542 1.141 4851712
-0.059766669 0.05542 1.141 4982528
-0.057441905 0.055274285 1.138 5048320
-0.055274285 0.055274285 1.138 4916992
-0.053106666 0.055274285 1.138 4916992
-0.051073335 0.05542 1.141 5113600
-0.048771426 0.055274285 1.138 5245184
-0.04660381 0.055274285 1.138 5375754
-0.04443619 0.055274285 1.138 5178375
-0.042268571 0.055274285 1.138 4851200
-0.040100951 0.055274285 1.138 4916992
-0.037800003 0.055080004 1.1340001 4916992
-0.035640001 0.055080004 1.1340001 4982784
-0.033598095 0.055274285 1.138 5375744
-0.031430475 0.055274285 1.138 5441536
-0.029262858 0.055274285 1.138 5900288
-0.027095238 0.055274285 1.138 6031872
-0.025080955 0.055614289 1.1450001 6490368
-0.022980001 0.055808574 1.149 6556160
-0.02079143 0.055808574 1.149 7408128
-0.018602857 0.055808574 1.149 7605504
-0.016414287 0.055808574 1.149 8458752
-0.014275238 0.056002859 1.153 10103568
-0.012079047 0.056002859 1.153 9580311
-0.0098828571 0.056002859 1.153 8856588
-0.0077133342 0.056197144 1.1570001 9313056
-0.0055095241 0.056197144 1.1570001 11155260
-0.0033171428 0.056391429 1.161 10902072
-0.0011057142 0.056391429 1.161 16691856
0.0011057142 0.056391429 1.161 15515791
0.0033285718 0.056585718 1.1650001 14923654
-0.089871436 0.058804765 1.1650001 6508378
-0.087351426 0.058602858 1.161 6949641
-0.085140005 0.058602858 1.161 7212813
-0.082928576 0.058602858 1.161 7019015
-0.080439053 0.058400955 1.1570001 6624257
-0.078235239 0.058400955 1.1570001 6621952
-0.075505719 0.057997145 1.149 6358784
-0.073061906 0.057795241 1.1450001 6162432
-0.070633337 0.057593334 1.141 6228224
-0.068460003 0.057593334 1.141 6227968
-0.066286668 0.057593334 1.141 6293760
-0.064113334 0.057593334 1.141 6359040
-0.061940003 0.057593334 1.141 6424832
-0.059766669 0.057593334 1.141 6293760
-0.057593334 0.057593334 1.141 6227968
-0.055274285 0.057441905 1.138 6293760
-0.053106666 0.057441905 1.138 6359552
-0.051073335 0.057593334 1.141 6293760
-0.048771426 0.057441905 1.138 6556928
-0.04660381 0.057441905 1.138 6948903
-0.04443619 0.057441905 1.138 6619938
-0.042268571 0.057441905 1.138 6555904
-0.040100951 0.057441905 1.138 6490112
-0.037933335 0.057441905 1.138 6490368
-0.035765715 0.057441905 1.138 6621952
-0.033598095 0.057441905 1.138 6686976
-0.031430475 0.057441905 1.138 6686976
-0.029262858 0.057441905 1.138 7080448
-0.027095238 0.057441905 1.138 7212032
-0.025080955 0.057795241 1.1450001 7932424
-0.022980001 0.057997145 1.149 8392975
-0.02079143 0.057997145 1.149 8394247
-0.018602857 0.057997145 1.149 8131075
-0.016414287 0.057997145 1.149 9049093
-0.014275238 0.058199048 1.153 11088676
-0.012079047 0.058199048 1.153 10040853
-0.0098828571 0.058199048 1.153 8922372
-0.0077133342 0.058400955 1.1570001 9115658
-0.0055095241 0.058400955 1.1570001 11155241
-0.0033171428 0.058602858 1.161 11691349
-0.0011057142 0.058602858 1.161 16757667
0.0011057142 0.058602858 1.161 15581070
0.0033171428 0.058602858 1.161 15120519
-0.089871436 0.061023813 1.1650001 11245204
-0.087351426 0.060814284 1.161 7215998
-0.085140005 0.060814284 1.161 6031724
-0.082928576 0.060814284 1.161 7149840
-0.080439053 0.060604762 1.1570001 7215633
-0.078235239 0.060604762 1.1570001 7082752
-0.075768568 0.060395237 1.153 7280128
-0.07331714 0.060185716 1.149 7149850
-0.070880957 0.059976194 1.1450001 7084057
-0.068700008 0.059976194 1.1450001 7214112
-0.066519052 0.059976194 1.1450001 7148319
-0.064338103 0.059976194 1.1450001 7345426
-0.061940003 0.059766669 1.141 7411219
-0.059766669 0.059766669 1.141 7410451
-0.057593334 0.059766669 1.141 7410451
-0.055274285 0.059609525 1.138 7475731
-0.053106666 0.059609525 1.138 7409938
-0.051073335 0.059766669 1.141 7475731
-0.048771426 0.059609525 1.138 9252142
-0.04660381 0.059609525 1.138 8400980
-0.04443619 0.059609525 1.138 7808843
-0.042268571 0.059609525 1.138 8069939
-0.040100951 0.059609525 1.138 7740974
-0.037933335 0.059609525 1.138 7871779
-0.035765715 0.059609525 1.138 7674400
-0.033598095 0.059609525 1.138 7936032
-0.031513333 0.059766669 1.141 7804446
-0.029340001 0.059766669 1.141 8131360
-0.027166668 0.059766669 1.141 7999774
-0.025080955 0.059976194 1.1450001 8195872
-0.022980001 0.060185716 1.149 8524837
-0.02079143 0.060185716 1.149 8591381
-0.018602857 0.060185716 1.149 8262416
-0.016414287 0.060185716 1.149 9114904
-0.014275238 0.060395237 1.153 11878210
-0.012079047 0.060395237 1.153 10237973
-0.0098828571 0.060395237 1.153 9382664
-0.0077133342 0.060604762 1.1570001 9709078
-0.0055095241 0.060604762 1.1570001 12735556
-0.0033171428 0.060814284 1.161 12351599
-0.0011057142 0.060814284 1.161 16496558
0.0011057142 0.060814284 1.161 15581322
0.0033171428 0.060814284 1.161 15778701
-0.089871436 0.06324286 1.1650001 11705496
-0.087652385 0.06324286 1.1650001 10380653
-0.085140005 0.063025713 1.161 5577764
-0.082928576 0.063025713 1.161 7282446
-0.080439053 0.062808573 1.1570001 7282446
-0.078235239 0.062808573 1.1570001 7149063
-0.075768568 0.062591426 1.153 7149063
-0.07331714 0.06237429 1.149 7214362
-0.070880957 0.06215715 1.1450001 7280155
-0.068700008 0.06215715 1.1450001 7344674
-0.066519052 0.06215715 1.1450001 7410467
-0.064338103 0.06215715 1.1450001 7477527
-0.061940003 0.061940003 1.141 7411734
-0.059766669 0.061940003 1.141 7542799
-0.057593334 0.061940003 1.141 7477006
-0.05542 0.061940003 1.141 7803667
-0.053246666 0.061940003 1.141 7803667
-0.051073335 0.061940003 1.141 7672325
-0.048900001 0.061940003 1.141 9711908
-0.046726666 0.061940003 1.141 9258592
-0.044553336 0.061940003 1.141 8337490
-0.042380001 0.061940003 1.141 8268088
-0.040206671 0.061940003 1.141 7544365
-0.037933335 0.061777141 1.138 8132907
-0.035765715 0.061777141 1.138 8132907
-0.033598095 0.061777141 1.138 8067109
-0.031513333 0.061940003 1.141 8067109
-0.029340001 0.061940003 1.141 8263461
-0.027166668 0.061940003 1.141 8131875
-0.025080955 0.06215715 1.1450001 8261915
-0.022980001 0.06237429 1.149 8525087
-0.02079143 0.06237429 1.149 8591894
-0.018602857 0.06237429 1.149 8328722
-0.016414287 0.06237429 1.149 9180165
-0.014275238 0.062591426 1.153 11219748
-0.012079047 0.062591426 1.153 10237716
-0.0098828571 0.062591426 1.153 9250821
-0.0077133342 0.062808573 1.1570001 9904656
-0.0055095241 0.062808573 1.1570001 12996927
-0.0033171428 0.063025713 1.161 12878694
-0.0011057142 0.063025713 1.161 16497309
0.0011057142 0.063025713 1.161 15581322
0.0033171428 0.063025713 1.161 15581322
-0.089871436 0.065461911 1.1650001 12363678
-0.087652385 0.065461911 1.1650001 10910851
-0.085140005 0.065237142 1.161 5384239
-0.082928576 0.065237142 1.161 6818825
-0.080717139 0.065237142 1.161 7739927
-0.078235239 0.06501238 1.1570001 7279905
-0.075768568 0.064787619 1.153 7345698
-0.073572382 0.064787619 1.153 7280155
-0.071128577 0.064562857 1.149 7280155
-0.068700008 0.064338103 1.1450001 7410971
-0.066519052 0.064338103 1.1450001 7410971
-0.064338103 0.064338103 1.1450001 7477006
-0.06215715 0.064338103 1.1450001 7542799
-0.059976194 0.064338103 1.1450001 7542279
-0.057593334 0.064113334 1.141 7476486
-0.05542 0.064113334 1.141 7803417
-0.053246666 0.064113334 1.141 8263968
-0.051073335 0.064113334 1.141 8001288
-0.048900001 0.064113334 1.141 9514527
-0.046726666 0.064113334 1.141 9124185
-0.044553336 0.064113334 1.141 8861013
-0.042380001 0.064113334 1.141 8463918
-0.040206671 0.064113334 1.141 8069160
-0.038033333 0.064113334 1.141 8132907
-0.035859998 0.064113334 1.141 8132907
-0.033686668 0.064113334 1.141 8197668
-0.031513333 0.064113334 1.141 8197668
-0.029340001 0.064113334 1.141 8262698
-0.027166668 0.064113334 1.141 8328491
-0.025080955 0.064338103 1.1450001 8459296
-0.022980001 0.064562857 1.149 8459296
-0.02079143 0.064562857 1.149 8787222
-0.018667618 0.064787619 1.153 9247773
-0.016471429 0.064787619 1.153 9115658
-0.014275238 0.064787619 1.153 9576209
-0.012079047 0.064787619 1.153 9970706
-0.0099171428 0.06501238 1.1570001 9575948
-0.0077133342 0.06501238 1.1570001 9772802
-0.0055095241 0.06501238 1.1570001 13194038
-0.0033171428 0.065237142 1.161 12880214
-0.0011057142 0.065237142 1.161 16301450
0.0011057142 0.065237142 1.161 15449734
-0.089871436 0.067680955 1.1650001 13483190
-0.087652385 0.067680955 1.1650001 11243410
-0.085140005 0.067448571 1.161 4203559
-0.082928576 0.067448571 1.161 6424832
-0.080717139 0.067448571 1.161 7609101
-0.07850571 0.067448571 1.161 7477023
-0.076031432 0.067216195 1.1570001 7279644
-0.073572382 0.066983812 1.153 7411219
-0.071128577 0.066751435 1.149 7411219
-0.068700008 0.066519052 1.1450001 7542055
-0.066519052 0.066519052 1.1450001 7410469
-0.064338103 0.066519052 1.1450001 7410708
-0.06215715 0.066519052 1.1450001 7542294
-0.059976194 0.066519052 1.1450001 7607566
-0.057795241 0.066519052 1.1450001 7410187
-0.05542 0.066286668 1.141 7803667
-0.053246666 0.066286668 1.141 8198425
-0.051252387 0.066519052 1.1450001 8198165
-0.049071435 0.066519052 1.1450001 9514025
-0.046890479 0.066519052 1.1450001 8925514
-0.044709526 0.066519052 1.1450001 8662342
-0.042528573 0.066519052 1.1450001 8198700
-0.040347625 0.066519052 1.1450001 8198700
-0.038033333 0.066286668 1.141 8329011
-0.035859998 0.066286668 1.141 8197425
-0.033686668 0.066286668 1.141 8263461
-0.031513333 0.066286668 1.141 8197668
-0.029340001 0.066286668 1.141 8263198
-0.027261905 0.066519052 1.1450001 8263198
-0.025168573 0.066751435 1.149 8459546
-0.022980001 0.066751435 1.149 8393753
-0.02079143 0.066751435 1.149 8785939
-0.018667618 0.066983812 1.153 8917525
-0.016471429 0.066983812 1.153 9245204
-0.014275238 0.066983812 1.153 10034720
-0.012079047 0.066983812 1.153 9905424
-0.0099171428 0.067216195 1.1570001 9247494
-0.0077399998 0.067448571 1.161 9708800
-0.0055285715 0.067448571 1.161 14906446
-0.0033171428 0.067448571 1.161 13144953
-0.0011057142 0.067448571 1.161 15710880
0.0011057142 0.067448571 1.161 15318150
-0.089871436 0.069900006 1.1650001 14666440
-0.087652385 0.069900006 1.1650001 13414530
-0.085433342 0.069900006 1.1650001 4269312
-0.082928576 0.069660001 1.161 6359046
-0.080717139 0.069660001 1.161 8069664
-0.07850571 0.069660001 1.161 7215139
-0.076031432 0.069420002 1.1570001 7083553
-0.073572382 0.069179997 1.153 7411734
-0.071128577 0.068939999 1.149 7411734
-0.068939999 0.068939999 1.149 7607848
-0.066751435 0.068939999 1.149 7344676
-0.064338103 0.068700008 1.1450001 7541526
-0.06215715 0.068700008 1.1450001 7607319
-0.059976194 0.068700008 1.1450001 7541783
-0.057795241 0.068700008 1.1450001 7410197
-0.055614289 0.068700008 1.1450001 7868690
-0.053433336 0.068700008 1.1450001 8000276
-0.051252387 0.068700008 1.1450001 8065558
-0.049071435 0.068700008 1.1450001 8262937
-0.046890479 0.068700008 1.1450001 8462374
-0.044709526 0.068700008 1.1450001 8001823
-0.042528573 0.068700008 1.1450001 8329261
-0.040347625 0.068700008 1.1450001 9184570
-0.038166672 0.068700008 1.1450001 8857652
-0.035859998 0.068460003 1.141 7870757
-0.033686668 0.068460003 1.141 8263198
-0.031513333 0.068460003 1.141 8263198
-0.029340001 0.068460003 1.141 8262668
-0.027261905 0.068700008 1.1450001 8262668
-0.025168573 0.068939999 1.149 8590354
-0.022980001 0.068939999 1.149 8458768
-0.02079143 0.068939999 1.149 8981781
-0.018667618 0.069179997 1.153 9047574
-0.016471429 0.069179997 1.153 9310489
-0.014275238 0.069179997 1.153 10494763
-0.012120954 0.069420002 1.1570001 10037534
-0.0099514285 0.069660001 1.161 9050639
-0.0077399998 0.069660001 1.161 9776386
-0.0055285715 0.069660001 1.161 15631963
-0.0033171428 0.069660001 1.161 13802895
-0.0011057142 0.069660001 1.161 15645099
-0.089871436 0.07211905 1.1650001 15653587
-0.087652385 0.07211905 1.1650001 13677226
-0.085433342 0.07211905 1.1650001 5058343
-0.082928576 0.07187143 1.161 6490368
-0.080717139 0.07187143 1.161 8200986
-0.07850571 0.07187143 1.161 6886426
-0.076031432 0.07162381 1.1570001 6820633
-0.073827624 0.07162381 1.1570001 7345426
-0.07137619 0.07137619 1.153 7477012
-0.068939999 0.071128577 1.149 7542046
-0.066751435 0.071128577 1.149 7410460
-0.064338103 0.070880957 1.1450001 7541526
-0.06215715 0.070880957 1.1450001 7607319
-0.059976194 0.070880957 1.1450001 7737365
-0.057795241 0.070880957 1.1450001 7671572
-0.055614289 0.070880957 1.1450001 7934998
-0.053433336 0.070880957 1.1450001 8132377
-0.051252387 0.070880957 1.1450001 8066063
-0.049071435 0.070880957 1.1450001 8460821
-0.046890479 0.070880957 1.1450001 8396331
-0.044709526 0.070880957 1.1450001 8330538
-0.042528573 0.070880957 1.1450001 8526640
-0.040347625 0.070880957 1.1450001 8855605
-0.038166672 0.070880957 1.1450001 8659253
-0.035985716 0.070880957 1.1450001 8001323
-0.033804763 0.070880957 1.1450001 8262948
-0.031623811 0.070880957 1.1450001 8197155
-0.02944286 0.070880957 1.1450001 8393743
-0.027261905 0.070880957 1.1450001 8525329
-0.025168573 0.071128577 1.149 8787222
-0.022980001 0.071128577 1.149 8655636
-0.020863809 0.07137619 1.153 9113618
-0.018667618 0.07137619 1.153 9047825
-0.016471429 0.07137619 1.153 9376522
-0.014324762 0.07162381 1.1570001 10955554
-0.012120954 0.07162381 1.1570001 10170140
-0.0099514285 0.07187143 1.161 8656901
-0.0077399998 0.07187143 1.161 9843206
-0.0055285715 0.07187143 1.161 15764576
-0.0033171428 0.07187143 1.161 14000521
-0.0011057142 0.07187143 1.161 15579553
-0.090180002 0.074593335 1.169 15915980
-0.087953337 0.074593335 1.169 14466744
-0.085433342 0.074338101 1.1650001 6308412
-0.08321429 0.074338101 1.1650001 6687488
-0.080717139 0.074082859 1.161 8332311
-0.07850571 0.074082859 1.161 7344692
-0.076031432 0.073827624 1.1570001 7147313
-0.073827624 0.073827624 1.1570001 7411211
-0.07137619 0.073572382 1.153 7477004
-0.068939999 0.07331714 1.149 7541526
-0.066751435 0.07331714 1.149 7607319
-0.064562857 0.07331714 1.149 7541783
-0.06215715 0.073061906 1.1450001 7475990
-0.059976194 0.073061906 1.1450001 7737624
-0.057795241 0.073061906 1.1450001 7671831
-0.055614289 0.073061906 1.1450001 7802647
-0.053433336 0.073061906 1.1450001 8131612
-0.051252387 0.073061906 1.1450001 8197908
-0.049071435 0.073061906 1.1450001 8658459
-0.046890479 0.073061906 1.1450001 8396331
-0.044865716 0.07331714 1.149 8330538
-0.042528573 0.073061906 1.1450001 8526890
-0.040347625 0.073061906 1.1450001 8526890
-0.038166672 0.073061906 1.1450001 8526890
-0.035985716 0.073061906 1.1450001 8132132
-0.033804763 0.073061906 1.1450001 8394534
-0.031623811 0.073061906 1.1450001 8394534
-0.02944286 0.073061906 1.1450001 8459536
-0.027261905 0.073061906 1.1450001 8525329
-0.025168573 0.07331714 1.149 8852238
-0.022980001 0.07331714 1.149 8918031
-0.020863809 0.073572382 1.153 8982800
-0.018667618 0.073572382 1.153 9245972
-0.016471429 0.073572382 1.153 9640718
-0.014324762 0.073827624 1.1570001 11153957
-0.012120954 0.073827624 1.1570001 10301728
-0.0099514285 0.074082859 1.161 9446419
-0.0077399998 0.074082859 1.161 9909001
-0.0055285715 0.074082859 1.161 16027750
-0.0033171428 0.074082859 1.161 14198402
-0.0011057142 0.074082859 1.161 15448469
-0.090488575 0.077082857 1.1730001 15849410
-0.088254295 0.077082857 1.1730001 14731193
-0.085433342 0.076557145 1.1650001 6901826
-0.08321429 0.076557145 1.1650001 6754315
-0.080995239 0.076557145 1.1650001 7807003
-0.07850571 0.076294288 1.161 7741472
-0.076294288 0.076294288 1.161 7149335
-0.073827624 0.076031432 1.1570001 7608072
-0.07137619 0.075768568 1.153 7673865
-0.068939999 0.075505719 1.149 7607566
-0.066751435 0.075505719 1.149 7475980
-0.064562857 0.075505719 1.149 7607566
-0.06237429 0.075505719 1.149 7475980
-0.059976194 0.075242862 1.1450001 7803160
-0.057795241 0.075242862 1.1450001 7803160
-0.055614289 0.075242862 1.1450001 7934483
-0.053433336 0.075242862 1.1450001 8329241
-0.051431429 0.075505719 1.149 8068628
-0.049242858 0.075505719 1.149 8397593
-0.047054287 0.075505719 1.149 8331301
-0.044865716 0.075505719 1.149 8265508
-0.042677142 0.075505719 1.149 8460836
-0.040488571 0.075505719 1.149 8526629
-0.038166672 0.075242862 1.1450001 8395054
-0.035985716 0.075242862 1.1450001 8066089
-0.033804763 0.075242862 1.1450001 8328741
-0.031623811 0.075242862 1.1450001 8328741
-0.02944286 0.075242862 1.1450001 8459536
-0.027261905 0.075242862 1.1450001 8591122
-0.025168573 0.075505719 1.149 8852238
-0.02306 0.075768568 1.153 8918031
-0.020863809 0.075768568 1.153 9048595
-0.018732382 0.076031432 1.1570001 9180181
-0.016528573 0.076031432 1.1570001 9838872
-0.014374286 0.076294288 1.161 10825767
-0.012162857 0.076294288 1.161 10365727
-0.0099514285 0.076294288 1.161 9576211
-0.0077399998 0.076294288 1.161 9974794
-0.0055285715 0.076294288 1.161 16027750
-0.0033285718 0.076557145 1.1650001 14462078
-0.0011095239 0.076557145 1.1650001 15514766
-0.090488575 0.079317145 1.1730001 15716013
-0.088254295 0.079317145 1.1730001 15124913
-0.085726663 0.079046667 1.169 8019269
-0.08321429 0.078776196 1.1650001 6818864
-0.080995239 0.078776196 1.1650001 6950450
-0.078776196 0.078776196 1.1650001 7280138
-0.076294288 0.07850571 1.161 7280138
-0.073827624 0.078235239 1.1570001 7410693
-0.07162381 0.078235239 1.1570001 7542279
-0.069179997 0.07796476 1.153 7607566
-0.066751435 0.077694289 1.149 7541773
-0.064562857 0.077694289 1.149 7803407
-0.06237429 0.077694289 1.149 7737614
-0.060185716 0.077694289 1.149 7802640
-0.057997145 0.077694289 1.149 7868433
-0.055808574 0.077694289 1.149 7998745
-0.053620003 0.077694289 1.149 8327710
-0.051431429 0.077694289 1.149 8197659
-0.049242858 0.077694289 1.149 8658210
-0.047054287 0.077694289 1.149 8331301
-0.044865716 0.077694289 1.149 8199715
-0.042677142 0.077694289 1.149 8394786
-0.040488571 0.077694289 1.149 8657958
-0.038166672 0.077423811 1.1450001 8526890
-0.035985716 0.077423811 1.1450001 8132132
-0.033804763 0.077423811 1.1450001 8262178
-0.031623811 0.077423811 1.1450001 8196385
-0.02944286 0.077423811 1.1450001 8524302
-0.027261905 0.077423811 1.1450001 8721681
-0.025168573 0.077694289 1.149 8851468
-0.02306 0.07796476 1.153 8983054
-0.020936191 0.078235239 1.1570001 9179411
-0.018797142 0.07850571 1.161 9047825
-0.016585715 0.07850571 1.161 9769749
-0.014374286 0.07850571 1.161 10888230
-0.012204763 0.078776196 1.1650001 10429469
-0.0099857152 0.078776196 1.1650001 10166297
-0.0077666673 0.078776196 1.1650001 9975044
-0.0055476194 0.078776196 1.1650001 16028000
-0.0033285718 0.078776196 1.1650001 14989424
-0.0011095239 0.078776196 1.1650001 15844733
-0.090488575 0.081551433 1.1730001 15716013
-0.088254295 0.081551433 1.1730001 15322805
-0.086020008 0.081551433 1.1730001 9335642
-0.083500005 0.08127334 1.169 7350046
-0.080995239 0.080995239 1.1650001 6297358
-0.078776196 0.080995239 1.1650001 7213830
-0.076294288 0.080717139 1.161 7345416
-0.074082859 0.080717139 1.161 7411461
-0.07162381 0.080439053 1.1570001 7477254
-0.069179997 0.080160953 1.153 7803657
-0.066983812 0.080160953 1.153 7803657
-0.064562857 0.07988286 1.149 7869195
-0.06237429 0.07988286 1.149 7737609
-0.060185716 0.07988286 1.149 7933456
-0.057997145 0.07988286 1.149 7999249
-0.055808574 0.07988286 1.149 8064788
-0.053620003 0.07988286 1.149 8393753
-0.051431429 0.07988286 1.149 8197916
-0.049242858 0.07988286 1.149 8855846
-0.047054287 0.07988286 1.149 8594480
-0.044865716 0.07988286 1.149 8397101
-0.042677142 0.07988286 1.149 8461340
-0.040488571 0.07988286 1.149 8527133
-0.0383 0.07988286 1.149 8658215
-0.036111429 0.07988286 1.149 8395043
-0.033922859 0.07988286 1.149 8525091
-0.031734288 0.07988286 1.149 8393505
-0.02944286 0.079604767 1.1450001 8721683
-0.027261905 0.079604767 1.1450001 8590097
-0.025256189 0.080160953 1.153 8785675
-0.02306 0.080160953 1.153 9180433
-0.020936191 0.080439053 1.1570001 9311499
-0.018797142 0.080717139 1.161 9048327
-0.016585715 0.080717139 1.161 9900036
-0.014423811 0.080995239 1.1650001 10821138
-0.012204763 0.080995239 1.1650001 10295808
-0.0099857152 0.080995239 1.1650001 10690565
-0.0077666673 0.080995239 1.1650001 10237716
-0.0055476194 0.080995239 1.1650001 16159086
-0.0033285718 0.080995239 1.1650001 15054976
-0.0011095239 0.080995239 1.1650001 15449734
-0.090488575 0.08378572 1.1730001 15650220
-0.088254295 0.08378572 1.1730001 15322035
-0.086020008 0.08378572 1.1730001 10650732
-0.083500005 0.083500005 1.169 7546430
-0.08127334 0.083500005 1.169 6098984
-0.078776196 0.08321429 1.1650001 7214093
-0.076557145 0.08321429 1.1650001 7674644
-0.074082859 0.082928576 1.161 7542799
-0.07187143 0.082928576 1.161 7608592
-0.069420002 0.082642861 1.1570001 7803667
-0.066983812 0.082357138 1.153 7803667
-0.064787619 0.082357138 1.153 7934988
-0.06237429 0.082071431 1.149 7869195
-0.060185716 0.082071431 1.149 7998995
-0.057997145 0.082071431 1.149 7998995
-0.055808574 0.082071431 1.149 8129820
-0.053620003 0.082071431 1.149 8261406
-0.051431429 0.082071431 1.149 8130342
-0.049242858 0.082071431 1.149 9117237
-0.047054287 0.082071431 1.149 8725559
-0.044865716 0.082071431 1.149 8330801
-0.042677142 0.082071431 1.149 8526612
-0.040488571 0.082071431 1.149 8723991
-0.0383 0.082071431 1.149 8657697
-0.036111429 0.082071431 1.149 8460318
-0.033922859 0.082071431 1.149 8590371
-0.031734288 0.082071431 1.149 8458785
-0.029545715 0.082071431 1.149 8851735
-0.027357142 0.082071431 1.149 8851735
-0.025256189 0.082357138 1.153 8982553
-0.02314 0.082642861 1.1570001 9048346
-0.021008572 0.082928576 1.161 9378562
-0.018797142 0.082928576 1.161 9049600
-0.016642857 0.08321429 1.1650001 10033680
-0.014423811 0.08321429 1.1650001 11678505
-0.012204763 0.08321429 1.1650001 10495748
-0.0099857152 0.08321429 1.1650001 10166784
-0.0077666673 0.08321429 1.1650001 10435363
-0.0055476194 0.08321429 1.1650001 16093561
-0.0033285718 0.08321429 1.1650001 14923642
-0.0011095239 0.08321429 1.1650001 15318400
-0.090797149 0.086313337 1.177 15649702
-0.088555239 0.086313337 1.177 15190449
-0.086020008 0.086020008 1.1730001 10848111
-0.083500005 0.085726663 1.169 8996924
-0.08127334 0.085726663 1.169 5838860
-0.078776196 0.085433342 1.1650001 7214093
-0.076557145 0.085433342 1.1650001 7345679
-0.074082859 0.085140005 1.161 7410708
-0.07187143 0.085140005 1.161 7476501
-0.069420002 0.084846668 1.1570001 7803667
-0.067216195 0.084846668 1.1570001 7737874
-0.064787619 0.084553331 1.153 7934468
-0.06237429 0.084260009 1.149 7934468
-0.060185716 0.084260009 1.149 8064788
-0.057997145 0.084260009 1.149 8130581
-0.055808574 0.084260009 1.149 8065047
-0.053620003 0.084260009 1.149 8065047
-0.051431429 0.084260009 1.149 7998995
-0.049242858 0.084260009 1.149 8788511
-0.047054287 0.084260009 1.149 8593453
-0.044865716 0.084260009 1.149 8461867
-0.042677142 0.084260009 1.149 8658208
-0.040488571 0.084260009 1.149 8658208
-0.0383 0.084260009 1.149 8657697
-0.036111429 0.084260009 1.149 8460318
-0.033922859 0.084260009 1.149 8786469
-0.031734288 0.084260009 1.149 8654883
-0.029545715 0.084260009 1.149 8851478
-0.027357142 0.084260009 1.149 8917271
-0.025256189 0.084553331 1.153 9113348
-0.02314 0.084846668 1.1570001 9310727
-0.021008572 0.085140005 1.161 9311749
-0.018797142 0.085140005 1.161 9245956
-0.016642857 0.085433342 1.1650001 10364187
-0.014423811 0.085433342 1.1650001 11482668
-0.012204763 0.085433342 1.1650001 10563072
-0.0099857152 0.085433342 1.1650001 9970944
-0.0077666673 0.085433342 1.1650001 10566956
-0.0055476194 0.085433342 1.1650001 16290947
-0.0033285718 0.085433342 1.1650001 14923388
-0.0011095239 0.085433342 1.1650001 15383939
-0.090797149 0.088555239 1.177 15583646
-0.088555239 0.088555239 1.177 15190449
-0.086020008 0.088254295 1.1730001 12163971
-0.083500005 0.087953337 1.169 8998248
-0.08127334 0.087953337 1.169 5577012
-0.079046667 0.087953337 1.169 7148051
-0.076557145 0.087652385 1.1650001 7411223
-0.074338101 0.087652385 1.1650001 7541276
-0.07187143 0.087351426 1.161 7541276
-0.069420002 0.087050483 1.1570001 7868433
-0.067216195 0.087050483 1.1570001 7802640
-0.06501238 0.087050483 1.1570001 7868160
-0.062591426 0.086749524 1.153 8065536
-0.060185716 0.086448573 1.149 8130830
-0.057997145 0.086448573 1.149 8130830
-0.055808574 0.086448573 1.149 8131602
-0.053620003 0.086448573 1.149 8131602
-0.051431429 0.086448573 1.149 8196642
-0.049242858 0.086448573 1.149 8591400
-0.047054287 0.086448573 1.149 8592165
-0.044865716 0.086448573 1.149 8723751
-0.042677142 0.086448573 1.149 8790564
-0.040488571 0.086448573 1.149 8658978
-0.0383 0.086448573 1.149 8789532
-0.036111429 0.086448573 1.149 8526360
-0.033922859 0.086448573 1.149 8851485
-0.031734288 0.086448573 1.149 8719899
-0.029545715 0.086448573 1.149 8850962
-0.027357142 0.086448573 1.149 8982548
-0.025256189 0.086749524 1.153 9245440
-0.02314 0.087050483 1.1570001 9311233
-0.021008572 0.087351426 1.161 9376772
-0.018861907 0.087652385 1.1650001 9705737
-0.016642857 0.087652385 1.1650001 10231309
-0.014423811 0.087652385 1.1650001 12007720
-0.012246666 0.087953337 1.169 10626821
-0.0099857152 0.087652385 1.1650001 10034688
-0.0077666673 0.087652385 1.1650001 10633269
-0.0055476194 0.087652385 1.1650001 16423053
-0.0033285718 0.087652385 1.1650001 15252607
-0.0011095239 0.087652385 1.1650001 15581572
-0.091105722 0.091105722 1.1810001 15385760
-0.088555239 0.090797149 1.177 15255729
-0.086313337 0.090797149 1.177 12558216
-0.083500005 0.090180002 1.169 10316641
-0.08127334 0.090180002 1.169 5316373
-0.079046667 0.090180002 1.169 7543056
-0.076557145 0.089871436 1.1650001 7608849
-0.074338101 0.089871436 1.1650001 7673884
-0.07187143 0.089562856 1.161 7608091
-0.069660001 0.089562856 1.161 7933972
-0.067216195 0.08925429 1.1570001 7933972
-0.06501238 0.08925429 1.1570001 7933955
-0.062591426 0.088945709 1.153 8131334
-0.060185716 0.088637143 1.149 8130583
-0.057997145 0.088637143 1.149 8064790
-0.055808574 0.088637143 1.149 7999765
-0.053620003 0.088637143 1.149 8131351
-0.051431429 0.088637143 1.149 8263198
-0.049242858 0.088637143 1.149 8723749
-0.047054287 0.088637143 1.149 8658215
-0.044865716 0.088637143 1.149 8789801
-0.042677142 0.088637143 1.149 8790314
-0.040488571 0.088637143 1.149 8790314
-0.0383 0.088637143 1.149 8919845
-0.036111429 0.088637143 1.149 8722466
-0.033922859 0.088637143 1.149 8983323
-0.031734288 0.088637143 1.149 8851737
-0.029545715 0.088637143 1.149 9048079
-0.027357142 0.088637143 1.149 9113872
-0.025343811 0.08925429 1.1570001 9376772
-0.02314 0.08925429 1.1570001 9376772
-0.021008572 0.089562856 1.161 9508101
-0.018861907 0.089871436 1.1650001 9705480
-0.016642857 0.089871436 1.1650001 10164489
-0.014423811 0.089871436 1.1650001 11611935
-0.012246666 0.090180002 1.169 10493440
-0.01002 0.090180002 1.169 10230272
-0.0077666673 0.089871436 1.1650001 10633519
-0.0055476194 0.089871436 1.1650001 16752525
-0.0033285718 0.089871436 1.1650001 15186826
-0.0011095239 0.089871436 1.1650001 15186826
-0.093355246 0.093355246 1.1810001 15056541
-0.091105722 0.093355246 1.1810001 15385506
-0.088555239 0.093039051 1.177 14992046
-0.086020008 0.092722863 1.1730001 12952463
-0.083500005 0.092406668 1.169 11108210
-0.08127334 0.092406668 1.169 5252633
-0.079046667 0.092406668 1.169 7280129
-0.076557145 0.09209048 1.1650001 7477508
-0.074338101 0.09209048 1.1650001 7673371
-0.07187143 0.091774285 1.161 7607578
-0.069660001 0.091774285 1.161 8064788
-0.067216195 0.091458097 1.1570001 8064788
-0.06501238 0.091458097 1.1570001 8195347
-0.062591426 0.091141902 1.153 8261140
-0.060395237 0.091141902 1.153 8195863
-0.057997145 0.090825714 1.149 8130070
-0.055808574 0.090825714 1.149 8130070
-0.053620003 0.090825714 1.149 8327449
-0.051431429 0.090825714 1.149 8394264
-0.049242858 0.090825714 1.149 8723229
-0.047054287 0.090825714 1.149 8855078
-0.044865716 0.090825714 1.149 8723492
-0.042677142 0.090825714 1.149 8788772
-0.040629521 0.091141902 1.153 8854565
-0.038433332 0.091141902 1.153 8919845
-0.036237143 0.091141902 1.153 8525087
-0.033922859 0.090825714 1.149 8852248
-0.031734288 0.090825714 1.149 8852248
-0.029545715 0.090825714 1.149 8982553
-0.027357142 0.090825714 1.149 8982553
-0.025343811 0.091458097 1.1570001 9310470
-0.023220001 0.091774285 1.161 9507849
-0.021008572 0.091774285 1.161 9507357
-0.018861907 0.09209048 1.1650001 10165287
-0.016642857 0.09209048 1.1650001 10362899
-0.014423811 0.09209048 1.1650001 12139310
-0.012246666 0.092406668 1.169 10757648
-0.01002 0.092406668 1.169 10560269
-0.0077933338 0.092406668 1.169 10700852
-0.0055476194 0.09209048 1.1650001 16754579
