# .PCD v0.7 - Point Cloud Data file format
VERSION 0.7
FIELDS x y z rgba
SIZE 4 4 4 4
TYPE F F F U
COUNT 1 1 1 1
WIDTH 1170
HEIGHT 1
VIEWPOINT 0 0 0 1 0 0 0
POINTS 1170
DATA ascii
-0.082734287 0.034772381 1.2590001 16049115
-0.08065524 0.034910478 1.2640001 15983320
-0.078247622 0.034910478 1.2640001 15917527
-0.075840004 0.034910478 1.2640001 15915985
-0.073432386 0.034910478 1.2640001 15981778
-0.071024768 0.034910478 1.2640001 15257296
-0.068834282 0.035020951 1.268 14730952
-0.066419043 0.035020951 1.268 14336194
-0.06400381 0.035020951 1.268 13283506
-0.06158857 0.035020951 1.268 12889014
-0.059173334 0.035020951 1.268 13217979
-0.056981906 0.035159048 1.273 13217468
-0.054557141 0.035159048 1.273 13480640
-0.052132379 0.035159048 1.273 13481160
-0.049707618 0.035159048 1.273 13810125
-0.047282856 0.035159048 1.273 13744586
-0.044858098 0.035159048 1.273 13547207
-0.042433333 0.035159048 1.273 13481412
-0.040008571 0.035159048 1.273 13547205
-0.037583809 0.035159048 1.273 13481151
-0.035159048 0.035159048 1.273 13481151
-0.032734282 0.035159048 1.273 13152195
-0.030309524 0.035159048 1.273 12954816
-0.027884761 0.035159048 1.273 12888246
-0.025459999 0.035159048 1.273 12954039
-0.023035238 0.035159048 1.273 12822705
-0.020610476 0.035159048 1.273 12756912
-0.018114286 0.035020951 1.268 12558502
-0.015699048 0.035020951 1.268 12558502
-0.013241905 0.034910478 1.2640001 12689829
-0.010834286 0.034910478 1.2640001 12492450
-0.0083666677 0.034661908 1.2550001 13015975
-0.0059761908 0.034661908 1.2550001 14068663
-0.003557143 0.034385715 1.245 15320770
-0.0011819048 0.034275241 1.2410001 15452356
0.001177143 0.034137145 1.2360001 14600120
0.0035200003 0.034026671 1.2320001 13481639
0.0058666673 0.034026671 1.2320001 10327191
-0.088928573 0.036757145 1.245 15583389
-0.086557142 0.036757145 1.245 16372905
-0.084523812 0.03690476 1.25 16376527
-0.082734287 0.037170477 1.2590001 16310734
-0.080336191 0.037170477 1.2590001 16376781
-0.078247622 0.037318096 1.2640001 16442574
-0.075840004 0.037318096 1.2640001 16245204
-0.073432386 0.037318096 1.2640001 16442583
-0.071024768 0.037318096 1.2640001 15389139
-0.068834282 0.037436187 1.268 13810107
-0.066419043 0.037436187 1.268 13810361
-0.06400381 0.037436187 1.268 13481396
-0.06158857 0.037436187 1.268 13415871
-0.059406664 0.037583809 1.273 13679043
-0.056981906 0.037583809 1.273 13350596
-0.054557141 0.037583809 1.273 14008526
-0.052132379 0.037583809 1.273 13350600
-0.049707618 0.037583809 1.273 13547979
-0.047282856 0.037583809 1.273 13481673
-0.044858098 0.037583809 1.273 13350087
-0.042433333 0.037583809 1.273 13217220
-0.040008571 0.037583809 1.273 13085634
-0.037583809 0.037583809 1.273 12954807
-0.035159048 0.037583809 1.273 13283772
-0.032734282 0.037583809 1.273 13151425
-0.030309524 0.037583809 1.273 13085632
-0.027884761 0.037583809 1.273 13939898
-0.025459999 0.037583809 1.273 14203070
-0.023035238 0.037583809 1.273 14467771
-0.020610476 0.037583809 1.273 14599357
-0.018114286 0.037436187 1.268 15060167
-0.015699048 0.037436187 1.268 15454925
-0.01328381 0.037436187 1.268 15718099
-0.010834286 0.037318096 1.2640001 16441822
-0.0083666677 0.037052382 1.2550001 15914715
-0.0059523811 0.03690476 1.25 16046301
-0.0035314288 0.036491431 1.2360001 14068411
-0.0011733334 0.03637334 1.2320001 12028828
0.001164762 0.036107622 1.223 10979694
0.0034828575 0.035989527 1.2190001 10650729
0.0058047622 0.035989527 1.2190001 9931143
-0.088928573 0.039128572 1.245 12293237
-0.086557142 0.039128572 1.245 15451301
-0.084523812 0.039285716 1.25 15716550
-0.082734287 0.039568573 1.2590001 16045515
-0.080336191 0.039568573 1.2590001 16308426
-0.078247622 0.039725717 1.2640001 16440012
-0.075840004 0.039725717 1.2640001 16308948
-0.073432386 0.039725717 1.2640001 16374741
-0.071024768 0.039725717 1.2640001 15388882
-0.068834282 0.039851431 1.268 14138815
-0.066419043 0.039851431 1.268 14205117
-0.06400381 0.039851431 1.268 14336703
-0.06158857 0.039851431 1.268 13679041
-0.059173334 0.039851431 1.268 13547455
-0.056981906 0.040008571 1.273 12627391
-0.054557141 0.040008571 1.273 13153735
-0.052132379 0.040008571 1.273 12625851
-0.049707618 0.040008571 1.273 12954816
-0.047282856 0.040008571 1.273 12888507
-0.044858098 0.040008571 1.273 13217472
-0.042433333 0.040008571 1.273 12953787
-0.040008571 0.040008571 1.273 13216959
-0.037583809 0.040008571 1.273 13020352
-0.035297148 0.040165719 1.2780001 13283524
-0.032734282 0.040008571 1.273 13479874
-0.030309524 0.040008571 1.273 14137804
-0.027884761 0.040008571 1.273 15057607
-0.025459999 0.040008571 1.273 15320779
-0.023035238 0.040008571 1.273 15782611
-0.020610476 0.040008571 1.273 15585232
-0.018114286 0.039851431 1.268 16046553
-0.015699048 0.039851431 1.268 15980760
-0.01328381 0.039851431 1.268 16242903
-0.010868571 0.039851431 1.268 16111317
-0.0084533338 0.039851431 1.268 15913679
-0.0058047622 0.038311433 1.2190001 15189956
-0.0034828575 0.038311433 1.2190001 11899786
-0.0011733334 0.038720001 1.2320001 10978684
0.0011609525 0.038311433 1.2190001 9598823
0.0034828575 0.038311433 1.2190001 9664616
0.0058047622 0.038311433 1.2190001 9207942
-0.086904764 0.041666668 1.25 8538130
-0.084523812 0.041666668 1.25 9453925
-0.082734287 0.041966669 1.2590001 12875161
-0.08065524 0.042133335 1.2640001 12288407
-0.078247622 0.042133335 1.2640001 13801646
-0.075840004 0.042133335 1.2640001 13738928
-0.073432386 0.042133335 1.2640001 14528444
-0.071024768 0.042133335 1.2640001 14731191
-0.068834282 0.042266667 1.268 14796984
-0.066419043 0.042266667 1.268 14666692
-0.06400381 0.042266667 1.268 14929864
-0.06158857 0.042266667 1.268 14601417
-0.059173334 0.042266667 1.268 14535624
-0.056981906 0.042433333 1.273 14535372
-0.054557141 0.042433333 1.273 14732751
-0.052132379 0.042433333 1.273 14601935
-0.049707618 0.042433333 1.273 14799314
-0.047282856 0.042433333 1.273 14799314
-0.041616194 0.03936667 1.1810001 15062486
-0.03936667 0.03936667 1.1810001 15062997
-0.037117146 0.03936667 1.1810001 15391962
-0.034867622 0.03936667 1.1810001 15194074
-0.035159048 0.042433333 1.273 15128281
-0.032734282 0.042433333 1.273 14599886
-0.030309524 0.042433333 1.273 14599886
-0.027884761 0.042433333 1.273 14927293
-0.025459999 0.042433333 1.273 14203570
-0.023035238 0.042433333 1.273 13938095
-0.019315239 0.039766666 1.1930001 12885407
-0.017042857 0.039766666 1.1930001 10772636
-0.014770477 0.039766666 1.1930001 10246292
-0.01254 0.039900001 1.197 9913676
-0.010302857 0.040066667 1.202 8400437
-0.0080400007 0.040200002 1.2060001 9515792
-0.0057619051 0.040333334 1.21 9976343
-0.0034685717 0.04046667 1.2140001 9718309
-0.0011561905 0.04046667 1.2140001 12152650
0.0011561905 0.04046667 1.2140001 10518910
0.0034685717 0.04046667 1.2140001 10124152
-0.089026667 0.042779051 1.2140001 7495285
-0.086714298 0.042779051 1.2140001 7092758
-0.084123813 0.042638097 1.21 4592640
-0.08181905 0.042638097 1.21 5900288
-0.079251431 0.042497143 1.2060001 6755591
-0.076380007 0.042180002 1.197 10311503
-0.074100003 0.042180002 1.197 11561570
-0.07158 0.042039048 1.1930001 11568518
-0.069307618 0.042039048 1.1930001 11897483
-0.067035235 0.042039048 1.1930001 11835283
-0.064762861 0.042039048 1.1930001 12164248
-0.062280957 0.041898094 1.189 12230555
-0.060016192 0.041898094 1.189 12625313
-0.06158857 0.044681903 1.268 13151407
-0.059173334 0.044681903 1.268 13677751
-0.056758095 0.044681903 1.268 14006720
-0.05061429 0.041616194 1.1810001 14269892
-0.048364766 0.041616194 1.1810001 14271432
-0.045959052 0.04147524 1.177 14074053
-0.043717142 0.04147524 1.177 13877192
-0.041616194 0.041616194 1.1810001 13877192
-0.03936667 0.041616194 1.1810001 14008778
-0.037117146 0.041616194 1.1810001 13548227
-0.034867622 0.041616194 1.1810001 13480642
-0.032618098 0.041616194 1.1810001 13151677
-0.030368574 0.041616194 1.1810001 13084337
-0.02811905 0.041616194 1.1810001 12952751
-0.026044762 0.041898094 1.189 12886947
-0.023779999 0.041898094 1.189 11900052
-0.02158762 0.042039048 1.1930001 9793647
-0.019315239 0.042039048 1.1930001 5780274
-0.017042857 0.042039048 1.1930001 8262941
-0.014770477 0.042039048 1.1930001 8065562
-0.01254 0.042180002 1.197 8458509
-0.010302857 0.042356189 1.202 8853267
-0.0080133341 0.042356189 1.202 9379080
-0.0057428577 0.042497143 1.2060001 11287077
-0.003457143 0.042638097 1.21 10507559
-0.0011561905 0.042779051 1.2140001 13007693
0.0011561905 0.042779051 1.2140001 10847625
0.0034685717 0.042779051 1.2140001 10189695
-0.0910381 0.04494286 1.21 10784939
-0.088733338 0.04494286 1.21 9008528
-0.086714298 0.045091432 1.2140001 7885389
-0.084123813 0.04494286 1.21 6108978
-0.08181905 0.04494286 1.21 6954786
-0.079251431 0.044794288 1.2060001 6757407
-0.076380007 0.044460002 1.197 7214350
-0.074100003 0.044460002 1.197 7082764
-0.07158 0.04431143 1.1930001 6558212
-0.069307618 0.04431143 1.1930001 6295040
-0.067035235 0.04431143 1.1930001 5901062
-0.064762861 0.04431143 1.1930001 5835269
-0.062280957 0.044162858 1.189 5769474
-0.060016192 0.044162858 1.189 5769474
-0.057751428 0.044162858 1.189 6491906
-0.055300001 0.04401429 1.1850001 7084043
-0.053042859 0.04401429 1.1850001 7083277
-0.05061429 0.043865718 1.1810001 7083277
-0.048364766 0.043865718 1.1810001 7216420
-0.045959052 0.043717142 1.177 7676971
-0.043717142 0.043717142 1.177 6890292
-0.041616194 0.043865718 1.1810001 6232362
-0.03936667 0.043865718 1.1810001 6428694
-0.037117146 0.043865718 1.1810001 6231315
-0.034867622 0.043865718 1.1810001 6361094
-0.032618098 0.043865718 1.1810001 6163715
-0.030368574 0.043865718 1.1810001 6556672
-0.02811905 0.043865718 1.1810001 6819844
-0.026044762 0.044162858 1.189 6950912
-0.023779999 0.044162858 1.189 6819328
-0.02158762 0.04431143 1.1930001 7344385
-0.019315239 0.04431143 1.1930001 7936522
-0.017042857 0.04431143 1.1930001 8330778
-0.014770477 0.04431143 1.1930001 9186087
-0.012592381 0.044645716 1.202 9845303
-0.010302857 0.044645716 1.202 10832198
-0.0080133341 0.044645716 1.202 10567754
-0.0057428577 0.044794288 1.2060001 11488856
-0.003457143 0.04494286 1.21 10771785
-0.0011561905 0.045091432 1.2140001 12942954
0.0011561905 0.045091432 1.2140001 10651275
0.0034685717 0.045091432 1.2140001 9861759
-0.0910381 0.047247618 1.21 10390438
-0.088733338 0.047247618 1.21 9469336
-0.086428568 0.047247618 1.21 8937563
-0.084123813 0.047247618 1.21 6963773
-0.08181905 0.047247618 1.21 7417383
-0.079251431 0.047091432 1.2060001 6891039
-0.076699048 0.046935238 1.202 6952469
-0.074100003 0.046739999 1.197 6820883
-0.071820006 0.046739999 1.197 6755591
-0.069539994 0.046739999 1.197 6821384
-0.067035235 0.046583813 1.1930001 6820624
-0.064762861 0.046583813 1.1930001 6754831
-0.062490482 0.046583813 1.1930001 6950670
-0.060016192 0.046427619 1.189 6819084
-0.057751428 0.046427619 1.189 6818816
-0.055300001 0.046271432 1.1850001 6884608
-0.053042859 0.046271432 1.1850001 6818304
-0.05061429 0.046115242 1.1810001 6818304
-0.048364766 0.046115242 1.1810001 6883845
-0.046115242 0.046115242 1.1810001 8002326
-0.043865718 0.046115242 1.1810001 7608891
-0.041616194 0.046115242 1.1810001 7016754
-0.03936667 0.046115242 1.1810001 7147034
-0.037117146 0.046115242 1.1810001 7278620
-0.034867622 0.046115242 1.1810001 7213323
-0.032618098 0.046115242 1.1810001 7213323
-0.030471429 0.046271432 1.1850001 7542799
-0.028214287 0.046271432 1.1850001 7411213
-0.026132382 0.046583813 1.1930001 7539968
-0.023860002 0.046583813 1.1930001 8197890
-0.02158762 0.046583813 1.1930001 8592918
-0.019315239 0.046583813 1.1930001 9514020
-0.017042857 0.046583813 1.1930001 9121577
-0.014820001 0.046739999 1.197 9582128
-0.012592381 0.046935238 1.202 10239790
-0.010302857 0.046935238 1.202 11160892
-0.0080133341 0.046935238 1.202 10830387
-0.0057428577 0.047091432 1.2060001 11619903
-0.003457143 0.047247618 1.21 10771785
-0.0011561905 0.047403816 1.2140001 12877161
0.0011561905 0.047403816 1.2140001 10519689
0.0034685717 0.047403816 1.2140001 9730173
-0.0910381 0.049552381 1.21 9929630
-0.088733338 0.049552381 1.21 9600665
-0.086428568 0.049552381 1.21 9596520
-0.084123813 0.049552381 1.21 7096386
-0.08181905 0.049552381 1.21 7548719
-0.079251431 0.049388576 1.2060001 7285547
-0.076699048 0.04922476 1.202 7481389
-0.074100003 0.04902 1.197 7547182
-0.071820006 0.04902 1.197 7548195
-0.069539994 0.04902 1.197 7745574
-0.067259997 0.04902 1.197 7745063
-0.06498 0.04902 1.197 7481891
-0.062490482 0.048856195 1.1930001 7743525
-0.0602181 0.048856195 1.1930001 7743525
-0.057751428 0.048692379 1.189 7742747
-0.055486668 0.048692379 1.189 8071712
-0.053042859 0.048528574 1.1850001 8005677
-0.050785717 0.048528574 1.1850001 7874091
-0.048364766 0.048364766 1.1810001 8072753
-0.046115242 0.048364766 1.1810001 10243922
-0.043865718 0.048364766 1.1810001 9261645
-0.041616194 0.048364766 1.1810001 7748406
-0.03936667 0.048364766 1.1810001 8270403
-0.037117146 0.048364766 1.1810001 8204610
-0.034867622 0.048364766 1.1810001 8269871
-0.032618098 0.048364766 1.1810001 8269871
-0.030471429 0.048528574 1.1850001 8401457
-0.028214287 0.048528574 1.1850001 8467250
-0.026132382 0.048856195 1.1930001 8860192
-0.023860002 0.048856195 1.1930001 8991778
-0.02158762 0.048856195 1.1930001 9253163
-0.019380001 0.04902 1.197 9779507
-0.017099999 0.04902 1.197 9451828
-0.014820001 0.04902 1.197 10043965
-0.012592381 0.04922476 1.202 10503734
-0.010302857 0.04922476 1.202 11688008
-0.0080133341 0.04922476 1.202 10964022
-0.0057428577 0.049388576 1.2060001 11819331
-0.0034457145 0.049388576 1.2060001 10575447
-0.001152381 0.049552381 1.21 12746616
0.0011561905 0.049716193 1.2140001 10256517
0.0034685717 0.049716193 1.2140001 9532794
-0.0910381 0.051857144 1.21 9798555
-0.088733338 0.051857144 1.21 9601176
-0.086428568 0.051857144 1.21 9662070
-0.084123813 0.051857144 1.21 7359315
-0.08181905 0.051857144 1.21 8273201
-0.079251431 0.051685717 1.2060001 7417892
-0.076699048 0.051514287 1.202 7547695
-0.074100003 0.0513 1.197 7679281
-0.071820006 0.0513 1.197 7677993
-0.069539994 0.0513 1.197 7941165
-0.067259997 0.0513 1.197 7810856
-0.06498 0.0513 1.197 7679270
-0.062490482 0.051128577 1.1930001 7940647
-0.0602181 0.051128577 1.1930001 7940647
-0.057945717 0.051128577 1.1930001 8071979
-0.055486668 0.050957143 1.189 8137772
-0.053042859 0.050785717 1.1850001 8137520
-0.050785717 0.050785717 1.1850001 7940141
-0.048364766 0.05061429 1.1810001 8073267
-0.046115242 0.05061429 1.1810001 10112850
-0.043865718 0.05061429 1.1810001 9392736
-0.041616194 0.05061429 1.1810001 7945290
-0.03936667 0.05061429 1.1810001 8532800
-0.037117146 0.05061429 1.1810001 8401214
-0.034867622 0.05061429 1.1810001 8400944
-0.032618098 0.05061429 1.1810001 8335151
-0.030471429 0.050785717 1.1850001 8663087
-0.028214287 0.050785717 1.1850001 8860466
-0.026132382 0.051128577 1.1930001 9057065
-0.023860002 0.051128577 1.1930001 9254444
-0.02158762 0.051128577 1.1930001 9253676
-0.019380001 0.0513 1.197 9516848
-0.017099999 0.0513 1.197 9319729
-0.014820001 0.0513 1.197 9977659
-0.012592381 0.051514287 1.202 10437682
-0.010302857 0.051514287 1.202 10964026
-0.0080400007 0.051685717 1.2060001 10766384
-0.0057428577 0.051685717 1.2060001 12016451
-0.0034457145 0.051685717 1.2060001 11037008
-0.001152381 0.051857144 1.21 12681833
0.0011561905 0.052028574 1.2140001 10915182
0.0034685717 0.052028574 1.2140001 9994080
0.005780953 0.052028574 1.2140001 9338710
-0.0910381 0.054161906 1.21 14009030
-0.088733338 0.054161906 1.21 13416893
-0.086428568 0.054161906 1.21 13480573
-0.084123813 0.054161906 1.21 6703894
-0.08181905 0.054161906 1.21 7812388
-0.079251431 0.053982858 1.2060001 8009767
-0.076954298 0.053982858 1.2060001 7745081
-0.07440953 0.053803809 1.202 7679288
-0.071820006 0.053580001 1.197 7744813
-0.069539994 0.053580001 1.197 7679020
-0.067259997 0.053580001 1.197 7875372
-0.06498 0.053580001 1.197 7875372
-0.062490482 0.053400956 1.1930001 8072229
-0.0602181 0.053400956 1.1930001 8269608
-0.057945717 0.053400956 1.1930001 8268851
-0.055486668 0.053221904 1.189 8334644
-0.053221904 0.053221904 1.189 8335151
-0.050785717 0.053042859 1.1850001 8400944
-0.048528574 0.053042859 1.1850001 8400694
-0.046271432 0.053042859 1.1850001 10440277
-0.04401429 0.053042859 1.1850001 9589595
-0.041616194 0.052863814 1.1810001 8536907
-0.03936667 0.052863814 1.1810001 8599370
-0.037117146 0.052863814 1.1810001 8533577
-0.034867622 0.052863814 1.1810001 8599865
-0.032728571 0.053042859 1.1850001 8336693
-0.030471429 0.053042859 1.1850001 8794673
-0.028214287 0.053042859 1.1850001 8794673
-0.026132382 0.053400956 1.1930001 9122347
-0.023860002 0.053400956 1.1930001 9188140
-0.02158762 0.053400956 1.1930001 9318959
-0.019380001 0.053580001 1.197 9384752
-0.017099999 0.053580001 1.197 9516338
-0.014820001 0.053580001 1.197 10240061
-0.012592381 0.053803809 1.202 10437682
-0.010302857 0.053803809 1.202 10766647
-0.0080400007 0.053982858 1.2060001 10832947
-0.0057428577 0.053982858 1.2060001 11754049
-0.0034457145 0.053982858 1.2060001 11102283
-0.001152381 0.054161906 1.21 15576207
0.0011561905 0.054340959 1.2140001 15388559
0.0034685717 0.054340959 1.2140001 15191180
-0.0910381 0.056466665 1.21 16180717
-0.088733338 0.056466665 1.21 16180717
-0.086428568 0.056466665 1.21 13415873
-0.084123813 0.056466665 1.21 6178643
-0.08181905 0.056466665 1.21 7349779
-0.079251431 0.056280006 1.2060001 8270881
-0.076954298 0.056280006 1.2060001 8008505
-0.07440953 0.056093335 1.202 7679540
-0.071820006 0.055859998 1.197 7810349
-0.069539994 0.055859998 1.197 7744556
-0.067259997 0.055859998 1.197 7940141
-0.06498 0.055859998 1.197 7940141
-0.062699996 0.055859998 1.197 8137501
-0.060420003 0.055859998 1.197 8203294
-0.057945717 0.055673338 1.1930001 8137515
-0.055673338 0.055673338 1.1930001 8137515
-0.053221904 0.055486668 1.189 8269358
-0.050957143 0.055486668 1.189 8400944
-0.048528574 0.055300001 1.1850001 8728117
-0.046271432 0.055300001 1.1850001 9978184
-0.04401429 0.055300001 1.1850001 9258833
-0.041757144 0.055300001 1.1850001 8798282
-0.03936667 0.055113338 1.1810001 8666176
-0.037117146 0.055113338 1.1810001 8534590
-0.034867622 0.055113338 1.1810001 8795193
-0.032728571 0.055300001 1.1850001 8597814
-0.030471429 0.055300001 1.1850001 8924978
-0.028214287 0.055300001 1.1850001 8990771
-0.026132382 0.055673338 1.1930001 9121328
-0.023860002 0.055673338 1.1930001 9252914
-0.02166 0.055859998 1.197 9384231
-0.019380001 0.055859998 1.197 9581610
-0.017099999 0.055859998 1.197 9712944
-0.014881905 0.056093335 1.202 10370874
-0.012592381 0.056093335 1.202 10437941
-0.010337144 0.056280006 1.2060001 10569527
-0.0080400007 0.056280006 1.2060001 10768180
-0.0057619051 0.056466665 1.21 11360317
-0.003457143 0.056466665 1.21 11429197
-0.0011561905 0.056653336 1.2140001 16759201
0.0011561905 0.056653336 1.2140001 16241580
0.0034685717 0.056653336 1.2140001 15978408
-0.0910381 0.058771431 1.21 16510450
-0.088733338 0.058771431 1.21 16773622
-0.086428568 0.058771431 1.21 15653839
-0.084123813 0.058771431 1.21 6508612
-0.08181905 0.058771431 1.21 7084064
-0.079514287 0.058771431 1.21 8334131
-0.076954298 0.058577146 1.2060001 7876660
-0.07440953 0.058382858 1.202 7745074
-0.072119996 0.058382858 1.202 7810349
-0.069539994 0.058139998 1.197 7941935
-0.067259997 0.058139998 1.197 7810345
-0.06498 0.058139998 1.197 7744552
-0.062699996 0.058139998 1.197 7940633
-0.060420003 0.058139998 1.197 8072219
-0.058139998 0.058139998 1.197 8071979
-0.055673338 0.057945717 1.1930001 8006186
-0.053221904 0.057751428 1.189 8137254
-0.050957143 0.057751428 1.189 8268840
-0.048692379 0.057751428 1.189 8463918
-0.046427619 0.057751428 1.189 8858676
-0.04401429 0.057557143 1.1850001 8727603
-0.041757144 0.057557143 1.1850001 9056568
-0.039500002 0.057557143 1.1850001 8665658
-0.03724286 0.057557143 1.1850001 9520967
-0.034985714 0.057557143 1.1850001 8599865
-0.032839045 0.057751428 1.189 8270900
-0.030574286 0.057751428 1.189 8858928
-0.028309524 0.057751428 1.189 8924721
-0.026132382 0.057945717 1.1930001 9120815
-0.023940001 0.058139998 1.197 9055022
-0.02166 0.058139998 1.197 9317925
-0.019380001 0.058139998 1.197 9910062
-0.017099999 0.058139998 1.197 9778728
-0.014881905 0.058382858 1.202 10568244
-0.012592381 0.058382858 1.202 10569014
-0.010337144 0.058577146 1.2060001 10832186
-0.0080666672 0.058771431 1.21 10964022
-0.0057619051 0.058771431 1.21 12608847
-0.003457143 0.058771431 1.21 12154726
-0.0011561905 0.05896572 1.2140001 16762035
0.0011561905 0.05896572 1.2140001 16240808
0.0034685717 0.05896572 1.2140001 15911843
-0.0910381 0.061076194 1.21 16050410
-0.088733338 0.061076194 1.21 16642547
-0.086428568 0.061076194 1.21 15588578
-0.084123813 0.061076194 1.21 8153969
-0.08181905 0.061076194 1.21 7812388
-0.079514287 0.061076194 1.21 7746595
-0.076954298 0.060874287 1.2060001 7614251
-0.07465715 0.060874287 1.2060001 7548458
-0.072119996 0.06067238 1.202 7745063
-0.069539994 0.060420003 1.197 7876649
-0.067259997 0.060420003 1.197 7811369
-0.06498 0.060420003 1.197 7679783
-0.062699996 0.060420003 1.197 7875873
-0.060420003 0.060420003 1.197 8007459
-0.058139998 0.060420003 1.197 8007210
-0.055673338 0.0602181 1.1930001 7941417
-0.053400956 0.0602181 1.1930001 8203809
-0.050957143 0.060016192 1.189 8335395
-0.048692379 0.060016192 1.189 8727853
-0.046427619 0.060016192 1.189 8859439
-0.044162858 0.060016192 1.189 8531762
-0.041898094 0.060016192 1.189 8860727
-0.039633334 0.060016192 1.189 8730945
-0.03736857 0.060016192 1.189 9059910
-0.035103809 0.060016192 1.189 8665156
-0.032949526 0.0602181 1.1930001 8336191
-0.030677145 0.0602181 1.1930001 8859185
-0.028404765 0.0602181 1.1930001 8990771
-0.026219999 0.060420003 1.197 9120558
-0.023940001 0.060420003 1.197 9252144
-0.02166 0.060420003 1.197 9317925
-0.019460952 0.06067238 1.202 9712683
-0.017171429 0.06067238 1.202 9909544
-0.014881905 0.06067238 1.202 10962232
-0.012634287 0.060874287 1.2060001 10766647
-0.010371429 0.061076194 1.21 10832440
-0.0080666672 0.061076194 1.21 10964022
-0.0057619051 0.061076194 1.21 12608847
-0.003457143 0.061076194 1.21 12812910
-0.0011561905 0.061278097 1.2140001 16762546
0.0011561905 0.061278097 1.2140001 16109479
0.0034685717 0.061278097 1.2140001 15780514
-0.089026667 0.063590482 1.2140001 16576747
-0.086714298 0.063590482 1.2140001 15983588
-0.084123813 0.063380957 1.21 9601667
-0.08181905 0.063380957 1.21 7945522
-0.079514287 0.063380957 1.21 7550764
-0.077209525 0.063380957 1.21 7877675
-0.07465715 0.063171431 1.2060001 7680296
-0.072360002 0.063171431 1.2060001 7810345
-0.069830477 0.062961906 1.202 7941931
-0.067540951 0.062961906 1.202 7810349
-0.065251425 0.062961906 1.202 7876142
-0.062699996 0.062699996 1.197 8007459
-0.060420003 0.062699996 1.197 8007459
-0.058139998 0.062699996 1.197 8138026
-0.055859998 0.062699996 1.197 8072233
-0.053400956 0.062490482 1.1930001 8399641
-0.051128577 0.062490482 1.1930001 8597020
-0.048856195 0.062490482 1.1930001 8661810
-0.046583813 0.062490482 1.1930001 8924982
-0.04431143 0.062490482 1.1930001 8860473
-0.042039048 0.062490482 1.1930001 9123645
-0.039633334 0.062280957 1.189 8731708
-0.03736857 0.062280957 1.189 8731708
-0.035221905 0.062490482 1.1930001 8731208
-0.032949526 0.062490482 1.1930001 8468036
-0.030677145 0.062490482 1.1930001 8991541
-0.028404765 0.062490482 1.1930001 8991541
-0.026219999 0.062699996 1.197 9318959
-0.023940001 0.062699996 1.197 9253166
-0.02166 0.062699996 1.197 9579569
-0.019460952 0.062961906 1.202 9908534
-0.017171429 0.062961906 1.202 10106424
-0.014881905 0.062961906 1.202 11027526
-0.012634287 0.063171431 1.2060001 10700852
-0.010371429 0.063380957 1.21 11029817
-0.0080666672 0.063380957 1.21 11028020
-0.0057619051 0.063380957 1.21 12804431
-0.0034685717 0.063590482 1.2140001 12879464
-0.0011561905 0.063590482 1.2140001 16763821
0.0011561905 0.063590482 1.2140001 16175787
0.0034685717 0.063590482 1.2140001 15912615
-0.086714298 0.065902859 1.2140001 16181991
-0.082089528 0.065902859 1.2140001 8275270
-0.079777151 0.065902859 1.2140001 7090996
-0.077209525 0.065685712 1.21 8272431
-0.074904762 0.065685712 1.21 7746087
-0.072360002 0.065468572 1.2060001 7942444
-0.069830477 0.065251425 1.202 7942444
-0.067540951 0.065251425 1.202 8007210
-0.065251425 0.065251425 1.202 7941417
-0.062699996 0.06498 1.197 8138527
-0.060420003 0.06498 1.197 8072734
-0.058139998 0.06498 1.197 8137515
-0.055859998 0.06498 1.197 8203308
-0.053400956 0.064762861 1.1930001 8400164
-0.051128577 0.064762861 1.1930001 8400164
-0.048856195 0.064762861 1.1930001 8924458
-0.046583813 0.064762861 1.1930001 9187630
-0.04431143 0.064762861 1.1930001 8991541
-0.042039048 0.064762861 1.1930001 9320506
-0.039766666 0.064762861 1.1930001 8992829
-0.037494287 0.064762861 1.1930001 8992829
-0.035221905 0.064762861 1.1930001 9058115
-0.032949526 0.064762861 1.1930001 8860736
-0.030677145 0.064762861 1.1930001 9057586
-0.028404765 0.064762861 1.1930001 9123379
-0.026219999 0.06498 1.197 9384752
-0.023940001 0.06498 1.197 9384752
-0.02166 0.06498 1.197 9777710
-0.019460952 0.065251425 1.202 10040882
-0.017171429 0.065251425 1.202 10172207
-0.014881905 0.065251425 1.202 10961723
-0.012634287 0.065468572 1.2060001 10634541
-0.010371429 0.065685712 1.21 10897713
-0.0080666672 0.065685712 1.21 10895914
-0.0057619051 0.065685712 1.21 12935497
-0.0034685717 0.065902859 1.2140001 13208436
-0.0011561905 0.065902859 1.2140001 16763571
0.0011561905 0.065902859 1.2140001 16044458
0.0034685717 0.065902859 1.2140001 15781286
-0.082089528 0.068215244 1.2140001 8537456
-0.079777151 0.068215244 1.2140001 6168908
-0.077464767 0.068215244 1.2140001 8008738
-0.074904762 0.067990474 1.21 7811359
-0.0726 0.067990474 1.21 7876392
-0.070062861 0.06776572 1.2060001 7942185
-0.067540951 0.067540951 1.202 8007210
-0.065251425 0.067540951 1.202 8007210
-0.062961906 0.067540951 1.202 8072214
-0.060420003 0.067259997 1.197 8072214
-0.058139998 0.067259997 1.197 8464179
-0.055859998 0.067259997 1.197 8529972
-0.053580001 0.067259997 1.197 8529961
-0.051128577 0.067035235 1.1930001 8661547
-0.048856195 0.067035235 1.1930001 8793392
-0.046583813 0.067035235 1.1930001 9056564
-0.04431143 0.067035235 1.1930001 8926518
-0.042039048 0.067035235 1.1930001 9058104
-0.039766666 0.067035235 1.1930001 8927799
-0.037494287 0.067035235 1.1930001 8927799
-0.035221905 0.067035235 1.1930001 9123897
-0.032949526 0.067035235 1.1930001 8992311
-0.030677145 0.067035235 1.1930001 9188140
-0.028404765 0.067035235 1.1930001 9253933
-0.026219999 0.067259997 1.197 9450032
-0.023940001 0.067259997 1.197 9318446
-0.021750478 0.067540951 1.202 9711917
-0.019460952 0.067540951 1.202 10238261
-0.017171429 0.067540951 1.202 10303793
-0.014881905 0.067540951 1.202 11224895
-0.012676191 0.067990474 1.21 10898224
-0.010371429 0.067990474 1.21 10635052
-0.0080666672 0.067990474 1.21 11093552
-0.005780953 0.068215244 1.2140001 13067342
-0.0034685717 0.068215244 1.2140001 13603710
-0.0011561905 0.068215244 1.2140001 16764087
0.0011561905 0.068215244 1.2140001 16175533
0.0034685717 0.068215244 1.2140001 16043947
-0.079777151 0.070527628 1.2140001 6762290
-0.077464767 0.070527628 1.2140001 7942693
-0.075152382 0.070527628 1.2140001 7679521
-0.0726 0.070295244 1.21 7809579
-0.070295244 0.070295244 1.21 7875372
-0.06776572 0.070062861 1.2060001 8007459
-0.065468572 0.070062861 1.2060001 7875873
-0.062961906 0.069830477 1.202 8399137
-0.060420003 0.069539994 1.197 8267551
-0.058139998 0.069539994 1.197 8463405
-0.055859998 0.069539994 1.197 8529198
-0.053580001 0.069539994 1.197 8397864
-0.0513 0.069539994 1.197 8924208
-0.04902 0.069539994 1.197 8662837
-0.046739999 0.069539994 1.197 9057595
-0.04431143 0.069307618 1.1930001 8927542
-0.042039048 0.069307618 1.1930001 8993335
-0.039766666 0.069307618 1.1930001 9058617
-0.037494287 0.069307618 1.1930001 9058617
-0.035221905 0.069307618 1.1930001 9123897
-0.032949526 0.069307618 1.1930001 8860725
-0.030677145 0.069307618 1.1930001 9253163
-0.028404765 0.069307618 1.1930001 9318956
-0.026219999 0.069539994 1.197 9645875
-0.024040001 0.069830477 1.202 9711668
-0.021750478 0.069830477 1.202 9644844
-0.019460952 0.069830477 1.202 10171188
-0.017171429 0.069830477 1.202 10237743
-0.01493143 0.070062861 1.2060001 11422017
-0.012676191 0.070295244 1.21 11225395
-0.010371429 0.070295244 1.21 10896430
-0.0080933347 0.070527628 1.2140001 11423028
-0.005780953 0.070527628 1.2140001 13133646
-0.0034828575 0.070818104 1.2190001 14129531
-0.0011609525 0.070818104 1.2190001 16763307
0.0011609525 0.070818104 1.2190001 15912615
-0.082089528 0.072840005 1.2140001 10053003
-0.079777151 0.072840005 1.2140001 7026525
-0.077464767 0.072840005 1.2140001 7810850
-0.075152382 0.072840005 1.2140001 7679264
-0.0726 0.0726 1.21 7940654
-0.070295244 0.0726 1.21 8006447
-0.06776572 0.072360002 1.2060001 8138535
-0.065468572 0.072360002 1.2060001 8072742
-0.062961906 0.072119996 1.202 8399402
-0.06067238 0.072119996 1.202 8267816
-0.058139998 0.071820006 1.197 8397864
-0.055859998 0.071820006 1.197 8397864
-0.053580001 0.071820006 1.197 8529711
-0.0513 0.071820006 1.197 8990262
-0.04902 0.071820006 1.197 8728630
-0.046739999 0.071820006 1.197 9254974
-0.044460002 0.071820006 1.197 9124410
-0.042180002 0.071820006 1.197 8992824
-0.039900001 0.071820006 1.197 8992824
-0.037620001 0.071820006 1.197 9058617
-0.03534 0.071820006 1.197 9123129
-0.033059999 0.071820006 1.197 8991543
-0.030677145 0.07158 1.1930001 9187622
-0.028404765 0.07158 1.1930001 9253415
-0.026329523 0.072119996 1.202 9579830
-0.024040001 0.072119996 1.202 9777209
-0.021750478 0.072119996 1.202 9842230
-0.019525714 0.072360002 1.2060001 10039609
-0.017228574 0.072360002 1.2060001 10434861
-0.014980952 0.0726 1.21 11421756
-0.012676191 0.0726 1.21 11290677
-0.010405715 0.072840005 1.2140001 10764333
-0.0080933347 0.072840005 1.2140001 11291440
-0.005780953 0.072840005 1.2140001 13988953
-0.0034828575 0.073140003 1.2190001 13999735
-0.0011609525 0.073140003 1.2190001 16764069
-0.079777151 0.075152382 1.2140001 6634295
-0.077464767 0.075152382 1.2140001 7545870
-0.075152382 0.075152382 1.2140001 8138007
-0.0726 0.074904762 1.21 8138283
-0.070295244 0.074904762 1.21 8138283
-0.067990474 0.074904762 1.21 8138784
-0.065468572 0.07465715 1.2060001 8204577
-0.063171431 0.07465715 1.2060001 8464693
-0.06067238 0.07440953 1.202 8398900
-0.058382858 0.07440953 1.202 8529961
-0.055859998 0.074100003 1.197 8595754
-0.053580001 0.074100003 1.197 8662060
-0.0513 0.074100003 1.197 8859439
-0.04902 0.074100003 1.197 8662324
-0.046739999 0.074100003 1.197 9254461
-0.044460002 0.074100003 1.197 9124417
-0.042180002 0.074100003 1.197 8992831
-0.039900001 0.074100003 1.197 9123897
-0.037620001 0.074100003 1.197 9255483
-0.03534 0.074100003 1.197 9453373
-0.033059999 0.074100003 1.197 8992822
-0.030780001 0.074100003 1.197 9385009
-0.0285 0.074100003 1.197 9450802
-0.026329523 0.07440953 1.202 9711668
-0.024040001 0.07440953 1.202 9777461
-0.021822859 0.07465715 1.2060001 10039859
-0.019525714 0.07465715 1.2060001 10171445
-0.017228574 0.07465715 1.2060001 10566193
-0.014980952 0.074904762 1.21 11487295
-0.012718096 0.075152382 1.2140001 11290420
-0.010405715 0.075152382 1.2140001 10829869
-0.0080933347 0.075152382 1.2140001 11291183
-0.0058047622 0.075461909 1.2190001 14120282
-0.0034828575 0.075461909 1.2190001 14131321
-0.0011609525 0.075461909 1.2190001 16763812
-0.079777151 0.077464767 1.2140001 6372913
-0.077464767 0.077464767 1.2140001 7479324
-0.075152382 0.077464767 1.2140001 8203047
-0.072840005 0.077464767 1.2140001 8138535
-0.070295244 0.077209525 1.21 8138535
-0.067990474 0.077209525 1.21 8204057
-0.065468572 0.076954298 1.2060001 8401436
-0.063171431 0.076954298 1.2060001 8532793
-0.060874287 0.076954298 1.2060001 8138035
-0.058382858 0.076699048 1.202 8463657
-0.056093335 0.076699048 1.202 8661036
-0.053580001 0.076380007 1.197 8596267
-0.0513 0.076380007 1.197 8859439
-0.04902 0.076380007 1.197 8794673
-0.046739999 0.076380007 1.197 9189431
-0.044460002 0.076380007 1.197 9255746
-0.042180002 0.076380007 1.197 9189953
-0.039900001 0.076380007 1.197 9255742
-0.037620001 0.076380007 1.197 9189949
-0.03534 0.076380007 1.197 9386810
-0.033059999 0.076380007 1.197 9255224
-0.030780001 0.076380007 1.197 9385009
-0.0285 0.076380007 1.197 9319216
-0.026329523 0.076699048 1.202 9711404
-0.024040001 0.076699048 1.202 9777197
-0.021822859 0.076954298 1.2060001 9975080
-0.019590477 0.077209525 1.21 10304045
-0.017285716 0.077209525 1.21 10566699
-0.014980952 0.077209525 1.21 11948352
-0.012718096 0.077464767 1.2140001 11488308
-0.010405715 0.077464767 1.2140001 11290929
-0.0081266677 0.077783816 1.2190001 11357492
-0.0058047622 0.077783816 1.2190001 14844521
-0.0034828575 0.077783816 1.2190001 14328448
-0.0011609525 0.077783816 1.2190001 16764331
-0.082427621 0.080105722 1.2190001 13019296
-0.080105722 0.080105722 1.2190001 6374203
-0.077783816 0.080105722 1.2190001 8007959
-0.075152382 0.079777151 1.2140001 8271131
-0.072840005 0.079777151 1.2140001 8270121
-0.070295244 0.079514287 1.21 8270121
-0.067990474 0.079514287 1.21 8269859
-0.065685712 0.079514287 1.21 8335652
-0.063171431 0.079251431 1.2060001 8465199
-0.060874287 0.079251431 1.2060001 8465199
-0.058382858 0.078988574 1.202 8529700
-0.056093335 0.078988574 1.202 8792872
-0.053803809 0.078988574 1.202 8597286
-0.051514287 0.078988574 1.202 8728872
-0.04902 0.078660004 1.197 8991541
-0.046739999 0.078660004 1.197 9254713
-0.044460002 0.078660004 1.197 9189953
-0.042180002 0.078660004 1.197 9189953
-0.039900001 0.078660004 1.197 9255485
-0.037620001 0.078660004 1.197 9255485
-0.03534 0.078660004 1.197 9320767
-0.033059999 0.078660004 1.197 9057595
-0.030780001 0.078660004 1.197 9516084
-0.0285 0.078660004 1.197 9450291
-0.026329523 0.078988574 1.202 9777701
-0.024120001 0.079251431 1.2060001 9843494
-0.021895239 0.079514287 1.21 10106155
-0.019590477 0.079514287 1.21 10171948
-0.017285716 0.079514287 1.21 10500141
-0.015030477 0.079777151 1.2140001 11816001
-0.012718096 0.079777151 1.2140001 11356461
-0.010448572 0.080105722 1.2190001 11290668
-0.0081266677 0.080105722 1.2190001 11489080
-0.0058047622 0.080105722 1.2190001 15239281
-0.0034828575 0.080105722 1.2190001 14591109
-0.001164762 0.080368571 1.223 16762535
0.001164762 0.080368571 1.223 15977373
-0.082427621 0.082427621 1.2190001 13676197
-0.080105722 0.082427621 1.2190001 6702139
-0.077783816 0.082427621 1.2190001 7941650
-0.075152382 0.082089528 1.2140001 8270615
-0.072840005 0.082089528 1.2140001 8138026
-0.070295244 0.08181905 1.21 8269612
-0.067990474 0.08181905 1.21 8203304
-0.065685712 0.08181905 1.21 8203304
-0.063171431 0.081548579 1.2060001 8399402
-0.060874287 0.081548579 1.2060001 8202023
-0.058577146 0.081548579 1.2060001 8464410
-0.056093335 0.081278101 1.202 8661789
-0.053803809 0.081278101 1.202 8727592
-0.051514287 0.081278101 1.202 8924971
-0.04922476 0.081278101 1.202 9056816
-0.046935238 0.081278101 1.202 9254195
-0.044460002 0.080940001 1.197 9123386
-0.042180002 0.080940001 1.197 9254972
-0.039900001 0.080940001 1.197 9321787
-0.037620001 0.080940001 1.197 9519166
-0.03534 0.080940001 1.197 9451840
-0.033059999 0.080940001 1.197 9254461
-0.030780001 0.080940001 1.197 9646389
-0.0285 0.080940001 1.197 9646389
-0.026329523 0.081278101 1.202 9842981
-0.0242 0.08181905 1.21 10171946
-0.021895239 0.08181905 1.21 10171948
-0.019655241 0.082089528 1.2140001 9974569
-0.017342858 0.082089528 1.2140001 10564396
-0.015030477 0.082089528 1.2140001 12538186
-0.012770478 0.082427621 1.2190001 11621432
-0.010448572 0.082427621 1.2190001 10700330
-0.0081266677 0.082427621 1.2190001 11356722
-0.0058047622 0.082427621 1.2190001 15633267
-0.0034942857 0.082698092 1.223 14920076
-0.001164762 0.082698092 1.223 16762537
0.001164762 0.082698092 1.223 16174243
-0.082427621 0.084749527 1.2190001 13809062
-0.080105722 0.084749527 1.2190001 6769211
-0.077783816 0.084749527 1.2190001 7943699
-0.075152382 0.084401913 1.2140001 7877906
-0.072840005 0.084401913 1.2140001 8072753
-0.070295244 0.084123813 1.21 7941167
-0.067990474 0.084123813 1.21 8138535
-0.065685712 0.084123813 1.21 8138535
-0.063171431 0.08384572 1.2060001 8595754
-0.060874287 0.08384572 1.2060001 8727340
-0.058577146 0.08384572 1.2060001 8662060
-0.056093335 0.083567619 1.202 8596267
-0.053803809 0.083567619 1.202 8924458
-0.051514287 0.083567619 1.202 8924458
-0.04922476 0.083567619 1.202 9056816
-0.046935238 0.083567619 1.202 9319988
-0.044645716 0.083567619 1.202 9254972
-0.042180002 0.083220005 1.197 9386558
-0.039900001 0.083220005 1.197 9452603
-0.037620001 0.083220005 1.197 9584189
-0.03534 0.083220005 1.197 9517108
-0.033059999 0.083220005 1.197 9319729
-0.030780001 0.083220005 1.197 9777461
-0.028619049 0.083567619 1.202 9645875
-0.026417146 0.08384572 1.2060001 9842743
-0.0242 0.084123813 1.21 10171708
-0.021967622 0.084401913 1.2140001 10237480
-0.019655241 0.084401913 1.2140001 9974308
-0.017342858 0.084401913 1.2140001 10563876
-0.015092382 0.084749527 1.2190001 12603459
-0.012770478 0.084749527 1.2190001 11687488
-0.010448572 0.084749527 1.2190001 10634800
-0.0081266677 0.084749527 1.2190001 11356470
-0.0058047622 0.084749527 1.2190001 15961980
-0.0034942857 0.085027628 1.223 15117966
-0.001164762 0.085027628 1.223 16763048
-0.082427621 0.087071441 1.2190001 14136737
-0.080105722 0.087071441 1.2190001 7491644
-0.077783816 0.087071441 1.2190001 8075044
-0.075152382 0.086714298 1.2140001 8404009
-0.072840005 0.086714298 1.2140001 8138294
-0.070295244 0.086428568 1.21 8138294
-0.067990474 0.086428568 1.21 8203304
-0.065685712 0.086428568 1.21 8400683
-0.063380957 0.086428568 1.21 8662312
-0.060874287 0.08614286 1.2060001 8793898
-0.058577146 0.08614286 1.2060001 8728378
-0.056280006 0.08614286 1.2060001 8662585
-0.053803809 0.085857145 1.202 8858415
-0.051514287 0.085857145 1.202 8924208
-0.04922476 0.085857145 1.202 8990771
-0.046935238 0.085857145 1.202 9253943
-0.044645716 0.085857145 1.202 9452855
-0.042356189 0.085857145 1.202 9584441
-0.039900001 0.085500002 1.197 9452092
-0.037620001 0.085500002 1.197 9320506
-0.03534 0.085500002 1.197 9582884
-0.033059999 0.085500002 1.197 9517091
-0.030780001 0.085500002 1.197 9843254
-0.028619049 0.085857145 1.202 9777461
-0.026417146 0.08614286 1.2060001 9973827
-0.0242 0.086428568 1.21 10565964
-0.021895239 0.086428568 1.21 10567206
-0.019655241 0.086714298 1.2140001 10369827
-0.017342858 0.086714298 1.2140001 10762279
-0.015092382 0.087071441 1.2190001 12538690
-0.012770478 0.087071441 1.2190001 11884874
-0.010448572 0.087071441 1.2190001 10897979
-0.0081266677 0.087071441 1.2190001 11357758
-0.0058047622 0.087071441 1.2190001 15963268
-0.0034828575 0.087071441 1.2190001 14986637
-0.0011609525 0.087071441 1.2190001 16697255
-0.082968585 0.089980014 1.2270001 14333866
-0.080105722 0.08939334 1.2190001 7951945
-0.077783816 0.08939334 1.2190001 8405038
-0.075461909 0.08939334 1.2190001 8010280
-0.072840005 0.089026667 1.2140001 8072753
-0.070527628 0.089026667 1.2140001 8006960
-0.067990474 0.088733338 1.21 8531750
-0.065685712 0.088733338 1.21 8465957
-0.063380957 0.088733338 1.21 8727592
-0.061076194 0.088733338 1.21 8859178
-0.058577146 0.088440008 1.2060001 8793396
-0.056280006 0.088440008 1.2060001 8793396
-0.053803809 0.088146664 1.202 8859185
-0.051514287 0.088146664 1.202 8924978
-0.04922476 0.088146664 1.202 9056046
-0.046935238 0.088146664 1.202 9385011
-0.044645716 0.088146664 1.202 9517119
-0.042356189 0.088146664 1.202 9714498
-0.040066667 0.088146664 1.202 9452092
-0.037777144 0.088146664 1.202 9386299
-0.03534 0.087779999 1.197 9582639
-0.033059999 0.087779999 1.197 9451053
-0.030780001 0.087779999 1.197 9908536
-0.028619049 0.088146664 1.202 9908536
-0.026417146 0.088440008 1.2060001 9974079
-0.0242 0.088733338 1.21 10500423
-0.021895239 0.088733338 1.21 10567469
-0.019655241 0.089026667 1.2140001 10435883
-0.017342858 0.089026667 1.2140001 10762279
-0.015092382 0.08939334 1.2190001 12604483
-0.012770478 0.08939334 1.2190001 11884617
-0.010448572 0.08939334 1.2190001 10897722
-0.0081266677 0.08939334 1.2190001 11424066
-0.0058047622 0.08939334 1.2190001 16029576
-0.0034828575 0.08939334 1.2190001 14856075
-0.082968585 0.092317149 1.2270001 14729914
-0.080631435 0.092317149 1.2270001 8216407
-0.07803905 0.09201619 1.223 8337722
-0.075461909 0.091715246 1.2190001 8008757
-0.073140003 0.091715246 1.2190001 8071979
-0.070527628 0.091339052 1.2140001 8335151
-0.068215244 0.091339052 1.2140001 8400414
-0.065685712 0.0910381 1.21 8532000
-0.063380957 0.0910381 1.21 8793634
-0.060874287 0.090737149 1.2060001 8925220
-0.058577146 0.090737149 1.2060001 8924208
-0.056280006 0.090737149 1.2060001 8924208
-0.053803809 0.09043619 1.202 8991277
-0.051514287 0.09043619 1.202 9057070
-0.04922476 0.09043619 1.202 9121839
-0.046935238 0.09043619 1.202 9319218
-0.044645716 0.09043619 1.202 9517115
-0.042356189 0.09043619 1.202 9517115
-0.040066667 0.09043619 1.202 9451326
-0.037777144 0.09043619 1.202 9385533
-0.035487618 0.09043619 1.202 9581881
-0.033198096 0.09043619 1.202 9384502
-0.030908573 0.09043619 1.202 9777710
-0.028619049 0.09043619 1.202 9646124
-0.026417146 0.090737149 1.2060001 9973298
-0.0242 0.0910381 1.21 10236470
-0.021895239 0.0910381 1.21 10567719
-0.019655241 0.091339052 1.2140001 10370340
-0.017342858 0.091339052 1.2140001 10827559
-0.015092382 0.091715246 1.2190001 12735556
-0.012770478 0.091715246 1.2190001 12213580
-0.010448572 0.091715246 1.2190001 11292478
-0.0080933347 0.091339052 1.2140001 11423553
-0.005780953 0.091339052 1.2140001 16226442
-0.0034685717 0.091339052 1.2140001 15053452
-0.086714298 0.093651436 1.2140001 15716539
-0.084401913 0.093651436 1.2140001 16045504
-0.082968585 0.094654292 1.2270001 15125183
-0.080631435 0.094654292 1.2270001 9138020
-0.078294292 0.094654292 1.2270001 8601153
-0.075709529 0.094345719 1.223 7943223
-0.073140003 0.094037145 1.2190001 8401196
-0.070527628 0.093651436 1.2140001 8401196
-0.068215244 0.093651436 1.2140001 8596768
-0.065685712 0.093342856 1.21 8662561
-0.063380957 0.093342856 1.21 8794147
-0.060874287 0.09303429 1.2060001 8859940
-0.058577146 0.09303429 1.2060001 8924208
-0.056280006 0.09303429 1.2060001 8924208
-0.053982858 0.09303429 1.2060001 9056046
-0.051685717 0.09303429 1.2060001 9121839
-0.04922476 0.092725717 1.202 9056046
-0.046935238 0.092725717 1.202 9779769
-0.044794288 0.09303429 1.2060001 9518916
-0.042497143 0.09303429 1.2060001 9453123
-0.040066667 0.092725717 1.202 9451840
-0.037777144 0.092725717 1.202 9320254
-0.035487618 0.092725717 1.202 9517108
-0.033198096 0.092725717 1.202 9385522
-0.030908573 0.092725717 1.202 9844005
-0.028619049 0.092725717 1.202 9909798
-0.026417146 0.09303429 1.2060001 10104872
-0.0242 0.093342856 1.21 10368044
-0.021895239 0.093342856 1.21 10566186
-0.019655241 0.093651436 1.2140001 10434600
-0.017342858 0.093651436 1.2140001 10827048
-0.015092382 0.094037145 1.2190001 12800838
-0.012770478 0.094037145 1.2190001 12279886
-0.010405715 0.093651436 1.2140001 11424577
-0.0080933347 0.093651436 1.2140001 11423805
-0.005780953 0.093651436 1.2140001 16292487
-0.0034685717 0.093651436 1.2140001 15447701
-0.086714298 0.095963813 1.2140001 15716533
-0.084401913 0.095963813 1.2140001 16045498
-0.082968585 0.096991435 1.2270001 15322301
-0.080631435 0.096991435 1.2270001 10256240
-0.078294292 0.096991435 1.2270001 8866126
-0.075709529 0.09667524 1.223 8273989
-0.073140003 0.096359059 1.2190001 8269871
-0.070818104 0.096359059 1.2190001 8138285
-0.068215244 0.095963813 1.2140001 8662312
-0.065685712 0.095647618 1.21 8793898
-0.063380957 0.095647618 1.21 8924458
-0.061076194 0.095647618 1.21 9056044
-0.058771431 0.095647618 1.21 8924721
-0.056280006 0.095331438 1.2060001 8924721
-0.053982858 0.095331438 1.2060001 9121839
-0.051685717 0.095331438 1.2060001 8990253
-0.049388576 0.095331438 1.2060001 9187382
-0.047091432 0.095331438 1.2060001 9779519
-0.044794288 0.095331438 1.2060001 9649478
-0.042497143 0.095331438 1.2060001 9517892
-0.040200002 0.095331438 1.2060001 9648701
-0.037902862 0.095331438 1.2060001 9582908
-0.035487618 0.095015235 1.202 9648432
-0.033198096 0.095015235 1.202 9516846
-0.030908573 0.095015235 1.202 9909537
-0.028714286 0.095331438 1.2060001 9975330
-0.026504762 0.095647618 1.21 10170667
-0.0242 0.095647618 1.21 10368046
-0.021967622 0.095963813 1.2140001 10499891
-0.019655241 0.095963813 1.2140001 10631477
-0.017342858 0.095963813 1.2140001 11090731
-0.015092382 0.096359059 1.2190001 12669763
-0.012770478 0.096359059 1.2190001 12410957
-0.010405715 0.095963813 1.2140001 11753027
-0.0080933347 0.095963813 1.2140001 11621436
-0.005780953 0.095963813 1.2140001 16490118
-0.0034685717 0.095963813 1.2140001 15974556
-0.08330667 0.099733338 1.2320001 15322301
-0.080631435 0.099328585 1.2270001 10387826
-0.078294292 0.099328585 1.2270001 9392461
-0.075957149 0.099328585 1.2270001 8010808
-0.073380001 0.09900476 1.223 8071979
-0.070818104 0.098680958 1.2190001 8400944
-0.068496197 0.098680958 1.2190001 8663336
-0.065902859 0.098276198 1.2140001 8729129
-0.063590482 0.098276198 1.2140001 8991015
-0.061076194 0.097952388 1.21 8925222
-0.058771431 0.097952388 1.21 9056046
-0.056466665 0.097952388 1.21 8924460
-0.053982858 0.097628579 1.2060001 9121320
-0.051685717 0.097628579 1.2060001 9121320
-0.049388576 0.097628579 1.2060001 9319220
-0.047091432 0.097628579 1.2060001 9582392
-0.044794288 0.097628579 1.2060001 9451840
-0.042497143 0.097628579 1.2060001 9517633
-0.040200002 0.097628579 1.2060001 9648701
-0.037902862 0.097628579 1.2060001 9648701
-0.035605714 0.097628579 1.2060001 9778488
-0.033308573 0.097628579 1.2060001 9778488
-0.031011432 0.097628579 1.2060001 9975332
-0.028714286 0.097628579 1.2060001 9975332
-0.026504762 0.097952388 1.21 10236717
-0.02428 0.098276198 1.2140001 10302510
-0.021967622 0.098276198 1.2140001 10564396
-0.019655241 0.098276198 1.2140001 10893361
-0.017342858 0.098276198 1.2140001 11221815
-0.015092382 0.098680958 1.2190001 12998226
-0.012770478 0.098680958 1.2190001 12607563
-0.010448572 0.098680958 1.2190001 11949633
-0.0080933347 0.098276198 1.2140001 11818561
-0.005780953 0.098276198 1.2140001 16555657
-0.0034685717 0.098276198 1.2140001 16040099
-0.08330667 0.10208001 1.2320001 15585214
-0.080631435 0.10166572 1.2270001 11900806
-0.078294292 0.10166572 1.2270001 9326686
-0.075957149 0.10166572 1.2270001 7550275
-0.073620006 0.10166572 1.2270001 8202795
-0.07105048 0.10133429 1.223 8597553
-0.068496197 0.10100286 1.2190001 8859691
-0.065902859 0.10058858 1.2140001 8925484
-0.063590482 0.10058858 1.2140001 8991015
-0.061076194 0.10025714 1.21 9056808
-0.058771431 0.10025714 1.21 9121320
-0.056466665 0.10025714 1.21 9055527
-0.053982858 0.099925719 1.2060001 9055014
-0.051685717 0.099925719 1.2060001 9186600
-0.049388576 0.099925719 1.2060001 9318959
-0.047091432 0.099925719 1.2060001 9582131
-0.044794288 0.099925719 1.2060001 9714494
-0.042497143 0.099925719 1.2060001 9648701
-0.040200002 0.099925719 1.2060001 9713983
-0.037902862 0.099925719 1.2060001 9648190
-0.035605714 0.099925719 1.2060001 9778997
-0.033308573 0.099925719 1.2060001 9778997
-0.031011432 0.099925719 1.2060001 9975080
-0.028714286 0.099925719 1.2060001 10040873
-0.026592383 0.10058858 1.2140001 10302762
-0.02428 0.10058858 1.2140001 10434348
-0.021967622 0.10058858 1.2140001 10629438
-0.019655241 0.10058858 1.2140001 10958403
-0.017414287 0.10100286 1.2190001 11221316
-0.015092382 0.10100286 1.2190001 12997727
-0.012770478 0.10100286 1.2190001 12542020
-0.010448572 0.10100286 1.2190001 11884090
-0.0081266677 0.10100286 1.2190001 11753792
-0.0058047622 0.10100286 1.2190001 16490888
-0.0034828575 0.10100286 1.2190001 16172444
-0.08330667 0.10442667 1.2320001 15848127
-0.080960013 0.10442667 1.2320001 12097926
-0.078294292 0.10400286 1.2270001 10511453
-0.075957149 0.10400286 1.2270001 7682354
-0.073620006 0.10400286 1.2270001 8334890
-0.07105048 0.10366382 1.223 8598062
-0.068720959 0.10366382 1.223 8860192
-0.066174291 0.10332477 1.2190001 8925985
-0.063590482 0.10290097 1.2140001 9056295
-0.061278097 0.10290097 1.2140001 9122088
-0.058771431 0.10256191 1.21 9121839
-0.056466665 0.10256191 1.21 9056046
-0.053982858 0.10222286 1.2060001 9186860
