# .PCD v0.7 - Point Cloud Data file format
VERSION 0.7
FIELDS x y z rgba
SIZE 4 4 4 4
TYPE F F F U
COUNT 1 1 1 1
WIDTH 1177
HEIGHT 1
VIEWPOINT 0 0 0 1 0 0 0
POINTS 1177
DATA ascii
-0.077142857 0.064800002 1.08 15916759
-0.075085714 0.064800002 1.08 15916759
-0.073028572 0.064800002 1.08 15520711
-0.070971429 0.064800002 1.08 15323332
-0.069169529 0.065040007 1.0840001 15389134
-0.067104764 0.065040007 1.0840001 15783892
-0.065219998 0.065219998 1.087 15917025
-0.063323811 0.065400004 1.09 15851232
-0.061247624 0.065400004 1.09 15720164
-0.059388574 0.065640002 1.0940001 15785957
-0.057461902 0.065820001 1.097 15128038
-0.05557429 0.066060007 1.1010001 15128038
-0.053477146 0.066060007 1.1010001 14930666
-0.051380005 0.066060007 1.1010001 14930666
-0.04928286 0.066060007 1.1010001 14141159
-0.047357146 0.066299997 1.105 13812194
-0.045252379 0.066299997 1.105 13812964
-0.04314762 0.066299997 1.105 13878757
-0.041042857 0.066299997 1.105 13748452
-0.038938098 0.066299997 1.105 14011624
-0.036933336 0.066480003 1.108 14076899
-0.034822859 0.066480003 1.108 14142692
-0.032712381 0.066480003 1.108 14207722
-0.030601904 0.066480003 1.108 14273515
-0.028414287 0.066299997 1.105 14142183
-0.026309524 0.066299997 1.105 14010597
-0.024270477 0.066480003 1.108 14010856
-0.022160001 0.066480003 1.108 13879270
-0.020049524 0.066480003 1.108 13813225
-0.017939048 0.066480003 1.108 13681639
-0.015828572 0.066480003 1.108 13681382
-0.013718096 0.066480003 1.108 13747175
-0.011576191 0.066299997 1.105 13746914
-0.0094714286 0.066299997 1.105 13746914
-0.0073666666 0.066299997 1.105 13681119
-0.005261905 0.066299997 1.105 13681119
-0.0031571428 0.066299997 1.105 13615580
-0.0010485714 0.066060007 1.1010001 13418201
0.0010485714 0.066060007 1.1010001 13352406
0.0031342856 0.065820001 1.097 13483992
0.0052095242 0.065640002 1.0940001 13350871
0.0072933342 0.065640002 1.0940001 13285078
0.0093428576 0.065400004 1.09 13151196
0.011419049 0.065400004 1.09 12361680
0.013458095 0.065219998 1.087 12163762
0.015485716 0.065040007 1.0840001 11176867
0.017485715 0.064800002 1.08 12225957
0.019542858 0.064800002 1.08 15252435
0.021600001 0.064800002 1.08 15911580
-0.075085714 0.066857144 1.08 15585998
-0.073028572 0.066857144 1.08 15323078
-0.071234293 0.067104764 1.0840001 15257285
-0.069360957 0.067290477 1.087 15454675
-0.067290477 0.067290477 1.087 15981019
-0.065219998 0.067290477 1.087 16180969
-0.063323811 0.067476191 1.09 15917797
-0.061247624 0.067476191 1.09 15982822
-0.059388574 0.067723818 1.0940001 15851236
-0.057461902 0.067909524 1.097 14996709
-0.05557429 0.068157144 1.1010001 14865123
-0.053477146 0.068157144 1.1010001 14865127
-0.051566668 0.068404764 1.105 14536162
-0.049461905 0.068404764 1.105 13877728
-0.047357146 0.068404764 1.105 13548763
-0.045252379 0.068404764 1.105 13615074
-0.04314762 0.068404764 1.105 13812453
-0.041042857 0.068404764 1.105 13746914
-0.03904381 0.068590477 1.108 14010086
-0.036933336 0.068590477 1.108 13944804
-0.034822859 0.068590477 1.108 13944804
-0.032712381 0.068590477 1.108 14075625
-0.030601904 0.068590477 1.108 14009832
-0.028491428 0.068590477 1.108 14140907
-0.026380952 0.068590477 1.108 14206700
-0.024270477 0.068590477 1.108 14141672
-0.022160001 0.068590477 1.108 14207465
-0.020049524 0.068590477 1.108 14075625
-0.017939048 0.068590477 1.108 13812453
-0.015828572 0.068590477 1.108 13878250
-0.013718096 0.068590477 1.108 13878250
-0.011576191 0.068404764 1.105 13746914
-0.0094714286 0.068404764 1.105 13681121
-0.0073666666 0.068404764 1.105 13549022
-0.005261905 0.068404764 1.105 13614815
-0.0031571428 0.068404764 1.105 13680610
-0.0010485714 0.068157144 1.1010001 13483231
0.0010485714 0.068157144 1.1010001 13154516
0.0031342856 0.067909524 1.097 13022930
0.0052095242 0.067723818 1.0940001 13021908
0.0072933342 0.067723818 1.0940001 13021908
0.0093428576 0.067476191 1.09 12954834
0.011419049 0.067476191 1.09 12494283
0.013458095 0.067290477 1.087 12098998
0.015485716 0.067104764 1.0840001 10717345
0.017485715 0.066857144 1.08 11242126
0.019542858 0.066857144 1.08 15058120
0.021600001 0.066857144 1.08 15454150
0.022802858 0.064442858 1.041 15125185
-0.07971333 0.069360957 1.087 14401735
-0.077428579 0.069169529 1.0840001 15190474
-0.075363822 0.069169529 1.0840001 15716818
-0.07329905 0.069169529 1.0840001 15716809
-0.071431428 0.069360957 1.087 16572118
-0.069360957 0.069360957 1.087 16112612
-0.067290477 0.069360957 1.087 15915233
-0.065400004 0.069552377 1.09 15849179
-0.063323811 0.069552377 1.09 15849179
-0.061247624 0.069552377 1.09 15521245
-0.059388574 0.069807619 1.0940001 15323866
-0.057461902 0.069999047 1.097 15192800
-0.05557429 0.070254289 1.1010001 14929628
-0.053477146 0.070254289 1.1010001 14535901
-0.051566668 0.070509523 1.105 14009557
-0.049461905 0.070509523 1.105 13614563
-0.047357146 0.070509523 1.105 13614563
-0.045252379 0.070509523 1.105 13615078
-0.04314762 0.070509523 1.105 13812457
-0.041042857 0.070509523 1.105 13746660
-0.03904381 0.070700951 1.108 14075625
-0.036933336 0.070700951 1.108 13944550
-0.034822859 0.070700951 1.108 14010343
-0.032712381 0.070700951 1.108 14075119
-0.030601904 0.070700951 1.108 14009326
-0.028491428 0.070700951 1.108 14075114
-0.026380952 0.070700951 1.108 14338286
-0.024270477 0.070700951 1.108 14141672
-0.022160001 0.070700951 1.108 14207465
-0.020049524 0.070700951 1.108 14010084
-0.017939048 0.070700951 1.108 13681119
-0.015828572 0.070700951 1.108 13811944
-0.013718096 0.070700951 1.108 13811944
-0.011576191 0.070509523 1.105 13812448
-0.0094714286 0.070509523 1.105 13680862
-0.0073666666 0.070509523 1.105 13615069
-0.005261905 0.070509523 1.105 13549276
-0.0031571428 0.070509523 1.105 13548000
-0.0010485714 0.070254289 1.1010001 13350621
0.0010485714 0.070254289 1.1010001 13021649
0.0031342856 0.069999047 1.097 12890063
0.0052095242 0.069807619 1.0940001 13020629
0.0072666667 0.069552377 1.09 12625871
0.0093428576 0.069552377 1.09 12559808
0.011419049 0.069552377 1.09 12559808
0.013420953 0.069169529 1.0840001 12097987
0.015428572 0.068914287 1.08 10913713
0.017437143 0.068722859 1.077 12556471
0.019488573 0.068722859 1.077 16635637
0.021540001 0.068722859 1.077 16243930
0.022802858 0.066425718 1.041 15322828
0.024785714 0.066425718 1.041 15976078
0.026768571 0.066425718 1.041 16107664
-0.077642858 0.071431428 1.087 15125435
-0.075572379 0.071431428 1.087 15849158
-0.073501907 0.071431428 1.087 15979983
-0.071431428 0.071431428 1.087 16243155
-0.069360957 0.071431428 1.087 15914972
-0.067290477 0.071431428 1.087 15257042
-0.065400004 0.071628571 1.09 15256787
-0.063323811 0.071628571 1.09 15454166
-0.061247624 0.071628571 1.09 15388891
-0.059388574 0.071891434 1.0940001 15388891
-0.057461902 0.072088569 1.097 15258077
-0.05557429 0.072351426 1.1010001 15060698
-0.053477146 0.072351426 1.1010001 14338011
-0.051566668 0.07261429 1.105 13680081
-0.049461905 0.07261429 1.105 13351134
-0.047357146 0.07261429 1.105 13745892
-0.045252379 0.07261429 1.105 13746403
-0.04314762 0.07261429 1.105 13680610
-0.041154288 0.072811432 1.108 13615074
-0.03904381 0.072811432 1.108 13812453
-0.036933336 0.072811432 1.108 13812453
-0.034822859 0.072811432 1.108 14009832
-0.032712381 0.072811432 1.108 14206192
-0.030601904 0.072811432 1.108 14140399
-0.028491428 0.072811432 1.108 14140139
-0.026380952 0.072811432 1.108 14271725
-0.024270477 0.072811432 1.108 13877989
-0.022160001 0.072811432 1.108 14009575
-0.020049524 0.072811432 1.108 13943782
-0.017939048 0.072811432 1.108 13812196
-0.015828572 0.072811432 1.108 13877740
-0.013718096 0.072811432 1.108 13746154
-0.01160762 0.072811432 1.108 13680097
-0.0094971433 0.072811432 1.108 13680097
-0.0073666666 0.07261429 1.105 13615069
-0.005261905 0.07261429 1.105 13615069
-0.0031571428 0.07261429 1.105 13350875
-0.0010485714 0.072351426 1.1010001 13219289
0.0010485714 0.072351426 1.1010001 13283794
0.0031342856 0.072088569 1.097 12954829
0.0052095242 0.071891434 1.0940001 13020111
0.0072666667 0.071628571 1.09 12493767
0.0093428576 0.071628571 1.09 12558527
0.011419049 0.071628571 1.09 12229562
0.013371429 0.070971429 1.08 11572645
0.015428572 0.070971429 1.08 11572645
0.017372381 0.070511431 1.0730001 13345465
0.018837143 0.068408571 1.041 16569322
0.020819999 0.068408571 1.041 16307649
0.022802858 0.068408571 1.041 15452340
0.024785714 0.068408571 1.041 15712136
0.026768571 0.068408571 1.041 15975308
0.028751429 0.068408571 1.041 16040842
-0.07971333 0.073501907 1.087 13350312
-0.077642858 0.073501907 1.087 14204347
-0.075572379 0.073501907 1.087 16046551
-0.073501907 0.073501907 1.087 16046033
-0.071431428 0.073501907 1.087 15585482
-0.069360957 0.073501907 1.087 15519441
-0.067290477 0.073501907 1.087 15519441
-0.065400004 0.073704764 1.09 15388632
-0.063323811 0.073704764 1.09 15454425
-0.061247624 0.073704764 1.09 15389150
-0.059388574 0.073975243 1.0940001 15060185
-0.057461902 0.074178092 1.097 14468057
-0.05557429 0.074448578 1.1010001 14204885
-0.053671427 0.074719049 1.105 13876438
-0.051566668 0.074719049 1.105 13679059
-0.049461905 0.074719049 1.105 13745890
-0.047357146 0.074719049 1.105 14009062
-0.045252379 0.074719049 1.105 13812194
-0.04314762 0.074719049 1.105 13746401
-0.041154288 0.074921906 1.108 13615328
-0.03904381 0.074921906 1.108 13944293
-0.036933336 0.074921906 1.108 14009575
-0.034822859 0.074921906 1.108 14141161
-0.032712381 0.074921906 1.108 14271985
-0.030601904 0.074921906 1.108 14206192
-0.028491428 0.074921906 1.108 14206443
-0.026380952 0.074921906 1.108 14140650
-0.024270477 0.074921906 1.108 13943782
-0.022160001 0.074921906 1.108 14075368
-0.020049524 0.074921906 1.108 14074855
-0.017939048 0.074921906 1.108 13943269
-0.015828572 0.074921906 1.108 13943022
-0.013718096 0.074921906 1.108 13614057
-0.01160762 0.074921906 1.108 13547489
-0.0094971433 0.074921906 1.108 13415903
-0.0073666666 0.074719049 1.105 13680088
-0.005261905 0.074719049 1.105 13811674
-0.0031571428 0.074719049 1.105 13416407
-0.001052381 0.074719049 1.105 13021649
0.001052381 0.074719049 1.105 12954325
0.0031457145 0.074448578 1.1010001 12625360
0.0052095242 0.073975243 1.0940001 12559299
0.0072933342 0.073975243 1.0940001 11967162
0.0093428576 0.073704764 1.09 12491203
0.011419049 0.073704764 1.09 13214926
0.013371429 0.073028572 1.08 15322273
0.014871428 0.070391431 1.041 16572340
0.016854286 0.070391431 1.041 16177887
0.018837143 0.070391431 1.041 15783129
0.020819999 0.070391431 1.041 16108934
0.022802858 0.070391431 1.041 15845762
0.024785714 0.070391431 1.041 15976346
0.026768571 0.070391431 1.041 15976346
0.028751429 0.070391431 1.041 16107412
-0.075572379 0.075572379 1.087 14993595
-0.073501907 0.075572379 1.087 15847355
-0.071431428 0.075572379 1.087 15913148
-0.069360957 0.075572379 1.087 15520214
-0.067290477 0.075572379 1.087 15520214
-0.065219998 0.075572379 1.087 15520729
-0.063323811 0.07578095 1.09 15520729
-0.061247624 0.07578095 1.09 15454693
-0.059388574 0.076059051 1.0940001 15125728
-0.057461902 0.076267622 1.097 14336984
-0.05557429 0.076545723 1.1010001 13744847
-0.053671427 0.076823808 1.105 13744854
-0.051566668 0.076823808 1.105 13876440
-0.049461905 0.076823808 1.105 14008801
-0.047357146 0.076823808 1.105 13877215
-0.045252379 0.076823808 1.105 13483231
-0.04314762 0.076823808 1.105 13549024
-0.041042857 0.076823808 1.105 13614304
-0.03904381 0.07703238 1.108 13943269
-0.036933336 0.07703238 1.108 13878246
-0.034822859 0.07703238 1.108 13878246
-0.032712381 0.07703238 1.108 13811431
-0.030601904 0.07703238 1.108 14074603
-0.028491428 0.07703238 1.108 14075114
-0.026380952 0.07703238 1.108 13943528
-0.024270477 0.07703238 1.108 13614563
-0.022160001 0.07703238 1.108 13680356
-0.020049524 0.07703238 1.108 13811683
-0.017939048 0.07703238 1.108 13745890
-0.015828572 0.07703238 1.108 13482209
-0.013718096 0.07703238 1.108 13350623
-0.01160762 0.07703238 1.108 13481432
-0.0094971433 0.07703238 1.108 13547225
-0.0073666666 0.076823808 1.105 13416153
-0.005261905 0.076823808 1.105 13350360
-0.0031571428 0.076823808 1.105 12956367
-0.001052381 0.076823808 1.105 12758988
0.001052381 0.076823808 1.105 12626366
0.0031457145 0.076545723 1.1010001 12626366
0.0052238097 0.076267622 1.097 12625094
0.0072933342 0.076059051 1.0940001 12361922
0.0093428576 0.07578095 1.09 13214415
0.011419049 0.07578095 1.09 14793447
0.012801905 0.07188762 1.034 16373465
0.014771429 0.07188762 1.034 16373465
0.016854286 0.072374292 1.041 16241851
0.018837143 0.072374292 1.041 15912886
0.020819999 0.072374292 1.041 16107153
0.022802858 0.072374292 1.041 16172946
0.024785714 0.072374292 1.041 15911071
0.026768571 0.072374292 1.041 15845278
-0.075572379 0.077642858 1.087 11901067
-0.073501907 0.077642858 1.087 14069665
-0.071431428 0.077642858 1.087 16175041
-0.069360957 0.077642858 1.087 16178396
-0.067290477 0.077642858 1.087 15981017
-0.065219998 0.077642858 1.087 15783899
-0.063323811 0.077857144 1.09 15915485
-0.061247624 0.077857144 1.09 15849710
-0.059388574 0.078142866 1.0940001 15125987
-0.057461902 0.078357145 1.097 13744093
-0.05557429 0.07864286 1.1010001 13546714
-0.053671427 0.078928567 1.105 12890581
-0.051566668 0.078928567 1.105 12890581
-0.049461905 0.078928567 1.105 13086420
-0.047357146 0.078928567 1.105 13020627
-0.045252379 0.078928567 1.105 13020629
-0.04314762 0.078928567 1.105 13086422
-0.041042857 0.078928567 1.105 13020896
-0.03904381 0.079142861 1.108 13152482
-0.036933336 0.079142861 1.108 13153496
-0.034822859 0.079142861 1.108 13153496
-0.032712381 0.079142861 1.108 13284053
-0.030601904 0.079142861 1.108 13415639
-0.028491428 0.079142861 1.108 13284317
-0.026380952 0.079142861 1.108 13218524
-0.024270477 0.079142861 1.108 12955612
-0.022160001 0.079142861 1.108 12824026
-0.020049524 0.079142861 1.108 12824531
-0.017939048 0.079142861 1.108 13087703
-0.015828572 0.079142861 1.108 12889813
-0.013718096 0.079142861 1.108 12824020
-0.01160762 0.079142861 1.108 12889032
-0.0094971433 0.079142861 1.108 12691653
-0.0073666666 0.078928567 1.105 12953042
-0.005261905 0.078928567 1.105 13150421
-0.0031571428 0.078928567 1.105 13611728
-0.001052381 0.078928567 1.105 14072279
0.001052381 0.078928567 1.105 15061187
0.0031457145 0.07864286 1.1010001 15719117
0.0052238097 0.078357145 1.097 16047602
0.007313333 0.078357145 1.097 16179188
0.008837143 0.073642857 1.031 16309502
0.010800953 0.073642857 1.031 16243709
0.012764761 0.073642857 1.031 14462165
0.014771429 0.073857144 1.034 10514585
0.016805716 0.074142866 1.0380001 12220769
0.01878286 0.074142866 1.0380001 16761000
0.020819999 0.074357137 1.041 16108693
0.022802858 0.074357137 1.041 16174486
0.024785714 0.074357137 1.041 15845539
-0.073501907 0.07971333 1.087 11501384
-0.071431428 0.07971333 1.087 15317378
-0.069360957 0.07971333 1.087 14994113
-0.067290477 0.07971333 1.087 15454664
-0.065400004 0.07993333 1.09 15848922
-0.063323811 0.07993333 1.09 16309473
-0.061247624 0.07993333 1.09 16508662
-0.059171431 0.07993333 1.09 15127009
-0.057461902 0.080446668 1.097 13285843
-0.05557429 0.080740005 1.1010001 13022671
-0.053477146 0.080740005 1.1010001 12431045
-0.051566668 0.081033334 1.105 12496838
-0.049461905 0.081033334 1.105 12560078
-0.047357146 0.081033334 1.105 12954836
-0.045252379 0.081033334 1.105 13151697
-0.04314762 0.081033334 1.105 13217490
-0.041042857 0.081033334 1.105 13020378
-0.038938098 0.081033334 1.105 13151964
-0.036933336 0.081253335 1.108 13021647
-0.034822859 0.081253335 1.108 13153233
-0.032712381 0.081253335 1.108 13151693
-0.030601904 0.081253335 1.108 13349072
-0.028491428 0.081253335 1.108 13151695
-0.026380952 0.081253335 1.108 13283281
-0.024270477 0.081253335 1.108 13020116
-0.022160001 0.081253335 1.108 12954323
-0.020049524 0.081253335 1.108 12691666
-0.017939048 0.081253335 1.108 13086424
-0.015828572 0.081253335 1.108 12824020
-0.013718096 0.081253335 1.108 12692434
-0.01160762 0.081253335 1.108 13086413
-0.0094971433 0.081253335 1.108 13086413
-0.0073666666 0.081033334 1.105 13346529
-0.005261905 0.081033334 1.105 14070252
-0.0031571428 0.081033334 1.105 15320295
-0.001052381 0.081033334 1.105 15386088
0.00097904762 0.075386666 1.028 15850212
0.002937143 0.075386666 1.028 16244970
0.0049095238 0.075606667 1.031 16441075
0.0068733334 0.075606667 1.031 16177903
0.008837143 0.075606667 1.031 15980006
0.010800953 0.075606667 1.031 14861525
0.012764761 0.075606667 1.031 10456449
0.014771429 0.075826667 1.034 8548452
0.016805716 0.076120012 1.0380001 11830787
0.01878286 0.076120012 1.0380001 16766290
0.020819999 0.076339997 1.041 16240538
0.022802858 0.076339997 1.041 16108952
0.024785714 0.076339997 1.041 15910553
-0.06775143 0.077570483 1.031 7220755
-0.065787621 0.077570483 1.031 8928857
-0.063638091 0.07734476 1.028 13205402
-0.06168 0.07734476 1.028 13805480
-0.063323811 0.082009524 1.09 15252926
-0.061247624 0.082009524 1.09 15849944
-0.059171431 0.082009524 1.09 15915737
-0.057671431 0.082837142 1.1010001 15456994
-0.05557429 0.082837142 1.1010001 15391201
-0.053477146 0.082837142 1.1010001 15194594
-0.051380005 0.082837142 1.1010001 15194594
-0.049461905 0.083138093 1.105 14996718
-0.047357146 0.083138093 1.105 14667753
-0.045252379 0.083138093 1.105 14733289
-0.04314762 0.083138093 1.105 14864875
-0.041042857 0.083138093 1.105 14733035
-0.038938098 0.083138093 1.105 14535656
-0.036933336 0.083363816 1.108 14667746
-0.034948573 0.083664767 1.1120001 14996711
-0.032712381 0.083363816 1.108 15062245
-0.030601904 0.083363816 1.108 15193831
-0.028491428 0.083363816 1.108 15259622
-0.026380952 0.083363816 1.108 15522794
-0.024358097 0.083664767 1.1120001 15391730
-0.022160001 0.083363816 1.108 15457523
-0.020049524 0.083363816 1.108 15851770
-0.017939048 0.083363816 1.108 16180735
-0.015828572 0.083363816 1.108 16377855
-0.013718096 0.083363816 1.108 16443647
-0.010738096 0.077119052 1.0250001 16642047
-0.0087857144 0.077119052 1.0250001 16774143
-0.006833334 0.077119052 1.0250001 16575743
-0.0048809526 0.077119052 1.0250001 16509950
-0.0029285718 0.077119052 1.0250001 15717620
-0.00097619055 0.077119052 1.0250001 14664932
0.00097619055 0.077119052 1.0250001 13871825
0.002937143 0.07734476 1.028 12161207
0.0048952377 0.07734476 1.028 8523702
0.0068733334 0.077570483 1.031 7668393
0.0088628577 0.077796191 1.034 7670272
0.010832381 0.077796191 1.034 7538688
0.012801905 0.077796191 1.034 7277325
0.014771429 0.077796191 1.034 12343386
0.016805716 0.07809715 1.0380001 13212786
0.018837143 0.078322858 1.041 16766122
0.020819999 0.078322858 1.041 16242071
0.022802858 0.078322858 1.041 15978899
-0.069918096 0.079765722 1.034 8013826
-0.06775143 0.079534285 1.031 4658432
-0.065787621 0.079534285 1.031 6031616
-0.063638091 0.079302855 1.028 8334364
-0.06168 0.079302855 1.028 11234933
-0.059721906 0.079302855 1.028 13142930
-0.057763807 0.079302855 1.028 12425644
-0.055805713 0.079302855 1.028 14991571
-0.057671431 0.084934294 1.1010001 14733019
-0.05557429 0.084934294 1.1010001 15390949
-0.053477146 0.084934294 1.1010001 15786468
-0.051380005 0.084934294 1.1010001 15654882
-0.04928286 0.084934294 1.1010001 15786988
-0.0438 0.078840002 1.0220001 15194851
-0.041853335 0.078840002 1.0220001 15194853
-0.039906669 0.078840002 1.0220001 15129060
-0.03796 0.078840002 1.0220001 15195114
-0.036013335 0.078840002 1.0220001 14997735
-0.036933336 0.085474283 1.108 15260133
-0.034822859 0.085474283 1.108 15391719
-0.032712381 0.085474283 1.108 15523305
-0.030601904 0.085474283 1.108 15589098
-0.028491428 0.085474283 1.108 15984367
-0.026380952 0.085474283 1.108 15984367
-0.024358097 0.085782863 1.1120001 16182009
-0.022240004 0.085782863 1.1120001 16050423
-0.020049524 0.085474283 1.108 16576254
-0.017939048 0.085474283 1.108 16510461
-0.014642859 0.07907144 1.0250001 16709119
-0.012690477 0.07907144 1.0250001 16380154
-0.010738096 0.07907144 1.0250001 16576767
-0.0087857144 0.07907144 1.0250001 15589872
-0.0068133334 0.078840002 1.0220001 14601703
-0.0048666671 0.078840002 1.0220001 13680601
-0.0029285718 0.07907144 1.0250001 13479629
-0.00097619055 0.07907144 1.0250001 13084871
0.00097619055 0.07907144 1.0250001 9927059
0.002937143 0.079302855 1.028 4992584
0.0048952377 0.079302855 1.028 7080212
0.0068733334 0.079534285 1.031 7211798
0.0088971434 0.080074295 1.0380001 8063744
0.010874286 0.080074295 1.0380001 8261120
0.01285143 0.080074295 1.0380001 8327936
0.014828573 0.080074295 1.0380001 14380883
0.016805716 0.080074295 1.0380001 14002565
0.018710475 0.079765722 1.034 16765871
0.020680001 0.079765722 1.034 16174747
0.022649525 0.079765722 1.034 16043161
-0.069918096 0.081735246 1.034 9329541
-0.06775143 0.081498094 1.031 4855617
-0.065787621 0.081498094 1.031 6950919
-0.063823812 0.081498094 1.031 6950919
-0.06168 0.081260949 1.028 6621440
-0.059721906 0.081260949 1.028 6292480
-0.057595242 0.081023812 1.0250001 5703680
-0.055642862 0.081023812 1.0250001 5769472
-0.053690478 0.081023812 1.0250001 6752512
-0.051586669 0.080786668 1.0220001 8265748
-0.049640004 0.080786668 1.0220001 9130568
-0.047693335 0.080786668 1.0220001 10709600
-0.045746669 0.080786668 1.0220001 10514567
-0.0438 0.080786668 1.0220001 12290978
-0.041853335 0.080786668 1.0220001 12359065
-0.039789528 0.080549523 1.0190001 12819616
-0.037848573 0.080549523 1.0190001 13215401
-0.035907622 0.080549523 1.0190001 13346987
-0.033966668 0.080549523 1.0190001 13346996
-0.034822859 0.087584764 1.108 13478582
-0.03283048 0.087900959 1.1120001 13413050
-0.030712385 0.087900959 1.1120001 13149878
-0.028491428 0.087584764 1.108 13215410
-0.026380952 0.087584764 1.108 13215410
-0.024358097 0.087900959 1.1120001 12490174
-0.020500001 0.081023812 1.0250001 11898037
-0.018493334 0.080786668 1.0220001 10247094
-0.016546667 0.080786668 1.0220001 9852336
-0.0146 0.080786668 1.0220001 9123966
-0.012653334 0.080786668 1.0220001 6821211
-0.010706667 0.080786668 1.0220001 6882902
-0.0087857144 0.081023812 1.0250001 6029385
-0.0068133334 0.080786668 1.0220001 5113600
-0.0048666671 0.080786668 1.0220001 5047808
-0.0029285718 0.081023812 1.0250001 5768960
-0.00097619055 0.081023812 1.0250001 6097920
0.00097619055 0.081023812 1.0250001 6752512
0.002937143 0.081260949 1.028 6686720
0.0048952377 0.081260949 1.028 7801627
0.0068733334 0.081498094 1.031 9841210
0.0088971434 0.082051434 1.0380001 9911875
0.010874286 0.082051434 1.0380001 8990773
0.01285143 0.082051434 1.0380001 9187370
0.014771429 0.081735246 1.034 14713982
0.016740954 0.081735246 1.034 14527894
0.01865619 0.081498094 1.031 16765370
0.020620001 0.081498094 1.031 16240799
0.022583811 0.081498094 1.031 15911834
-0.070188574 0.084028579 1.0380001 11305355
-0.068211436 0.084028579 1.0380001 5844536
-0.065979049 0.08370477 1.034 7346452
-0.064009525 0.08370477 1.034 7872796
-0.061860003 0.083461903 1.031 6949135
-0.059896193 0.083461903 1.031 6817549
-0.057595242 0.0829762 1.0250001 6752257
-0.055642862 0.0829762 1.0250001 6554880
-0.053690478 0.0829762 1.0250001 6359040
-0.051586669 0.082733333 1.0220001 6359040
-0.049640004 0.082733333 1.0220001 6490368
-0.047693335 0.082733333 1.0220001 6621952
-0.045746669 0.082733333 1.0220001 7211520
-0.043671433 0.082490481 1.0190001 7474688
-0.041730478 0.082490481 1.0190001 8458019
-0.039789528 0.082490481 1.0190001 9576500
-0.037848573 0.082490481 1.0190001 9386578
-0.035801906 0.082247622 1.016 9847129
-0.033866666 0.082247622 1.016 9784664
-0.031931426 0.082247622 1.016 10179422
-0.02999619 0.082247622 1.016 9919339
-0.028143812 0.082490481 1.0190001 9261409
-0.026202857 0.082490481 1.0190001 8995920
-0.024333334 0.082733333 1.0220001 8140611
-0.022386668 0.082733333 1.0220001 8067411
-0.020440001 0.082733333 1.0220001 7146309
-0.018493334 0.082733333 1.0220001 7211057
-0.016546667 0.082733333 1.0220001 7079471
-0.0146 0.082733333 1.0220001 6817812
-0.012653334 0.082733333 1.0220001 6686226
-0.010706667 0.082733333 1.0220001 6752512
-0.0087857144 0.0829762 1.0250001 6818304
-0.0068133334 0.082733333 1.0220001 7080448
-0.0048666671 0.082733333 1.0220001 7146240
-0.0029285718 0.0829762 1.0250001 7342592
-0.00097619055 0.0829762 1.0250001 7539969
0.00097619055 0.0829762 1.0250001 8326681
0.002937143 0.083219044 1.028 8787232
0.0048952377 0.083219044 1.028 8920876
0.0068733334 0.083461903 1.031 11223631
0.0088971434 0.084028579 1.0380001 9981740
0.010874286 0.084028579 1.0380001 8205329
0.01285143 0.084028579 1.0380001 9582382
0.014771429 0.08370477 1.034 16359061
0.016692381 0.083461903 1.031 14792606
0.01865619 0.083461903 1.031 16371638
0.020620001 0.083461903 1.031 15976614
-0.070391431 0.086254284 1.041 13083290
-0.068211436 0.086005718 1.0380001 6569783
-0.065979049 0.085674286 1.034 7345194
-0.064009525 0.085674286 1.034 8661054
-0.062040005 0.085674286 1.034 8005688
-0.059896193 0.085425712 1.031 8071481
-0.057763807 0.085177138 1.028 8003376
-0.055642862 0.08492858 1.0250001 7674411
-0.053690478 0.08492858 1.0250001 7868680
-0.051586669 0.084680006 1.0220001 7671301
-0.049640004 0.084680006 1.0220001 7801606
-0.047693335 0.084680006 1.0220001 7670020
-0.045612384 0.084431432 1.0190001 7604738
-0.043671433 0.084431432 1.0190001 7473152
-0.041730478 0.084431432 1.0190001 7408128
-0.039789528 0.084431432 1.0190001 7342336
-0.037737142 0.084182858 1.016 7408128
-0.035801906 0.084182858 1.016 7342336
-0.033866666 0.084182858 1.016 7539200
-0.031931426 0.084182858 1.016 7868160
-0.02999619 0.084182858 1.016 8133653
-0.028143812 0.084431432 1.0190001 8528411
-0.026202857 0.084431432 1.0190001 8000791
-0.024333334 0.084680006 1.0220001 7145482
-0.022386668 0.084680006 1.0220001 7342114
-0.020440001 0.084680006 1.0220001 7342114
-0.018493334 0.084680006 1.0220001 7736086
-0.016546667 0.084680006 1.0220001 7933465
-0.0146 0.084680006 1.0220001 8131353
-0.012653334 0.084680006 1.0220001 8065560
-0.010706667 0.084680006 1.0220001 8130823
-0.0087857144 0.08492858 1.0250001 8591374
-0.006833334 0.08492858 1.0250001 8658478
-0.0048809526 0.08492858 1.0250001 9053236
-0.0029285718 0.08492858 1.0250001 8725039
-0.00097619055 0.08492858 1.0250001 8593453
0.00097904762 0.085177138 1.028 8855083
0.002937143 0.085177138 1.028 8789290
0.0049095238 0.085425712 1.031 9182519
0.0068933335 0.085674286 1.034 11880032
0.0088971434 0.086005718 1.0380001 10572055
0.010874286 0.086005718 1.0380001 9124609
0.01285143 0.086005718 1.0380001 9913648
0.014771429 0.085674286 1.034 16229776
0.016692381 0.085425712 1.031 15845017
0.01865619 0.085425712 1.031 16766119
0.020620001 0.085425712 1.031 16174254
-0.072791435 0.088745721 1.0470001 15913661
-0.070391431 0.088237144 1.041 13479077
-0.068211436 0.087982871 1.0380001 6636605
-0.066234291 0.087982871 1.0380001 7876105
-0.064257152 0.087982871 1.0380001 8534035
-0.062040005 0.08764381 1.034 8071227
-0.060070477 0.08764381 1.034 7676469
-0.057932384 0.087389529 1.031 8132907
-0.055805713 0.087135233 1.028 8001321
-0.053690478 0.08688096 1.0250001 8198165
-0.051738098 0.08688096 1.0250001 8198165
-0.049640004 0.086626671 1.0220001 8263198
-0.047693335 0.086626671 1.0220001 8394784
-0.045612384 0.086372383 1.0190001 8262948
-0.043671433 0.086372383 1.0190001 8131362
-0.041730478 0.086372383 1.0190001 8196642
-0.039789528 0.086372383 1.0190001 7933470
-0.037737142 0.086118095 1.016 8260869
-0.035801906 0.086118095 1.016 8195076
-0.033866666 0.086118095 1.016 8195339
-0.031931426 0.086118095 1.016 10169129
-0.02999619 0.086118095 1.016 9320006
-0.028143812 0.086372383 1.0190001 9385799
-0.026202857 0.086372383 1.0190001 9385020
-0.024333334 0.086626671 1.0220001 8003367
-0.022386668 0.086626671 1.0220001 8526140
-0.020440001 0.086626671 1.0220001 8723519
-0.018493334 0.086626671 1.0220001 8593978
-0.016546667 0.086626671 1.0220001 8659771
-0.0146 0.086626671 1.0220001 8725296
-0.012653334 0.086626671 1.0220001 8396331
-0.010706667 0.086626671 1.0220001 8658208
-0.0087857144 0.08688096 1.0250001 8855587
-0.006833334 0.08688096 1.0250001 8855596
-0.0048809526 0.08688096 1.0250001 9052975
-0.0029285718 0.08688096 1.0250001 8922152
-0.00097619055 0.08688096 1.0250001 8724773
0.00097904762 0.087135233 1.028 8986393
0.002937143 0.087135233 1.028 8657428
0.0049095238 0.087389529 1.031 9246500
0.0068933335 0.08764381 1.034 12338771
0.0088971434 0.087982871 1.0380001 10703117
0.010874286 0.087982871 1.0380001 9189888
0.01285143 0.087982871 1.0380001 10374463
0.014828573 0.087982871 1.0380001 16361626
0.016805716 0.087982871 1.0380001 15844776
0.01878286 0.087982871 1.0380001 16502706
-0.074785717 0.09074001 1.0470001 15716028
-0.072791435 0.09074001 1.0470001 16176579
-0.070594288 0.090480007 1.044 15123597
-0.068408571 0.090220004 1.041 7294230
-0.066425718 0.090220004 1.041 7873830
-0.064257152 0.089960009 1.0380001 9123897
-0.062280003 0.089960009 1.0380001 8201543
-0.060070477 0.089613333 1.034 7675199
-0.058100954 0.089613333 1.034 8265006
-0.055805713 0.089093328 1.028 8330799
-0.053690478 0.08883334 1.0250001 8461349
-0.051738098 0.08883334 1.0250001 8329763
-0.049785718 0.08883334 1.0250001 8525859
-0.047693335 0.088573337 1.0220001 8591652
-0.045746669 0.088573337 1.0220001 8592165
-0.043671433 0.088313334 1.0190001 8592165
-0.041730478 0.088313334 1.0190001 8591152
-0.039789528 0.088313334 1.0190001 8656945
-0.037848573 0.088313334 1.0190001 8657680
-0.035907622 0.088313334 1.0190001 8657680
-0.033966668 0.088313334 1.0190001 8788772
-0.032025717 0.088313334 1.0190001 10565183
-0.030084763 0.088313334 1.0190001 9911639
-0.028143812 0.088313334 1.0190001 9714260
-0.026202857 0.088313334 1.0190001 9648203
-0.024333334 0.088573337 1.0220001 8858687
-0.022386668 0.088573337 1.0220001 8988999
-0.020440001 0.088573337 1.0220001 8923206
-0.018493334 0.088573337 1.0220001 9055294
-0.016546667 0.088573337 1.0220001 8726329
-0.0146 0.088573337 1.0220001 8855094
-0.012653334 0.088573337 1.0220001 8855094
-0.010738096 0.08883334 1.0250001 8789294
-0.0087857144 0.08883334 1.0250001 8789294
-0.006833334 0.08883334 1.0250001 8788522
-0.0048809526 0.08883334 1.0250001 8985901
-0.0029285718 0.08883334 1.0250001 8986151
-0.00097619055 0.08883334 1.0250001 8986151
0.00097904762 0.089093328 1.028 9183245
0.002937143 0.089093328 1.028 9972761
0.0049095238 0.08935333 1.031 9842724
0.0068933335 0.089613333 1.034 11355963
0.0088971434 0.089960009 1.0380001 10635025
0.010905715 0.090220004 1.041 9845509
0.012888571 0.090220004 1.041 10243400
0.014871428 0.090220004 1.041 16296356
0.016854286 0.090220004 1.041 16108189
-0.072791435 0.092734285 1.0470001 16373953
-0.070594288 0.092468575 1.044 15320754
-0.068408571 0.092202857 1.041 8412489
-0.066425718 0.092202857 1.041 8799256
-0.064257152 0.091937155 1.0380001 8207119
-0.062280003 0.091937155 1.0380001 8530999
-0.060070477 0.091582857 1.034 8004655
-0.058100954 0.091582857 1.034 8593203
-0.055805713 0.091051422 1.028 8593203
-0.053847618 0.091051422 1.028 8658215
-0.051738098 0.090785727 1.0250001 8592422
-0.049785718 0.090785727 1.0250001 8656934
-0.047693335 0.090520002 1.0220001 8854313
-0.045746669 0.090520002 1.0220001 8723240
-0.0438 0.090520002 1.0220001 8723240
-0.041853335 0.090520002 1.0220001 8723240
-0.039906669 0.090520002 1.0220001 8854826
-0.037848573 0.090254292 1.0190001 8724243
-0.035907622 0.090254292 1.0190001 8790036
-0.033966668 0.090254292 1.0190001 8985901
-0.032025717 0.090254292 1.0190001 10367554
-0.030084763 0.090254292 1.0190001 10107732
-0.028226668 0.090520002 1.0220001 10173525
-0.026280001 0.090520002 1.0220001 9646927
-0.024404764 0.090785727 1.0250001 8791618
-0.022452382 0.090785727 1.0250001 9120326
-0.020500001 0.090785727 1.0250001 9317705
-0.018547621 0.090785727 1.0250001 9119293
-0.016595239 0.090785727 1.0250001 8658742
-0.014642859 0.090785727 1.0250001 8985399
-0.012690477 0.090785727 1.0250001 8985399
-0.010738096 0.090785727 1.0250001 8985901
-0.0087857144 0.090785727 1.0250001 8920108
-0.006833334 0.090785727 1.0250001 8853545
-0.0048809526 0.090785727 1.0250001 9050924
-0.0029285718 0.090785727 1.0250001 9116715
-0.00097904762 0.091051422 1.028 9116715
0.00097904762 0.091051422 1.028 9313826
0.0029457142 0.091317147 1.031 9576998
0.0049095238 0.091317147 1.031 9775149
0.0069200005 0.091937155 1.0380001 10564665
0.0089228572 0.092202857 1.041 10039810
0.010905715 0.092202857 1.041 10434568
0.012888571 0.092202857 1.041 10308413
0.014871428 0.092202857 1.041 16756127
0.016854286 0.092202857 1.041 16108452
-0.072791435 0.094728574 1.0470001 16569782
-0.070797145 0.094728574 1.0470001 15255477
-0.068605714 0.094457142 1.044 8873556
-0.066425718 0.094185717 1.041 8272932
-0.064257152 0.093914293 1.0380001 7088658
-0.062280003 0.093914293 1.0380001 8463918
-0.060302865 0.093914293 1.0380001 8727090
-0.058100954 0.093552381 1.034 8593460
-0.055968571 0.093280949 1.031 8461874
-0.053847618 0.093009517 1.028 8656934
-0.051889524 0.093009517 1.028 8656934
-0.049785718 0.092738099 1.0250001 8788009
-0.047833338 0.092738099 1.0250001 8722216
-0.045746669 0.092466667 1.0220001 8853025
-0.0438 0.092466667 1.0220001 8853025
-0.041853335 0.092466667 1.0220001 8788009
-0.039906669 0.092466667 1.0220001 8853802
-0.03796 0.092466667 1.0220001 8986144
-0.036013335 0.092466667 1.0220001 8920351
-0.03406667 0.092466667 1.0220001 9180979
-0.032120001 0.092466667 1.0220001 9246772
-0.030173335 0.092466667 1.0220001 9843529
-0.028226668 0.092466667 1.0220001 10369873
-0.026280001 0.092466667 1.0220001 9711691
-0.024404764 0.092738099 1.0250001 9185347
-0.022452382 0.092738099 1.0250001 9315904
-0.020500001 0.092738099 1.0250001 9513283
-0.018547621 0.092738099 1.0250001 9314362
-0.016595239 0.092738099 1.0250001 9116983
-0.014642859 0.092738099 1.0250001 9117242
-0.012690477 0.092738099 1.0250001 9051449
-0.010738096 0.092738099 1.0250001 8986158
-0.0087857144 0.092738099 1.0250001 8722986
-0.006833334 0.092738099 1.0250001 9049393
-0.0048952377 0.093009517 1.028 9180979
-0.002937143 0.093009517 1.028 9180968
-0.00097904762 0.093009517 1.028 9246761
0.00097904762 0.093009517 1.028 9378599
0.0029457142 0.093280949 1.031 9378599
0.0049238093 0.093552381 1.034 9773866
0.0069200005 0.093914293 1.0380001 10694968
0.0089228572 0.094185717 1.041 10170910
0.010905715 0.094185717 1.041 10894633
0.012888571 0.094185717 1.041 10967113
0.014871428 0.094185717 1.041 16758953
0.016854286 0.094185717 1.041 16241571
-0.072791435 0.096722864 1.0470001 16307121
-0.070797145 0.096722864 1.0470001 15125176
-0.068605714 0.096445717 1.044 9006427
-0.066425718 0.09616857 1.041 9059126
-0.064442858 0.09616857 1.041 7480094
-0.062280003 0.095891438 1.0380001 8331301
-0.060302865 0.095891438 1.0380001 8857645
-0.058100954 0.095521905 1.034 8659253
-0.05613143 0.095521905 1.034 8198702
-0.054004762 0.095244765 1.031 8722216
-0.051889524 0.094967619 1.028 8722216
-0.049785718 0.094690487 1.0250001 8787246
-0.047833338 0.094690487 1.0250001 8721453
-0.045746669 0.09441334 1.0220001 8917537
-0.0438 0.09441334 1.0220001 8983330
-0.041853335 0.09441334 1.0220001 8918050
-0.039906669 0.09441334 1.0220001 8983843
-0.03796 0.09441334 1.0220001 9115688
-0.036013335 0.09441334 1.0220001 9313067
-0.03406667 0.09441334 1.0220001 9181742
-0.032120001 0.09441334 1.0220001 9247535
-0.030173335 0.09441334 1.0220001 9446461
-0.028226668 0.09441334 1.0220001 10433356
-0.026280001 0.09441334 1.0220001 9448267
-0.024404764 0.094690487 1.0250001 8987716
-0.022452382 0.094690487 1.0250001 9380668
-0.020500001 0.094690487 1.0250001 9643840
-0.018547621 0.094690487 1.0250001 9380405
-0.016595239 0.094690487 1.0250001 9051440
-0.014642859 0.094690487 1.0250001 9182006
-0.012690477 0.094690487 1.0250001 8918834
-0.010738096 0.094690487 1.0250001 9181229
-0.0087857144 0.094690487 1.0250001 9115436
-0.006833334 0.094690487 1.0250001 9115688
-0.0048952377 0.094967619 1.028 8984102
-0.002937143 0.094967619 1.028 9180961
-0.00097904762 0.094967619 1.028 9575719
0.00097904762 0.094967619 1.028 9576983
0.0029457142 0.095244765 1.031 9445397
0.0049238093 0.095521905 1.034 9707566
0.0069200005 0.095891438 1.0380001 10760254
0.0089228572 0.09616857 1.041 10106385
0.010905715 0.09616857 1.041 10566936
0.012888571 0.09616857 1.041 11690584
0.014871428 0.09616857 1.041 16761271
0.016854286 0.09616857 1.041 16241580
-0.072582863 0.098434284 1.044 16438187
-0.070594288 0.098434284 1.044 15452858
-0.068605714 0.098434284 1.044 12689552
-0.066425718 0.098151423 1.041 9720958
-0.064442858 0.098151423 1.041 6760273
-0.062280003 0.097868577 1.0380001 8331562
-0.060302865 0.097868577 1.0380001 8528941
-0.058100954 0.097491436 1.034 8591413
-0.05613143 0.097491436 1.034 8525620
-0.054161906 0.097491436 1.034 8655914
-0.052040953 0.097208567 1.031 8787500
-0.049931429 0.096925713 1.028 9049393
-0.047833338 0.096642859 1.0250001 8917807
-0.045880955 0.096642859 1.0250001 8917287
-0.043928575 0.096642859 1.0250001 8983080
-0.041976195 0.096642859 1.0250001 8917537
-0.039906669 0.096360005 1.0220001 8851744
-0.03796 0.096360005 1.0220001 8982828
-0.036013335 0.096360005 1.0220001 9509172
-0.03406667 0.096360005 1.0220001 9182006
-0.032120001 0.096360005 1.0220001 9905729
-0.030173335 0.096360005 1.0220001 9712952
-0.028226668 0.096360005 1.0220001 10107710
-0.026280001 0.096360005 1.0220001 9910594
-0.024404764 0.096642859 1.0250001 9055285
-0.022452382 0.096642859 1.0250001 9445691
-0.020500001 0.096642859 1.0250001 9577277
-0.018547621 0.096642859 1.0250001 9379637
-0.016595239 0.096642859 1.0250001 9248051
-0.014642859 0.096642859 1.0250001 9379117
-0.012690477 0.096642859 1.0250001 8852773
-0.010738096 0.096642859 1.0250001 9115436
-0.0087857144 0.096642859 1.0250001 9181229
-0.006833334 0.096642859 1.0250001 9115175
-0.0048952377 0.096925713 1.028 9049382
-0.002937143 0.096925713 1.028 9245993
-0.00097904762 0.096925713 1.028 9574958
0.0009819048 0.097208567 1.031 9443085
0.0029542858 0.097491436 1.034 9706257
0.0049428577 0.097868577 1.0380001 9773105
0.0069400002 0.098151423 1.041 11286344
0.0089228572 0.098151423 1.041 10237973
0.010937143 0.098434284 1.044 11948591
0.012925714 0.098434284 1.044 12153194
0.014914286 0.098434284 1.044 16762816
0.016902858 0.098434284 1.044 16241319
-0.070594288 0.10042286 1.044 15518133
-0.068605714 0.10042286 1.044 13215378
-0.066425718 0.10013428 1.041 11631215
-0.064442858 0.10013428 1.041 7025705
-0.062459998 0.10013428 1.041 8663079
-0.060302865 0.099845722 1.0380001 8334114
-0.058325719 0.099845722 1.0380001 8591152
-0.05613143 0.099460959 1.034 8459566
-0.054161906 0.099460959 1.034 8590371
-0.052192383 0.099460959 1.034 8656164
-0.049931429 0.098883808 1.028 8917544
-0.047973335 0.098883808 1.028 8851751
-0.045880955 0.098595247 1.0250001 9048612
-0.043928575 0.098595247 1.0250001 9048612
-0.041976195 0.098595247 1.0250001 9048346
-0.040023815 0.098595247 1.0250001 8982553
-0.03796 0.098306671 1.0220001 8851485
-0.036013335 0.098306671 1.0220001 9509415
-0.03406667 0.098306671 1.0220001 9182519
-0.032120001 0.098306671 1.0220001 9972035
-0.030173335 0.098306671 1.0220001 9713481
-0.028226668 0.098306671 1.0220001 10174032
-0.026280001 0.098306671 1.0220001 10108241
-0.024404764 0.098595247 1.0250001 8858174
-0.022452382 0.098595247 1.0250001 9576771
-0.020500001 0.098595247 1.0250001 9708357
-0.018547621 0.098595247 1.0250001 9445687
-0.016595239 0.098595247 1.0250001 9511480
-0.014642859 0.098595247 1.0250001 9312822
-0.012690477 0.098595247 1.0250001 8918064
-0.010738096 0.098595247 1.0250001 9114925
-0.0088114282 0.098883808 1.028 9246511
-0.0068533332 0.098883808 1.028 9246761
-0.0048952377 0.098883808 1.028 9509933
-0.002937143 0.098883808 1.028 9444392
-0.0009819048 0.099172384 1.031 9312806
0.0009819048 0.099172384 1.031 9312526
0.0029542858 0.099460959 1.034 9641491
0.0049428577 0.099845722 1.0380001 10037028
0.0069400002 0.10013428 1.041 11089716
0.0089228572 0.10013428 1.041 10303005
0.010937143 0.10042286 1.044 11947830
0.012962858 0.10071143 1.0470001 12681080
0.014957144 0.10071143 1.0470001 16763587
0.016951431 0.10071143 1.0470001 16241060
-0.070594288 0.10241143 1.044 15387058
-0.068605714 0.10241143 1.044 13347475
-0.066617146 0.10241143 1.044 12227172
-0.064442858 0.10211714 1.041 6832146
-0.062459998 0.10211714 1.041 8530462
-0.060302865 0.10182287 1.0380001 8727841
-0.058325719 0.10182287 1.0380001 8790582
-0.056348577 0.10182287 1.0380001 8527410
-0.054161906 0.10143048 1.034 8853802
-0.052192383 0.10143048 1.034 8590630
-0.050077144 0.10113619 1.031 8917278
-0.047973335 0.10084191 1.028 8917278
-0.046015237 0.10084191 1.028 8918050
-0.043928575 0.10054763 1.0250001 8918050
-0.041976195 0.10054763 1.0250001 9048595
-0.040023815 0.10054763 1.0250001 9114388
-0.038071431 0.10054763 1.0250001 9048875
-0.036119051 0.10054763 1.0250001 9312047
-0.034166671 0.10054763 1.0250001 9312565
-0.032214291 0.10054763 1.0250001 9773116
-0.030261908 0.10054763 1.0250001 9908034
-0.028309526 0.10054763 1.0250001 10565964
-0.026357146 0.10054763 1.0250001 10172490
-0.024476191 0.10084191 1.028 8988216
-0.022452382 0.10054763 1.0250001 9707332
-0.020500001 0.10054763 1.0250001 9904711
-0.018547621 0.10054763 1.0250001 9577016
-0.016595239 0.10054763 1.0250001 9511223
-0.014642859 0.10054763 1.0250001 9313074
-0.012690477 0.10054763 1.0250001 9049902
-0.010738096 0.10054763 1.0250001 9049643
-0.0088114282 0.10084191 1.028 9115436
-0.0068533332 0.10084191 1.028 9180968
-0.0048952377 0.10084191 1.028 9378347
-0.002937143 0.10084191 1.028 9312806
-0.0009819048 0.10113619 1.031 9181220
0.0009819048 0.10113619 1.031 9443881
0.0029657145 0.10182287 1.0380001 10628155
0.0049428577 0.10182287 1.0380001 10237480
0.0069599999 0.10241143 1.044 10171687
0.008948571 0.10241143 1.044 10037782
0.010937143 0.10241143 1.044 12801088
0.012962858 0.10270572 1.0470001 13010558
0.014957144 0.10270572 1.0470001 16763843
0.016951431 0.10270572 1.0470001 16241060
-0.072999999 0.105 1.0500001 15911850
-0.070797145 0.10470001 1.0470001 15322035
-0.068802863 0.10470001 1.0470001 14203554
-0.066617146 0.1044 1.044 12360839
-0.064628571 0.1044 1.044 6373676
-0.062459998 0.1041 1.041 8267533
-0.060302865 0.10380001 1.0380001 8859670
-0.058325719 0.10380001 1.0380001 8923188
-0.056348577 0.10380001 1.0380001 8265258
-0.054161906 0.10340001 1.034 8853802
-0.052192383 0.10340001 1.034 8788009
-0.050077144 0.1031 1.031 8918818
-0.048113335 0.1031 1.031 8655646
-0.046015237 0.1028 1.028 8917544
-0.043928575 0.10250001 1.0250001 9180716
-0.041976195 0.10250001 1.0250001 9114655
-0.040023815 0.10250001 1.0250001 9246241
-0.038071431 0.10250001 1.0250001 9114668
-0.036119051 0.10250001 1.0250001 9246254
-0.034166671 0.10250001 1.0250001 9377847
-0.032214291 0.10250001 1.0250001 9706812
-0.030261908 0.10250001 1.0250001 9708620
-0.028309526 0.10250001 1.0250001 10827101
-0.026357146 0.10250001 1.0250001 10040143
-0.024476191 0.1028 1.028 8987455
-0.022452382 0.10250001 1.0250001 9772614
-0.020500001 0.10250001 1.0250001 9969993
-0.018601904 0.1028 1.028 9641276
-0.016643809 0.1028 1.028 9575483
-0.014685715 0.1028 1.028 9247029
-0.012727619 0.1028 1.028 8983857
-0.010769524 0.1028 1.028 9114918
-0.0088114282 0.1028 1.028 9180711
-0.0068533332 0.1028 1.028 9246511
-0.0048952377 0.1028 1.028 9312304
-0.0029457142 0.1031 1.031 9312556
-0.0009819048 0.1031 1.031 9246763
0.00098476198 0.10340001 1.034 9443881
0.0029657145 0.10380001 1.0380001 10825534
0.0049571428 0.1041 1.041 10501413
0.0069599999 0.1044 1.044 9777690
0.008948571 0.1044 1.044 9706759
0.010968572 0.10470001 1.0470001 13193788
0.012962858 0.10470001 1.0470001 13273977
0.014957144 0.10470001 1.0470001 16763576
0.016951431 0.10470001 1.0470001 16174493
-0.072999999 0.10700001 1.0500001 15846057
-0.071000002 0.10700001 1.0500001 15387055
-0.068802863 0.10669429 1.0470001 14531746
-0.066808574 0.10669429 1.0470001 13017231
-0.064628571 0.10638857 1.044 6569517
-0.062459998 0.10608286 1.041 8135688
-0.060477141 0.10608286 1.041 8662032
-0.058325719 0.10577715 1.0380001 8659503
-0.056348577 0.10577715 1.0380001 8396331
-0.054161906 0.10536952 1.034 8656171
-0.052192383 0.10536952 1.034 8524585
-0.050077144 0.10506381 1.031 8721189
-0.048113335 0.10506381 1.031 8721189
-0.046015237 0.1047581 1.028 8917035
-0.044057142 0.1047581 1.028 8982828
-0.042099047 0.1047581 1.028 9114405
-0.040023815 0.10445239 1.0250001 9114405
-0.038071431 0.10445239 1.0250001 9048360
-0.036119051 0.10445239 1.0250001 9179946
-0.034166671 0.10445239 1.0250001 9180216
-0.032214291 0.10445239 1.0250001 9640767
-0.030261908 0.10445239 1.0250001 9642062
-0.028309526 0.10445239 1.0250001 11221094
-0.026357146 0.10445239 1.0250001 10105422
-0.024476191 0.1047581 1.028 9118527
-0.022518095 0.1047581 1.028 9574220
-0.020559998 0.1047581 1.028 9508427
-0.018601904 0.1047581 1.028 9376827
-0.016643809 0.1047581 1.028 9376827
-0.014685715 0.1047581 1.028 9312817
-0.012727619 0.1047581 1.028 9049645
-0.010769524 0.1047581 1.028 9114655
-0.0088114282 0.1047581 1.028 9246241
-0.0068533332 0.1047581 1.028 9312043
-0.0049095238 0.10506381 1.031 9246250
-0.0029457142 0.10506381 1.031 9377586
-0.00098476198 0.10536952 1.034 9706551
0.00098857156 0.10577715 1.0380001 9574699
0.0029657145 0.10577715 1.0380001 11219524
0.0049571428 0.10608286 1.041 10567971
0.0069599999 0.10638857 1.044 9712662
0.008948571 0.10638857 1.044 9971989
0.010968572 0.10669429 1.0470001 13656397
0.012962858 0.10669429 1.0470001 13538682
0.014957144 0.10669429 1.0470001 16764595
0.017000001 0.10700001 1.0500001 16240797
0.019000001 0.10700001 1.0500001 15846039
-0.071000002 0.109 1.0500001 15255982
-0.069000006 0.109 1.0500001 15190189
-0.066808574 0.10868858 1.0470001 13018256
-0.064814284 0.10868858 1.0470001 6175784
-0.062640004 0.10837714 1.044 8334096
-0.060477141 0.10806572 1.041 8728854
-0.058494285 0.10806572 1.041 8462637
-0.056348577 0.1077543 1.0380001 8199465
-0.054371431 0.1077543 1.0380001 8656934
-0.052192383 0.10733905 1.034 8393762
-0.050222859 0.10733905 1.034 8786973
-0.048113335 0.10702762 1.031 8918559
-0.046149526 0.10702762 1.031 8917287
-0.044057142 0.10671619 1.028 8851494
-0.042099047 0.10671619 1.028 8983341
-0.040023815 0.10640477 1.0250001 9049134
-0.038071431 0.10640477 1.0250001 9048360
-0.036119051 0.10640477 1.0250001 9179946
-0.034166671 0.10640477 1.0250001 9113903
-0.032214291 0.10640477 1.0250001 9706040
-0.030261908 0.10640477 1.0250001 9510728
-0.028309526 0.10640477 1.0250001 11155553
-0.026357146 0.10640477 1.0250001 9577302
-0.024476191 0.10671619 1.028 9248337
-0.022518095 0.10671619 1.028 9575494
-0.020559998 0.10671619 1.028 9312322
-0.018601904 0.10671619 1.028 9377077
-0.016643809 0.10671619 1.028 9311284
-0.014685715 0.10671619 1.028 9312556
-0.012727619 0.10671619 1.028 9180970
-0.010769524 0.10671619 1.028 9246243
-0.0088114282 0.10671619 1.028 9246243
-0.0068533332 0.10671619 1.028 9311786
-0.0049095238 0.10702762 1.031 9180200
-0.0029542858 0.10733905 1.034 9573416
-0.00098476198 0.10733905 1.034 9507623
0.00098857156 0.1077543 1.0380001 9573649
0.0029742857 0.10806572 1.041 11942197
0.0049571428 0.10806572 1.041 10633769
0.0069599999 0.10837714 1.044 9515288
0.0089742858 0.10868858 1.0470001 10103064
0.010968572 0.10868858 1.0470001 13721679
0.012962858 0.10868858 1.0470001 13999483
0.014957144 0.10868858 1.0470001 16763817
0.017000001 0.109 1.0500001 16174747
0.019000001 0.109 1.0500001 15911575
-0.071000002 0.11100001 1.0500001 15387055
-0.069000006 0.11100001 1.0500001 15452848
-0.067000002 0.11100001 1.0500001 13806226
-0.064814284 0.11068286 1.0470001 6634789
-0.062820002 0.11068286 1.0470001 8201236
-0.060651429 0.11036572 1.044 8924959
-0.058494285 0.11004857 1.041 8528948
-0.056348577 0.10973144 1.0380001 8331569
-0.054371431 0.10973144 1.0380001 8525859
-0.052394293 0.10973144 1.0380001 8525859
-0.050222859 0.10930857 1.034 8853528
-0.048253331 0.10930857 1.034 8853528
-0.046149526 0.10899143 1.031 8982567
-0.044057142 0.10867429 1.028 9048360
-0.042099047 0.10867429 1.028 9114166
-0.040140949 0.10867429 1.028 9114166
-0.038182855 0.10867429 1.028 9114155
-0.03622476 0.10867429 1.028 9245741
-0.034266666 0.10867429 1.028 9179959
-0.032308571 0.10867429 1.028 9640510
-0.030350477 0.10867429 1.028 9777473
-0.028309526 0.10835715 1.0250001 11356505
-0.026357146 0.10835715 1.0250001 10634317
-0.024476191 0.10867429 1.028 8989492
-0.022518095 0.10867429 1.028 9772364
