# .PCD v0.7 - Point Cloud Data file format
VERSION 0.7
FIELDS x y z rgba
SIZE 4 4 4 4
TYPE F F F U
COUNT 1 1 1 1
WIDTH 1167
HEIGHT 1
VIEWPOINT 0 0 0 1 0 0 0
POINTS 1167
DATA ascii
0.020157143 0.032014288 1.245 11834772
0.022456191 0.031911429 1.2410001 10979463
0.02472 0.031782858 1.2360001 11963008
0.026986668 0.031680003 1.2320001 16042174
0.029333336 0.031680003 1.2320001 15388605
-0.062842853 0.034385715 1.245 16309436
-0.060471427 0.034385715 1.245 16243653
-0.0581 0.034385715 1.245 16243653
-0.05572857 0.034385715 1.245 16113359
-0.053571429 0.034523807 1.25 16047566
-0.051190477 0.034523807 1.25 15585223
-0.048809525 0.034523807 1.25 15519430
-0.046428572 0.034523807 1.25 15782091
-0.04404762 0.034523807 1.25 15189954
-0.041666668 0.034523807 1.25 14926271
-0.03944286 0.034661908 1.2550001 14399927
-0.037170477 0.034772381 1.2590001 13480635
-0.034772381 0.034772381 1.2590001 12559533
-0.032374285 0.034772381 1.2590001 12560058
-0.029976193 0.034772381 1.2590001 12889023
-0.027775237 0.035020951 1.268 12627139
-0.025359999 0.035020951 1.268 12890311
-0.022872381 0.034910478 1.2640001 12825024
-0.020464763 0.034910478 1.2640001 13022403
-0.018057143 0.034910478 1.2640001 13152969
-0.015649525 0.034910478 1.2640001 13152969
-0.013241905 0.034910478 1.2640001 13218753
-0.010834286 0.034910478 1.2640001 13218753
-0.0084266672 0.034910478 1.2640001 13020609
-0.0060190479 0.034910478 1.2640001 13020609
-0.0036114289 0.034910478 1.2640001 13151427
-0.0011990477 0.034772381 1.2590001 13085634
0.0011990477 0.034772381 1.2590001 12953528
0.0035857146 0.034661908 1.2550001 12887735
0.0059761908 0.034661908 1.2550001 12951988
0.0083666677 0.034661908 1.2550001 12951988
0.010757144 0.034661908 1.2550001 12886706
0.013095238 0.034523807 1.25 12689327
0.01547619 0.034523807 1.25 11834270
0.017785713 0.034385715 1.245 11702684
0.020092381 0.034275241 1.2410001 11636360
0.022365715 0.034137145 1.2360001 11110016
0.024640001 0.034026671 1.2320001 12290449
0.026877144 0.033888575 1.2270001 16435408
0.029214289 0.033888575 1.2270001 15718356
-0.062842853 0.036757145 1.245 16506779
-0.060471427 0.036757145 1.245 16374723
-0.0581 0.036757145 1.245 15979965
-0.05572857 0.036757145 1.245 16307380
-0.053571429 0.03690476 1.25 16373173
-0.051190477 0.03690476 1.25 15977401
-0.048809525 0.03690476 1.25 15977401
-0.046428572 0.03690476 1.25 15452617
-0.04404762 0.03690476 1.25 15123652
-0.041666668 0.03690476 1.25 14531774
-0.039285716 0.03690476 1.25 13347500
-0.037052382 0.037052382 1.2550001 13347250
-0.034772381 0.037170477 1.2590001 13215664
-0.032374285 0.037170477 1.2590001 13481146
-0.029976193 0.037170477 1.2590001 13546939
-0.027775237 0.037436187 1.268 13481160
-0.025359999 0.037436187 1.268 14139090
-0.022872381 0.037318096 1.2640001 13877696
-0.020464763 0.037318096 1.2640001 14009282
-0.018057143 0.037318096 1.2640001 13546957
-0.015649525 0.037318096 1.2640001 13415371
-0.013241905 0.037318096 1.2640001 13415358
-0.010834286 0.037318096 1.2640001 13481151
-0.0084266672 0.037318096 1.2640001 13151677
-0.0060190479 0.037318096 1.2640001 12954298
-0.0036114289 0.037318096 1.2640001 13084096
-0.0011990477 0.037170477 1.2590001 12820924
0.0011952382 0.037052382 1.2550001 12820152
0.0035857146 0.037052382 1.2550001 12754359
0.0059761908 0.037052382 1.2550001 12556208
0.0083666677 0.037052382 1.2550001 12490415
0.010757144 0.037052382 1.2550001 12228008
0.013095238 0.03690476 1.25 12030629
0.01547619 0.03690476 1.25 12686497
0.017785713 0.036757145 1.245 13739185
0.020011429 0.036491431 1.2360001 15122845
0.022202859 0.036225718 1.2270001 15714982
0.024460001 0.036107622 1.223 15518671
0.026701907 0.035989527 1.2190001 14926534
0.029023811 0.035989527 1.2190001 13218173
-0.060471427 0.039128572 1.245 16307647
-0.0581 0.039128572 1.245 16307647
-0.05572857 0.039128572 1.245 16308157
-0.053571429 0.039285716 1.25 16308157
-0.051190477 0.039285716 1.25 16043971
-0.048809525 0.039285716 1.25 15978178
-0.046428572 0.039285716 1.25 15189186
-0.04404762 0.039285716 1.25 14597049
-0.041666668 0.039285716 1.25 14267319
-0.039285716 0.039285716 1.25 13543596
-0.037052382 0.03944286 1.2550001 13609648
-0.034772381 0.039568573 1.2590001 13675441
-0.032374285 0.039568573 1.2590001 14005952
-0.029976193 0.039568573 1.2590001 13808573
-0.027687619 0.039725717 1.2640001 13480383
-0.025280001 0.039725717 1.2640001 13480383
-0.022872381 0.039725717 1.2640001 13349308
-0.020464763 0.039725717 1.2640001 13283515
-0.018057143 0.039725717 1.2640001 13348288
-0.015649525 0.039725717 1.2640001 12953530
-0.013241905 0.039725717 1.2640001 13084850
-0.010834286 0.039725717 1.2640001 13019057
-0.0084266672 0.039725717 1.2640001 12886958
-0.0059952382 0.039568573 1.2590001 13018544
-0.0035971431 0.039568573 1.2590001 13018796
-0.0011990477 0.039568573 1.2590001 12953003
0.0011952382 0.03944286 1.2550001 12951218
0.0035857146 0.03944286 1.2550001 12819632
0.0059761908 0.03944286 1.2550001 12555942
0.0083666677 0.03944286 1.2550001 12687528
0.010757144 0.03944286 1.2550001 12425378
0.013095238 0.039285716 1.25 13017515
0.01547619 0.039285716 1.25 14462388
0.017728573 0.039002858 1.2410001 15449283
0.019655241 0.038154289 1.2140001 16307667
0.021895239 0.038028572 1.21 16110288
0.0242 0.038028572 1.21 15915735
0.026504762 0.038028572 1.21 13744566
0.028904764 0.038154289 1.2140001 9537659
0.031217147 0.038154289 1.2140001 7695455
-0.060471427 0.041499998 1.245 14723726
-0.0581 0.041499998 1.245 16171172
-0.05572857 0.041499998 1.245 16240545
-0.053571429 0.041666668 1.25 16503717
-0.051190477 0.041666668 1.25 16307658
-0.048809525 0.041666668 1.25 16439244
-0.046428572 0.041666668 1.25 15979983
-0.04404762 0.041666668 1.25 14466744
-0.041666668 0.041666668 1.25 14138038
-0.039285716 0.041666668 1.25 13282729
-0.03690476 0.041666668 1.25 13543855
-0.034661908 0.041833337 1.2550001 13149097
-0.032374285 0.041966669 1.2590001 13279922
-0.029976193 0.041966669 1.2590001 13082543
-0.027687619 0.042133335 1.2640001 12886195
-0.025280001 0.042133335 1.2640001 12754609
-0.022872381 0.042133335 1.2640001 12885943
-0.020464763 0.042133335 1.2640001 12885943
-0.018057143 0.042133335 1.2640001 13148088
-0.015649525 0.042133335 1.2640001 13082295
-0.013241905 0.042133335 1.2640001 13739698
-0.010834286 0.042133335 1.2640001 13739698
-0.0084266672 0.042133335 1.2640001 13808301
-0.0059952382 0.041966669 1.2590001 14005680
-0.0035971431 0.041966669 1.2590001 14533039
-0.0011990477 0.041966669 1.2590001 14862004
0.0011952382 0.041833337 1.2550001 15124947
0.0035857146 0.041833337 1.2550001 15453912
0.0059761908 0.041833337 1.2550001 15849424
0.0083666677 0.041833337 1.2550001 16441561
0.010757144 0.041833337 1.2550001 16376277
0.013095238 0.041666668 1.25 16310484
0.01547619 0.041666668 1.25 15253451
0.017728573 0.041366667 1.2410001 15056072
0.019460952 0.040066667 1.202 12943795
0.021750478 0.040066667 1.202 10377868
0.024040001 0.040066667 1.202 10313537
0.026329523 0.040066667 1.202 10971467
0.028714286 0.040200002 1.2060001 9006702
0.031217147 0.04046667 1.2140001 8546151
-0.062699996 0.042180002 1.197 7816733
-0.060420003 0.042180002 1.197 9658937
-0.058139998 0.042180002 1.197 11368285
-0.058333334 0.04404762 1.25 14197384
-0.055952381 0.04404762 1.25 14135439
-0.053571429 0.04404762 1.25 16372401
-0.051190477 0.04404762 1.25 16309198
-0.048809525 0.04404762 1.25 16572370
-0.046428572 0.04404762 1.25 16243928
-0.04404762 0.04404762 1.25 14335931
-0.041666668 0.04404762 1.25 13678273
-0.039285716 0.04404762 1.25 13546687
-0.03690476 0.04404762 1.25 14004408
-0.034661908 0.044223815 1.2550001 13675443
-0.032374285 0.044364765 1.2590001 13609398
-0.029976193 0.044364765 1.2590001 13806777
-0.027687619 0.044540953 1.2640001 13676213
-0.025280001 0.044540953 1.2640001 13610420
-0.022872381 0.044540953 1.2640001 13610172
-0.020464763 0.044540953 1.2640001 13610172
-0.017985715 0.044364765 1.2590001 14660550
-0.01558762 0.044364765 1.2590001 14857929
-0.013241905 0.044540953 1.2640001 15252676
-0.010791428 0.044364765 1.2590001 15384262
-0.0083933342 0.044364765 1.2590001 15123661
-0.0059952382 0.044364765 1.2590001 14926282
-0.0035971431 0.044364765 1.2590001 14993861
-0.0011990477 0.044364765 1.2590001 15125447
0.0011952382 0.044223815 1.2550001 15650773
0.0035857146 0.044223815 1.2550001 15848152
0.0059761908 0.044223815 1.2550001 16375516
0.0078199999 0.04133429 1.1730001 16046551
0.010054287 0.04133429 1.1730001 15716559
0.012288572 0.04133429 1.1730001 14795457
0.014572381 0.04147524 1.177 14134706
0.016928572 0.041757144 1.1850001 12621467
0.019250475 0.041898094 1.189 9590601
0.02158762 0.042039048 1.1930001 8801085
0.023860002 0.042039048 1.1930001 9784876
0.026132382 0.042039048 1.1930001 10903357
0.028714286 0.042497143 1.2060001 9071993
-0.062490482 0.04431143 1.1930001 8870996
-0.060016192 0.044162858 1.189 4660244
-0.057751428 0.044162858 1.189 6686976
-0.055300001 0.04401429 1.1850001 6752768
-0.052863814 0.043865718 1.1810001 7671040
-0.05044286 0.043717142 1.177 10039581
-0.048037145 0.043568578 1.1730001 9977959
-0.045802858 0.043568578 1.1730001 13267609
-0.043568578 0.043568578 1.1730001 12290167
-0.04133429 0.043568578 1.1730001 12750718
-0.039100002 0.043568578 1.1730001 12818096
-0.036865719 0.043568578 1.1730001 13476026
-0.034631431 0.043568578 1.1730001 13739948
-0.032507621 0.043717142 1.177 13739948
-0.030265715 0.043717142 1.177 14268593
-0.029880956 0.046614289 1.2550001 14531765
-0.027578095 0.046762858 1.2590001 14400190
-0.025180001 0.046762858 1.2590001 14465983
-0.022781907 0.046762858 1.2590001 14268359
-0.020383811 0.046762858 1.2590001 14202566
-0.017985715 0.046762858 1.2590001 14530257
-0.01558762 0.046762858 1.2590001 14464464
-0.013189524 0.046762858 1.2590001 14594996
-0.010791428 0.046762858 1.2590001 14397617
-0.0083933342 0.046762858 1.2590001 14134970
-0.0059952382 0.046762858 1.2590001 13082282
-0.0035971431 0.046762858 1.2590001 12359324
-0.0011990477 0.046762858 1.2590001 11767187
0.0011133334 0.043419998 1.169 9652379
0.0033399998 0.043419998 1.169 8599691
0.0055857147 0.043568578 1.1730001 8590389
0.0078199999 0.043568578 1.1730001 7471908
0.010054287 0.043568578 1.1730001 7408128
0.012288572 0.043568578 1.1730001 7342336
0.014572381 0.043717142 1.177 7801600
0.01687143 0.043865718 1.1810001 7801600
0.019185714 0.04401429 1.1850001 8588032
0.021515237 0.044162858 1.189 12930366
0.023779999 0.044162858 1.189 10907221
0.026044762 0.044162858 1.189 11762530
0.0285 0.044460002 1.197 9204867
-0.062490482 0.046583813 1.1930001 9069415
-0.060016192 0.046427619 1.189 5319214
-0.057751428 0.046427619 1.189 6752768
-0.055300001 0.046271432 1.1850001 6621184
-0.052863814 0.046115242 1.1810001 5900288
-0.05044286 0.045959052 1.177 5768704
-0.048037145 0.045802858 1.1730001 6031616
-0.045802858 0.045802858 1.1730001 6426368
-0.043568578 0.045802858 1.1730001 8000261
-0.04133429 0.045802858 1.1730001 9118742
-0.039100002 0.045802858 1.1730001 11166317
-0.036865719 0.045802858 1.1730001 12416384
-0.034631431 0.045802858 1.1730001 11567750
-0.032397144 0.045802858 1.1730001 12028301
-0.030265715 0.045959052 1.177 12489368
-0.028023811 0.045959052 1.177 12555161
-0.025694286 0.045802858 1.1730001 12490133
-0.023460001 0.045802858 1.1730001 12687512
-0.021225717 0.045802858 1.1730001 12556964
-0.018926667 0.045646667 1.169 12622757
-0.0167 0.045646667 1.169 12557741
-0.014473334 0.045646667 1.169 12097190
-0.012246666 0.045646667 1.169 12030357
-0.010054287 0.045802858 1.1730001 12096150
-0.0077933338 0.045646667 1.169 10779277
-0.0055666668 0.045646667 1.169 8542315
-0.0033514288 0.045802858 1.1730001 8535621
-0.001117143 0.045802858 1.1730001 5706522
0.0011133334 0.045646667 1.169 7342592
0.0033399998 0.045646667 1.169 7276800
0.0055857147 0.045802858 1.1730001 7277056
0.0078199999 0.045802858 1.1730001 7408640
0.010088571 0.045959052 1.177 7866880
0.012330476 0.045959052 1.177 8064256
0.014572381 0.045959052 1.177 8784640
0.01687143 0.046115242 1.1810001 8916224
0.019185714 0.046271432 1.1850001 9443328
0.021515237 0.046427619 1.189 13654071
0.023779999 0.046427619 1.189 10645078
0.026044762 0.046427619 1.189 10645078
0.028309524 0.046427619 1.189 8612730
0.030780001 0.046739999 1.197 8283765
-0.062490482 0.048856195 1.1930001 9332333
-0.060016192 0.048692379 1.189 7095371
-0.057751428 0.048692379 1.189 7608616
-0.055300001 0.048528574 1.1850001 7542823
-0.053042859 0.048528574 1.1850001 7410730
-0.05044286 0.048200954 1.177 6687007
-0.048200954 0.048200954 1.177 6818048
-0.045802858 0.048037145 1.1730001 6883840
-0.043568578 0.048037145 1.1730001 7145728
-0.04133429 0.048037145 1.1730001 7079936
-0.039100002 0.048037145 1.1730001 6949120
-0.036865719 0.048037145 1.1730001 7014912
-0.034631431 0.048037145 1.1730001 6686976
-0.032397144 0.048037145 1.1730001 6555392
-0.03016286 0.048037145 1.1730001 6621440
-0.027928574 0.048037145 1.1730001 6555648
-0.025694286 0.048037145 1.1730001 6424832
-0.023460001 0.048037145 1.1730001 6556416
-0.021225717 0.048037145 1.1730001 6490368
-0.018926667 0.047873333 1.169 6424576
-0.0167 0.047873333 1.169 6293760
-0.014473334 0.047873333 1.169 6096384
-0.012246666 0.047873333 1.169 6359040
-0.010054287 0.048037145 1.1730001 6622208
-0.0077933338 0.047873333 1.169 6621440
-0.0055666668 0.047873333 1.169 6489856
-0.0033514288 0.048037145 1.1730001 6686720
-0.001117143 0.048037145 1.1730001 6752512
0.001117143 0.048037145 1.1730001 7408128
0.0033628573 0.048200954 1.177 7737088
0.0056047621 0.048200954 1.177 8457737
0.0078466665 0.048200954 1.177 8720909
0.010122858 0.048364766 1.1810001 9311273
0.012372382 0.048364766 1.1810001 10495547
0.014621906 0.048364766 1.1810001 9906982
0.016928572 0.048528574 1.1850001 10235947
0.019185714 0.048528574 1.1850001 10236962
0.021515237 0.048692379 1.189 13131854
0.023779999 0.048692379 1.189 11236427
0.026044762 0.048692379 1.189 10775876
0.028309524 0.048692379 1.189 9531256
0.030780001 0.04902 1.197 9004912
-0.062699996 0.0513 1.197 9002893
-0.0602181 0.051128577 1.1930001 6700138
-0.057945717 0.051128577 1.1930001 7739924
-0.055486668 0.050957143 1.189 7608338
-0.053042859 0.050785717 1.1850001 7542055
-0.05061429 0.05061429 1.1810001 7410469
-0.048200954 0.05044286 1.177 7475980
-0.045959052 0.05044286 1.177 7410187
-0.043717142 0.05044286 1.177 7539976
-0.04147524 0.05044286 1.177 7342597
-0.039100002 0.050271433 1.1730001 7342592
-0.036865719 0.050271433 1.1730001 7342592
-0.034631431 0.050271433 1.1730001 7277056
-0.032397144 0.050271433 1.1730001 7277056
-0.03016286 0.050271433 1.1730001 7277056
-0.027928574 0.050271433 1.1730001 7342848
-0.025694286 0.050271433 1.1730001 7277056
-0.023460001 0.050271433 1.1730001 7474432
-0.021225717 0.050271433 1.1730001 7604992
-0.018991429 0.050271433 1.1730001 7670785
-0.0167 0.050099999 1.169 7604509
-0.014473334 0.050099999 1.169 7407130
-0.012288572 0.050271433 1.1730001 7342336
-0.010054287 0.050271433 1.1730001 7473920
-0.0078199999 0.050271433 1.1730001 7670274
-0.0055857147 0.050271433 1.1730001 7867653
-0.0033628573 0.05044286 1.177 8064531
-0.0011209524 0.05044286 1.177 8327703
0.0011209524 0.05044286 1.177 8590608
0.0033628573 0.05044286 1.177 8656401
0.0056047621 0.05044286 1.177 8918290
0.007873334 0.05061429 1.1810001 8786704
0.010122858 0.05061429 1.1810001 9376291
0.012372382 0.05061429 1.1810001 10692151
0.014671429 0.050785717 1.1850001 10037791
0.016928572 0.050785717 1.1850001 10169377
0.019185714 0.050785717 1.1850001 10629921
0.021515237 0.050957143 1.189 14577501
0.023779999 0.050957143 1.189 12025961
0.026044762 0.050957143 1.189 12091754
0.028309524 0.050957143 1.189 11702120
-0.062699996 0.053580001 1.197 14203302
-0.0602181 0.053400956 1.1930001 7887174
-0.057945717 0.053400956 1.1930001 7343902
-0.055486668 0.053221904 1.189 8659762
-0.053042859 0.053042859 1.1850001 8004396
-0.050785717 0.053042859 1.1850001 7280673
-0.048364766 0.052863814 1.1810001 7934492
-0.045959052 0.052684762 1.177 8066078
-0.043717142 0.052684762 1.177 8001048
-0.04147524 0.052684762 1.177 8066841
-0.039233334 0.052684762 1.177 8197659
-0.036865719 0.052505717 1.1730001 8263452
-0.034631431 0.052505717 1.1730001 8197659
-0.032507621 0.052684762 1.177 8197659
-0.030265715 0.052684762 1.177 8197916
-0.028023811 0.052684762 1.177 8066330
-0.025781905 0.052684762 1.177 8460077
-0.023460001 0.052505717 1.1730001 9973316
-0.021225717 0.052505717 1.1730001 9319729
-0.018991429 0.052505717 1.1730001 9846073
-0.016757144 0.052505717 1.1730001 9386578
-0.014522858 0.052505717 1.1730001 7675960
-0.012288572 0.052505717 1.1730001 8198165
-0.010088571 0.052684762 1.177 8395544
-0.0078466665 0.052684762 1.177 8525859
-0.0056047621 0.052684762 1.177 8525859
-0.0033628573 0.052684762 1.177 8590884
-0.0011209524 0.052684762 1.177 8590884
0.0011209524 0.052684762 1.177 8853528
0.003374286 0.052863814 1.1810001 9116700
0.00562381 0.052863814 1.1810001 9116441
0.007873334 0.052863814 1.1810001 8984855
0.010122858 0.052863814 1.1810001 9574436
0.012414286 0.053042859 1.1850001 11153468
0.014671429 0.053042859 1.1850001 10631457
0.016928572 0.053042859 1.1850001 10499871
0.019250475 0.053221904 1.189 10499096
0.021515237 0.053221904 1.189 14117711
0.023779999 0.053221904 1.189 14132323
0.026044762 0.053221904 1.189 16566664
0.028309524 0.053221904 1.189 15912597
0.030574286 0.053221904 1.189 15649425
-0.062699996 0.055859998 1.197 15782877
-0.060420003 0.055859998 1.197 8085096
-0.058139998 0.055859998 1.197 7807754
-0.055673338 0.055673338 1.1930001 8399891
-0.053221904 0.055486668 1.189 8662060
-0.050785717 0.055300001 1.1850001 7609372
-0.048364766 0.055113338 1.1810001 8131866
-0.046115242 0.055113338 1.1810001 8197659
-0.043717142 0.054926671 1.177 8196633
-0.04147524 0.054926671 1.177 8328219
-0.039233334 0.054926671 1.177 8262941
-0.036991432 0.054926671 1.177 8262941
-0.034749523 0.054926671 1.177 8131110
-0.032507621 0.054926671 1.177 7933731
-0.030265715 0.054926671 1.177 8065558
-0.028023811 0.054926671 1.177 8197144
-0.025781905 0.054926671 1.177 8395047
-0.023540001 0.054926671 1.177 9645114
-0.021298096 0.054926671 1.177 9385009
-0.019056192 0.054926671 1.177 10042939
-0.016757144 0.054740004 1.1730001 9385547
-0.014522858 0.054740004 1.1730001 7609136
-0.012330476 0.054926671 1.177 8329761
-0.010088571 0.054926671 1.177 8461347
-0.0078466665 0.054926671 1.177 8591645
-0.0056047621 0.054926671 1.177 8591645
-0.0033628573 0.054926671 1.177 8722456
-0.001124762 0.055113338 1.1810001 8854042
0.001124762 0.055113338 1.1810001 8854548
0.003374286 0.055113338 1.1810001 9051927
0.00562381 0.055113338 1.1810001 9182734
0.007873334 0.055113338 1.1810001 8853769
0.010122858 0.055113338 1.1810001 9707034
0.012414286 0.055300001 1.1850001 11154480
0.014720952 0.055486668 1.189 10630955
0.016985714 0.055486668 1.189 10367783
0.019250475 0.055486668 1.189 10564880
0.021515237 0.055486668 1.189 15170390
0.023779999 0.055486668 1.189 14328448
0.026044762 0.055486668 1.189 16696996
0.028309524 0.055486668 1.189 16108945
-0.062699996 0.058139998 1.197 15848904
-0.060420003 0.058139998 1.197 8414295
-0.058139998 0.058139998 1.197 7214362
-0.055673338 0.057945717 1.1930001 7806499
-0.053221904 0.057751428 1.189 8067860
-0.050957143 0.057751428 1.189 8133653
-0.048528574 0.057557143 1.1850001 8262435
-0.046115242 0.057362862 1.1810001 8196642
-0.043865718 0.057362862 1.1810001 8262418
-0.041616194 0.057362862 1.1810001 8328211
-0.039233334 0.057168569 1.177 8458269
-0.036991432 0.057168569 1.177 8458269
-0.034749523 0.057168569 1.177 8327215
-0.032507621 0.057168569 1.177 8195629
-0.030265715 0.057168569 1.177 8065047
-0.028023811 0.057168569 1.177 8328219
-0.025869526 0.057362862 1.1810001 8395047
-0.023540001 0.057168569 1.177 9184563
-0.021298096 0.057168569 1.177 9252902
-0.019056192 0.057168569 1.177 9581867
-0.016814286 0.057168569 1.177 9187370
-0.014572381 0.057168569 1.177 8134682
-0.012330476 0.057168569 1.177 8526890
-0.010088571 0.057168569 1.177 8461097
-0.0078466665 0.057168569 1.177 8657184
-0.0056047621 0.057168569 1.177 8525598
-0.003374286 0.057362862 1.1810001 8787735
-0.001124762 0.057362862 1.1810001 8787735
0.001124762 0.057362862 1.1810001 8983570
0.003374286 0.057362862 1.1810001 9246742
0.00562381 0.057362862 1.1810001 9444873
0.007873334 0.057362862 1.1810001 9313287
0.010157144 0.057557143 1.1850001 9639444
0.012456191 0.057751428 1.189 9968409
0.014720952 0.057751428 1.189 10164783
0.016985714 0.057751428 1.189 10756920
0.019315239 0.057945717 1.1930001 10432522
0.02158762 0.057945717 1.1930001 15432790
0.023779999 0.057751428 1.189 14327921
0.026044762 0.057751428 1.189 16367504
0.028309524 0.057751428 1.189 16041344
-0.058139998 0.060420003 1.197 8660767
-0.055859998 0.060420003 1.197 7542286
-0.053400956 0.0602181 1.1930001 7737600
-0.050957143 0.060016192 1.189 8066565
-0.048692379 0.060016192 1.189 8327708
-0.046427619 0.060016192 1.189 8327708
-0.04401429 0.059814289 1.1850001 8459022
-0.041616194 0.059612386 1.1810001 8393229
-0.03936667 0.059612386 1.1810001 8588822
-0.037117146 0.059612386 1.1810001 8720408
-0.034867622 0.059612386 1.1810001 8589099
-0.032618098 0.059612386 1.1810001 8523306
-0.030265715 0.059410479 1.177 8328211
-0.028023811 0.059410479 1.177 8525590
-0.025869526 0.059612386 1.1810001 8658721
-0.023620002 0.059612386 1.1810001 9250858
-0.021370478 0.059612386 1.1810001 9055527
-0.019056192 0.059410479 1.177 8923941
-0.016814286 0.059410479 1.177 8921902
-0.014572381 0.059410479 1.177 8658730
-0.012330476 0.059410479 1.177 8789290
-0.010088571 0.059410479 1.177 8591911
-0.0078466665 0.059410479 1.177 8722720
-0.0056047621 0.059410479 1.177 8656927
-0.003374286 0.059612386 1.1810001 8787735
-0.001124762 0.059612386 1.1810001 8721942
0.001124762 0.059612386 1.1810001 9049622
0.003374286 0.059612386 1.1810001 9247001
0.00562381 0.059612386 1.1810001 9378569
0.007873334 0.059612386 1.1810001 9378569
0.010157144 0.059814289 1.1850001 9836049
0.012456191 0.060016192 1.189 10033428
0.014770477 0.0602181 1.1930001 10098944
0.017042857 0.0602181 1.1930001 10822667
0.019315239 0.0602181 1.1930001 10368525
0.02158762 0.0602181 1.1930001 15763551
0.023860002 0.0602181 1.1930001 14394230
0.026132382 0.0602181 1.1930001 16368020
-0.060420003 0.062699996 1.197 12559758
-0.058139998 0.062699996 1.197 9523822
-0.055859998 0.062699996 1.197 5971000
-0.053400956 0.062490482 1.1930001 7670543
-0.051128577 0.062490482 1.1930001 8065301
-0.048692379 0.062280957 1.189 8262418
-0.046427619 0.062280957 1.189 8262418
-0.044162858 0.062280957 1.189 8327684
-0.041757144 0.062071431 1.1850001 8327684
-0.03936667 0.061861914 1.1810001 8458260
-0.037117146 0.061861914 1.1810001 8524053
-0.034867622 0.061861914 1.1810001 8392740
-0.032618098 0.061861914 1.1810001 8392740
-0.030368574 0.061861914 1.1810001 8327708
-0.02811905 0.061861914 1.1810001 8590880
-0.025869526 0.061861914 1.1810001 8658711
-0.023620002 0.061861914 1.1810001 8987676
-0.021370478 0.061861914 1.1810001 8855083
-0.019120954 0.061861914 1.1810001 8986669
-0.01687143 0.061861914 1.1810001 8856359
-0.014621906 0.061861914 1.1810001 8724773
-0.012372382 0.061861914 1.1810001 8855589
-0.010122858 0.061861914 1.1810001 8724003
-0.007873334 0.061861914 1.1810001 8723490
-0.00562381 0.061861914 1.1810001 8657697
-0.003374286 0.061861914 1.1810001 8787222
-0.001124762 0.061861914 1.1810001 8721429
0.001124762 0.061861914 1.1810001 9049093
0.0033857145 0.062071431 1.1850001 9049093
0.0056428574 0.062071431 1.1850001 9310729
0.0078999996 0.062071431 1.1850001 9508108
0.010157144 0.062071431 1.1850001 9771030
0.012498097 0.062490482 1.1930001 10626339
0.014770477 0.062490482 1.1930001 10430214
0.017042857 0.062490482 1.1930001 10824972
0.019315239 0.062490482 1.1930001 10697250
0.02166 0.062699996 1.197 16355448
0.023940001 0.062699996 1.197 14789499
0.026219999 0.062699996 1.197 16434324
0.0285 0.062699996 1.197 16041601
-0.06067238 0.065251425 1.202 13085330
-0.058382858 0.065251425 1.202 11828601
-0.055859998 0.06498 1.197 5775645
-0.053400956 0.064762861 1.1930001 8066050
-0.051128577 0.064762861 1.1930001 8263429
-0.048856195 0.064762861 1.1930001 8328471
-0.046583813 0.064762861 1.1930001 8394264
-0.044162858 0.064545713 1.189 8328974
-0.041898094 0.064545713 1.189 8197388
-0.039500002 0.064328574 1.1850001 8459546
-0.03724286 0.064328574 1.1850001 8459546
-0.034867622 0.064111434 1.1810001 8458269
-0.032618098 0.064111434 1.1810001 8458269
-0.030368574 0.064111434 1.1810001 8394264
-0.02811905 0.064111434 1.1810001 8460057
-0.025869526 0.064111434 1.1810001 8525859
-0.023620002 0.064111434 1.1810001 8920617
-0.021370478 0.064111434 1.1810001 8724771
-0.019120954 0.064111434 1.1810001 8724771
-0.01687143 0.064111434 1.1810001 8855083
-0.014621906 0.064111434 1.1810001 8855083
-0.012372382 0.064111434 1.1810001 8855589
-0.010122858 0.064111434 1.1810001 8658210
-0.007873334 0.064111434 1.1810001 8724003
-0.00562381 0.064111434 1.1810001 8329245
-0.003374286 0.064111434 1.1810001 8656414
-0.001124762 0.064111434 1.1810001 8590621
0.001124762 0.064111434 1.1810001 9179927
0.0033857145 0.064328574 1.1850001 9179927
0.0056428574 0.064328574 1.1850001 9441795
0.0078999996 0.064328574 1.1850001 9639174
0.010157144 0.064328574 1.1850001 9771793
0.012498097 0.064762861 1.1930001 10758688
0.014770477 0.064762861 1.1930001 10497293
0.017099999 0.06498 1.197 10497293
0.019380001 0.06498 1.197 11092008
0.02166 0.06498 1.197 16750206
0.023940001 0.06498 1.197 15118975
0.026219999 0.06498 1.197 16303249
0.0285 0.06498 1.197 16107137
-0.06067238 0.067540951 1.202 13611668
-0.058382858 0.067540951 1.202 12620926
-0.055859998 0.067259997 1.197 5581075
-0.053580001 0.067259997 1.197 7802624
-0.051128577 0.067035235 1.1930001 8526342
-0.048856195 0.067035235 1.1930001 8460066
-0.046583813 0.067035235 1.1930001 8525859
-0.044162858 0.066810474 1.189 8460057
-0.041898094 0.066810474 1.189 8394264
-0.039500002 0.066585712 1.1850001 8459546
-0.03724286 0.066585712 1.1850001 8459546
-0.034867622 0.066360958 1.1810001 8459546
-0.032618098 0.066360958 1.1810001 8262167
-0.030368574 0.066360958 1.1810001 8393494
-0.02811905 0.066360958 1.1810001 8525080
-0.025869526 0.066360958 1.1810001 8394023
-0.023620002 0.066360958 1.1810001 8722988
-0.021370478 0.066360958 1.1810001 8855589
-0.019120954 0.066360958 1.1810001 8855589
-0.01687143 0.066360958 1.1810001 8855596
-0.014621906 0.066360958 1.1810001 8855596
-0.012372382 0.066360958 1.1810001 8855589
-0.010122858 0.066360958 1.1810001 8592417
-0.007873334 0.066360958 1.1810001 8656423
-0.00562381 0.066360958 1.1810001 8590630
-0.003374286 0.066360958 1.1810001 8982810
-0.001124762 0.066360958 1.1810001 9048603
0.0011285715 0.066585712 1.1850001 9244957
0.0033857145 0.066585712 1.1850001 9508129
0.0056428574 0.066585712 1.1850001 9773572
0.0078999996 0.066585712 1.1850001 9839365
0.010191428 0.066810474 1.189 9970458
0.012498097 0.067035235 1.1930001 10957353
0.014770477 0.067035235 1.1930001 10563856
0.017099999 0.067259997 1.197 10827028
0.019380001 0.067259997 1.197 10961185
0.02166 0.067259997 1.197 16751740
0.023940001 0.067259997 1.197 15646586
0.026219999 0.067259997 1.197 16172930
-0.060420003 0.069539994 1.197 14204321
-0.058139998 0.069539994 1.197 12689034
-0.055859998 0.069539994 1.197 5320218
-0.053580001 0.069539994 1.197 7737088
-0.0513 0.069539994 1.197 8723975
-0.048856195 0.069307618 1.1930001 8460570
-0.046583813 0.069307618 1.1930001 8197398
-0.04431143 0.069307618 1.1930001 8328211
-0.041898094 0.069075234 1.189 8525590
-0.039633334 0.069075234 1.189 8525329
-0.03724286 0.068842858 1.1850001 8459536
-0.034985714 0.068842858 1.1850001 8590608
-0.032618098 0.068610482 1.1810001 8393229
-0.030368574 0.068610482 1.1810001 8457996
-0.02811905 0.068610482 1.1810001 8457996
-0.025869526 0.068610482 1.1810001 8655394
-0.023620002 0.068610482 1.1810001 9313324
-0.021370478 0.068610482 1.1810001 8855589
-0.019120954 0.068610482 1.1810001 8855589
-0.01687143 0.068610482 1.1810001 8790832
-0.014621906 0.068610482 1.1810001 8659246
-0.012372382 0.068610482 1.1810001 8855083
-0.010122858 0.068610482 1.1810001 8920876
-0.007873334 0.068610482 1.1810001 8787752
-0.00562381 0.068610482 1.1810001 8656166
-0.003374286 0.068610482 1.1810001 9048355
-0.001124762 0.068610482 1.1810001 8916769
0.0011285715 0.068842858 1.1850001 9375769
0.0033857145 0.068842858 1.1850001 9573148
0.0056428574 0.068842858 1.1850001 9837586
0.0078999996 0.068842858 1.1850001 9969172
0.010191428 0.069075234 1.189 10100506
0.012498097 0.069307618 1.1930001 10955815
0.014770477 0.069307618 1.1930001 10628881
0.017042857 0.069307618 1.1930001 10892053
0.019380001 0.069539994 1.197 10960676
0.02166 0.069539994 1.197 16751488
0.023940001 0.069539994 1.197 15777418
0.026219999 0.069539994 1.197 16172176
-0.058382858 0.072119996 1.202 13016706
-0.056093335 0.072119996 1.202 5582097
-0.053580001 0.071820006 1.197 7605760
-0.0513 0.071820006 1.197 8395269
-0.04902 0.071820006 1.197 8262178
-0.046583813 0.07158 1.1930001 8262178
-0.04431143 0.07158 1.1930001 8328471
-0.042039048 0.07158 1.1930001 8460057
-0.039633334 0.071339995 1.189 8459536
-0.03736857 0.071339995 1.189 8459536
-0.034985714 0.071100004 1.1850001 8590608
-0.032618098 0.070860006 1.1810001 8524815
-0.030368574 0.070860006 1.1810001 8459013
-0.02811905 0.070860006 1.1810001 8459013
-0.025869526 0.070860006 1.1810001 8656164
-0.023620002 0.070860006 1.1810001 9379887
-0.021370478 0.070860006 1.1810001 8921378
-0.019120954 0.070860006 1.1810001 8855585
-0.01687143 0.070860006 1.1810001 8920369
-0.014621906 0.070860006 1.1810001 8986162
-0.012372382 0.070860006 1.1810001 8920871
-0.010122858 0.070860006 1.1810001 8789285
-0.007873334 0.070860006 1.1810001 8917287
-0.00562381 0.070860006 1.1810001 8917287
-0.003374286 0.070860006 1.1810001 8982047
-0.0011285715 0.071100004 1.1850001 8916254
0.0011285715 0.071100004 1.1850001 9375512
0.0033857145 0.071100004 1.1850001 9441305
0.0056428574 0.071100004 1.1850001 9572126
0.0078999996 0.071100004 1.1850001 10230056
0.010191428 0.071339995 1.189 10165788
0.012498097 0.07158 1.1930001 10823718
0.014770477 0.07158 1.1930001 10627341
0.017042857 0.07158 1.1930001 11153685
0.019380001 0.071820006 1.197 11092771
0.02166 0.071820006 1.197 16751740
0.023940001 0.071820006 1.197 16041094
0.026219999 0.071820006 1.197 16172680
-0.061076194 0.074904762 1.21 15387568
-0.058771431 0.074904762 1.21 12952201
-0.056093335 0.07440953 1.202 5451799
-0.053580001 0.074100003 1.197 7870464
-0.0513 0.074100003 1.197 8133632
-0.04902 0.074100003 1.197 8328221
-0.046583813 0.073852383 1.1930001 8328221
-0.04431143 0.073852383 1.1930001 8394254
-0.042039048 0.073852383 1.1930001 8460047
-0.039633334 0.073604763 1.189 8525329
-0.03736857 0.073604763 1.189 8459536
-0.034985714 0.073357143 1.1850001 8590105
-0.032618098 0.07310953 1.1810001 8655898
-0.030368574 0.07310953 1.1810001 8721683
-0.02811905 0.07310953 1.1810001 8787476
-0.025869526 0.07310953 1.1810001 8852775
-0.023700003 0.073357143 1.1850001 9181740
-0.021370478 0.07310953 1.1810001 8986151
-0.019120954 0.07310953 1.1810001 8986151
-0.01687143 0.07310953 1.1810001 8919858
-0.014621906 0.07310953 1.1810001 8985651
-0.012414286 0.073357143 1.1850001 8985638
-0.010157144 0.073357143 1.1850001 8985638
-0.0078999996 0.073357143 1.1850001 8984093
-0.0056428574 0.073357143 1.1850001 8984093
-0.0033857145 0.073357143 1.1850001 9179680
-0.0011285715 0.073357143 1.1850001 9179680
0.0011285715 0.073357143 1.1850001 9507597
0.0033857145 0.073357143 1.1850001 9376011
0.0056619048 0.073604763 1.189 9506827
0.0079266662 0.073604763 1.189 10164757
0.010191428 0.073604763 1.189 10231061
0.012498097 0.073852383 1.1930001 11086370
0.014820001 0.074100003 1.197 10626310
0.017099999 0.074100003 1.197 11086861
0.019380001 0.074100003 1.197 11158816
0.02166 0.074100003 1.197 16752763
0.023940001 0.074100003 1.197 15975569
0.026329523 0.07440953 1.202 16107155
0.028619049 0.07440953 1.202 15976571
-0.061076194 0.077209525 1.21 15584432
-0.058771431 0.077209525 1.21 13608332
-0.056280006 0.076954298 1.2060001 6305309
-0.053803809 0.076699048 1.202 7804160
-0.051514287 0.076699048 1.202 7804160
-0.04902 0.076380007 1.197 8262435
-0.046739999 0.076380007 1.197 8262435
-0.04431143 0.076124765 1.1930001 8197386
-0.042039048 0.076124765 1.1930001 8328972
-0.039633334 0.075869523 1.189 8459546
-0.03736857 0.075869523 1.189 8393753
-0.034985714 0.075614288 1.1850001 8655898
-0.032618098 0.075359054 1.1810001 8590105
-0.030368574 0.075359054 1.1810001 8851485
-0.02811905 0.075359054 1.1810001 8983071
-0.025957143 0.075614288 1.1850001 8917287
-0.023700003 0.075614288 1.1850001 8983080
-0.021442859 0.075614288 1.1850001 9115945
-0.019185714 0.075614288 1.1850001 9050152
-0.016928572 0.075614288 1.1850001 9049643
-0.014671429 0.075614288 1.1850001 8983850
-0.012414286 0.075614288 1.1850001 9050145
-0.010157144 0.075614288 1.1850001 8984352
-0.0078999996 0.075614288 1.1850001 8983811
-0.0056428574 0.075614288 1.1850001 9049604
-0.0033857145 0.075614288 1.1850001 9179680
-0.0011323809 0.075869523 1.189 9179680
0.0011323809 0.075869523 1.189 9508360
0.0033971427 0.075869523 1.189 9310981
0.0056619048 0.075869523 1.189 9703182
0.0079533337 0.076124765 1.1930001 10492698
0.010225714 0.076124765 1.1930001 10494742
0.01254 0.076380007 1.197 11679016
0.014820001 0.076380007 1.197 10757385
0.017099999 0.076380007 1.197 10954764
0.019380001 0.076380007 1.197 11225109
0.021750478 0.076699048 1.202 16754291
0.024040001 0.076699048 1.202 16106642
0.026329523 0.076699048 1.202 16106642
0.028619049 0.076699048 1.202 15976058
-0.061076194 0.079514287 1.21 15979185
-0.058771431 0.079514287 1.21 14002579
-0.056466665 0.079514287 1.21 6765349
-0.053803809 0.078988574 1.202 7672576
-0.051514287 0.078988574 1.202 7738368
-0.04902 0.078660004 1.197 8131353
-0.046739999 0.078660004 1.197 8131353
-0.04431143 0.078397147 1.1930001 8065550
-0.042039048 0.078397147 1.1930001 8394515
-0.039633334 0.078134283 1.189 8459546
-0.03724286 0.077871434 1.1850001 8327960
-0.034985714 0.077871434 1.1850001 8589335
-0.032618098 0.077608578 1.1810001 8589335
-0.030368574 0.077608578 1.1810001 8850972
-0.02811905 0.077608578 1.1810001 8850972
-0.025957143 0.077871434 1.1850001 8916517
-0.023700003 0.077871434 1.1850001 9048103
-0.021442859 0.077871434 1.1850001 9182769
-0.019185714 0.077871434 1.1850001 9314355
-0.016928572 0.077871434 1.1850001 9115186
-0.014671429 0.077871434 1.1850001 9049393
-0.012414286 0.077871434 1.1850001 9180711
-0.010157144 0.077871434 1.1850001 9114918
-0.0078999996 0.077871434 1.1850001 9180438
-0.0056428574 0.077871434 1.1850001 9180438
-0.0033857145 0.077871434 1.1850001 9179687
-0.0011323809 0.078134283 1.189 9245480
0.0011323809 0.078134283 1.189 9507086
0.0033971427 0.078134283 1.189 9572879
0.0056619048 0.078134283 1.189 9834250
0.0079533337 0.078397147 1.1930001 10294801
0.010225714 0.078397147 1.1930001 10495255
0.01254 0.078660004 1.197 11284771
0.014820001 0.078660004 1.197 10821890
0.017099999 0.078660004 1.197 11019269
0.019380001 0.078660004 1.197 11422760
0.021750478 0.078988574 1.202 16755334
0.024040001 0.078988574 1.202 15975056
0.026329523 0.078988574 1.202 15777677
0.028619049 0.078988574 1.202 15712375
-0.061076194 0.08181905 1.21 16504498
-0.058771431 0.08181905 1.21 15122836
-0.056466665 0.08181905 1.21 7227676
-0.053982858 0.081548579 1.2060001 7540224
-0.051514287 0.081278101 1.202 8592907
-0.04922476 0.081278101 1.202 8264488
-0.046739999 0.080940001 1.197 8001316
-0.04431143 0.080669522 1.1930001 8262941
-0.042039048 0.080669522 1.1930001 8394527
-0.039633334 0.080399044 1.189 8590105
-0.03724286 0.080128573 1.1850001 8590105
-0.034985714 0.080128573 1.1850001 8720417
-0.032618098 0.079858102 1.1810001 8654624
-0.030368574 0.079858102 1.1810001 8850713
-0.02811905 0.079858102 1.1810001 8982299
-0.025957143 0.080128573 1.1850001 8982058
-0.023700003 0.080128573 1.1850001 9047851
-0.021442859 0.080128573 1.1850001 9180718
-0.019185714 0.080128573 1.1850001 9378097
-0.016928572 0.080128573 1.1850001 9246259
-0.014720952 0.080399044 1.189 9114673
-0.012456191 0.080399044 1.189 9180198
-0.010191428 0.080399044 1.189 9245991
-0.0079266662 0.080399044 1.189 9114655
-0.0056619048 0.080399044 1.189 9180448
-0.0033971427 0.080399044 1.189 9310260
-0.0011323809 0.080399044 1.189 9178674
0.0011323809 0.080399044 1.189 9572126
0.0033971427 0.080399044 1.189 10098470
0.0056619048 0.080399044 1.189 9967124
0.0079533337 0.080669522 1.1930001 9901331
0.010225714 0.080669522 1.1930001 10625306
0.01254 0.080940001 1.197 11283236
0.014820001 0.080940001 1.197 10952202
0.017099999 0.080940001 1.197 11478546
0.019380001 0.080940001 1.197 11817523
0.021750478 0.081278101 1.202 16756881
0.024040001 0.081278101 1.202 16107146
0.026329523 0.081278101 1.202 15646595
-0.061076194 0.084123813 1.21 16372394
-0.058771431 0.084123813 1.21 15254181
-0.056466665 0.084123813 1.21 8148537
-0.053982858 0.08384572 1.2060001 8003840
-0.051514287 0.083567619 1.202 8069632
-0.04922476 0.083567619 1.202 8461597
-0.046739999 0.083220005 1.197 8264218
-0.044460002 0.083220005 1.197 8459546
-0.042039048 0.082941905 1.1930001 8591132
-0.039633334 0.082663804 1.189 8590621
-0.03736857 0.082663804 1.189 8524828
-0.034985714 0.082385719 1.1850001 8851485
-0.032618098 0.082107626 1.1810001 8851485
-0.030368574 0.082107626 1.1810001 8719379
-0.02811905 0.082107626 1.1810001 8916758
-0.025957143 0.082385719 1.1850001 9113642
-0.023700003 0.082385719 1.1850001 9311021
-0.021515237 0.082663804 1.189 9180718
-0.019250475 0.082663804 1.189 9246511
-0.016985714 0.082663804 1.189 9246772
-0.014720952 0.082663804 1.189 9049393
-0.012456191 0.082663804 1.189 9180448
-0.010191428 0.082663804 1.189 9180448
-0.0079266662 0.082663804 1.189 9179937
-0.0056619048 0.082663804 1.189 9179937
-0.0033971427 0.082663804 1.189 9441832
-0.0011323809 0.082663804 1.189 9441832
0.0011323809 0.082663804 1.189 9639185
0.0034085717 0.082941905 1.1930001 10033943
0.0056809527 0.082941905 1.1930001 10098712
0.0079799993 0.083220005 1.197 9967126
0.010260001 0.083220005 1.197 10557725
0.01254 0.083220005 1.197 11215655
0.014820001 0.083220005 1.197 10886400
0.017171429 0.083567619 1.202 11478530
0.019460952 0.083567619 1.202 11949872
0.021750478 0.083567619 1.202 16757644
0.024040001 0.083567619 1.202 16107153
0.026329523 0.083567619 1.202 15712395
-0.061076194 0.086428568 1.21 16240027
-0.058771431 0.086428568 1.21 15451812
-0.056466665 0.086428568 1.21 8806719
-0.053982858 0.08614286 1.2060001 8134183
-0.051514287 0.085857145 1.202 7805218
-0.04922476 0.085857145 1.202 8263438
-0.046739999 0.085500002 1.197 8395024
-0.044460002 0.085500002 1.197 8393494
-0.042039048 0.085214287 1.1930001 8525080
-0.039766666 0.085214287 1.1930001 8787222
-0.03736857 0.084928572 1.189 8787222
-0.034985714 0.084642865 1.1850001 8917280
-0.032728571 0.084642865 1.1850001 8785694
-0.030368574 0.08435715 1.1810001 8916508
-0.02811905 0.08435715 1.1810001 8916508
-0.025957143 0.084642865 1.1850001 9047590
-0.023700003 0.084642865 1.1850001 9442348
-0.021515237 0.084928572 1.189 9246259
-0.019250475 0.084928572 1.189 9509431
-0.016985714 0.084928572 1.189 9378867
-0.014720952 0.084928572 1.189 9049902
-0.012456191 0.084928572 1.189 9181451
-0.010191428 0.084928572 1.189 9115658
-0.0079266662 0.084928572 1.189 9179680
-0.0056619048 0.084928572 1.189 8982301
-0.0033971427 0.084928572 1.189 9244436
-0.0011361905 0.085214287 1.1930001 9376022
0.0011361905 0.085214287 1.1930001 9507084
0.0034085717 0.085214287 1.1930001 9704463
0.0056809527 0.085214287 1.1930001 9900311
0.0079799993 0.085500002 1.197 10097690
0.010260001 0.085500002 1.197 10690851
0.01254 0.085500002 1.197 11414574
0.014881905 0.085857145 1.202 11150848
0.017171429 0.085857145 1.202 11940362
0.019460952 0.085857145 1.202 12082998
0.021750478 0.085857145 1.202 16758156
0.024040001 0.085857145 1.202 16173448
-0.061076194 0.088733338 1.21 16305818
-0.058771431 0.088733338 1.21 15583396
-0.056466665 0.088733338 1.21 9859405
-0.053982858 0.088440008 1.2060001 8663845
-0.051685717 0.088440008 1.2060001 7216399
-0.04922476 0.088146664 1.202 8262418
-0.046739999 0.087779999 1.197 8525590
-0.044460002 0.087779999 1.197 8590875
-0.042039048 0.087486669 1.1930001 8525082
-0.039766666 0.087486669 1.1930001 8852248
-0.03736857 0.087193333 1.189 8918041
-0.035103809 0.087193333 1.189 8982800
-0.032728571 0.086900003 1.1850001 9048593
-0.030471429 0.086900003 1.1850001 9113369
-0.028214287 0.086900003 1.1850001 9047576
-0.026044762 0.087193333 1.189 9244453
-0.023779999 0.087193333 1.189 9573418
-0.021515237 0.087193333 1.189 9312047
-0.019250475 0.087193333 1.189 9641012
-0.016985714 0.087193333 1.189 9444410
-0.014720952 0.087193333 1.189 9247031
-0.012456191 0.087193333 1.189 9247006
-0.010191428 0.087193333 1.189 9181213
-0.0079266662 0.087193333 1.189 9179937
-0.0056619048 0.087193333 1.189 8916765
-0.0033971427 0.087193333 1.189 9441804
-0.0011361905 0.087486669 1.1930001 9441804
0.0011361905 0.087486669 1.1930001 9637639
0.0034085717 0.087486669 1.1930001 10032397
0.0056809527 0.087486669 1.1930001 9966354
0.0079799993 0.087779999 1.197 10163733
0.010260001 0.087779999 1.197 10888739
0.01254 0.087779999 1.197 11086118
0.014881905 0.088146664 1.202 11283218
0.017171429 0.088146664 1.202 11875355
0.019525714 0.088440008 1.2060001 12411970
0.021822859 0.088440008 1.2060001 16758677
-0.061278097 0.091339052 1.2140001 16306070
-0.05896572 0.091339052 1.2140001 15780003
-0.056466665 0.0910381 1.21 11174493
-0.053982858 0.090737149 1.2060001 9123138
-0.051685717 0.090737149 1.2060001 7346727
-0.049388576 0.090737149 1.2060001 8328471
-0.046935238 0.09043619 1.202 8591643
-0.044460002 0.090060003 1.197 8722456
-0.042180002 0.090060003 1.197 8590870
-0.039766666 0.089759052 1.1930001 8787222
-0.03736857 0.089458093 1.189 8655636
-0.035103809 0.089458093 1.189 8983040
-0.032728571 0.089157149 1.1850001 9114624
-0.030471429 0.089157149 1.1850001 9178641
-0.028214287 0.089157149 1.1850001 9244434
-0.026044762 0.089458093 1.189 9243944
-0.023779999 0.089458093 1.189 9375530
-0.021515237 0.089458093 1.189 9244978
-0.019250475 0.089458093 1.189 9837115
-0.017042857 0.089759052 1.1930001 9576264
-0.014770477 0.089759052 1.1930001 9181506
-0.012456191 0.089458093 1.189 9379602
-0.010191428 0.089458093 1.189 9182223
-0.0079266662 0.089458093 1.189 9245230
-0.0056619048 0.089458093 1.189 9047851
-0.0033971427 0.089458093 1.189 9441545
-0.0011361905 0.089759052 1.1930001 9507338
0.0011361905 0.089759052 1.1930001 9834250
0.00342 0.090060003 1.197 10426387
0.0057000001 0.090060003 1.197 10162965
0.0079799993 0.090060003 1.197 10952481
0.010260001 0.090060003 1.197 11219228
0.012592381 0.09043619 1.202 10692884
0.014881905 0.09043619 1.202 11149835
0.017228574 0.090737149 1.2060001 12728867
0.019525714 0.090737149 1.2060001 12676166
0.021822859 0.090737149 1.2060001 16759701
-0.05896572 0.093651436 1.2140001 15714212
-0.056653336 0.093651436 1.2140001 11503460
-0.054161906 0.093342856 1.21 10242347
-0.051857144 0.093342856 1.21 7215872
-0.049388576 0.09303429 1.2060001 8392977
-0.046935238 0.092725717 1.202 8787735
-0.044460002 0.09234 1.197 8656651
-0.042180002 0.09234 1.197 8590858
-0.039766666 0.092031434 1.1930001 8721683
-0.037494287 0.092031434 1.1930001 8655890
-0.035103809 0.091722853 1.189 8916992
-0.032728571 0.091414295 1.1850001 9048577
-0.030471429 0.091414295 1.1850001 9244436
-0.028214287 0.091414295 1.1850001 9376022
-0.026044762 0.091722853 1.189 9309726
-0.023779999 0.091722853 1.189 9309726
-0.02158762 0.092031434 1.1930001 9441582
-0.019315239 0.092031434 1.1930001 10033719
-0.017042857 0.092031434 1.1930001 9707582
-0.014770477 0.092031434 1.1930001 9312824
-0.012498097 0.092031434 1.1930001 9378849
-0.010191428 0.091722853 1.189 9313056
-0.0079266662 0.091722853 1.189 9311525
-0.0056619048 0.091722853 1.189 8916767
-0.0033971427 0.091722853 1.189 9441795
-0.0011400001 0.09234 1.197 9507588
0.0011400001 0.09234 1.197 9965325
0.00342 0.09234 1.197 10228497
0.0057000001 0.09234 1.197 10096915
0.0079799993 0.09234 1.197 11149603
0.010302857 0.092725717 1.202 11351586
0.012592381 0.092725717 1.202 10693656
0.01493143 0.09303429 1.2060001 11081730
0.017228574 0.09303429 1.2060001 12923934
0.019590477 0.093342856 1.21 12938568
0.021895239 0.093342856 1.21 16758931
-0.05896572 0.095963813 1.2140001 15911339
-0.056653336 0.095963813 1.2140001 12687482
-0.054161906 0.095647618 1.21 10046282
-0.051857144 0.095647618 1.21 6559253
-0.049388576 0.095331438 1.2060001 8260888
-0.047091432 0.095331438 1.2060001 8589853
-0.044460002 0.094620004 1.197 8458496
-0.042180002 0.094620004 1.197 8721664
-0.039766666 0.094303817 1.1930001 8851735
-0.037494287 0.094303817 1.1930001 8720149
-0.035103809 0.093987621 1.189 9049093
-0.032839045 0.093987621 1.189 9246472
-0.030574286 0.093987621 1.189 9244436
-0.028309524 0.093987621 1.189 9244436
-0.026132382 0.094303817 1.1930001 9178401
-0.023860002 0.094303817 1.1930001 9309987
-0.02158762 0.094303817 1.1930001 9377318
-0.019315239 0.094303817 1.1930001 9574697
-0.017042857 0.094303817 1.1930001 9509935
-0.014770477 0.094303817 1.1930001 9246763
-0.012498097 0.094303817 1.1930001 9247003
-0.010225714 0.094303817 1.1930001 9312796
-0.0079533337 0.094303817 1.1930001 9311518
-0.0056809527 0.094303817 1.1930001 9179932
-0.0034085717 0.094303817 1.1930001 9507328
-0.0011400001 0.094620004 1.197 9573120
0.0011400001 0.094620004 1.197 9900045
0.00342 0.094620004 1.197 9965838
0.0057000001 0.094620004 1.197 10161945
0.0080133341 0.095015235 1.202 11214633
0.010302857 0.095015235 1.202 11417357
0.012592381 0.095015235 1.202 10759427
0.01493143 0.095331438 1.2060001 10950144
0.017228574 0.095331438 1.2060001 13318692
0.019590477 0.095647618 1.21 13334607
0.021895239 0.095647618 1.21 16758927
-0.056653336 0.098276198 1.2140001 13081974
-0.054161906 0.097952388 1.21 11102024
-0.051857144 0.097952388 1.21 6167552
-0.049388576 0.097628579 1.2060001 8657167
-0.047091432 0.097628579 1.2060001 8591374
-0.044645716 0.097304761 1.202 8785682
-0.042180002 0.096900001 1.197 8851475
-0.039900001 0.096900001 1.197 8982810
-0.037620001 0.096900001 1.197 8982810
-0.035221905 0.096576199 1.1930001 9114372
-0.032949526 0.096576199 1.1930001 9245958
-0.030677145 0.096576199 1.1930001 9310246
-0.028404765 0.096576199 1.1930001 9310246
-0.026132382 0.096576199 1.1930001 9309733
-0.023860002 0.096576199 1.1930001 9507112
-0.02158762 0.096576199 1.1930001 9443372
-0.019315239 0.096576199 1.1930001 9772337
-0.017042857 0.096576199 1.1930001 9511223
-0.014770477 0.096576199 1.1930001 9050672
-0.012498097 0.096576199 1.1930001 9246490
-0.010225714 0.096576199 1.1930001 9443869
-0.0079533337 0.096576199 1.1930001 9443361
-0.0056809527 0.096576199 1.1930001 9377568
-0.0034085717 0.096576199 1.1930001 9704195
-0.0011400001 0.096900001 1.197 9704195
0.0011400001 0.096900001 1.197 10097163
0.00342 0.096900001 1.197 10031370
0.0057000001 0.096900001 1.197 10161936
0.0080133341 0.097304761 1.202 12069933
0.010302857 0.097304761 1.202 11482909
0.012592381 0.097304761 1.202 10496014
0.01493143 0.097628579 1.2060001 10818562
0.017228574 0.097628579 1.2060001 13384489
0.019590477 0.097952388 1.21 13796185
0.021895239 0.097952388 1.21 16759697
0.0242 0.097952388 1.21 16041085
-0.054161906 0.10025714 1.21 11629922
-0.051857144 0.10025714 1.21 5840138
-0.049552381 0.10025714 1.21 8458509
-0.047091432 0.099925719 1.2060001 8721681
-0.044645716 0.099594288 1.202 8785442
-0.042356189 0.099594288 1.202 8785442
-0.039900001 0.099179998 1.197 9047574
-0.037620001 0.099179998 1.197 9179160
-0.035221905 0.098848581 1.1930001 9179648
-0.032949526 0.098848581 1.1930001 9311233
-0.030677145 0.098848581 1.1930001 9309744
-0.028404765 0.098848581 1.1930001 9309744
-0.026132382 0.098848581 1.1930001 9309733
-0.023860002 0.098848581 1.1930001 9375526
-0.02158762 0.098848581 1.1930001 9442096
-0.019315239 0.098848581 1.1930001 10955335
-0.017042857 0.098848581 1.1930001 9841199
-0.014770477 0.098848581 1.1930001 8788511
-0.012498097 0.098848581 1.1930001 9377318
