# .PCD v0.7 - Point Cloud Data file format
VERSION 0.7
FIELDS x y z rgba
SIZE 4 4 4 4
TYPE F F F U
COUNT 1 1 1 1
WIDTH 1125
HEIGHT 1
VIEWPOINT 0 0 0 1 0 0 0
POINTS 1125
DATA ascii
-0.075979047 0.17011239 0.70600003 8741202
-0.074422859 0.16963048 0.70400006 8016681
-0.073081911 0.16963048 0.70400006 8279853
-0.071639046 0.16938953 0.70300001 8410417
-0.070299998 0.16938953 0.70300001 8476210
-0.068960957 0.16938953 0.70300001 8410685
-0.067621902 0.16938953 0.70300001 8608064
-0.066094287 0.16890763 0.70100003 8674622
-0.064759046 0.16890763 0.70100003 8740415
-0.063423812 0.16890763 0.70100003 8345898
-0.062088571 0.16890763 0.70100003 8477484
-0.060753338 0.16890763 0.70100003 9002054
-0.059418097 0.16890763 0.70100003 9133640
-0.05808286 0.16890763 0.70100003 9003337
-0.056747623 0.16890763 0.70100003 8937544
-0.055570476 0.16938953 0.70300001 8279612
-0.054231428 0.16938953 0.70300001 8411198
-0.052892383 0.16938953 0.70300001 8542262
-0.051553335 0.16938953 0.70300001 8739641
-0.050285716 0.16963048 0.70400006 9068088
-0.048944768 0.16963048 0.70400006 9002295
-0.047603812 0.16963048 0.70400006 8740163
-0.046394285 0.17011239 0.70600003 8608577
-0.045049526 0.17011239 0.70600003 8280114
-0.043766666 0.17035334 0.70700002 9003837
-0.04242 0.17035334 0.70700002 9003337
-0.041131429 0.17059429 0.708 10056025
-0.039782856 0.17059429 0.708 10187598
-0.038542859 0.17107619 0.71000004 10319184
-0.037190478 0.17107619 0.71000004 10384981
-0.035888575 0.17131715 0.71100003 10779739
-0.034631431 0.17179905 0.71300006 10451803
-0.033320002 0.17204002 0.71400005 9728080
-0.032049526 0.17252192 0.71600002 8875333
-0.030685715 0.17252192 0.71600002 10520158
-0.029362857 0.17276286 0.71700001 9604724
-0.027997142 0.17276286 0.71700001 11512721
-0.02663143 0.17276286 0.71700001 13683612
-0.091073342 0.1746143 0.71900004 11644564
-0.089454286 0.17412858 0.71700001 9934977
-0.087965719 0.17388572 0.71600002 9211254
-0.086239055 0.17315716 0.71300006 9862511
-0.084642857 0.17267144 0.71100003 9994097
-0.083171427 0.17242858 0.71000004 10518112
-0.081588566 0.17194286 0.708 10583905
-0.080239996 0.17194286 0.708 10321254
-0.078780003 0.1717 0.70700002 10321254
-0.077323809 0.17145716 0.70600003 9992050
-0.075979047 0.17145716 0.70600003 9728878
-0.074422859 0.17097144 0.70400006 9005636
-0.073081911 0.17097144 0.70400006 8479292
-0.071740955 0.17097144 0.70400006 8608839
-0.070299998 0.17072856 0.70300001 8608839
-0.068960957 0.17072856 0.70300001 8542796
-0.067621902 0.17072856 0.70300001 8477003
-0.066094287 0.17024286 0.70100003 8739643
-0.064759046 0.17024286 0.70100003 8805436
-0.063604765 0.17072856 0.70300001 8345394
-0.062265713 0.17072856 0.70300001 8148015
-0.060753338 0.17024286 0.70100003 8739912
-0.059418097 0.17024286 0.70100003 9595221
-0.05808286 0.17024286 0.70100003 9003604
-0.056909524 0.17072856 0.70300001 8937811
-0.055570476 0.17072856 0.70300001 8806995
-0.054231428 0.17072856 0.70300001 8806995
-0.052892383 0.17072856 0.70300001 8937801
-0.051553335 0.17072856 0.70300001 9003594
-0.050285716 0.17097144 0.70400006 9333063
-0.048944768 0.17097144 0.70400006 9596235
-0.047603812 0.17097144 0.70400006 9662028
-0.046394285 0.17145716 0.70600003 9662028
-0.045049526 0.17145716 0.70600003 9662026
-0.043766666 0.1717 0.70700002 10319956
-0.042479999 0.17194286 0.708 10190171
-0.041131429 0.17194286 0.708 10255964
-0.03989524 0.17242858 0.71000004 11044692
-0.038542859 0.17242858 0.71000004 11439450
-0.037190478 0.17242858 0.71000004 10715227
-0.035888575 0.17267144 0.71100003 10715227
-0.034631431 0.17315716 0.71300006 10255714
-0.033320002 0.1734 0.71400005 9795163
-0.032049526 0.17388572 0.71600002 9139789
-0.030685715 0.17388572 0.71600002 10060891
-0.029362857 0.17412858 0.71700001 9079920
-0.027997142 0.17412858 0.71700001 11909019
-0.02663143 0.17412858 0.71700001 13749912
-0.09082 0.17549428 0.71700001 12039576
-0.089329526 0.17524953 0.71600002 10526073
-0.087965719 0.17524953 0.71600002 9210213
-0.086360008 0.17476001 0.71400005 9796970
-0.084880956 0.17451525 0.71300006 9994349
-0.083171427 0.17378096 0.71000004 10387296
-0.08181905 0.17378096 0.71000004 10716261
-0.080239996 0.17329141 0.708 10651753
-0.078780003 0.17304666 0.70700002 10191202
-0.077433333 0.17304666 0.70700002 10189921
-0.076086663 0.17304666 0.70700002 10058335
-0.074634291 0.1728019 0.70600003 9664347
-0.073081911 0.17231239 0.70400006 8940624
-0.071740955 0.17231239 0.70400006 8610384
-0.070400007 0.17231239 0.70400006 8281419
-0.068960957 0.17206763 0.70300001 8608069
-0.067621902 0.17206763 0.70300001 8608069
-0.066282853 0.17206763 0.70300001 8870205
-0.064943813 0.17206763 0.70300001 9001791
-0.063604765 0.17206763 0.70300001 8805936
-0.062265713 0.17206763 0.70300001 8805936
-0.060926665 0.17206763 0.70300001 8740672
-0.05958762 0.17206763 0.70300001 9398602
-0.058248568 0.17206763 0.70300001 9268306
-0.056909524 0.17206763 0.70300001 9663064
-0.055570476 0.17206763 0.70300001 9532761
-0.054231428 0.17206763 0.70300001 8874831
-0.052967623 0.17231239 0.70400006 8938044
-0.051626671 0.17231239 0.70400006 9332802
-0.050285716 0.17231239 0.70400006 9464901
-0.048944768 0.17231239 0.70400006 9596487
-0.047739051 0.1728019 0.70600003 9858887
-0.046394285 0.1728019 0.70600003 9924680
-0.045113333 0.17304666 0.70700002 9860168
-0.043766666 0.17304666 0.70700002 10847063
-0.042479999 0.17329141 0.708 10454370
-0.041131429 0.17329141 0.708 10256991
-0.03989524 0.17378096 0.71000004 10782817
-0.038542859 0.17378096 0.71000004 11111782
-0.037242856 0.17402571 0.71100003 10387809
-0.035989527 0.17451525 0.71300006 10387809
-0.034680001 0.17476001 0.71400005 10387809
-0.033320002 0.17476001 0.71400005 10190430
-0.032049526 0.17524953 0.71600002 9207637
-0.030728571 0.17549428 0.71700001 9010258
-0.029362857 0.17549428 0.71700001 8290654
-0.026817145 0.17671812 0.72200006 13947563
-0.09082 0.17686 0.71700001 13486758
-0.089329526 0.17661333 0.71600002 10264203
-0.087719999 0.17612001 0.71400005 9145722
-0.086360008 0.17612001 0.71400005 9403761
-0.084880956 0.17587335 0.71300006 9206382
-0.083288573 0.17538001 0.71100003 10057825
-0.08181905 0.17513335 0.71000004 10847341
-0.080239996 0.17464 0.708 10782560
-0.078891426 0.17464 0.708 11111525
-0.077433333 0.17439334 0.70700002 10849121
-0.076086663 0.17439334 0.70700002 10849121
-0.074634291 0.17414667 0.70600003 10783337
-0.073289528 0.17414667 0.70600003 10191200
-0.071740955 0.17365335 0.70400006 9795430
-0.070400007 0.17365335 0.70400006 9137500
-0.068960957 0.17340666 0.70300001 9465182
-0.067621902 0.17340666 0.70300001 9794147
-0.066282853 0.17340666 0.70300001 9663575
-0.064943813 0.17340666 0.70300001 9729368
-0.063604765 0.17340666 0.70300001 9927760
-0.062265713 0.17340666 0.70300001 10256725
-0.060926665 0.17340666 0.70300001 9729881
-0.05958762 0.17340666 0.70300001 9466709
-0.058248568 0.17340666 0.70300001 9994064
-0.056909524 0.17340666 0.70300001 10059857
-0.055649526 0.17365335 0.70400006 9928532
-0.054308575 0.17365335 0.70400006 10323290
-0.052967623 0.17365335 0.70400006 10059353
-0.051626671 0.17365335 0.70400006 10059353
-0.050285716 0.17365335 0.70400006 10124880
-0.04908381 0.17414667 0.70600003 9795915
-0.047739051 0.17414667 0.70600003 10190419
-0.046459999 0.17439334 0.70700002 10650970
-0.045113333 0.17439334 0.70700002 10520149
-0.043828573 0.17464 0.708 10783321
-0.042479999 0.17464 0.708 10651733
-0.041131429 0.17464 0.708 9993803
-0.03989524 0.17513335 0.71000004 10848603
-0.038542859 0.17513335 0.71000004 11638119
-0.037242856 0.17538001 0.71100003 10584675
-0.035989527 0.17587335 0.71300006 10453089
-0.034680001 0.17612001 0.71400005 10190951
-0.033320002 0.17612001 0.71400005 10783088
-0.032049526 0.17661333 0.71600002 9866606
-0.030728571 0.17686 0.71700001 9274469
-0.029362857 0.17686 0.71700001 8685167
-0.028192384 0.17809334 0.72200006 12632747
-0.026817145 0.17809334 0.72200006 14341307
-0.09082 0.17822573 0.71700001 13947312
-0.089329526 0.17797714 0.71600002 11580052
-0.087719999 0.17748001 0.71400005 9145711
-0.086360008 0.17748001 0.71400005 9799280
-0.084880956 0.17723145 0.71300006 9207143
-0.083288573 0.17673428 0.71100003 10319447
-0.08181905 0.17648572 0.71000004 10714205
-0.080466673 0.17648572 0.71000004 10583387
-0.078891426 0.17598857 0.708 11307110
-0.077542856 0.17598857 0.708 11046761
-0.076194286 0.17598857 0.708 10915175
-0.074740008 0.17574 0.70700002 10914933
-0.073289528 0.17549144 0.70600003 10520175
-0.071944758 0.17549144 0.70600003 10059113
-0.070400007 0.1749943 0.70400006 9598562
-0.069059052 0.1749943 0.70400006 9466196
-0.067718096 0.1749943 0.70400006 9663575
-0.066282853 0.17474571 0.70300001 9466966
-0.064943813 0.17474571 0.70300001 9861724
-0.063604765 0.17474571 0.70300001 9993569
-0.062265713 0.17474571 0.70300001 9993569
-0.060926665 0.17474571 0.70300001 9730400
-0.059672385 0.1749943 0.70400006 9927779
-0.058331434 0.1749943 0.70400006 9928537
-0.056990478 0.1749943 0.70400006 9928537
-0.055649526 0.1749943 0.70400006 9401945
-0.054308575 0.1749943 0.70400006 9796703
-0.052967623 0.1749943 0.70400006 9862746
-0.051626671 0.1749943 0.70400006 9862746
-0.050285716 0.1749943 0.70400006 10322794
-0.04908381 0.17549144 0.70600003 9862243
-0.047806669 0.17574 0.70700002 9993320
-0.046459999 0.17574 0.70700002 10124906
-0.045177143 0.17598857 0.708 10060125
-0.043828573 0.17598857 0.708 10586469
-0.042479999 0.17598857 0.708 10651744
-0.041247621 0.17648572 0.71000004 10059607
-0.03989524 0.17648572 0.71000004 10453595
-0.038597144 0.17673428 0.71100003 10650974
-0.037347622 0.17723145 0.71300006 10650470
-0.036040001 0.17748001 0.71400005 10321505
-0.034680001 0.17748001 0.71400005 9599065
-0.033413332 0.17797714 0.71600002 10256995
-0.032049526 0.17797714 0.71600002 9342577
-0.030728571 0.17822573 0.71700001 8750440
-0.029444763 0.17872287 0.71900004 8750703
-0.028192384 0.17946859 0.72200006 13093041
-0.026928572 0.18021429 0.72500002 14604218
-0.09082 0.17959143 0.71700001 14605234
-0.089329526 0.17934094 0.71600002 12434859
-0.087719999 0.17884001 0.71400005 9276795
-0.086360008 0.17884001 0.71400005 9406565
-0.084880956 0.17858954 0.71300006 9472358
-0.083288573 0.17808858 0.71100003 10256231
-0.08181905 0.1778381 0.71000004 10322024
-0.080466673 0.1778381 0.71000004 10517865
-0.078891426 0.17733714 0.708 11110002
-0.077542856 0.17733714 0.708 10848349
-0.076194286 0.17733714 0.708 10585177
-0.074845709 0.17733714 0.708 10585186
-0.073393337 0.17708668 0.70700002 10650979
-0.072046667 0.17708668 0.70700002 10190171
-0.070600003 0.17683619 0.70600003 10124378
-0.069059052 0.17633525 0.70400006 10059096
-0.067718096 0.17633525 0.70400006 10519647
-0.066377148 0.17633525 0.70400006 9862228
-0.065036193 0.17633525 0.70400006 9862228
-0.063695244 0.17633525 0.70400006 9861467
-0.062354293 0.17633525 0.70400006 9532502
-0.061013337 0.17633525 0.70400006 9926749
-0.059672385 0.17633525 0.70400006 10255714
-0.058331434 0.17633525 0.70400006 10124885
-0.056990478 0.17633525 0.70400006 10190678
-0.055649526 0.17633525 0.70400006 9861223
-0.054308575 0.17633525 0.70400006 9927016
-0.052967623 0.17633525 0.70400006 9861974
-0.051626671 0.17633525 0.70400006 9927767
-0.050428573 0.17683619 0.70600003 9860703
-0.04908381 0.17683619 0.70600003 9531738
-0.047806669 0.17708668 0.70700002 9794410
-0.046459999 0.17708668 0.70700002 10123375
-0.045177143 0.17733714 0.708 9861732
-0.043828573 0.17733714 0.708 9927525
-0.042600002 0.1778381 0.71000004 9862224
-0.041247621 0.1778381 0.71000004 9862224
-0.039951429 0.17808858 0.71100003 10058585
-0.038705718 0.17858954 0.71300006 10519136
-0.037347622 0.17858954 0.71300006 9862247
-0.036040001 0.17884001 0.71400005 9862247
-0.034777146 0.17934094 0.71600002 8813666
-0.033413332 0.17934094 0.71600002 8550494
-0.032094285 0.17959143 0.71700001 7699289
-0.030857144 0.18034285 0.72000003 7107152
-0.029567622 0.18084383 0.72200006 8619115
-0.028231429 0.1810943 0.72300005 13422004
-0.026928572 0.18159524 0.72500002 14604472
-0.09082 0.18095714 0.71700001 15854790
-0.089329526 0.18070477 0.71600002 13028020
-0.087965719 0.18070477 0.71600002 9146233
-0.086360008 0.18020001 0.71400005 8816746
-0.084880956 0.17994764 0.71300006 8750953
-0.083522864 0.17994764 0.71300006 9994596
-0.081934288 0.17944287 0.71100003 10126182
-0.080466673 0.17919049 0.71000004 10517598
-0.079114296 0.17919049 0.71000004 10649184
-0.077542856 0.17868571 0.708 10452303
-0.076194286 0.17868571 0.708 10320717
-0.074845709 0.17868571 0.708 10190414
-0.073393337 0.17843334 0.70700002 10124621
-0.072046667 0.17843334 0.70700002 10058324
-0.070600003 0.17818096 0.70600003 10124117
-0.069059052 0.1776762 0.70400006 10058592
-0.067718096 0.1776762 0.70400006 9927006
-0.066377148 0.1776762 0.70400006 9466446
-0.065036193 0.1776762 0.70400006 9400653
-0.063695244 0.1776762 0.70400006 9531469
-0.062354293 0.1776762 0.70400006 9597262
-0.061013337 0.1776762 0.70400006 9926229
-0.059672385 0.1776762 0.70400006 9202506
-0.058331434 0.1776762 0.70400006 9463861
-0.056990478 0.1776762 0.70400006 9792826
-0.055649526 0.1776762 0.70400006 9595991
-0.054308575 0.1776762 0.70400006 9661784
-0.052967623 0.1776762 0.70400006 9400396
-0.051626671 0.1776762 0.70400006 9531982
-0.050428573 0.17818096 0.70600003 9858896
-0.04908381 0.17818096 0.70600003 9924689
-0.047806669 0.17843334 0.70700002 9793621
-0.046525717 0.17868571 0.708 9662035
-0.045177143 0.17868571 0.708 8873287
-0.043828573 0.17868571 0.708 9597010
-0.042600002 0.17919049 0.71000004 9335612
-0.041247621 0.17919049 0.71000004 9861956
-0.039951429 0.17944287 0.71100003 9862730
-0.038705718 0.17994764 0.71300006 10060109
-0.037400004 0.18020001 0.71400005 9403472
-0.036140952 0.18070477 0.71600002 9403472
-0.034777146 0.18070477 0.71600002 8619365
-0.033459999 0.18095714 0.71700001 7303505
-0.032183811 0.1814619 0.71900004 6319684
-0.030942859 0.18221906 0.72200006 6780235
-0.029567622 0.18221906 0.72200006 8553576
-0.028231429 0.18247144 0.72300005 13422258
-0.026928572 0.18297619 0.72500002 14604472
-0.09082 0.18232284 0.71700001 16249297
-0.089329526 0.18206859 0.71600002 14605493
-0.087965719 0.18206859 0.71600002 9605225
-0.086601906 0.18206859 0.71600002 8619878
-0.085000008 0.18156001 0.71400005 8422499
-0.083640002 0.18156001 0.71400005 9273956
-0.082164772 0.18130574 0.71300006 9471335
-0.080580004 0.18079714 0.71100003 10124898
-0.079114296 0.18054286 0.71000004 10124898
-0.077761903 0.18054286 0.71000004 9928019
-0.076194286 0.18003428 0.708 9730640
-0.074845709 0.18003428 0.708 9665347
-0.073497139 0.18003428 0.708 9402175
-0.072046667 0.17977999 0.70700002 9533272
-0.070699997 0.17977999 0.70700002 9664858
-0.06925524 0.17952573 0.70600003 9730659
-0.067718096 0.17901716 0.70400006 9270108
-0.066377148 0.17901716 0.70400006 8940624
-0.065036193 0.17901716 0.70400006 8940624
-0.063695244 0.17901716 0.70400006 9006658
-0.062354293 0.17901716 0.70400006 8743486
-0.061013337 0.17901716 0.70400006 8874563
-0.059672385 0.17901716 0.70400006 8742977
-0.058331434 0.17901716 0.70400006 8742975
-0.056990478 0.17901716 0.70400006 8940354
-0.055649526 0.17901716 0.70400006 9072206
-0.054308575 0.17901716 0.70400006 9137999
-0.053118095 0.17952573 0.70600003 9006674
-0.051773336 0.17952573 0.70600003 9006674
-0.050428573 0.17952573 0.70600003 9072210
-0.049153332 0.17977999 0.70700002 9072210
-0.047806669 0.17977999 0.70700002 9600074
-0.046525717 0.18003428 0.708 9665867
-0.045177143 0.18003428 0.708 10258785
-0.043952383 0.18054286 0.71000004 11179887
-0.042600002 0.18054286 0.71000004 11114351
-0.041305717 0.18079714 0.71100003 11048558
-0.039951429 0.18079714 0.71100003 11838817
-0.038760003 0.18156001 0.71400005 12036196
-0.037400004 0.18156001 0.71400005 10327649
-0.036140952 0.18206859 0.71600002 9801305
-0.034825716 0.18232284 0.71700001 8686424
-0.033553336 0.18283144 0.71900004 7238978
-0.03222857 0.18308572 0.72000003 6451026
-0.030942859 0.1835943 0.72200006 7043163
-0.029608574 0.18384859 0.72300005 8356456
-0.028309524 0.18435715 0.72500002 13290931
-0.026928572 0.18435715 0.72500002 14604220
-0.091073342 0.18420096 0.71900004 16512219
-0.089703813 0.18420096 0.71900004 14736568
-0.088334292 0.18420096 0.71900004 9933679
-0.086601906 0.18343239 0.71600002 8357746
-0.085000008 0.18292001 0.71400005 7962988
-0.083640002 0.18292001 0.71400005 8421729
-0.082164772 0.18266381 0.71300006 8750694
-0.080580004 0.18215142 0.71100003 9667164
-0.079114296 0.18189524 0.71000004 10325094
-0.077761903 0.18189524 0.71000004 10259814
-0.076194286 0.18138285 0.708 9536091
-0.074845709 0.18138285 0.708 9207630
-0.073497139 0.18138285 0.708 8747079
-0.072148569 0.18138285 0.708 8548935
-0.070699997 0.18112667 0.70700002 9206865
-0.069353335 0.18112667 0.70700002 9403493
-0.067910478 0.18087047 0.70600003 9206114
-0.066565715 0.18087047 0.70600003 8678222
-0.065220952 0.18087047 0.70600003 8875601
-0.063695244 0.18035811 0.70400006 8810060
-0.062354293 0.18035811 0.70400006 8612681
-0.061013337 0.18035811 0.70400006 8481619
-0.059672385 0.18035811 0.70400006 8415826
-0.058497142 0.18087047 0.70600003 8481588
-0.056990478 0.18035811 0.70400006 8744760
-0.055649526 0.18035811 0.70400006 8416346
-0.054308575 0.18035811 0.70400006 8350553
-0.053118095 0.18087047 0.70600003 8285791
-0.051773336 0.18087047 0.70600003 8351584
-0.050428573 0.18087047 0.70600003 8351836
-0.049153332 0.18112667 0.70700002 8351836
-0.047806669 0.18112667 0.70700002 8879459
-0.046525717 0.18138285 0.708 8747873
-0.045177143 0.18138285 0.708 9997165
-0.043952383 0.18189524 0.71000004 11313025
-0.042600002 0.18189524 0.71000004 11247999
-0.041305717 0.18215142 0.71100003 11379585
-0.039951429 0.18215142 0.71100003 11445624
-0.038760003 0.18292001 0.71400005 11511417
-0.037504762 0.18343239 0.71600002 9999983
-0.036191426 0.18368857 0.71700001 9144674
-0.034922861 0.18420096 0.71900004 8685930
-0.033600003 0.18445715 0.72000003 7370070
-0.032318097 0.18496954 0.72200006 6451026
-0.030942859 0.18496954 0.72200006 7306335
-0.029608574 0.18522573 0.72300005 8159075
-0.028309524 0.1857381 0.72500002 13225136
-0.026928572 0.1857381 0.72500002 14407354
-0.02554762 0.1857381 0.72500002 16776673
-0.091200002 0.18582858 0.72000003 16578017
-0.089828581 0.18582858 0.72000003 15131826
-0.088457145 0.18582858 0.72000003 10065765
-0.086964764 0.18557049 0.71900004 8227198
-0.085238092 0.1847962 0.71600002 7635061
-0.083874285 0.1847962 0.71600002 8290915
-0.082280003 0.18428002 0.71400005 8554087
-0.080806673 0.18402192 0.71300006 9997916
-0.079225719 0.18350571 0.71100003 11379569
-0.077761903 0.18324763 0.71000004 11379319
-0.076409526 0.18324763 0.71000004 11642491
-0.074845709 0.18273142 0.708 10853491
-0.073497139 0.18273142 0.708 9800803
-0.072148569 0.18273142 0.708 9733720
-0.070699997 0.18247333 0.70700002 10325857
-0.069353335 0.18247333 0.70700002 10258543
-0.068006672 0.18247333 0.70700002 10258543
-0.066565715 0.18221524 0.70600003 9272660
-0.065220952 0.18221524 0.70600003 9404246
-0.063876189 0.18221524 0.70600003 8285271
-0.062531434 0.18221524 0.70600003 8219478
-0.061186668 0.18221524 0.70600003 8550235
-0.059841909 0.18221524 0.70600003 8484442
-0.058497142 0.18221524 0.70600003 8549689
-0.057152383 0.18221524 0.70600003 9865549
-0.05580762 0.18221524 0.70600003 8814158
-0.054462858 0.18221524 0.70600003 6050852
-0.053118095 0.18221524 0.70600003 6380638
-0.051773336 0.18221524 0.70600003 6446431
-0.050500002 0.18247333 0.70700002 6446669
-0.049153332 0.18247333 0.70700002 5920325
-0.047874287 0.18273142 0.708 6184544
-0.046525717 0.18273142 0.708 5723993
-0.045304764 0.18324763 0.71000004 8747873
-0.043952383 0.18324763 0.71000004 11182214
-0.042600002 0.18324763 0.71000004 11575424
-0.041305717 0.18350571 0.71100003 11707010
-0.039951429 0.18350571 0.71100003 11576174
-0.038760003 0.18428002 0.71400005 11444588
-0.037504762 0.1847962 0.71600002 10196087
-0.036191426 0.18505429 0.71700001 8353883
-0.034922861 0.18557049 0.71900004 7174497
-0.033600003 0.18582858 0.72000003 7042911
-0.03222857 0.18582858 0.72000003 6780268
-0.030942859 0.18634477 0.72200006 7569784
-0.029608574 0.18660288 0.72300005 8159075
-0.028114285 0.18582858 0.72000003 13027757
-0.026742859 0.18582858 0.72000003 14209973
-0.02537143 0.18582858 0.72000003 16776414
-0.09257143 0.18720001 0.72000003 16315347
-0.091200002 0.18720001 0.72000003 16512726
-0.089828581 0.18720001 0.72000003 15789758
-0.088457145 0.18720001 0.72000003 10789490
-0.087085716 0.18720001 0.72000003 8096123
-0.085595243 0.18694001 0.71900004 6977642
-0.083874285 0.18616 0.71600002 7568468
-0.082510479 0.18616 0.71600002 7831640
-0.080920003 0.18564001 0.71400005 9801573
-0.079225719 0.18486001 0.71100003 11183226
-0.077761903 0.18460001 0.71000004 11050885
-0.076409526 0.18460001 0.71000004 10985092
-0.075057149 0.18460001 0.71000004 10591358
-0.073497139 0.18407999 0.708 9078119
-0.072148569 0.18407999 0.708 9404757
-0.070800006 0.18407999 0.708 9338964
-0.069353335 0.18381999 0.70700002 9402721
-0.068006672 0.18381999 0.70700002 9073756
-0.066660002 0.18381999 0.70700002 8549206
-0.065313332 0.18381999 0.70700002 8746585
-0.063876189 0.18356 0.70600003 6971212
-0.062531434 0.18356 0.70600003 6971212
-0.061186668 0.18356 0.70600003 8091492
-0.059841909 0.18356 0.70600003 7038804
-0.058580004 0.18381999 0.70700002 6511887
-0.057152383 0.18356 0.70600003 9340986
-0.05580762 0.18356 0.70600003 8093536
-0.054540001 0.18381999 0.70700002 5659195
-0.053193334 0.18381999 0.70700002 5725263
-0.051846668 0.18381999 0.70700002 5988435
-0.050500002 0.18381999 0.70700002 5857099
-0.049153332 0.18381999 0.70700002 5857099
-0.047874287 0.18407999 0.708 6647651
-0.046525717 0.18407999 0.708 6252893
-0.045304764 0.18460001 0.71000004 8354388
-0.043952383 0.18460001 0.71000004 10986108
-0.042600002 0.18460001 0.71000004 11378547
-0.041305717 0.18486001 0.71100003 11510133
-0.040063813 0.18538001 0.71300006 11641719
-0.038760003 0.18564001 0.71400005 11575926
-0.037504762 0.18616 0.71600002 10131058
-0.036191426 0.18641999 0.71700001 8157268
-0.034922861 0.18694001 0.71900004 6846815
-0.033600003 0.18720001 0.72000003 6254678
-0.03222857 0.18720001 0.72000003 6713687
-0.030942859 0.18772002 0.72200006 6976859
-0.029608574 0.18798001 0.72300005 7894881
-0.028114285 0.18720001 0.72000003 13224114
-0.026742859 0.18720001 0.72000003 14077874
-0.02537143 0.18720001 0.72000003 16775387
-0.092828579 0.18909526 0.72200006 16447175
-0.091453344 0.18909526 0.72200006 16644554
-0.089828581 0.18857144 0.72000003 15658674
-0.088457145 0.18857144 0.72000003 11579508
-0.087085716 0.18857144 0.72000003 8489094
-0.085714288 0.18857144 0.72000003 7041648
-0.083991431 0.18778571 0.71700001 7699284
-0.082510479 0.18752381 0.71600002 7896663
-0.080920003 0.18700001 0.71400005 9538138
-0.079560004 0.18700001 0.71400005 11577721
-0.077871427 0.1862143 0.71100003 11247503
-0.076409526 0.1859524 0.71000004 10984331
-0.075057149 0.1859524 0.71000004 10591089
-0.073704764 0.1859524 0.71000004 9012057
-0.072148569 0.18542856 0.708 8681305
-0.070800006 0.18542856 0.708 8812891
-0.069451429 0.18542856 0.708 8746072
-0.068006672 0.18516667 0.70700002 8351314
-0.066660002 0.18516667 0.70700002 8681300
-0.065313332 0.18516667 0.70700002 8878679
-0.063966669 0.18516667 0.70700002 6840675
-0.062619999 0.18516667 0.70700002 6445917
-0.061273329 0.18516667 0.70700002 7039058
-0.059926666 0.18516667 0.70700002 6644300
-0.058580004 0.18516667 0.70700002 6971952
-0.057233334 0.18516667 0.70700002 9340500
-0.055886667 0.18516667 0.70700002 8947286
-0.054540001 0.18516667 0.70700002 7499840
-0.053193334 0.18516667 0.70700002 7631963
-0.051919997 0.18542856 0.708 7960928
-0.050571427 0.18542856 0.708 7500123
-0.049222857 0.18542856 0.708 7565916
-0.047874287 0.18542856 0.708 7369568
-0.046657145 0.1859524 0.71000004 7172189
-0.045304764 0.1859524 0.71000004 8222558
-0.043952383 0.1859524 0.71000004 9341039
-0.042660002 0.1862143 0.71100003 10062658
-0.041421909 0.1867381 0.71300006 10523209
-0.040063813 0.1867381 0.71300006 11379817
-0.038868573 0.18752381 0.71600002 11577196
-0.037557144 0.18778571 0.71700001 9999981
-0.036292382 0.18830952 0.71900004 8091984
-0.034971431 0.18857144 0.72000003 6188383
-0.033600003 0.18857144 0.72000003 5464660
-0.032318097 0.18909526 0.72200006 5792846
-0.030985717 0.18935715 0.72300005 6779741
-0.029608574 0.18935715 0.72300005 7829099
-0.028114285 0.18857144 0.72000003 13355711
-0.026742859 0.18857144 0.72000003 14604220
-0.02537143 0.18857144 0.72000003 16776417
-0.092957146 0.1907343 0.72300005 16447436
-0.091580003 0.1907343 0.72300005 16644815
-0.090078101 0.19047049 0.72200006 15592386
-0.088702865 0.19047049 0.72200006 12039564
-0.087327629 0.19047049 0.72200006 9475968
-0.085952386 0.19047049 0.72200006 7502178
-0.08434286 0.18994285 0.72000003 7896153
-0.082856201 0.18967906 0.71900004 7961946
-0.081146665 0.18888761 0.71600002 9209436
-0.079782858 0.18888761 0.71600002 11051640
-0.078200005 0.18836001 0.71400005 11182223
-0.07673239 0.18809621 0.71300006 10787465
-0.075162858 0.18756858 0.71100003 9801832
-0.073704764 0.18730478 0.71000004 8485972
-0.07235238 0.18730478 0.71000004 8549968
-0.071000002 0.18730478 0.71000004 8681554
-0.069451429 0.18677714 0.708 8550746
-0.068102859 0.18677714 0.708 8550746
-0.066754289 0.18677714 0.708 8879716
-0.065405719 0.18677714 0.708 8616544
-0.064057142 0.18677714 0.708 8024929
-0.062708572 0.18677714 0.708 7695964
-0.061360002 0.18677714 0.708 7761748
-0.060011428 0.18677714 0.708 7169611
-0.058662858 0.18677714 0.708 7431228
-0.057314284 0.18677714 0.708 9470811
-0.055965714 0.18677714 0.708 9603693
-0.05461714 0.18677714 0.708 9143142
-0.05326857 0.18677714 0.708 8683363
-0.051919997 0.18677714 0.708 8485984
-0.050571427 0.18677714 0.708 7892821
-0.049222857 0.18677714 0.708 8024407
-0.047874287 0.18677714 0.708 7958618
-0.046657145 0.18730478 0.71000004 8024411
-0.045304764 0.18730478 0.71000004 7828824
-0.044014286 0.18756858 0.71100003 8157789
-0.042660002 0.18756858 0.71100003 8485175
-0.041421909 0.18809621 0.71300006 9735242
-0.040120002 0.18836001 0.71400005 10853239
-0.038922857 0.18915144 0.71700001 10853239
-0.037661906 0.18967906 0.71900004 9672316
-0.036292382 0.18967906 0.71900004 7698526
-0.034971431 0.18994285 0.72000003 6188887
-0.033693336 0.19047049 0.72200006 5530957
-0.032318097 0.19047049 0.72200006 5595206
-0.031071428 0.19126192 0.72500002 6845273
-0.029690476 0.19126192 0.72500002 7829342
-0.028387621 0.19178954 0.72700006 13553333
-0.027040001 0.19205333 0.72800004 14999230
-0.025653334 0.19205333 0.72800004 16709848
-0.092957146 0.19211143 0.72300005 16446925
-0.091580003 0.19211143 0.72300005 16776918
-0.090202861 0.19211143 0.72300005 16118231
-0.088825718 0.19211143 0.72300005 12631202
-0.087448575 0.19211143 0.72300005 9672323
-0.085952386 0.19184573 0.72200006 7566947
-0.08434286 0.19131429 0.72000003 7830875
-0.082971431 0.19131429 0.72000003 7896668
-0.081259996 0.19051714 0.71700001 8749154
-0.079782858 0.19025144 0.71600002 10657151
-0.078419052 0.19025144 0.71600002 10656630
-0.076840006 0.18972 0.71400005 9406563
-0.075162858 0.18892285 0.71100003 8946512
-0.073808573 0.18892285 0.71100003 8025410
-0.07235238 0.18865715 0.71000004 8287310
-0.071000002 0.18865715 0.71000004 8484689
-0.069647625 0.18865715 0.71000004 8550233
-0.068102859 0.18812571 0.708 8550233
-0.066754289 0.18812571 0.708 8616796
-0.065405719 0.18812571 0.708 8616796
-0.064057142 0.18812571 0.708 8090200
-0.062708572 0.18812571 0.708 7958614
-0.061360002 0.18812571 0.708 8024661
-0.060011428 0.18812571 0.708 8287833
-0.058662858 0.18812571 0.708 7826262
-0.057314284 0.18812571 0.708 9142122
-0.055965714 0.18812571 0.708 9274979
-0.05461714 0.18812571 0.708 9209186
-0.05326857 0.18812571 0.708 8748633
-0.051919997 0.18812571 0.708 8682840
-0.050571427 0.18812571 0.708 8221538
-0.049222857 0.18812571 0.708 8155745
-0.048009526 0.18865715 0.71000004 8222047
-0.046657145 0.18865715 0.71000004 8222047
-0.045304764 0.18865715 0.71000004 8288351
-0.044014286 0.18892285 0.71100003 9077867
-0.042780001 0.1894543 0.71300006 8551777
-0.041480005 0.18972 0.71400005 8814949
-0.040120002 0.18972 0.71400005 8814947
-0.038922857 0.19051714 0.71700001 8880740
-0.037661906 0.19104858 0.71900004 8225131
-0.036292382 0.19104858 0.71900004 7698787
-0.034971431 0.19131429 0.72000003 6123094
-0.033693336 0.19184573 0.72200006 5991508
-0.032318097 0.19184573 0.72200006 5989473
-0.031071428 0.19264287 0.72500002 6910575
-0.029772382 0.1931743 0.72700006 7566420
-0.028426668 0.19344001 0.72800004 13619376
-0.027040001 0.19344001 0.72800004 15854779
-0.091833338 0.19402382 0.72500002 16643532
-0.090202861 0.19348858 0.72300005 16381403
-0.088825718 0.19348858 0.72300005 12828581
-0.087448575 0.19348858 0.72300005 10526083
-0.086071432 0.19348858 0.72300005 7762777
-0.084577151 0.19322097 0.72200006 7764576
-0.082971431 0.19268572 0.72000003 7764576
-0.081486672 0.19241811 0.71900004 8091994
-0.079894282 0.19188286 0.71700001 9671026
-0.078419052 0.19161524 0.71600002 9867894
-0.076840006 0.19108002 0.71400005 9144171
-0.075480007 0.19108002 0.71400005 8486485
-0.074016191 0.19081239 0.71300006 8025934
-0.072454289 0.19027714 0.71100003 7892036
-0.071100004 0.19027714 0.71100003 8089415
-0.069647625 0.19000953 0.71000004 8154445
-0.06829524 0.19000953 0.71000004 8614996
-0.066754289 0.18947428 0.708 8352863
-0.065405719 0.18947428 0.708 8352863
-0.064057142 0.18947428 0.708 7958614
-0.062708572 0.18947428 0.708 7958614
-0.061360002 0.18947428 0.708 7563086
-0.060011428 0.18947428 0.708 7760465
-0.058662858 0.18947428 0.708 7694407
-0.057314284 0.18947428 0.708 9010267
-0.055965714 0.18947428 0.708 8748641
-0.05461714 0.18947428 0.708 8682848
-0.05326857 0.18947428 0.708 8748635
-0.051919997 0.18947428 0.708 8946014
-0.050571427 0.18947428 0.708 9011817
-0.049361907 0.19000953 0.71000004 8880231
-0.048009526 0.19000953 0.71000004 8748382
-0.046657145 0.19000953 0.71000004 8682589
-0.045304764 0.19000953 0.71000004 8485210
-0.044014286 0.19027714 0.71100003 9011554
-0.042780001 0.19081239 0.71300006 8289639
-0.041480005 0.19108002 0.71400005 8421225
-0.040232379 0.19161524 0.71600002 8290663
-0.038922857 0.19188286 0.71700001 8224870
-0.037661906 0.19241811 0.71900004 7764837
-0.036342856 0.19268572 0.72000003 6975321
-0.034971431 0.19268572 0.72000003 6384733
-0.033693336 0.19322097 0.72200006 6318940
-0.03236286 0.19348858 0.72300005 5923928
-0.031071428 0.19402382 0.72500002 6647651
-0.029772382 0.19455907 0.72700006 7368787
-0.028387621 0.19455907 0.72700006 13684915
-0.09221334 0.19621335 0.72800004 16512217
-0.090452388 0.19540477 0.72500002 16315862
-0.08907143 0.19540477 0.72500002 13355177
-0.087448575 0.19486572 0.72300005 10395796
-0.086071432 0.19486572 0.72300005 7303525
-0.084577151 0.1945962 0.72200006 6843744
-0.082971431 0.19405715 0.72000003 6383193
-0.081486672 0.19378762 0.71900004 6710886
-0.079894282 0.19324857 0.71700001 8224125
-0.078528576 0.19324857 0.71700001 8619093
-0.077055238 0.19297905 0.71600002 8553300
-0.075691432 0.19297905 0.71600002 8355420
-0.07412 0.19244 0.71400005 8355420
-0.072658099 0.1921705 0.71300006 8419937
-0.071300007 0.1921705 0.71300006 8551523
-0.069745712 0.19163144 0.71100003 8551516
-0.06829524 0.1913619 0.71000004 8748895
-0.066942856 0.1913619 0.71000004 8617066
-0.065590478 0.1913619 0.71000004 8222308
-0.064238101 0.1913619 0.71000004 7959388
-0.062708572 0.19082285 0.708 7893595
-0.061360002 0.19082285 0.708 8288605
-0.060180955 0.1913619 0.71000004 8288605
-0.058828574 0.1913619 0.71000004 8155988
-0.057476193 0.1913619 0.71000004 8879711
-0.056123812 0.1913619 0.71000004 8354137
-0.054771431 0.1913619 0.71000004 7564621
-0.05341905 0.1913619 0.71000004 7826782
-0.052066669 0.1913619 0.71000004 9011056
-0.050714288 0.1913619 0.71000004 10063455
-0.049361907 0.1913619 0.71000004 10063455
-0.048077144 0.19163144 0.71100003 9799763
-0.046722859 0.19163144 0.71100003 9339212
-0.045368571 0.19163144 0.71100003 9208414
-0.0441381 0.1921705 0.71300006 9274207
-0.04284 0.19244 0.71400005 8618352
-0.041480005 0.19244 0.71400005 8684145
-0.040232379 0.19297905 0.71600002 8290663
-0.038922857 0.19324857 0.71700001 8159077
-0.037661906 0.19378762 0.71900004 7634523
-0.036342856 0.19405715 0.72000003 6187077
-0.034971431 0.19405715 0.72000003 6056545
-0.033693336 0.1945962 0.72200006 6253924
-0.03236286 0.19486572 0.72300005 6450272
-0.031157147 0.19594382 0.72700006 6516065
-0.029772382 0.19594382 0.72700006 7500373
-0.028387621 0.19594382 0.72700006 13684915
-0.09221334 0.19760001 0.72800004 16578002
-0.090826668 0.19760001 0.72800004 16315867
-0.08907143 0.19678572 0.72500002 13749940
-0.087448575 0.19624287 0.72300005 11120532
-0.086071432 0.19624287 0.72300005 7041366
-0.084577151 0.19597144 0.72200006 6581599
-0.082971431 0.19542858 0.72000003 6252634
-0.081600003 0.19542858 0.72000003 6251857
-0.080117144 0.19515716 0.71900004 7962475
-0.078528576 0.19461429 0.71700001 8290920
-0.077055238 0.19434287 0.71600002 8225127
-0.075691432 0.19434287 0.71600002 8093532
-0.07412 0.19380002 0.71400005 8093532
-0.072658099 0.19352859 0.71300006 8026969
-0.071300007 0.19352859 0.71300006 8224348
-0.069941908 0.19352859 0.71300006 8355417
-0.068391435 0.19298573 0.71100003 8421210
-0.066942856 0.19271429 0.71000004 8289641
-0.065590478 0.19271429 0.71000004 8289641
-0.064238101 0.19271429 0.71000004 8224359
-0.062885717 0.19271429 0.71000004 7829601
-0.061533332 0.19271429 0.71000004 8092512
-0.060180955 0.19271429 0.71000004 7960926
-0.058828574 0.19271429 0.71000004 7893075
-0.057476193 0.19271429 0.71000004 8090454
-0.056123812 0.19271429 0.71000004 7893082
-0.054771431 0.19271429 0.71000004 7235152
-0.05341905 0.19271429 0.71000004 7497804
-0.052066669 0.19271429 0.71000004 9537387
-0.050714288 0.19271429 0.71000004 10260586
-0.049431432 0.19298573 0.71100003 10194793
-0.048077144 0.19298573 0.71100003 9996120
-0.046722859 0.19298573 0.71100003 9996120
-0.045496192 0.19352859 0.71300006 9601884
-0.044200003 0.19380002 0.71400005 9470298
-0.04284 0.19380002 0.71400005 8880490
-0.041596193 0.19434287 0.71600002 8683111
-0.040232379 0.19434287 0.71600002 7501910
-0.039031431 0.19515716 0.71900004 8028254
-0.037661906 0.19515716 0.71900004 7503707
-0.036342856 0.19542858 0.72000003 6385226
-0.035068572 0.19597144 0.72200006 6121561
-0.033693336 0.19597144 0.72200006 6253147
-0.032541908 0.1973286 0.72700006 6581849
-0.031157147 0.1973286 0.72700006 6252884
-0.029772382 0.1973286 0.72700006 7566166
-0.028426668 0.19760001 0.72800004 13355950
-0.027040001 0.19760001 0.72800004 15394239
-0.092086673 0.19871335 0.72700006 16578513
-0.090701908 0.19871335 0.72700006 16249815
-0.089317143 0.19871335 0.72700006 14276025
-0.08769048 0.19816668 0.72500002 11909266
-0.086071432 0.19762 0.72300005 7172170
-0.084577151 0.19734669 0.72200006 6318438
-0.083201908 0.19734669 0.72200006 6318438
-0.081600003 0.19680001 0.72000003 6384222
-0.080117144 0.19652668 0.71900004 7436910
-0.078528576 0.19598 0.71700001 7896166
-0.077162862 0.19598 0.71700001 7830373
-0.075691432 0.19570667 0.71600002 8224601
-0.07412 0.19516002 0.71400005 8553566
-0.072760001 0.19516002 0.71400005 8421714
-0.071400002 0.19516002 0.71400005 8421714
-0.069941908 0.19488667 0.71300006 8158290
-0.068583816 0.19488667 0.71300006 8158290
-0.067037143 0.19434001 0.71100003 8026969
-0.065682858 0.19434001 0.71100003 7566418
-0.064238101 0.19406667 0.71000004 7236951
-0.062885717 0.19406667 0.71000004 6644814
-0.061533332 0.19406667 0.71000004 7105099
-0.060180955 0.19406667 0.71000004 7631443
-0.058828574 0.19406667 0.71000004 7827533
-0.057476193 0.19406667 0.71000004 7235396
-0.056123812 0.19406667 0.71000004 6972763
-0.054771431 0.19406667 0.71000004 5920075
-0.05341905 0.19406667 0.71000004 7563340
-0.052140001 0.19434001 0.71100003 9734509
-0.050785713 0.19434001 0.71100003 10127960
-0.049431432 0.19434001 0.71100003 9798995
-0.048212387 0.19488667 0.71300006 9864277
-0.046854287 0.19488667 0.71300006 9995863
-0.045496192 0.19488667 0.71300006 9273428
-0.044200003 0.19516002 0.71400005 8220740
-0.042960003 0.19570667 0.71600002 7631979
-0.041596193 0.19570667 0.71600002 8421495
-0.040232379 0.19570667 0.71600002 9014626
-0.039031431 0.19652668 0.71900004 9212005
-0.037661906 0.19652668 0.71900004 9146212
-0.036342856 0.19680001 0.72000003 8488282
-0.035068572 0.19734669 0.72200006 7502426
-0.033693336 0.19734669 0.72200006 6449738
-0.032452382 0.19816668 0.72500002 6318427
-0.031157147 0.19871335 0.72700006 6186841
-0.029772382 0.19871335 0.72700006 7959638
-0.028426668 0.19898668 0.72800004 13354664
-0.027151428 0.19980666 0.73100001 15459771
-0.025759049 0.19980666 0.73100001 16776402
-0.090826668 0.20037334 0.72800004 16117720
-0.089440003 0.20037334 0.72800004 14604481
-0.08769048 0.19954762 0.72500002 12434073
-0.086071432 0.19899715 0.72300005 7696977
-0.084577151 0.19872192 0.72200006 6187104
-0.083201908 0.19872192 0.72200006 6187104
-0.081600003 0.19817142 0.72000003 6318690
-0.080117144 0.1978962 0.71900004 7305585
-0.078528576 0.1973457 0.71700001 7633521
-0.077162862 0.1973457 0.71700001 7436142
-0.075691432 0.19707048 0.71600002 7501147
-0.07412 0.19652 0.71400005 7698526
-0.072760001 0.19652 0.71400005 7764319
-0.071400002 0.19652 0.71400005 7106389
-0.07004001 0.19652 0.71400005 6712130
-0.068583816 0.19624478 0.71300006 6777923
-0.067037143 0.19569428 0.71100003 6711888
-0.065682858 0.19569428 0.71100003 6777681
-0.064238101 0.19541906 0.71000004 6842963
-0.062885717 0.19541906 0.71000004 6711377
-0.061533332 0.19541906 0.71000004 7105350
-0.060180955 0.19541906 0.71000004 7565901
-0.058828574 0.19541906 0.71000004 7828044
-0.057476193 0.19541906 0.71000004 7828044
-0.056202859 0.19569428 0.71100003 7499607
-0.054848574 0.19569428 0.71100003 6973263
-0.053494286 0.19569428 0.71100003 7563340
-0.052140001 0.19569428 0.71100003 9734509
-0.050928578 0.19624478 0.71300006 10061915
-0.049570478 0.19624478 0.71300006 9798743
-0.048212387 0.19624478 0.71300006 9864023
-0.046854287 0.19624478 0.71300006 9929816
-0.045560002 0.19652 0.71400005 8946005
-0.044200003 0.19652 0.71400005 8024903
-0.042960003 0.19707048 0.71600002 7304018
-0.041596193 0.19707048 0.71600002 8883050
-0.040288571 0.1973457 0.71700001 9211511
-0.039031431 0.1978962 0.71900004 9474683
-0.037661906 0.1978962 0.71900004 9801331
-0.036342856 0.19817142 0.72000003 9011815
-0.035068572 0.19872192 0.72200006 8290672
-0.033693336 0.19872192 0.72200006 6777433
-0.032452382 0.19954762 0.72500002 6383193
-0.031157147 0.2000981 0.72700006 6514779
-0.029772382 0.2000981 0.72700006 8353887
-0.028504763 0.20092382 0.73000002 13354155
-0.027151428 0.20119905 0.73100001 14998978
-0.025759049 0.20119905 0.73100001 16776160
-0.092593335 0.20259143 0.73100001 16314577
-0.090826668 0.20176001 0.72800004 16183774
-0.089440003 0.20176001 0.72800004 14604742
-0.08769048 0.20092857 0.72500002 12631449
-0.086071432 0.20037431 0.72300005 7960146
-0.084694296 0.20037431 0.72300005 6252647
-0.083201908 0.20009716 0.72200006 6384233
-0.081826672 0.20009716 0.72200006 6515817
-0.080228575 0.19954287 0.72000003 6976368
-0.078747623 0.19926573 0.71900004 6252395
-0.077162862 0.19871143 0.71700001 6055016
-0.075691432 0.19843429 0.71600002 6186339
-0.07412 0.19788001 0.71400005 6581097
-0.072760001 0.19788001 0.71400005 5988960
-0.071400002 0.19788001 0.71400005 5791581
-0.07004001 0.19788001 0.71400005 6054730
-0.068583816 0.19760287 0.71300006 6581074
-0.067225717 0.19760287 0.71300006 6581074
-0.065682858 0.19704857 0.71100003 6712660
-0.064328574 0.19704857 0.71100003 6581074
-0.062974289 0.19704857 0.71100003 6449488
-0.061620004 0.19704857 0.71100003 6974803
-0.060265716 0.19704857 0.71100003 7895905
-0.058911432 0.19704857 0.71100003 8355147
-0.057557143 0.19704857 0.71100003 8947284
-0.056202859 0.19704857 0.71100003 7763799
-0.054848574 0.19704857 0.71100003 7040076
-0.053494286 0.19704857 0.71100003 7892575
-0.052140001 0.19704857 0.71100003 9734779
-0.050928578 0.19760287 0.71300006 10127190
-0.049570478 0.19760287 0.71300006 9864018
-0.048212387 0.19760287 0.71300006 9666394
-0.046854287 0.19760287 0.71300006 9666394
-0.045560002 0.19788001 0.71400005 8814426
-0.044323809 0.19843429 0.71600002 7959117
-0.042960003 0.19843429 0.71600002 7436887
-0.041654285 0.19871143 0.71700001 8818540
-0.040400952 0.19926573 0.71900004 9342590
-0.039031431 0.19926573 0.71900004 10461071
-0.037714288 0.19954287 0.72000003 9670757
-0.036342856 0.19954287 0.72000003 7828553
-0.035068572 0.20009716 0.72200006 7107945
-0.033693336 0.20009716 0.72200006 7107945
-0.032452382 0.20092857 0.72500002 6515819
-0.031157147 0.20148288 0.72700006 6318440
-0.029772382 0.20148288 0.72700006 7958877
-0.028543809 0.20259143 0.73100001 13222317
-0.027225716 0.20314573 0.73300004 14669763
-0.025829526 0.20314573 0.73300004 16775910
-0.092593335 0.2039838 0.73100001 16577741
-0.091200955 0.2039838 0.73100001 16578791
-0.089440003 0.20314668 0.72800004 15131345
-0.08769048 0.20230952 0.72500002 12567450
-0.086071432 0.20175144 0.72300005 7369803
-0.084694296 0.20175144 0.72300005 6845284
-0.083201908 0.2014724 0.72200006 6976870
-0.081826672 0.2014724 0.72200006 6909287
-0.080228575 0.20091429 0.72000003 6646115
-0.078747623 0.20063524 0.71900004 6121307
-0.077162862 0.20007715 0.71700001 5726549
-0.075691432 0.19979811 0.71600002 5530957
-0.074327618 0.19979811 0.71600002 5662543
-0.072760001 0.19924001 0.71400005 5463631
-0.071400002 0.19924001 0.71400005 5463631
-0.07004001 0.19924001 0.71400005 5661512
-0.068680003 0.19924001 0.71400005 6253649
-0.067320004 0.19924001 0.71400005 6318929
-0.065867618 0.19896096 0.71300006 6318929
-0.064509533 0.19896096 0.71300006 6122063
-0.063151434 0.19896096 0.71300006 6056270
-0.061793335 0.19896096 0.71300006 7237975
-0.060265716 0.19840287 0.71100003 7830112
-0.058911432 0.19840287 0.71100003 8158036
-0.057719052 0.19896096 0.71300006 8289622
-0.056360956 0.19896096 0.71300006 7896162
-0.055002861 0.19896096 0.71300006 7369818
-0.053644765 0.19896096 0.71300006 8353362
-0.05228667 0.19896096 0.71300006 9800808
-0.050928578 0.19896096 0.71300006 10192988
-0.04964 0.19924001 0.71400005 9732437
-0.048280004 0.19924001 0.71400005 9797723
-0.046920002 0.19924001 0.71400005 9666137
-0.04568762 0.19979811 0.71600002 8617306
-0.044323809 0.19979811 0.71600002 8025169
-0.043020003 0.20007715 0.71700001 7109711
-0.041654285 0.20007715 0.71700001 8030813
-0.040400952 0.20063524 0.71900004 8750953
-0.039085716 0.20091429 0.72000003 9869434
-0.037714288 0.20091429 0.72000003 9474674
-0.036342856 0.20091429 0.72000003 7040333
-0.035068572 0.2014724 0.72200006 6516569
-0.033693336 0.2014724 0.72200006 6779741
-0.032452382 0.20230952 0.72500002 6516056
-0.031157147 0.20286763 0.72700006 6318677
-0.029772382 0.20286763 0.72700006 7433816
-0.028660953 0.20482096 0.73400003 12631463
-0.027262859 0.20482096 0.73400003 14011824
-0.025864763 0.20482096 0.73400003 16775130
-0.092593335 0.20537619 0.73100001 16512200
-0.091200955 0.20537619 0.73100001 16446683
-0.089440003 0.20453334 0.72800004 15262409
-0.087932393 0.20425239 0.72700006 13224349
-0.086309522 0.20369047 0.72500002 7368772
-0.084694296 0.20312859 0.72300005 6779228
-0.083201908 0.20284763 0.72200006 7305572
-0.081826672 0.20284763 0.72200006 7303775
-0.080228575 0.20228572 0.72000003 6514259
-0.078747623 0.20200478 0.71900004 6252384
-0.077378094 0.20200478 0.71900004 6252384
-0.075797141 0.20144285 0.71700001 6581328
-0.074327618 0.20116191 0.71600002 7239258
-0.072963811 0.20116191 0.71600002 5989212
-0.071599998 0.20116191 0.71600002 5726040
-0.07004001 0.20060001 0.71400005 5923671
-0.068680003 0.20060001 0.71400005 6778980
-0.067320004 0.20060001 0.71400005 6974549
-0.065960005 0.20060001 0.71400005 6908756
-0.064599998 0.20060001 0.71400005 6974549
-0.063240007 0.20060001 0.71400005 7369307
-0.061793335 0.20031907 0.71300006 7631445
-0.060435243 0.20031907 0.71300006 7631445
-0.059077147 0.20031907 0.71300006 8551254
-0.057800002 0.20060001 0.71400005 8617047
-0.056360956 0.20031907 0.71300006 8617059
-0.055002861 0.20031907 0.71300006 9077610
-0.053644765 0.20031907 0.71300006 9602647
-0.05228667 0.20031907 0.71300006 10194784
-0.051000003 0.20060001 0.71400005 10127710
-0.04964 0.20060001 0.71400005 9798745
-0.048280004 0.20060001 0.71400005 9601121
-0.046920002 0.20060001 0.71400005 9403742
-0.04568762 0.20116191 0.71600002 9537631
-0.044323809 0.20116191 0.71600002 9603424
-0.043020003 0.20144285 0.71700001 9407324
-0.041654285 0.20144285 0.71700001 9538910
-0.040400952 0.20200478 0.71900004 9669733
-0.039085716 0.20228572 0.72000003 10261870
-0.037714288 0.20228572 0.72000003 9343603
-0.036443811 0.20284763 0.72200006 6580297
-0.035068572 0.20284763 0.72200006 6254680
-0.033740003 0.20312859 0.72300005 6978403
-0.032452382 0.20369047 0.72500002 6977370
-0.031157147 0.20425239 0.72700006 6451026
-0.029772382 0.20425239 0.72700006 7302242
-0.028387621 0.20425239 0.72700006 12105131
-0.092846669 0.20733429 0.73300004 16512198
-0.091450475 0.20733429 0.73300004 16315610
-0.089808576 0.20676856 0.73100001 15789266
-0.087932393 0.20563716 0.72700006 13422757
-0.086309522 0.20507143 0.72500002 7304008
-0.084928572 0.20507143 0.72500002 6646615
-0.083317153 0.20450573 0.72300005 7304545
-0.081826672 0.20422287 0.72200006 7500904
-0.080451436 0.20422287 0.72200006 6908767
-0.078857146 0.20365715 0.72000003 6843474
-0.077378094 0.2033743 0.71900004 7435611
-0.075797141 0.20280857 0.71700001 7961178
-0.074327618 0.20252572 0.71600002 8421729
-0.072963811 0.20252572 0.71600002 8159075
-0.071599998 0.20252572 0.71600002 7172180
-0.07004001 0.20196001 0.71400005 6843469
-0.068680003 0.20196001 0.71400005 7172434
-0.067320004 0.20196001 0.71400005 7761997
-0.065960005 0.20196001 0.71400005 7761997
-0.064599998 0.20196001 0.71400005 8353616
-0.063240007 0.20196001 0.71400005 8287823
-0.061880007 0.20196001 0.71400005 8222278
-0.060520004 0.20196001 0.71400005 8353864
-0.059160002 0.20196001 0.71400005 8682068
-0.057800002 0.20196001 0.71400005 8945240
-0.056440003 0.20196001 0.71400005 9272420
-0.055080004 0.20196001 0.71400005 9798764
-0.053720001 0.20196001 0.71400005 9929820
-0.052360002 0.20196001 0.71400005 9864027
-0.051000003 0.20196001 0.71400005 9798482
-0.04964 0.20196001 0.71400005 9798482
-0.048280004 0.20196001 0.71400005 9733209
-0.04705143 0.20252572 0.71600002 10062174
-0.04568762 0.20252572 0.71600002 10127729
-0.044323809 0.20252572 0.71600002 10259315
-0.043020003 0.20280857 0.71700001 10325087
-0.041770477 0.2033743 0.71900004 10654052
-0.040400952 0.2033743 0.71900004 10261354
-0.039085716 0.20365715 0.72000003 10392940
-0.037714288 0.20365715 0.72000003 9211511
-0.036443811 0.20422287 0.72200006 6777170
-0.035068572 0.20422287 0.72200006 6319442
-0.033740003 0.20450573 0.72300005 6977372
-0.032452382 0.20507143 0.72500002 6977363
-0.031157147 0.20563716 0.72700006 6516812
-0.029772382 0.20563716 0.72700006 7040353
-0.028387621 0.20563716 0.72700006 11514277
-0.092846669 0.20873047 0.73300004 16644302
-0.091450475 0.20873047 0.73300004 16512726
-0.089808576 0.20816095 0.73100001 15986382
-0.088053338 0.20730668 0.72800004 13684893
-0.086547628 0.20702192 0.72700006 7500351
-0.084928572 0.20645238 0.72500002 6450024
-0.083317153 0.20588288 0.72300005 6844782
-0.081826672 0.20559812 0.72200006 7042152
-0.080451436 0.20559812 0.72200006 6581601
-0.078857146 0.20502858 0.72000003 7565650
-0.07748571 0.20502858 0.72000003 9342061
-0.076008573 0.20474382 0.71900004 9931634
-0.074327618 0.20388952 0.71600002 9865841
-0.072963811 0.20388952 0.71600002 9603180
-0.071599998 0.20388952 0.71600002 9471594
-0.070236191 0.20388952 0.71600002 9341022
-0.068680003 0.20332001 0.71400005 8880471
-0.067320004 0.20332001 0.71400005 8879451
-0.065960005 0.20332001 0.71400005 8945244
-0.064599998 0.20332001 0.71400005 9405768
-0.063240007 0.20332001 0.71400005 9537354
-0.061880007 0.20332001 0.71400005 9405770
-0.060520004 0.20332001 0.71400005 9668942
-0.059160002 0.20332001 0.71400005 9339225
