# .PCD v0.7 - Point Cloud Data file format
VERSION 0.7
FIELDS x y z rgb
SIZE 4 4 4 4
TYPE F F F F
COUNT 1 1 1 1
WIDTH 998
HEIGHT 1
VIEWPOINT 0 0 0 1 0 0 0
POINTS 998
DATA ascii
-0.035147619 0.13356096 0.671 9.7716227e-39
-0.033869524 0.13356096 0.671 1.1338948e-38
-0.032640003 0.13376001 0.67200005 1.1339299e-38
-0.031453334 0.1341581 0.67400002 1.0693929e-38
-0.030169524 0.1341581 0.67400002 1.0507743e-38
-0.028885717 0.1341581 0.67400002 1.0138961e-38
-0.027683811 0.1345562 0.67600006 1.0322622e-38
-0.026396191 0.1345562 0.67600006 1.2074339e-38
-0.025182858 0.13495429 0.67800003 1.3363989e-38
-0.023926668 0.13515334 0.67900002 1.4285945e-38
-0.022666667 0.13535237 0.68000001 1.4010101e-38
-0.021434287 0.13575049 0.68200004 1.3917905e-38
-0.020164762 0.13594954 0.68300003 1.419377e-38
-0.01889143 0.13614857 0.68400002 1.4009379e-38
-0.017665716 0.13674572 0.68700004 1.4193389e-38
-0.016357144 0.13674572 0.68700004 1.4562172e-38
-0.015070477 0.13694477 0.68800002 1.4561833e-38
-0.013800002 0.13734286 0.69000006 1.4654028e-38
-0.01254 0.13794 0.69300002 1.5206109e-38
-0.01122 0.13794 0.69300002 1.603587e-38
-0.0099142855 0.13813905 0.69400001 1.6404661e-38
-0.0085923811 0.13813905 0.69400001 2.0553464e-38
-0.087458096 0.14086762 0.70100003 2.1662695e-38
-0.085140005 0.13926001 0.69300002 2.0371957e-38
-0.083578095 0.13885811 0.69100004 1.9265615e-38
-0.081904761 0.13825524 0.68800002 1.7698289e-38
-0.080360003 0.13785335 0.68600005 1.6961074e-38
-0.079053335 0.13785335 0.68600005 1.5670335e-38
-0.077520005 0.13745143 0.68400002 1.3825719e-38
-0.075771429 0.13664761 0.68000001 1.2074002e-38
-0.074366666 0.13644667 0.67900002 1.4284164e-38
-0.072965719 0.13624573 0.67800003 1.5759294e-38
-0.071674287 0.13624573 0.67800003 1.548411e-38
-0.070175245 0.13584383 0.67600006 1.4562154e-38
-0.068887629 0.13584383 0.67600006 1.4562885e-38
-0.067500003 0.13564286 0.67500001 1.4286298e-38
-0.066214286 0.13564286 0.67500001 1.4101554e-38
-0.064832382 0.13544191 0.67400002 1.2442032e-38
-0.063360006 0.13504 0.67200005 1.2349827e-38
-0.061987616 0.13483904 0.671 1.1612262e-38
-0.060709521 0.13483904 0.671 1.2625682e-38
-0.059431426 0.13483904 0.671 1.2810074e-38
-0.058066666 0.1346381 0.67000002 1.2901929e-38
-0.056790475 0.1346381 0.67000002 1.2994124e-38
-0.055514287 0.1346381 0.67000002 1.1615493e-38
-0.054238096 0.1346381 0.67000002 9.5871894e-39
-0.052961905 0.1346381 0.67000002 9.4028402e-39
-0.051685713 0.1346381 0.67000002 9.4950358e-39
-0.050409522 0.1346381 0.67000002 9.8627268e-39
-0.049133334 0.1346381 0.67000002 9.9549224e-39
-0.047857143 0.1346381 0.67000002 1.0414468e-38
-0.046580952 0.1346381 0.67000002 1.0967642e-38
-0.04530476 0.1346381 0.67000002 1.0417342e-38
-0.044028569 0.1346381 0.67000002 1.0325147e-38
-0.042752381 0.1346381 0.67000002 9.6805061e-39
-0.04147619 0.1346381 0.67000002 1.0418071e-38
-0.040200002 0.1346381 0.67000002 9.7719927e-39
-0.038923811 0.1346381 0.67000002 9.4032102e-39
-0.03764762 0.1346381 0.67000002 1.0783977e-38
-0.036425717 0.13483904 0.671 1.0968368e-38
-0.035147619 0.13483904 0.671 1.0968371e-38
-0.033869524 0.13483904 0.671 1.2351305e-38
-0.032640003 0.13504 0.67200005 1.2352009e-38
-0.031453334 0.13544191 0.67400002 1.25364e-38
-0.030169524 0.13544191 0.67400002 1.2996309e-38
-0.028885717 0.13544191 0.67400002 1.3457287e-38
-0.027683811 0.13584383 0.67600006 1.3549473e-38
-0.026396191 0.13584383 0.67600006 1.382606e-38
-0.025182858 0.13624573 0.67800003 1.4100852e-38
-0.023926668 0.13644667 0.67900002 1.4377439e-38
-0.022666667 0.13664761 0.68000001 1.4284539e-38
-0.021465715 0.13725048 0.68300003 1.4192344e-38
-0.020164762 0.13725048 0.68300003 1.4285246e-38
-0.018946668 0.13785335 0.68600005 1.4561833e-38
-0.017665716 0.13805428 0.68700004 1.4194472e-38
-0.016357144 0.13805428 0.68700004 1.4747646e-38
-0.015114286 0.13865715 0.69000006 1.4838768e-38
-0.01382 0.13885811 0.69100004 1.4469986e-38
-0.01254 0.13926001 0.69300002 1.4930252e-38
-0.01122 0.13926001 0.69300002 1.5760013e-38
-0.0099142855 0.13946095 0.69400001 1.6312817e-38
-0.0086171431 0.13986287 0.69600004 2.046162e-38
-0.0072914292 0.13986287 0.69600004 2.2030018e-38
-0.087458096 0.14220285 0.70100003 2.1570503e-38
-0.085140005 0.14058001 0.69300002 2.0279764e-38
-0.083578095 0.1401743 0.69100004 1.9174142e-38
-0.082142867 0.13997145 0.69000006 1.7514621e-38
-0.080477148 0.13936286 0.68700004 1.686959e-38
-0.079053335 0.13916001 0.68600005 1.6132025e-38
-0.077520005 0.13875428 0.68400002 1.3734252e-38
-0.07599429 0.13834858 0.68200004 1.2351318e-38
-0.074366666 0.13774 0.67900002 1.3638049e-38
-0.072965719 0.13753714 0.67800003 1.5020983e-38
-0.071674287 0.13753714 0.67800003 1.4929166e-38
-0.070175245 0.13713144 0.67600006 1.4929166e-38
-0.068887629 0.13713144 0.67600006 1.4470713e-38
-0.067500003 0.13692857 0.67500001 1.4286322e-38
-0.066214286 0.13692857 0.67500001 1.4378518e-38
-0.064832382 0.13672572 0.67400002 1.3179974e-38
-0.063360006 0.13632001 0.67200005 1.3271433e-38
-0.062080003 0.13632001 0.67200005 1.2718259e-38
-0.060709521 0.13611715 0.671 1.2534584e-38
-0.059431426 0.13611715 0.671 1.262678e-38
-0.058153335 0.13611715 0.671 1.2534954e-38
-0.05687524 0.13611715 0.671 1.2534954e-38
-0.055597141 0.13611715 0.671 1.1799885e-38
-0.054319046 0.13611715 0.671 9.6793851e-39
-0.053040951 0.13611715 0.671 9.6772369e-39
-0.051762857 0.13611715 0.671 9.9538238e-39
-0.050409522 0.1359143 0.67000002 1.0137492e-38
-0.049133334 0.1359143 0.67000002 1.0506274e-38
-0.047857143 0.1359143 0.67000002 1.0691052e-38
-0.046580952 0.1359143 0.67000002 1.0783248e-38
-0.04530476 0.1359143 0.67000002 1.0691755e-38
-0.044028569 0.1359143 0.67000002 1.0599559e-38
-0.042752381 0.1359143 0.67000002 9.6801264e-39
-0.04147619 0.1359143 0.67000002 1.0509887e-38
-0.040200002 0.1359143 0.67000002 1.0326955e-38
-0.038923811 0.1359143 0.67000002 1.0234759e-38
-0.03764762 0.1359143 0.67000002 1.1614454e-38
-0.036425717 0.13611715 0.671 1.1798845e-38
-0.035147619 0.13611715 0.671 1.1982507e-38
-0.033869524 0.13611715 0.671 1.2443486e-38
-0.032640003 0.13632001 0.67200005 1.2811901e-38
-0.031453334 0.13672572 0.67400002 1.345727e-38
-0.030169524 0.13672572 0.67400002 1.3733158e-38
-0.02892857 0.13692857 0.67500001 1.3640962e-38
-0.027683811 0.13713144 0.67600006 1.382532e-38
-0.026474288 0.13753714 0.67800003 1.4009711e-38
-0.025182858 0.13753714 0.67800003 1.3456184e-38
-0.023961904 0.13794285 0.68000001 1.3732771e-38
-0.022666667 0.13794285 0.68000001 1.3822107e-38
-0.021465715 0.13855143 0.68300003 1.4283085e-38
-0.020164762 0.13855143 0.68300003 1.4008282e-38
-0.018946668 0.13916001 0.68600005 1.4192673e-38
-0.017665716 0.13936286 0.68700004 1.3917516e-38
-0.016380953 0.13956572 0.68800002 1.4655081e-38
-0.015114286 0.13997145 0.69000006 1.4748379e-38
-0.01382 0.1401743 0.69100004 1.4379597e-38
-0.01254 0.14058001 0.69300002 1.4838403e-38
-0.011236191 0.14078286 0.69400001 1.594475e-38
-0.0099142855 0.14078286 0.69400001 1.6404647e-38
-0.0085923811 0.14078286 0.69400001 2.0369059e-38
-0.0072704758 0.14078286 0.69400001 2.1200267e-38
-0.0059485715 0.14078286 0.69400001 2.239881e-38
-0.089046665 0.14394762 0.70300001 2.1847092e-38
-0.087458096 0.1435381 0.70100003 2.1662698e-38
-0.086000003 0.14333335 0.70000005 2.0371959e-38
-0.08382 0.1419 0.69300002 1.944965e-38
-0.082261913 0.14149047 0.69100004 1.7790129e-38
-0.080594286 0.14087619 0.68800002 1.7145449e-38
-0.07916858 0.14067143 0.68700004 1.6776666e-38
-0.077746667 0.14046668 0.68600005 1.4562253e-38
-0.076217145 0.14005713 0.68400002 1.3179319e-38
-0.074366666 0.13903333 0.67900002 1.2995932e-38
-0.073073335 0.13903333 0.67900002 1.3088128e-38
-0.071780004 0.13903333 0.67900002 1.3087075e-38
-0.070382856 0.13882858 0.67800003 1.2626097e-38
-0.068887629 0.13841906 0.67600006 1.2718656e-38
-0.067500003 0.13821429 0.67500001 1.3364025e-38
-0.066214286 0.13821429 0.67500001 1.3916816e-38
-0.064928576 0.13821429 0.67500001 1.4193403e-38
-0.063548572 0.13800952 0.67400002 1.4009361e-38
-0.062080003 0.1376 0.67200005 1.382497e-38
-0.060800005 0.1376 0.67200005 1.3548407e-38
-0.059520006 0.1376 0.67200005 1.3364015e-38
-0.058153335 0.13739523 0.671 1.3272872e-38
-0.05687524 0.13739523 0.671 1.2350916e-38
-0.055597141 0.13739523 0.671 1.2536005e-38
-0.054319046 0.13739523 0.671 1.26282e-38
-0.053040951 0.13739523 0.671 1.2536383e-38
-0.051762857 0.13739523 0.671 1.2444188e-38
-0.050484762 0.13739523 0.671 1.262713e-38
-0.049206667 0.13739523 0.671 1.262713e-38
-0.047928572 0.13739523 0.671 1.2811558e-38
-0.046650477 0.13739523 0.671 1.2811558e-38
-0.045372378 0.13739523 0.671 1.2719693e-38
-0.044094287 0.13739523 0.671 1.2719693e-38
-0.042816192 0.13739523 0.671 1.2720424e-38
-0.04147619 0.13719048 0.67000002 1.281262e-38
-0.040200002 0.13719048 0.67000002 1.2904113e-38
-0.038923811 0.13719048 0.67000002 1.2904113e-38
-0.037703808 0.13739523 0.671 1.3179984e-38
-0.036425717 0.13739523 0.671 1.3456571e-38
-0.035147619 0.13739523 0.671 1.3732425e-38
-0.033869524 0.13739523 0.671 1.4009012e-38
-0.032737143 0.13800952 0.67400002 1.3548754e-38
-0.031453334 0.13800952 0.67400002 1.364095e-38
-0.030214285 0.13821429 0.67500001 1.3732798e-38
-0.02892857 0.13821429 0.67500001 1.3548407e-38
-0.027765715 0.13882858 0.67800003 1.3732396e-38
-0.026474288 0.13882858 0.67800003 1.4008983e-38
-0.025220001 0.13903333 0.67900002 1.4008998e-38
-0.023961904 0.13923809 0.68000001 1.437778e-38
-0.022733334 0.13964762 0.68200004 1.4101557e-38
-0.021465715 0.13985237 0.68300003 1.4193752e-38
-0.020194286 0.14005713 0.68400002 1.4193396e-38
-0.018946668 0.14046668 0.68600005 1.4193396e-38
-0.017665716 0.14067143 0.68700004 1.3918945e-38
-0.016380953 0.14087619 0.68800002 1.4011141e-38
-0.015114286 0.14128572 0.69000006 1.4379229e-38
-0.01386 0.1419 0.69300002 1.4932403e-38
-0.01254 0.1419 0.69300002 1.49324e-38
-0.011236191 0.14210476 0.69400001 1.5669965e-38
-0.0099142855 0.14210476 0.69400001 1.6220971e-38
-0.0085923811 0.14210476 0.69400001 2.0093188e-38
-0.0072704758 0.14210476 0.69400001 2.1292111e-38
-0.093990475 0.14673334 0.71000004 2.120172e-38
-0.092638098 0.14673334 0.71000004 2.1662698e-38
-0.089046665 0.14528666 0.70300001 2.1847455e-38
-0.087458096 0.14487334 0.70100003 2.175526e-38
-0.086000003 0.14466667 0.70000005 2.0648912e-38
-0.08382 0.14321999 0.69300002 1.9541846e-38
-0.082261913 0.14280666 0.69100004 1.7605737e-38
-0.080828577 0.14260001 0.69000006 1.7237647e-38
-0.079283811 0.14218667 0.68800002 1.6592278e-38
-0.077860005 0.14198001 0.68700004 1.5670714e-38
-0.076440006 0.14177334 0.68600005 1.4103388e-38
-0.074914292 0.14136 0.68400002 1.4010458e-38
-0.073073335 0.14032666 0.67900002 1.3457284e-38
-0.071780004 0.14032666 0.67900002 1.1892845e-38
-0.070486665 0.14032666 0.67900002 1.1708454e-38
-0.069091432 0.14012 0.67800003 1.2534264e-38
-0.067600004 0.13970669 0.67600006 1.2718656e-38
-0.066312388 0.13970669 0.67600006 1.3087056e-38
-0.064928576 0.13950001 0.67500001 1.3732425e-38
-0.063642859 0.13950001 0.67500001 1.4009012e-38
-0.062357143 0.13950001 0.67500001 1.3824621e-38
-0.06098095 0.13929334 0.67400002 1.3364366e-38
-0.059520006 0.13888 0.67200005 1.327217e-38
-0.058240004 0.13888 0.67200005 1.3364366e-38
-0.05687524 0.13867332 0.671 1.2903387e-38
-0.055597141 0.13867332 0.671 1.3087036e-38
-0.054319046 0.13867332 0.671 1.3271427e-38
-0.053040951 0.13867332 0.671 1.3271443e-38
-0.051840004 0.13888 0.67200005 1.3179247e-38
-0.050560005 0.13888 0.67200005 1.3271427e-38
-0.049206667 0.13867332 0.671 1.3363623e-38
-0.047928572 0.13867332 0.671 1.3363643e-38
-0.046650477 0.13867332 0.671 1.3363643e-38
-0.045372378 0.13867332 0.671 1.3547654e-38
-0.044094287 0.13867332 0.671 1.4008632e-38
-0.042816192 0.13867332 0.671 1.4101554e-38
-0.041538097 0.13867332 0.671 1.4009358e-38
-0.040200002 0.13846667 0.67000002 1.3363643e-38
-0.038923811 0.13846667 0.67000002 1.3732425e-38
-0.037703808 0.13867332 0.671 1.3823905e-38
-0.036425717 0.13867332 0.671 1.3731709e-38
-0.035147619 0.13867332 0.671 1.4008642e-38
-0.033869524 0.13867332 0.671 1.4100838e-38
-0.032737143 0.13929334 0.67400002 1.3916802e-38
-0.031500001 0.13950001 0.67500001 1.3916802e-38
-0.030214285 0.13950001 0.67500001 1.3916107e-38
-0.02892857 0.13950001 0.67500001 1.3823912e-38
-0.027765715 0.14012 0.67800003 1.373168e-38
-0.026474288 0.14012 0.67800003 1.4377049e-38
-0.025220001 0.14032666 0.67900002 1.4193389e-38
-0.024032382 0.14094667 0.68200004 1.4193389e-38
-0.022733334 0.14094667 0.68200004 1.3734213e-38
-0.021497143 0.14136 0.68400002 1.3826409e-38
-0.020194286 0.14136 0.68400002 1.3826769e-38
-0.018974286 0.14198001 0.68700004 1.3918965e-38
-0.017665716 0.14198001 0.68700004 1.410263e-38
-0.016380953 0.14218667 0.68800002 1.4194826e-38
-0.015114286 0.14260001 0.69000006 1.410228e-38
-0.01386 0.14321999 0.69300002 1.493204e-38
-0.012558095 0.14342667 0.69400001 1.4748731e-38
-0.011236191 0.14342667 0.69400001 1.5025318e-38
-0.0099142855 0.14342667 0.69400001 1.6220974e-38
-0.0085923811 0.14342667 0.69400001 2.0185386e-38
-0.0072704758 0.14342667 0.69400001 2.1292111e-38
-0.093990475 0.14808571 0.71000004 2.1386477e-38
-0.092638098 0.14808571 0.71000004 2.1294281e-38
-0.089173339 0.1468343 0.70400006 2.1940004e-38
-0.087707624 0.14662571 0.70300001 2.1662708e-38
-0.086000003 0.146 0.70000005 2.0648556e-38
-0.084182858 0.14516573 0.69600004 2.0279764e-38
-0.082261913 0.14412287 0.69100004 1.7513895e-38
-0.080828577 0.1439143 0.69000006 1.7329487e-38
-0.079283811 0.14349715 0.68800002 1.5393379e-38
-0.077860005 0.14328857 0.68700004 1.5025668e-38
-0.076440006 0.14308001 0.68600005 1.5025668e-38
-0.075133339 0.14308001 0.68600005 1.4840585e-38
-0.073396191 0.14224571 0.68200004 1.4840585e-38
-0.07188572 0.14182857 0.68000001 1.3641681e-38
-0.070486665 0.14162 0.67900002 1.2443138e-38
-0.069091432 0.14141144 0.67800003 1.2534627e-38
-0.067600004 0.1409943 0.67600006 1.0875106e-38
-0.066312388 0.1409943 0.67600006 1.1336413e-38
-0.064928576 0.14078571 0.67500001 1.1336413e-38
-0.063642859 0.14078571 0.67500001 1.1612296e-38
-0.062357143 0.14078571 0.67500001 1.3179621e-38
-0.061071429 0.14078571 0.67500001 1.3088481e-38
-0.059785716 0.14078571 0.67500001 1.290409e-38
-0.058240004 0.14016001 0.67200005 1.2995935e-38
-0.05687524 0.13995144 0.671 1.308813e-38
-0.055597141 0.13995144 0.671 1.3271447e-38
-0.054319046 0.13995144 0.671 1.3640229e-38
-0.053040951 0.13995144 0.671 1.3456211e-38
-0.051840004 0.14016001 0.67200005 1.3179624e-38
-0.050560005 0.14016001 0.67200005 1.3271793e-38
-0.049206667 0.13995144 0.671 1.3363989e-38
-0.047928572 0.13995144 0.671 1.3546951e-38
-0.046650477 0.13995144 0.671 1.3639146e-38
-0.045372378 0.13995144 0.671 1.3639494e-38
-0.044094287 0.13995144 0.671 1.3823885e-38
-0.042816192 0.13995144 0.671 1.3640929e-38
-0.041538097 0.13995144 0.671 1.382532e-38
-0.040259998 0.13995144 0.671 1.3640578e-38
-0.038981903 0.13995144 0.671 1.3640578e-38
-0.037703808 0.13995144 0.671 1.3640215e-38
-0.036480006 0.14016001 0.67200005 1.3640215e-38
-0.035147619 0.13995144 0.671 1.3824251e-38
-0.033869524 0.13995144 0.671 1.3824251e-38
-0.032737143 0.14057714 0.67400002 1.3733127e-38
-0.031500001 0.14078571 0.67500001 1.3733127e-38
-0.030214285 0.14078571 0.67500001 1.4008659e-38
-0.02892857 0.14078571 0.67500001 1.4100854e-38
-0.027765715 0.14141144 0.67800003 1.4101194e-38
-0.026513334 0.14162 0.67900002 1.4101194e-38
-0.025257142 0.14182857 0.68000001 1.4009358e-38
-0.024032382 0.14224571 0.68200004 1.4009358e-38
-0.022766666 0.1424543 0.68300003 1.3826046e-38
-0.021497143 0.14266287 0.68400002 1.4102633e-38
-0.020194286 0.14266287 0.68400002 1.4011163e-38
-0.018946668 0.14308001 0.68600005 1.3918967e-38
-0.017691428 0.14349715 0.68800002 1.4102291e-38
-0.016380953 0.14349715 0.68800002 1.4655465e-38
-0.015136191 0.14412287 0.69100004 1.4194489e-38
-0.01386 0.14454 0.69300002 1.4471076e-38
-0.012558095 0.14474858 0.69400001 1.4655816e-38
-0.011236191 0.14474858 0.69400001 1.5116794e-38
-0.0099142855 0.14474858 0.69400001 1.5577773e-38
-0.0085923811 0.14474858 0.69400001 1.963438e-38
-0.0072704758 0.14474858 0.69400001 2.1016579e-38
-0.093725719 0.14901714 0.708 2.1478317e-38
-0.092377141 0.14901714 0.708 2.1293925e-38
-0.089173339 0.14817525 0.70400006 2.1755247e-38
-0.087707624 0.14796476 0.70300001 2.1570865e-38
-0.086000003 0.14733334 0.70000005 2.1017692e-38
-0.083940953 0.14607048 0.69400001 2.0187931e-38
-0.082261913 0.14543906 0.69100004 1.7790845e-38
-0.080828577 0.14522858 0.69000006 1.7330208e-38
-0.079283811 0.14480762 0.68800002 1.5486296e-38
-0.077973336 0.14480762 0.68800002 1.4564324e-38
-0.07655143 0.14459716 0.68700004 1.4840911e-38
-0.074914292 0.14396572 0.68400002 1.4932067e-38
-0.073503807 0.14375524 0.68300003 1.4747676e-38
-0.072097145 0.14354478 0.68200004 1.4471079e-38
-0.070590481 0.14312381 0.68000001 1.3088144e-38
-0.069193333 0.14291334 0.67900002 1.2534615e-38
-0.0678 0.14270286 0.67800003 1.1428267e-38
-0.066508569 0.14270286 0.67800003 1.1612298e-38
-0.065024771 0.14228192 0.67600006 1.1427907e-38
-0.063737147 0.14228192 0.67600006 1.0874681e-38
-0.062357143 0.14207143 0.67500001 1.3087377e-38
-0.061071429 0.14207143 0.67500001 1.290409e-38
-0.059785716 0.14207143 0.67500001 1.2996285e-38
-0.058413334 0.14186096 0.67400002 1.3179244e-38
-0.056960005 0.14144 0.67200005 1.3363636e-38
-0.055597141 0.14122953 0.671 1.3271447e-38
-0.054319046 0.14122953 0.671 1.3548034e-38
-0.053120002 0.14144 0.67200005 1.3456211e-38
-0.051840004 0.14144 0.67200005 1.327182e-38
-0.050560005 0.14144 0.67200005 1.3456184e-38
-0.049280003 0.14144 0.67200005 1.3363989e-38
-0.048000004 0.14144 0.67200005 1.3271443e-38
-0.046720002 0.14144 0.67200005 1.354803e-38
-0.04544 0.14144 0.67200005 1.354838e-38
-0.044160005 0.14144 0.67200005 1.3456184e-38
-0.042880002 0.14144 0.67200005 1.2627853e-38
-0.041600004 0.14144 0.67200005 1.3457614e-38
-0.040259998 0.14122953 0.671 1.3457979e-38
-0.038981903 0.14122953 0.671 1.3365784e-38
-0.037760001 0.14144 0.67200005 1.3180676e-38
-0.036480006 0.14144 0.67200005 1.3365068e-38
-0.035200004 0.14144 0.67200005 1.3640578e-38
-0.034020953 0.14186096 0.67400002 1.3456187e-38
-0.032785714 0.14207143 0.67500001 1.3456174e-38
-0.031500001 0.14207143 0.67500001 1.3917153e-38
-0.030214285 0.14207143 0.67500001 1.3917186e-38
-0.02892857 0.14207143 0.67500001 1.3917186e-38
-0.027765715 0.14270286 0.67800003 1.3826046e-38
-0.026513334 0.14291334 0.67900002 1.3826046e-38
-0.025257142 0.14312381 0.68000001 1.3272872e-38
-0.02406762 0.14375524 0.68300003 1.3826046e-38
-0.022766666 0.14375524 0.68300003 1.3918241e-38
-0.021497143 0.14396572 0.68400002 1.4010437e-38
-0.020194286 0.14396572 0.68400002 1.4010444e-38
-0.018946668 0.14438668 0.68600005 1.3918248e-38
-0.017691428 0.14480762 0.68800002 1.4010434e-38
-0.016380953 0.14480762 0.68800002 1.4379217e-38
-0.015136191 0.14543906 0.69100004 1.3917886e-38
-0.01386 0.14586 0.69300002 1.4378864e-38
-0.012558095 0.14607048 0.69400001 1.4194849e-38
-0.011236191 0.14607048 0.69400001 1.3918262e-38
-0.0099142855 0.14607048 0.69400001 1.530082e-38
-0.0085923811 0.14607048 0.69400001 1.9173036e-38
-0.0073752385 0.14817525 0.70400006 1.9542552e-38
-0.093725719 0.15036571 0.708 2.1386843e-38
-0.092377141 0.15036571 0.708 2.1294647e-38
-0.090899996 0.15015334 0.70700002 2.1662681e-38
-0.089426666 0.14994095 0.70600003 2.1847073e-38
-0.087707624 0.14930381 0.70300001 2.1755613e-38
-0.086000003 0.14866666 0.70000005 2.1018048e-38
-0.08382 0.14718001 0.69300002 2.0188284e-38
-0.082261913 0.14675523 0.69100004 1.815998e-38
-0.080828577 0.14654286 0.69000006 1.7514245e-38
-0.079283811 0.1461181 0.68800002 1.5762528e-38
-0.077973336 0.1461181 0.68800002 1.4656532e-38
-0.07655143 0.14590572 0.68700004 1.3181402e-38
-0.074914292 0.14526857 0.68400002 1.318e-38
-0.073503807 0.14505619 0.68300003 1.2811217e-38
-0.072097145 0.14484382 0.68200004 1.3365445e-38
-0.070590481 0.14441904 0.68000001 1.410301e-38
-0.069193333 0.14420667 0.67900002 1.382569e-38
-0.0678 0.14399429 0.67800003 1.4010081e-38
-0.066508569 0.14399429 0.67800003 1.3916483e-38
-0.065024771 0.14356954 0.67600006 1.3086722e-38
-0.063737147 0.14356954 0.67600006 1.2718256e-38
-0.062357143 0.14335714 0.67500001 1.3087039e-38
-0.061071429 0.14335714 0.67500001 1.3363623e-38
-0.059785716 0.14335714 0.67500001 1.3363623e-38
-0.058413334 0.14314476 0.67400002 1.3271793e-38
-0.056960005 0.14272001 0.67200005 1.3271793e-38
-0.055680003 0.14272001 0.67200005 1.2903385e-38
-0.054400001 0.14272001 0.67200005 1.2903385e-38
-0.053278096 0.14314476 0.67400002 1.2903385e-38
-0.051840004 0.14272001 0.67200005 1.299558e-38
-0.050560005 0.14272001 0.67200005 1.345654e-38
-0.049280003 0.14272001 0.67200005 1.2995562e-38
-0.048000004 0.14272001 0.67200005 1.3456184e-38
-0.046720002 0.14272001 0.67200005 1.3640576e-38
-0.04544 0.14272001 0.67200005 1.3639874e-38
-0.044160005 0.14272001 0.67200005 1.3455482e-38
-0.042880002 0.14272001 0.67200005 1.345654e-38
-0.04172381 0.14314476 0.67400002 1.3640931e-38
-0.040320002 0.14272001 0.67200005 1.3732405e-38
-0.039040003 0.14272001 0.67200005 1.3916797e-38
-0.037760001 0.14272001 0.67200005 1.3731689e-38
-0.036588576 0.14314476 0.67400002 1.3823885e-38
-0.035304762 0.14314476 0.67400002 1.4008279e-38
-0.034071431 0.14335714 0.67500001 1.3823888e-38
-0.032785714 0.14335714 0.67500001 1.3640197e-38
-0.031500001 0.14335714 0.67500001 1.400898e-38
-0.03025905 0.14356954 0.67600006 1.3917189e-38
-0.02897143 0.14356954 0.67600006 1.4285972e-38
-0.027806668 0.14420667 0.67900002 1.3826046e-38
-0.026552381 0.14441904 0.68000001 1.3826046e-38
-0.025257142 0.14441904 0.68000001 1.3456561e-38
-0.024032382 0.14484382 0.68200004 1.3825344e-38
-0.022766666 0.14505619 0.68300003 1.3917516e-38
-0.021465715 0.14505619 0.68300003 1.4009711e-38
-0.020194286 0.14526857 0.68400002 1.3917537e-38
-0.018946668 0.14569335 0.68600005 1.3825341e-38
-0.017691428 0.1461181 0.68800002 1.3917503e-38
-0.016428573 0.14654286 0.69000006 1.4562872e-38
-0.015136191 0.14675523 0.69100004 1.4378869e-38
-0.01386 0.14718001 0.69300002 1.4378869e-38
-0.012594286 0.14781715 0.69600004 1.4194855e-38
-0.011268572 0.14781715 0.69600004 1.3549486e-38
-0.0099428575 0.14781715 0.69600004 1.437958e-38
-0.0087161912 0.14951621 0.70400006 1.8712774e-38
-0.0073752385 0.14951621 0.70400006 1.9450003e-38
-0.092377141 0.15171428 0.708 2.1478317e-38
-0.090899996 0.1515 0.70700002 2.1754891e-38
-0.089426666 0.15128572 0.70600003 2.1847087e-38
-0.087707624 0.15064286 0.70300001 2.2309159e-38
-0.086000003 0.15000001 0.70000005 2.1387203e-38
-0.08382 0.1485 0.69300002 2.018865e-38
-0.082261913 0.14807144 0.69100004 1.7791564e-38
-0.080828577 0.14785716 0.69000006 1.7513885e-38
-0.079283811 0.14742857 0.68800002 1.5946559e-38
-0.077973336 0.14742857 0.68800002 1.5210059e-38
-0.07655143 0.14721429 0.68700004 1.3181755e-38
-0.075133339 0.147 0.68600005 1.299523e-38
-0.073611431 0.14657144 0.68400002 1.2810839e-38
-0.072202861 0.14635715 0.68300003 1.2996659e-38
-0.070798099 0.14614287 0.68200004 1.3181051e-38
-0.069295242 0.14571428 0.68000001 1.3639874e-38
-0.067900002 0.1455 0.67900002 1.4008656e-38
-0.066606671 0.1455 0.67900002 1.4191991e-38
-0.065024771 0.14485715 0.67600006 1.336223e-38
-0.063737147 0.14485715 0.67600006 1.2809383e-38
-0.06244953 0.14485715 0.67600006 1.3454752e-38
-0.061161913 0.14485715 0.67600006 1.3823912e-38
-0.059785716 0.14464286 0.67500001 1.3362933e-38
-0.058499999 0.14464286 0.67500001 1.3179618e-38
-0.057214286 0.14464286 0.67500001 1.3087423e-38
-0.055845715 0.14442858 0.67400002 1.2811189e-38
-0.054561906 0.14442858 0.67400002 1.2718993e-38
-0.053278096 0.14442858 0.67400002 1.2811189e-38
-0.051994286 0.14442858 0.67400002 1.3087776e-38
-0.050710477 0.14442858 0.67400002 1.4100499e-38
-0.049426667 0.14442858 0.67400002 1.3547325e-38
-0.048142858 0.14442858 0.67400002 1.336401e-38
-0.046859052 0.14442858 0.67400002 1.3456205e-38
-0.045575239 0.14442858 0.67400002 1.3548401e-38
-0.044291429 0.14442858 0.67400002 1.3456205e-38
-0.04300762 0.14442858 0.67400002 1.3732069e-38
-0.04172381 0.14442858 0.67400002 1.3639874e-38
-0.040320002 0.14400001 0.67200005 1.3731342e-38
-0.039040003 0.14400001 0.67200005 1.3731342e-38
-0.037760001 0.14400001 0.67200005 1.382173e-38
-0.036642861 0.14464286 0.67500001 1.4374904e-38
-0.035357144 0.14464286 0.67500001 1.4375641e-38
-0.034071431 0.14464286 0.67500001 1.3914663e-38
-0.032834288 0.14485715 0.67600006 1.3455095e-38
-0.031546671 0.14485715 0.67600006 1.3731682e-38
-0.030348573 0.14528571 0.67800003 1.4100499e-38
-0.029057145 0.14528571 0.67800003 1.4008303e-38
-0.027847618 0.14571428 0.68000001 1.3272872e-38
-0.026630478 0.14614287 0.68200004 1.3365068e-38
-0.02533143 0.14614287 0.68200004 1.3272872e-38
-0.024032382 0.14614287 0.68200004 1.3826046e-38
-0.022766666 0.14635715 0.68300003 1.3917165e-38
-0.021465715 0.14635715 0.68300003 1.4009361e-38
-0.020194286 0.14657144 0.68400002 1.419305e-38
-0.01889143 0.14657144 0.68400002 1.419305e-38
-0.017691428 0.14742857 0.68800002 1.4101194e-38
-0.016428573 0.14785716 0.69000006 1.4838759e-38
-0.015136191 0.14807144 0.69100004 1.4470713e-38
-0.01388 0.14871427 0.69400001 1.4286322e-38
-0.012612381 0.14935715 0.69700003 1.4102657e-38
-0.011284763 0.14935715 0.69700003 1.3549483e-38
-0.010014286 0.15021428 0.70100003 1.3732043e-38
-0.0087161912 0.15085715 0.70400006 1.9079389e-38
-0.0073752385 0.15085715 0.70400006 1.9448924e-38
-0.0060514286 0.15128572 0.70600003 2.101625e-38
-0.092377141 0.15306287 0.708 2.1294647e-38
-0.091028571 0.15306287 0.708 2.1570868e-38
-0.089680001 0.15306287 0.708 2.1570868e-38
-0.083940953 0.15003619 0.69400001 2.0372322e-38
-0.082261913 0.14938763 0.69100004 1.7698649e-38
-0.080828577 0.14917144 0.69000006 1.7421685e-38
-0.079514287 0.14917144 0.69000006 1.5946555e-38
-0.077973336 0.14873905 0.68800002 1.5485577e-38
-0.07655143 0.14852285 0.68700004 1.4932403e-38
-0.075133339 0.14830668 0.68600005 1.4378864e-38
-0.073826671 0.14830668 0.68600005 1.3549103e-38
-0.072202861 0.14765809 0.68300003 1.2997025e-38
-0.070798099 0.14744191 0.68200004 1.1521895e-38
-0.069295242 0.14700952 0.68000001 1.1521532e-38
-0.068000004 0.14700952 0.68000001 1.1613728e-38
-0.066606671 0.14679334 0.67900002 1.179669e-38
-0.065217145 0.14657715 0.67800003 1.0690342e-38
-0.063925713 0.14657715 0.67800003 1.1149541e-38
-0.06244953 0.14614478 0.67600006 1.2440279e-38
-0.061161913 0.14614478 0.67600006 1.1981078e-38
-0.059874289 0.14614478 0.67600006 1.1704491e-38
-0.058499999 0.14592858 0.67500001 1.2166185e-38
-0.057214286 0.14592858 0.67500001 1.2719359e-38
-0.055928573 0.14592858 0.67500001 1.262715e-38
-0.054642856 0.14592858 0.67500001 1.262715e-38
-0.053357143 0.14592858 0.67500001 1.2811189e-38
-0.052071426 0.14592858 0.67500001 1.299558e-38
-0.050785713 0.14592858 0.67500001 1.2902684e-38
-0.049426667 0.14571238 0.67400002 1.2533902e-38
-0.048142858 0.14571238 0.67400002 1.2442056e-38
-0.046928573 0.14592858 0.67500001 1.2257665e-38
-0.045575239 0.14571238 0.67400002 1.2442769e-38
-0.044291429 0.14571238 0.67400002 1.2627161e-38
-0.04300762 0.14571238 0.67400002 1.262681e-38
-0.041785713 0.14592858 0.67500001 1.2350224e-38
-0.040440001 0.14571238 0.67400002 1.2810842e-38
-0.039156191 0.14571238 0.67400002 1.3087428e-38
-0.037872382 0.14571238 0.67400002 1.3087056e-38
-0.036642861 0.14592858 0.67500001 1.2626078e-38
-0.035409529 0.14614478 0.67600006 1.1979639e-38
-0.034121908 0.14614478 0.67600006 1.1703052e-38
-0.032931432 0.14657715 0.67800003 1.1703765e-38
-0.031640001 0.14657715 0.67800003 1.3271091e-38
-0.030393332 0.14679334 0.67900002 1.4100838e-38
-0.029100001 0.14679334 0.67900002 1.4100838e-38
-0.027847618 0.14700952 0.68000001 1.3732069e-38
-0.026630478 0.14744191 0.68200004 1.4008656e-38
-0.02533143 0.14744191 0.68200004 1.3916802e-38
-0.02406762 0.14765809 0.68300003 1.4469976e-38
-0.022766666 0.14765809 0.68300003 1.4100489e-38
-0.021497143 0.1478743 0.68400002 1.4008293e-38
-0.020194286 0.1478743 0.68400002 1.419305e-38
-0.01889143 0.1478743 0.68400002 1.4746224e-38
-0.017691428 0.14873905 0.68800002 1.4561482e-38
-0.016428573 0.14917144 0.69000006 1.4838069e-38
-0.01518 0.14982 0.69300002 1.4194486e-38
-0.013940001 0.15068477 0.69700003 1.2811552e-38
-0.012666668 0.15133335 0.70000005 1.2995608e-38
-0.011349524 0.15154953 0.70100003 1.3733173e-38
-0.010042857 0.15198191 0.70300001 1.3916802e-38
-0.0087409532 0.15263048 0.70600003 1.8803171e-38
-0.0073961904 0.15263048 0.70600003 1.9909899e-38
-0.0060514286 0.15263048 0.70600003 2.0831856e-38
-0.083940953 0.15135808 0.69400001 2.0556716e-38
-0.082261913 0.15070382 0.69100004 1.7790847e-38
-0.080945715 0.15070382 0.69100004 1.7329494e-38
-0.079514287 0.15048572 0.69000006 1.6038755e-38
-0.077973336 0.15004952 0.68800002 1.5854344e-38
-0.07655143 0.14983144 0.68700004 1.5208975e-38
-0.075242862 0.14983144 0.68700004 1.5576333e-38
-0.073826671 0.14961334 0.68600005 1.4009008e-38
-0.072520003 0.14961334 0.68600005 1.3180697e-38
-0.070798099 0.14874096 0.68200004 1.1797763e-38
-0.069499053 0.14874096 0.68200004 1.1153829e-38
-0.068000004 0.14830476 0.68000001 1.1153829e-38
-0.066704765 0.14830476 0.68000001 1.1152759e-38
-0.065313332 0.14808667 0.67900002 1.0322999e-38
-0.06402 0.14808667 0.67900002 1.0598146e-38
-0.062634289 0.14786857 0.67800003 1.1335711e-38
-0.061342862 0.14786857 0.67800003 1.1153101e-38
-0.060051434 0.14786857 0.67800003 1.1153101e-38
-0.058586672 0.1474324 0.67600006 1.1336422e-38
-0.057299051 0.1474324 0.67600006 1.1520813e-38
-0.055928573 0.14721428 0.67500001 1.1705193e-38
-0.054642856 0.14721428 0.67500001 1.2258367e-38
-0.053357143 0.14721428 0.67500001 1.2166899e-38
-0.052071426 0.14721428 0.67500001 1.2259094e-38
-0.050785713 0.14721428 0.67500001 1.2534618e-38
-0.049426667 0.1469962 0.67400002 1.2165835e-38
-0.048142858 0.1469962 0.67400002 1.1981081e-38
-0.046928573 0.14721428 0.67500001 1.2257668e-38
-0.045575239 0.1469962 0.67400002 1.2258744e-38
-0.044291429 0.1469962 0.67400002 1.2443135e-38
-0.04300762 0.1469962 0.67400002 1.2442782e-38
-0.041785713 0.14721428 0.67500001 1.1981804e-38
-0.040440001 0.1469962 0.67400002 1.1613384e-38
-0.039156191 0.1469962 0.67400002 1.1797776e-38
-0.037984762 0.1474324 0.67600006 1.1798485e-38
-0.036697146 0.1474324 0.67600006 1.0876528e-38
-0.035409529 0.1474324 0.67600006 1.0321533e-38
-0.03422286 0.14786857 0.67800003 1.0413729e-38
-0.032980002 0.14808667 0.67900002 1.0781435e-38
-0.031686667 0.14808667 0.67900002 1.3547304e-38
-0.030393332 0.14808667 0.67900002 1.3916097e-38
-0.029142857 0.14830476 0.68000001 1.3823902e-38
-0.027929526 0.14874096 0.68200004 1.373099e-38
-0.026630478 0.14874096 0.68200004 1.3823186e-38
-0.02533143 0.14874096 0.68200004 1.3731682e-38
-0.02406762 0.14895906 0.68300003 1.4192661e-38
-0.0228 0.14917715 0.68400002 1.3916097e-38
-0.021560002 0.14961334 0.68600005 1.4100489e-38
-0.020253334 0.14961334 0.68600005 1.4100499e-38
-0.018974286 0.14983144 0.68700004 1.4008303e-38
-0.017691428 0.15004952 0.68800002 1.3915747e-38
-0.016428573 0.15048572 0.69000006 1.4100138e-38
-0.01518 0.15114 0.69300002 1.3640599e-38
-0.013940001 0.15201239 0.69700003 1.2534252e-38
-0.012666668 0.15266669 0.70000005 1.2535331e-38
-0.011349524 0.15288477 0.70100003 1.3733874e-38
-0.010057143 0.15353906 0.70400006 1.4192694e-38
-0.0087409532 0.15397525 0.70600003 1.8986867e-38
-0.084182858 0.15312001 0.69600004 2.0925862e-38
-0.082142867 0.15180001 0.69000006 1.779121e-38
-0.080828577 0.15180001 0.69000006 1.7421702e-38
-0.079514287 0.15180001 0.69000006 1.6223159e-38
-0.077973336 0.15136001 0.68800002 1.5301889e-38
-0.07655143 0.15114 0.68700004 1.4472128e-38
-0.075242862 0.15114 0.68700004 1.4471065e-38
-0.073826671 0.15092002 0.68600005 1.3917891e-38
-0.072520003 0.15092002 0.68600005 1.3456571e-38
-0.070901908 0.15026 0.68300003 1.3364375e-38
-0.069600955 0.15026 0.68300003 1.2904097e-38
-0.068000004 0.1496 0.68000001 1.2258727e-38
-0.066704765 0.1496 0.68000001 1.1982157e-38
-0.065313332 0.14938 0.67900002 1.1521179e-38
-0.06402 0.14938 0.67900002 1.0968008e-38
-0.062726662 0.14938 0.67900002 1.0691421e-38
-0.061342862 0.14916001 0.67800003 1.0783212e-38
-0.060051434 0.14916001 0.67800003 9.953451e-39
-0.058586672 0.14872001 0.67600006 1.0044596e-38
-0.057299051 0.14872001 0.67600006 9.6758132e-39
-0.055928573 0.1485 0.67500001 9.8605547e-39
-0.054642856 0.1485 0.67500001 1.0229337e-38
-0.053357143 0.1485 0.67500001 1.0045686e-38
-0.052071426 0.1485 0.67500001 1.0783251e-38
-0.050785713 0.1485 0.67500001 1.0229374e-38
-0.049500003 0.1485 0.67500001 9.6761999e-39
-0.048214287 0.1485 0.67500001 1.0781829e-38
-0.046928573 0.1485 0.67500001 1.1611589e-38
-0.045642857 0.1485 0.67500001 1.1058771e-38
-0.044357143 0.1485 0.67500001 1.0321206e-38
-0.04307143 0.1485 0.67500001 1.0230077e-38
-0.041785713 0.1485 0.67500001 1.0322273e-38
-0.0405 0.1485 0.67500001 1.0230087e-38
-0.039214283 0.1485 0.67500001 1.0506674e-38
-0.037984762 0.14872001 0.67600006 1.0691055e-38
-0.036697146 0.14872001 0.67600006 1.059886e-38
-0.035409529 0.14872001 0.67600006 1.0782514e-38
-0.034273334 0.14938 0.67900002 1.1520079e-38
-0.033028573 0.1496 0.68000001 1.1520113e-38
-0.031733334 0.1496 0.68000001 1.3271829e-38
-0.030438095 0.1496 0.68000001 1.354803e-38
-0.029142857 0.1496 0.68000001 1.3640225e-38
-0.027929526 0.15004 0.68200004 1.3731e-38
-0.026630478 0.15004 0.68200004 1.3638804e-38
-0.025368571 0.15026 0.68300003 1.3639494e-38
-0.02406762 0.15026 0.68300003 1.3916081e-38
-0.0228 0.15048 0.68400002 1.3916097e-38
-0.021560002 0.15092002 0.68600005 1.4008293e-38
-0.020282857 0.15114 0.68700004 1.4100136e-38
-0.019001907 0.15136001 0.68800002 1.4100136e-38
-0.017742857 0.15180001 0.69000006 1.2903748e-38
-0.016452381 0.15202002 0.69100004 1.2350574e-38
-0.01518 0.15246001 0.69300002 1.2167983e-38
-0.01396 0.15356 0.69800001 1.2167983e-38
-0.012684762 0.15422001 0.70100003 1.327253e-38
-0.011381905 0.15466 0.70300001 1.4378878e-38
-0.010057143 0.15488 0.70400006 1.502283e-38
-0.0087409532 0.15532002 0.70600003 1.8987242e-38
-0.082142867 0.1531143 0.69000006 1.80678e-38
-0.080828577 0.1531143 0.69000006 1.7698286e-38
-0.079514287 0.1531143 0.69000006 1.6315352e-38
-0.077973336 0.15267047 0.68800002 1.5210073e-38
-0.07655143 0.15244858 0.68700004 1.401153e-38
-0.075242862 0.15244858 0.68700004 1.3826067e-38
-0.073934287 0.15244858 0.68700004 1.3641676e-38
-0.072520003 0.15222667 0.68600005 1.4100838e-38
-0.071213335 0.15222667 0.68600005 1.3916446e-38
-0.069600955 0.15156096 0.68300003 1.3916446e-38
-0.0682 0.15133905 0.68200004 1.3178881e-38
-0.066704765 0.15089524 0.68000001 1.2811189e-38
-0.065409526 0.15089524 0.68000001 1.2718993e-38
-0.064114287 0.15089524 0.68000001 1.170557e-38
-0.062819049 0.15089524 0.68000001 1.1060201e-38
-0.061433338 0.15067333 0.67900002 1.0691404e-38
-0.060140003 0.15067333 0.67900002 1.0322622e-38
-0.058760002 0.15045144 0.67800003 1.0598473e-38
-0.057299051 0.15000762 0.67600006 9.6765166e-39
-0.056011431 0.15000762 0.67600006 9.4924729e-39
-0.054723814 0.15000762 0.67600006 9.8612554e-39
-0.053357143 0.14978573 0.67500001 9.4020849e-39
-0.052071426 0.14978573 0.67500001 9.6786718e-39
-0.050785713 0.14978573 0.67500001 9.8616478e-39
-0.049500003 0.14978573 0.67500001 9.9538434e-39
-0.048214287 0.14978573 0.67500001 1.0690692e-38
-0.046928573 0.14978573 0.67500001 1.1151671e-38
-0.045710482 0.15000762 0.67600006 1.0875084e-38
-0.044422861 0.15000762 0.67600006 1.0229714e-38
-0.043135241 0.15000762 0.67600006 1.022934e-38
-0.04184762 0.15000762 0.67600006 1.022934e-38
-0.040560003 0.15000762 0.67600006 9.4928512e-39
-0.039272383 0.15000762 0.67600006 1.0691394e-38
-0.037984762 0.15000762 0.67600006 1.0966549e-38
-0.036697146 0.15000762 0.67600006 1.115094e-38
-0.035514288 0.15045144 0.67800003 1.1243136e-38
-0.034273334 0.15067333 0.67900002 1.1704114e-38
-0.033028573 0.15089524 0.68000001 1.2073639e-38
-0.031733334 0.15089524 0.68000001 1.3179987e-38
-0.030438095 0.15089524 0.68000001 1.3364717e-38
-0.029142857 0.15089524 0.68000001 1.3456913e-38
-0.027970478 0.15156096 0.68300003 1.3639874e-38
-0.026669525 0.15156096 0.68300003 1.3639874e-38
-0.025368571 0.15156096 0.68300003 1.3640931e-38
-0.02406762 0.15156096 0.68300003 1.3825323e-38
-0.0228 0.15178287 0.68400002 1.3916463e-38
-0.021591431 0.15244858 0.68700004 1.3824268e-38
-0.020282857 0.15244858 0.68700004 1.4008282e-38
-0.019001907 0.15267047 0.68800002 1.4192673e-38
-0.017742857 0.1531143 0.69000006 1.2352374e-38
-0.016452381 0.1533362 0.69100004 1.0600658e-38
-0.01518 0.15378001 0.69300002 1.0876523e-38
-0.01396 0.15488952 0.69800001 1.2904827e-38
-0.012666668 0.15533334 0.70000005 1.3917183e-38
-0.011381905 0.15599905 0.70300001 1.4654749e-38
-0.010085714 0.15666476 0.70600003 1.5666395e-38
-0.0087409532 0.15666476 0.70600003 1.9077633e-38
-0.082142867 0.15442857 0.69000006 1.8344384e-38
-0.080828577 0.15442857 0.69000006 1.760609e-38
-0.079514287 0.15442857 0.69000006 1.6499743e-38
-0.077973336 0.15398096 0.68800002 1.5669635e-38
-0.07655143 0.15375715 0.68700004 1.4194505e-38
-0.075242862 0.15375715 0.68700004 1.3733158e-38
-0.073934287 0.15375715 0.68700004 1.2995593e-38
-0.072520003 0.15353334 0.68600005 1.2719693e-38
-0.071213335 0.15353334 0.68600005 1.2811888e-38
-0.069702856 0.15308572 0.68400002 1.2811888e-38
-0.0682 0.15263809 0.68200004 1.2535301e-38
-0.066900954 0.15263809 0.68200004 1.26275e-38
-0.065601908 0.15263809 0.68200004 1.2811891e-38
-0.064302862 0.15263809 0.68200004 1.2350579e-38
-0.062819049 0.15219048 0.68000001 1.2166188e-38
-0.061523806 0.15219048 0.68000001 1.1982154e-38
-0.060140003 0.15196666 0.67900002 1.1889959e-38
-0.058760002 0.15174286 0.67800003 1.1889212e-38
-0.057468574 0.15174286 0.67800003 1.1889212e-38
-0.056011431 0.15129524 0.67600006 1.1613698e-38
-0.054723814 0.15129524 0.67600006 1.1521503e-38
-0.053436194 0.15129524 0.67600006 1.1244928e-38
-0.052148577 0.15129524 0.67600006 1.1152733e-38
-0.050860956 0.15129524 0.67600006 1.1244578e-38
-0.049500003 0.15107143 0.67500001 1.1244578e-38
-0.048214287 0.15107143 0.67500001 1.1519374e-38
-0.046998098 0.15129524 0.67600006 1.2164743e-38
-0.045710482 0.15129524 0.67600006 1.1612998e-38
-0.044422861 0.15129524 0.67600006 1.0967628e-38
-0.043135241 0.15129524 0.67600006 1.1705894e-38
-0.04184762 0.15129524 0.67600006 1.1798089e-38
-0.040560003 0.15129524 0.67600006 1.1982128e-38
-0.039272383 0.15129524 0.67600006 1.2719693e-38
-0.038097143 0.15174286 0.67800003 1.2903348e-38
-0.036805719 0.15174286 0.67800003 1.3272131e-38
-0.035566669 0.15196666 0.67900002 1.2719345e-38
-0.034323812 0.15219048 0.68000001 1.3272519e-38
-0.033028573 0.15219048 0.68000001 1.3271827e-38
-0.031733334 0.15219048 0.68000001 1.3271827e-38
-0.030438095 0.15219048 0.68000001 1.3364717e-38
-0.029142857 0.15219048 0.68000001 1.3364717e-38
-0.027970478 0.15286191 0.68300003 1.354803e-38
-0.026669525 0.15286191 0.68300003 1.3732421e-38
-0.025368571 0.15286191 0.68300003 1.3732774e-38
-0.024102857 0.15308572 0.68400002 1.4009361e-38
-0.022866668 0.15353334 0.68600005 1.3733145e-38
-0.021591431 0.15375715 0.68700004 1.2258015e-38
-0.020312382 0.15398096 0.68800002 1.2626764e-38
-0.019057145 0.15442857 0.69000006 1.3087742e-38
-0.017768573 0.15465239 0.69100004 1.1614088e-38
-0.0165 0.1551 0.69300002 8.571632e-39
-0.015201905 0.1553238 0.69400001 1.0417715e-38
-0.01396 0.15621905 0.69800001 1.2538215e-38
-0.012666668 0.15666668 0.70000005 1.410264e-38
-0.011398097 0.15756191 0.70400006 1.5393379e-38
-0.010057143 0.15756191 0.70400006 1.5576354e-38
-0.0087161912 0.15756191 0.70400006 1.8526615e-38
-0.080828577 0.15574287 0.69000006 1.7697557e-38
-0.079514287 0.15574287 0.69000006 1.659121e-38
-0.078200005 0.15574287 0.69000006 1.585366e-38
-0.076662861 0.15529142 0.68800002 1.3917552e-38
-0.075242862 0.15506573 0.68700004 1.3733158e-38
-0.073934287 0.15506573 0.68700004 1.2811202e-38
-0.072520003 0.15484001 0.68600005 1.2074692e-38
-0.071213335 0.15484001 0.68600005 1.2443474e-38
-0.069702856 0.15438858 0.68400002 1.2351642e-38
-0.068300001 0.15416285 0.68300003 1.2259446e-38
-0.066900954 0.15393715 0.68200004 1.2351642e-38
-0.065601908 0.15393715 0.68200004 1.2259446e-38
-0.064302862 0.15393715 0.68200004 1.1612998e-38
-0.062819049 0.15348572 0.68000001 1.2166171e-38
-0.061523806 0.15348572 0.68000001 1.2349858e-38
-0.060140003 0.15326001 0.67900002 1.2165467e-38
-0.058760002 0.15303428 0.67800003 1.1704114e-38
-0.057468574 0.15303428 0.67800003 1.2072897e-38
-0.056177147 0.15303428 0.67800003 1.2442761e-38
-0.054723814 0.15258287 0.67600006 1.1705196e-38
-0.053436194 0.15258287 0.67600006 1.1888861e-38
-0.052148577 0.15258287 0.67600006 1.1981057e-38
-0.050860956 0.15258287 0.67600006 1.2166538e-38
-0.04957334 0.15258287 0.67600006 1.1428973e-38
-0.048285719 0.15258287 0.67600006 1.1520453e-38
-0.046998098 0.15258287 0.67600006 1.1981431e-38
-0.045710482 0.15258287 0.67600006 1.2350577e-38
-0.044422861 0.15258287 0.67600006 1.1613012e-38
-0.043135241 0.15258287 0.67600006 1.1706272e-38
-0.04197143 0.15303428 0.67800003 1.1890663e-38
-0.040679999 0.15303428 0.67800003 1.2166169e-38
-0.039388571 0.15303428 0.67800003 1.2166169e-38
-0.038153335 0.15326001 0.67900002 1.2349471e-38
-0.036860004 0.15326001 0.67900002 1.2533862e-38
-0.035566669 0.15326001 0.67900002 1.2256576e-38
-0.034323812 0.15348572 0.68000001 1.3455119e-38
-0.033028573 0.15348572 0.68000001 1.327218e-38
-0.031733334 0.15348572 0.68000001 1.3179984e-38
-0.030438095 0.15348572 0.68000001 1.3180326e-38
-0.029142857 0.15348572 0.68000001 1.3272522e-38
-0.027970478 0.15416285 0.68300003 1.3365065e-38
-0.026669525 0.15416285 0.68300003 1.2996282e-38
-0.025405714 0.15438858 0.68400002 1.3271447e-38
-0.024102857 0.15438858 0.68400002 1.3271447e-38
-0.022866668 0.15484001 0.68600005 1.2719725e-38
-0.021591431 0.15506573 0.68700004 1.1060204e-38
-0.020312382 0.15529142 0.68800002 1.1151294e-38
-0.019084763 0.15596858 0.69100004 1.1335685e-38
-0.017768573 0.15596858 0.69100004 1.0507743e-38
-0.01652381 0.15664572 0.69400001 1.0507743e-38
-0.015245715 0.15709715 0.69600004 1.1706649e-38
-0.01396 0.15754858 0.69800001 1.2997388e-38
-0.012666668 0.15800001 0.70000005 1.4378878e-38
-0.011381905 0.15867715 0.70300001 1.5208638e-38
-0.010042857 0.15867715 0.70300001 1.5393398e-38
-0.0087161912 0.15890287 0.70400006 1.8712441e-38
-0.080945715 0.15728478 0.69100004 1.8157811e-38
-0.079629533 0.15728478 0.69100004 1.6590485e-38
-0.078313336 0.15728478 0.69100004 1.5669629e-38
-0.076885715 0.15705717 0.69000006 1.3272543e-38
-0.075352386 0.15660191 0.68800002 1.3548051e-38
-0.07404191 0.15660191 0.68800002 1.2994877e-38
-0.072625719 0.15637429 0.68700004 1.2626801e-38
-0.071213335 0.15614668 0.68600005 1.2626801e-38
-0.069906674 0.15614668 0.68600005 1.1706283e-38
-0.068399996 0.15569143 0.68400002 1.1521892e-38
-0.066999055 0.15546381 0.68300003 1.1798465e-38
-0.065601908 0.1552362 0.68200004 1.1614074e-38
-0.064302862 0.1552362 0.68200004 1.1336385e-38
-0.062819049 0.15478095 0.68000001 1.1520777e-38
-0.061523806 0.15478095 0.68000001 1.1428257e-38
-0.060140003 0.15455334 0.67900002 1.1336062e-38
-0.058846667 0.15455334 0.67900002 1.1336062e-38
-0.057553336 0.15455334 0.67900002 1.1336062e-38
-0.056177147 0.15432572 0.67800003 1.1244226e-38
-0.054723814 0.15387048 0.67600006 1.1152031e-38
-0.053436194 0.15387048 0.67600006 1.142788e-38
-0.052148577 0.15387048 0.67600006 1.142788e-38
-0.050860956 0.15387048 0.67600006 1.1427527e-38
-0.04957334 0.15387048 0.67600006 1.1704114e-38
-0.048285719 0.15387048 0.67600006 1.1703765e-38
-0.046998098 0.15387048 0.67600006 1.1242787e-38
-0.045710482 0.15387048 0.67600006 1.124279e-38
-0.044422861 0.15387048 0.67600006 1.1150594e-38
-0.043262858 0.15432572 0.67800003 1.1520802e-38
-0.04197143 0.15432572 0.67800003 1.198178e-38
-0.040679999 0.15432572 0.67800003 1.1889952e-38
-0.039446667 0.15455334 0.67900002 1.1889952e-38
-0.038153335 0.15455334 0.67900002 1.2072897e-38
-0.036860004 0.15455334 0.67900002 1.2257288e-38
-0.03561905 0.15478095 0.68000001 1.216439e-38
-0.034323812 0.15478095 0.68000001 1.2901955e-38
-0.033028573 0.15478095 0.68000001 1.3271447e-38
-0.031733334 0.15478095 0.68000001 1.3916816e-38
-0.030438095 0.15478095 0.68000001 1.3457614e-38
-0.029228574 0.1552362 0.68200004 1.3549809e-38
-0.027970478 0.15546381 0.68300003 1.2905519e-38
-0.026708571 0.15569143 0.68400002 1.161478e-38
-0.025405714 0.15569143 0.68400002 1.078398e-38
-0.024208572 0.15637429 0.68700004 1.078398e-38
-0.022900002 0.15637429 0.68700004 1.0692134e-38
-0.021622857 0.15660191 0.68800002 1.0138961e-38
-0.02037143 0.15705717 0.69000006 1.0783251e-38
-0.019084763 0.15728478 0.69100004 1.0783251e-38
-0.017820001 0.15774 0.69300002 1.0875807e-38
-0.01652381 0.15796761 0.69400001 1.3641676e-38
-0.015245715 0.15842286 0.69600004 1.3918268e-38
-0.01396 0.1588781 0.69800001 1.4287051e-38
-0.012666668 0.15933335 0.70000005 1.4471079e-38
-0.011381905 0.16001619 0.70300001 1.5208644e-38
-0.010042857 0.16001619 0.70300001 1.5393032e-38
-0.0087161912 0.16024382 0.70400006 1.9357445e-38
-0.082857147 0.15974858 0.69600004 1.8343295e-38
-0.081531428 0.15974858 0.69600004 1.8434398e-38
-0.07997524 0.15928952 0.69400001 1.6774877e-38
-0.078653328 0.15928952 0.69400001 1.5670348e-38
-0.07722 0.15906 0.69300002 1.3642044e-38
-0.075680956 0.15860096 0.69100004 1.3915394e-38
-0.07425715 0.15837143 0.69000006 1.3454416e-38
-0.072625719 0.15768285 0.68700004 1.2902297e-38
-0.071317144 0.15768285 0.68700004 1.2717906e-38
-0.069906674 0.15745334 0.68600005 1.1429697e-38
-0.068399996 0.1569943 0.68400002 1.1337501e-38
-0.066999055 0.15676478 0.68300003 1.15226e-38
-0.065601908 0.15653525 0.68200004 1.15226e-38
-0.064302862 0.15653525 0.68200004 1.0874344e-38
-0.063003816 0.15653525 0.68200004 1.1058735e-38
-0.061523806 0.15607619 0.68000001 1.0505222e-38
-0.060228571 0.15607619 0.68000001 1.1150592e-38
-0.058846667 0.15584667 0.67900002 1.0968358e-38
-0.057553336 0.15584667 0.67900002 1.0876163e-38
-0.056177147 0.15561715 0.67800003 1.0876514e-38
-0.054885715 0.15561715 0.67800003 1.0876514e-38
-0.053436194 0.1551581 0.67600006 1.0875793e-38
-0.052148577 0.1551581 0.67600006 1.0691401e-38
-0.050860956 0.1551581 0.67600006 1.0875435e-38
-0.04972 0.15561715 0.67800003 1.1244218e-38
-0.048428573 0.15561715 0.67800003 1.1703765e-38
-0.047137145 0.15561715 0.67800003 1.09662e-38
-0.045845713 0.15561715 0.67800003 1.1057317e-38
-0.044554286 0.15561715 0.67800003 1.1333904e-38
-0.043262858 0.15561715 0.67800003 1.1243139e-38
-0.042033333 0.15584667 0.67900002 1.1335334e-38
-0.040739998 0.15584667 0.67900002 1.142753e-38
-0.039446667 0.15584667 0.67900002 1.142753e-38
-0.038153335 0.15584667 0.67900002 1.1058029e-38
-0.036860004 0.15584667 0.67900002 1.1703398e-38
-0.03561905 0.15607619 0.68000001 1.1702683e-38
-0.034323812 0.15607619 0.68000001 1.3085618e-38
-0.033028573 0.15607619 0.68000001 1.3085972e-38
-0.031733334 0.15607619 0.68000001 1.3639146e-38
-0.030438095 0.15607619 0.68000001 1.3180676e-38
-0.029228574 0.15653525 0.68200004 1.3272872e-38
-0.028011428 0.1569943 0.68400002 1.2813702e-38
-0.026708571 0.1569943 0.68400002 9.955637e-39
-0.025480002 0.15745334 0.68600005 9.1258483e-39
-0.024208572 0.15768285 0.68700004 1.0508783e-38
-0.022900002 0.15768285 0.68700004 1.032515e-38
-0.021622857 0.15791237 0.68800002 1.0417345e-38
-0.02037143 0.15837143 0.69000006 1.0876526e-38
-0.01914 0.15906 0.69300002 1.078433e-38
-0.017820001 0.15906 0.69300002 1.1244578e-38
-0.01652381 0.15928952 0.69400001 1.4010447e-38
-0.015245715 0.15974858 0.69600004 1.456183e-38
-0.014 0.16066667 0.70000005 1.4746221e-38
-0.012684762 0.1608962 0.70100003 1.493204e-38
-0.011381905 0.16135524 0.70300001 1.5116432e-38
-0.010057143 0.16158478 0.70400006 1.566818e-38
-0.0087161912 0.16158478 0.70400006 1.926381e-38
-0.083095238 0.16153714 0.69800001 1.7511742e-38
-0.081297144 0.16061142 0.69400001 1.7697534e-38
-0.07997524 0.16061142 0.69400001 1.6867773e-38
-0.078653328 0.16061142 0.69400001 1.6130247e-38
-0.07722 0.16038001 0.69300002 1.5484878e-38
-0.075680956 0.15991715 0.69100004 1.4285984e-38
-0.07425715 0.15968573 0.69000006 1.3271832e-38
