# .PCD v0.7 - Point Cloud Data file format
VERSION 0.7
FIELDS x y z rgb
SIZE 4 4 4 4
TYPE F F F F
COUNT 1 1 1 1
WIDTH 1024
HEIGHT 1
VIEWPOINT 0 0 0 1 0 0 0
POINTS 1024
DATA ascii
-0.13425429 0.1176943 0.62100005 1.3824638e-38
-0.13392857 0.11845238 0.625 1.4285616e-38
-0.13316287 0.11883143 0.62700003 1.4194852e-38
-0.13217905 0.11902096 0.62800002 1.4932417e-38
-0.13098286 0.11902096 0.62800002 1.5024239e-38
-0.20257714 0.11600571 0.60600001 1.5304086e-38
-0.20142286 0.11600571 0.60600001 1.0694305e-38
-0.19960763 0.11562286 0.60400003 1.0417345e-38
-0.19812858 0.11543144 0.60300004 7.743672e-39
-0.19665335 0.11524002 0.60200006 7.0082481e-39
-0.19550668 0.11524002 0.60200006 6.54727e-39
-0.19371429 0.11485714 0.60000002 6.3621767e-39
-0.19225048 0.11466572 0.59900004 6.7309592e-39
-0.19110952 0.11466572 0.59900004 6.8231548e-39
-0.18965144 0.1144743 0.59800005 6.6387636e-39
-0.1878819 0.11409143 0.59600002 6.8235304e-39
-0.18674666 0.11409143 0.59600002 6.2703566e-39
-0.18530001 0.11390001 0.59500003 6.086645e-39
-0.18416668 0.11390001 0.59500003 7.0086013e-39
-0.18303335 0.11390001 0.59500003 7.8365879e-39
-0.18190001 0.11390001 0.59500003 8.1131748e-39
-0.18046287 0.11370858 0.59400004 8.4808741e-39
-0.17933145 0.11370858 0.59400004 9.3106348e-39
-0.17820001 0.11370858 0.59400004 8.9440201e-39
-0.17706858 0.11370858 0.59400004 8.7596288e-39
-0.17623335 0.11390001 0.59500003 8.9429411e-39
-0.17510001 0.11390001 0.59500003 8.9429411e-39
-0.17396668 0.11390001 0.59500003 9.1266036e-39
-0.17283334 0.11390001 0.59500003 9.3109949e-39
-0.17141144 0.11370858 0.59400004 9.4957421e-39
-0.17028001 0.11370858 0.59400004 9.4957421e-39
-0.16886383 0.11351715 0.59300005 9.4950386e-39
-0.16745143 0.11332572 0.59200001 9.5872343e-39
-0.16632381 0.11332572 0.59200001 9.5875846e-39
-0.1651962 0.11332572 0.59200001 9.495389e-39
-0.16434573 0.11351715 0.59300005 9.3109977e-39
-0.16376667 0.11390001 0.59500003 9.5875846e-39
-0.16263334 0.11390001 0.59500003 9.5876014e-39
-0.16177143 0.11409143 0.59600002 9.4032102e-39
-0.16063619 0.11409143 0.59600002 9.3106446e-39
-0.15976857 0.11428285 0.597 9.3106446e-39
-0.15863143 0.11428285 0.597 9.5857699e-39
-0.15749429 0.11428285 0.597 9.6779655e-39
-0.15635714 0.11428285 0.597 9.218449e-39
-0.15522 0.11428285 0.597 8.9418621e-39
-0.15408286 0.11428285 0.597 8.021684e-39
-0.15320192 0.1144743 0.59800005 8.6670534e-39
-0.15206286 0.1144743 0.59800005 9.9549084e-39
-0.1511762 0.11466572 0.59900004 1.0047104e-38
-0.15028572 0.11485714 0.60000002 1.0968707e-38
-0.14914286 0.11485714 0.60000002 1.1153098e-38
-0.14824666 0.11504857 0.60100001 1.2165799e-38
-0.14710191 0.11504857 0.60100001 1.235019e-38
-0.1462 0.11524002 0.60200006 1.2166188e-38
-0.14529429 0.11543144 0.60300004 1.2350579e-38
-0.14438476 0.11562286 0.60400003 1.2535334e-38
-0.14370857 0.11600571 0.60600001 1.2443138e-38
-0.14302477 0.11638857 0.60800004 1.2443145e-38
-0.14186667 0.11638857 0.60800004 1.2350949e-38
-0.14117144 0.11677143 0.61000001 1.0601033e-38
-0.14023906 0.11696285 0.611 1.0601033e-38
-0.13953048 0.11734572 0.61300004 1.0140075e-38
-0.13858858 0.11753714 0.61400002 8.7571401e-39
-0.13764286 0.11772858 0.61500001 8.0210044e-39
-0.13669334 0.11792001 0.61600006 8.0210044e-39
-0.13618 0.11849429 0.61900002 1.0965473e-38
-0.13500096 0.11849429 0.61900002 1.3270364e-38
-0.13425429 0.11887715 0.62100005 1.3916107e-38
-0.13392857 0.11964285 0.625 1.4192694e-38
-0.13316287 0.12002572 0.62700003 1.3917902e-38
-0.13217905 0.12021714 0.62800002 1.4655467e-38
-0.13098286 0.12021714 0.62800002 1.53001e-38
-0.12978667 0.12021714 0.62800002 1.7328404e-38
-0.20257714 0.11716 0.60600001 1.6316078e-38
-0.20142286 0.11716 0.60600001 1.0968731e-38
-0.19960763 0.11677334 0.60400003 1.0232601e-38
-0.19845715 0.11677334 0.60400003 8.1121014e-39
-0.19665335 0.11638667 0.60200006 7.1922905e-39
-0.19550668 0.11638667 0.60200006 7.2844861e-39
-0.19403714 0.11619334 0.60100001 6.7302558e-39
-0.19257143 0.116 0.60000002 6.6380601e-39
-0.19110952 0.11580668 0.59900004 6.5476469e-39
-0.18996859 0.11580668 0.59900004 5.6256906e-39
-0.1885124 0.11561334 0.59800005 5.5335104e-39
-0.18674666 0.11522667 0.59600002 4.4271629e-39
-0.18530001 0.11503334 0.59500003 5.6253011e-39
-0.18416668 0.11503334 0.59500003 7.2848224e-39
-0.18303335 0.11503334 0.59500003 7.1000949e-39
-0.18190001 0.11503334 0.59500003 5.9015517e-39
-0.18046287 0.11484001 0.59400004 7.3748895e-39
-0.17933145 0.11484001 0.59400004 8.1124545e-39
-0.17820001 0.11484001 0.59400004 7.5607199e-39
-0.17706858 0.11484001 0.59400004 7.3763286e-39
-0.17652953 0.11522667 0.59600002 7.4681865e-39
-0.17510001 0.11503334 0.59500003 8.2057516e-39
-0.17396668 0.11503334 0.59500003 9.2184321e-39
-0.17283334 0.11503334 0.59500003 9.3106278e-39
-0.1717 0.11503334 0.59500003 9.7705311e-39
-0.17028001 0.11484001 0.59400004 9.8627268e-39
-0.16914859 0.11484001 0.59400004 9.5872343e-39
-0.16801715 0.11484001 0.59400004 9.402843e-39
-0.16688572 0.11484001 0.59400004 9.4035465e-39
-0.16547526 0.11464668 0.59300005 9.4035465e-39
-0.16434573 0.11464668 0.59300005 9.2187993e-39
-0.16376667 0.11503334 0.59500003 9.2187993e-39
-0.16290666 0.11522667 0.59600002 8.7578407e-39
-0.16177143 0.11522667 0.59600002 8.5734495e-39
-0.16063619 0.11522667 0.59600002 8.8493007e-39
-0.15976857 0.11542 0.597 8.9414963e-39
-0.15863143 0.11542 0.597 9.0354534e-39
-0.15749429 0.11542 0.597 9.3120403e-39
-0.15635714 0.11542 0.597 1.0048563e-38
-0.15522 0.11542 0.597 1.032515e-38
-0.15434097 0.11561334 0.59800005 1.1615512e-38
-0.15320192 0.11561334 0.59800005 1.1615512e-38
-0.15206286 0.11561334 0.59800005 1.1708057e-38
-0.15142857 0.116 0.60000002 1.2169036e-38
-0.15028572 0.116 0.60000002 1.2352005e-38
-0.14914286 0.116 0.60000002 1.2259809e-38
-0.14824666 0.11619334 0.60100001 1.2443822e-38
-0.14710191 0.11619334 0.60100001 1.1890648e-38
-0.1462 0.11638667 0.60200006 1.1611958e-38
-0.14529429 0.11658001 0.60300004 1.1335371e-38
-0.14438476 0.11677334 0.60400003 9.5865476e-39
-0.14370857 0.11716 0.60600001 8.9411782e-39
-0.14302477 0.11754668 0.60800004 8.0206541e-39
-0.14210001 0.11774001 0.60900003 6.8221109e-39
-0.14117144 0.11793333 0.61000001 6.3621991e-39
-0.14046857 0.11832 0.61200005 6.3621991e-39
-0.13953048 0.11851335 0.61300004 5.8097694e-39
-0.13858858 0.11870667 0.61400002 5.2565956e-39
-0.13786668 0.11909334 0.61600006 4.7052295e-39
-0.13669334 0.11909334 0.61600006 3.6910776e-39
-0.13596001 0.11948001 0.61800003 7.5546312e-39
-0.13500096 0.11967333 0.61900002 1.2348804e-38
-0.1338219 0.11967333 0.61900002 1.3824621e-38
-0.13392857 0.12083333 0.625 1.4193403e-38
-0.13316287 0.12122001 0.62700003 1.4010098e-38
-0.13217905 0.12141334 0.62800002 1.4563272e-38
-0.13098286 0.12141334 0.62800002 1.520898e-38
-0.12978667 0.12141334 0.62800002 1.668411e-38
-0.20291145 0.11850954 0.60700005 1.6777056e-38
-0.20175526 0.11850954 0.60700005 1.1245318e-38
-0.20026857 0.11831429 0.60600001 1.004821e-38
-0.19845715 0.11792382 0.60400003 8.204297e-39
-0.19698001 0.11772858 0.60300004 7.6525778e-39
-0.19583145 0.11772858 0.60300004 7.3759909e-39
-0.19403714 0.1173381 0.60100001 7.1908471e-39
-0.19257143 0.11714286 0.60000002 7.1908471e-39
-0.19110952 0.11694762 0.59900004 7.3763258e-39
-0.18996859 0.11694762 0.59900004 6.085587e-39
-0.1885124 0.11675239 0.59800005 5.4402036e-39
-0.18706 0.11655714 0.597 5.3480079e-39
-0.18561143 0.1163619 0.59600002 5.2583164e-39
-0.1844762 0.1163619 0.59600002 6.9178378e-39
-0.18303335 0.11616667 0.59500003 6.6416236e-39
-0.18190001 0.11616667 0.59500003 5.811863e-39
-0.18076667 0.11616667 0.59500003 6.4543723e-39
-0.17963333 0.11616667 0.59500003 7.0075461e-39
-0.1785 0.11616667 0.59500003 7.0064559e-39
-0.17736667 0.11616667 0.59500003 7.467434e-39
-0.17652953 0.1163619 0.59600002 7.6521756e-39
-0.17510001 0.11616667 0.59500003 8.1131538e-39
-0.17396668 0.11616667 0.59500003 9.2187993e-39
-0.17283334 0.11616667 0.59500003 9.2187993e-39
-0.1717 0.11616667 0.59500003 9.5875846e-39
-0.17028001 0.11597144 0.59400004 9.5875846e-39
-0.16914859 0.11597144 0.59400004 9.677632e-39
-0.16801715 0.11597144 0.59400004 9.5854364e-39
-0.16660477 0.1157762 0.59300005 9.219151e-39
-0.16547526 0.1157762 0.59300005 9.219151e-39
-0.16462287 0.11597144 0.59400004 8.8510958e-39
-0.16349144 0.11597144 0.59400004 8.8510958e-39
-0.16236001 0.11597144 0.59400004 8.3904904e-39
-0.16150001 0.11616667 0.59500003 8.2060991e-39
-0.16063619 0.1163619 0.59600002 8.3904693e-39
-0.15976857 0.11655714 0.597 8.9436431e-39
-0.15863143 0.11655714 0.597 9.1280288e-39
-0.15749429 0.11655714 0.597 9.4968113e-39
-0.15635714 0.11655714 0.597 1.0876523e-38
-0.15522 0.11655714 0.597 1.1890675e-38
-0.15434097 0.11675239 0.59800005 1.1524413e-38
-0.15320192 0.11675239 0.59800005 1.1524413e-38
-0.15206286 0.11675239 0.59800005 1.1891745e-38
-0.15142857 0.11714286 0.60000002 1.2260528e-38
-0.15028572 0.11714286 0.60000002 1.2352723e-38
-0.14914286 0.11714286 0.60000002 1.2260528e-38
-0.14824666 0.1173381 0.60100001 1.2627526e-38
-0.14710191 0.1173381 0.60100001 1.170557e-38
-0.1462 0.11753334 0.60200006 1.1336437e-38
-0.14529429 0.11772858 0.60300004 1.0967655e-38
-0.14438476 0.11792382 0.60400003 8.5759788e-39
-0.14394574 0.11850954 0.60700005 7.4696313e-39
-0.14302477 0.11870477 0.60800004 5.8137099e-39
-0.14210001 0.11890001 0.60900003 5.1683405e-39
-0.14140286 0.11929047 0.611 4.7077224e-39
-0.14069809 0.11968096 0.61300004 4.3389399e-39
-0.1397581 0.11987619 0.61400002 3.9723308e-39
-0.13881429 0.12007143 0.61500001 3.1425702e-39
-0.13786668 0.12026668 0.61600006 3.5077752e-39
-0.13669334 0.12026668 0.61600006 2.6780145e-39
-0.13596001 0.12065715 0.61800003 7.3719958e-39
-0.13500096 0.12085238 0.61900002 1.2442755e-38
-0.1338219 0.12085238 0.61900002 1.3732795e-38
-0.13371429 0.12182858 0.62400001 1.4101578e-38
-0.13316287 0.12241429 0.62700003 1.4102294e-38
-0.13217905 0.12260953 0.62800002 1.4655467e-38
-0.13098286 0.12260953 0.62800002 1.5576684e-38
-0.12999333 0.12280477 0.62900001 1.6590836e-38
-0.20358001 0.12006 0.60900003 1.7053998e-38
-0.20208763 0.11986287 0.60800004 1.1430065e-38
-0.20059906 0.11966572 0.60700005 9.9560336e-39
-0.19911429 0.11946857 0.60600001 8.8496861e-39
-0.19730668 0.11907429 0.60400003 7.9284738e-39
-0.19583145 0.11887715 0.60300004 7.5596913e-39
-0.19436002 0.11868002 0.60200006 7.1904982e-39
-0.19257143 0.11828572 0.60000002 7.2826939e-39
-0.19142859 0.11828572 0.60000002 8.020612e-39
-0.18996859 0.11808857 0.59900004 8.2050033e-39
-0.1885124 0.11789144 0.59800005 7.4688732e-39
-0.18737336 0.11789144 0.59800005 7.5610688e-39
-0.18561143 0.11749715 0.59600002 7.6532644e-39
-0.1844762 0.11749715 0.59600002 7.5610688e-39
-0.18334097 0.11749715 0.59600002 7.5614219e-39
-0.18220572 0.11749715 0.59600002 7.5614219e-39
-0.18076667 0.1173 0.59500003 7.4681711e-39
-0.17963333 0.1173 0.59500003 7.0993886e-39
-0.1785 0.1173 0.59500003 7.1912339e-39
-0.17736667 0.1173 0.59500003 7.6522121e-39
-0.17652953 0.11749715 0.59600002 7.8362011e-39
-0.17510001 0.1173 0.59500003 8.112788e-39
-0.17396668 0.1173 0.59500003 8.480165e-39
-0.17283334 0.1173 0.59500003 8.480165e-39
-0.1717 0.1173 0.59500003 9.4006794e-39
-0.17028001 0.11710286 0.59400004 9.6772663e-39
-0.16914859 0.11710286 0.59400004 9.2159504e-39
-0.16801715 0.11710286 0.59400004 8.2939941e-39
-0.16660477 0.11690573 0.59300005 8.8500055e-39
-0.16547526 0.11690573 0.59300005 9.0343968e-39
-0.16462287 0.11710286 0.59400004 9.4010325e-39
-0.16349144 0.11710286 0.59400004 9.4932282e-39
-0.16236001 0.11710286 0.59400004 1.0045696e-38
-0.16150001 0.1173 0.59500003 1.0691065e-38
-0.16063619 0.11749715 0.59600002 1.1246373e-38
-0.15976857 0.11769429 0.597 1.1430764e-38
-0.15863143 0.11769429 0.597 1.1522611e-38
-0.15749429 0.11769429 0.597 1.1522611e-38
-0.15635714 0.11769429 0.597 1.1705553e-38
-0.15522 0.11769429 0.597 1.2350923e-38
-0.15434097 0.11789144 0.59800005 1.2075418e-38
-0.15320192 0.11789144 0.59800005 1.1891026e-38
-0.15206286 0.11789144 0.59800005 1.1890677e-38
-0.15142857 0.11828572 0.60000002 1.1153112e-38
-0.15028572 0.11828572 0.60000002 1.0141107e-38
-0.14914286 0.11828572 0.60000002 9.3113466e-39
-0.14824666 0.11848286 0.60100001 8.2035964e-39
-0.14734669 0.11868002 0.60200006 8.2035964e-39
-0.1462 0.11868002 0.60200006 7.283047e-39
-0.14529429 0.11887715 0.60300004 6.2688951e-39
-0.14486286 0.11946857 0.60600001 5.0743119e-39
-0.14418288 0.11986287 0.60800004 3.5991819e-39
-0.14326 0.12006 0.60900003 3.3236964e-39
-0.14210001 0.12006 0.60900003 3.3236964e-39
-0.14140286 0.12045428 0.611 3.5088289e-39
-0.14069809 0.12084857 0.61300004 4.7073721e-39
-0.1397581 0.12104572 0.61400002 4.6155268e-39
-0.13881429 0.12124286 0.61500001 3.6013749e-39
-0.13786668 0.12144001 0.61600006 3.599968e-39
-0.13669334 0.12144001 0.61600006 2.7702073e-39
-0.13596001 0.12183429 0.61800003 6.9110597e-39
-0.13500096 0.12203144 0.61900002 1.2166211e-38
-0.13403811 0.12222857 0.62 1.382497e-38
-0.13371429 0.12301714 0.62400001 1.4378143e-38
-0.1327381 0.12321428 0.625 1.4010098e-38
-0.13196857 0.12360857 0.62700003 1.4747663e-38
-0.13077429 0.12360857 0.62700003 1.520898e-38
-0.12958001 0.12360857 0.62700003 1.6499719e-38
-0.20358001 0.12122001 0.60900003 1.7238753e-38
-0.20208763 0.12102096 0.60800004 1.2352384e-38
-0.20059906 0.12082192 0.60700005 1.1247103e-38
-0.19944288 0.12082192 0.60700005 9.6797774e-39
-0.19796 0.12062286 0.60600001 9.679797e-39
-0.19583145 0.12002572 0.60300004 8.3890582e-39
-0.19468288 0.12002572 0.60300004 8.2046333e-39
-0.19289239 0.11962762 0.60100001 8.1124377e-39
-0.19174762 0.11962762 0.60100001 8.1124377e-39
-0.19028571 0.11942858 0.60000002 8.2046333e-39
-0.18882763 0.11922953 0.59900004 7.8362011e-39
-0.18737336 0.11903048 0.59800005 8.112788e-39
-0.18592285 0.11883143 0.597 9.0340549e-39
-0.18478571 0.11883143 0.597 8.019903e-39
-0.18364856 0.11883143 0.597 8.1120888e-39
-0.18251142 0.11883143 0.597 8.29648e-39
-0.18076667 0.11843333 0.59500003 8.3883253e-39
-0.17963333 0.11843333 0.59500003 8.2039341e-39
-0.1785 0.11843333 0.59500003 7.9287835e-39
-0.17736667 0.11843333 0.59500003 7.8365879e-39
-0.17652953 0.11863238 0.59600002 8.2046333e-39
-0.17539428 0.11863238 0.59600002 8.296829e-39
-0.17425905 0.11863238 0.59600002 8.6634675e-39
-0.17312381 0.11863238 0.59600002 8.7556631e-39
-0.1717 0.11843333 0.59500003 9.4010297e-39
-0.17056666 0.11843333 0.59500003 9.4010297e-39
-0.16943334 0.11843333 0.59500003 9.1240897e-39
-0.1683 0.11843333 0.59500003 9.2162853e-39
-0.16688572 0.11823429 0.59400004 8.7581771e-39
-0.16575429 0.11823429 0.59400004 8.9425683e-39
-0.1649 0.11843333 0.59500003 1.0691044e-38
-0.16376667 0.11843333 0.59500003 1.1244218e-38
-0.16290666 0.11863238 0.59600002 1.1704841e-38
-0.16177143 0.11863238 0.59600002 1.1981428e-38
-0.16090572 0.11883143 0.597 1.1706272e-38
-0.15976857 0.11883143 0.597 1.2075055e-38
-0.15889715 0.11903048 0.59800005 1.2351293e-38
-0.15749429 0.11883143 0.597 1.1613728e-38
-0.15635714 0.11883143 0.597 1.1888861e-38
-0.15522 0.11883143 0.597 1.234984e-38
-0.15434097 0.11903048 0.59800005 1.1890663e-38
-0.15320192 0.11903048 0.59800005 1.1706272e-38
-0.15206286 0.11903048 0.59800005 1.1614807e-38
-0.15142857 0.11942858 0.60000002 1.1153829e-38
-0.15028572 0.11942858 0.60000002 9.8655938e-39
-0.14914286 0.11942858 0.60000002 7.6528987e-39
-0.14849335 0.11982667 0.60200006 7.5596269e-39
-0.14734669 0.11982667 0.60200006 6.4532793e-39
-0.1462 0.11982667 0.60200006 5.8097078e-39
-0.14529429 0.12002572 0.60300004 4.3345777e-39
-0.14534096 0.12102096 0.60800004 3.7850277e-39
-0.14418288 0.12102096 0.60800004 3.5084408e-39
-0.14326 0.12122001 0.60900003 3.8754212e-39
-0.14233333 0.12141905 0.61000001 3.9676169e-39
-0.14140286 0.12161809 0.611 3.6924817e-39
-0.14069809 0.12201619 0.61300004 4.2456555e-39
-0.1397581 0.12221524 0.61400002 4.0612895e-39
-0.13858858 0.12221524 0.61400002 3.6925069e-39
-0.13764286 0.12241429 0.61500001 3.414841e-39
-0.13669334 0.12261335 0.61600006 3.3226454e-39
-0.13596001 0.12301143 0.61800003 6.7263153e-39
-0.13500096 0.12321047 0.61900002 1.1889271e-38
-0.13403811 0.12340952 0.62 1.2901941e-38
-0.13371429 0.12420572 0.62400001 1.4100485e-38
-0.1327381 0.12440476 0.625 1.4008659e-38
-0.13196857 0.12480287 0.62700003 1.4746224e-38
-0.13077429 0.12480287 0.62700003 1.5024589e-38
-0.12978667 0.12500191 0.62800002 1.5485567e-38
-0.20208763 0.12217905 0.60800004 1.3182155e-38
-0.20092954 0.12217905 0.60800004 1.1246373e-38
-0.19944288 0.1219781 0.60700005 9.5868517e-39
-0.19796 0.12177715 0.60600001 9.3116998e-39
-0.19615619 0.12137525 0.60400003 8.8507216e-39
-0.19468288 0.12117429 0.60300004 8.6656115e-39
-0.19321336 0.12097334 0.60200006 8.7578071e-39
-0.19174762 0.12077238 0.60100001 8.5737662e-39
-0.19028571 0.12057143 0.60000002 8.6659618e-39
-0.18882763 0.12037048 0.59900004 7.9291184e-39
-0.18768668 0.12037048 0.59900004 7.6525316e-39
-0.18592285 0.11996857 0.597 8.3904693e-39
-0.18478571 0.11996857 0.597 7.9294912e-39
-0.18364856 0.11996857 0.597 7.7443923e-39
-0.18251142 0.11996857 0.597 7.6521966e-39
-0.18076667 0.11956667 0.59500003 7.7440419e-39
-0.17963333 0.11956667 0.59500003 8.1128245e-39
-0.1788 0.11976762 0.59600002 8.020982e-39
-0.17766476 0.11976762 0.59600002 7.9287863e-39
-0.17682572 0.11996857 0.597 8.2961297e-39
-0.17568858 0.11996857 0.597 8.8493035e-39
-0.17425905 0.11976762 0.59600002 9.0322626e-39
-0.17312381 0.11976762 0.59600002 9.677632e-39
-0.17198856 0.11976762 0.59600002 1.0783248e-38
-0.17085335 0.11976762 0.59600002 1.0967639e-38
-0.1697181 0.11976762 0.59600002 1.1060198e-38
-0.16858286 0.11976762 0.59600002 1.1152394e-38
-0.16716668 0.11956667 0.59500003 1.1428986e-38
-0.16603334 0.11956667 0.59500003 1.1613377e-38
-0.1649 0.11956667 0.59500003 1.1798468e-38
-0.16376667 0.11956667 0.59500003 1.1982859e-38
-0.16290666 0.11976762 0.59600002 1.2165799e-38
-0.16177143 0.11976762 0.59600002 1.2257994e-38
-0.16063619 0.11976762 0.59600002 1.1982128e-38
-0.15950094 0.11976762 0.59600002 1.2074323e-38
-0.15889715 0.12016953 0.59800005 1.2166534e-38
-0.1577581 0.12016953 0.59800005 1.1705556e-38
-0.15661906 0.12016953 0.59800005 1.0967628e-38
-0.15548001 0.12016953 0.59800005 1.0875433e-38
-0.15434097 0.12016953 0.59800005 9.4935883e-39
-0.15320192 0.12016953 0.59800005 9.0326102e-39
-0.15231715 0.12037048 0.59900004 8.6659646e-39
-0.15142857 0.12057143 0.60000002 8.4815734e-39
-0.15028572 0.12057143 0.60000002 7.2855413e-39
-0.14939143 0.12077238 0.60100001 5.9026068e-39
-0.14849335 0.12097334 0.60200006 6.087724e-39
-0.14734669 0.12097334 0.60200006 5.4423546e-39
-0.1462 0.12097334 0.60200006 4.6126331e-39
-0.1462581 0.1219781 0.60700005 4.0594594e-39
-0.14534096 0.12217905 0.60800004 3.4159046e-39
-0.14418288 0.12217905 0.60800004 3.323709e-39
-0.14326 0.12238 0.60900003 3.2329063e-39
-0.14233333 0.12258096 0.61000001 3.4172975e-39
-0.1416343 0.12298286 0.61200005 3.1411156e-39
-0.14069809 0.12318381 0.61300004 3.6020938e-39
-0.1397581 0.12338476 0.61400002 3.2354945e-39
-0.13858858 0.12338476 0.61400002 3.2354945e-39
-0.13764286 0.12358572 0.61500001 2.8634749e-39
-0.13669334 0.12378668 0.61600006 4.0620181e-39
-0.13596001 0.12418858 0.61800003 7.1905431e-39
-0.13521904 0.12459048 0.62 1.1154955e-38
-0.13403811 0.12459048 0.62 1.2534954e-38
-0.13392857 0.12559524 0.625 1.3825693e-38
-0.1327381 0.12559524 0.625 1.3917189e-38
-0.13154761 0.12559524 0.625 1.4470363e-38
-0.13035715 0.12559524 0.625 1.5024589e-38
-0.12978667 0.1261981 0.62800002 1.520898e-38
-0.20242001 0.12354001 0.60900003 1.3919713e-38
-0.20092954 0.12333716 0.60800004 1.1522261e-38
-0.19944288 0.1231343 0.60700005 9.6783481e-39
-0.19796 0.12293143 0.60600001 8.9422012e-39
-0.19615619 0.12252572 0.60400003 8.5734187e-39
-0.19500573 0.12252572 0.60400003 8.5730697e-39
-0.1935343 0.12232286 0.60300004 8.4808741e-39
-0.19206668 0.12212001 0.60200006 8.297545e-39
-0.19028571 0.12171429 0.60000002 8.297545e-39
-0.18914287 0.12171429 0.60000002 7.8387249e-39
-0.18768668 0.12151143 0.59900004 7.7465293e-39
-0.18623431 0.12130858 0.59800005 8.1146097e-39
-0.18509525 0.12130858 0.59800005 7.6536316e-39
-0.18395621 0.12130858 0.59800005 7.8362166e-39
-0.18281716 0.12130858 0.59800005 7.7440209e-39
-0.18107048 0.12090286 0.59600002 7.6514469e-39
-0.17993525 0.12090286 0.59600002 8.2046207e-39
-0.17910001 0.12110572 0.597 8.1127908e-39
-0.17796287 0.12110572 0.597 8.2971821e-39
-0.17682572 0.12110572 0.597 8.6652654e-39
-0.17568858 0.12110572 0.597 9.0340479e-39
-0.17455143 0.12110572 0.597 9.5854336e-39
-0.17312381 0.12090286 0.59600002 1.0138607e-38
-0.17198856 0.12090286 0.59600002 1.1520463e-38
-0.17085335 0.12090286 0.59600002 1.1704854e-38
-0.1697181 0.12090286 0.59600002 1.1798479e-38
-0.16858286 0.12090286 0.59600002 1.1614088e-38
-0.16716668 0.12070001 0.59500003 1.1797766e-38
-0.16603334 0.12070001 0.59500003 1.1797766e-38
-0.1649 0.12070001 0.59500003 1.1889236e-38
-0.16376667 0.12070001 0.59500003 1.1889236e-38
-0.16290666 0.12090286 0.59600002 1.1889952e-38
-0.16177143 0.12090286 0.59600002 1.2074343e-38
-0.16063619 0.12090286 0.59600002 1.1982128e-38
-0.15950094 0.12090286 0.59600002 1.1889932e-38
-0.15889715 0.12130858 0.59800005 1.2166519e-38
-0.1577581 0.12130858 0.59800005 1.1521149e-38
-0.15661906 0.12130858 0.59800005 1.0691755e-38
-0.15548001 0.12130858 0.59800005 1.0046385e-38
-0.15459906 0.12151143 0.59900004 8.8510691e-39
-0.1537143 0.12171429 0.60000002 8.2056997e-39
-0.15282573 0.12191714 0.60100001 8.2978982e-39
-0.15168095 0.12191714 0.60100001 7.6525287e-39
-0.15053619 0.12191714 0.60100001 7.0096705e-39
-0.14939143 0.12191714 0.60100001 5.7189316e-39
-0.14874001 0.12232286 0.60300004 5.4456042e-39
-0.14783619 0.12252572 0.60400003 4.247061e-39
-0.14717142 0.12293143 0.60600001 4.4292844e-39
-0.1462581 0.1231343 0.60700005 4.2448932e-39
-0.14534096 0.12333716 0.60800004 3.5066359e-39
-0.14418288 0.12333716 0.60800004 3.230049e-39
-0.14326 0.12354001 0.60900003 2.2198361e-39
-0.14233333 0.12374286 0.61000001 3.049594e-39
-0.1416343 0.12414857 0.61200005 3.4176927e-39
-0.14092761 0.12455428 0.61400002 3.5098883e-39
-0.13998571 0.12475713 0.61500001 3.0518067e-39
-0.13881429 0.12475713 0.61500001 2.5908285e-39
-0.13786668 0.12496001 0.61600006 1.8532116e-39
-0.13713714 0.12536572 0.61800003 3.6971214e-39
-0.13618 0.12556857 0.61900002 8.2039341e-39
-0.13543716 0.1259743 0.62100005 1.1799564e-38
-0.13447049 0.12617715 0.62200004 1.2443109e-38
-0.13392857 0.12678571 0.625 1.3733847e-38
-0.1327381 0.12678571 0.625 1.4285969e-38
-0.13154761 0.12678571 0.625 1.447036e-38
-0.13035715 0.12678571 0.625 1.5024589e-38
-0.12978667 0.12739429 0.62800002 1.5393372e-38
-0.20092954 0.12449524 0.60800004 1.1430826e-38
-0.19944288 0.12429048 0.60700005 9.5869134e-39
-0.19796 0.12408572 0.60600001 9.1266036e-39
-0.19680572 0.12408572 0.60600001 8.4812342e-39
-0.19500573 0.12367619 0.60400003 8.2975717e-39
-0.1935343 0.12347143 0.60300004 8.205376e-39
-0.19206668 0.12326667 0.60200006 7.9294884e-39
-0.19028571 0.12285714 0.60000002 7.1919233e-39
-0.18914287 0.12285714 0.60000002 7.8383619e-39
-0.18768668 0.12265238 0.59900004 7.8383619e-39
-0.18654573 0.12265238 0.59900004 8.2053494e-39
-0.18540478 0.12265238 0.59900004 8.1131538e-39
-0.18395621 0.12244762 0.59800005 9.1251449e-39
-0.18281716 0.12244762 0.59800005 9.3095362e-39
-0.1816781 0.12244762 0.59800005 1.0415489e-38
-0.18053906 0.12244762 0.59800005 1.0968662e-38
-0.17910001 0.12224285 0.597 1.0875793e-38
-0.17796287 0.12224285 0.597 1.1060184e-38
-0.17682572 0.12224285 0.597 1.1060564e-38
-0.17598286 0.12244762 0.59800005 1.1705933e-38
-0.17455143 0.12224285 0.597 1.1244595e-38
-0.17341429 0.12224285 0.597 1.133679e-38
-0.17198856 0.1220381 0.59600002 1.1704854e-38
-0.17085335 0.1220381 0.59600002 1.1704854e-38
-0.1697181 0.1220381 0.59600002 1.170592e-38
-0.16858286 0.1220381 0.59600002 1.1613725e-38
-0.16772857 0.12224285 0.597 1.1797766e-38
-0.16659144 0.12224285 0.597 1.2258744e-38
-0.16545428 0.12224285 0.597 1.1797037e-38
-0.16404191 0.1220381 0.59600002 1.1151668e-38
-0.16290666 0.1220381 0.59600002 1.1888157e-38
-0.16204286 0.12224285 0.597 1.2164743e-38
-0.16090572 0.12224285 0.597 1.2072872e-38
-0.15976857 0.12224285 0.597 1.1243111e-38
-0.15889715 0.12244762 0.59800005 1.1059786e-38
-0.15802191 0.12265238 0.59900004 1.0598808e-38
-0.15688096 0.12265238 0.59900004 9.6783187e-39
-0.15574001 0.12265238 0.59900004 9.4939274e-39
-0.15485714 0.12285714 0.60000002 8.6656115e-39
-0.1537143 0.12285714 0.60000002 7.9280464e-39
-0.15282573 0.1230619 0.60100001 8.0213141e-39
-0.15168095 0.1230619 0.60100001 7.4681403e-39
-0.15053619 0.1230619 0.60100001 6.4572324e-39
-0.14964001 0.12326667 0.60200006 4.060146e-39
-0.14874001 0.12347143 0.60300004 4.0616146e-39
-0.14783619 0.12367619 0.60400003 3.692832e-39
-0.14717142 0.12408572 0.60600001 3.8764624e-39
-0.1462581 0.12429048 0.60700005 3.5998797e-39
-0.14534096 0.12449524 0.60800004 4.2420682e-39
-0.14418288 0.12449524 0.60800004 6.0859808e-39
-0.14326 0.12470001 0.60900003 6.0866688e-39
-0.14233333 0.12490477 0.61000001 7.1930164e-39
-0.1416343 0.1253143 0.61200005 7.1926913e-39
-0.14092761 0.12572382 0.61400002 7.4692781e-39
-0.1397581 0.12572382 0.61400002 5.7211639e-39
-0.13858858 0.12572382 0.61400002 4.5226207e-39
-0.13764286 0.12592858 0.61500001 4.9832205e-39
-0.13669334 0.12613335 0.61600006 8.3944588e-39
-0.1364 0.12695238 0.62 1.0325499e-38
-0.13543716 0.12715715 0.62100005 1.1800629e-38
-0.13468666 0.12756667 0.62300003 1.225907e-38
-0.13392857 0.12797619 0.625 1.3642005e-38
-0.1327381 0.12797619 0.625 1.3917905e-38
-0.13154761 0.12797619 0.625 1.4378883e-38
-0.13077429 0.12838572 0.62700003 1.4747649e-38
-0.12999333 0.12879524 0.62900001 1.5393018e-38
-0.19861333 0.12565334 0.60800004 1.0139309e-38
-0.19745526 0.12565334 0.60800004 8.8485706e-39
-0.19565143 0.12524 0.60600001 8.4809035e-39
-0.19385524 0.12482667 0.60400003 8.112121e-39
-0.19238573 0.12462001 0.60300004 7.8376599e-39
-0.19123715 0.12462001 0.60300004 7.8376599e-39
-0.18945809 0.12420667 0.60100001 7.9302072e-39
-0.18831334 0.12420667 0.60100001 7.9302072e-39
-0.18685715 0.12400001 0.60000002 8.4808741e-39
-0.18540478 0.12379333 0.59900004 8.5730697e-39
-0.18426381 0.12379333 0.59900004 9.8605547e-39
-0.18281716 0.12358667 0.59800005 1.0505924e-38
-0.1816781 0.12358667 0.59800005 1.1150933e-38
-0.18053906 0.12358667 0.59800005 1.142752e-38
-0.17940001 0.12358667 0.59800005 1.1612646e-38
-0.17796287 0.12338 0.597 1.152045e-38
-0.17682572 0.12338 0.597 1.1244595e-38
-0.17627716 0.12379333 0.59900004 1.1428986e-38
-0.17484382 0.12358667 0.59800005 1.1336437e-38
-0.17341429 0.12338 0.597 1.1244242e-38
-0.17227715 0.12338 0.597 1.1704504e-38
-0.17114 0.12338 0.597 1.1704504e-38
-0.17000286 0.12338 0.597 1.1889236e-38
-0.16886571 0.12338 0.597 1.1520453e-38
-0.16772857 0.12338 0.597 1.1336062e-38
-0.16659144 0.12338 0.597 1.1243866e-38
-0.16545428 0.12338 0.597 1.1427167e-38
-0.16404191 0.12317333 0.59600002 1.1427167e-38
-0.16290666 0.12317333 0.59600002 1.1519363e-38
-0.16204286 0.12338 0.597 1.2072537e-38
-0.16090572 0.12338 0.597 1.1704805e-38
-0.15976857 0.12338 0.597 1.1059436e-38
-0.15889715 0.12358667 0.59800005 1.0875047e-38
-0.1577581 0.12358667 0.59800005 9.9530909e-39
-0.15688096 0.12379333 0.59900004 9.3102424e-39
-0.156 0.12400001 0.60000002 9.402438e-39
-0.15485714 0.12400001 0.60000002 8.2975352e-39
-0.15397048 0.12420667 0.60100001 8.2975352e-39
-0.15282573 0.12420667 0.60100001 8.4822894e-39
-0.15168095 0.12420667 0.60100001 7.3759419e-39
-0.15078668 0.12441335 0.60200006 6.2728159e-39
-0.14988858 0.12462001 0.60300004 4.8898814e-39
-0.14898667 0.12482667 0.60400003 4.615489e-39
-0.14783619 0.12482667 0.60400003 4.1545108e-39
-0.1474143 0.12544668 0.60700005 4.0612096e-39
-0.14649905 0.12565334 0.60800004 4.9831561e-39
-0.14558001 0.12586001 0.60900003 6.9160399e-39
-0.14442 0.12586001 0.60900003 7.7458006e-39
-0.14326 0.12586001 0.60900003 8.4815762e-39
-0.14233333 0.12606667 0.61000001 8.5737718e-39
-0.1416343 0.12648001 0.61200005 9.3117236e-39
-0.14069809 0.12668668 0.61300004 9.5883105e-39
-0.1397581 0.12689334 0.61400002 9.1298533e-39
-0.13858858 0.12689334 0.61400002 7.6547232e-39
-0.13741906 0.12689334 0.61400002 7.1912339e-39
-0.13669334 0.12730667 0.61600006 9.4961247e-39
-0.13662001 0.12834001 0.62100005 1.1614417e-38
-0.13565524 0.12854668 0.62200004 1.133783e-38
-0.13490286 0.12896 0.62400001 1.1612998e-38
-0.13435715 0.12958001 0.62700003 1.3733497e-38
-0.1327381 0.12916666 0.625 1.3732798e-38
-0.13154761 0.12916666 0.625 1.4193776e-38
-0.13077429 0.12958001 0.62700003 1.4563611e-38
-0.12999333 0.12999333 0.62900001 1.5024589e-38
-0.19894001 0.12702 0.60900003 9.5886608e-39
-0.19745526 0.12681143 0.60800004 8.297922e-39
-0.19629715 0.12681143 0.60800004 8.6652976e-39
-0.19449714 0.12639429 0.60600001 8.7574932e-39
-0.19270477 0.12597714 0.60400003 9.3106474e-39
-0.19123715 0.12576857 0.60300004 9.6794299e-39
-0.18977335 0.12556002 0.60200006 9.7716227e-39
-0.18862668 0.12556002 0.60200006 9.956014e-39
-0.18716858 0.12535143 0.60100001 1.0414478e-38
-0.1857143 0.12514286 0.60000002 1.0322283e-38
-0.18457143 0.12514286 0.60000002 1.0691401e-38
-0.18312286 0.1249343 0.59900004 1.0967988e-38
-0.18198191 0.1249343 0.59900004 1.1059827e-38
-0.18084095 0.1249343 0.59900004 1.1152022e-38
-0.17970002 0.1249343 0.59900004 1.1520819e-38
-0.17826097 0.12472572 0.59800005 1.1428623e-38
-0.17712191 0.12472572 0.59800005 1.1428623e-38
-0.17627716 0.1249343 0.59900004 1.1520819e-38
-0.17513619 0.1249343 0.59900004 1.1058415e-38
-0.17370477 0.12472572 0.59800005 1.0413046e-38
-0.17256573 0.12472572 0.59800005 1.0873304e-38
-0.17142668 0.12472572 0.59800005 1.09655e-38
-0.17000286 0.12451714 0.597 1.0595988e-38
-0.16886571 0.12451714 0.597 1.0319402e-38
-0.16772857 0.12451714 0.597 1.0411208e-38
-0.16659144 0.12451714 0.597 1.0226816e-38
-0.16545428 0.12451714 0.597 1.0411205e-38
-0.16431715 0.12451714 0.597 1.1609748e-38
-0.16318001 0.12451714 0.597 1.1519701e-38
-0.16204286 0.12451714 0.597 1.2072874e-38
-0.16117525 0.12472572 0.59800005 1.1704795e-38
-0.16003619 0.12472572 0.59800005 1.0782839e-38
-0.15889715 0.12472572 0.59800005 1.032118e-38
-0.1577581 0.12472572 0.59800005 9.8602016e-39
-0.15714286 0.12514286 0.60000002 9.3102424e-39
-0.156 0.12514286 0.60000002 9.402438e-39
-0.15511523 0.12535143 0.60100001 8.5734159e-39
-0.15397048 0.12535143 0.60100001 8.4812202e-39
-0.15308 0.12556002 0.60200006 8.3893749e-39
-0.15193334 0.12556002 0.60200006 8.3893749e-39
-0.15103714 0.12576857 0.60300004 8.1142075e-39
-0.14988858 0.12576857 0.60300004 8.2985988e-39
-0.14948 0.12639429 0.60600001 9.6805005e-39
-0.14832571 0.12639429 0.60600001 9.6805005e-39
-0.14717142 0.12639429 0.60600001 1.0325496e-38
-0.1462581 0.12660287 0.60700005 1.087867e-38
-0.14534096 0.12681143 0.60800004 1.1614804e-38
-0.14442 0.12702 0.60900003 1.2260173e-38
-0.14349523 0.12722857 0.61000001 1.2167262e-38
-0.14233333 0.12722857 0.61000001 1.2075066e-38
-0.1416343 0.12764573 0.61200005 1.2259457e-38
-0.14069809 0.12785429 0.61300004 1.3181413e-38
-0.1397581 0.12806286 0.61400002 1.2538168e-38
-0.13858858 0.12806286 0.61400002 1.1708408e-38
-0.13741906 0.12806286 0.61400002 1.1339299e-38
-0.13647142 0.12827143 0.61500001 8.6656255e-39
-0.13684 0.12973143 0.62200004 9.6776054e-39
-0.13587333 0.12994 0.62300003 1.1152735e-38
-0.13490286 0.13014857 0.62400001 1.290445e-38
-0.13435715 0.13077429 0.62700003 1.3642015e-38
-0.1327381 0.13035715 0.625 1.3640965e-38
-0.13154761 0.13035715 0.625 1.4101943e-38
-0.13140002 0.13140002 0.63000005 1.4563618e-38
-0.1302 0.13140002 0.63000005 1.49324e-38
-0.19894001 0.12818 0.60900003 9.9563839e-39
-0.19778 0.12818 0.60900003 9.4032102e-39
-0.19629715 0.12796953 0.60800004 1.0046415e-38
-0.19513905 0.12796953 0.60800004 1.0507393e-38
-0.19270477 0.12712763 0.60400003 1.0968002e-38
-0.19155429 0.12712763 0.60400003 1.0875807e-38
-0.19008859 0.12691715 0.60300004 1.0968002e-38
-0.18894 0.12691715 0.60300004 1.0875807e-38
-0.18748002 0.12670667 0.60200006 1.0692134e-38
-0.1860238 0.12649618 0.60100001 1.0599939e-38
-0.18457143 0.12628572 0.60000002 1.0600288e-38
-0.18342857 0.12628572 0.60000002 1.0692483e-38
-0.18228573 0.12628572 0.60000002 1.1060198e-38
-0.18084095 0.12607525 0.59900004 1.1152394e-38
-0.17970002 0.12607525 0.59900004 1.1797776e-38
-0.17855906 0.12607525 0.59900004 1.1244602e-38
-0.17741811 0.12607525 0.59900004 1.1428267e-38
-0.17657143 0.12628572 0.60000002 1.1428267e-38
-0.17513619 0.12607525 0.59900004 1.0504875e-38
-0.17370477 0.12586476 0.59800005 1.0504875e-38
-0.17256573 0.12586476 0.59800005 1.0778945e-38
-0.17142668 0.12586476 0.59800005 1.0225771e-38
-0.17028764 0.12586476 0.59800005 1.0316501e-38
-0.16914859 0.12586476 0.59800005 1.0777479e-38
-0.16800953 0.12586476 0.59800005 1.0777807e-38
-0.16687049 0.12586476 0.59800005 1.0777807e-38
-0.16573144 0.12586476 0.59800005 1.0595213e-38
-0.1645924 0.12586476 0.59800005 1.1793757e-38
-0.16345334 0.12586476 0.59800005 1.1427492e-38
-0.1623143 0.12586476 0.59800005 1.1980666e-38
-0.16144477 0.12607525 0.59900004 1.152077e-38
-0.16030382 0.12607525 0.59900004 1.0506618e-38
-0.15916288 0.12607525 0.59900004 1.0046e-38
-0.15802191 0.12607525 0.59900004 9.7694129e-39
-0.15714286 0.12628572 0.60000002 9.4942525e-39
-0.156 0.12628572 0.60000002 9.5864481e-39
-0.15511523 0.12649618 0.60100001 9.3088341e-39
-0.15397048 0.12649618 0.60100001 9.2166385e-39
-0.15308 0.12670667 0.60200006 9.2166385e-39
-0.15193334 0.12670667 0.60200006 9.3088341e-39
-0.15103714 0.12691715 0.60300004 9.4935883e-39
-0.14988858 0.12691715 0.60300004 1.0323349e-38
-0.14948 0.12754856 0.60600001 1.1152394e-38
-0.14832571 0.12754856 0.60600001 1.1889959e-38
-0.14717142 0.12754856 0.60600001 1.1706991e-38
-0.14601715 0.12754856 0.60600001 1.2167969e-38
-0.14534096 0.12796953 0.60800004 1.2259809e-38
-0.14442 0.12818 0.60900003 1.2259809e-38
-0.14349523 0.12839048 0.61000001 1.2351644e-38
-0.14256667 0.12860096 0.611 1.244384e-38
-0.14186573 0.12902191 0.61300004 1.2535331e-38
-0.14069809 0.12902191 0.61300004 1.3088505e-38
-0.1397581 0.12923238 0.61400002 1.3272546e-38
-0.13858858 0.12923238 0.61400002 1.2350589e-38
-0.13741906 0.12923238 0.61400002 1.1338968e-38
-0.13647142 0.12944287 0.61500001 6.7291866e-39
-0.13706 0.13112666 0.62300003 7.37303e-39
-0.13609143 0.13133715 0.62400001 1.1521833e-38
-0.13511905 0.13154761 0.625 1.3272533e-38
-0.13435715 0.13196857 0.62700003 1.3641315e-38
-0.13316287 0.13196857 0.62700003 1.3456924e-38
-0.13196857 0.13196857 0.62700003 1.437888e-38
-0.19778 0.12934001 0.60900003 1.0417037e-38
-0.19662 0.12934001 0.60900003 1.0968721e-38
-0.19513905 0.12912764 0.60800004 1.0968721e-38
-0.19334285 0.12870285 0.60600001 1.0876512e-38
-0.19155429 0.12827809 0.60400003 1.0876512e-38
-0.19040382 0.12827809 0.60400003 1.0876514e-38
-0.18894 0.12806572 0.60300004 1.0784319e-38
-0.18779144 0.12806572 0.60300004 1.07836e-38
-0.1860238 0.12764095 0.60100001 1.0875795e-38
-0.18487905 0.12764095 0.60100001 1.07836e-38
-0.18342857 0.12742858 0.60000002 1.0046035e-38
-0.18228573 0.12742858 0.60000002 1.0136092e-38
-0.18114287 0.12742858 0.60000002 1.0136092e-38
-0.17999999 0.12742858 0.60000002 9.3049091e-39
-0.17855906 0.12721621 0.59900004 9.1205178e-39
-0.17741811 0.12721621 0.59900004 8.9364502e-39
-0.17657143 0.12742858 0.60000002 8.6598634e-39
-0.17513619 0.12721621 0.59900004 9.02792e-39
-0.17399524 0.12721621 0.59900004 9.3045069e-39
-0.17285429 0.12721621 0.59900004 9.4885422e-39
-0.17142668 0.12700382 0.59800005 9.3963466e-39
-0.17028764 0.12700382 0.59800005 1.0041004e-38
-0.16914859 0.12700382 0.59800005 1.0409787e-38
-0.16800953 0.12700382 0.59800005 1.0684892e-38
-0.16687049 0.12700382 0.59800005 1.0777088e-38
-0.16600858 0.12721621 0.59900004 1.0503035e-38
-0.16486762 0.12721621 0.59900004 1.1609382e-38
-0.16372667 0.12721621 0.59900004 1.1242738e-38
-0.16258572 0.12721621 0.59900004 1.1795912e-38
-0.16144477 0.12721621 0.59900004 1.1428206e-38
-0.16030382 0.12721621 0.59900004 1.1059423e-38
-0.15916288 0.12721621 0.59900004 1.0506277e-38
-0.15802191 0.12721621 0.59900004 1.0414082e-38
-0.15714286 0.12742858 0.60000002 1.0692429e-38
-0.15626 0.12764095 0.60100001 1.1061211e-38
-0.15511523 0.12764095 0.60100001 1.1705204e-38
-0.15422668 0.12785335 0.60200006 1.17974e-38
-0.15308 0.12785335 0.60200006 1.1521189e-38
-0.15193334 0.12785335 0.60200006 1.170558e-38
-0.15103714 0.12806572 0.60300004 1.2073649e-38
-0.15013716 0.12827809 0.60400003 1.2165845e-38
-0.14948 0.12870285 0.60600001 1.2166546e-38
-0.14832571 0.12870285 0.60600001 1.2350937e-38
-0.14717142 0.12870285 0.60600001 1.2259449e-38
-0.14601715 0.12870285 0.60600001 1.2259449e-38
-0.14558001 0.12934001 0.60900003 1.2259449e-38
-0.14442 0.12934001 0.60900003 1.2259449e-38
-0.14349523 0.12955238 0.61000001 1.2350923e-38
-0.14256667 0.12976477 0.611 1.2719705e-38
-0.14186573 0.13018952 0.61300004 1.2535331e-38
-0.14092761 0.13040191 0.61400002 1.170557e-38
-0.1397581 0.13040191 0.61400002 8.4791491e-39
-0.13858858 0.13040191 0.61400002 7.0962147e-39
-0.13741906 0.13040191 0.61400002 5.3473213e-39
-0.13647142 0.1306143 0.61500001 2.9502349e-39
-0.13706 0.13231333 0.62300003 6.9109882e-39
-0.13609143 0.13252573 0.62400001 1.152077e-38
-0.13511905 0.1327381 0.625 1.3364726e-38
-0.13435715 0.13316287 0.62700003 1.3641313e-38
-0.13316287 0.13316287 0.62700003 1.3548754e-38
-0.13217905 0.13337524 0.62800002 1.4562906e-38
-0.19662 0.1305 0.60900003 1.1614093e-38
-0.19513905 0.13028571 0.60800004 1.1337507e-38
-0.19334285 0.12985715 0.60600001 1.0968358e-38
-0.19155429 0.12942858 0.60400003 1.0876163e-38
-0.19040382 0.12942858 0.60400003 1.1059475e-38
-0.18894 0.12921429 0.60300004 1.1151671e-38
-0.18779144 0.12921429 0.60300004 1.1337516e-38
-0.18633336 0.12900001 0.60200006 1.0599951e-38
-0.18518668 0.12900001 0.60200006 1.0874733e-38
-0.18373428 0.12878571 0.60100001 1.0137168e-38
-0.18258953 0.12878571 0.60100001 9.5821994e-39
-0.18114287 0.12857142 0.60000002 9.1212213e-39
-0.17999999 0.12857142 0.60000002 8.6580655e-39
-0.17855906 0.12835716 0.59900004 8.5658699e-39
-0.17741811 0.12835716 0.59900004 8.6562606e-39
-0.17657143 0.12857142 0.60000002 8.6562606e-39
-0.17542858 0.12857142 0.60000002 9.024683e-39
-0.17399524 0.12835716 0.59900004 9.4856612e-39
-0.17285429 0.12835716 0.59900004 9.6729265e-39
-0.17171334 0.12835716 0.59900004 9.5807308e-39
-0.17057239 0.12835716 0.59900004 9.8573121e-39
-0.16943145 0.12835716 0.59900004 1.0410486e-38
-0.1682905 0.12835716 0.59900004 1.0684555e-38
-0.16714953 0.12835716 0.59900004 1.0868946e-38
-0.16600858 0.12835716 0.59900004 1.0686722e-38
-0.16486762 0.12835716 0.59900004 1.1608679e-38
-0.16372667 0.12835716 0.59900004 1.1058016e-38
-0.16258572 0.12835716 0.59900004 1.1979972e-38
-0.16144477 0.12835716 0.59900004 1.170626e-38
-0.16057143 0.12857142 0.60000002 1.1153086e-38
-0.15942858 0.12857142 0.60000002 1.09662e-38
-0.15828572 0.12857142 0.60000002 1.1427178e-38
-0.15714286 0.12857142 0.60000002 1.2165092e-38
-0.15626 0.12878571 0.60100001 1.2165092e-38
-0.15511523 0.12878571 0.60100001 1.2073993e-38
-0.15422668 0.12900001 0.60200006 1.2073993e-38
-0.15308 0.12900001 0.60200006 1.1796687e-38
-0.15193334 0.12900001 0.60200006 1.2349861e-38
-0.15103714 0.12921429 0.60300004 1.2350226e-38
-0.15013716 0.12942858 0.60400003 1.2534618e-38
-0.14948 0.12985715 0.60600001 1.2351293e-38
-0.14832571 0.12985715 0.60600001 1.2259097e-38
-0.14717142 0.12985715 0.60600001 1.2259449e-38
-0.14601715 0.12985715 0.60600001 1.2259449e-38
-0.14558001 0.1305 0.60900003 1.2442769e-38
-0.14442 0.1305 0.60900003 1.2627161e-38
-0.14349523 0.13071428 0.61000001 1.2718653e-38
-0.14256667 0.13092858 0.611 1.2626457e-38
-0.14186573 0.13135715 0.61300004 1.2258391e-38
-0.14092761 0.13157144 0.61400002 9.7691088e-39
-0.1397581 0.13157144 0.61400002 6.0849116e-39
-0.13858858 0.13157144 0.61400002 3.0424558e-39
-0.13741906 0.13157144 0.61400002 4.2388059e-39
-0.13647142 0.13178571 0.61500001 4.5153928e-39
-0.13706 0.13349999 0.62300003 7.1850584e-39
-0.13609143 0.13371429 0.62400001 1.1979231e-38
-0.13511905 0.13392857 0.625 1.3456927e-38
-0.13435715 0.13435715 0.62700003 1.3641318e-38
-0.13316287 0.13435715 0.62700003 1.3272167e-38
-0.13217905 0.13457143 0.62800002 1.3917537e-38
-0.19662 0.13166001 0.60900003 1.1244595e-38
-0.19513905 0.13144381 0.60800004 1.1428986e-38
-0.19334285 0.13101143 0.60600001 1.1428618e-38
-0.19155429 0.13057905 0.60400003 1.0506661e-38
-0.19040382 0.13057905 0.60400003 1.0783248e-38
-0.18894 0.13036287 0.60300004 1.032227e-38
-0.18779144 0.13036287 0.60300004 9.2138121e-39
-0.18633336 0.13014667 0.60200006 7.6464863e-39
-0.18518668 0.13014667 0.60200006 7.5502788e-39
-0.18373428 0.12993048 0.60100001 6.6283225e-39
-0.18258953 0.12993048 0.60100001 7.2704941e-39
-0.18114287 0.1297143 0.60000002 8.8378199e-39
-0.17999999 0.1297143 0.60000002 8.5637217e-39
-0.17885715 0.1297143 0.60000002 8.6559173e-39
-0.17771429 0.1297143 0.60000002 8.8402791e-39
-0.17657143 0.1297143 0.60000002 8.8402791e-39
-0.17542858 0.1297143 0.60000002 8.9317741e-39
-0.17428571 0.1297143 0.60000002 9.3927523e-39
-0.17314287 0.1297143 0.60000002 9.5789386e-39
-0.17171334 0.12949809 0.59900004 9.7633298e-39
-0.17057239 0.12949809 0.59900004 1.031829e-38
-0.16943145 0.12949809 0.59900004 1.1148051e-38
-0.1682905 0.12949809 0.59900004 1.0963323e-38
-0.16742857 0.1297143 0.60000002 1.0963323e-38
-0.16628572 0.1297143 0.60000002 1.1148809e-38
-0.16514286 0.1297143 0.60000002 1.1794178e-38
-0.164 0.1297143 0.60000002 1.1520819e-38
-0.16285715 0.1297143 0.60000002 1.1889601e-38
-0.16171429 0.1297143 0.60000002 1.1890312e-38
-0.16057143 0.1297143 0.60000002 1.1982507e-38
-0.15942858 0.1297143 0.60000002 1.1981103e-38
-0.15828572 0.1297143 0.60000002 1.1888908e-38
-0.15714286 0.1297143 0.60000002 1.2073993e-38
-0.15626 0.12993048 0.60100001 1.1981797e-38
-0.15511523 0.12993048 0.60100001 1.2166538e-38
-0.15422668 0.13014667 0.60200006 1.2258734e-38
-0.15308 0.13014667 0.60200006 1.2166538e-38
-0.15193334 0.13014667 0.60200006 1.2166538e-38
-0.15103714 0.13036287 0.60300004 1.2258384e-38
-0.15013716 0.13057905 0.60400003 1.2534971e-38
-0.14948 0.13101143 0.60600001 1.2350926e-38
-0.14832571 0.13101143 0.60600001 1.2443121e-38
-0.14717142 0.13101143 0.60600001 1.2351644e-38
-0.14601715 0.13101143 0.60600001 1.2351644e-38
-0.14558001 0.13166001 0.60900003 1.2350942e-38
-0.14465714 0.13187619 0.61000001 1.1428986e-38
-0.14349523 0.13187619 0.61000001 9.4904242e-39
-0.14280002 0.13230859 0.61200005 9.029446e-39
-0.14186573 0.13252476 0.61300004 6.7270188e-39
-0.14092761 0.13274096 0.61400002 5.0674974e-39
-0.1397581 0.13274096 0.61400002 4.3328415e-39
-0.13858858 0.13274096 0.61400002 2.0279507e-39
-0.13741906 0.13274096 0.61400002 4.4253902e-39
-0.13647142 0.13295713 0.61500001 7.1912591e-39
-0.13728 0.13490286 0.62400001 7.5556542e-39
-0.13609143 0.13490286 0.62400001 1.1888849e-38
-0.13490286 0.13490286 0.62400001 1.3732421e-38
-0.13392857 0.13511905 0.625 1.3732421e-38
-0.13316287 0.13555144 0.62700003 1.336401e-38
-0.19662 0.13282001 0.60900003 1.115275e-38
-0.19513905 0.13260192 0.60800004 1.1521532e-38
-0.19334285 0.13216572 0.60600001 1.1613014e-38
-0.19218858 0.13216572 0.60600001 1.0691058e-38
-0.19040382 0.13172953 0.60400003 1.0783611e-38
-0.18925333 0.13172953 0.60400003 8.8475028e-39
-0.18779144 0.13151143 0.60300004 8.8446344e-39
-0.18664287 0.13151143 0.60300004 6.3553524e-39
-0.18518668 0.13129334 0.60200006 7.4534042e-39
-0.18404001 0.13129334 0.60200006 7.8221868e-39
-0.18289335 0.13129334 0.60200006 7.7300051e-39
-0.18144476 0.13107523 0.60100001 9.1129396e-39
-0.1803 0.13107523 0.60100001 8.471875e-39
-0.17885715 0.13085715 0.60000002 8.7484619e-39
-0.17771429 0.13085715 0.60000002 9.8512039e-39
-0.17657143 0.13085715 0.60000002 9.4824214e-39
-0.17572096 0.13107523 0.60100001 9.2058148e-39
-0.17428571 0.13085715 0.60000002 1.0312162e-38
-0.17314287 0.13085715 0.60000002 9.579642e-39
-0.17200001 0.13085715 0.60000002 1.0132816e-38
-0.17085715 0.13085715 0.60000002 1.1422144e-38
-0.1697143 0.13085715 0.60000002 1.1422144e-38
-0.16857143 0.13085715 0.60000002 1.0872193e-38
-0.16742857 0.13085715 0.60000002 1.1609758e-38
-0.16628572 0.13085715 0.60000002 1.1981078e-38
-0.16514286 0.13085715 0.60000002 1.1796687e-38
-0.164 0.13085715 0.60000002 1.1982154e-38
-0.16285715 0.13085715 0.60000002 1.1797763e-38
-0.16171429 0.13085715 0.60000002 1.1706283e-38
-0.16057143 0.13085715 0.60000002 1.1798479e-38
-0.15942858 0.13085715 0.60000002 1.1797415e-38
-0.15828572 0.13085715 0.60000002 1.1797415e-38
-0.15714286 0.13085715 0.60000002 1.1981797e-38
-0.15626 0.13107523 0.60100001 1.1981797e-38
-0.15511523 0.13107523 0.60100001 1.207399e-38
-0.15422668 0.13129334 0.60200006 1.2258381e-38
-0.15333429 0.13151143 0.60300004 1.2166548e-38
-0.15218572 0.13151143 0.60300004 1.1982157e-38
-0.15128762 0.13172953 0.60400003 1.1981797e-38
-0.15013716 0.13172953 0.60400003 1.2534971e-38
-0.14948 0.13216572 0.60600001 1.2442782e-38
-0.14832571 0.13216572 0.60600001 1.2442782e-38
-0.14717142 0.13216572 0.60600001 1.2443138e-38
-0.14649905 0.13260192 0.60800004 1.2535334e-38
-0.14558001 0.13282001 0.60900003 1.2258769e-38
-0.14465714 0.1330381 0.61000001 9.8616828e-39
-0.14349523 0.1330381 0.61000001 7.8347956e-39
-0.14280002 0.13347429 0.61200005 7.1894262e-39
-0.14186573 0.1336924 0.61300004 5.1639726e-39
-0.14092761 0.13391048 0.61400002 5.809342e-39
-0.1397581 0.13391048 0.61400002 5.9004951e-39
-0.13858858 0.13391048 0.61400002 4.2409738e-39
-0.13741906 0.13391048 0.61400002 6.3596319e-39
-0.13669334 0.13434668 0.61600006 6.3596319e-39
-0.13728 0.13609143 0.62400001 6.8159157e-39
-0.13609143 0.13609143 0.62400001 1.2255458e-38
-0.13490286 0.13609143 0.62400001 1.2718643e-38
-0.13392857 0.13630952 0.625 1.3456208e-38
-0.13316287 0.13674572 0.62700003 1.3548051e-38
-0.19546001 0.13398001 0.60900003 1.1337141e-38
-0.19366191 0.13354 0.60700005 1.1612658e-38
-0.19218858 0.13332 0.60600001 1.0690702e-38
-0.19040382 0.13288 0.60400003 9.8591394e-39
-0.18925333 0.13288 0.60400003 5.2493579e-39
-0.18779144 0.13266002 0.60300004 6.6243526e-39
-0.18664287 0.13266002 0.60300004 6.9931295e-39
-0.18549429 0.13266002 0.60300004 7.6367529e-39
-0.18404001 0.13244002 0.60200006 7.8211442e-39
-0.18289335 0.13244002 0.60200006 7.9140755e-39
-0.18174668 0.13244002 0.60200006 9.3892056e-39
-0.1803 0.13222 0.60100001 9.855873e-39
-0.17885715 0.132 0.60000002 1.0224656e-38
-0.17771429 0.132 0.60000002 1.0963665e-38
-0.17686571 0.13222 0.60100001 1.087147e-38
-0.17572096 0.13222 0.60100001 1.1610464e-38
-0.17457619 0.13222 0.60100001 1.2071442e-38
-0.17343143 0.13222 0.60100001 1.1887078e-38
-0.17228666 0.13222 0.60100001 1.1979273e-38
-0.17114191 0.13222 0.60100001 1.216404e-38
-0.1697143 0.132 0.60000002 1.216404e-38
-0.16857143 0.132 0.60000002 1.1888505e-38
-0.16742857 0.132 0.60000002 1.1980701e-38
-0.16628572 0.132 0.60000002 1.170556e-38
-0.16514286 0.132 0.60000002 1.170556e-38
-0.16427334 0.13222 0.60100001 1.1890677e-38
-0.16285715 0.132 0.60000002 1.1798482e-38
-0.16171429 0.132 0.60000002 1.1706283e-38
-0.16057143 0.132 0.60000002 1.1706283e-38
-0.15942858 0.132 0.60000002 1.1706289e-38
-0.15828572 0.132 0.60000002 1.1706289e-38
-0.15740477 0.13222 0.60100001 1.1798119e-38
-0.15626 0.13222 0.60100001 1.1521532e-38
-0.15537335 0.13244002 0.60200006 1.2074343e-38
-0.15448287 0.13266002 0.60300004 1.2166538e-38
-0.15358858 0.13288 0.60400003 1.2258741e-38
-0.1524381 0.13288 0.60400003 1.207435e-38
-0.15128762 0.13288 0.60400003 1.1982157e-38
-0.15063429 0.13332 0.60600001 1.1889961e-38
-0.14972667 0.13354 0.60700005 1.133644e-38
-0.14857048 0.13354 0.60700005 9.4003319e-39
-0.1474143 0.13354 0.60700005 9.4925219e-39
-0.14674 0.13398001 0.60900003 9.8613044e-39
-0.14558001 0.13398001 0.60900003 9.6776292e-39
-0.14465714 0.13420001 0.61000001 4.4224783e-39
-0.14349523 0.13420001 0.61000001 4.5150131e-39
-0.14280002 0.13464001 0.61200005 7.0042951e-39
-0.14186573 0.13486001 0.61300004 7.2801561e-39
-0.14092761 0.13507999 0.61400002 8.3865037e-39
-0.1397581 0.13507999 0.61400002 7.2833959e-39
