# .PCD v0.7 - Point Cloud Data file format
VERSION 0.7
FIELDS x y z rgb
SIZE 4 4 4 4
TYPE F F F F
COUNT 1 1 1 1
WIDTH 1012
HEIGHT 1
VIEWPOINT 0 0 0 1 0 0 0
POINTS 1012
DATA ascii
-0.059799999 0.1586 0.546 4.0504476e-39
-0.058867622 0.1588905 0.54700005 1.0596328e-38
-0.057825722 0.1588905 0.54700005 9.4025375e-39
-0.056991432 0.15947144 0.54900002 4.1473866e-39
-0.05645524 0.16092381 0.55400002 5.8933078e-39
-0.055400003 0.16092381 0.55400002 8.6591767e-39
-0.054442856 0.16121429 0.55500001 8.2006733e-39
-0.05348191 0.16150478 0.55600005 7.7396951e-39
-0.052517146 0.16179524 0.55700004 6.8202668e-39
-0.051456194 0.16179524 0.55700004 8.6641794e-39
-0.050485715 0.16208571 0.55800003 9.7687459e-39
-0.049422856 0.16208571 0.55800003 1.1981441e-38
-0.048533332 0.16266666 0.56 1.1798835e-38
-0.047466666 0.16266666 0.56 1.2720791e-38
-0.047062855 0.16499048 0.56800002 1.308813e-38
-0.045980953 0.16499048 0.56800002 1.3825695e-38
-0.045215238 0.16615239 0.57200003 1.5667447e-38
-0.04420286 0.16644286 0.57300001 1.8709903e-38
-0.043111429 0.16644286 0.57300001 1.908086e-38
-0.11914287 0.16256383 0.55600005 1.6315349e-38
-0.11787143 0.16227144 0.55500001 1.4749108e-38
-0.11660381 0.16197905 0.55400002 1.2720804e-38
-0.11554857 0.16197905 0.55400002 1.2812637e-38
-0.11449333 0.16197905 0.55400002 1.2904832e-38
-0.11241429 0.16051716 0.54900002 1.2351665e-38
-0.11096287 0.15993239 0.54700005 1.225947e-38
-0.10972 0.15964 0.546 1.2260179e-38
-0.10867999 0.15964 0.546 1.1153831e-38
-0.10744286 0.15934762 0.54500002 1.189104e-38
-0.1060143 0.15876287 0.54300004 1.189104e-38
-0.10478667 0.15847048 0.54200006 1.1982154e-38
-0.10356286 0.15817811 0.54100001 1.1889959e-38
-0.10234286 0.15788573 0.54000002 1.1889952e-38
-0.10131429 0.15788573 0.54000002 1.2166538e-38
-0.1001 0.15759334 0.53900003 1.2165467e-38
-0.09888953 0.15730096 0.53800005 1.041375e-38
-0.097864769 0.15730096 0.53800005 9.1197989e-39
-0.096840009 0.15730096 0.53800005 7.0914951e-39
-0.095815249 0.15730096 0.53800005 8.1009288e-39
-0.094790481 0.15730096 0.53800005 7.824342e-39
-0.093765721 0.15730096 0.53800005 8.7423844e-39
-0.09274096 0.15730096 0.53800005 8.5579932e-39
-0.0917162 0.15730096 0.53800005 8.377555e-39
-0.090691432 0.15730096 0.53800005 1.0498054e-38
-0.089666672 0.15730096 0.53800005 1.0317207e-38
-0.088641912 0.15730096 0.53800005 1.068599e-38
-0.087617151 0.15730096 0.53800005 1.0409789e-38
-0.086431429 0.15700856 0.537 1.0778572e-38
-0.085408568 0.15700856 0.537 1.0503403e-38
-0.084385715 0.15700856 0.537 1.0687794e-38
-0.083362855 0.15700856 0.537 1.0504862e-38
-0.082340002 0.15700856 0.537 1.0689253e-38
-0.081317142 0.15700856 0.537 1.1520799e-38
-0.080294281 0.15700856 0.537 1.1612995e-38
-0.079419054 0.15730096 0.53800005 1.2072897e-38
-0.078394294 0.15730096 0.53800005 1.2165092e-38
-0.077369526 0.15730096 0.53800005 1.1980725e-38
-0.076344773 0.15730096 0.53800005 1.1796334e-38
-0.075180002 0.15700856 0.537 1.1613009e-38
-0.074157141 0.15700856 0.537 1.1705204e-38
-0.073270477 0.15730096 0.53800005 1.170557e-38
-0.072111428 0.15700856 0.537 1.1797766e-38
-0.070956193 0.1567162 0.53600001 1.1613737e-38
-0.06993524 0.1567162 0.53600001 1.0599586e-38
-0.068914287 0.1567162 0.53600001 1.0506692e-38
-0.067893334 0.1567162 0.53600001 1.013791e-38
-0.067496195 0.15817811 0.54100001 9.9535183e-39
-0.065435238 0.15817811 0.54100001 6.4532373e-39
-0.064404763 0.15817811 0.54100001 2.6732739e-39
-0.063725717 0.15905525 0.54400003 3.5016361e-39
-0.062920004 0.15964 0.546 8.4802001e-39
-0.06188 0.15964 0.546 7.5603948e-39
-0.060839999 0.15964 0.546 1.4754832e-39
-0.059799999 0.15964 0.546 4.6969423e-39
-0.058760002 0.15964 0.546 1.1888201e-38
-0.057825722 0.15993239 0.54700005 1.041375e-38
-0.057510477 0.16197905 0.55400002 4.2366423e-39
-0.05645524 0.16197905 0.55400002 4.6979988e-39
-0.055400003 0.16197905 0.55400002 7.4638677e-39
-0.054540958 0.16256383 0.55600005 7.4641914e-39
-0.05348191 0.16256383 0.55600005 7.1876045e-39
-0.052517146 0.16285619 0.55700004 8.2028355e-39
-0.051456194 0.16285619 0.55700004 1.0784313e-38
-0.050485715 0.16314858 0.55800003 1.0875822e-38
-0.049422856 0.16314858 0.55800003 1.0783626e-38
-0.048533332 0.16373333 0.56 1.0692134e-38
-0.047466666 0.16373333 0.56 1.2720438e-38
-0.047062855 0.16607238 0.56800002 1.3179972e-38
-0.045980953 0.16607238 0.56800002 1.3733145e-38
-0.045136191 0.16694954 0.57100004 1.5207185e-38
-0.04420286 0.16753429 0.57300001 1.8526228e-38
-0.043111429 0.16753429 0.57300001 1.8989025e-38
-0.042020001 0.16753429 0.57300001 1.9265612e-38
-0.11914287 0.16362287 0.55600005 1.6776327e-38
-0.11787143 0.16332856 0.55500001 1.5210086e-38
-0.11660381 0.16303429 0.55400002 1.2905195e-38
-0.11554857 0.16303429 0.55400002 1.3181063e-38
-0.11449333 0.16303429 0.55400002 1.3181063e-38
-0.11282381 0.16215143 0.551 1.2075788e-38
-0.11116572 0.16126859 0.54800004 1.2536766e-38
-0.10972 0.16068 0.546 1.2904832e-38
-0.10867999 0.16068 0.546 1.189068e-38
-0.10744286 0.16038571 0.54500002 1.1982876e-38
-0.1060143 0.15979716 0.54300004 1.2075072e-38
-0.10478667 0.15950286 0.54200006 1.198216e-38
-0.10356286 0.15920858 0.54100001 1.1705573e-38
-0.10234286 0.15891428 0.54000002 1.1612296e-38
-0.10131429 0.15891428 0.54000002 1.2073274e-38
-0.1001 0.15862001 0.53900003 1.2073639e-38
-0.099073343 0.15862001 0.53900003 9.0311836e-39
-0.098046668 0.15862001 0.53900003 9.3938257e-39
-0.097020008 0.15862001 0.53900003 7.6421087e-39
-0.09599334 0.15862001 0.53900003 8.5586602e-39
-0.094966672 0.15862001 0.53900003 8.8352471e-39
-0.093940005 0.15862001 0.53900003 8.7427081e-39
-0.09274096 0.15832573 0.53800005 9.4802732e-39
-0.0917162 0.15832573 0.53800005 8.6573943e-39
-0.090691432 0.15832573 0.53800005 9.8559375e-39
-0.089666672 0.15832573 0.53800005 9.9516812e-39
-0.088641912 0.15832573 0.53800005 8.9375292e-39
-0.087617151 0.15832573 0.53800005 8.1985223e-39
-0.086592384 0.15832573 0.53800005 7.8297398e-39
-0.085567623 0.15832573 0.53800005 7.6471085e-39
-0.084542863 0.15832573 0.53800005 7.278326e-39
-0.083518103 0.15832573 0.53800005 6.6343971e-39
-0.082493335 0.15832573 0.53800005 9.6768445e-39
-0.081468575 0.15832573 0.53800005 1.0690705e-38
-0.080443822 0.15832573 0.53800005 1.1520466e-38
-0.079419054 0.15832573 0.53800005 1.1520103e-38
-0.078394294 0.15832573 0.53800005 1.1704494e-38
-0.077369526 0.15832573 0.53800005 1.1797415e-38
-0.076344773 0.15832573 0.53800005 1.1613024e-38
-0.075320005 0.15832573 0.53800005 1.1704501e-38
-0.074295245 0.15832573 0.53800005 1.152011e-38
-0.073270477 0.15832573 0.53800005 1.1336428e-38
-0.072111428 0.15803142 0.537 1.1059841e-38
-0.070956193 0.15773715 0.53600001 1.0414496e-38
-0.06993524 0.15773715 0.53600001 9.4925401e-39
-0.068914287 0.15773715 0.53600001 8.4809063e-39
-0.065556198 0.15950286 0.54200006 4.1494578e-39
-0.064523816 0.15950286 0.54200006 3.9650693e-39
-0.063725717 0.16009143 0.54400003 6.6315861e-39
-0.062920004 0.16068 0.546 1.013502e-38
-0.06188 0.16068 0.546 8.9397041e-39
-0.06095143 0.16097429 0.54700005 2.8547925e-39
-0.059799999 0.16068 0.546 4.9745885e-39
-0.058760002 0.16068 0.546 1.1520478e-38
-0.05877715 0.16362287 0.55600005 1.0414494e-38
-0.057614285 0.16332856 0.55500001 3.4076258e-39
-0.056557145 0.16332856 0.55500001 3.5012283e-39
-0.055500001 0.16332856 0.55500001 5.8061148e-39
-0.054540958 0.16362287 0.55600005 5.5305775e-39
-0.053578097 0.16391715 0.55700004 8.1120524e-39
-0.052611433 0.16421144 0.55800003 9.8613198e-39
-0.051548574 0.16421144 0.55800003 1.0967667e-38
-0.050576191 0.16450572 0.55900002 1.2075069e-38
-0.049688574 0.1650943 0.56100005 1.0138961e-38
-0.048966669 0.16627143 0.565 9.7723248e-39
-0.047890477 0.16627143 0.565 1.2445998e-38
-0.047145717 0.16744857 0.56900001 1.382497e-38
-0.046142861 0.16774288 0.57000005 1.3917165e-38
-0.045136191 0.16803715 0.57100004 1.4930964e-38
-0.04428 0.16892 0.574 1.8434398e-38
-0.043261908 0.16921431 0.57500005 1.8989025e-38
-0.042166673 0.16921431 0.57500005 1.9173416e-38
-0.11914287 0.16468191 0.55600005 1.6777046e-38
-0.11787143 0.16438571 0.55500001 1.5210086e-38
-0.11660381 0.16408953 0.55400002 1.2813e-38
-0.11554857 0.16408953 0.55400002 1.2997035e-38
-0.11449333 0.16408953 0.55400002 1.3273622e-38
-0.11302858 0.16349715 0.55200005 1.2996672e-38
-0.11157143 0.16290477 0.55000001 1.2996672e-38
-0.11012191 0.16231239 0.54800004 1.2904464e-38
-0.10867999 0.16171999 0.546 1.1982507e-38
-0.10744286 0.16142382 0.54500002 1.207435e-38
-0.1060143 0.16083144 0.54300004 1.2166546e-38
-0.10498001 0.16083144 0.54300004 1.2350226e-38
-0.10375429 0.16053525 0.54200006 1.1889248e-38
-0.10253239 0.16023906 0.54100001 1.1796336e-38
-0.10131429 0.15994285 0.54000002 1.1888532e-38
-0.10028572 0.15994285 0.54000002 1.2164393e-38
-0.099257141 0.15994285 0.54000002 9.1219373e-39
-0.098046668 0.15964667 0.53900003 8.3782584e-39
-0.097020008 0.15964667 0.53900003 7.9172803e-39
-0.09599334 0.15964667 0.53900003 8.5600895e-39
-0.094966672 0.15964667 0.53900003 9.8508283e-39
-0.093940005 0.15964667 0.53900003 1.0593788e-38
-0.092913337 0.15964667 0.53900003 1.1792332e-38
-0.091886669 0.15964667 0.53900003 1.1056992e-38
-0.090860009 0.15964667 0.53900003 9.766253e-39
-0.089833334 0.15964667 0.53900003 7.4634922e-39
-0.088806674 0.15964667 0.53900003 3.4068845e-39
-0.087780006 0.15964667 0.53900003 3.5916289e-39
-0.086753339 0.15964667 0.53900003 4.1447998e-39
-0.085726671 0.15964667 0.53900003 6.8173507e-39
-0.084700003 0.15964667 0.53900003 6.6329622e-39
-0.083673336 0.15964667 0.53900003 6.7251746e-39
-0.082646675 0.15964667 0.53900003 9.3988479e-39
-0.08162 0.15964667 0.53900003 1.0321922e-38
-0.08059334 0.15964667 0.53900003 1.0321922e-38
-0.079566672 0.15964667 0.53900003 9.7676893e-39
-0.078540005 0.15964667 0.53900003 9.4911024e-39
-0.077369526 0.15935048 0.53800005 9.9531371e-39
-0.076344773 0.15935048 0.53800005 1.0598507e-38
-0.075320005 0.15935048 0.53800005 1.0690705e-38
-0.074295245 0.15935048 0.53800005 9.676553e-39
-0.073270477 0.15935048 0.53800005 5.8954911e-39
-0.072245724 0.15935048 0.53800005 5.5267085e-39
-0.069171436 0.15935048 0.53800005 2.859456e-39
-0.066957146 0.16142382 0.54500002 6.6387019e-39
-0.065919049 0.16142382 0.54500002 4.7015469e-39
-0.064880952 0.16142382 0.54500002 7.5596072e-39
-0.063959993 0.16171999 0.546 9.4925149e-39
-0.062920004 0.16171999 0.546 1.1244232e-38
-0.061993334 0.16201621 0.54700005 8.7560121e-39
-0.06095143 0.16201621 0.54700005 2.3023446e-39
-0.05990953 0.16201621 0.54700005 5.0689772e-39
-0.058867622 0.16201621 0.54700005 1.1246084e-38
-0.058565717 0.16408953 0.55400002 9.6794271e-39
-0.057510477 0.16408953 0.55400002 2.1193911e-39
-0.056557145 0.16438571 0.55500001 2.9502251e-39
-0.055600002 0.16468191 0.55600005 5.9926809e-39
-0.054639053 0.16497812 0.55700004 8.7559896e-39
-0.053578097 0.16497812 0.55700004 1.2075032e-38
-0.052611433 0.16527429 0.55800003 1.1890327e-38
-0.05164095 0.16557047 0.55900002 1.0415197e-38
-0.050666668 0.16586667 0.56 7.8358901e-39
-0.049865715 0.16675524 0.56300002 7.098325e-39
-0.04888 0.16705143 0.56400001 8.8496636e-39
-0.047805712 0.16705143 0.56400001 1.2629684e-38
-0.047145717 0.16853237 0.56900001 1.3365418e-38
-0.046061907 0.16853237 0.56900001 1.3642005e-38
-0.045452382 0.17030953 0.57500005 1.4654751e-38
-0.044357147 0.17030953 0.57500005 1.8250381e-38
-0.043261908 0.17030953 0.57500005 1.8989011e-38
-0.042166673 0.17030953 0.57500005 1.9449989e-38
-0.11787143 0.16544285 0.55500001 1.5026058e-38
-0.11681429 0.16544285 0.55500001 1.2813362e-38
-0.11575714 0.16544285 0.55500001 1.2811918e-38
-0.11449333 0.16514477 0.55400002 1.2996309e-38
-0.11343809 0.16514477 0.55400002 1.2812646e-38
-0.11197715 0.16454859 0.55200005 1.2628255e-38
-0.11072476 0.16425048 0.551 1.225946e-38
-0.10927714 0.16365428 0.54900002 1.1982873e-38
-0.10783716 0.1630581 0.54700005 1.2166546e-38
-0.10640477 0.16246191 0.54500002 1.2166546e-38
-0.10517334 0.16216381 0.54400003 1.2350579e-38
-0.10394572 0.16186573 0.54300004 1.2073993e-38
-0.10253239 0.16126953 0.54100001 1.216439e-38
-0.10131429 0.16097143 0.54000002 1.216439e-38
-0.10028572 0.16097143 0.54000002 1.2072195e-38
-0.099257141 0.16097143 0.54000002 9.3063258e-39
-0.098228574 0.16097143 0.54000002 8.3785877e-39
-0.097200006 0.16097143 0.54000002 8.1941965e-39
-0.096171431 0.16097143 0.54000002 8.5600895e-39
-0.095142856 0.16097143 0.54000002 1.151035e-38
-0.094114289 0.16097143 0.54000002 1.0320115e-38
-0.093085721 0.16097143 0.54000002 1.1795245e-38
-0.091886669 0.16067335 0.53900003 1.133681e-38
-0.090860009 0.16067335 0.53900003 7.8333761e-39
-0.089833334 0.16067335 0.53900003 7.0028335e-39
-0.088806674 0.16067335 0.53900003 2.5774923e-39
-0.087780006 0.16067335 0.53900003 1.9324929e-39
-0.086753339 0.16067335 0.53900003 6.63447e-39
-0.085726671 0.16067335 0.53900003 7.0993522e-39
-0.084700003 0.16067335 0.53900003 7.2837434e-39
-0.083673336 0.16067335 0.53900003 8.01954e-39
-0.082646675 0.16067335 0.53900003 8.5727138e-39
-0.08162 0.16067335 0.53900003 1.0597058e-38
-0.08059334 0.16067335 0.53900003 9.3985144e-39
-0.079566672 0.16067335 0.53900003 8.017745e-39
-0.078540005 0.16067335 0.53900003 6.6348105e-39
-0.077513337 0.16067335 0.53900003 6.9106379e-39
-0.076486669 0.16067335 0.53900003 7.7403986e-39
-0.075460002 0.16067335 0.53900003 9.3999662e-39
-0.074433342 0.16067335 0.53900003 8.938988e-39
-0.073406667 0.16067335 0.53900003 3.783192e-39
-0.072380006 0.16067335 0.53900003 3.414415e-39
-0.071353339 0.16067335 0.53900003 2.4914526e-39
-0.066957146 0.16246191 0.54500002 5.9926543e-39
-0.065919049 0.16246191 0.54500002 3.2289504e-39
-0.064880952 0.16246191 0.54500002 7.3777439e-39
-0.063959993 0.16275999 0.546 9.7680452e-39
-0.062920004 0.16275999 0.546 1.0136828e-38
-0.061993334 0.1630581 0.54700005 9.031534e-39
-0.06095143 0.1630581 0.54700005 4.5139481e-39
-0.05990953 0.1630581 0.54700005 5.8047346e-39
-0.059082858 0.16365428 0.54900002 1.0875494e-38
-0.058565717 0.16514477 0.55400002 9.0362157e-39
-0.057510477 0.16514477 0.55400002 3.0434998e-39
-0.056557145 0.16544285 0.55500001 3.9621994e-39
-0.055600002 0.16574097 0.55600005 7.1890367e-39
-0.054639053 0.16603906 0.55700004 1.1056601e-38
-0.053674288 0.16633715 0.55800003 1.2716122e-38
-0.052611433 0.16633715 0.55800003 1.1431514e-38
-0.051825717 0.16723144 0.56100005 8.3890582e-39
-0.05084762 0.16752952 0.56200004 7.1922386e-39
-0.049865715 0.16782762 0.56300002 7.2844343e-39
-0.04888 0.1681257 0.56400001 9.3091858e-39
-0.047805712 0.1681257 0.56400001 1.2997011e-38
-0.046814285 0.1684238 0.565 1.290409e-38
-0.046061907 0.16961619 0.56900001 1.3641655e-38
-0.045452382 0.17140478 0.57500005 1.4378527e-38
-0.044434287 0.17170286 0.57600003 1.7974157e-38
-0.043337144 0.17170286 0.57600003 1.8528044e-38
-0.11787143 0.1665 0.55500001 1.5394843e-38
-0.11681429 0.1665 0.55500001 1.2997757e-38
-0.11575714 0.1665 0.55500001 1.2719735e-38
-0.11449333 0.16620001 0.55400002 1.2627539e-38
-0.11343809 0.16620001 0.55400002 1.2535343e-38
-0.11197715 0.16560002 0.55200005 1.2350952e-38
-0.11072476 0.1653 0.551 1.216763e-38
-0.10927714 0.16470002 0.54900002 1.1983239e-38
-0.10803429 0.16440001 0.54800004 1.1798845e-38
-0.10640477 0.1635 0.54500002 1.1798845e-38
-0.10517334 0.16320002 0.54400003 1.1889601e-38
-0.10413715 0.16320002 0.54400003 1.1981797e-38
-0.10272191 0.16260001 0.54200006 1.1796687e-38
-0.1015019 0.16230001 0.54100001 1.1888882e-38
-0.10028572 0.162 0.54000002 1.1889236e-38
-0.099257141 0.162 0.54000002 9.3077579e-39
-0.098228574 0.162 0.54000002 8.1020471e-39
-0.097200006 0.162 0.54000002 7.7332646e-39
-0.096171431 0.162 0.54000002 8.1027505e-39
-0.095142856 0.162 0.54000002 1.2620336e-38
-0.094114289 0.162 0.54000002 1.1704844e-38
-0.093085721 0.162 0.54000002 1.2073627e-38
-0.091886669 0.1617 0.53900003 1.1429336e-38
-0.090860009 0.1617 0.53900003 7.4649243e-39
-0.089833334 0.1617 0.53900003 3.132506e-39
-0.088806674 0.1617 0.53900003 1.3807891e-39
-0.087780006 0.1617 0.53900003 4.1444972e-39
-0.086753339 0.1617 0.53900003 1.1427952e-38
-0.085726671 0.1617 0.53900003 1.1520829e-38
-0.084700003 0.1617 0.53900003 1.1520829e-38
-0.083673336 0.1617 0.53900003 1.115418e-38
-0.082800001 0.162 0.54000002 7.8351376e-39
-0.08162 0.1617 0.53900003 4.7916e-39
-0.08059334 0.1617 0.53900003 4.8837956e-39
-0.079566672 0.1617 0.53900003 5.7139094e-39
-0.078540005 0.1617 0.53900003 5.6217138e-39
-0.077513337 0.1617 0.53900003 4.9781296e-39
-0.076486669 0.1617 0.53900003 3.2264393e-39
-0.075460002 0.1617 0.53900003 6.3617675e-39
-0.074433342 0.1617 0.53900003 6.73055e-39
-0.073406667 0.1617 0.53900003 4.6100702e-39
-0.072380006 0.1617 0.53900003 4.9788471e-39
-0.071353339 0.1617 0.53900003 7.7440209e-39
-0.065919049 0.1635 0.54500002 4.3313351e-39
-0.064880952 0.1635 0.54500002 8.7567155e-39
-0.063959993 0.1638 0.546 9.584733e-39
-0.062920004 0.1638 0.546 9.4925373e-39
-0.061993334 0.16410002 0.54700005 7.8362376e-39
-0.06095143 0.16410002 0.54700005 3.2264561e-39
-0.05990953 0.16410002 0.54700005 6.2678707e-39
-0.058867622 0.16410002 0.54700005 1.133863e-38
-0.058565717 0.16620001 0.55400002 1.0970868e-38
-0.057510477 0.16620001 0.55400002 9.7723248e-39
-0.056557145 0.1665 0.55500001 1.0233674e-38
-0.055600002 0.16680001 0.55600005 1.1063435e-38
-0.054639053 0.16710001 0.55700004 1.0875822e-38
-0.053674288 0.1674 0.55800003 9.400692e-39
-0.0528 0.168 0.56 7.7443979e-39
-0.05201048 0.1689 0.56300002 7.0068328e-39
-0.050938096 0.1689 0.56300002 6.9160049e-39
-0.049954284 0.1692 0.56400001 7.4691787e-39
-0.048966669 0.16950001 0.565 9.218449e-39
-0.047890477 0.16950001 0.565 1.2721883e-38
-0.046814285 0.16950001 0.565 1.3365431e-38
-0.045819052 0.16980001 0.56600004 1.3826409e-38
-0.044740956 0.16980001 0.56600004 1.4194855e-38
-0.1182962 0.16816096 0.55700004 1.557995e-38
-0.11702477 0.16785906 0.55600005 1.3182864e-38
-0.11596572 0.16785906 0.55600005 1.3181063e-38
-0.11449333 0.16725525 0.55400002 1.2904476e-38
-0.11343809 0.16725525 0.55400002 1.2535341e-38
-0.11218001 0.16695334 0.55300003 1.2350949e-38
-0.11092572 0.16665143 0.55200005 1.216763e-38
-0.10947619 0.16604762 0.55000001 1.1891043e-38
-0.10803429 0.16544382 0.54800004 1.1707002e-38
-0.1066 0.16484 0.546 1.1799198e-38
-0.10536667 0.16453809 0.54500002 1.1888882e-38
-0.10413715 0.1642362 0.54400003 1.1796687e-38
-0.10272191 0.16363239 0.54200006 1.1704844e-38
-0.1015019 0.16333048 0.54100001 1.1981431e-38
-0.10047143 0.16333048 0.54100001 1.1982154e-38
-0.099257141 0.16302858 0.54000002 1.0046046e-38
-0.098228574 0.16302858 0.54000002 9.9481023e-39
-0.097379997 0.16333048 0.54100001 7.8276028e-39
-0.096349522 0.16333048 0.54100001 8.0122883e-39
-0.095319048 0.16333048 0.54100001 1.262207e-38
-0.094288565 0.16333048 0.54100001 1.1521898e-38
-0.093085721 0.16302858 0.54000002 1.1614093e-38
-0.092057146 0.16302858 0.54000002 1.1430415e-38
-0.091028571 0.16302858 0.54000002 4.7001344e-39
-0.089999996 0.16302858 0.54000002 2.6725564e-39
-0.088971436 0.16302858 0.54000002 2.488168e-39
-0.087942861 0.16302858 0.54000002 5.3441095e-39
-0.086914286 0.16302858 0.54000002 1.1429021e-38
-0.085726671 0.16272667 0.53900003 1.179669e-38
-0.084700003 0.16272667 0.53900003 1.1981081e-38
-0.083828576 0.16302858 0.54000002 1.1429715e-38
-0.082800001 0.16302858 0.54000002 4.0540644e-39
-0.08162 0.16272667 0.53900003 4.0508063e-39
-0.08059334 0.16272667 0.53900003 5.6181236e-39
-0.079566672 0.16272667 0.53900003 6.7280711e-39
-0.078685716 0.16302858 0.54000002 6.267093e-39
-0.077513337 0.16272667 0.53900003 4.6125967e-39
-0.076486669 0.16272667 0.53900003 3.9672273e-39
-0.075460002 0.16272667 0.53900003 5.9022775e-39
-0.074433342 0.16272667 0.53900003 5.7178863e-39
-0.073542856 0.16302858 0.54000002 2.8601735e-39
-0.072514281 0.16302858 0.54000002 6.6401845e-39
-0.06968572 0.16363239 0.54200006 4.6997547e-39
-0.069159999 0.16484 0.546 5.1607328e-39
-0.066040002 0.16484 0.546 4.1419244e-39
-0.064999998 0.16484 0.546 9.2126742e-39
-0.063959993 0.16484 0.546 9.1262729e-39
-0.062920004 0.16484 0.546 8.4809035e-39
-0.061993334 0.16514193 0.54700005 6.3646836e-39
-0.06095143 0.16514193 0.54700005 5.6271186e-39
-0.05990953 0.16514193 0.54700005 6.7313502e-39
-0.059513334 0.16695334 0.55300003 1.0695762e-38
-0.058565717 0.16725525 0.55400002 1.1337869e-38
-0.057510477 0.16725525 0.55400002 1.1245674e-38
-0.056557145 0.16755714 0.55500001 1.1521542e-38
-0.055600002 0.16785906 0.55600005 1.1152759e-38
-0.054639053 0.16816096 0.55700004 1.0048229e-38
-0.053674288 0.16846286 0.55800003 7.7433385e-39
-0.052894291 0.16936859 0.56100005 6.7320382e-39
-0.05201048 0.16997239 0.56300002 6.3632557e-39
-0.051028572 0.17027429 0.56400001 5.8100427e-39
-0.049954284 0.17027429 0.56400001 7.3773684e-39
-0.048966669 0.17057618 0.565 9.4028402e-39
-0.047890477 0.17057618 0.565 1.2814079e-38
-0.046814285 0.17057618 0.565 1.2997025e-38
-0.045819052 0.17087811 0.56600004 1.3550199e-38
-0.044740956 0.17087811 0.56600004 1.4011177e-38
-0.11723524 0.16922192 0.55700004 1.3551264e-38
-0.11596572 0.1689181 0.55600005 1.3089221e-38
-0.11449333 0.16831049 0.55400002 1.2812634e-38
-0.11343809 0.16831049 0.55400002 1.2535341e-38
-0.11238286 0.16831049 0.55400002 1.2350949e-38
-0.11092572 0.16770287 0.55200005 1.225946e-38
-0.10967524 0.16739905 0.551 1.225946e-38
-0.10823143 0.16679144 0.54900002 1.2167983e-38
-0.10699048 0.16648763 0.54800004 1.2352374e-38
-0.10575334 0.16618381 0.54700005 1.1889961e-38
-0.10432857 0.1655762 0.54500002 1.170557e-38
-0.10272191 0.16466478 0.54200006 1.1613365e-38
-0.10168953 0.16466478 0.54200006 1.2166538e-38
-0.10047143 0.16436096 0.54100001 1.1798468e-38
-0.099440955 0.16436096 0.54100001 1.133749e-38
-0.09841048 0.16436096 0.54100001 1.0503462e-38
-0.097379997 0.16436096 0.54100001 8.8439407e-39
-0.096349522 0.16436096 0.54100001 8.7538344e-39
-0.095319048 0.16436096 0.54100001 1.1888486e-38
-0.094288565 0.16436096 0.54100001 1.1428983e-38
-0.093258098 0.16436096 0.54100001 1.1613375e-38
-0.092227623 0.16436096 0.54100001 1.1061266e-38
-0.091197148 0.16436096 0.54100001 4.2387891e-39
-0.089999996 0.16405715 0.54000002 1.5690955e-39
-0.088971436 0.16405715 0.54000002 3.689595e-39
-0.088268578 0.16466478 0.54200006 6.3586118e-39
-0.086914286 0.16405715 0.54000002 1.1337176e-38
-0.085885711 0.16405715 0.54000002 1.1981797e-38
-0.085014284 0.16436096 0.54100001 1.2166188e-38
-0.083983809 0.16436096 0.54100001 1.1061616e-38
-0.082953334 0.16436096 0.54100001 2.9484217e-39
-0.081771426 0.16405715 0.54000002 2.5825314e-39
-0.080742866 0.16405715 0.54000002 5.5327916e-39
-0.079714291 0.16405715 0.54000002 6.0837877e-39
-0.078685716 0.16405715 0.54000002 5.8993965e-39
-0.077657141 0.16405715 0.54000002 5.2540243e-39
-0.076486669 0.16375335 0.53900003 5.1618286e-39
-0.075460002 0.16375335 0.53900003 5.7185911e-39
-0.074571431 0.16405715 0.54000002 3.9668742e-39
-0.073679045 0.16436096 0.54100001 2.7679919e-39
-0.07264857 0.16436096 0.54100001 7.2855777e-39
-0.071750477 0.16466478 0.54200006 8.2043194e-39
-0.070718102 0.16466478 0.54200006 6.6369937e-39
-0.06968572 0.16466478 0.54200006 4.2380997e-39
-0.069159999 0.16587999 0.546 6.2664035e-39
-0.068120003 0.16587999 0.546 5.8100553e-39
-0.067079999 0.16587999 0.546 2.7676205e-39
-0.066040002 0.16587999 0.546 2.6725817e-39
-0.064999998 0.16587999 0.546 4.332103e-39
-0.063959993 0.16587999 0.546 4.883832e-39
-0.063035242 0.16618381 0.54700005 7.0043315e-39
-0.062106673 0.16648763 0.54800004 8.2957346e-39
-0.061062861 0.16648763 0.54800004 9.3098865e-39
-0.060128573 0.16679144 0.54900002 1.0045361e-38
-0.059513334 0.16800667 0.55300003 1.216586e-38
-0.058460001 0.16800667 0.55300003 1.1520829e-38
-0.057510477 0.16831049 0.55400002 1.1428633e-38
-0.05645524 0.16831049 0.55400002 9.9567371e-39
-0.055600002 0.1689181 0.55600005 6.4533031e-39
-0.054639053 0.16922192 0.55700004 5.2576102e-39
-0.053674288 0.16952573 0.55800003 4.4278495e-39
-0.052894291 0.17043716 0.56100005 5.6264319e-39
-0.05201048 0.17104477 0.56300002 5.5342363e-39
-0.051028572 0.17134857 0.56400001 5.9029824e-39
-0.050042856 0.17165238 0.565 7.9312862e-39
-0.048966669 0.17165238 0.565 9.6794299e-39
-0.047890477 0.17165238 0.565 1.2906277e-38
-0.046814285 0.17165238 0.565 1.2997025e-38
-0.045738097 0.17165238 0.565 1.3642394e-38
-0.044661906 0.17165238 0.565 1.3826423e-38
-0.11723524 0.17028287 0.55700004 1.3827514e-38
-0.11596572 0.16997716 0.55600005 1.2905545e-38
-0.1147 0.16967143 0.55500001 1.2628959e-38
-0.11343809 0.16936572 0.55400002 1.2720088e-38
-0.11238286 0.16936572 0.55400002 1.2535697e-38
-0.11112667 0.16906001 0.55300003 1.2166911e-38
-0.10967524 0.16844857 0.551 1.2259107e-38
-0.10842858 0.16814286 0.55000001 1.2259107e-38
-0.10738095 0.16814286 0.55000001 1.2166911e-38
-0.10556 0.16692001 0.546 1.1889961e-38
-0.10432857 0.16661429 0.54500002 1.1613375e-38
-0.10310096 0.16630858 0.54400003 1.170556e-38
-0.10187715 0.16600287 0.54300004 1.2074343e-38
-0.10065715 0.16569717 0.54200006 1.1614804e-38
-0.099624768 0.16569717 0.54200006 1.1246021e-38
-0.098592393 0.16569717 0.54200006 1.1244244e-38
-0.097740002 0.16600287 0.54300004 9.4003319e-39
-0.096527629 0.16569717 0.54200006 9.2137532e-39
-0.095495246 0.16569717 0.54200006 1.1426448e-38
-0.094462864 0.16569717 0.54200006 1.1152394e-38
-0.093430489 0.16569717 0.54200006 1.1336785e-38
-0.092227623 0.16539142 0.54100001 1.0784327e-38
-0.091197148 0.16539142 0.54100001 3.5008724e-39
-0.090166666 0.16539142 0.54100001 1.6605723e-39
-0.089136191 0.16539142 0.54100001 4.0576517e-39
-0.088268578 0.16569717 0.54200006 7.1898116e-39
-0.087075241 0.16539142 0.54100001 1.1246419e-38
-0.086044759 0.16539142 0.54100001 1.1798129e-38
-0.085014284 0.16539142 0.54100001 1.1798129e-38
-0.083983809 0.16539142 0.54100001 9.1262561e-39
-0.082953334 0.16539142 0.54100001 2.1193911e-39
-0.081922859 0.16539142 0.54100001 1.9342851e-39
-0.080742866 0.16508572 0.54000002 5.6221061e-39
-0.079714291 0.16508572 0.54000002 5.7139458e-39
-0.078685716 0.16508572 0.54000002 5.2529677e-39
-0.077657141 0.16508572 0.54000002 3.8700052e-39
-0.076628581 0.16508572 0.54000002 6.5436701e-39
-0.075600006 0.16508572 0.54000002 6.9132079e-39
-0.074571431 0.16508572 0.54000002 2.6722089e-39
-0.073679045 0.16539142 0.54100001 8.2974806e-40
-0.07264857 0.16539142 0.54100001 7.6522219e-39
-0.071750477 0.16569717 0.54200006 8.8497141e-39
-0.070718102 0.16569717 0.54200006 5.622867e-39
-0.069942862 0.16630858 0.54400003 4.1426418e-39
-0.069033332 0.16661429 0.54500002 7.3694805e-39
-0.067995243 0.16661429 0.54500002 6.1777854e-39
-0.067079999 0.16692001 0.546 2.6743515e-39
-0.066040002 0.16692001 0.546 1.6602136e-39
-0.064999998 0.16692001 0.546 3.3197307e-39
-0.063959993 0.16692001 0.546 4.4242468e-39
-0.06315048 0.16753143 0.54800004 7.1901157e-39
-0.06222 0.16783714 0.54900002 9.3984752e-39
-0.061174288 0.16783714 0.54900002 1.1150192e-38
-0.060238093 0.16814286 0.55000001 1.2071484e-38
-0.059513334 0.16906001 0.55300003 1.216368e-38
-0.058460001 0.16906001 0.55300003 1.1336437e-38
-0.057510477 0.16936572 0.55400002 1.0967655e-38
-0.05645524 0.16936572 0.55400002 7.6558274e-39
-0.055600002 0.16997716 0.55600005 4.2445891e-39
-0.054639053 0.17028287 0.55700004 4.5204347e-39
-0.053674288 0.17058858 0.55800003 5.2579997e-39
-0.052988574 0.17181143 0.56200004 5.7186276e-39
-0.052102856 0.17242286 0.56400001 5.5342363e-39
-0.051028572 0.17242286 0.56400001 5.9029824e-39
-0.050042856 0.17272857 0.565 8.1156775e-39
-0.048966669 0.17272857 0.565 1.0230087e-38
-0.047890477 0.17272857 0.565 1.2995956e-38
-0.046814285 0.17272857 0.565 1.2812283e-38
-0.045738097 0.17272857 0.565 1.3181066e-38
-0.044661906 0.17272857 0.565 1.382607e-38
-0.11744572 0.17165144 0.55800003 1.4195578e-38
-0.11596572 0.1710362 0.55600005 1.2905908e-38
-0.1147 0.17072856 0.55500001 1.244493e-38
-0.11343809 0.17042094 0.55400002 1.2811918e-38
-0.11238286 0.17042094 0.55400002 1.2719722e-38
-0.11112667 0.17011334 0.55300003 1.2350942e-38
-0.10987429 0.16980574 0.55200005 1.2350942e-38
-0.10862571 0.1694981 0.551 1.2166558e-38
-0.10738095 0.16919048 0.55000001 1.1889971e-38
-0.10556 0.16796 0.546 1.1982157e-38
-0.10432857 0.16765238 0.54500002 1.1797766e-38
-0.10310096 0.16734476 0.54400003 1.1705923e-38
-0.10206477 0.16734476 0.54400003 1.1798119e-38
-0.10102858 0.16734476 0.54400003 1.1706283e-38
-0.099808581 0.16703714 0.54300004 1.1706283e-38
-0.098774292 0.16703714 0.54300004 1.133679e-38
-0.097740002 0.16703714 0.54300004 1.1152399e-38
-0.09670572 0.16703714 0.54300004 1.0967658e-38
-0.095495246 0.16672954 0.54200006 1.0691071e-38
-0.094462864 0.16672954 0.54200006 1.1151315e-38
-0.093430489 0.16672954 0.54200006 1.1520097e-38
-0.092398107 0.16672954 0.54200006 1.059886e-38
-0.091365725 0.16672954 0.54200006 2.6700453e-39
-0.090333335 0.16672954 0.54200006 1.6602136e-39
-0.08930096 0.16672954 0.54200006 5.3480346e-39
-0.088105716 0.16642191 0.54100001 7.4649621e-39
-0.087075241 0.16642191 0.54100001 1.1798157e-38
-0.086044759 0.16642191 0.54100001 1.1889952e-38
-0.085014284 0.16642191 0.54100001 1.1060191e-38
-0.083983809 0.16642191 0.54100001 9.4013815e-39
-0.082953334 0.16642191 0.54100001 2.1179561e-39
-0.081922859 0.16642191 0.54100001 2.5814426e-39
-0.080892384 0.16642191 0.54100001 7.2834197e-39
-0.079861909 0.16642191 0.54100001 8.3861898e-39
-0.078685716 0.1661143 0.54000002 8.1096029e-39
-0.077657141 0.1661143 0.54000002 9.7690247e-39
-0.076628581 0.1661143 0.54000002 1.1244155e-38
-0.075600006 0.1661143 0.54000002 8.5738026e-39
-0.074571431 0.1661143 0.54000002 1.8435258e-39
-0.073815241 0.16672954 0.54200006 4.659948e-40
-0.072782859 0.16672954 0.54200006 7.0118845e-39
-0.071882859 0.16703714 0.54300004 8.1132154e-39
-0.070848577 0.16703714 0.54300004 3.6878252e-39
-0.069942862 0.16734476 0.54400003 3.2275155e-39
-0.069033332 0.16765238 0.54500002 7.6528987e-39
-0.067995243 0.16765238 0.54500002 8.2972185e-39
-0.067079999 0.16796 0.546 7.928436e-39
-0.066040002 0.16796 0.546 8.2053494e-39
-0.064999998 0.16796 0.546 8.7585232e-39
-0.064077146 0.16826764 0.54700005 1.096907e-38
-0.06315048 0.16857524 0.54800004 1.1983222e-38
-0.06222 0.16888286 0.54900002 1.1614064e-38
-0.061174288 0.16888286 0.54900002 1.1890651e-38
-0.060238093 0.16919048 0.55000001 1.0599235e-38
-0.059620954 0.17042094 0.55400002 8.8475182e-39
-0.058565717 0.17042094 0.55400002 6.270372e-39
-0.057510477 0.17042094 0.55400002 5.3484157e-39
-0.056557145 0.17072856 0.55500001 4.3367917e-39
-0.055600002 0.1710362 0.55600005 3.1382485e-39
-0.054639053 0.17134382 0.55700004 3.414841e-39
-0.053770475 0.17195906 0.55900002 5.3509493e-39
-0.052988574 0.17288192 0.56200004 5.9030188e-39
-0.052102856 0.17349714 0.56400001 5.8108232e-39
-0.051028572 0.17349714 0.56400001 6.0855898e-39
-0.050042856 0.17380476 0.565 8.2982849e-39
-0.048966669 0.17380476 0.565 1.0230102e-38
-0.047890477 0.17380476 0.565 1.281158e-38
-0.046814285 0.17380476 0.565 1.2627889e-38
-0.045738097 0.17380476 0.565 1.3181063e-38
-0.11744572 0.17271429 0.55800003 1.4011896e-38
-0.11596572 0.17209525 0.55600005 1.3735655e-38
-0.1147 0.17178571 0.55500001 1.2537112e-38
-0.11343809 0.17147619 0.55400002 1.2811558e-38
-0.11238286 0.17147619 0.55400002 1.2903753e-38
-0.11112667 0.17116667 0.55300003 1.2442419e-38
-0.10987429 0.17085715 0.55200005 1.2442419e-38
-0.10862571 0.17054762 0.551 1.2166195e-38
-0.10738095 0.17023809 0.55000001 1.2074e-38
-0.10575334 0.16930953 0.54700005 1.207435e-38
-0.10452 0.169 0.546 1.1889959e-38
-0.10329048 0.16869047 0.54500002 1.1890315e-38
-0.10225239 0.16869047 0.54500002 1.1890315e-38
-0.10102858 0.16838096 0.54400003 1.1705933e-38
-0.099992387 0.16838096 0.54400003 1.1798129e-38
-0.098956198 0.16838096 0.54400003 1.1706289e-38
-0.097920001 0.16838096 0.54400003 1.1614093e-38
-0.096883811 0.16838096 0.54400003 1.1889977e-38
-0.095671438 0.16807145 0.54300004 1.161339e-38
-0.094637156 0.16807145 0.54300004 1.0966923e-38
-0.093602858 0.16807145 0.54300004 1.1427901e-38
-0.092398107 0.16776192 0.54200006 1.0229724e-38
-0.091365725 0.16776192 0.54200006 3.3150518e-39
-0.090333335 0.16776192 0.54200006 1.3836309e-39
-0.08930096 0.16776192 0.54200006 4.9792549e-39
-0.088105716 0.16745238 0.54100001 7.8304923e-39
-0.087075241 0.16745238 0.54100001 1.0872948e-38
-0.086044759 0.16745238 0.54100001 1.0506311e-38
-0.085014284 0.16745238 0.54100001 1.032192e-38
-0.083983809 0.16745238 0.54100001 7.5603822e-39
-0.082953334 0.16745238 0.54100001 2.0286444e-39
-0.081922859 0.16745238 0.54100001 3.6849133e-39
-0.080892384 0.16745238 0.54100001 7.6493254e-39
-0.079861909 0.16745238 0.54100001 8.9382845e-39
-0.078685716 0.16714285 0.54000002 8.7538933e-39
-0.077657141 0.16714285 0.54000002 1.0504482e-38
-0.076770477 0.16745238 0.54100001 1.0781069e-38
-0.075740002 0.16745238 0.54100001 8.3897673e-39
-0.074847631 0.16776192 0.54200006 1.8438846e-39
-0.073951438 0.16807145 0.54300004 1.1992424e-39
-0.072917148 0.16807145 0.54300004 8.2061047e-39
-0.072015241 0.16838096 0.54400003 8.1160867e-39
-0.070979051 0.16838096 0.54400003 3.045327e-39
-0.070071429 0.16869047 0.54500002 3.1331688e-39
-0.069159999 0.169 0.546 8.2961157e-39
-0.068120003 0.169 0.546 9.4932408e-39
-0.067079999 0.169 0.546 1.0323001e-38
-0.066040002 0.169 0.546 9.9563671e-39
-0.064999998 0.169 0.546 1.0601737e-38
-0.064077146 0.16930953 0.54700005 1.1245321e-38
-0.063265711 0.16992857 0.54900002 1.1521908e-38
-0.06222 0.16992857 0.54900002 1.1613009e-38
-0.061285712 0.17023809 0.55000001 1.1336422e-38
-0.06034762 0.17054762 0.551 8.6678213e-39
-0.059620954 0.17147619 0.55400002 6.6395175e-39
-0.058565717 0.17147619 0.55400002 5.1676118e-39
-0.057510477 0.17147619 0.55400002 3.876873e-39
-0.05645524 0.17147619 0.55400002 3.783618e-39
-0.055600002 0.17209525 0.55600005 3.5070311e-39
-0.054639053 0.17240477 0.55700004 4.0580146e-39
-0.053674288 0.17271429 0.55800003 5.1643622e-39
-0.053082861 0.17426191 0.56300002 6.2703566e-39
-0.052195236 0.17488095 0.565 5.9937697e-39
-0.051119048 0.17488095 0.565 5.9940864e-39
-0.050042856 0.17488095 0.565 9.4975203e-39
-0.048966669 0.17488095 0.565 1.0876175e-38
-0.047890477 0.17488095 0.565 1.2720088e-38
-0.046814285 0.17488095 0.565 1.2443488e-38
-0.045738097 0.17488095 0.565 1.3365445e-38
-0.11596572 0.17315429 0.55600005 1.2997741e-38
-0.11449333 0.17253143 0.55400002 1.2352372e-38
-0.11343809 0.17253143 0.55400002 1.2627526e-38
-0.11238286 0.17253143 0.55400002 1.2719722e-38
-0.11132763 0.17253143 0.55400002 1.2443132e-38
-0.10987429 0.17190859 0.55200005 1.2166546e-38
-0.10862571 0.17159714 0.551 1.1982157e-38
-0.10738095 0.17128572 0.55000001 1.1982157e-38
-0.10594667 0.17066287 0.54800004 1.1982154e-38
-0.10452 0.17004001 0.546 1.1889959e-38
-0.10348 0.17004001 0.546 1.1890315e-38
-0.10244 0.17004001 0.546 1.1798119e-38
-0.10121429 0.16972858 0.54500002 1.170558e-38
-0.099992387 0.16941716 0.54400003 1.1797776e-38
-0.098956198 0.16941716 0.54400003 1.1706289e-38
-0.097920001 0.16941716 0.54400003 1.1521898e-38
-0.096883811 0.16941716 0.54400003 1.1613384e-38
-0.095847622 0.16941716 0.54400003 1.1613384e-38
-0.094811432 0.16941716 0.54400003 1.1520805e-38
-0.093602858 0.16910574 0.54300004 1.1244218e-38
-0.092398107 0.1687943 0.54200006 1.0138257e-38
-0.091365725 0.1687943 0.54200006 3.8689542e-39
-0.090333335 0.1687943 0.54200006 2.1197582e-39
-0.08930096 0.1687943 0.54200006 2.5807363e-39
-0.088105716 0.16848285 0.54100001 4.2323544e-39
-0.087075241 0.16848285 0.54100001 6.3528539e-39
-0.086044759 0.16848285 0.54100001 6.6319e-39
-0.085014284 0.16848285 0.54100001 7.5538563e-39
-0.083983809 0.16848285 0.54100001 5.9011985e-39
-0.083106674 0.1687943 0.54200006 1.7524078e-39
-0.081922859 0.16848285 0.54100001 2.8569729e-39
-0.080892384 0.16848285 0.54100001 4.1477117e-39
-0.080009535 0.1687943 0.54200006 5.8028652e-39
-0.078977153 0.1687943 0.54200006 5.0653016e-39
-0.07794477 0.1687943 0.54200006 7.1851032e-39
-0.076912388 0.1687943 0.54200006 9.489994e-39
-0.075880013 0.1687943 0.54200006 8.2975352e-39
-0.074847631 0.1687943 0.54200006 4.6097114e-39
-0.074087627 0.16941716 0.54400003 4.8867187e-39
-0.07305143 0.16941716 0.54400003 9.6808915e-39
-0.072015241 0.16941716 0.54400003 9.8648974e-39
-0.071109526 0.16972858 0.54500002 8.8507454e-39
-0.070071429 0.16972858 0.54500002 9.9560168e-39
-0.069159999 0.17004001 0.546 1.1523343e-38
-0.068120003 0.17004001 0.546 1.1706283e-38
-0.067079999 0.17004001 0.546 1.1890675e-38
-0.066040002 0.17004001 0.546 1.0970519e-38
-0.064999998 0.17004001 0.546 1.0786128e-38
-0.064077146 0.17035145 0.54700005 9.4032102e-39
-0.063265711 0.1709743 0.54900002 8.942232e-39
-0.06222 0.1709743 0.54900002 7.46713e-39
-0.061397146 0.17159714 0.551 7.2827387e-39
-0.060457144 0.17190859 0.55200005 7.1923157e-39
-0.059620954 0.17253143 0.55400002 6.0859682e-39
-0.058565717 0.17253143 0.55400002 5.5353349e-39
-0.057510477 0.17253143 0.55400002 3.9680092e-39
-0.05645524 0.17253143 0.55400002 3.8758192e-39
-0.055500001 0.17284286 0.55500001 3.6914279e-39
-0.054639053 0.17346571 0.55700004 3.5988315e-39
-0.053674288 0.17377715 0.55800003 4.0598097e-39
-0.052988574 0.17502287 0.56200004 5.2562047e-39
-0.052195236 0.17595714 0.565 6.178161e-39
-0.051119048 0.17595714 0.565 6.9163902e-39
-0.050042856 0.17595714 0.565 1.0327629e-38
-0.048966669 0.17595714 0.565 1.1429715e-38
-0.047890477 0.17595714 0.565 1.2812649e-38
-0.046897147 0.17626858 0.56600004 1.2720072e-38
-0.045819052 0.17626858 0.56600004 1.3549833e-38
-0.11596572 0.17421333 0.55600005 1.2997374e-38
-0.11449333 0.17358667 0.55400002 1.2536396e-38
-0.11343809 0.17358667 0.55400002 1.2535334e-38
-0.11238286 0.17358667 0.55400002 1.2719725e-38
-0.11132763 0.17358667 0.55400002 1.2628245e-38
-0.10987429 0.17296001 0.55200005 1.2351658e-38
-0.10882286 0.17296001 0.55200005 1.1890327e-38
-0.10757619 0.17264667 0.551 1.1798132e-38
-0.10594667 0.17170668 0.54800004 1.1797766e-38
-0.10471144 0.17139335 0.54700005 1.1797766e-38
-0.10366953 0.17139335 0.54700005 1.1706289e-38
-0.10262763 0.17139335 0.54700005 1.1521898e-38
-0.10158572 0.17139335 0.54700005 1.1521542e-38
-0.10017619 0.17076667 0.54500002 1.1521542e-38
-0.099138096 0.17076667 0.54500002 1.1521892e-38
-0.098100007 0.17076667 0.54500002 1.1521892e-38
-0.097061902 0.17076667 0.54500002 1.1337869e-38
-0.096023813 0.17076667 0.54500002 1.1245674e-38
-0.094811432 0.17045334 0.54400003 1.1429702e-38
-0.093775243 0.17045334 0.54400003 1.106092e-38
-0.092568576 0.17014001 0.54300004 9.7723458e-39
-0.091534294 0.17014001 0.54300004 5.3469556e-39
-0.090500005 0.17014001 0.54300004 5.9872565e-39
-0.089465722 0.17014001 0.54300004 4.8809131e-39
-0.088268578 0.16982669 0.54200006 3.4072404e-39
-0.087236196 0.16982669 0.54200006 4.3291911e-39
-0.086203814 0.16982669 0.54200006 2.8569449e-39
-0.085171439 0.16982669 0.54200006 5.7150024e-39
-0.084139057 0.16982669 0.54200006 5.4402036e-39
-0.083106674 0.16982669 0.54200006 4.5182473e-39
-0.082074292 0.16982669 0.54200006 4.1498179e-39
-0.08104191 0.16982669 0.54200006 4.5186004e-39
-0.080009535 0.16982669 0.54200006 5.0703252e-39
-0.078977153 0.16982669 0.54200006 5.0703252e-39
-0.07794477 0.16982669 0.54200006 5.8993544e-39
-0.076912388 0.16982669 0.54200006 8.6652205e-39
-0.076020002 0.17014001 0.54300004 8.7585134e-39
-0.075123817 0.17045334 0.54400003 8.0209483e-39
-0.074223816 0.17076667 0.54500002 8.3886757e-39
-0.073185712 0.17076667 0.54500002 1.1154545e-38
-0.072147623 0.17076667 0.54500002 1.1337516e-38
-0.071109526 0.17076667 0.54500002 1.0968734e-38
-0.070199996 0.17108001 0.546 1.1336437e-38
-0.069159999 0.17108001 0.546 1.170522e-38
-0.068120003 0.17108001 0.546 1.1798116e-38
-0.067079999 0.17108001 0.546 1.170592e-38
-0.066040002 0.17108001 0.546 1.023368e-38
-0.064999998 0.17108001 0.546 9.5883105e-39
-0.064194292 0.17170668 0.54800004 7.3781363e-39
-0.063265711 0.17202 0.54900002 6.8249625e-39
-0.062333338 0.17233333 0.55000001 6.271451e-39
-0.061397146 0.17264667 0.551 6.5480379e-39
-0.060457144 0.17296001 0.55200005 7.1930444e-39
-0.059620954 0.17358667 0.55400002 6.1788925e-39
-0.058565717 0.17358667 0.55400002 5.5353349e-39
-0.057510477 0.17358667 0.55400002 4.6133786e-39
-0.05645524 0.17358667 0.55400002 3.8758192e-39
-0.055500001 0.17389999 0.55500001 3.5992323e-39
-0.054639053 0.17452668 0.55700004 3.7828753e-39
-0.053674288 0.17484002 0.55800003 4.1516578e-39
-0.052894291 0.17578001 0.56100005 5.3483639e-39
-0.052195236 0.17703332 0.565 6.6391027e-39
-0.051119048 0.17703332 0.565 7.9287653e-39
-0.050042856 0.17703332 0.565 1.0879025e-38
-0.049053337 0.17734668 0.56600004 1.1431514e-38
-0.04806 0.17766002 0.56700003 1.2445666e-38
-0.046980001 0.17766002 0.56700003 1.2812254e-38
-0.045900002 0.17766002 0.56700003 1.3181037e-38
-0.1147 0.17495714 0.55500001 1.2905908e-38
-0.11364286 0.17495714 0.55500001 1.2627536e-38
-0.11258572 0.17495714 0.55500001 1.2719732e-38
-0.11132763 0.17464191 0.55400002 1.262824e-38
-0.11007334 0.17432667 0.55300003 1.2443848e-38
-0.10882286 0.17401145 0.55200005 1.2166195e-38
-0.10757619 0.17369619 0.551 1.1889608e-38
-0.10633333 0.17338096 0.55000001 1.1889964e-38
-0.10471144 0.17243525 0.54700005 1.1889964e-38
-0.10366953 0.17243525 0.54700005 1.1613737e-38
-0.10244 0.17211999 0.546 1.1613737e-38
-0.1014 0.17211999 0.546 1.1614093e-38
-0.10017619 0.17180477 0.54500002 1.1521898e-38
-0.099138096 0.17180477 0.54500002 1.170592e-38
-0.098100007 0.17180477 0.54500002 1.1798116e-38
-0.097061902 0.17180477 0.54500002 1.1428986e-38
-0.096023813 0.17180477 0.54500002 1.133679e-38
-0.094985716 0.17180477 0.54500002 1.1428618e-38
-0.093775243 0.17148954 0.54400003 1.1336422e-38
-0.092568576 0.1711743 0.54300004 1.0968368e-38
-0.091534294 0.1711743 0.54300004 1.0876172e-38
-0.090500005 0.1711743 0.54300004 9.8638212e-39
-0.089465722 0.1711743 0.54300004 8.7574736e-39
-0.088268578 0.17085907 0.54200006 9.4003445e-39
-0.087236196 0.17085907 0.54200006 9.6769314e-39
-0.086203814 0.17085907 0.54200006 9.8620205e-39
-0.085171439 0.17085907 0.54200006 1.0415194e-38
-0.084139057 0.17085907 0.54200006 1.0507743e-38
-0.083106674 0.17085907 0.54200006 1.0507743e-38
-0.082074292 0.17085907 0.54200006 1.0692134e-38
-0.08104191 0.17085907 0.54200006 1.078433e-38
-0.080009535 0.17085907 0.54200006 1.0784327e-38
-0.078977153 0.17085907 0.54200006 1.0784327e-38
-0.07794477 0.17085907 0.54200006 1.1060914e-38
-0.076912388 0.17085907 0.54200006 1.1429697e-38
-0.076159999 0.17148954 0.54400003 1.1154531e-38
-0.075261906 0.17180477 0.54500002 1.1615509e-38
-0.074223816 0.17180477 0.54500002 1.133679e-38
-0.073185712 0.17180477 0.54500002 1.1705573e-38
-0.072147623 0.17180477 0.54500002 1.1428966e-38
-0.07124 0.17211999 0.546 1.050701e-38
-0.070199996 0.17211999 0.546 9.8616702e-39
-0.069159999 0.17211999 0.546 9.6772789e-39
-0.068120003 0.17211999 0.546 9.2173405e-39
-0.067079999 0.17211999 0.546 8.4797755e-39
-0.066040002 0.17211999 0.546 6.178161e-39
-0.064999998 0.17211999 0.546 4.7030309e-39
-0.064194292 0.17275049 0.54800004 4.5211886e-39
-0.063265711 0.17306572 0.54900002 6.4572968e-39
-0.062333338 0.17338096 0.55000001 6.548391e-39
-0.061397146 0.17369619 0.551 5.5342391e-39
-0.060566671 0.17432667 0.55300003 5.9945138e-39
-0.059620954 0.17464191 0.55400002 6.5476876e-39
-0.058565717 0.17464191 0.55400002 5.7204352e-39
-0.057510477 0.17464191 0.55400002 4.9828702e-39
-0.056557145 0.17495714 0.55500001 3.4162802e-39
-0.055600002 0.17527239 0.55600005 2.4021282e-39
-0.054639053 0.17558764 0.55700004 3.414841e-39
-0.053674288 0.17590287 0.55800003 4.9821668e-39
-0.052894291 0.17684858 0.56100005 6.0859653e-39
-0.052195236 0.17810953 0.565 7.2845085e-39
-0.051119048 0.17810953 0.565 8.1138796e-39
-0.050131433 0.17842476 0.56600004 1.106414e-38
-0.049140003 0.17874001 0.56700003 1.189069e-38
-0.048144761 0.17905524 0.56800002 1.2997038e-38
-0.047062855 0.17905524 0.56800002 1.2996996e-38
-0.046709526 0.1818924 0.57700002 1.3181387e-38
-0.1147 0.17601429 0.55500001 1.2905183e-38
-0.11364286 0.17601429 0.55500001 1.2720085e-38
-0.11258572 0.17601429 0.55500001 1.2720085e-38
-0.11132763 0.17569715 0.55400002 1.1982876e-38
-0.11027239 0.17569715 0.55400002 1.2075072e-38
-0.10882286 0.17506287 0.55200005 1.2350592e-38
-0.10757619 0.17474571 0.551 1.1889614e-38
-0.10633333 0.17442858 0.55000001 1.198216e-38
-0.10490286 0.1737943 0.54800004 1.1613377e-38
-0.10366953 0.17347716 0.54700005 1.1153122e-38
-0.10244 0.17316 0.546 1.1245318e-38
-0.1014 0.17316 0.546 1.1430065e-38
-0.10017619 0.17284286 0.54500002 1.1337869e-38
-0.099138096 0.17284286 0.54500002 1.1613365e-38
-0.098100007 0.17284286 0.54500002 1.170556e-38
-0.097061902 0.17284286 0.54500002 1.1520813e-38
-0.096023813 0.17284286 0.54500002 1.1428618e-38
-0.094985716 0.17284286 0.54500002 1.0875807e-38
-0.093775243 0.17252572 0.54400003 1.1152394e-38
-0.092568576 0.17220858 0.54300004 1.1244602e-38
-0.091534294 0.17220858 0.54300004 1.1336797e-38
-0.090666667 0.17252572 0.54400003 1.0509191e-38
-0.089465722 0.17220858 0.54300004 1.0416995e-38
-0.088431433 0.17220858 0.54300004 1.0967655e-38
-0.087397151 0.17220858 0.54300004 1.0875459e-38
-0.086362861 0.17220858 0.54300004 1.0230077e-38
-0.085328579 0.17220858 0.54300004 1.1152033e-38
-0.084294297 0.17220858 0.54300004 1.1244218e-38
-0.08326 0.17220858 0.54300004 1.1336413e-38
-0.082225718 0.17220858 0.54300004 1.1336788e-38
-0.081191435 0.17220858 0.54300004 1.1244592e-38
-0.080157153 0.17220858 0.54300004 1.1244218e-38
-0.078977153 0.17189145 0.54200006 1.1244218e-38
-0.07794477 0.17189145 0.54200006 1.1613365e-38
-0.077196196 0.17252572 0.54400003 1.1428973e-38
-0.076300003 0.17284286 0.54500002 1.1337124e-38
-0.075261906 0.17284286 0.54500002 1.1244928e-38
-0.074223816 0.17284286 0.54500002 1.1519011e-38
-0.073320001 0.17316 0.546 1.1519011e-38
-0.072279997 0.17316 0.546 1.0137879e-38
-0.07124 0.17316 0.546 9.7690962e-39
-0.070199996 0.17316 0.546 9.0340549e-39
-0.069159999 0.17316 0.546 8.757468e-39
-0.068120003 0.17316 0.546 8.4819391e-39
-0.067079999 0.17316 0.546 7.006809e-39
-0.066040002 0.17316 0.546 5.995178e-39
-0.065119058 0.17347716 0.54700005 3.6902873e-39
-0.064194292 0.1737943 0.54800004 3.324788e-39
-0.063380957 0.17442858 0.55000001 5.5374831e-39
-0.062333338 0.17442858 0.55000001 5.9970221e-39
-0.061397146 0.17474571 0.551 4.0609139e-39
-0.060676191 0.17569715 0.55400002 4.1509515e-39
-0.05972857 0.17601429 0.55500001 6.0870598e-39
-0.058671426 0.17601429 0.55500001 5.4442239e-39
-0.057614285 0.17601429 0.55500001 4.7066589e-39
-0.05665905 0.17633145 0.55600005 2.956374e-39
-0.055700004 0.17664859 0.55700004 2.956374e-39
-0.054639053 0.17664859 0.55700004 3.6924817e-39
-0.053674288 0.17696573 0.55800003 5.4441987e-39
-0.052894291 0.17791715 0.56100005 7.1004438e-39
-0.052287623 0.17950286 0.56600004 7.5614219e-39
-0.051209528 0.17950286 0.56600004 8.8500196e-39
-0.050220001 0.17982 0.56700003 1.1431497e-38
-0.049226668 0.18013716 0.56800002 1.1889971e-38
-0.048229523 0.18045428 0.56900001 1.2996319e-38
-0.047808573 0.18299143 0.57700002 1.3089209e-38
-0.046709526 0.18299143 0.57700002 1.2997014e-38
-0.11490668 0.1773905 0.55600005 1.2629677e-38
-0.11384763 0.1773905 0.55600005 1.2627536e-38
-0.11278858 0.1773905 0.55600005 1.2719732e-38
-0.11152858 0.17707142 0.55500001 1.2074362e-38
-0.11027239 0.17675239 0.55400002 1.1797776e-38
-0.10921714 0.17675239 0.55400002 1.1889971e-38
-0.10777144 0.17611429 0.55200005 1.170558e-38
-0.10652667 0.17579524 0.551 1.1613384e-38
-0.10490286 0.17483811 0.54800004 1.1428993e-38
-0.10385905 0.17483811 0.54800004 1.1337519e-38
-0.10262763 0.17451906 0.54700005 1.1337519e-38
-0.1014 0.1742 0.546 1.1429702e-38
-0.10036 0.1742 0.546 1.1429702e-38
-0.099320002 0.1742 0.546 1.1521169e-38
-0.098279998 0.1742 0.546 1.1613365e-38
-0.097239994 0.1742 0.546 1.1520813e-38
-0.096200004 0.1742 0.546 1.1520813e-38
-0.094985716 0.17388096 0.54500002 1.1428983e-38
-0.093947619 0.17388096 0.54500002 1.1428983e-38
-0.092909522 0.17388096 0.54500002 1.133681e-38
-0.091702856 0.1735619 0.54400003 1.1244614e-38
-0.090666667 0.1735619 0.54400003 1.1244945e-38
-0.089795239 0.17388096 0.54500002 1.0968358e-38
-0.088431433 0.17324287 0.54300004 1.0968002e-38
-0.087397151 0.17324287 0.54300004 1.0968002e-38
-0.086521909 0.1735619 0.54400003 1.1244215e-38
