# .PCD v0.7 - Point Cloud Data file format
VERSION 0.7
FIELDS x y z rgb
SIZE 4 4 4 4
TYPE F F F F
COUNT 1 1 1 1
WIDTH 953
HEIGHT 1
VIEWPOINT 0 0 0 1 0 0 0
POINTS 953
DATA ascii
-0.037759051 -0.017498096 0.96700007 1.5574889e-38
-0.035917144 -0.017498096 0.96700007 1.5484138e-38
-0.034075242 -0.017498096 0.96700007 1.5391942e-38
-0.032233335 -0.017498096 0.96700007 1.4011174e-38
-0.03039143 -0.017498096 0.96700007 1.3734587e-38
-0.028549524 -0.017498096 0.96700007 1.1250716e-38
-0.026790477 -0.017552381 0.97000003 8.4848468e-39
-0.024942858 -0.017552381 0.97000003 7.1933975e-39
-0.023166668 -0.017606668 0.97300005 7.1012019e-39
-0.021357143 -0.017642858 0.97500002 1.032192e-38
-0.0195 -0.017642858 0.97500002 1.5116092e-38
-0.017697142 -0.017697142 0.97800004 1.5393021e-38
-0.015834287 -0.017697142 0.97800004 1.6222782e-38
-0.014014287 -0.017751429 0.98100007 1.6496479e-38
-0.012145716 -0.017751429 0.98100007 1.7141849e-38
-0.010308572 -0.017805716 0.98400003 1.6680517e-38
-0.0084342854 -0.017805716 0.98400003 1.6311735e-38
-0.0065600001 -0.017805716 0.98400003 1.7417003e-38
-0.0047095241 -0.01789619 0.98900002 2.2948741e-38
-0.0028257142 -0.01789619 0.98900002 2.304527e-38
-0.08382953 -0.01601238 0.98900002 2.258285e-38
-0.08194571 -0.01601238 0.98900002 2.2121874e-38
-0.080061905 -0.01601238 0.98900002 1.8802832e-38
-0.078020006 -0.015980002 0.98700005 1.7968036e-38
-0.076140001 -0.015980002 0.98700005 1.640071e-38
-0.074034289 -0.015931429 0.98400003 1.4553962e-38
-0.071719997 -0.015834287 0.97800004 1.0866136e-38
-0.069642857 -0.015785715 0.97500002 1.3261992e-38
-0.067785718 -0.015785715 0.97500002 1.5105905e-38
-0.065928571 -0.015785715 0.97500002 1.6307409e-38
-0.063940004 -0.015753334 0.97300005 1.8888887e-38
-0.062086668 -0.015753334 0.97300005 1.7787208e-38
-0.060047623 -0.015704762 0.97000003 1.7234035e-38
-0.058200002 -0.015704762 0.97000003 1.6958189e-38
-0.056178097 -0.015656192 0.96700007 1.6128428e-38
-0.054336194 -0.015656192 0.96700007 1.6219571e-38
-0.052494287 -0.015656192 0.96700007 1.603518e-38
-0.050652385 -0.015656192 0.96700007 1.520898e-38
-0.048810478 -0.015656192 0.96700007 1.4932393e-38
-0.046968576 -0.015656192 0.96700007 1.5945819e-38
-0.045126669 -0.015656192 0.96700007 1.6038015e-38
-0.043284763 -0.015656192 0.96700007 1.6313145e-38
-0.04144286 -0.015656192 0.96700007 1.6681927e-38
-0.039600953 -0.015656192 0.96700007 1.6127714e-38
-0.037759051 -0.015656192 0.96700007 1.6127714e-38
-0.035917144 -0.015656192 0.96700007 1.6035864e-38
-0.034075242 -0.015656192 0.96700007 1.6404647e-38
-0.032233335 -0.015656192 0.96700007 1.6037662e-38
-0.03039143 -0.015656192 0.96700007 1.6590836e-38
-0.028549524 -0.015656192 0.96700007 1.4933852e-38
-0.026790477 -0.015704762 0.97000003 1.4657265e-38
-0.024942858 -0.015704762 0.97000003 1.2630766e-38
-0.023166668 -0.015753334 0.97300005 1.2446375e-38
-0.021357143 -0.015785715 0.97500002 1.2995959e-38
-0.0195 -0.015785715 0.97500002 1.4932067e-38
-0.017697142 -0.015834287 0.97800004 1.566818e-38
-0.015834287 -0.015834287 0.97800004 1.6590136e-38
-0.014014287 -0.015882859 0.98100007 1.6865618e-38
-0.012145716 -0.015882859 0.98100007 1.7603183e-38
-0.010308572 -0.015931429 0.98400003 1.6680531e-38
-0.0084342854 -0.015931429 0.98400003 1.6219553e-38
-0.0065800003 -0.015980002 0.98700005 1.6864911e-38
-0.0047238097 -0.016060952 0.99200004 2.2304454e-38
-0.0028342858 -0.016060952 0.99200004 2.286016e-38
-0.08382953 -0.014128571 0.98900002 2.258285e-38
-0.08194571 -0.014128571 0.98900002 2.2030402e-38
-0.080061905 -0.014128571 0.98900002 1.8711359e-38
-0.078020006 -0.0141 0.98700005 1.7783984e-38
-0.076140001 -0.0141 0.98700005 1.8337158e-38
-0.074260004 -0.0141 0.98700005 1.7232642e-38
-0.071940005 -0.014014287 0.98100007 1.1793099e-38
-0.06985715 -0.013971429 0.97800004 1.1241306e-38
-0.067785718 -0.013928572 0.97500002 1.3177414e-38
-0.065928571 -0.013928572 0.97500002 1.4927368e-38
-0.063940004 -0.013900001 0.97300005 1.7877628e-38
-0.062086668 -0.013900001 0.97300005 1.7052907e-38
-0.060047623 -0.013857143 0.97000003 1.677632e-38
-0.058200002 -0.013857143 0.97000003 1.714296e-38
-0.056178097 -0.013814286 0.96700007 1.5944417e-38
-0.054336194 -0.013814286 0.96700007 1.6219559e-38
-0.052494287 -0.013814286 0.96700007 1.6219559e-38
-0.050652385 -0.013814286 0.96700007 1.4195205e-38
-0.048810478 -0.013814286 0.96700007 1.3734227e-38
-0.046968576 -0.013814286 0.96700007 1.4287021e-38
-0.045126669 -0.013814286 0.96700007 1.5669956e-38
-0.043284763 -0.013814286 0.96700007 1.6035878e-38
-0.04144286 -0.013814286 0.96700007 1.5943682e-38
-0.039600953 -0.013814286 0.96700007 1.6126995e-38
-0.037759051 -0.013814286 0.96700007 1.6126995e-38
-0.035917144 -0.013814286 0.96700007 1.5850776e-38
-0.034075242 -0.013814286 0.96700007 1.6127363e-38
-0.032233335 -0.013814286 0.96700007 1.6404323e-38
-0.03039143 -0.013814286 0.96700007 1.6219932e-38
-0.028549524 -0.013814286 0.96700007 1.5852218e-38
-0.026873333 -0.013900001 0.97300005 1.4838066e-38
-0.025020001 -0.013900001 0.97300005 1.3732442e-38
-0.023214286 -0.013928572 0.97500002 1.2902681e-38
-0.021357143 -0.013928572 0.97500002 1.2534954e-38
-0.01956 -0.013971429 0.97800004 1.5300823e-38
-0.017697142 -0.013971429 0.97800004 1.5944037e-38
-0.015834287 -0.013971429 0.97800004 1.6865993e-38
-0.014014287 -0.014014287 0.98100007 1.6865618e-38
-0.012145716 -0.014014287 0.98100007 1.72344e-38
-0.010308572 -0.014057143 0.98400003 1.6128074e-38
-0.0084342854 -0.014057143 0.98400003 1.6128074e-38
-0.0065933336 -0.014128571 0.98900002 1.6771997e-38
-0.0047095241 -0.014128571 0.98900002 2.2488126e-38
-0.0028257142 -0.014128571 0.98900002 2.2767593e-38
-0.08382953 -0.012244762 0.98900002 2.2490657e-38
-0.08194571 -0.012244762 0.98900002 2.1938569e-38
-0.080061905 -0.012244762 0.98900002 2.0002461e-38
-0.078020006 -0.01222 0.98700005 1.741703e-38
-0.076140001 -0.01222 0.98700005 1.7601421e-38
-0.074260004 -0.01222 0.98700005 1.6588688e-38
-0.071940005 -0.012145716 0.98100007 1.2255493e-38
-0.06985715 -0.012108572 0.97800004 1.2532492e-38
-0.067785718 -0.012071429 0.97500002 1.5390556e-38
-0.065928571 -0.012071429 0.97500002 1.2070793e-38
-0.064071432 -0.012071429 0.97500002 1.0503468e-38
-0.062086668 -0.012046667 0.97300005 1.0780743e-38
-0.060233336 -0.012046667 0.97300005 1.3546611e-38
-0.058200002 -0.012009524 0.97000003 1.235093e-38
-0.056352381 -0.012009524 0.97000003 1.1152387e-38
-0.054336194 -0.011972382 0.96700007 1.243917e-38
-0.052494287 -0.011972382 0.96700007 1.4651865e-38
-0.050652385 -0.011972382 0.96700007 1.1981057e-38
-0.048810478 -0.011972382 0.96700007 7.3712755e-39
-0.046968576 -0.011972382 0.96700007 9.3056448e-39
-0.045126669 -0.011972382 0.96700007 1.3731035e-38
-0.043284763 -0.011972382 0.96700007 1.4098341e-38
-0.04144286 -0.011972382 0.96700007 1.3360775e-38
-0.039600953 -0.011972382 0.96700007 1.3177805e-38
-0.037759051 -0.011972382 0.96700007 1.3454392e-38
-0.035917144 -0.011972382 0.96700007 1.1611958e-38
-0.034075242 -0.011972382 0.96700007 1.0874393e-38
-0.032233335 -0.011972382 0.96700007 9.9539008e-39
-0.030485716 -0.012009524 0.97000003 8.5709664e-39
-0.028638097 -0.012009524 0.97000003 7.8333537e-39
-0.026873333 -0.012046667 0.97300005 6.6348105e-39
-0.025071429 -0.012071429 0.97500002 7.7397091e-39
-0.023214286 -0.012071429 0.97500002 6.4489703e-39
-0.021357143 -0.012071429 0.97500002 1.0227164e-38
-0.01956 -0.012108572 0.97800004 1.6404271e-38
-0.017697142 -0.012108572 0.97800004 1.6681587e-38
-0.015834287 -0.012108572 0.97800004 1.7603543e-38
-0.014014287 -0.012145716 0.98100007 1.7235114e-38
-0.012145716 -0.012145716 0.98100007 1.7327309e-38
-0.010308572 -0.012182858 0.98400003 1.6220285e-38
-0.0084342854 -0.012182858 0.98400003 1.6128089e-38
-0.0065800003 -0.01222 0.98700005 1.6865279e-38
-0.0047000004 -0.01222 0.98700005 2.2397016e-38
-0.08382953 -0.010360952 0.98900002 2.249138e-38
-0.08194571 -0.010360952 0.98900002 2.1938216e-38
-0.080061905 -0.010360952 0.98900002 2.0186499e-38
-0.078020006 -0.010340001 0.98700005 1.9262725e-38
-0.076140001 -0.010340001 0.98700005 1.8893943e-38
-0.074260004 -0.010340001 0.98700005 1.5301197e-38
-0.071940005 -0.010277143 0.98100007 1.2627524e-38
-0.06985715 -0.010245714 0.97800004 1.3733173e-38
-0.067994289 -0.010245714 0.97800004 1.4101956e-38
-0.065928571 -0.010214286 0.97500002 1.1243866e-38
-0.064071432 -0.010214286 0.97500002 8.7545841e-39
-0.062214289 -0.010214286 0.97500002 8.7563652e-39
-0.060233336 -0.010193334 0.97300005 9.1251477e-39
-0.058380004 -0.010193334 0.97300005 1.0231139e-38
-0.056352381 -0.010161905 0.97000003 8.8482049e-39
-0.054336194 -0.010130477 0.96700007 1.0042014e-38
-0.052494287 -0.010130477 0.96700007 1.0687384e-38
-0.050652385 -0.010130477 0.96700007 1.0781384e-38
-0.048810478 -0.010130477 0.96700007 8.1077111e-39
-0.046968576 -0.010130477 0.96700007 8.1985587e-39
-0.045126669 -0.010130477 0.96700007 9.3049063e-39
-0.043284763 -0.010130477 0.96700007 1.1883786e-38
-0.04144286 -0.010130477 0.96700007 1.179159e-38
-0.039600953 -0.010130477 0.96700007 9.8598261e-39
-0.037759051 -0.010130477 0.96700007 1.0781782e-38
-0.036028571 -0.010161905 0.97000003 1.0234759e-38
-0.03418095 -0.010161905 0.97000003 7.6532812e-39
-0.032333333 -0.010161905 0.97000003 7.2870449e-39
-0.030485716 -0.010161905 0.97000003 6.272893e-39
-0.028638097 -0.010161905 0.97000003 4.8885166e-39
-0.026928572 -0.010214286 0.97500002 5.0729078e-39
-0.025071429 -0.010214286 0.97500002 7.7422525e-39
-0.023214286 -0.010214286 0.97500002 7.0968831e-39
-0.021422857 -0.010245714 0.97800004 1.0412229e-38
-0.01956 -0.010245714 0.97800004 1.7050314e-38
-0.017697142 -0.010245714 0.97800004 1.6865981e-38
-0.015882859 -0.010277143 0.98100007 1.6865981e-38
-0.014014287 -0.010277143 0.98100007 1.6865262e-38
-0.012145716 -0.010277143 0.98100007 1.7234044e-38
-0.010308572 -0.010308572 0.98400003 1.6220624e-38
-0.0084342854 -0.010308572 0.98400003 1.5759646e-38
-0.0065800003 -0.010340001 0.98700005 1.7050022e-38
-0.0047000004 -0.010340001 0.98700005 2.193639e-38
-0.08459238 -0.0085542863 0.99800003 2.2583938e-38
-0.08194571 -0.008477143 0.98900002 2.1846739e-38
-0.080061905 -0.008477143 0.98900002 2.0556e-38
-0.0781781 -0.008477143 0.98900002 1.9447851e-38
-0.076294288 -0.008477143 0.98900002 1.9079068e-38
-0.074410483 -0.008477143 0.98900002 1.5393395e-38
-0.072379999 -0.0084600002 0.98700005 1.1797766e-38
-0.06985715 -0.0083828568 0.97800004 1.2445679e-38
-0.067994289 -0.0083828568 0.97800004 1.2722265e-38
-0.066131428 -0.0083828568 0.97800004 9.1230542e-39
-0.064071432 -0.008357143 0.97500002 8.8464673e-39
-0.062214289 -0.008357143 0.97500002 9.3074174e-39
-0.060357142 -0.008357143 0.97500002 9.0308305e-39
-0.058380004 -0.0083400002 0.97300005 8.9404005e-39
-0.056352381 -0.0083142864 0.97000003 9.5857699e-39
-0.054504763 -0.0083142864 0.97000003 9.216965e-39
-0.052657142 -0.0083142864 0.97000003 6.1745092e-39
-0.050652385 -0.0082885725 0.96700007 8.938939e-39
-0.048810478 -0.0082885725 0.96700007 1.0321873e-38
-0.046968576 -0.0082885725 0.96700007 9.3056826e-39
-0.045126669 -0.0082885725 0.96700007 8.199335e-39
-0.043284763 -0.0082885725 0.96700007 9.4899519e-39
-0.04144286 -0.0082885725 0.96700007 1.2532408e-38
-0.039600953 -0.0082885725 0.96700007 1.1426413e-38
-0.037759051 -0.0082885725 0.96700007 1.1242022e-38
-0.036028571 -0.0083142864 0.97000003 9.3116998e-39
-0.03418095 -0.0083142864 0.97000003 6.5458309e-39
-0.032333333 -0.0083142864 0.97000003 6.6384357e-39
-0.030485716 -0.0083142864 0.97000003 7.560392e-39
-0.028726669 -0.0083400002 0.97300005 7.5600416e-39
-0.026928572 -0.008357143 0.97500002 7.3756504e-39
-0.025148572 -0.0083828568 0.97800004 7.6525904e-39
-0.023285715 -0.0083828568 0.97800004 6.9150254e-39
-0.021422857 -0.0083828568 0.97800004 1.0597041e-38
-0.01956 -0.0083828568 0.97800004 1.6958539e-38
-0.017751429 -0.0084085716 0.98100007 1.6774138e-38
-0.015882859 -0.0084085716 0.98100007 1.6774138e-38
-0.014014287 -0.0084085716 0.98100007 1.6957826e-38
-0.012145716 -0.0084085716 0.98100007 1.7418804e-38
-0.010308572 -0.0084342854 0.98400003 1.6220624e-38
-0.008477143 -0.008477143 0.98900002 1.566745e-38
-0.0066133337 -0.0085028578 0.99200004 1.6496842e-38
-0.0047380957 -0.0085285725 0.99500006 2.1475406e-38
-0.0028428573 -0.0085285725 0.99500006 2.3228921e-38
-0.08459238 -0.0066533335 0.99800003 2.2767241e-38
-0.082691431 -0.0066533335 0.99800003 2.1938572e-38
-0.080790475 -0.0066533335 0.99800003 2.0555637e-38
-0.078889519 -0.0066533335 0.99800003 1.9908816e-38
-0.076988578 -0.0066533335 0.99800003 1.9447838e-38
-0.074861906 -0.0066333339 0.99500006 1.5485967e-38
-0.072379999 -0.0065800003 0.98700005 1.1521554e-38
-0.070285715 -0.0065600001 0.98400003 1.1250356e-38
-0.068202861 -0.0065400004 0.98100007 1.1065964e-38
-0.066131428 -0.0065200003 0.97800004 8.8471287e-39
-0.064268574 -0.0065200003 0.97800004 9.769085e-39
-0.062405713 -0.0065200003 0.97800004 1.1056616e-38
-0.060542859 -0.0065200003 0.97800004 9.5814861e-39
-0.058500003 -0.0065000001 0.97500002 7.9265569e-39
-0.056526672 -0.0064866669 0.97300005 1.0508035e-38
-0.054673333 -0.0064866669 0.97300005 9.4042667e-39
-0.052820001 -0.0064866669 0.97300005 6.5462022e-39
-0.050966669 -0.0064866669 0.97300005 8.4801188e-39
-0.048961904 -0.0064666667 0.97000003 1.1891357e-38
-0.047114287 -0.0064666667 0.97000003 1.1336835e-38
-0.045266669 -0.0064666667 0.97000003 7.0036407e-39
-0.043419048 -0.0064666667 0.97000003 8.0140862e-39
-0.041571431 -0.0064666667 0.97000003 1.2623868e-38
-0.039723814 -0.0064666667 0.97000003 1.1703013e-38
-0.037876189 -0.0064666667 0.97000003 1.0596665e-38
-0.036140002 -0.0064866669 0.97300005 9.9523902e-39
-0.03428667 -0.0064866669 0.97300005 8.016282e-39
-0.032433335 -0.0064866669 0.97300005 7.8304698e-39
-0.030580001 -0.0064866669 0.97300005 9.9509693e-39
-0.028726669 -0.0064866669 0.97300005 8.7592785e-39
-0.026928572 -0.0065000001 0.97500002 8.390496e-39
-0.025148572 -0.0065200003 0.97800004 7.931666e-39
-0.023285715 -0.0065200003 0.97800004 7.4706879e-39
-0.021488573 -0.0065400004 0.98100007 1.1150224e-38
-0.019620001 -0.0065400004 0.98100007 1.6589767e-38
-0.017751429 -0.0065400004 0.98100007 1.6404634e-38
-0.015882859 -0.0065400004 0.98100007 1.6957808e-38
-0.014057143 -0.0065600001 0.98400003 1.6774511e-38
-0.01222 -0.0065800003 0.98700005 1.7143293e-38
-0.010360952 -0.0065933336 0.98900002 1.6774158e-38
-0.0085028578 -0.0066133337 0.99200004 1.5944397e-38
-0.0066333339 -0.0066333339 0.99500006 1.6219542e-38
-0.0047380957 -0.0066333339 0.99500006 2.2027867e-38
-0.086493336 -0.0047523812 0.99800003 2.2767593e-38
-0.08459238 -0.0047523812 0.99800003 2.3044179e-38
-0.082691431 -0.0047523812 0.99800003 2.2492096e-38
-0.080547623 -0.0047380957 0.99500006 2.0555988e-38
-0.078652389 -0.0047380957 0.99500006 2.0001372e-38
-0.076988578 -0.0047523812 0.99800003 1.9540394e-38
-0.075087622 -0.0047523812 0.99800003 1.6683106e-38
-0.072526664 -0.0047095241 0.98900002 1.3917237e-38
-0.070500001 -0.0047000004 0.98700005 1.1709183e-38
-0.068202861 -0.0046714288 0.98100007 1.0787226e-38
-0.066334285 -0.0046714288 0.98100007 1.0232251e-38
-0.064268574 -0.0046571433 0.97800004 1.0601033e-38
-0.062405713 -0.0046571433 0.97800004 9.861708e-39
-0.060542859 -0.0046571433 0.97800004 9.0319473e-39
-0.058500003 -0.0046428572 0.97500002 9.3102424e-39
-0.05664286 -0.0046428572 0.97500002 1.0877568e-38
-0.054673333 -0.0046333335 0.97300005 8.1099434e-39
-0.052820001 -0.0046333335 0.97300005 7.464574e-39
-0.050966669 -0.0046333335 0.97300005 8.1106174e-39
-0.048961904 -0.004619048 0.97000003 1.1521856e-38
-0.047114287 -0.004619048 0.97000003 1.041774e-38
-0.045266669 -0.004619048 0.97000003 4.4250245e-39
-0.043419048 -0.004619048 0.97000003 7.371347e-39
-0.041571431 -0.004619048 0.97000003 1.152015e-38
-0.039723814 -0.004619048 0.97000003 1.078177e-38
-0.037876189 -0.004619048 0.97000003 7.6471183e-39
-0.036140002 -0.0046333335 0.97300005 7.5571578e-39
-0.03428667 -0.0046333335 0.97300005 8.3869184e-39
-0.032433335 -0.0046333335 0.97300005 9.1215744e-39
-0.030580001 -0.0046333335 0.97300005 1.0965487e-38
-0.028726669 -0.0046333335 0.97300005 1.1059098e-38
-0.02701143 -0.0046571433 0.97800004 1.1059098e-38
-0.025148572 -0.0046571433 0.97800004 1.1521162e-38
-0.023357144 -0.0046714288 0.98100007 1.2443118e-38
-0.021488573 -0.0046714288 0.98100007 1.3178214e-38
-0.019620001 -0.0046714288 0.98100007 1.6958235e-38
-0.017751429 -0.0046714288 0.98100007 1.7050719e-38
-0.015931429 -0.0046857144 0.98400003 1.7235111e-38
-0.014057143 -0.0046857144 0.98400003 1.7326956e-38
-0.01222 -0.0047000004 0.98700005 1.7419152e-38
-0.010360952 -0.0047095241 0.98900002 1.6865993e-38
-0.0085028578 -0.0047238097 0.99200004 1.6128428e-38
-0.0066333339 -0.0047380957 0.99500006 1.631282e-38
-0.0047380957 -0.0047380957 0.99500006 2.2397731e-38
-0.086493336 -0.0028514285 0.99800003 2.2676121e-38
-0.08459238 -0.0028514285 0.99800003 2.2860513e-38
-0.082691431 -0.0028514285 0.99800003 2.2400266e-38
-0.080547623 -0.0028428573 0.99500006 2.0648549e-38
-0.078652389 -0.0028428573 0.99500006 2.0371231e-38
-0.076988578 -0.0028514285 0.99800003 1.9172688e-38
-0.075087622 -0.0028514285 0.99800003 1.8895397e-38
-0.072526664 -0.0028257142 0.98900002 1.6959289e-38
-0.070500001 -0.0028200001 0.98700005 1.5761801e-38
-0.068411432 -0.0028114286 0.98400003 1.345691e-38
-0.066334285 -0.0028028574 0.98100007 1.2537099e-38
-0.064465716 -0.0028028574 0.98100007 1.189173e-38
-0.062597148 -0.0028028574 0.98100007 1.0880481e-38
-0.060542859 -0.0027942858 0.97800004 9.6819382e-39
-0.058500003 -0.0027857143 0.97500002 9.5864734e-39
-0.05664286 -0.0027857143 0.97500002 1.0047452e-38
-0.054673333 -0.0027800002 0.97300005 7.7392929e-39
-0.052820001 -0.0027800002 0.97300005 8.2002641e-39
-0.050966669 -0.0027800002 0.97300005 7.6488924e-39
-0.049113337 -0.0027800002 0.97300005 1.1336704e-38
-0.047260001 -0.0027800002 0.97300005 9.0394625e-39
-0.045406669 -0.0027800002 0.97300005 7.1955499e-39
-0.043553334 -0.0027800002 0.97300005 9.3106446e-39
-0.041700002 -0.0027800002 0.97300005 1.0693579e-38
-0.039723814 -0.0027714286 0.97000003 9.8616478e-39
-0.037876189 -0.0027714286 0.97000003 6.4504094e-39
-0.036140002 -0.0027800002 0.97300005 6.8191443e-39
-0.03428667 -0.0027800002 0.97300005 9.1240337e-39
-0.032499999 -0.0027857143 0.97500002 1.0134265e-38
-0.030642856 -0.0027857143 0.97500002 1.1978177e-38
-0.028785715 -0.0027857143 0.97500002 1.2530985e-38
-0.02701143 -0.0027942858 0.97800004 1.2530985e-38
-0.025225716 -0.0028028574 0.98100007 1.3177076e-38
-0.023357144 -0.0028028574 0.98100007 1.4099033e-38
-0.021488573 -0.0028028574 0.98100007 1.5297237e-38
-0.019620001 -0.0028028574 0.98100007 1.7048954e-38
-0.017805716 -0.0028114286 0.98400003 1.6589754e-38
-0.015931429 -0.0028114286 0.98400003 1.668195e-38
-0.0141 -0.0028200001 0.98700005 1.7049656e-38
-0.012244762 -0.0028257142 0.98900002 1.7510634e-38
-0.010360952 -0.0028257142 0.98900002 1.649828e-38
-0.0085028578 -0.0028342858 0.99200004 1.5945106e-38
-0.0066333339 -0.0028428573 0.99500006 1.6405015e-38
-0.0047380957 -0.0028428573 0.99500006 2.2028949e-38
-0.086753339 -0.00095333339 1.001 2.2767241e-38
-0.084846668 -0.00095333339 1.001 2.2767241e-38
-0.082940005 -0.00095333339 1.001 2.2400263e-38
-0.081033342 -0.00095333339 1.001 2.0648546e-38
-0.079126664 -0.00095333339 1.001 2.0187194e-38
-0.07722 -0.00095333339 1.001 1.9449629e-38
-0.075087622 -0.00095047621 0.99800003 1.9079042e-38
-0.072526664 -0.00094190479 0.98900002 1.9079042e-38
-0.070500001 -0.00094000006 0.98700005 1.8434395e-38
-0.068411432 -0.00093714288 0.98400003 1.8065613e-38
-0.066334285 -0.00093428575 0.98100007 1.6869215e-38
-0.064465716 -0.00093428575 0.98100007 1.6592628e-38
-0.062597148 -0.00093428575 0.98100007 1.603982e-38
-0.060542859 -0.00093142863 0.97800004 1.5671037e-38
-0.058680002 -0.00093142863 0.97800004 1.5209001e-38
-0.05664286 -0.00092857145 0.97500002 1.4563632e-38
-0.054785714 -0.00092857145 0.97500002 1.5022418e-38
-0.052928571 -0.00092857145 0.97500002 1.520681e-38
-0.051071428 -0.00092857145 0.97500002 1.4839456e-38
-0.049214289 -0.00092857145 0.97500002 1.2995544e-38
-0.047357146 -0.00092857145 0.97500002 1.2720072e-38
-0.045500003 -0.00092857145 0.97500002 1.2720072e-38
-0.043553334 -0.00092666672 0.97300005 1.4193396e-38
-0.041700002 -0.00092666672 0.97300005 1.4654374e-38
-0.039723814 -0.00092380954 0.97000003 1.4285984e-38
-0.037876189 -0.00092380954 0.97000003 1.3825006e-38
-0.036140002 -0.00092666672 0.97300005 1.4011148e-38
-0.03428667 -0.00092666672 0.97300005 1.4656517e-38
-0.032499999 -0.00092857145 0.97500002 1.437888e-38
-0.030642856 -0.00092857145 0.97500002 1.4655467e-38
-0.028785715 -0.00092857145 0.97500002 1.4378864e-38
-0.02701143 -0.00093142863 0.97800004 1.4102277e-38
-0.025225716 -0.00093428575 0.98100007 1.4469634e-38
-0.023357144 -0.00093428575 0.98100007 1.6497938e-38
-0.021488573 -0.00093428575 0.98100007 1.6405375e-38
-0.019620001 -0.00093428575 0.98100007 1.6774158e-38
-0.017805716 -0.00093714288 0.98400003 1.6774501e-38
-0.015980002 -0.00094000006 0.98700005 1.659011e-38
-0.0141 -0.00094000006 0.98700005 1.6957104e-38
-0.012244762 -0.00094190479 0.98900002 1.7786865e-38
-0.010392382 -0.00094476191 0.99200004 1.6497546e-38
-0.0085285725 -0.00094761909 0.99500006 1.6128763e-38
-0.0066333339 -0.00094761909 0.99500006 1.6404652e-38
-0.0047380957 -0.00094761909 0.99500006 2.1751999e-38
-0.0028428573 -0.00094761909 0.99500006 2.2768672e-38
-0.086753339 0.00095333339 1.001 2.2491377e-38
-0.084846668 0.00095333339 1.001 2.286016e-38
-0.082940005 0.00095333339 1.001 2.2769772e-38
-0.081033342 0.00095333339 1.001 2.0925859e-38
-0.079126664 0.00095333339 1.001 2.0095375e-38
-0.07722 0.00095333339 1.001 1.9265615e-38
-0.075087622 0.00095047621 0.99800003 1.944854e-38
-0.072526664 0.00094190479 0.98900002 1.9264149e-38
-0.070500001 0.00094000006 0.98700005 1.898648e-38
-0.068411432 0.00093714288 0.98400003 1.8341111e-38
-0.066537142 0.00093714288 0.98400003 1.7788275e-38
-0.064465716 0.00093428575 0.98100007 1.7419492e-38
-0.062597148 0.00093428575 0.98100007 1.7328025e-38
-0.060542859 0.00093142863 0.97800004 1.6313873e-38
-0.058680002 0.00093142863 0.97800004 1.6405368e-38
-0.05664286 0.00092857145 0.97500002 1.6036586e-38
-0.054785714 0.00092857145 0.97500002 1.6128776e-38
-0.052928571 0.00092857145 0.97500002 1.5759993e-38
-0.051071428 0.00092857145 0.97500002 1.6220275e-38
-0.049214289 0.00092857145 0.97500002 1.5851492e-38
-0.047357146 0.00092857145 0.97500002 1.6035531e-38
-0.045500003 0.00092857145 0.97500002 1.5943335e-38
-0.043642856 0.00092857145 0.97500002 1.5942982e-38
-0.041785713 0.00092857145 0.97500002 1.5574199e-38
-0.039846666 0.00092666672 0.97300005 1.5943004e-38
-0.037993334 0.00092666672 0.97300005 1.4928852e-38
-0.036214288 0.00092857145 0.97500002 1.47473e-38
-0.034357142 0.00092857145 0.97500002 1.4562909e-38
-0.032499999 0.00092857145 0.97500002 1.3826435e-38
-0.030642856 0.00092857145 0.97500002 1.3181066e-38
-0.028785715 0.00092857145 0.97500002 1.281262e-38
-0.02701143 0.00093142863 0.97800004 1.281262e-38
-0.025225716 0.00093428575 0.98100007 1.4653658e-38
-0.023357144 0.00093428575 0.98100007 1.6589767e-38
-0.021488573 0.00093428575 0.98100007 1.6405029e-38
-0.019620001 0.00093428575 0.98100007 1.6681616e-38
-0.017805716 0.00093714288 0.98400003 1.6773795e-38
-0.015980002 0.00094000006 0.98700005 1.6773795e-38
-0.014128571 0.00094190479 0.98900002 1.6773798e-38
-0.012281906 0.00094476191 0.99200004 1.7419167e-38
-0.010392382 0.00094476191 0.99200004 1.6313167e-38
-0.0085285725 0.00094761909 0.99500006 1.5944385e-38
-0.0066333339 0.00094761909 0.99500006 1.6496129e-38
-0.0047380957 0.00094761909 0.99500006 2.1843475e-38
-0.0028428573 0.00094761909 0.99500006 2.239881e-38
-0.084846668 0.0028600001 1.001 2.276833e-38
-0.082940005 0.0028600001 1.001 2.2676484e-38
-0.081033342 0.0028600001 1.001 2.1662332e-38
-0.079126664 0.0028600001 1.001 2.0279779e-38
-0.07722 0.0028600001 1.001 1.9173432e-38
-0.075087622 0.0028514285 0.99800003 1.9356344e-38
-0.072526664 0.0028257142 0.98900002 1.9171953e-38
-0.070500001 0.0028200001 0.98700005 1.8432225e-38
-0.068411432 0.0028114286 0.98400003 1.6864899e-38
-0.066537142 0.0028114286 0.98400003 1.6956318e-38
-0.064465716 0.0028028574 0.98100007 1.7325101e-38
-0.062597148 0.0028028574 0.98100007 1.5852867e-38
-0.060542859 0.0027942858 0.97800004 1.3179194e-38
-0.058680002 0.0027942858 0.97800004 1.2719673e-38
-0.056817144 0.0027942858 0.97800004 1.2627477e-38
-0.054785714 0.0027857143 0.97500002 1.2627114e-38
-0.052928571 0.0027857143 0.97500002 1.2258332e-38
-0.051071428 0.0027857143 0.97500002 1.142753e-38
-0.049214289 0.0027857143 0.97500002 1.0505574e-38
-0.047357146 0.0027857143 0.97500002 1.0690002e-38
-0.045500003 0.0027857143 0.97500002 1.2257327e-38
-0.043642856 0.0027857143 0.97500002 9.6758748e-39
-0.041785713 0.0027857143 0.97500002 9.5836792e-39
-0.039846666 0.0027800002 0.97300005 8.7553604e-39
-0.037993334 0.0027800002 0.97300005 7.8334042e-39
-0.036214288 0.0027857143 0.97500002 7.8358508e-39
-0.034357142 0.0027857143 0.97500002 8.3890246e-39
-0.032499999 0.0027857143 0.97500002 7.8358648e-39
-0.030642856 0.0027857143 0.97500002 6.4529304e-39
-0.028785715 0.0027857143 0.97500002 7.0053769e-39
-0.02701143 0.0027942858 0.97800004 1.0969789e-38
-0.025225716 0.0028028574 0.98100007 1.3639874e-38
-0.023357144 0.0028028574 0.98100007 1.6682329e-38
-0.021488573 0.0028028574 0.98100007 1.66809e-38
-0.019680001 0.0028114286 0.98400003 1.6496509e-38
-0.017805716 0.0028114286 0.98400003 1.6773432e-38
-0.015980002 0.0028200001 0.98700005 1.6865628e-38
-0.014128571 0.0028257142 0.98900002 1.6957834e-38
-0.012281906 0.0028342858 0.99200004 1.7695399e-38
-0.010392382 0.0028342858 0.99200004 1.6406094e-38
-0.0085285725 0.0028428573 0.99500006 1.5576333e-38
-0.0066333339 0.0028428573 0.99500006 1.6589052e-38
-0.0047380957 0.0028428573 0.99500006 2.1567616e-38
-0.0028514285 0.0028514285 0.99800003 2.239881e-38
-0.082940005 0.0047666668 1.001 2.2307705e-38
-0.081033342 0.0047666668 1.001 2.1477944e-38
-0.079126664 0.0047666668 1.001 2.0279764e-38
-0.07722 0.0047666668 1.001 1.9265612e-38
-0.075087622 0.0047523812 0.99800003 1.9356707e-38
-0.072526664 0.0047095241 0.98900002 1.8895729e-38
-0.070500001 0.0047000004 0.98700005 1.8340016e-38
-0.068620004 0.0047000004 0.98700005 1.7049278e-38
-0.066537142 0.0046857144 0.98400003 1.6678289e-38
-0.064662859 0.0046857144 0.98400003 1.6862681e-38
-0.062597148 0.0046714288 0.98100007 1.5115671e-38
-0.060542859 0.0046571433 0.97800004 1.2257606e-38
-0.058680002 0.0046571433 0.97800004 1.0786429e-38
-0.056817144 0.0046571433 0.97800004 1.1800581e-38
-0.054954287 0.0046571433 0.97800004 1.1708761e-38
-0.052928571 0.0046428572 0.97500002 9.7726527e-39
-0.051071428 0.0046428572 0.97500002 8.8503559e-39
-0.049214289 0.0046428572 0.97500002 8.2049865e-39
-0.047357146 0.0046428572 0.97500002 7.1948437e-39
-0.045500003 0.0046428572 0.97500002 7.1948437e-39
-0.043642856 0.0046428572 0.97500002 6.6449195e-39
-0.041785713 0.0046428572 0.97500002 6.5527239e-39
-0.03992857 0.0046428572 0.97500002 5.4471204e-39
-0.038071431 0.0046428572 0.97500002 3.6032078e-39
-0.036214288 0.0046428572 0.97500002 4.705493e-39
-0.034357142 0.0046428572 0.97500002 6.4572071e-39
-0.032499999 0.0046428572 0.97500002 6.3650536e-39
-0.030642856 0.0046428572 0.97500002 5.4430973e-39
-0.028785715 0.0046428572 0.97500002 6.0858953e-39
-0.02701143 0.0046571433 0.97800004 1.1525426e-38
-0.025225716 0.0046714288 0.98100007 1.3732408e-38
-0.023357144 0.0046714288 0.98100007 1.6313886e-38
-0.021488573 0.0046714288 0.98100007 1.6587623e-38
-0.019680001 0.0046857144 0.98400003 1.6679818e-38
-0.017805716 0.0046857144 0.98400003 1.6681236e-38
-0.015980002 0.0047000004 0.98700005 1.6865628e-38
-0.014128571 0.0047095241 0.98900002 1.6957826e-38
-0.012281906 0.0047238097 0.99200004 1.7418804e-38
-0.010392382 0.0047238097 0.99200004 1.6498294e-38
-0.0085285725 0.0047380957 0.99500006 1.5576338e-38
-0.0066333339 0.0047380957 0.99500006 1.6865993e-38
-0.0047380957 0.0047380957 0.99500006 2.1660166e-38
-0.0028514285 0.0047523812 0.99800003 2.2398807e-38
-0.083685718 0.0067333328 1.01 2.2306986e-38
-0.081276193 0.0066933334 1.0040001 2.1569421e-38
-0.079126664 0.0066733337 1.001 2.0739642e-38
-0.07722 0.0066733337 1.001 1.972549e-38
-0.075087622 0.0066533335 0.99800003 1.9448184e-38
-0.072526664 0.0065933336 0.98900002 1.889501e-38
-0.070500001 0.0065800003 0.98700005 1.8340016e-38
-0.068620004 0.0065800003 0.98700005 1.7141473e-38
-0.066537142 0.0065600001 0.98400003 1.6586479e-38
-0.064662859 0.0065600001 0.98400003 1.6586479e-38
-0.062597148 0.0065400004 0.98100007 1.4747629e-38
-0.060728572 0.0065400004 0.98100007 1.2166152e-38
-0.058680002 0.0065200003 0.97800004 1.14329e-38
-0.056817144 0.0065200003 0.97800004 1.1709487e-38
-0.054954287 0.0065200003 0.97800004 1.1341055e-38
-0.052928571 0.0065000001 0.97500002 9.3127507e-39
-0.051071428 0.0065000001 0.97500002 8.0234791e-39
-0.049214289 0.0065000001 0.97500002 8.3922616e-39
-0.047357146 0.0065000001 0.97500002 7.472525e-39
-0.045500003 0.0065000001 0.97500002 5.8130036e-39
-0.043642856 0.0065000001 0.97500002 6.0921367e-39
-0.041785713 0.0065000001 0.97500002 7.3828755e-39
-0.03992857 0.0065000001 0.97500002 7.0115468e-39
-0.038071431 0.0065000001 0.97500002 3.969091e-39
-0.036214288 0.0065000001 0.97500002 4.3403398e-39
-0.034357142 0.0065000001 0.97500002 6.3686437e-39
-0.032499999 0.0065000001 0.97500002 6.9175113e-39
-0.030642856 0.0065000001 0.97500002 6.2721419e-39
-0.028785715 0.0065000001 0.97500002 6.5469169e-39
-0.027094286 0.0065400004 0.98100007 1.1802068e-38
-0.025225716 0.0065400004 0.98100007 1.4471065e-38
-0.023357144 0.0065400004 0.98100007 1.5853999e-38
-0.021488573 0.0065400004 0.98100007 1.6680168e-38
-0.019680001 0.0065600001 0.98400003 1.6680168e-38
-0.017805716 0.0065600001 0.98400003 1.668052e-38
-0.015980002 0.0065800003 0.98700005 1.6864911e-38
-0.014128571 0.0065933336 0.98900002 1.7049653e-38
-0.012281906 0.0066133337 0.99200004 1.7510631e-38
-0.010392382 0.0066133337 0.99200004 1.6497927e-38
-0.0085285725 0.0066333339 0.99500006 1.4930601e-38
-0.0066333339 0.0066333339 0.99500006 1.6497208e-38
-0.0047380957 0.0066333339 0.99500006 2.1752359e-38
-0.0028514285 0.0066533335 0.99800003 2.2214416e-38
-0.083685718 0.0086571425 1.01 2.2123679e-38
-0.081519052 0.0086314287 1.0070001 2.1293918e-38
-0.079363815 0.0086057149 1.0040001 2.1016229e-38
-0.07722 0.0085800011 1.001 1.9541099e-38
-0.075087622 0.0085542863 0.99800003 1.9539667e-38
-0.072746672 0.0085028578 0.99200004 1.9078688e-38
-0.070642859 0.008477143 0.98900002 1.8248184e-38
-0.068620004 0.0084600002 0.98700005 1.6865249e-38
-0.066537142 0.0084342854 0.98400003 1.6495709e-38
-0.064662859 0.0084342854 0.98400003 1.6772295e-38
-0.062788568 0.0084342854 0.98400003 1.4287727e-38
-0.060728572 0.0084085716 0.98100007 1.1890641e-38
-0.058860004 0.0084085716 0.98100007 1.1617291e-38
-0.056817144 0.0083828568 0.97800004 1.1801682e-38
-0.054954287 0.0083828568 0.97800004 1.0604215e-38
-0.053091429 0.0083828568 0.97800004 9.0368897e-39
-0.051228572 0.0083828568 0.97800004 7.9309373e-39
-0.049365718 0.0083828568 0.97800004 8.4841111e-39
-0.04750286 0.0083828568 0.97800004 7.7487587e-39
-0.045500003 0.008357143 0.97500002 5.9048461e-39
-0.043642856 0.008357143 0.97500002 6.0917457e-39
-0.041785713 0.008357143 0.97500002 7.6590714e-39
-0.03992857 0.008357143 0.97500002 7.9324087e-39
-0.038071431 0.008357143 0.97500002 4.4289748e-39
-0.036214288 0.008357143 0.97500002 4.3395943e-39
-0.034357142 0.008357143 0.97500002 6.5522895e-39
-0.032499999 0.008357143 0.97500002 7.0100432e-39
-0.030642856 0.008357143 0.97500002 6.1802825e-39
-0.028785715 0.008357143 0.97500002 6.087724e-39
-0.027094286 0.0084085716 0.98100007 1.3739961e-38
-0.025225716 0.0084085716 0.98100007 1.4841301e-38
-0.023357144 0.0084085716 0.98100007 1.5855453e-38
-0.021488573 0.0084085716 0.98100007 1.6772716e-38
-0.019680001 0.0084342854 0.98400003 1.668052e-38
-0.017860001 0.0084600002 0.98700005 1.6496845e-38
-0.015980002 0.0084600002 0.98700005 1.7050019e-38
-0.014128571 0.008477143 0.98900002 1.7050719e-38
-0.012281906 0.0085028578 0.99200004 1.7327306e-38
-0.010392382 0.0085028578 0.99200004 1.6498287e-38
-0.0085285725 0.0085285725 0.99500006 1.5668526e-38
-0.0066333339 0.0085285725 0.99500006 1.6220624e-38
-0.0047380957 0.0085285725 0.99500006 2.1475775e-38
-0.0028428573 0.0085285725 0.99500006 2.2030025e-38
-0.083685718 0.010580952 1.01 2.230807e-38
-0.081519052 0.010549524 1.0070001 2.083294e-38
-0.079363815 0.010518095 1.0040001 2.0185749e-38
-0.07722 0.010486667 1.001 1.954038e-38
-0.075087622 0.010455239 0.99800003 1.9540034e-38
-0.072746672 0.010392382 0.99200004 1.8525882e-38
-0.070642859 0.010360952 0.98900002 1.8064155e-38
-0.068620004 0.010340001 0.98700005 1.649683e-38
-0.066740006 0.010340001 0.98700005 1.6773006e-38
-0.064662859 0.010308572 0.98400003 1.7233984e-38
-0.062788568 0.010308572 0.98400003 1.502564e-38
-0.060728572 0.010277143 0.98100007 1.2628554e-38
-0.058860004 0.010277143 0.98100007 1.235378e-38
-0.056817144 0.010245714 0.97800004 1.2722563e-38
-0.054954287 0.010245714 0.97800004 1.0879749e-38
-0.053091429 0.010245714 0.97800004 9.4046185e-39
-0.051228572 0.010245714 0.97800004 8.0224519e-39
-0.049365718 0.010245714 0.97800004 8.2068432e-39
-0.04750286 0.010245714 0.97800004 8.2997745e-39
-0.045639999 0.010245714 0.97800004 8.1153832e-39
-0.043777145 0.010245714 0.97800004 8.2090012e-39
-0.041914288 0.010245714 0.97800004 8.5777837e-39
-0.04005143 0.010245714 0.97800004 8.3926413e-39
-0.038188573 0.010245714 0.97800004 6.4565331e-39
-0.036214288 0.010214286 0.97500002 6.2735964e-39
-0.034357142 0.010214286 0.97500002 8.0253134e-39
-0.032499999 0.010214286 0.97500002 8.2082137e-39
-0.030737145 0.010245714 0.97800004 7.8394311e-39
-0.028874286 0.010245714 0.97800004 9.032648e-39
-0.027094286 0.010277143 0.98100007 1.511756e-38
-0.025225716 0.010277143 0.98100007 1.5945116e-38
-0.023357144 0.010277143 0.98100007 1.6313899e-38
-0.021488573 0.010277143 0.98100007 1.6588678e-38
-0.019680001 0.010308572 0.98400003 1.6588678e-38
-0.017860001 0.010340001 0.98700005 1.6589043e-38
-0.01601238 0.010360952 0.98900002 1.7050022e-38
-0.014128571 0.010360952 0.98900002 1.695888e-38
-0.012281906 0.010392382 0.99200004 1.7696445e-38
-0.010392382 0.010392382 0.99200004 1.6407173e-38
-0.0085285725 0.01042381 0.99500006 1.5577412e-38
-0.0066333339 0.01042381 0.99500006 1.5945493e-38
-0.0047380957 0.01042381 0.99500006 2.0924057e-38
-0.0028600001 0.010486667 1.001 2.2215498e-38
-0.083685718 0.012504762 1.01 2.230807e-38
-0.081761904 0.012504762 1.01 2.0095375e-38
-0.07960096 0.01246762 1.0070001 1.9908436e-38
-0.07745143 0.012430477 1.0040001 1.9263067e-38
-0.075087622 0.01235619 0.99800003 1.9354912e-38
-0.072746672 0.012281906 0.99200004 1.8801739e-38
-0.070642859 0.012244762 0.98900002 1.8064524e-38
-0.068759046 0.012244762 0.98900002 1.7050372e-38
-0.066740006 0.01222 0.98700005 1.668193e-38
-0.064860001 0.01222 0.98700005 1.6589734e-38
-0.062788568 0.012182858 0.98400003 1.5208608e-38
-0.060728572 0.012145716 0.98100007 1.3088108e-38
-0.058860004 0.012145716 0.98100007 1.2537089e-38
-0.056817144 0.012108572 0.97800004 1.2721481e-38
-0.054954287 0.012108572 0.97800004 1.1616237e-38
-0.053091429 0.012108572 0.97800004 1.0048912e-38
-0.051228572 0.012108572 0.97800004 9.8645414e-39
-0.049365718 0.012108572 0.97800004 9.7723458e-39
-0.04750286 0.012108572 0.97800004 9.5883301e-39
-0.045639999 0.012108572 0.97800004 9.7727214e-39
-0.043777145 0.012108572 0.97800004 9.7741437e-39
-0.041914288 0.012108572 0.97800004 9.3131655e-39
-0.04005143 0.012108572 0.97800004 8.7610707e-39
-0.038188573 0.012108572 0.97800004 7.193745e-39
-0.036325715 0.012108572 0.97800004 7.1926534e-39
-0.034462858 0.012108572 0.97800004 8.2068053e-39
-0.032600004 0.012108572 0.97800004 8.2078451e-39
-0.030737145 0.012108572 0.97800004 8.5766276e-39
-0.028874286 0.012108572 0.97800004 1.2348407e-38
-0.027094286 0.012145716 0.98100007 1.6128428e-38
-0.025225716 0.012145716 0.98100007 1.6036586e-38
-0.023357144 0.012145716 0.98100007 1.6405368e-38
-0.021554286 0.012182858 0.98400003 1.6589041e-38
-0.01974 0.01222 0.98700005 1.6589041e-38
-0.017860001 0.01222 0.98700005 1.6496848e-38
-0.01601238 0.012244762 0.98900002 1.7050022e-38
-0.014128571 0.012244762 0.98900002 1.6958529e-38
-0.012281906 0.012281906 0.99200004 1.7511703e-38
-0.01042381 0.012319048 0.99500006 1.6776313e-38
-0.0085285725 0.012319048 0.99500006 1.557777e-38
-0.0066533335 0.01235619 0.99800003 1.594584e-38
-0.0047523812 0.01235619 0.99800003 2.1108796e-38
-0.0028600001 0.012393334 1.001 2.2215146e-38
-0.00095333339 0.012393334 1.001 2.2860515e-38
-0.085863806 0.014471428 1.013 2.3136379e-38
-0.083934292 0.014471428 1.013 2.2584292e-38
-0.081761904 0.014428571 1.01 2.0279401e-38
-0.07960096 0.014385715 1.0070001 1.944855e-38
-0.07745143 0.014342858 1.0040001 1.8157811e-38
-0.075313337 0.0143 1.001 1.8525852e-38
-0.073186666 0.014257143 0.99800003 1.8802439e-38
-0.070642859 0.014128571 0.98900002 1.8340395e-38
-0.068759046 0.014128571 0.98900002 1.8340395e-38
-0.066740006 0.0141 0.98700005 1.7235143e-38
-0.064860001 0.0141 0.98700005 1.6220991e-38
-0.062980004 0.0141 0.98700005 1.5300798e-38
-0.060914289 0.014057143 0.98400003 1.3272494e-38
-0.058860004 0.014014287 0.98100007 1.2997714e-38
-0.056817144 0.013971429 0.97800004 1.3274301e-38
-0.054954287 0.013971429 0.97800004 1.2444217e-38
-0.053091429 0.013971429 0.97800004 1.2536413e-38
-0.051228572 0.013971429 0.97800004 1.2076883e-38
-0.049365718 0.013971429 0.97800004 1.1800297e-38
-0.04750286 0.013971429 0.97800004 1.1616261e-38
-0.045639999 0.013971429 0.97800004 1.1985044e-38
-0.043777145 0.013971429 0.97800004 1.1801006e-38
-0.041914288 0.013971429 0.97800004 1.2169788e-38
-0.04005143 0.013971429 0.97800004 1.1524063e-38
-0.038188573 0.013971429 0.97800004 1.0878693e-38
-0.036325715 0.013971429 0.97800004 1.1246753e-38
-0.034462858 0.013971429 0.97800004 1.1246753e-38
-0.032600004 0.013971429 0.97800004 1.2352342e-38
-0.030737145 0.013971429 0.97800004 1.3182103e-38
-0.028874286 0.013971429 0.97800004 1.3639896e-38
-0.027094286 0.014014287 0.98100007 1.6129178e-38
-0.025225716 0.014014287 0.98100007 1.6312817e-38
-0.023428572 0.014057143 0.98400003 1.6589404e-38
-0.021554286 0.014057143 0.98400003 1.6497564e-38
-0.01974 0.0141 0.98700005 1.6313173e-38
-0.01789619 0.014128571 0.98900002 1.658976e-38
-0.01601238 0.014128571 0.98900002 1.741952e-38
-0.014171429 0.014171429 0.99200004 1.7235479e-38
-0.012281906 0.014171429 0.99200004 1.7327675e-38
-0.01042381 0.014214287 0.99500006 1.6684108e-38
-0.0085542863 0.014257143 0.99800003 1.5669956e-38
-0.0066533335 0.014257143 0.99800003 1.6221703e-38
-0.0047666668 0.0143 1.001 2.1476854e-38
-0.0028600001 0.0143 1.001 2.2215495e-38
-0.088313334 0.016498096 1.0190001 2.276723e-38
-0.085863806 0.016400954 1.013 2.2951621e-38
-0.083934292 0.016400954 1.013 2.2769046e-38
-0.081761904 0.016352382 1.01 2.0832938e-38
-0.07960096 0.016303811 1.0070001 1.9540746e-38
-0.07745143 0.016255239 1.0040001 1.797342e-38
-0.075313337 0.016206667 1.001 1.6958529e-38
-0.073186666 0.016158095 0.99800003 1.7696094e-38
-0.070857145 0.016060952 0.99200004 1.8432931e-38
-0.068759046 0.01601238 0.98900002 1.8432931e-38
-0.066740006 0.015980002 0.98700005 1.7604642e-38
-0.064860001 0.015980002 0.98700005 1.6406098e-38
-0.062980004 0.015980002 0.98700005 1.557776e-38
-0.060914289 0.015931429 0.98400003 1.4747999e-38
-0.059039999 0.015931429 0.98400003 1.4656167e-38
-0.056991432 0.015882859 0.98100007 1.3826406e-38
-0.055122864 0.015882859 0.98100007 1.3641313e-38
-0.053091429 0.015834287 0.97800004 1.3364726e-38
-0.051228572 0.015834287 0.97800004 1.2904829e-38
-0.049365718 0.015834287 0.97800004 1.2443851e-38
-0.04750286 0.015834287 0.97800004 1.1706991e-38
-0.045780003 0.015882859 0.98100007 1.2260165e-38
-0.043911431 0.015882859 0.98100007 1.2167248e-38
-0.042042863 0.015882859 0.98100007 1.2720421e-38
-0.040174287 0.015882859 0.98100007 1.2812623e-38
-0.038188573 0.015834287 0.97800004 1.2628231e-38
-0.036325715 0.015834287 0.97800004 1.262715e-38
-0.034462858 0.015834287 0.97800004 1.2903736e-38
-0.032600004 0.015834287 0.97800004 1.3548007e-38
-0.030737145 0.015834287 0.97800004 1.4008985e-38
-0.028874286 0.015834287 0.97800004 1.5205387e-38
-0.027094286 0.015882859 0.98100007 1.6496126e-38
-0.025302857 0.015931429 0.98400003 1.6037665e-38
-0.023428572 0.015931429 0.98400003 1.6222056e-38
-0.02162 0.015980002 0.98700005 1.6405015e-38
-0.019780001 0.01601238 0.98900002 1.6405015e-38
-0.01789619 0.01601238 0.98900002 1.6589404e-38
-0.01601238 0.01601238 0.98900002 1.7050382e-38
-0.014171429 0.016060952 0.99200004 1.6774867e-38
-0.012319048 0.016109524 0.99500006 1.6959258e-38
-0.01042381 0.016109524 0.99500006 1.6867057e-38
-0.0085542863 0.016158095 0.99800003 1.6037296e-38
-0.0066733337 0.016206667 1.001 1.6497564e-38
-0.0047666668 0.016206667 1.001 2.1476128e-38
-0.0028600001 0.016206667 1.001 2.1845641e-38
-0.088313334 0.018439047 1.0190001 2.2583199e-38
-0.086118095 0.018384762 1.016 2.276759e-38
-0.083934292 0.018330475 1.013 2.2676497e-38
-0.081761904 0.01827619 1.01 2.1477954e-38
-0.07960096 0.018221905 1.0070001 2.0186119e-38
-0.07745143 0.018167621 1.0040001 1.889538e-38
-0.075313337 0.018113334 1.001 1.7327702e-38
-0.073186666 0.018059047 0.99800003 1.714331e-38
-0.070857145 0.017950477 0.99200004 1.7052508e-38
-0.068759046 0.01789619 0.98900002 1.7329094e-38
-0.066875242 0.01789619 0.98900002 1.760499e-38
-0.064860001 0.017860001 0.98700005 1.7697186e-38
-0.062980004 0.017860001 0.98700005 1.7235859e-38
-0.061100006 0.017860001 0.98700005 1.7051468e-38
-0.059039999 0.017805716 0.98400003 1.6406819e-38
-0.056991432 0.017751429 0.98100007 1.6314623e-38
-0.055122864 0.017751429 0.98100007 1.6222776e-38
-0.053254288 0.017751429 0.98100007 1.5208624e-38
-0.051385716 0.017751429 0.98100007 1.5209001e-38
-0.049517147 0.017751429 0.98100007 1.5209001e-38
-0.047648571 0.017751429 0.98100007 1.5301902e-38
-0.045780003 0.017751429 0.98100007 1.5670684e-38
-0.043911431 0.017751429 0.98100007 1.5301902e-38
-0.042042863 0.017751429 0.98100007 1.5301902e-38
-0.040174287 0.017751429 0.98100007 1.5208627e-38
-0.038305718 0.017751429 0.98100007 1.5300823e-38
-0.036325715 0.017697142 0.97800004 1.5484491e-38
-0.034462858 0.017697142 0.97800004 1.5576687e-38
-0.032600004 0.017697142 0.97800004 1.5759996e-38
-0.030737145 0.017697142 0.97800004 1.5944387e-38
-0.028874286 0.017697142 0.97800004 1.5852545e-38
-0.027177144 0.017805716 0.98400003 1.6313523e-38
-0.025302857 0.017805716 0.98400003 1.6220974e-38
-0.023428572 0.017805716 0.98400003 1.6405365e-38
-0.02162 0.017860001 0.98700005 1.631318e-38
-0.019780001 0.01789619 0.98900002 1.6405375e-38
-0.01789619 0.01789619 0.98900002 1.6497924e-38
-0.016060952 0.017950477 0.99200004 1.6866707e-38
-0.014171429 0.017950477 0.99200004 1.6682668e-38
-0.012319048 0.018004762 0.99500006 1.6682668e-38
-0.010455239 0.018059047 0.99800003 1.6591176e-38
-0.0085800011 0.018113334 1.001 1.5761416e-38
-0.0066733337 0.018113334 1.001 1.6497208e-38
-0.0047809528 0.018167621 1.0040001 2.1567968e-38
-0.0028685716 0.018167621 1.0040001 2.1938559e-38
-0.088573337 0.020440001 1.0220001 2.2583201e-38
-0.086118095 0.02032 1.016 2.3044179e-38
-0.083934292 0.020260001 1.013 2.2769049e-38
-0.081761904 0.020199999 1.01 2.1109527e-38
-0.07960096 0.020140002 1.0070001 2.0554179e-38
-0.077682868 0.020140002 1.0070001 1.8341483e-38
-0.075539045 0.020080002 1.0040001 1.8157092e-38
-0.073406667 0.020020001 1.001 1.7235136e-38
-0.070857145 0.01984 0.99200004 1.5303687e-38
-0.068967618 0.01984 0.99200004 1.650223e-38
-0.066875242 0.019780001 0.98900002 1.7328775e-38
-0.064860001 0.01974 0.98700005 1.7513166e-38
-0.062980004 0.01974 0.98700005 1.7603558e-38
-0.061100006 0.01974 0.98700005 1.7326971e-38
-0.059039999 0.019680001 0.98400003 1.686599e-38
-0.057165716 0.019680001 0.98400003 1.6773795e-38
-0.055122864 0.019620001 0.98100007 1.6499014e-38
-0.053254288 0.019620001 0.98100007 1.5577058e-38
-0.051385716 0.019620001 0.98100007 1.5577412e-38
-0.049517147 0.019620001 0.98100007 1.5577412e-38
-0.047648571 0.019620001 0.98100007 1.5577407e-38
-0.045780003 0.019620001 0.98100007 1.5669602e-38
-0.043911431 0.019620001 0.98100007 1.5577424e-38
-0.042042863 0.019620001 0.98100007 1.5485228e-38
-0.040174287 0.019620001 0.98100007 1.5759999e-38
-0.038305718 0.019620001 0.98100007 1.5759999e-38
-0.036437146 0.019620001 0.98100007 1.61277e-38
-0.034568571 0.019620001 0.98100007 1.6035504e-38
-0.032700002 0.019620001 0.98100007 1.5851829e-38
-0.03083143 0.019620001 0.98100007 1.6128416e-38
-0.028962858 0.019620001 0.98100007 1.5944378e-38
-0.027177144 0.019680001 0.98400003 1.6128769e-38
-0.025380002 0.01974 0.98700005 1.5944387e-38
-0.023500001 0.01974 0.98700005 1.631317e-38
-0.02162 0.01974 0.98700005 1.6405375e-38
-0.019780001 0.019780001 0.98900002 1.6405375e-38
-0.01789619 0.019780001 0.98900002 1.6406444e-38
-0.016060952 0.01984 0.99200004 1.649864e-38
-0.014171429 0.01984 0.99200004 1.5946543e-38
-0.012319048 0.0199 0.99500006 1.6499716e-38
-0.010455239 0.019959999 0.99800003 1.6683384e-38
-0.0085800011 0.020020001 1.001 1.5853624e-38
-0.0066733337 0.020020001 1.001 1.6496845e-38
-0.0047809528 0.020080002 1.0040001 2.1383213e-38
-0.0028685716 0.020080002 1.0040001 2.2030755e-38
-0.083934292 0.022189524 1.013 2.2492099e-38
-0.081761904 0.022123808 1.01 2.055599e-38
-0.07960096 0.022058096 1.0070001 2.0095349e-38
-0.077682868 0.022058096 1.0070001 1.7145088e-38
-0.075539045 0.021992382 1.0040001 1.7329487e-38
-0.073406667 0.021926668 1.001 1.7513878e-38
-0.07128571 0.021860953 0.99800003 1.6777043e-38
-0.068967618 0.021729525 0.99200004 1.6961434e-38
-0.066875242 0.021663809 0.98900002 1.7696118e-38
-0.064991429 0.021663809 0.98900002 1.7788314e-38
-0.063107617 0.021663809 0.98900002 1.7786858e-38
-0.061100006 0.02162 0.98700005 1.732588e-38
-0.059220001 0.02162 0.98700005 1.6865978e-38
-0.057165716 0.021554286 0.98400003 1.6589391e-38
-0.055291429 0.021554286 0.98400003 1.6497914e-38
-0.053417142 0.021554286 0.98400003 1.5760349e-38
-0.05154286 0.021554286 0.98400003 1.5852192e-38
-0.049668573 0.021554286 0.98400003 1.6036583e-38
-0.047794286 0.021554286 0.98400003 1.5852189e-38
-0.045919999 0.021554286 0.98400003 1.5759993e-38
-0.044045717 0.021554286 0.98400003 1.5760023e-38
-0.04217143 0.021554286 0.98400003 1.5575631e-38
-0.040297143 0.021554286 0.98400003 1.5851478e-38
-0.03842286 0.021554286 0.98400003 1.5851478e-38
-0.03654857 0.021554286 0.98400003 1.5943306e-38
-0.034568571 0.021488573 0.98100007 1.585111e-38
-0.032700002 0.021488573 0.98100007 1.5851473e-38
-0.030925713 0.021554286 0.98400003 1.6589038e-38
-0.029051431 0.021554286 0.98400003 1.603657e-38
-0.02726 0.02162 0.98700005 1.5944375e-38
-0.025380002 0.02162 0.98700005 1.6128063e-38
-0.023500001 0.02162 0.98700005 1.6496845e-38
-0.021663809 0.021663809 0.98900002 1.6496848e-38
-0.019780001 0.021663809 0.98900002 1.6589043e-38
-0.017950477 0.021729525 0.99200004 1.659011e-38
-0.016060952 0.021729525 0.99200004 1.6774501e-38
-0.014214287 0.021795239 0.99500006 1.6589754e-38
-0.01235619 0.021860953 0.99800003 1.7142928e-38
-0.010486667 0.021926668 1.001 1.6959258e-38
-0.0085800011 0.021926668 1.001 1.6037302e-38
-0.0066733337 0.021926668 1.001 1.6589043e-38
-0.0047809528 0.021992382 1.0040001 2.1106629e-38
-0.0028685716 0.021992382 1.0040001 2.2030399e-38
-0.083934292 0.024119047 1.013 2.2307707e-38
-0.081761904 0.024047619 1.01 2.1662338e-38
-0.07960096 0.023976194 1.0070001 1.9728741e-38
-0.077682868 0.023976194 1.0070001 1.6409698e-38
-0.075764768 0.023976194 1.0070001 1.585471e-38
-0.073626675 0.023904763 1.0040001 1.668447e-38
-0.07128571 0.023761906 0.99800003 1.6959995e-38
-0.068967618 0.023619048 0.99200004 1.6959995e-38
-0.066875242 0.02354762 0.98900002 1.7695039e-38
-0.064991429 0.02354762 0.98900002 1.7787235e-38
-0.063107617 0.02354762 0.98900002 1.7325511e-38
-0.061223812 0.02354762 0.98900002 1.7417707e-38
