# .PCD v0.7 - Point Cloud Data file format
VERSION 0.7
FIELDS x y z rgb
SIZE 4 4 4 4
TYPE F F F F
COUNT 1 1 1 1
WIDTH 1009
HEIGHT 1
VIEWPOINT 0 0 0 1 0 0 0
POINTS 1009
DATA ascii
-0.10132096 0.11405239 0.55700004 1.1521162e-38
-0.10008001 0.11384763 0.55600005 1.1797749e-38
-0.098842859 0.11364286 0.55500001 1.1797415e-38
-0.097609527 0.11343809 0.55400002 1.170522e-38
-0.096554287 0.11343809 0.55400002 1.179704e-38
-0.095499046 0.11343809 0.55400002 1.1704844e-38
-0.094443806 0.11343809 0.55400002 1.1520819e-38
-0.093220003 0.11323334 0.55300003 1.1428623e-38
-0.092166677 0.11323334 0.55300003 1.1428623e-38
-0.091278099 0.11343809 0.55400002 1.1613014e-38
-0.090385713 0.11364286 0.55500001 1.1890315e-38
-0.089167625 0.11343809 0.55400002 1.2259097e-38
-0.088112384 0.11343809 0.55400002 1.1797766e-38
-0.087057143 0.11343809 0.55400002 1.1797766e-38
-0.086001903 0.11343809 0.55400002 1.2073993e-38
-0.084793337 0.11323334 0.55300003 1.1981797e-38
-0.083588578 0.11302858 0.55200005 1.2164743e-38
-0.082537152 0.11302858 0.55200005 1.2256939e-38
-0.081485718 0.11302858 0.55200005 1.2164743e-38
-0.078615241 0.11343809 0.55400002 1.1889601e-38
-0.07756 0.11343809 0.55400002 1.2072897e-38
-0.076504759 0.11343809 0.55400002 1.2165092e-38
-0.075449526 0.11343809 0.55400002 1.2166185e-38
-0.074528567 0.11364286 0.55500001 1.2442772e-38
-0.073603816 0.11384763 0.55600005 1.2258381e-38
-0.072544768 0.11384763 0.55600005 1.2719359e-38
-0.071485721 0.11384763 0.55600005 1.2534264e-38
-0.07055334 0.11405239 0.55700004 1.2442069e-38
-0.069492385 0.11405239 0.55700004 1.2442772e-38
-0.068677142 0.11446191 0.55900002 1.2442772e-38
-0.067612387 0.11446191 0.55900002 1.2719345e-38
-0.066547617 0.11446191 0.55900002 1.3272519e-38
-0.065482862 0.11446191 0.55900002 1.2718643e-38
-0.064533338 0.11466667 0.56 1.2718643e-38
-0.063693337 0.1150762 0.56200004 1.2809746e-38
-0.06262286 0.1150762 0.56200004 1.2809746e-38
-0.06177143 0.11548571 0.56400001 1.2626094e-38
-0.060697146 0.11548571 0.56400001 1.1980725e-38
-0.05972857 0.11569048 0.565 1.1612649e-38
-0.058652379 0.11569048 0.565 1.0967279e-38
-0.057576187 0.11569048 0.565 1.0966923e-38
-0.056800004 0.11630476 0.56800002 1.0874728e-38
-0.05591429 0.11671429 0.57000005 1.0783251e-38
-0.054924767 0.11691906 0.57100004 1.0506664e-38
-0.05393143 0.11712381 0.57200003 1.0506661e-38
-0.053026669 0.11753333 0.574 1.0506661e-38
-0.052023813 0.1177381 0.57500005 1.0506664e-38
-0.051017147 0.11794286 0.57600003 1.0506664e-38
-0.050180007 0.11855715 0.57900006 1.0691404e-38
-0.049161907 0.11876191 0.58000004 1.225873e-38
-0.048140001 0.11896668 0.58100003 1.262751e-38
-0.047357146 0.11978572 0.58500004 1.557777e-38
-0.046321906 0.11999048 0.58600003 1.7235129e-38
-0.045205716 0.11999048 0.58600003 2.0277585e-38
-0.12039238 0.11821334 0.57200003 1.4379594e-38
-0.1190943 0.11800667 0.57100004 1.3549123e-38
-0.11759333 0.11759333 0.56900001 1.3088144e-38
-0.11650952 0.11759333 0.56900001 1.2995227e-38
-0.11481715 0.11697334 0.56600004 1.3087423e-38
-0.11333714 0.11656 0.56400001 1.2627526e-38
-0.11186477 0.11614668 0.56200004 1.235094e-38
-0.11059715 0.11594 0.56100005 1.2442772e-38
-0.10952858 0.11594 0.56100005 1.2166185e-38
-0.10826667 0.11573333 0.56 1.2165467e-38
-0.1072 0.11573333 0.56 1.2349858e-38
-0.10594381 0.11552667 0.55900002 1.2442422e-38
-0.10469143 0.11532 0.55800003 1.1889248e-38
-0.10362858 0.11532 0.55800003 1.1889236e-38
-0.10256572 0.11532 0.55800003 1.1981431e-38
-0.10132096 0.11511334 0.55700004 1.1982862e-38
-0.10026001 0.11511334 0.55700004 1.1982862e-38
-0.098842859 0.1147 0.55500001 1.189068e-38
-0.097785719 0.1147 0.55500001 1.1798485e-38
-0.096728571 0.1147 0.55500001 1.1889233e-38
-0.09567143 0.1147 0.55500001 1.1797037e-38
-0.094614282 0.1147 0.55500001 1.1703765e-38
-0.093557142 0.1147 0.55500001 1.1703765e-38
-0.092500001 0.1147 0.55500001 1.1704121e-38
-0.091442853 0.1147 0.55500001 1.1888512e-38
-0.090385713 0.1147 0.55500001 1.1981804e-38
-0.089167625 0.11449333 0.55400002 1.1889608e-38
-0.088112384 0.11449333 0.55400002 1.1982154e-38
-0.087057143 0.11449333 0.55400002 1.1889959e-38
-0.086001903 0.11449333 0.55400002 1.2165092e-38
-0.08494667 0.11449333 0.55400002 1.2165092e-38
-0.083891436 0.11449333 0.55400002 1.1980341e-38
-0.082836196 0.11449333 0.55400002 1.2349123e-38
-0.081780955 0.11449333 0.55400002 1.2165099e-38
-0.079670474 0.11449333 0.55400002 1.1889952e-38
-0.078615241 0.11449333 0.55400002 1.235093e-38
-0.07756 0.11449333 0.55400002 1.2443121e-38
-0.076504759 0.11449333 0.55400002 1.2350926e-38
-0.075449526 0.11449333 0.55400002 1.2351293e-38
-0.074394293 0.11449333 0.55400002 1.2351293e-38
-0.073339052 0.11449333 0.55400002 1.1982147e-38
-0.072544768 0.11490668 0.55600005 1.2535321e-38
-0.071485721 0.11490668 0.55600005 1.2534249e-38
-0.07055334 0.11511334 0.55700004 1.2534249e-38
-0.069617152 0.11532 0.55800003 1.2534605e-38
-0.068677142 0.11552667 0.55900002 1.2534605e-38
-0.067612387 0.11552667 0.55900002 1.2443118e-38
-0.066547617 0.11552667 0.55900002 1.2535314e-38
-0.065482862 0.11552667 0.55900002 1.2901941e-38
-0.064533338 0.11573333 0.56 1.2901941e-38
-0.063693337 0.11614668 0.56200004 1.2625708e-38
-0.06262286 0.11614668 0.56200004 1.2717903e-38
-0.06177143 0.11656 0.56400001 1.3087426e-38
-0.060804762 0.11676666 0.565 1.2073274e-38
-0.05972857 0.11676666 0.565 1.1520813e-38
-0.058652379 0.11676666 0.565 1.0137879e-38
-0.0576781 0.11697334 0.56600004 1.0321554e-38
-0.057000004 0.1178 0.57000005 1.041375e-38
-0.056012385 0.11800667 0.57100004 1.0228991e-38
-0.055020954 0.11821334 0.57200003 1.0413382e-38
-0.054025713 0.11842 0.57300001 1.0506661e-38
-0.053026669 0.11862666 0.574 1.0414466e-38
-0.052114289 0.11904 0.57600003 9.4935883e-39
-0.051017147 0.11904 0.57600003 1.0323349e-38
-0.050353333 0.12007333 0.58100003 1.0691392e-38
-0.049246669 0.12007333 0.58100003 1.2535304e-38
-0.048388578 0.12069334 0.58400005 1.3547311e-38
-0.047438096 0.12110667 0.58600003 1.5206832e-38
-0.046321906 0.12110667 0.58600003 1.6958905e-38
-0.045205716 0.12110667 0.58600003 2.0185752e-38
-0.12060286 0.11951143 0.57300001 1.4472144e-38
-0.11930286 0.11930286 0.57200003 1.3549132e-38
-0.1178 0.11888573 0.57000005 1.2811567e-38
-0.11589525 0.11805144 0.56600004 1.2904464e-38
-0.11481715 0.11805144 0.56600004 1.3088855e-38
-0.11353809 0.11784285 0.565 1.2350586e-38
-0.11206382 0.11742572 0.56300002 1.2166195e-38
-0.11079429 0.11721715 0.56200004 1.2442769e-38
-0.10952858 0.11700858 0.56100005 1.2534965e-38
-0.10826667 0.1168 0.56 1.2627152e-38
-0.1072 0.1168 0.56 1.225837e-38
-0.10594381 0.11659143 0.55900002 1.2626094e-38
-0.10469143 0.11638286 0.55800003 1.2072921e-38
-0.10362858 0.11638286 0.55800003 1.1981078e-38
-0.10256572 0.11638286 0.55800003 1.2073274e-38
-0.10132096 0.1161743 0.55700004 1.1982856e-38
-0.10026001 0.1161743 0.55700004 1.1982856e-38
-0.099020958 0.11596572 0.55600005 1.1982507e-38
-0.097785719 0.11575714 0.55500001 1.1890312e-38
-0.096728571 0.11575714 0.55500001 1.198178e-38
-0.09567143 0.11575714 0.55500001 1.2073976e-38
-0.094614282 0.11575714 0.55500001 1.2257291e-38
-0.09338858 0.11554857 0.55400002 1.2257291e-38
-0.092333339 0.11554857 0.55400002 1.1704841e-38
-0.091278099 0.11554857 0.55400002 1.1981428e-38
-0.090222858 0.11554857 0.55400002 1.2074002e-38
-0.089167625 0.11554857 0.55400002 1.1981807e-38
-0.088112384 0.11554857 0.55400002 1.207399e-38
-0.087057143 0.11554857 0.55400002 1.207399e-38
-0.086001903 0.11554857 0.55400002 1.2165799e-38
-0.08494667 0.11554857 0.55400002 1.2626777e-38
-0.083891436 0.11554857 0.55400002 1.2443109e-38
-0.082836196 0.11554857 0.55400002 1.2443109e-38
-0.081780955 0.11554857 0.55400002 1.2258734e-38
-0.080725715 0.11554857 0.55400002 1.2258734e-38
-0.079670474 0.11554857 0.55400002 1.2074703e-38
-0.078615241 0.11554857 0.55400002 1.235129e-38
-0.07756 0.11554857 0.55400002 1.2443121e-38
-0.076504759 0.11554857 0.55400002 1.2350926e-38
-0.075449526 0.11554857 0.55400002 1.2259449e-38
-0.074394293 0.11554857 0.55400002 1.2351644e-38
-0.073339052 0.11554857 0.55400002 1.2534605e-38
-0.072675243 0.1161743 0.55700004 1.2534605e-38
-0.071614295 0.1161743 0.55700004 1.2442761e-38
-0.07068 0.11638286 0.55800003 1.2442761e-38
-0.069617152 0.11638286 0.55800003 1.2442758e-38
-0.068677142 0.11659143 0.55900002 1.2442758e-38
-0.067612387 0.11659143 0.55900002 1.2535304e-38
-0.066547617 0.11659143 0.55900002 1.2535304e-38
-0.0656 0.1168 0.56 1.2626414e-38
-0.064533338 0.1168 0.56 1.2442023e-38
-0.063693337 0.11721715 0.56200004 1.2257275e-38
-0.06262286 0.11721715 0.56200004 1.2072884e-38
-0.06177143 0.11763428 0.56400001 1.1335685e-38
-0.060804762 0.11784285 0.565 1.059812e-38
-0.05972857 0.11784285 0.565 1.0597067e-38
-0.058652379 0.11784285 0.565 1.0504872e-38
-0.057780001 0.11826 0.56700003 1.0507013e-38
-0.057000004 0.11888573 0.57000005 1.0599209e-38
-0.056012385 0.1190943 0.57100004 9.8620205e-39
-0.055117141 0.11951143 0.57300001 1.0046412e-38
-0.05412 0.11972 0.574 1.0323349e-38
-0.053026669 0.11972 0.574 1.0231153e-38
-0.052114289 0.12013715 0.57600003 1.0599586e-38
-0.051017147 0.12013715 0.57600003 1.2166911e-38
-0.050006669 0.12034572 0.57700002 1.2259436e-38
-0.049161907 0.12097144 0.58000004 1.3457979e-38
-0.048057146 0.12097144 0.58000004 1.3731709e-38
-0.047276191 0.12180573 0.58400005 1.4838057e-38
-0.046163812 0.12180573 0.58400005 1.6774158e-38
-0.11589525 0.11912953 0.56600004 1.2996659e-38
-0.11481715 0.11912953 0.56600004 1.2996659e-38
-0.11353809 0.11891904 0.565 1.2350577e-38
-0.11206382 0.11849809 0.56300002 1.2442772e-38
-0.11079429 0.11828763 0.56200004 1.2534605e-38
-0.10972381 0.11828763 0.56200004 1.2626801e-38
-0.10846001 0.11807715 0.56100005 1.299486e-38
-0.1072 0.11786667 0.56 1.2718273e-38
-0.10594381 0.11765619 0.55900002 1.2810839e-38
-0.10469143 0.11744572 0.55800003 1.2349861e-38
-0.10362858 0.11744572 0.55800003 1.1890312e-38
-0.10256572 0.11744572 0.55800003 1.1982507e-38
-0.10132096 0.11723524 0.55700004 1.1982856e-38
-0.10026001 0.11723524 0.55700004 1.1982856e-38
-0.099020958 0.11702477 0.55600005 1.207435e-38
-0.09796191 0.11702477 0.55600005 1.1889959e-38
-0.096728571 0.11681429 0.55500001 1.2073624e-38
-0.09567143 0.11681429 0.55500001 1.2258015e-38
-0.094614282 0.11681429 0.55500001 1.2166174e-38
-0.09338858 0.11660381 0.55400002 1.2073979e-38
-0.092333339 0.11660381 0.55400002 1.1797389e-38
-0.091278099 0.11660381 0.55400002 1.198178e-38
-0.090222858 0.11660381 0.55400002 1.2166188e-38
-0.089167625 0.11660381 0.55400002 1.2073993e-38
-0.088112384 0.11660381 0.55400002 1.2166538e-38
-0.087057143 0.11660381 0.55400002 1.2074343e-38
-0.086001903 0.11660381 0.55400002 1.2073973e-38
-0.08494667 0.11660381 0.55400002 1.2258364e-38
-0.083891436 0.11660381 0.55400002 1.2167248e-38
-0.082836196 0.11660381 0.55400002 1.2167248e-38
-0.081780955 0.11660381 0.55400002 1.2167267e-38
-0.080725715 0.11660381 0.55400002 1.2075072e-38
-0.079670474 0.11660381 0.55400002 1.2167253e-38
-0.078615241 0.11660381 0.55400002 1.2259449e-38
-0.07756 0.11660381 0.55400002 1.2351293e-38
-0.076504759 0.11660381 0.55400002 1.2351293e-38
-0.075449526 0.11660381 0.55400002 1.2350926e-38
-0.074394293 0.11660381 0.55400002 1.2443121e-38
-0.073339052 0.11660381 0.55400002 1.2534249e-38
-0.072675243 0.11723524 0.55700004 1.2534249e-38
-0.071614295 0.11723524 0.55700004 1.2718993e-38
-0.07068 0.11744572 0.55800003 1.2442407e-38
-0.069617152 0.11744572 0.55800003 1.2166169e-38
-0.068677142 0.11765619 0.55900002 1.2442755e-38
-0.067612387 0.11765619 0.55900002 1.2443118e-38
-0.066547617 0.11765619 0.55900002 1.2443118e-38
-0.0656 0.11786667 0.56 1.2073253e-38
-0.064533338 0.11786667 0.56 1.1427883e-38
-0.063693337 0.11828763 0.56200004 1.1241691e-38
-0.06262286 0.11828763 0.56200004 1.10573e-38
-0.06188095 0.11891904 0.565 1.0413729e-38
-0.060804762 0.11891904 0.565 1.0321533e-38
-0.05972857 0.11891904 0.565 1.0046039e-38
-0.058756195 0.11912953 0.56600004 1.023043e-38
-0.057881907 0.11955048 0.56800002 1.0876163e-38
-0.057000004 0.11997144 0.57000005 1.0415184e-38
-0.056012385 0.12018191 0.57100004 9.31242e-39
-0.055020954 0.12039238 0.57200003 9.4968113e-39
-0.05393143 0.12039238 0.57200003 9.7723248e-39
-0.053026669 0.12081333 0.574 1.0048912e-38
-0.052114289 0.12123429 0.57600003 1.1244215e-38
-0.051017147 0.12123429 0.57600003 1.2442758e-38
-0.050006669 0.12144477 0.57700002 1.2350926e-38
-0.049161907 0.1220762 0.58000004 1.3457273e-38
-0.048057146 0.1220762 0.58000004 1.3732069e-38
-0.046952382 0.1220762 0.58000004 1.4838417e-38
-0.046163812 0.12291811 0.58400005 1.6681955e-38
-0.11481715 0.12020763 0.56600004 1.3088502e-38
-0.11353809 0.11999524 0.565 1.2534615e-38
-0.11206382 0.11957048 0.56300002 1.2442419e-38
-0.11099143 0.11957048 0.56300002 1.2074343e-38
-0.10972381 0.11935811 0.56200004 1.1428973e-38
-0.10846001 0.11914572 0.56100005 1.1429322e-38
-0.1072 0.11893333 0.56 1.1244931e-38
-0.10613333 0.11893333 0.56 1.198178e-38
-0.10487904 0.11872096 0.55900002 1.2442758e-38
-0.10381429 0.11872096 0.55900002 1.2166887e-38
-0.10274953 0.11872096 0.55900002 1.2074692e-38
-0.10150286 0.11850858 0.55800003 1.2074692e-38
-0.10044 0.11850858 0.55800003 1.2074692e-38
-0.099020958 0.11808382 0.55600005 1.2166195e-38
-0.09796191 0.11808382 0.55600005 1.1981804e-38
-0.096902862 0.11808382 0.55600005 1.2165467e-38
-0.09567143 0.11787143 0.55500001 1.2165467e-38
-0.094614282 0.11787143 0.55500001 1.2166174e-38
-0.09338858 0.11765905 0.55400002 1.2442761e-38
-0.092333339 0.11765905 0.55400002 1.2074692e-38
-0.091278099 0.11765905 0.55400002 1.2074692e-38
-0.090385713 0.11787143 0.55500001 1.2166538e-38
-0.089167625 0.11765905 0.55400002 1.2074343e-38
-0.088112384 0.11765905 0.55400002 1.2166185e-38
-0.087057143 0.11765905 0.55400002 1.2166185e-38
-0.086001903 0.11765905 0.55400002 1.2258015e-38
-0.08494667 0.11765905 0.55400002 1.2258015e-38
-0.083891436 0.11765905 0.55400002 1.2259083e-38
-0.082836196 0.11765905 0.55400002 1.2166887e-38
-0.081780955 0.11765905 0.55400002 1.2259107e-38
-0.080725715 0.11765905 0.55400002 1.2166911e-38
-0.079670474 0.11765905 0.55400002 1.2167253e-38
-0.078615241 0.11765905 0.55400002 1.2536036e-38
-0.07756 0.11765905 0.55400002 1.2534965e-38
-0.076504759 0.11765905 0.55400002 1.2350574e-38
-0.075449526 0.11765905 0.55400002 1.2534605e-38
-0.074528567 0.11787143 0.55500001 1.2626801e-38
-0.073736191 0.1182962 0.55700004 1.2534615e-38
-0.072805718 0.11850858 0.55800003 1.2165832e-38
-0.071742855 0.11850858 0.55800003 1.2075058e-38
-0.070806667 0.11872096 0.55900002 1.1982862e-38
-0.069741905 0.11872096 0.55900002 1.1982496e-38
-0.068677142 0.11872096 0.55900002 1.1613714e-38
-0.067612387 0.11872096 0.55900002 1.1705541e-38
-0.066666663 0.11893333 0.56 1.1428954e-38
-0.0656 0.11893333 0.56 1.1243136e-38
-0.064648576 0.11914572 0.56100005 1.0689962e-38
-0.063806668 0.11957048 0.56300002 1.0598497e-38
-0.062845714 0.11978286 0.56400001 1.0598497e-38
-0.06188095 0.11999524 0.565 1.0230074e-38
-0.060804762 0.11999524 0.565 1.0137879e-38
-0.05983429 0.12020763 0.56600004 1.0138228e-38
-0.058756195 0.12020763 0.56600004 1.0138228e-38
-0.057983808 0.12084476 0.56900001 1.0046039e-38
-0.057100005 0.12126953 0.57100004 9.7694521e-39
-0.056012385 0.12126953 0.57100004 9.678669e-39
-0.055020954 0.12148191 0.57200003 9.7708646e-39
-0.05393143 0.12148191 0.57200003 1.0693177e-38
-0.053026669 0.12190667 0.574 1.1615133e-38
-0.052114289 0.12233144 0.57600003 1.2075392e-38
-0.051017147 0.12233144 0.57600003 1.2444175e-38
-0.049920004 0.12233144 0.57600003 1.2811202e-38
-0.049161907 0.12318096 0.58000004 1.2995593e-38
-0.048057146 0.12318096 0.58000004 1.3639157e-38
-0.046952382 0.12318096 0.58000004 1.5667461e-38
-0.11481715 0.12128573 0.56600004 1.2812268e-38
-0.11353809 0.12107143 0.565 1.2718646e-38
-0.11206382 0.12064286 0.56300002 1.2810842e-38
-0.11099143 0.12064286 0.56300002 1.1890677e-38
-0.10972381 0.12042858 0.56200004 1.0968721e-38
-0.10846001 0.1202143 0.56100005 1.1061266e-38
-0.10739144 0.1202143 0.56100005 1.0784679e-38
-0.10613333 0.12 0.56 1.1059824e-38
-0.10487904 0.11978571 0.55900002 1.198178e-38
-0.10381429 0.11978571 0.55900002 1.1798465e-38
-0.10274953 0.11978571 0.55900002 1.1798465e-38
-0.10150286 0.11957143 0.55800003 1.198214e-38
-0.10044 0.11957143 0.55800003 1.2074336e-38
-0.099020958 0.11914287 0.55600005 1.1982507e-38
-0.09796191 0.11914287 0.55600005 1.2074703e-38
-0.096902862 0.11914287 0.55600005 1.2258734e-38
-0.095843814 0.11914287 0.55600005 1.1889952e-38
-0.094614282 0.11892857 0.55500001 1.1704841e-38
-0.093557142 0.11892857 0.55500001 1.1797037e-38
-0.092500001 0.11892857 0.55500001 1.1889233e-38
-0.091278099 0.11871429 0.55400002 1.2073624e-38
-0.090222858 0.11871429 0.55400002 1.2074339e-38
-0.089167625 0.11871429 0.55400002 1.2166534e-38
-0.088112384 0.11871429 0.55400002 1.2258384e-38
-0.087057143 0.11871429 0.55400002 1.2166188e-38
-0.086001903 0.11871429 0.55400002 1.2258015e-38
-0.08494667 0.11871429 0.55400002 1.2350211e-38
-0.083891436 0.11871429 0.55400002 1.2259083e-38
-0.082985714 0.11892857 0.55500001 1.2166887e-38
-0.081780955 0.11871429 0.55400002 1.2166548e-38
-0.080725715 0.11871429 0.55400002 1.2074353e-38
-0.079814285 0.11892857 0.55500001 1.1982507e-38
-0.078757145 0.11892857 0.55500001 1.2074703e-38
-0.077699997 0.11892857 0.55500001 1.2258015e-38
-0.076642856 0.11892857 0.55500001 1.2258015e-38
-0.075585708 0.11892857 0.55500001 1.2350211e-38
-0.074528567 0.11892857 0.55500001 1.2258015e-38
-0.073736191 0.11935715 0.55700004 1.1890315e-38
-0.072805718 0.11957143 0.55800003 1.1613728e-38
-0.071742855 0.11957143 0.55800003 1.1246027e-38
-0.070806667 0.11978571 0.55900002 1.096944e-38
-0.069741905 0.11978571 0.55900002 1.0875444e-38
-0.068677142 0.11978571 0.55900002 1.0230074e-38
-0.067612387 0.11978571 0.55900002 1.0321533e-38
-0.066666663 0.12 0.56 1.0505924e-38
-0.065717146 0.1202143 0.56100005 1.0230426e-38
-0.064648576 0.1202143 0.56100005 1.0230426e-38
-0.063806668 0.12064286 0.56300002 1.0598857e-38
-0.062845714 0.12085714 0.56400001 1.0506661e-38
-0.06188095 0.12107143 0.565 1.0046762e-38
-0.060804762 0.12107143 0.565 9.9545665e-39
-0.05983429 0.12128573 0.56600004 1.0322622e-38
-0.058860004 0.1215 0.56700003 9.5850567e-39
-0.057983808 0.12192857 0.56900001 9.4006626e-39
-0.057100005 0.12235714 0.57100004 9.9538364e-39
-0.056012385 0.12235714 0.57100004 9.8627099e-39
-0.055020954 0.12257144 0.57200003 1.0508079e-38
-0.05393143 0.12257144 0.57200003 1.1246024e-38
-0.053026669 0.123 0.574 1.216798e-38
-0.052114289 0.12342858 0.57600003 1.235236e-38
-0.051017147 0.12342858 0.57600003 1.2536752e-38
-0.049920004 0.12342858 0.57600003 1.327182e-38
-0.11353809 0.12214762 0.565 1.2994151e-38
-0.11226285 0.12193143 0.56400001 1.2994151e-38
-0.11099143 0.12171524 0.56300002 1.1982523e-38
-0.10972381 0.12149905 0.56200004 1.1060566e-38
-0.10865334 0.12149905 0.56200004 9.5872315e-39
-0.10739144 0.12128286 0.56100005 9.4028402e-39
-0.10613333 0.12106667 0.56 1.0138934e-38
-0.10487904 0.12085048 0.55900002 1.0692108e-38
-0.10381429 0.12085048 0.55900002 1.0783565e-38
-0.10274953 0.12085048 0.55900002 1.0599174e-38
-0.10150286 0.1206343 0.55800003 1.0598848e-38
-0.10044 0.1206343 0.55800003 1.1059827e-38
-0.099199049 0.1204181 0.55700004 1.1614049e-38
-0.098138101 0.1204181 0.55700004 1.179844e-38
-0.097077146 0.1204181 0.55700004 1.1706272e-38
-0.095843814 0.12020192 0.55600005 1.1429685e-38
-0.094784766 0.12020192 0.55600005 1.1520813e-38
-0.093557142 0.11998571 0.55500001 1.1520813e-38
-0.092500001 0.11998571 0.55500001 1.1612646e-38
-0.091278099 0.11976953 0.55400002 1.1428255e-38
-0.090222858 0.11976953 0.55400002 1.2165799e-38
-0.089167625 0.11976953 0.55400002 1.2442386e-38
-0.088112384 0.11976953 0.55400002 1.2350579e-38
-0.087057143 0.11976953 0.55400002 1.2258384e-38
-0.086001903 0.11976953 0.55400002 1.2258015e-38
-0.08494667 0.11976953 0.55400002 1.1704841e-38
-0.083891436 0.11976953 0.55400002 1.235019e-38
-0.082985714 0.11998571 0.55500001 1.2442386e-38
-0.081928574 0.11998571 0.55500001 1.2075058e-38
-0.080871426 0.11998571 0.55500001 1.1706275e-38
-0.079814285 0.11998571 0.55500001 1.1336422e-38
-0.078757145 0.11998571 0.55500001 1.0967639e-38
-0.077840008 0.12020192 0.55600005 1.1059827e-38
-0.07678096 0.12020192 0.55600005 1.1059827e-38
-0.075721912 0.12020192 0.55600005 1.0598497e-38
-0.074797146 0.1204181 0.55700004 1.0598497e-38
-0.073868573 0.1206343 0.55800003 1.0506653e-38
-0.072936192 0.12085048 0.55900002 1.0414457e-38
-0.07187143 0.12085048 0.55900002 1.0230803e-38
-0.070806667 0.12085048 0.55900002 9.6776292e-39
-0.069741905 0.12085048 0.55900002 9.7698277e-39
-0.068799995 0.12106667 0.56 9.677632e-39
-0.067733333 0.12106667 0.56 9.8616478e-39
-0.066666663 0.12106667 0.56 1.023043e-38
-0.065717146 0.12128286 0.56100005 1.0230423e-38
-0.064763814 0.12149905 0.56200004 1.0230423e-38
-0.063806668 0.12171524 0.56300002 1.0230426e-38
-0.062845714 0.12193143 0.56400001 1.0230426e-38
-0.06188095 0.12214762 0.565 9.218449e-39
-0.060804762 0.12214762 0.565 9.0340577e-39
-0.05983429 0.12236382 0.56600004 9.3098893e-39
-0.058860004 0.12258 0.56700003 9.0333024e-39
-0.058085717 0.12322859 0.57000005 9.4921618e-39
-0.057100005 0.12344477 0.57100004 1.0875096e-38
-0.056110479 0.12366096 0.57200003 1.1521169e-38
-0.055117141 0.12387714 0.57300001 1.2074343e-38
-0.05412 0.12409334 0.574 1.2536044e-38
-0.053119052 0.12430953 0.57500005 1.2536044e-38
-0.052114289 0.12452573 0.57600003 1.2075771e-38
-0.051017147 0.12452573 0.57600003 1.124601e-38
-0.049920004 0.12452573 0.57600003 1.0046415e-38
-0.11353809 0.1232238 0.565 1.3454766e-38
-0.11226285 0.12300572 0.56400001 1.3085984e-38
-0.11099143 0.12278762 0.56300002 1.1982523e-38
-0.10991906 0.12278762 0.56300002 1.0599588e-38
-0.10884666 0.12278762 0.56300002 9.5875846e-39
-0.10758286 0.12256954 0.56200004 8.7578239e-39
-0.10632286 0.12235144 0.56100005 9.1251449e-39
-0.10487904 0.12191524 0.55900002 1.0047101e-38
-0.10381429 0.12191524 0.55900002 9.956716e-39
-0.10274953 0.12191524 0.55900002 9.4957379e-39
-0.10150286 0.12169715 0.55800003 9.8605547e-39
-0.10044 0.12169715 0.55800003 1.0413729e-38
-0.099199049 0.12147906 0.55700004 1.0690318e-38
-0.098138101 0.12147906 0.55700004 1.0874709e-38
-0.097077146 0.12147906 0.55700004 1.059886e-38
-0.095843814 0.12126096 0.55600005 1.1244229e-38
-0.094784766 0.12126096 0.55600005 1.1153831e-38
-0.093557142 0.12104286 0.55500001 1.1246027e-38
-0.092500001 0.12104286 0.55500001 1.1612998e-38
-0.091278099 0.12082476 0.55400002 1.1520802e-38
-0.090222858 0.12082476 0.55400002 1.1334972e-38
-0.089167625 0.12082476 0.55400002 1.1980341e-38
-0.088112384 0.12082476 0.55400002 1.1704844e-38
-0.087057143 0.12082476 0.55400002 1.1704844e-38
-0.086001903 0.12082476 0.55400002 1.1889236e-38
-0.08494667 0.12082476 0.55400002 1.1704844e-38
-0.083891436 0.12082476 0.55400002 1.1519723e-38
-0.082985714 0.12104286 0.55500001 1.1519723e-38
-0.081928574 0.12104286 0.55500001 1.1519723e-38
-0.081017151 0.12126096 0.55600005 1.1058745e-38
-0.079958104 0.12126096 0.55600005 1.0506301e-38
-0.078899056 0.12126096 0.55600005 1.0506301e-38
-0.077980004 0.12147906 0.55700004 1.0692483e-38
-0.076919056 0.12147906 0.55700004 1.0323701e-38
-0.075858101 0.12147906 0.55700004 9.9552741e-39
-0.074797146 0.12147906 0.55700004 9.8630785e-39
-0.073868573 0.12169715 0.55800003 1.0228991e-38
-0.072805718 0.12169715 0.55800003 1.0321187e-38
-0.071742855 0.12169715 0.55800003 1.059886e-38
-0.070806667 0.12191524 0.55900002 1.0414468e-38
-0.069741905 0.12191524 0.55900002 1.0415901e-38
-0.068677142 0.12191524 0.55900002 1.0047118e-38
-0.067612387 0.12191524 0.55900002 1.0046032e-38
-0.066666663 0.12213334 0.56 1.0138228e-38
-0.065717146 0.12235144 0.56100005 1.0046032e-38
-0.064763814 0.12256954 0.56200004 1.0138228e-38
-0.063806668 0.12278762 0.56300002 1.0138581e-38
-0.062845714 0.12300572 0.56400001 9.8619939e-39
-0.061990481 0.12344192 0.56600004 9.2169902e-39
-0.060912386 0.12344192 0.56600004 9.3091858e-39
-0.059940003 0.12366 0.56700003 9.0354534e-39
-0.058963813 0.1238781 0.56800002 9.4042359e-39
-0.058085717 0.1243143 0.57000005 1.0506664e-38
-0.057100005 0.12453238 0.57100004 1.142862e-38
-0.056110479 0.12475048 0.57200003 1.2166174e-38
-0.055117141 0.12496858 0.57300001 1.2350565e-38
-0.05412 0.12518667 0.574 1.290376e-38
-0.053119052 0.12540478 0.57500005 1.2719369e-38
-0.052204765 0.12584096 0.57700002 1.0971245e-38
-0.051105715 0.12584096 0.57700002 1.0141484e-38
-0.050006669 0.12584096 0.57700002 8.3905058e-39
-0.11583143 0.12562001 0.57100004 1.2904099e-38
-0.11394001 0.12474 0.56700003 1.299558e-38
-0.11266096 0.12452002 0.56600004 1.2442407e-38
-0.11138572 0.1243 0.565 1.2074362e-38
-0.11011428 0.12407999 0.56400001 1.0691428e-38
-0.10884666 0.12386001 0.56300002 9.7716255e-39
-0.10758286 0.12364001 0.56200004 8.2964955e-39
-0.10651238 0.12364001 0.56200004 8.3890274e-39
-0.10525429 0.12342001 0.56100005 8.2046361e-39
-0.10399999 0.1232 0.56 8.3886757e-39
-0.10274953 0.12298 0.55900002 8.2042844e-39
-0.10150286 0.12276001 0.55800003 8.4790734e-39
-0.10044 0.12276001 0.55800003 9.1244428e-39
-0.099377148 0.12276001 0.55800003 9.1240897e-39
-0.098138101 0.12254 0.55700004 9.1240897e-39
-0.097077146 0.12254 0.55700004 8.2961297e-39
-0.096016198 0.12254 0.55700004 8.2039341e-39
-0.094784766 0.12232002 0.55600005 8.5709187e-39
-0.093725726 0.12232002 0.55600005 9.6772663e-39
-0.092666678 0.12232002 0.55600005 9.8619813e-39
-0.091442853 0.1221 0.55500001 1.0138568e-38
-0.090385713 0.1221 0.55500001 9.9541895e-39
-0.089328572 0.1221 0.55500001 9.9541895e-39
-0.088271424 0.1221 0.55500001 9.8619967e-39
-0.087214291 0.1221 0.55500001 9.9541923e-39
-0.086157143 0.1221 0.55500001 1.0137531e-38
-0.085100003 0.1221 0.55500001 1.1059487e-38
-0.084042862 0.1221 0.55500001 1.0691041e-38
-0.083135247 0.12232002 0.55600005 1.0230063e-38
-0.082371436 0.12276001 0.55800003 1.0413375e-38
-0.081162862 0.12254 0.55700004 1.0505571e-38
-0.080101915 0.12254 0.55700004 1.0230077e-38
-0.079040952 0.12254 0.55700004 1.0137882e-38
-0.077980004 0.12254 0.55700004 1.0138958e-38
-0.076919056 0.12254 0.55700004 1.0323349e-38
-0.075858101 0.12254 0.55700004 1.0139314e-38
-0.074797146 0.12254 0.55700004 1.0047118e-38
-0.073868573 0.12276001 0.55800003 1.0229724e-38
-0.072805718 0.12276001 0.55800003 1.0137528e-38
-0.071742855 0.12276001 0.55800003 1.032227e-38
-0.070806667 0.12298 0.55900002 1.0414466e-38
-0.069741905 0.12298 0.55900002 1.0231505e-38
-0.068677142 0.12298 0.55900002 1.0047114e-38
-0.067612387 0.12298 0.55900002 1.0230776e-38
-0.066666663 0.1232 0.56 9.9541895e-39
-0.065717146 0.12342001 0.56100005 9.8623568e-39
-0.064879045 0.12386001 0.56300002 9.6779655e-39
-0.064033337 0.1243 0.565 9.2173405e-39
-0.062957145 0.1243 0.565 9.2173405e-39
-0.061990481 0.12452002 0.56600004 9.6783355e-39
-0.061020005 0.12474 0.56700003 1.0692487e-38
-0.059940003 0.12474 0.56700003 1.1246704e-38
-0.058963813 0.12496001 0.56800002 1.1892073e-38
-0.058187623 0.12562001 0.57100004 1.2074e-38
-0.057100005 0.12562001 0.57100004 1.2719369e-38
-0.056110479 0.12584001 0.57200003 1.2441316e-38
-0.055213332 0.12627999 0.574 1.1611556e-38
-0.05412 0.12627999 0.574 9.7712724e-39
-0.053119052 0.12650001 0.57500005 8.5727292e-39
-0.052204765 0.12694 0.57700002 7.4685523e-39
-0.051194288 0.12716 0.57800001 6.9153785e-39
-0.050093334 0.12716 0.57800001 6.915754e-39
-0.11583143 0.12670763 0.57100004 1.2904111e-38
-0.11454286 0.12648572 0.57000005 1.2903753e-38
-0.11325809 0.1262638 0.56900001 1.2995949e-38
-0.11138572 0.12537619 0.565 1.2628974e-38
-0.11011428 0.12515429 0.56400001 1.0785061e-38
-0.10904 0.12515429 0.56400001 9.8638184e-39
-0.10777429 0.12493238 0.56300002 8.1121014e-39
-0.10651238 0.12471049 0.56200004 8.3883253e-39
-0.10525429 0.12448858 0.56100005 8.3883253e-39
-0.10399999 0.12426666 0.56 8.29648e-39
-0.10274953 0.12404477 0.55900002 8.1120888e-39
-0.10150286 0.12382286 0.55800003 7.0064461e-39
-0.10044 0.12382286 0.55800003 8.4815762e-39
-0.099377148 0.12382286 0.55800003 8.297922e-39
-0.098314285 0.12382286 0.55800003 7.6525526e-39
-0.097077146 0.12360096 0.55700004 7.6514624e-39
-0.096016198 0.12360096 0.55700004 7.1904842e-39
-0.094784766 0.12337907 0.55600005 7.097204e-39
-0.093725726 0.12337907 0.55600005 8.0191603e-39
-0.092666678 0.12337907 0.55600005 8.8503559e-39
-0.091442853 0.12315714 0.55500001 8.8503559e-39
-0.090385713 0.12315714 0.55500001 8.7581771e-39
-0.089328572 0.12315714 0.55500001 9.4035465e-39
-0.088271424 0.12315714 0.55500001 9.7701612e-39
-0.087214291 0.12315714 0.55500001 9.7701612e-39
-0.086157143 0.12315714 0.55500001 9.7705311e-39
-0.085100003 0.12315714 0.55500001 1.0139314e-38
-0.084042862 0.12315714 0.55500001 1.0323335e-38
-0.083135247 0.12337907 0.55600005 1.0138944e-38
-0.082371436 0.12382286 0.55800003 1.0413729e-38
-0.081162862 0.12360096 0.55700004 1.0505924e-38
-0.080101915 0.12360096 0.55700004 1.0230074e-38
-0.079182863 0.12382286 0.55800003 1.0137879e-38
-0.078120001 0.12382286 0.55800003 9.8627099e-39
-0.077057146 0.12382286 0.55800003 9.8627099e-39
-0.07599429 0.12382286 0.55800003 9.9542035e-39
-0.074931428 0.12382286 0.55800003 1.0046399e-38
-0.074000955 0.12404477 0.55900002 1.0046412e-38
-0.072805718 0.12382286 0.55800003 9.9542161e-39
-0.071742855 0.12382286 0.55800003 1.0046762e-38
-0.070806667 0.12404477 0.55900002 9.9545665e-39
-0.069866665 0.12426666 0.56 9.9545665e-39
-0.068799995 0.12426666 0.56 9.8623708e-39
-0.067733333 0.12426666 0.56 9.9545552e-39
-0.066785723 0.12448858 0.56100005 9.8623596e-39
-0.065951429 0.12493238 0.56300002 9.2191412e-39
-0.06499429 0.12515429 0.56400001 9.1269456e-39
-0.064033337 0.12537619 0.565 8.7563652e-39
-0.063068576 0.1255981 0.56600004 9.4939302e-39
-0.061990481 0.1255981 0.56600004 1.0782182e-38
-0.061020005 0.12582001 0.56700003 1.1796334e-38
-0.059940003 0.12582001 0.56700003 1.1706991e-38
-0.059067618 0.1262638 0.56900001 1.1983578e-38
-0.058187623 0.12670763 0.57100004 1.2165835e-38
-0.0572 0.12692952 0.57200003 1.2258031e-38
-0.056110479 0.12692952 0.57200003 1.2165099e-38
-0.055117141 0.12715143 0.57300001 1.1335339e-38
-0.05412 0.12737334 0.574 8.6677961e-39
-0.053211428 0.12781715 0.57600003 6.7316879e-39
-0.052204765 0.12803906 0.57700002 5.6293186e-39
-0.051194288 0.12826094 0.57800001 5.8137099e-39
-0.05078667 0.13003621 0.58600003 6.6398832e-39
-0.11583143 0.12779525 0.57100004 1.3272899e-38
-0.11454286 0.12757143 0.57000005 1.29034e-38
-0.11325809 0.12734762 0.56900001 1.3087791e-38
-0.11217429 0.12734762 0.56900001 1.2627889e-38
-0.11089524 0.12712382 0.56800002 1.1244955e-38
-0.10942668 0.1266762 0.56600004 1.004821e-38
-0.10777429 0.12600477 0.56300002 7.6511232e-39
-0.10651238 0.12578095 0.56200004 7.4681837e-39
-0.10544191 0.12578095 0.56200004 7.7447706e-39
-0.10418572 0.12555715 0.56100005 7.9291367e-39
-0.10293333 0.12533334 0.56 7.836941e-39
-0.10168476 0.12510952 0.55900002 7.8362166e-39
-0.10062 0.12510952 0.55900002 8.481586e-39
-0.099555239 0.12510952 0.55900002 8.4815762e-39
-0.098314285 0.12488572 0.55800003 7.8362067e-39
-0.09725143 0.12488572 0.55800003 7.6514736e-39
-0.096188575 0.12488572 0.55800003 7.3748867e-39
-0.094955251 0.12466191 0.55700004 7.3752426e-39
-0.093725726 0.12443811 0.55600005 7.4674382e-39
-0.092666678 0.12443811 0.55600005 7.283749e-39
-0.09160763 0.12443811 0.55600005 6.8227709e-39
-0.090548582 0.12443811 0.55600005 7.7436944e-39
-0.089489534 0.12443811 0.55600005 9.587607e-39
-0.088430487 0.12443811 0.55600005 9.9545552e-39
-0.087371431 0.12443811 0.55600005 9.9545552e-39
-0.086312383 0.12443811 0.55600005 9.8627268e-39
-0.085253336 0.12443811 0.55600005 9.9549224e-39
-0.084194295 0.12443811 0.55600005 1.0230776e-38
-0.083434291 0.12488572 0.55800003 1.0230776e-38
-0.082371436 0.12488572 0.55800003 1.0046735e-38
-0.081162862 0.12466191 0.55700004 1.0138931e-38
-0.080101915 0.12466191 0.55700004 1.004747e-38
-0.079182863 0.12488572 0.55800003 9.8630785e-39
-0.078120001 0.12488572 0.55800003 9.7708674e-39
-0.077057146 0.12488572 0.55800003 9.4942805e-39
-0.07599429 0.12488572 0.55800003 1.0046039e-38
-0.075065717 0.12510952 0.55900002 1.0138235e-38
-0.074000955 0.12510952 0.55900002 1.0137528e-38
-0.072805718 0.12488572 0.55800003 1.0045333e-38
-0.071742855 0.12488572 0.55800003 9.9542035e-39
-0.070806667 0.12510952 0.55900002 9.9542035e-39
-0.069866665 0.12533334 0.56 9.3109977e-39
-0.068922862 0.12555715 0.56100005 8.8500196e-39
-0.067854293 0.12555715 0.56100005 8.7588973e-39
-0.067023806 0.12600477 0.56300002 9.0354842e-39
-0.065951429 0.12600477 0.56300002 1.0415884e-38
-0.06499429 0.12622857 0.56400001 1.0876862e-38
-0.064033337 0.12645237 0.565 1.1243876e-38
-0.063068576 0.1266762 0.56600004 1.1704854e-38
-0.062100001 0.1269 0.56700003 1.1798154e-38
-0.061020005 0.1269 0.56700003 1.2259132e-38
-0.060045715 0.12712382 0.56800002 1.189068e-38
-0.059067618 0.12734762 0.56900001 1.1982876e-38
-0.058187623 0.12779525 0.57100004 1.1243523e-38
-0.057100005 0.12779525 0.57100004 1.004498e-38
-0.056110479 0.12801906 0.57200003 8.3861926e-39
-0.055117141 0.12824285 0.57300001 7.4642363e-39
-0.05412 0.12846667 0.574 5.8111371e-39
-0.053119052 0.1286905 0.57500005 5.3501589e-39
-0.052295238 0.1293619 0.57800001 5.1672615e-39
-0.051991429 0.13137619 0.58700001 5.0750658e-39
-0.050873332 0.13137619 0.58700001 5.5353405e-39
-0.04984 0.13159999 0.588 6.3651012e-39
-0.048719998 0.13159999 0.588 7.2841358e-39
-0.11603429 0.12910858 0.57200003 1.3272536e-38
-0.11454286 0.12865715 0.57000005 1.2626445e-38
-0.11325809 0.12843142 0.56900001 1.3087423e-38
-0.11197715 0.12820572 0.56800002 1.2627526e-38
-0.1107 0.12798001 0.56700003 1.0968005e-38
-0.10942668 0.1277543 0.56600004 1.032515e-38
-0.10777429 0.12707715 0.56300002 7.9280633e-39
-0.1067019 0.12707715 0.56300002 7.4674382e-39
-0.10544191 0.12685144 0.56200004 7.5596339e-39
-0.10437143 0.12685144 0.56200004 7.4685214e-39
-0.10311715 0.12662573 0.56100005 7.4685214e-39
-0.10168476 0.12617429 0.55900002 7.7440111e-39
-0.10062 0.12617429 0.55900002 8.5737718e-39
-0.099555239 0.12617429 0.55900002 8.3904637e-39
-0.098314285 0.12594858 0.55800003 7.6528987e-39
-0.09725143 0.12594858 0.55800003 7.5596269e-39
-0.096188575 0.12594858 0.55800003 7.5596269e-39
-0.094955251 0.12572286 0.55700004 7.3763258e-39
-0.093894288 0.12572286 0.55700004 7.2841302e-39
-0.09283334 0.12572286 0.55700004 7.1004438e-39
-0.09160763 0.12549716 0.55600005 7.1004438e-39
-0.090548582 0.12549716 0.55600005 7.9273444e-39
-0.089650482 0.12572286 0.55700004 9.4946701e-39
-0.088589527 0.12572286 0.55700004 9.5879307e-39
-0.087371431 0.12549716 0.55600005 9.5879307e-39
-0.086312383 0.12549716 0.55600005 9.5879377e-39
-0.085406676 0.12572286 0.55700004 9.772329e-39
-0.084497146 0.12594858 0.55800003 1.0231156e-38
-0.083434291 0.12594858 0.55800003 9.6779824e-39
-0.082371436 0.12594858 0.55800003 9.4932114e-39
-0.081162862 0.12572286 0.55700004 9.585407e-39
-0.080101915 0.12572286 0.55700004 9.9545693e-39
-0.079182863 0.12594858 0.55800003 9.8623736e-39
-0.078260005 0.12617429 0.55900002 9.9545552e-39
-0.077195235 0.12617429 0.55900002 9.770164e-39
-0.07613048 0.12617429 0.55900002 1.0045686e-38
-0.075065717 0.12617429 0.55900002 1.0230077e-38
-0.074133337 0.12639999 0.56 1.0137531e-38
-0.072936192 0.12617429 0.55900002 1.0045336e-38
-0.07187143 0.12617429 0.55900002 9.7701612e-39
-0.070933335 0.12639999 0.56 9.7701612e-39
-0.070116192 0.12685144 0.56200004 9.1269456e-39
-0.069045715 0.12685144 0.56200004 8.8503587e-39
-0.067975245 0.12685144 0.56200004 8.1149614e-39
-0.067023806 0.12707715 0.56300002 8.6681352e-39
-0.066068575 0.12730286 0.56400001 1.078359e-38
-0.06499429 0.12730286 0.56400001 1.1705546e-38
-0.064033337 0.12752856 0.565 1.2165099e-38
-0.063068576 0.1277543 0.56600004 1.2257295e-38
-0.062100001 0.12798001 0.56700003 1.1982154e-38
-0.061020005 0.12798001 0.56700003 1.1889959e-38
-0.060045715 0.12820572 0.56800002 1.1982157e-38
-0.058963813 0.12820572 0.56800002 1.1889961e-38
-0.058187623 0.12888287 0.57100004 9.9560168e-39
-0.057100005 0.12888287 0.57100004 8.5730823e-39
-0.056110479 0.12910858 0.57200003 7.0086279e-39
-0.055117141 0.1293343 0.57300001 5.0725197e-39
-0.054214288 0.12978572 0.57500005 5.0735749e-39
-0.053119052 0.12978572 0.57500005 5.534553e-39
-0.052295238 0.13046287 0.57800001 5.6260816e-39
-0.051991429 0.13249429 0.58700001 5.6260816e-39
-0.050873332 0.13249429 0.58700001 5.6275306e-39
-0.049755238 0.13249429 0.58700001 5.9041174e-39
-0.048719998 0.13272001 0.588 6.9139113e-39
-0.12034572 0.13133618 0.57700002 1.6131686e-38
-0.11924667 0.13133618 0.57700002 1.3365817e-38
-0.11753333 0.13065334 0.574 1.3088144e-38
-0.11603429 0.13019811 0.57200003 1.3272536e-38
-0.11454286 0.12974286 0.57000005 1.3087791e-38
-0.11325809 0.12951523 0.56900001 1.3087791e-38
-0.11197715 0.12928762 0.56800002 1.2719722e-38
-0.1107 0.12906 0.56700003 1.0691418e-38
-0.10942668 0.1288324 0.56600004 1.032515e-38
-0.10815714 0.12860477 0.565 9.4031933e-39
-0.10689143 0.12837714 0.56400001 7.7447734e-39
-0.10562953 0.12814952 0.56300002 7.4681865e-39
-0.10437143 0.12792191 0.56200004 7.2837925e-39
-0.10330095 0.12792191 0.56200004 6.2696405e-39
-0.10186666 0.12746666 0.56 7.5599576e-39
-0.1008 0.12746666 0.56 7.6521532e-39
-0.09973333 0.12746666 0.56 7.9291184e-39
-0.098490477 0.12723905 0.55900002 7.6525316e-39
-0.097425714 0.12723905 0.55900002 7.0082481e-39
-0.096360952 0.12723905 0.55900002 7.0082481e-39
-0.094955251 0.12678382 0.55700004 7.1000949e-39
-0.093894288 0.12678382 0.55700004 7.3766817e-39
-0.09283334 0.12678382 0.55700004 7.1922905e-39
-0.09160763 0.1265562 0.55600005 7.9298555e-39
-0.090548582 0.1265562 0.55600005 7.9291367e-39
-0.089650482 0.12678382 0.55700004 6.6383978e-39
-0.088589527 0.12678382 0.55700004 6.7313081e-39
-0.087685719 0.12701143 0.55800003 7.9298513e-39
-0.086622857 0.12701143 0.55800003 7.9302072e-39
-0.085560001 0.12701143 0.55800003 8.1145985e-39
-0.084648572 0.12723905 0.55900002 7.2834393e-39
-0.083434291 0.12701143 0.55800003 6.7302656e-39
-0.082371436 0.12701143 0.55800003 7.190515e-39
-0.081162862 0.12678382 0.55700004 9.0344276e-39
-0.080101915 0.12678382 0.55700004 9.6794299e-39
-0.07932476 0.12723905 0.55900002 9.5872343e-39
-0.078260005 0.12723905 0.55900002 9.8620079e-39
-0.077195235 0.12723905 0.55900002 9.8620079e-39
-0.07613048 0.12723905 0.55900002 9.677632e-39
-0.075199999 0.12746666 0.56 9.677632e-39
-0.074133337 0.12746666 0.56 9.6772789e-39
-0.073066667 0.12746666 0.56 9.4928877e-39
-0.071999997 0.12746666 0.56 9.7694353e-39
-0.071060002 0.12769429 0.56100005 9.7694353e-39
-0.070116192 0.12792191 0.56200004 1.0414785e-38
-0.069168575 0.12814952 0.56300002 1.1428937e-38
-0.068217143 0.12837714 0.56400001 1.1428986e-38
-0.067261904 0.12860477 0.565 1.1428986e-38
-0.066185713 0.12860477 0.565 1.1982481e-38
-0.065109521 0.12860477 0.565 1.2259068e-38
-0.064146668 0.1288324 0.56600004 1.2257991e-38
-0.063180007 0.12906 0.56700003 1.2165796e-38
-0.062100001 0.12906 0.56700003 1.1430376e-38
-0.061127625 0.12928762 0.56800002 1.0877202e-38
-0.060045715 0.12928762 0.56800002 9.3102943e-39
-0.058963813 0.12928762 0.56800002 7.7429686e-39
-0.058187623 0.12997049 0.57100004 7.099355e-39
-0.057100005 0.12997049 0.57100004 6.4539856e-39
-0.056110479 0.13019811 0.57200003 4.88922e-39
-0.055117141 0.13042572 0.57300001 4.6126331e-39
-0.054214288 0.13088097 0.57500005 4.88922e-39
-0.053303812 0.13133618 0.57700002 5.2580025e-39
-0.052385718 0.13179144 0.57900006 4.9828702e-39
-0.051902857 0.13338476 0.58600003 5.1672615e-39
-0.05078667 0.13338476 0.58600003 5.4438708e-39
-0.049755238 0.13361238 0.58700001 6.642414e-39
-0.12013715 0.13220572 0.57600003 1.5855821e-38
-0.11862666 0.13174666 0.574 1.3274343e-38
-0.11753333 0.13174666 0.574 1.2995949e-38
-0.11603429 0.13128762 0.57200003 1.3272536e-38
-0.11474382 0.1310581 0.57100004 1.327218e-38
-0.11345715 0.13082857 0.57000005 1.3179984e-38
-0.11217429 0.13059904 0.56900001 1.2904829e-38
-0.11089524 0.13036953 0.56800002 1.1245308e-38
-0.10942668 0.12991048 0.56600004 1.0786477e-38
-0.10815714 0.12968095 0.565 9.0347597e-39
-0.10689143 0.12945142 0.56400001 8.4819629e-39
-0.10581715 0.12945142 0.56400001 8.1131804e-39
-0.10455714 0.1292219 0.56300002 7.4678082e-39
-0.10330095 0.12899238 0.56200004 7.0990257e-39
-0.10204858 0.12876287 0.56100005 7.9287653e-39
-0.10098001 0.12876287 0.56100005 7.8365697e-39
-0.099911436 0.12876287 0.56100005 7.5610688e-39
-0.09866666 0.12853333 0.56 7.3766775e-39
-0.097600006 0.12853333 0.56 6.8245758e-39
-0.096533336 0.12853333 0.56 6.5479889e-39
-0.09512572 0.1280743 0.55800003 6.3643137e-39
-0.094062865 0.1280743 0.55800003 6.4565093e-39
-0.093000002 0.1280743 0.55800003 6.5461714e-39
-0.092101902 0.12830381 0.55900002 8.2978883e-39
-0.091037147 0.12830381 0.55900002 7.8387417e-39
-0.089811429 0.1280743 0.55800003 6.4558072e-39
-0.088748574 0.1280743 0.55800003 5.7199952e-39
-0.087685719 0.1280743 0.55800003 6.6419515e-39
-0.086622857 0.1280743 0.55800003 6.8249261e-39
-0.085713334 0.12830381 0.55900002 7.0093173e-39
-0.084648572 0.12830381 0.55900002 6.6405446e-39
-0.083434291 0.1280743 0.55800003 6.0873708e-39
-0.082371436 0.1280743 0.55800003 6.6401691e-39
-0.081308573 0.1280743 0.55800003 8.8528642e-39
-0.080245718 0.1280743 0.55800003 9.3102943e-39
-0.07932476 0.12830381 0.55900002 9.2180986e-39
-0.078260005 0.12830381 0.55900002 9.5857699e-39
-0.077195235 0.12830381 0.55900002 9.7701612e-39
-0.07613048 0.12830381 0.55900002 9.5857867e-39
-0.075199999 0.12853333 0.56 9.4935911e-39
-0.074133337 0.12853333 0.56 9.4010325e-39
-0.073066667 0.12853333 0.56 9.6776194e-39
-0.071999997 0.12853333 0.56 9.9545454e-39
-0.071186669 0.12899238 0.56200004 1.0046741e-38
-0.070116192 0.12899238 0.56200004 1.1243129e-38
-0.069168575 0.1292219 0.56300002 1.2718259e-38
-0.068217143 0.12945142 0.56400001 1.2534615e-38
-0.067261904 0.12968095 0.565 1.2442419e-38
-0.066185713 0.12968095 0.565 1.2350923e-38
-0.065109521 0.12968095 0.565 1.2074336e-38
-0.064146668 0.12991048 0.56600004 1.2074692e-38
-0.063180007 0.13014001 0.56700003 1.2074692e-38
-0.062100001 0.13014001 0.56700003 1.1153812e-38
-0.061127625 0.13036953 0.56800002 9.6786816e-39
-0.060045715 0.13036953 0.56800002 8.2067913e-39
-0.059171431 0.13082857 0.57000005 6.6394656e-39
-0.058187623 0.1310581 0.57100004 6.1788406e-39
-0.0572 0.13128762 0.57200003 4.9802974e-39
-0.056110479 0.13128762 0.57200003 4.7047923e-39
-0.055405717 0.13220572 0.57600003 4.8891836e-39
-0.054308575 0.13220572 0.57600003 4.7058853e-39
-0.053303812 0.13243525 0.57700002 4.9824722e-39
-0.052385718 0.13289431 0.57900006 4.5225955e-39
-0.051902857 0.13450097 0.58600003 4.891378e-39
-0.05078667 0.13450097 0.58600003 5.1672615e-39
-0.049755238 0.13473049 0.58700001 6.7345872e-39
-0.12013715 0.13330285 0.57600003 1.686996e-38
-0.11862666 0.13283999 0.574 1.3458722e-38
-0.11753333 0.13283999 0.574 1.3087791e-38
-0.11623715 0.13260856 0.57300001 1.3087791e-38
-0.11474382 0.13214572 0.57100004 1.3179618e-38
-0.11345715 0.13191429 0.57000005 1.3179618e-38
-0.11217429 0.13168286 0.56900001 1.2904818e-38
-0.11089524 0.13145143 0.56800002 1.1706275e-38
-0.10942668 0.13098858 0.56600004 1.087723e-38
-0.10815714 0.13075714 0.565 8.8489265e-39
-0.10708095 0.13075714 0.565 8.2983003e-39
-0.10581715 0.13052571 0.56400001 8.2061047e-39
-0.10455714 0.13029429 0.56300002 7.3756378e-39
-0.10330095 0.13006286 0.56200004 7.0068553e-39
-0.10204858 0.12983143 0.56100005 7.3759881e-39
-0.10098001 0.12983143 0.56100005 7.652575e-39
-0.099911436 0.12983143 0.56100005 8.020612e-39
-0.09866666 0.1296 0.56 8.1128077e-39
-0.097600006 0.1296 0.56 7.6529155e-39
-0.096533336 0.1296 0.56 7.284133e-39
-0.095296197 0.12936857 0.55900002 8.1131566e-39
-0.094231427 0.12936857 0.55900002 8.5741347e-39
-0.093166672 0.12936857 0.55900002 8.6659646e-39
-0.092101902 0.12936857 0.55900002 8.7581602e-39
-0.091037147 0.12936857 0.55900002 8.4819391e-39
-0.089811429 0.12913714 0.55800003 8.3897435e-39
-0.088748574 0.12913714 0.55800003 8.1138572e-39
-0.087842859 0.12936857 0.55900002 7.929466e-39
-0.086778097 0.12936857 0.55900002 7.8376599e-39
-0.085713334 0.12936857 0.55900002 8.3908337e-39
-0.084648572 0.12936857 0.55900002 8.2064382e-39
-0.083583809 0.12936857 0.55900002 8.2064382e-39
-0.082519054 0.12936857 0.55900002 8.2993527e-39
-0.081454284 0.12936857 0.55900002 8.6681352e-39
-0.080389529 0.12936857 0.55900002 8.8500364e-39
-0.07932476 0.12936857 0.55900002 8.7578407e-39
-0.078400001 0.1296 0.56 9.2173405e-39
-0.077333331 0.1296 0.56 9.4939274e-39
-0.076266669 0.1296 0.56 9.9538434e-39
-0.075334288 0.12983143 0.56100005 1.08758e-38
-0.074265718 0.12983143 0.56100005 1.1337124e-38
-0.073197149 0.12983143 0.56100005 1.2074689e-38
-0.072385721 0.13029429 0.56300002 1.1889952e-38
-0.071313336 0.13029429 0.56300002 1.1982147e-38
-0.07024096 0.13029429 0.56300002 1.1982147e-38
-0.069291435 0.13052571 0.56400001 1.2443125e-38
-0.068338089 0.13075714 0.565 1.2442053e-38
-0.067261904 0.13075714 0.565 1.2165467e-38
-0.066185713 0.13075714 0.565 1.1520802e-38
-0.065224767 0.13098858 0.56600004 1.1428606e-38
-0.064260006 0.13122 0.56700003 1.0692131e-38
-0.063180007 0.13122 0.56700003 1.0138958e-38
-0.062100001 0.13122 0.56700003 9.5879209e-39
-0.061127625 0.13145143 0.56800002 8.2049865e-39
-0.060257148 0.13191429 0.57000005 7.9301722e-39
-0.059275243 0.13214572 0.57100004 6.8238247e-39
-0.058289524 0.13237715 0.57200003 5.5352929e-39
-0.057300001 0.13260856 0.57300001 3.9679672e-39
-0.056306668 0.13283999 0.574 4.4292816e-39
-0.055405717 0.13330285 0.57600003 4.6136729e-39
-0.054402858 0.13353428 0.57700002 4.6126331e-39
-0.053488575 0.13399714 0.57900006 6.0877632e-39
-0.052476194 0.13422859 0.58000004 6.8242338e-39
-0.051725719 0.13515431 0.58400005 7.7461901e-39
-0.050700005 0.13538572 0.58500004 7.9288088e-39
-0.12034572 0.13463333 0.57700002 1.705328e-38
-0.11883334 0.13416667 0.57500005 1.3642041e-38
-0.11753333 0.13393334 0.574 1.3548401e-38
-0.11623715 0.13370001 0.57300001 1.3179618e-38
-0.11494477 0.13346666 0.57200003 1.3179618e-38
-0.11365619 0.13323334 0.57100004 1.3179618e-38
-0.11237144 0.133 0.57000005 1.2904818e-38
-0.11109048 0.13276666 0.56900001 1.1706275e-38
-0.10962 0.1323 0.56700003 1.0786477e-38
-0.10834858 0.13206668 0.56600004 9.1269554e-39
-0.10708095 0.13183333 0.565 9.1269764e-39
-0.10600476 0.13183333 0.565 8.3894114e-39
-0.10492858 0.13183333 0.565 7.836941e-39
-0.10348476 0.13136667 0.56300002 7.1915716e-39
-0.10223048 0.13113333 0.56200004 7.1007969e-39
-0.10116 0.13113333 0.56200004 7.4695794e-39
-0.10026763 0.13136667 0.56300002 7.7447244e-39
-0.099019058 0.13113333 0.56200004 8.574485e-39
-0.097948581 0.13113333 0.56200004 9.3106446e-39
-0.09670572 0.13090001 0.56100005 9.218449e-39
-0.095466666 0.13066666 0.56 9.2184518e-39
-0.094231427 0.13043334 0.55900002 9.1262561e-39
-0.093166672 0.13043334 0.55900002 8.9422012e-39
-0.092266664 0.13066666 0.56 8.9422012e-39
-0.091200002 0.13066666 0.56 8.8500027e-39
-0.090133332 0.13066666 0.56 9.2187853e-39
-0.089066662 0.13066666 0.56 9.6779824e-39
-0.088 0.13066666 0.56 9.032613e-39
-0.08693333 0.13066666 0.56 8.6649094e-39
-0.085713334 0.13043334 0.55900002 9.033692e-39
-0.084648572 0.13043334 0.55900002 8.7603309e-39
-0.083583809 0.13043334 0.55900002 8.3915483e-39
-0.082519054 0.13043334 0.55900002 8.574855e-39
-0.081600003 0.13066666 0.56 8.574855e-39
-0.080533333 0.13066666 0.56 8.7581939e-39
-0.079466671 0.13066666 0.56 8.7581939e-39
-0.078400001 0.13066666 0.56 9.2173405e-39
-0.077333331 0.13066666 0.56 9.8627099e-39
-0.076539055 0.13113333 0.56200004 1.0598497e-38
-0.075468577 0.13113333 0.56200004 1.1151671e-38
-0.0743981 0.13113333 0.56200004 1.1887803e-38
-0.073458098 0.13136667 0.56300002 1.2348782e-38
-0.072514281 0.13160001 0.56400001 1.2165092e-38
-0.071440004 0.13160001 0.56400001 1.2257288e-38
-0.070365719 0.13160001 0.56400001 1.1798116e-38
-0.069291435 0.13160001 0.56400001 1.2074703e-38
-0.068338089 0.13183333 0.565 1.2166185e-38
-0.067261904 0.13183333 0.565 1.1336425e-38
-0.066185713 0.13183333 0.565 1.1335675e-38
-0.065224767 0.13206668 0.56600004 1.0874697e-38
