# .PCD v0.7 - Point Cloud Data file format
VERSION 0.7
FIELDS x y z rgb
SIZE 4 4 4 4
TYPE F F F F
COUNT 1 1 1 1
WIDTH 990
HEIGHT 1
VIEWPOINT 0 0 0 1 0 0 0
POINTS 990
DATA ascii
-0.12806095 0.018102858 0.70400006 7.2923992e-39
-0.12672001 0.018102858 0.70400006 7.4767905e-39
-0.12537906 0.018102858 0.70400006 7.6600944e-39
-0.12386191 0.018077144 0.70300001 7.4757031e-39
-0.12217429 0.018025715 0.70100003 7.3838746e-39
-0.12083905 0.018025715 0.70100003 7.291679e-39
-0.11950381 0.018025715 0.70100003 7.3835215e-39
-0.11850572 0.018077144 0.70300001 7.2913259e-39
-0.11716667 0.018077144 0.70300001 7.4756933e-39
-0.11599239 0.018102858 0.70400006 7.6600846e-39
-0.11465143 0.018102858 0.70400006 7.8434178e-39
-0.11331049 0.018102858 0.70400006 7.7512222e-39
-0.11228763 0.018154286 0.70600003 8.2107542e-39
-0.11094286 0.018154286 0.70600003 8.5795367e-39
-0.1095981 0.018154286 0.70600003 8.3954986e-39
-0.10825334 0.018154286 0.70600003 8.3954986e-39
-0.10690857 0.018154286 0.70600003 7.9356163e-39
-0.10556381 0.018154286 0.70600003 6.9214643e-39
-0.10421906 0.018154286 0.70600003 5.3566427e-39
-0.10287429 0.018154286 0.70600003 3.9737083e-39
-0.10152952 0.018154286 0.70600003 4.8906255e-39
-0.10018477 0.018154286 0.70600003 5.0750168e-39
-0.098840006 0.018154286 0.70600003 1.0041716e-38
-0.15171428 0.019554285 0.708 1.1154194e-38
-0.15015334 0.019526666 0.70700002 5.9069299e-39
-0.14880668 0.019526666 0.70700002 7.2898643e-39
-0.14746 0.019526666 0.70700002 8.3018877e-39
-0.14590667 0.019499049 0.70600003 8.3940833e-39
-0.14456192 0.019499049 0.70600003 8.0278119e-39
-0.14260857 0.019416191 0.70300001 7.751225e-39
-0.14086762 0.019360952 0.70100003 7.5679099e-39
-0.13933334 0.019333335 0.70000005 7.0147362e-39
-0.13800001 0.019333335 0.70000005 7.0143592e-39
-0.13666669 0.019333335 0.70000005 7.2909461e-39
-0.13533334 0.019333335 0.70000005 7.6597286e-39
-0.13419142 0.019360952 0.70100003 7.6597286e-39
-0.13323525 0.019416191 0.70300001 6.7395912e-39
-0.13189618 0.019416191 0.70300001 7.0161781e-39
-0.13018572 0.019360952 0.70100003 7.3835047e-39
-0.12885047 0.019360952 0.70100003 7.1991134e-39
-0.12751524 0.019360952 0.70100003 6.7402933e-39
-0.12618001 0.019360952 0.70100003 7.1090758e-39
-0.12484477 0.019360952 0.70100003 6.9243244e-39
-0.12333335 0.019333335 0.70000005 7.1087156e-39
-0.122 0.019333335 0.70000005 7.2923992e-39
-0.12066668 0.019333335 0.70000005 7.2923992e-39
-0.11933334 0.019333335 0.70000005 7.3838914e-39
-0.11800001 0.019333335 0.70000005 7.2916958e-39
-0.11666667 0.019333335 0.70000005 7.5678987e-39
-0.1154981 0.019360952 0.70100003 7.6600944e-39
-0.11416285 0.019360952 0.70100003 7.659758e-39
-0.11282763 0.019360952 0.70100003 7.659758e-39
-0.11181048 0.019416191 0.70300001 8.486639e-39
-0.11047143 0.019416191 0.70300001 8.7632259e-39
-0.10928763 0.019443812 0.70400006 9.038008e-39
-0.10794667 0.019443812 0.70400006 8.4848342e-39
-0.10645428 0.019416191 0.70300001 7.381739e-39
-0.10511524 0.019416191 0.70300001 5.6300221e-39
-0.10392382 0.019443812 0.70400006 2.042279e-39
-0.10258286 0.019443812 0.70400006 2.5032572e-39
-0.10124191 0.019443812 0.70400006 5.0732189e-39
-0.099900961 0.019443812 0.70400006 5.1654146e-39
-0.098840006 0.019499049 0.70600003 9.0304185e-39
-0.097633332 0.019526666 0.70700002 1.9079742e-38
-0.15284666 0.020873332 0.70700002 2.0281562e-38
-0.1515 0.020873332 0.70700002 1.2076151e-38
-0.14994095 0.020843811 0.70600003 5.9991423e-39
-0.14859618 0.020843811 0.70600003 4.9849904e-39
-0.14725144 0.020843811 0.70600003 5.6300221e-39
-0.14528666 0.020755239 0.70300001 6.4597827e-39
-0.1435381 0.020696191 0.70100003 7.9345176e-39
-0.142 0.020666666 0.70000005 8.3033002e-39
-0.14066668 0.020666666 0.70000005 8.1189089e-39
-0.13893524 0.020607619 0.69800001 7.104757e-39
-0.13760573 0.020607619 0.69800001 7.1065548e-39
-0.13627619 0.020607619 0.69800001 7.1065548e-39
-0.13494666 0.020607619 0.69800001 7.1998169e-39
-0.134 0.020666666 0.70000005 7.4764037e-39
-0.13266666 0.020666666 0.70000005 7.3838914e-39
-0.13077047 0.020578096 0.69700003 7.1073045e-39
-0.12944287 0.020578096 0.69700003 7.1994665e-39
-0.12829906 0.020607619 0.69800001 7.1994665e-39
-0.12733334 0.020666666 0.70000005 7.0172179e-39
-0.12563999 0.020607619 0.69800001 7.1094135e-39
-0.12431048 0.020607619 0.69800001 7.4760534e-39
-0.12298095 0.020607619 0.69800001 7.5682491e-39
-0.12165143 0.020607619 0.69800001 7.8444828e-39
-0.12014953 0.020578096 0.69700003 7.9366784e-39
-0.11882191 0.020578096 0.69700003 7.6604783e-39
-0.11749429 0.020578096 0.69700003 7.6604783e-39
-0.11616667 0.020578096 0.69700003 8.1185586e-39
-0.11500382 0.020607619 0.69800001 8.1185586e-39
-0.114 0.020666666 0.70000005 7.8430703e-39
-0.11266667 0.020666666 0.70000005 7.3820922e-39
-0.11133334 0.020666666 0.70000005 6.0002591e-39
-0.11015715 0.020696191 0.70100003 5.539281e-39
-0.10882191 0.020696191 0.70100003 3.9701476e-39
-0.10748667 0.020696191 0.70100003 3.7857563e-39
-0.10615143 0.020696191 0.70100003 2.593285e-39
-0.1048162 0.020696191 0.70100003 2.2245025e-39
-0.10377619 0.020755239 0.70300001 3.3258474e-39
-0.10258286 0.020784764 0.70400006 3.6024343e-39
-0.10124191 0.020784764 0.70400006 4.9814157e-39
-0.099900961 0.020784764 0.70400006 4.88922e-39
-0.098840006 0.020843811 0.70600003 8.5697781e-39
-0.097633332 0.020873332 0.70700002 1.908008e-38
-0.15263048 0.022188572 0.70600003 2.0281559e-38
-0.15128572 0.022188572 0.70600003 1.2721517e-38
-0.14994095 0.022188572 0.70600003 6.1824546e-39
-0.14817525 0.022125715 0.70400006 4.8917157e-39
-0.14620858 0.02203143 0.70100003 5.5378264e-39
-0.14487334 0.02203143 0.70100003 6.5519784e-39
-0.14333335 0.022000002 0.70000005 7.0118621e-39
-0.14159428 0.021937143 0.69800001 7.0118621e-39
-0.14026476 0.021937143 0.69800001 7.0122152e-39
-0.13873619 0.021905715 0.69700003 7.1966065e-39
-0.13740857 0.021905715 0.69700003 7.4746381e-39
-0.13588572 0.021874286 0.69600004 7.3824425e-39
-0.13456 0.021874286 0.69600004 7.2913259e-39
-0.13323429 0.021874286 0.69600004 7.4757171e-39
-0.13152952 0.021811429 0.69400001 7.4753836e-39
-0.13020761 0.021811429 0.69400001 7.1987967e-39
-0.12925714 0.021874286 0.69600004 7.1073045e-39
-0.12793143 0.021874286 0.69600004 7.1995002e-39
-0.12660572 0.021874286 0.69600004 7.6608342e-39
-0.12528001 0.021874286 0.69600004 7.1998561e-39
-0.12395429 0.021874286 0.69600004 7.3835215e-39
-0.12280477 0.021905715 0.69700003 7.6601084e-39
-0.12147714 0.021905715 0.69700003 8.1207362e-39
-0.11997715 0.021874286 0.69600004 7.7519537e-39
-0.11865143 0.021874286 0.69600004 7.6594049e-39
-0.11732572 0.021874286 0.69600004 7.4750137e-39
-0.11600001 0.021874286 0.69600004 7.6568784e-39
-0.11467429 0.021874286 0.69600004 8.1178565e-39
-0.11367428 0.021937143 0.69800001 8.1171559e-39
-0.11234476 0.021937143 0.69800001 7.1951996e-39
-0.11101524 0.021937143 0.69800001 4.3446979e-39
-0.10968572 0.021937143 0.69800001 2.9617634e-39
-0.10866667 0.022000002 0.70000005 2.1297957e-39
-0.10733334 0.022000002 0.70000005 2.2219913e-39
-0.10615143 0.02203143 0.70100003 4.1526947e-39
-0.1048162 0.02203143 0.70100003 3.3229383e-39
-0.10377619 0.022094285 0.70300001 2.9545411e-39
-0.10243714 0.022094285 0.70300001 4.2452799e-39
-0.10109809 0.022094285 0.70300001 4.2460058e-39
-0.09975905 0.022094285 0.70300001 4.0616146e-39
-0.098560005 0.022125715 0.70400006 8.1091629e-39
-0.097771429 0.022251429 0.708 1.8250682e-38
-0.15263048 0.023533335 0.70600003 2.0189716e-38
-0.15085715 0.023466667 0.70400006 1.3182848e-38
-0.14930381 0.023433333 0.70300001 6.3661676e-39
-0.14754382 0.023366667 0.70100003 2.5861468e-39
-0.146 0.023333335 0.70000005 3.6924817e-39
-0.14425333 0.023266668 0.69800001 4.0612642e-39
-0.14292382 0.023266668 0.69800001 4.2466924e-39
-0.14139143 0.023233334 0.69700003 4.5232793e-39
-0.13986287 0.0232 0.69600004 4.2488406e-39
-0.13853714 0.0232 0.69600004 4.7098188e-39
-0.13721143 0.0232 0.69600004 4.2513742e-39
-0.13549525 0.023133334 0.69400001 4.4357654e-39
-0.13417333 0.023133334 0.69400001 4.2513742e-39
-0.13266 0.0231 0.69300002 4.3435698e-39
-0.13096096 0.023033334 0.69100004 4.3428804e-39
-0.12964478 0.023033334 0.69100004 4.3428804e-39
-0.12832858 0.023033334 0.69100004 3.8829812e-39
-0.12701239 0.023033334 0.69100004 3.6063943e-39
-0.12606001 0.0231 0.69300002 3.6993088e-39
-0.12492 0.023133334 0.69400001 3.7915045e-39
-0.12359809 0.023133334 0.69400001 3.6985563e-39
-0.12227619 0.023133334 0.69400001 3.6063607e-39
-0.12095428 0.023133334 0.69400001 3.3287285e-39
-0.11963238 0.023133334 0.69400001 2.7755547e-39
-0.11831047 0.023133334 0.69400001 2.1326754e-39
-0.11732572 0.0232 0.69600004 1.9482841e-39
-0.11600001 0.0232 0.69600004 2.4056623e-39
-0.11467429 0.0232 0.69600004 2.497858e-39
-0.11351143 0.023233334 0.69700003 2.495721e-39
-0.11218382 0.023233334 0.69700003 1.6659603e-39
-0.11085619 0.023233334 0.69700003 1.3911937e-39
-0.10968572 0.023266668 0.69800001 1.3911937e-39
-0.10835619 0.023266668 0.69800001 1.667768e-39
-0.10702667 0.023266668 0.69800001 2.3131374e-39
-0.10600001 0.023333335 0.70000005 2.6790136e-39
-0.10466667 0.023333335 0.70000005 2.6790136e-39
-0.10377619 0.023433333 0.70300001 3.3218971e-39
-0.10243714 0.023433333 0.70300001 4.6126359e-39
-0.10109809 0.023433333 0.70300001 4.7048288e-39
-0.09975905 0.023433333 0.70300001 4.6126331e-39
-0.098560005 0.023466667 0.70400006 6.7294654e-39
-0.097771429 0.023600001 0.708 1.6686593e-38
-0.097103812 0.023766669 0.71300006 2.046338e-38
-0.09574572 0.023766669 0.71300006 2.193851e-38
-0.15263048 0.024878096 0.70600003 2.0097523e-38
-0.15085715 0.024807621 0.70400006 1.3551634e-38
-0.14887907 0.024701906 0.70100003 9.0351563e-39
-0.14754382 0.024701906 0.70100003 3.9643967e-39
-0.146 0.024666667 0.70000005 3.508438e-39
-0.14425333 0.02459619 0.69800001 3.6928292e-39
-0.14271906 0.024560954 0.69700003 3.6935243e-39
-0.14118858 0.024525715 0.69600004 2.8637636e-39
-0.13986287 0.024525715 0.69600004 2.3123891e-39
-0.13813905 0.024455238 0.69400001 2.9577515e-39
-0.13681714 0.024455238 0.69400001 4.7069868e-39
-0.13549525 0.024455238 0.69400001 2.8630742e-39
-0.13398001 0.024420001 0.69300002 2.495721e-39
-0.13227715 0.024349526 0.69100004 2.6801122e-39
-0.13077144 0.024314288 0.69000006 4.2456555e-39
-0.12945715 0.024314288 0.69000006 3.6002861e-39
-0.12814288 0.024314288 0.69000006 3.1414533e-39
-0.12682858 0.024314288 0.69000006 3.0492577e-39
-0.1255143 0.024314288 0.69000006 3.1414533e-39
-0.12438001 0.024349526 0.69100004 2.3116926e-39
-0.12342 0.024420001 0.69300002 2.6790136e-39
-0.1221 0.024420001 0.69300002 2.6790136e-39
-0.12095428 0.024455238 0.69400001 2.5864607e-39
-0.11963238 0.024455238 0.69400001 2.4942664e-39
-0.11831047 0.024455238 0.69400001 2.1276419e-39
-0.11698857 0.024455238 0.69400001 1.758865e-39
-0.11566667 0.024455238 0.69400001 2.033654e-39
-0.11434477 0.024455238 0.69400001 2.1258482e-39
-0.11334857 0.024525715 0.69600004 2.6779514e-39
-0.11202286 0.024525715 0.69600004 2.6779514e-39
-0.11085619 0.024560954 0.69700003 2.7701499e-39
-0.10952857 0.024560954 0.69700003 2.9545411e-39
-0.10835619 0.02459619 0.69800001 2.9545411e-39
-0.10702667 0.02459619 0.69800001 2.8623455e-39
-0.10600001 0.024666667 0.70000005 2.8634021e-39
-0.10466667 0.024666667 0.70000005 2.9555963e-39
-0.10377619 0.02477238 0.70300001 3.4151395e-39
-0.10243714 0.02477238 0.70300001 4.4292914e-39
-0.10109809 0.02477238 0.70300001 4.5204347e-39
-0.09975905 0.02477238 0.70300001 4.5204347e-39
-0.098560005 0.024807621 0.70400006 5.3490645e-39
-0.098047622 0.025019048 0.71000004 1.6043758e-38
-0.097103812 0.025124764 0.71300006 1.90819e-38
-0.09574572 0.025124764 0.71300006 2.1386791e-38
-0.15263048 0.026222857 0.70600003 2.0373394e-38
-0.15085715 0.026148573 0.70400006 1.5487026e-38
-0.14887907 0.026037144 0.70100003 8.8522476e-39
-0.14754382 0.026037144 0.70100003 3.9658792e-39
-0.146 0.026000001 0.70000005 3.0481787e-39
-0.14404668 0.025888572 0.69700003 3.4169612e-39
-0.14271906 0.025888572 0.69700003 2.7712415e-39
-0.14118858 0.025851429 0.69600004 2.6790458e-39
-0.13986287 0.025851429 0.69600004 2.3120304e-39
-0.13813905 0.025777142 0.69400001 2.4964202e-39
-0.13681714 0.025777142 0.69400001 2.8634371e-39
-0.1353 0.025739999 0.69300002 2.3102633e-39
-0.13398001 0.025739999 0.69300002 1.7578182e-39
-0.13227715 0.025665715 0.69100004 1.1124488e-39
-0.13077144 0.025628572 0.69000006 1.6656198e-39
-0.12945715 0.025628572 0.69000006 2.1265979e-39
-0.12814288 0.025628572 0.69000006 2.1265881e-39
-0.12682858 0.025628572 0.69000006 2.0343925e-39
-0.1255143 0.025628572 0.69000006 2.0344051e-39
-0.1242 0.025628572 0.69000006 2.0344051e-39
-0.12306382 0.025665715 0.69100004 2.1269385e-39
-0.1221 0.025739999 0.69300002 2.3113297e-39
-0.12078 0.025739999 0.69300002 2.4027897e-39
-0.11946 0.025739999 0.69300002 2.4949839e-39
-0.11814 0.025739999 0.69300002 2.0347428e-39
-0.11682 0.025739999 0.69300002 2.1269385e-39
-0.1155 0.025739999 0.69300002 2.493563e-39
-0.11434477 0.025777142 0.69400001 2.5857586e-39
-0.11334857 0.025851429 0.69600004 2.6779514e-39
-0.11202286 0.025851429 0.69600004 3.0467339e-39
-0.11085619 0.025888572 0.69700003 2.9545411e-39
-0.10952857 0.025888572 0.69700003 2.9545411e-39
-0.10820096 0.025888572 0.69700003 3.1385526e-39
-0.10687333 0.025888572 0.69700003 3.1385526e-39
-0.10569715 0.025925715 0.69800001 3.1385526e-39
-0.10466667 0.026000001 0.70000005 3.3229439e-39
-0.10348096 0.026037144 0.70100003 3.5991706e-39
-0.10243714 0.026111428 0.70300001 4.1523444e-39
-0.10109809 0.026111428 0.70300001 4.4282391e-39
-0.099900961 0.026148573 0.70400006 4.2438478e-39
-0.098980002 0.02626 0.70700002 4.6140232e-39
-0.098047622 0.026371431 0.71000004 1.5677499e-38
-0.097103812 0.02648286 0.71300006 2.0004204e-38
-0.09574572 0.02648286 0.71300006 2.1663725e-38
-0.15263048 0.027567619 0.70600003 2.0557067e-38
-0.15064286 0.027450476 0.70300001 1.5762894e-38
-0.14887907 0.027372383 0.70100003 1.0419889e-38
-0.14733334 0.027333336 0.70000005 3.3208251e-39
-0.14558285 0.027255237 0.69800001 2.8648426e-39
-0.14404668 0.027216192 0.69700003 3.3258208e-39
-0.1425143 0.027177144 0.69600004 3.5991706e-39
-0.14078286 0.027099047 0.69400001 3.3225838e-39
-0.13946095 0.027099047 0.69400001 3.0467368e-39
-0.13813905 0.027099047 0.69400001 2.9545411e-39
-0.13662 0.02706 0.69300002 2.6793934e-39
-0.1353 0.02706 0.69300002 2.5871977e-39
-0.13359334 0.026981905 0.69100004 2.493563e-39
-0.13227715 0.026981905 0.69100004 1.8481936e-39
-0.13077144 0.02694286 0.69000006 2.2148181e-39
-0.12945715 0.02694286 0.69000006 2.7679919e-39
-0.12814288 0.02694286 0.69000006 2.5850495e-39
-0.12682858 0.02694286 0.69000006 2.4006583e-39
-0.1255143 0.02694286 0.69000006 2.216267e-39
-0.1242 0.02694286 0.69000006 2.4928539e-39
-0.12288573 0.02694286 0.69000006 2.4942664e-39
-0.12174763 0.026981905 0.69100004 2.4942664e-39
-0.12043144 0.026981905 0.69100004 2.2184012e-39
-0.11911524 0.026981905 0.69100004 1.7574301e-39
-0.11779906 0.026981905 0.69100004 1.8481936e-39
-0.11682 0.02706 0.69300002 2.0325848e-39
-0.1155 0.02706 0.69300002 2.7679919e-39
-0.11418 0.02706 0.69300002 2.8601875e-39
-0.11334857 0.027177144 0.69600004 3.0456381e-39
-0.11202286 0.027177144 0.69600004 3.0456381e-39
-0.11069715 0.027177144 0.69600004 3.1385526e-39
-0.10952857 0.027216192 0.69700003 3.2307483e-39
-0.10820096 0.027216192 0.69700003 2.771589e-39
-0.10687333 0.027216192 0.69700003 2.8637846e-39
-0.10569715 0.027255237 0.69800001 3.2307483e-39
-0.10466667 0.027333336 0.70000005 3.4151395e-39
-0.10348096 0.027372383 0.70100003 3.7839122e-39
-0.10243714 0.027450476 0.70300001 4.1526947e-39
-0.10109809 0.027450476 0.70300001 4.1516522e-39
-0.099900961 0.027489526 0.70400006 4.5204347e-39
-0.098980002 0.027606668 0.70700002 4.1545389e-39
-0.098047622 0.02772381 0.71000004 1.6600949e-38
-0.097103812 0.027840953 0.71300006 1.9912063e-38
-0.09574572 0.027840953 0.71300006 2.1294997e-38
-0.15263048 0.028912382 0.70600003 2.0189366e-38
-0.15064286 0.028789524 0.70300001 1.5487389e-38
-0.14887907 0.02870762 0.70100003 9.6852201e-39
-0.14733334 0.028666668 0.70000005 1.8485915e-39
-0.14558285 0.028584762 0.69800001 2.771589e-39
-0.14384001 0.028502857 0.69600004 3.3247628e-39
-0.1425143 0.028502857 0.69600004 3.4172975e-39
-0.14078286 0.028420953 0.69400001 3.6016888e-39
-0.13946095 0.028420953 0.69400001 3.2329063e-39
-0.13794 0.028380001 0.69300002 2.8641237e-39
-0.13662 0.028380001 0.69300002 2.6793934e-39
-0.13490954 0.028298097 0.69100004 2.4028065e-39
-0.13359334 0.028298097 0.69100004 2.4006583e-39
-0.13208573 0.028257145 0.69000006 1.8474845e-39
-0.13077144 0.028257145 0.69000006 1.6634464e-39
-0.12945715 0.028257145 0.69000006 2.1244245e-39
-0.12814288 0.028257145 0.69000006 2.1240714e-39
-0.12682858 0.028257145 0.69000006 2.4006583e-39
-0.1255143 0.028257145 0.69000006 2.4013673e-39
-0.1242 0.028257145 0.69000006 2.493563e-39
-0.12288573 0.028257145 0.69000006 2.4942664e-39
-0.12157144 0.028257145 0.69000006 2.4020722e-39
-0.12043144 0.028298097 0.69100004 2.4942664e-39
-0.11911524 0.028298097 0.69100004 2.2176837e-39
-0.11779906 0.028298097 0.69100004 2.1247805e-39
-0.11648286 0.028298097 0.69100004 2.4013673e-39
-0.1155 0.028380001 0.69300002 2.4013673e-39
-0.11418 0.028380001 0.69300002 2.5857586e-39
-0.11334857 0.028502857 0.69600004 2.8608909e-39
-0.11202286 0.028502857 0.69600004 3.1374736e-39
-0.11069715 0.028502857 0.69600004 3.1385526e-39
-0.10952857 0.028543809 0.69700003 3.2307483e-39
-0.10820096 0.028543809 0.69700003 2.771589e-39
-0.10702667 0.028584762 0.69800001 2.8637846e-39
-0.10600001 0.028666668 0.70000005 3.3222446e-39
-0.10466667 0.028666668 0.70000005 3.3222446e-39
-0.10348096 0.02870762 0.70100003 3.3236557e-39
-0.10243714 0.028789524 0.70300001 3.6924355e-39
-0.10124191 0.02883048 0.70400006 3.415892e-39
-0.099900961 0.02883048 0.70400006 4.2456527e-39
-0.098980002 0.028953334 0.70700002 8.2036132e-39
-0.098185718 0.029117145 0.71100003 1.9912458e-38
-0.097103812 0.029199049 0.71300006 2.230807e-38
-0.09574572 0.029199049 0.71300006 2.3507334e-38
-0.15085715 0.03017143 0.70400006 1.760933e-38
-0.14887907 0.030042859 0.70100003 1.1255388e-38
-0.14733334 0.030000001 0.70000005 2.3124115e-39
-0.14558285 0.029914286 0.69800001 2.5889984e-39
-0.14384001 0.029828573 0.69600004 3.2343678e-39
-0.1425143 0.029828573 0.69600004 3.6006336e-39
-0.14078286 0.029742856 0.69400001 3.4162423e-39
-0.13946095 0.029742856 0.69400001 2.9559803e-39
-0.13794 0.029700002 0.69300002 2.6793934e-39
-0.13662 0.029700002 0.69300002 2.8623455e-39
-0.13490954 0.029614286 0.69100004 2.8623455e-39
-0.13340001 0.029571431 0.69000006 2.8623455e-39
-0.13208573 0.029571431 0.69000006 2.2169761e-39
-0.13077144 0.029571431 0.69000006 2.1265881e-39
-0.12945715 0.029571431 0.69000006 2.0343925e-39
-0.12814288 0.029571431 0.69000006 2.0343925e-39
-0.12646097 0.029485716 0.68800002 2.0343925e-39
-0.12515049 0.029485716 0.68800002 2.1269385e-39
-0.12384 0.029485716 0.68800002 2.0347428e-39
-0.12288573 0.029571431 0.69000006 2.2180425e-39
-0.12157144 0.029571431 0.69000006 2.3102367e-39
-0.12025715 0.029571431 0.69000006 2.493563e-39
-0.11911524 0.029614286 0.69100004 2.493563e-39
-0.11779906 0.029614286 0.69100004 2.493563e-39
-0.11648286 0.029614286 0.69100004 2.4013673e-39
-0.1155 0.029700002 0.69300002 2.493563e-39
-0.11418 0.029700002 0.69300002 2.5857586e-39
-0.11334857 0.029828573 0.69600004 2.5864607e-39
-0.11202286 0.029828573 0.69600004 2.8630447e-39
-0.11069715 0.029828573 0.69600004 3.1385526e-39
-0.10952857 0.02987143 0.69700003 3.2307483e-39
-0.10820096 0.02987143 0.69700003 3.2307483e-39
-0.10702667 0.029914286 0.69800001 3.3229439e-39
-0.10600001 0.030000001 0.70000005 3.3222446e-39
-0.10466667 0.030000001 0.70000005 3.4144403e-39
-0.10377619 0.030128572 0.70300001 3.6917264e-39
-0.10243714 0.030128572 0.70300001 3.6917264e-39
-0.10124191 0.03017143 0.70400006 2.5886481e-39
-0.099900961 0.03017143 0.70400006 4.0637782e-39
-0.098980002 0.030300001 0.70700002 1.1332474e-38
-0.097633332 0.030300001 0.70700002 2.092082e-38
-0.096286669 0.030300001 0.70700002 2.2950919e-38
-0.14887907 0.031378098 0.70100003 1.86245e-38
-0.14733334 0.031333335 0.70000005 4.0576223e-39
-0.14558285 0.031243809 0.69800001 5.6645248e-40
-0.14404668 0.031199049 0.69700003 2.4103651e-39
-0.1425143 0.031154288 0.69600004 3.9697552e-39
-0.14118858 0.031154288 0.69600004 3.5087771e-39
-0.13946095 0.031064762 0.69400001 2.9556327e-39
-0.13794 0.031019999 0.69300002 2.6790458e-39
-0.13662 0.031019999 0.69300002 2.495721e-39
-0.13490954 0.030930476 0.69100004 2.3113297e-39
-0.13340001 0.030885719 0.69000006 2.7701499e-39
-0.13208573 0.030885719 0.69000006 2.5857586e-39
-0.13077144 0.030885719 0.69000006 2.2177272e-39
-0.12945715 0.030885719 0.69000006 2.2177272e-39
-0.12814288 0.030885719 0.69000006 2.2187838e-39
-0.12646097 0.030796193 0.68800002 2.2187838e-39
-0.12515049 0.030796193 0.68800002 2.4013673e-39
-0.12384 0.030796193 0.68800002 2.3091717e-39
-0.12288573 0.030885719 0.69000006 2.126207e-39
-0.12157144 0.030885719 0.69000006 2.126207e-39
-0.12025715 0.030885719 0.69000006 2.7694408e-39
-0.11911524 0.030930476 0.69100004 2.6772452e-39
-0.11779906 0.030930476 0.69100004 2.5857558e-39
-0.11648286 0.030930476 0.69100004 2.4935602e-39
-0.1155 0.031019999 0.69300002 2.493563e-39
-0.11418 0.031019999 0.69300002 2.6779542e-39
-0.11334857 0.031154288 0.69600004 2.8630447e-39
-0.11202286 0.031154288 0.69600004 2.8630447e-39
-0.11085619 0.031199049 0.69700003 3.1385526e-39
-0.10952857 0.031199049 0.69700003 3.046357e-39
-0.10820096 0.031199049 0.69700003 2.9545411e-39
-0.10702667 0.031243809 0.69800001 3.231128e-39
-0.10600001 0.031333335 0.70000005 3.3222446e-39
-0.10466667 0.031333335 0.70000005 3.5066359e-39
-0.10377619 0.03146762 0.70300001 3.2315134e-39
-0.10243714 0.03146762 0.70300001 2.9549265e-39
-0.10124191 0.031512383 0.70400006 3.0478662e-39
-0.099900961 0.031512383 0.70400006 7.3810608e-39
-0.098980002 0.031646665 0.70700002 1.1519363e-38
-0.097633332 0.031646665 0.70700002 1.9632578e-38
-0.14887907 0.032713335 0.70100003 2.0465615e-38
-0.14733334 0.032666668 0.70000005 5.3455319e-39
-0.146 0.032666668 0.70000005 2.9545411e-39
-0.14425333 0.032573331 0.69800001 3.5999105e-39
-0.14271906 0.032526664 0.69700003 3.692832e-39
-0.14118858 0.032480001 0.69600004 3.692832e-39
-0.13946095 0.032386668 0.69400001 2.6808437e-39
-0.13813905 0.032386668 0.69400001 2.3120612e-39
-0.13662 0.032340001 0.69300002 2.4953706e-39
-0.13490954 0.032246668 0.69100004 2.3109794e-39
-0.13359334 0.032246668 0.69100004 2.5857558e-39
-0.13208573 0.032200001 0.69000006 2.4935602e-39
-0.13077144 0.032200001 0.69000006 2.4928539e-39
-0.12945715 0.032200001 0.69000006 2.5850495e-39
-0.12814288 0.032200001 0.69000006 2.5857558e-39
-0.12682858 0.032200001 0.69000006 2.4935602e-39
-0.1255143 0.032200001 0.69000006 2.2169761e-39
-0.1242 0.032200001 0.69000006 2.1247805e-39
-0.12288573 0.032200001 0.69000006 2.033654e-39
-0.12174763 0.032246668 0.69100004 2.1258482e-39
-0.12043144 0.032246668 0.69100004 2.493563e-39
-0.11911524 0.032246668 0.69100004 2.5857586e-39
-0.11779906 0.032246668 0.69100004 2.4928539e-39
-0.11648286 0.032246668 0.69100004 2.4928539e-39
-0.1155 0.032340001 0.69300002 2.4006583e-39
-0.11434477 0.032386668 0.69400001 2.4928539e-39
-0.11334857 0.032480001 0.69600004 2.9513139e-39
-0.11202286 0.032480001 0.69600004 3.1357052e-39
-0.11085619 0.032526664 0.69700003 3.5058932e-39
-0.10952857 0.032526664 0.69700003 3.3215034e-39
-0.10820096 0.032526664 0.69700003 3.2293091e-39
-0.10702667 0.032573331 0.69800001 3.5980888e-39
-0.10600001 0.032666668 0.70000005 3.1385526e-39
-0.10466667 0.032666668 0.70000005 3.3229439e-39
-0.10377619 0.032806665 0.70300001 3.3222446e-39
-0.10243714 0.032806665 0.70300001 3.3222446e-39
-0.10124191 0.032853335 0.70400006 6.6387636e-39
-0.099900961 0.032853335 0.70400006 8.9436543e-39
-0.098980002 0.032993335 0.70700002 1.2532799e-38
-0.097633332 0.032993335 0.70700002 1.9539667e-38
-0.14887907 0.034048576 0.70100003 2.1201745e-38
-0.14754382 0.034048576 0.70100003 1.391829e-38
-0.146 0.034000002 0.70000005 2.2210861e-39
-0.14425333 0.033902857 0.69800001 1.0225429e-39
-0.14271906 0.033854287 0.69700003 1.4869668e-39
-0.14118858 0.033805717 0.69600004 2.3167275e-39
-0.13946095 0.033708572 0.69400001 2.9570747e-39
-0.13813905 0.033708572 0.69400001 2.0351184e-39
-0.13662 0.033660002 0.69300002 2.1265881e-39
-0.1353 0.033660002 0.69300002 2.3109794e-39
-0.13359334 0.033562858 0.69100004 2.493563e-39
-0.13208573 0.033514287 0.69000006 2.3091717e-39
-0.13077144 0.033514287 0.69000006 2.8623455e-39
-0.12945715 0.033514287 0.69000006 3.0467368e-39
-0.12814288 0.033514287 0.69000006 2.8623455e-39
-0.12682858 0.033514287 0.69000006 2.493563e-39
-0.1255143 0.033514287 0.69000006 2.4013673e-39
-0.1242 0.033514287 0.69000006 2.2169761e-39
-0.12288573 0.033514287 0.69000006 2.2169761e-39
-0.12174763 0.033562858 0.69100004 2.4013673e-39
-0.12043144 0.033562858 0.69100004 2.493563e-39
-0.11911524 0.033562858 0.69100004 2.493563e-39
-0.11779906 0.033562858 0.69100004 2.2187838e-39
-0.11648286 0.033562858 0.69100004 2.1265881e-39
-0.1155 0.033660002 0.69300002 2.4006583e-39
-0.11434477 0.033708572 0.69400001 2.4006583e-39
-0.11334857 0.033805717 0.69600004 2.4006583e-39
-0.11218382 0.033854287 0.69700003 2.0318758e-39
-0.11085619 0.033854287 0.69700003 2.6768612e-39
-0.10952857 0.033854287 0.69700003 3.1378324e-39
-0.10835619 0.033902857 0.69800001 2.6786549e-39
-0.10702667 0.033902857 0.69800001 3.785001e-39
-0.10600001 0.034000002 0.70000005 5.3480079e-39
-0.1048162 0.034048576 0.70100003 6.7309424e-39
-0.10377619 0.034145713 0.70300001 7.55998e-39
-0.10258286 0.034194287 0.70400006 8.0209581e-39
-0.10124191 0.034194287 0.70400006 8.3890274e-39
-0.099900961 0.034194287 0.70400006 1.2076853e-38
-0.099399999 0.034485716 0.71000004 1.3269704e-38
-0.098047622 0.034485716 0.71000004 1.9354615e-38
-0.097103812 0.034631431 0.71300006 2.0277206e-38
-0.096685715 0.034971431 0.72000003 2.0277206e-38
-0.095314287 0.034971431 0.72000003 2.0001024e-38
-0.093942866 0.034971431 0.72000003 1.9908829e-38
-0.14733334 0.035333335 0.70000005 1.5024275e-38
-0.14558285 0.03523238 0.69800001 1.1616649e-38
-0.14425333 0.03523238 0.69800001 5.6239334e-39
-0.14271906 0.035181906 0.69700003 2.2212921e-39
-0.14118858 0.035131428 0.69600004 2.6822702e-39
-0.13986287 0.035131428 0.69600004 3.1414533e-39
-0.13813905 0.035030477 0.69400001 2.219497e-39
-0.13681714 0.035030477 0.69400001 2.4006583e-39
-0.1353 0.034979999 0.69300002 2.5850495e-39
-0.13359334 0.034879047 0.69100004 2.493563e-39
-0.13227715 0.034879047 0.69100004 2.2169761e-39
-0.13096096 0.034879047 0.69100004 2.3109794e-39
-0.12964478 0.034879047 0.69100004 2.3109794e-39
-0.12814288 0.034828573 0.69000006 2.7701499e-39
-0.12682858 0.034828573 0.69000006 2.5857586e-39
-0.1255143 0.034828573 0.69000006 2.5850495e-39
-0.1242 0.034828573 0.69000006 2.4928539e-39
-0.12306382 0.034879047 0.69100004 2.4942664e-39
-0.12174763 0.034879047 0.69100004 2.4942664e-39
-0.12043144 0.034879047 0.69100004 2.6786549e-39
-0.11911524 0.034879047 0.69100004 2.5864607e-39
-0.11779906 0.034879047 0.69100004 2.1269385e-39
-0.11648286 0.034879047 0.69100004 1.7581559e-39
-0.1155 0.034979999 0.69300002 2.4006583e-39
-0.11434477 0.035030477 0.69400001 2.4928539e-39
-0.11334857 0.035131428 0.69600004 2.7679919e-39
-0.11218382 0.035181906 0.69700003 2.491405e-39
-0.11085619 0.035181906 0.69700003 2.4006373e-39
-0.10968572 0.03523238 0.69800001 2.9538026e-39
-0.10835619 0.03523238 0.69800001 2.6790136e-39
-0.10702667 0.03523238 0.69800001 3.6009629e-39
-0.10600001 0.035333335 0.70000005 5.9000803e-39
-0.1048162 0.035383813 0.70100003 7.2830148e-39
-0.10377619 0.035484761 0.70300001 8.1113489e-39
-0.10258286 0.035535242 0.70400006 8.7567183e-39
-0.10124191 0.035535242 0.70400006 9.6750817e-39
-0.099900961 0.035535242 0.70400006 1.4745841e-38
-0.099399999 0.035838097 0.71000004 1.6588688e-38
-0.098461911 0.035989527 0.71300006 1.9631143e-38
-0.097103812 0.035989527 0.71300006 2.0000998e-38
-0.095880002 0.036040001 0.71400005 2.0000998e-38
-0.095181912 0.036292382 0.71900004 1.9634041e-38
-0.093812384 0.036292382 0.71900004 1.9173063e-38
-0.09257143 0.036342856 0.72000003 1.926418e-38
-0.091200002 0.036342856 0.72000003 1.926418e-38
-0.14733334 0.036666669 0.70000005 1.5576338e-38
-0.14558285 0.036561903 0.69800001 1.216805e-38
-0.14425333 0.036561903 0.69800001 1.133829e-38
-0.14271906 0.036509525 0.69700003 8.9461977e-39
-0.14118858 0.036457144 0.69600004 6.8256982e-39
-0.13986287 0.036457144 0.69600004 4.6165708e-39
-0.13813905 0.036352381 0.69400001 2.8648538e-39
-0.13681714 0.036352381 0.69400001 2.4964525e-39
-0.1353 0.0363 0.69300002 2.6808437e-39
-0.13398001 0.0363 0.69300002 2.0347428e-39
-0.13266 0.0363 0.69300002 1.8503516e-39
-0.13134 0.0363 0.69300002 2.1269385e-39
-0.13001999 0.0363 0.69300002 2.1269385e-39
-0.1287 0.0363 0.69300002 2.493563e-39
-0.12738001 0.0363 0.69300002 2.5857586e-39
-0.12606001 0.0363 0.69300002 2.584702e-39
-0.12474 0.0363 0.69300002 2.4925064e-39
-0.12342 0.0363 0.69300002 2.2180425e-39
-0.12174763 0.036195237 0.69100004 2.4946252e-39
-0.12043144 0.036195237 0.69100004 2.3105954e-39
-0.11911524 0.036195237 0.69100004 2.4949839e-39
-0.11814 0.0363 0.69300002 2.9538321e-39
-0.11682 0.0363 0.69300002 3.8757884e-39
-0.1155 0.0363 0.69300002 4.3346015e-39
-0.11434477 0.036352381 0.69400001 4.3346015e-39
-0.11351143 0.036509525 0.69700003 4.978536e-39
-0.11234476 0.036561903 0.69800001 5.2551229e-39
-0.11101524 0.036561903 0.69800001 6.8216611e-39
-0.11000001 0.036666669 0.70000005 6.8216611e-39
-0.10882191 0.036719047 0.70100003 7.4681347e-39
-0.10748667 0.036719047 0.70100003 7.6525259e-39
-0.10645428 0.036823809 0.70300001 7.9287499e-39
-0.10511524 0.036823809 0.70300001 8.4819237e-39
-0.10392382 0.03687619 0.70400006 8.9396718e-39
-0.10287429 0.036980953 0.70600003 1.1521149e-38
-0.10152952 0.036980953 0.70600003 1.2440646e-38
-0.10032666 0.037033334 0.70700002 1.8525558e-38
-0.099540003 0.037242856 0.71100003 1.8894657e-38
-0.098461911 0.037347622 0.71300006 1.926344e-38
-0.097103812 0.037347622 0.71300006 1.9539654e-38
-0.09574572 0.037347622 0.71300006 1.9078676e-38
-0.094917141 0.037557144 0.71700001 1.9078337e-38
-0.093551435 0.037557144 0.71700001 1.9170532e-38
-0.092442855 0.037661906 0.71900004 1.898687e-38
-0.091073342 0.037661906 0.71900004 1.8894674e-38
-0.089828581 0.037714288 0.72000003 1.9353831e-38
-0.15214287 0.038542859 0.71000004 1.6314986e-38
-0.15036571 0.038434286 0.708 1.6223146e-38
-0.14859618 0.038325716 0.70600003 1.5116799e-38
-0.14620858 0.038054287 0.70100003 1.4656562e-38
-0.14466667 0.038000003 0.70000005 1.2812649e-38
-0.14292382 0.037891429 0.69800001 1.2169085e-38
-0.14139143 0.037837144 0.69700003 1.0509563e-38
-0.13986287 0.037782859 0.69600004 7.2891931e-39
-0.13853714 0.037782859 0.69600004 5.3530848e-39
-0.13681714 0.037674285 0.69400001 4.1545389e-39
-0.13549525 0.037674285 0.69400001 3.877952e-39
-0.13398001 0.037620001 0.69300002 3.7860702e-39
-0.13266 0.037620001 0.69300002 2.5875369e-39
-0.13134 0.037620001 0.69300002 2.5864607e-39
-0.13001999 0.037620001 0.69300002 2.4942664e-39
-0.1287 0.037620001 0.69300002 2.4013673e-39
-0.12738001 0.037620001 0.69300002 2.4013673e-39
-0.12606001 0.037620001 0.69300002 2.4942664e-39
-0.12474 0.037620001 0.69300002 2.4020722e-39
-0.12342 0.037620001 0.69300002 2.3105954e-39
-0.1221 0.037620001 0.69300002 2.4949839e-39
-0.12078 0.037620001 0.69300002 2.8634021e-39
-0.11946 0.037620001 0.69300002 2.9555963e-39
-0.11831047 0.037674285 0.69400001 3.6917166e-39
-0.11698857 0.037674285 0.69400001 4.5214773e-39
-0.11566667 0.037674285 0.69400001 5.1654146e-39
-0.11467429 0.037782859 0.69600004 4.796632e-39
-0.11367428 0.037891429 0.69800001 5.4384015e-39
-0.11234476 0.037891429 0.69800001 6.6369447e-39
-0.11133334 0.038000003 0.70000005 7.9258997e-39
-0.11015715 0.038054287 0.70100003 8.2946822e-39
-0.10882191 0.038054287 0.70100003 8.019889e-39
-0.10779333 0.038162857 0.70300001 8.1120846e-39
-0.10645428 0.038162857 0.70300001 8.5719585e-39
-0.10511524 0.038162857 0.70300001 8.6641541e-39
-0.10392382 0.038217146 0.70400006 9.124384e-39
-0.10302 0.038380001 0.70700002 1.2627818e-38
-0.10167333 0.038380001 0.70700002 1.5113913e-38
-0.10032666 0.038380001 0.70700002 1.9262717e-38
-0.099540003 0.038597144 0.71100003 1.9170881e-38
-0.098185718 0.038597144 0.71100003 1.9170881e-38
-0.097103812 0.038705718 0.71300006 1.9355635e-38
-0.09574572 0.038705718 0.71300006 1.9079049e-38
-0.094917141 0.038922857 0.71700001 1.9262365e-38
-0.093551435 0.038922857 0.71700001 1.9170169e-38
-0.092442855 0.039031431 0.71900004 1.8893943e-38
-0.091073342 0.039031431 0.71900004 1.852516e-38
-0.089703813 0.039031431 0.71900004 1.8984682e-38
-0.088457145 0.039085716 0.72000003 1.9261269e-38
-0.15349525 0.03989524 0.71000004 1.5485577e-38
-0.1515 0.039726667 0.70700002 1.5301186e-38
-0.15015334 0.039726667 0.70700002 1.5117508e-38
-0.14796476 0.039501905 0.70300001 1.4840921e-38
-0.14620858 0.039389525 0.70100003 1.4472494e-38
-0.14487334 0.039389525 0.70100003 1.3181755e-38
-0.14333335 0.039333336 0.70000005 1.1893214e-38
-0.14139143 0.039164763 0.69700003 1.1616627e-38
-0.13986287 0.039108574 0.69600004 1.0695747e-38
-0.13853714 0.039108574 0.69600004 9.7737905e-39
-0.13721143 0.039108574 0.69600004 8.9436824e-39
-0.13588572 0.039108574 0.69600004 7.3763566e-39
-0.13417333 0.03899619 0.69400001 7.3766775e-39
-0.13285144 0.03899619 0.69400001 7.4688732e-39
-0.13152952 0.03899619 0.69400001 7.1926422e-39
-0.13020761 0.03899619 0.69400001 7.008251e-39
-0.12888572 0.03899619 0.69400001 7.1912213e-39
-0.1275638 0.03899619 0.69400001 7.2834169e-39
-0.12624191 0.03899619 0.69400001 6.8238541e-39
-0.12492 0.03899619 0.69400001 6.9160497e-39
-0.12359809 0.03899619 0.69400001 7.0078992e-39
-0.1221 0.038940001 0.69300002 7.2844861e-39
-0.12078 0.038940001 0.69300002 6.9156994e-39
-0.11963238 0.03899619 0.69400001 6.3625256e-39
-0.11831047 0.03899619 0.69400001 6.5472672e-39
-0.11698857 0.03899619 0.69400001 7.2848322e-39
-0.11566667 0.03899619 0.69400001 7.4677844e-39
-0.11467429 0.039108574 0.69600004 7.6521756e-39
-0.11367428 0.039220951 0.69800001 7.5596171e-39
-0.11266667 0.039333336 0.70000005 7.5596171e-39
-0.11149239 0.039389525 0.70100003 8.3861898e-39
-0.11047143 0.039501905 0.70300001 9.3081461e-39
-0.10913239 0.039501905 0.70300001 9.5854336e-39
-0.10779333 0.039501905 0.70300001 9.6776292e-39
-0.10660572 0.039558098 0.70400006 1.0046032e-38
-0.10526477 0.039558098 0.70400006 1.1244575e-38
-0.10392382 0.039558098 0.70400006 1.2993774e-38
-0.10302 0.039726667 0.70700002 1.7880142e-38
-0.10167333 0.039726667 0.70700002 1.8987196e-38
-0.10032666 0.039726667 0.70700002 1.9632566e-38
-0.099399999 0.03989524 0.71000004 1.8894645e-38
-0.098185718 0.039951429 0.71100003 1.8710253e-38
-0.096831433 0.039951429 0.71100003 1.8802102e-38
-0.09574572 0.040063813 0.71300006 1.8802102e-38
-0.09452001 0.040120002 0.71400005 1.8893931e-38
-0.093420953 0.040232379 0.71600002 1.8617345e-38
-0.092185713 0.040288571 0.71700001 1.8709177e-38
-0.09082 0.040288571 0.71700001 1.8709177e-38
-0.089454286 0.040288571 0.71700001 1.8893215e-38
-0.088334292 0.040400952 0.71900004 1.8893215e-38
-0.15441144 0.041131429 0.708 1.5762178e-38
-0.15284666 0.041073337 0.70700002 1.5485577e-38
-0.1515 0.041073337 0.70700002 1.4563621e-38
-0.14994095 0.041015241 0.70600003 1.4838766e-38
-0.14796476 0.04084095 0.70300001 1.5023157e-38
-0.14620858 0.040724762 0.70100003 1.3734224e-38
-0.14487334 0.040724762 0.70100003 1.3088855e-38
-0.14333335 0.04066667 0.70000005 1.2536413e-38
-0.14159428 0.040550474 0.69800001 1.1983239e-38
-0.14006381 0.040492382 0.69700003 1.1890687e-38
-0.13873619 0.040492382 0.69700003 1.1153122e-38
-0.13740857 0.040492382 0.69700003 1.0324446e-38
-0.13608097 0.040492382 0.69700003 9.2180986e-39
-0.13456 0.040434286 0.69600004 8.757454e-39
-0.13323429 0.040434286 0.69600004 8.3886715e-39
-0.13190858 0.040434286 0.69600004 8.1106454e-39
-0.13058287 0.040434286 0.69600004 8.0184498e-39
-0.12888572 0.040318094 0.69400001 7.8343963e-39
-0.1275638 0.040318094 0.69400001 7.8343963e-39
-0.12624191 0.040318094 0.69400001 7.6496421e-39
-0.12492 0.040318094 0.69400001 7.7418377e-39
-0.12359809 0.040318094 0.69400001 7.4674214e-39
-0.12227619 0.040318094 0.69400001 7.5596171e-39
-0.12095428 0.040318094 0.69400001 7.4667194e-39
-0.11963238 0.040318094 0.69400001 7.2823281e-39
-0.11865143 0.040434286 0.69600004 7.3745237e-39
-0.11732572 0.040434286 0.69600004 7.7433063e-39
-0.11600001 0.040434286 0.69600004 7.9266045e-39
-0.11467429 0.040434286 0.69600004 8.2031914e-39
-0.114 0.04066667 0.70000005 8.2028355e-39
-0.11282763 0.040724762 0.70100003 8.1106398e-39
-0.11149239 0.040724762 0.70100003 9.0318829e-39
-0.11047143 0.04084095 0.70300001 9.492861e-39
-0.10913239 0.04084095 0.70300001 9.768006e-39
-0.10794667 0.040899049 0.70400006 1.032118e-38
-0.10660572 0.040899049 0.70400006 1.0782842e-38
-0.10526477 0.040899049 0.70400006 1.2626754e-38
-0.10392382 0.040899049 0.70400006 1.5296854e-38
-0.10287429 0.041015241 0.70600003 1.9630049e-38
-0.10152952 0.041015241 0.70600003 1.9079404e-38
-0.10032666 0.041073337 0.70700002 1.8802818e-38
-0.099120006 0.041131429 0.708 1.8710256e-38
-0.097771429 0.041131429 0.708 1.8618061e-38
-0.096695244 0.041247621 0.71000004 1.8433672e-38
-0.095342867 0.041247621 0.71000004 1.8341476e-38
-0.094387628 0.041421909 0.71300006 1.8340404e-38
-0.093160003 0.041480005 0.71400005 1.8248209e-38
-0.092057146 0.041596193 0.71600002 1.8156369e-38
-0.09082 0.041654285 0.71700001 1.8248565e-38
-0.089454286 0.041654285 0.71700001 1.8432956e-38
-0.088334292 0.041770477 0.71900004 1.8064174e-38
-0.086964764 0.041770477 0.71900004 1.8247818e-38
-0.15755239 0.042600002 0.71000004 1.7973791e-38
-0.15554 0.04242 0.70700002 1.797412e-38
-0.15419333 0.04242 0.70700002 1.5577034e-38
-0.15284666 0.04242 0.70700002 1.5577424e-38
-0.15128572 0.04236 0.70600003 1.4655467e-38
-0.14994095 0.04236 0.70600003 1.4563621e-38
-0.14796476 0.042180002 0.70300001 1.4563621e-38
-0.14620858 0.042060003 0.70100003 1.4103359e-38
-0.14487334 0.042060003 0.70100003 1.3734576e-38
-0.14333335 0.042000003 0.70000005 1.3549483e-38
-0.14159428 0.04188 0.69800001 1.3365091e-38
-0.14026476 0.04188 0.69800001 1.2997014e-38
-0.13893524 0.04188 0.69800001 1.2536036e-38
-0.13760573 0.04188 0.69800001 1.2075072e-38
-0.13627619 0.04188 0.69800001 1.189068e-38
-0.13475335 0.041820001 0.69700003 1.1891031e-38
-0.13342571 0.041820001 0.69700003 1.0876879e-38
-0.13209809 0.041820001 0.69700003 1.0782898e-38
-0.13077047 0.041820001 0.69700003 1.032192e-38
-0.12925714 0.041760001 0.69600004 1.032294e-38
-0.1275638 0.041639999 0.69400001 9.6775704e-39
-0.12624191 0.041639999 0.69400001 8.3875799e-39
-0.12492 0.041639999 0.69400001 8.110993e-39
-0.12359809 0.041639999 0.69400001 8.2028355e-39
-0.12227619 0.041639999 0.69400001 8.2950311e-39
-0.12095428 0.041639999 0.69400001 8.01954e-39
-0.11997715 0.041760001 0.69600004 8.3883225e-39
-0.11865143 0.041760001 0.69600004 8.4798273e-39
-0.11732572 0.041760001 0.69600004 8.7564142e-39
-0.11600001 0.041760001 0.69600004 9.5850567e-39
-0.11467429 0.041760001 0.69600004 1.0046035e-38
-0.114 0.042000003 0.70000005 1.0137163e-38
-0.11266667 0.042000003 0.70000005 1.041375e-38
-0.11149239 0.042060003 0.70100003 1.0783237e-38
-0.11047143 0.042180002 0.70300001 1.1059824e-38
-0.10913239 0.042180002 0.70300001 1.1337467e-38
-0.10779333 0.042180002 0.70300001 1.2904793e-38
-0.10645428 0.042180002 0.70300001 1.4562509e-38
-0.10511524 0.042180002 0.70300001 1.7236183e-38
-0.10392382 0.042240005 0.70400006 1.8249281e-38
-0.10258286 0.042240005 0.70400006 1.9171237e-38
-0.10152952 0.04236 0.70600003 1.8618767e-38
-0.10018477 0.04236 0.70600003 1.8065593e-38
-0.098980002 0.04242 0.70700002 1.806489e-38
-0.097633332 0.04242 0.70700002 1.806489e-38
-0.096422859 0.042479999 0.708 1.7696101e-38
-0.095074289 0.042479999 0.708 1.751171e-38
-0.093990475 0.042600002 0.71000004 1.7695399e-38
-0.092768572 0.042660002 0.71100003 1.7695399e-38
-0.091800004 0.04284 0.71400005 1.7603925e-38
-0.09082 0.043020003 0.71700001 1.7142947e-38
-0.089454286 0.043020003 0.71700001 1.7234787e-38
-0.088088572 0.043020003 0.71700001 1.760357e-38
-0.086964764 0.043140002 0.71900004 1.7971609e-38
-0.085595243 0.043140002 0.71900004 2.0460891e-38
-0.15890476 0.043952383 0.71000004 1.8249278e-38
-0.15710858 0.043828573 0.708 1.8341474e-38
-0.15554 0.043766666 0.70700002 1.7236205e-38
-0.15419333 0.043766666 0.70700002 1.5761075e-38
-0.15263048 0.043704763 0.70600003 1.5485941e-38
-0.15128572 0.043704763 0.70600003 1.5117159e-38
-0.14930381 0.043519046 0.70300001 1.493313e-38
-0.14754382 0.04339524 0.70100003 1.4840935e-38
-0.14620858 0.04339524 0.70100003 1.465583e-38
-0.14487334 0.04339524 0.70100003 1.382607e-38
-0.14333335 0.043333337 0.70000005 1.3917189e-38
-0.14159428 0.043209527 0.69800001 1.3917189e-38
-0.14006381 0.04314762 0.69700003 1.3272533e-38
-0.13873619 0.04314762 0.69700003 1.2719359e-38
-0.13740857 0.04314762 0.69700003 1.2442769e-38
-0.13608097 0.04314762 0.69700003 1.2350574e-38
-0.13475335 0.04314762 0.69700003 1.2166538e-38
-0.13342571 0.04314762 0.69700003 1.1613365e-38
-0.13209809 0.04314762 0.69700003 1.1152022e-38
-0.13077047 0.04314762 0.69700003 1.0967631e-38
-0.12925714 0.043085717 0.69600004 1.078324e-38
-0.1275638 0.042961907 0.69400001 1.0045675e-38
-0.12624191 0.042961907 0.69400001 9.8605547e-39
-0.12492 0.042961907 0.69400001 9.8605547e-39
-0.12359809 0.042961907 0.69400001 9.5857755e-39
-0.12227619 0.042961907 0.69400001 9.4935799e-39
-0.12130286 0.043085717 0.69600004 9.4935799e-39
-0.11997715 0.043085717 0.69600004 9.6779712e-39
-0.11865143 0.043085717 0.69600004 9.7698277e-39
-0.11732572 0.043085717 0.69600004 9.677632e-39
-0.11600001 0.043085717 0.69600004 1.0228991e-38
-0.11467429 0.043085717 0.69600004 1.0413382e-38
-0.11367428 0.043209527 0.69800001 1.0596336e-38
-0.11266667 0.043333337 0.70000005 1.1057314e-38
-0.11149239 0.04339524 0.70100003 1.0966549e-38
-0.11015715 0.04339524 0.70100003 1.115094e-38
-0.10882191 0.04339524 0.70100003 1.1428604e-38
-0.10779333 0.043519046 0.70300001 1.4378864e-38
-0.10645428 0.043519046 0.70300001 1.5115708e-38
-0.10511524 0.043519046 0.70300001 1.7881577e-38
-0.10392382 0.043580953 0.70400006 1.8525875e-38
-0.10258286 0.043580953 0.70400006 1.8249288e-38
-0.10124191 0.043580953 0.70400006 1.80656e-38
-0.10018477 0.043704763 0.70600003 1.7973404e-38
-0.098840006 0.043704763 0.70600003 1.7512442e-38
-0.097633332 0.043766666 0.70700002 1.7420246e-38
-0.096286669 0.043766666 0.70700002 1.7419527e-38
-0.095074289 0.043828573 0.708 1.7511723e-38
-0.093725719 0.043828573 0.708 1.7512093e-38
-0.092638098 0.043952383 0.71000004 1.7512093e-38
-0.09167143 0.0441381 0.71300006 1.7144384e-38
-0.09069334 0.044323809 0.71600002 1.6683405e-38
-0.089329526 0.044323809 0.71600002 1.6683757e-38
-0.088088572 0.044385713 0.71700001 1.6591562e-38
-0.086964764 0.044509526 0.71900004 1.7327319e-38
-0.085595243 0.044509526 0.71900004 2.0000992e-38
-0.15935428 0.045049526 0.70600003 1.6684134e-38
-0.15800953 0.045049526 0.70600003 1.6777007e-38
-0.15710858 0.045177143 0.708 1.7053594e-38
-0.15554 0.045113333 0.70700002 1.7144353e-38
-0.15419333 0.045113333 0.70700002 1.4931658e-38
-0.15263048 0.045049526 0.70600003 1.6038385e-38
-0.15128572 0.045049526 0.70600003 1.6222776e-38
-0.14930381 0.044858098 0.70300001 1.5761815e-38
-0.14754382 0.044730477 0.70100003 1.5208641e-38
-0.146 0.044666667 0.70000005 1.5300124e-38
-0.14466667 0.044666667 0.70000005 1.4009385e-38
-0.14292382 0.044539049 0.69800001 1.3916836e-38
-0.14159428 0.044539049 0.69800001 1.3916836e-38
-0.14006381 0.044475239 0.69700003 1.3733145e-38
-0.13873619 0.044475239 0.69700003 1.3087776e-38
-0.13740857 0.044475239 0.69700003 1.3087776e-38
-0.13608097 0.044475239 0.69700003 1.3179972e-38
-0.13475335 0.044475239 0.69700003 1.299628e-38
-0.13342571 0.044475239 0.69700003 1.2719693e-38
-0.13209809 0.044475239 0.69700003 1.2350923e-38
-0.13077047 0.044475239 0.69700003 1.2258727e-38
-0.12925714 0.044411432 0.69600004 1.225873e-38
-0.1275638 0.044283811 0.69400001 1.1613361e-38
-0.12624191 0.044283811 0.69400001 1.1705204e-38
-0.12492 0.044283811 0.69400001 1.1705204e-38
-0.12359809 0.044283811 0.69400001 1.1520813e-38
-0.12227619 0.044283811 0.69400001 1.1428618e-38
-0.12095428 0.044283811 0.69400001 1.1336771e-38
-0.11997715 0.044411432 0.69600004 1.1428966e-38
-0.11865143 0.044411432 0.69600004 1.1059827e-38
-0.11732572 0.044411432 0.69600004 1.0967631e-38
-0.11600001 0.044411432 0.69600004 1.1058396e-38
-0.11467429 0.044411432 0.69600004 1.1242787e-38
-0.11351143 0.044475239 0.69700003 1.1150592e-38
-0.11218382 0.044475239 0.69700003 1.1242787e-38
-0.11101524 0.044539049 0.69800001 1.1428255e-38
-0.11015715 0.044730477 0.70100003 1.2258015e-38
-0.10882191 0.044730477 0.70100003 1.262645e-38
-0.10779333 0.044858098 0.70300001 1.6590862e-38
-0.10615143 0.044730477 0.70100003 1.7326969e-38
-0.1048162 0.044730477 0.70100003 1.7787947e-38
-0.10377619 0.044858098 0.70300001 1.7511713e-38
-0.10243714 0.044858098 0.70300001 1.7327322e-38
-0.10124191 0.044921909 0.70400006 1.7235839e-38
-0.099900961 0.044921909 0.70400006 1.7420231e-38
-0.098840006 0.045049526 0.70600003 1.7050752e-38
-0.097495243 0.045049526 0.70600003 1.6681969e-38
-0.096286669 0.045113333 0.70700002 1.6681969e-38
-0.094939999 0.045113333 0.70700002 1.6681969e-38
-0.093725719 0.045177143 0.708 1.6681969e-38
-0.092638098 0.045304764 0.71000004 1.6681969e-38
-0.091414288 0.045368571 0.71100003 1.6406082e-38
-0.090313345 0.045496192 0.71300006 1.622169e-38
-0.089080006 0.045560002 0.71400005 1.6497558e-38
-0.087965719 0.04568762 0.71600002 1.6405363e-38
-0.086722851 0.04575143 0.71700001 1.6589043e-38
-0.085357144 0.04575143 0.71700001 1.9262717e-38
-0.16183715 0.046722859 0.71100003 1.9358161e-38
-0.15935428 0.046394285 0.70600003 1.6315705e-38
-0.15800953 0.046394285 0.70600003 1.6223845e-38
-0.15710858 0.046525717 0.708 1.6408237e-38
-0.15554 0.046459999 0.70700002 1.5854359e-38
-0.15419333 0.046459999 0.70700002 1.5946555e-38
-0.15263048 0.046394285 0.70600003 1.6406821e-38
-0.15085715 0.04626286 0.70400006 1.6591213e-38
-0.14887907 0.046065718 0.70100003 1.6406118e-38
-0.14733334 0.046000004 0.70000005 1.6313922e-38
-0.146 0.046000004 0.70000005 1.566818e-38
-0.14425333 0.045868572 0.69800001 1.4469637e-38
-0.14292382 0.045868572 0.69800001 1.4285618e-38
-0.14139143 0.045802858 0.69700003 1.4101227e-38
-0.14006381 0.045802858 0.69700003 1.419305e-38
-0.13873619 0.045802858 0.69700003 1.3363289e-38
-0.13740857 0.045802858 0.69700003 1.3087776e-38
-0.13608097 0.045802858 0.69700003 1.3087776e-38
-0.13475335 0.045802858 0.69700003 1.2904104e-38
-0.13342571 0.045802858 0.69700003 1.2627517e-38
-0.13209809 0.045802858 0.69700003 1.2443121e-38
-0.13058287 0.045737144 0.69600004 1.2350926e-38
-0.12888572 0.045605715 0.69400001 1.2442407e-38
-0.1275638 0.045605715 0.69400001 1.2442407e-38
-0.12624191 0.045605715 0.69400001 1.2166538e-38
-0.12492 0.045605715 0.69400001 1.2074343e-38
-0.12359809 0.045605715 0.69400001 1.2166185e-38
-0.12227619 0.045605715 0.69400001 1.207399e-38
-0.12095428 0.045605715 0.69400001 1.1797386e-38
-0.11963238 0.045605715 0.69400001 1.1797386e-38
-0.11831047 0.045605715 0.69400001 1.1243139e-38
-0.11732572 0.045737144 0.69600004 1.1243139e-38
-0.11566667 0.045605715 0.69400001 1.124242e-38
-0.11434477 0.045605715 0.69400001 1.124242e-38
-0.11334857 0.045737144 0.69600004 1.0874728e-38
-0.11202286 0.045737144 0.69600004 1.1335706e-38
-0.11085619 0.045802858 0.69700003 1.1798089e-38
-0.10952857 0.045802858 0.69700003 1.2443459e-38
-0.10820096 0.045802858 0.69700003 1.4374925e-38
-0.10687333 0.045802858 0.69700003 1.7140794e-38
-0.10600001 0.046000004 0.70000005 1.7418818e-38
-0.10466667 0.046000004 0.70000005 1.7234427e-38
-0.10348096 0.046065718 0.70100003 1.6775956e-38
-0.10214572 0.046065718 0.70100003 1.6591564e-38
-0.10109809 0.046197142 0.70300001 1.6591559e-38
-0.099900961 0.04626286 0.70400006 1.6591559e-38
