# .PCD v0.7 - Point Cloud Data file format
VERSION 0.7
FIELDS x y z rgb
SIZE 4 4 4 4
TYPE F F F F
COUNT 1 1 1 1
WIDTH 1009
HEIGHT 1
VIEWPOINT 0 0 0 1 0 0 0
POINTS 1009
DATA ascii
-0.12198953 0.10299715 0.76700002 1.3545157e-38
-0.12084287 0.10326572 0.76900005 1.4374918e-38
-0.11968857 0.10353429 0.77100003 1.4193047e-38
-0.11822 0.10353429 0.77100003 1.4930612e-38
-0.1170543 0.10380287 0.77300006 1.4655804e-38
-0.11632954 0.10447429 0.77800006 1.4655804e-38
-0.11514286 0.10474286 0.78000003 1.4562909e-38
-0.11365715 0.10474286 0.78000003 1.47473e-38
-0.11231524 0.10487714 0.78100002 1.5668526e-38
-0.11139524 0.10541429 0.78500003 1.5668526e-38
-0.11018001 0.10568286 0.78700006 1.5759999e-38
-0.10895715 0.10595144 0.78900003 1.6405368e-38
-0.10745429 0.10595144 0.78900003 1.6774151e-38
-0.10595144 0.10595144 0.78900003 2.0277585e-38
-0.1806 0.10541143 0.77400005 1.8713157e-38
-0.1788943 0.10527524 0.77300006 1.8067052e-38
-0.17696285 0.10500287 0.77100003 1.6591922e-38
-0.1754943 0.10500287 0.77100003 1.6684473e-38
-0.17402571 0.10500287 0.77100003 1.6039104e-38
-0.17210953 0.10473049 0.76900005 1.6130963e-38
-0.17020094 0.10445809 0.76700002 1.5116811e-38
-0.16874 0.10445809 0.76700002 1.5116406e-38
-0.16706096 0.1043219 0.76600003 1.5208602e-38
-0.16516954 0.10404953 0.76400006 1.54841e-38
-0.16328572 0.10377715 0.76200002 1.4654339e-38
-0.1618343 0.10377715 0.76200002 1.4286671e-38
-0.16038287 0.10377715 0.76200002 1.410228e-38
-0.15893143 0.10377715 0.76200002 1.3641655e-38
-0.15727334 0.10364096 0.76100004 1.3549459e-38
-0.15582381 0.10364096 0.76100004 1.3731716e-38
-0.15437429 0.10364096 0.76100004 1.280976e-38
-0.15292478 0.10364096 0.76100004 1.2810802e-38
-0.15147525 0.10364096 0.76100004 1.2810802e-38
-0.15002573 0.10364096 0.76100004 1.2903001e-38
-0.14818573 0.10336858 0.75900006 1.2995196e-38
-0.14674 0.10336858 0.75900006 1.3270701e-38
-0.14529429 0.10336858 0.75900006 1.3362897e-38
-0.14384858 0.10336858 0.75900006 1.2350913e-38
-0.14240287 0.10336858 0.75900006 1.1428957e-38
-0.14095715 0.10336858 0.75900006 1.0324096e-38
-0.13951144 0.10336858 0.75900006 1.0139705e-38
-0.13806573 0.10336858 0.75900006 1.0414466e-38
-0.13662001 0.10336858 0.75900006 1.0691052e-38
-0.13553049 0.10364096 0.76100004 1.1059827e-38
-0.13408096 0.10364096 0.76100004 1.1613e-38
-0.13263142 0.10364096 0.76100004 1.1612646e-38
-0.13118191 0.10364096 0.76100004 1.152045e-38
-0.12973239 0.10364096 0.76100004 1.2535655e-38
-0.12845144 0.10377715 0.76200002 1.3088828e-38
-0.12733334 0.10404953 0.76400006 1.3088491e-38
-0.12587811 0.10404953 0.76400006 1.3457273e-38
-0.12442287 0.10404953 0.76400006 1.4009012e-38
-0.12345047 0.10445809 0.76700002 1.4654381e-38
-0.12230762 0.10473049 0.76900005 1.456145e-38
-0.12084287 0.10473049 0.76900005 1.456145e-38
-0.11968857 0.10500287 0.77100003 1.4562532e-38
-0.11822 0.10500287 0.77100003 1.4839119e-38
-0.11720572 0.10541143 0.77400005 1.4839475e-38
-0.11632954 0.1059562 0.77800006 1.5116062e-38
-0.11514286 0.10622857 0.78000003 1.4839845e-38
-0.11380286 0.10636476 0.78100002 1.4378866e-38
-0.11260287 0.10663715 0.78300005 1.5022458e-38
-0.11139524 0.10690953 0.78500003 1.5575631e-38
-0.11018001 0.10718191 0.78700006 1.5576331e-38
-0.10895715 0.10745429 0.78900003 1.6313896e-38
-0.10745429 0.10745429 0.78900003 1.6957457e-38
-0.10595144 0.10745429 0.78900003 2.0184304e-38
-0.10458095 0.10759047 0.79000002 2.1106989e-38
-0.1806 0.10688572 0.77400005 1.8897548e-38
-0.1788943 0.10674763 0.77300006 1.7882661e-38
-0.17696285 0.10647143 0.77100003 1.6591922e-38
-0.1754943 0.10647143 0.77100003 1.6776306e-38
-0.17402571 0.10647143 0.77100003 1.6407523e-38
-0.17210953 0.10619524 0.76900005 1.61306e-38
-0.17064478 0.10619524 0.76900005 1.4932057e-38
-0.16874 0.10591905 0.76700002 1.5024939e-38
-0.16706096 0.10578096 0.76600003 1.5117135e-38
-0.16516954 0.10550477 0.76400006 1.5301176e-38
-0.16328572 0.10522857 0.76200002 1.4194828e-38
-0.1618343 0.10522857 0.76200002 1.4194472e-38
-0.16038287 0.10522857 0.76200002 1.4102277e-38
-0.15893143 0.10522857 0.76200002 1.3549103e-38
-0.15748 0.10522857 0.76200002 1.3549103e-38
-0.15582381 0.10509048 0.76100004 1.3548051e-38
-0.15437429 0.10509048 0.76100004 1.271829e-38
-0.15292478 0.10509048 0.76100004 1.2534931e-38
-0.15147525 0.10509048 0.76100004 1.235054e-38
-0.15002573 0.10509048 0.76100004 1.1430386e-38
-0.14818573 0.10481429 0.75900006 1.2260147e-38
-0.14674 0.10481429 0.75900006 1.2902645e-38
-0.14529429 0.10481429 0.75900006 1.3087036e-38
-0.14384858 0.10481429 0.75900006 1.2167248e-38
-0.14240287 0.10481429 0.75900006 1.1153096e-38
-0.14095715 0.10481429 0.75900006 1.0323352e-38
-0.13951144 0.10481429 0.75900006 1.0323352e-38
-0.13806573 0.10481429 0.75900006 1.0230776e-38
-0.13698001 0.10509048 0.76100004 1.0876146e-38
-0.13553049 0.10509048 0.76100004 1.1520799e-38
-0.13408096 0.10509048 0.76100004 1.170519e-38
-0.13280571 0.10522857 0.76200002 1.2901578e-38
-0.13135429 0.10522857 0.76200002 1.308597e-38
-0.12990287 0.10522857 0.76200002 1.3731692e-38
-0.12845144 0.10522857 0.76200002 1.3823888e-38
-0.12733334 0.10550477 0.76400006 1.3823885e-38
-0.12620762 0.10578096 0.76600003 1.4192668e-38
-0.12474858 0.10578096 0.76600003 1.4467825e-38
-0.12345047 0.10591905 0.76700002 1.4928803e-38
-0.12230762 0.10619524 0.76900005 1.4469973e-38
-0.12084287 0.10619524 0.76900005 1.4469973e-38
-0.11968857 0.10647143 0.77100003 1.465473e-38
-0.11852667 0.10674763 0.77300006 1.4562535e-38
-0.11720572 0.10688572 0.77400005 1.4654367e-38
-0.11632954 0.1074381 0.77800006 1.5115346e-38
-0.11514286 0.10771429 0.78000003 1.5298668e-38
-0.11380286 0.10785238 0.78100002 1.4837689e-38
-0.11289048 0.10840476 0.78500003 1.4929166e-38
-0.11167905 0.10868096 0.78700006 1.5574536e-38
-0.11018001 0.10868096 0.78700006 1.5299368e-38
-0.10895715 0.10895715 0.78900003 1.6405716e-38
-0.10745429 0.10895715 0.78900003 1.7142205e-38
-0.10608571 0.10909524 0.79000002 2.0000269e-38
-0.10458095 0.10909524 0.79000002 2.1198822e-38
-0.1035981 0.10964762 0.79400003 2.2950539e-38
-0.1806 0.10836001 0.77400005 1.9081937e-38
-0.17912573 0.10836001 0.77400005 1.7699355e-38
-0.17742191 0.10822001 0.77300006 1.696179e-38
-0.1754943 0.10794 0.77100003 1.6960697e-38
-0.17402571 0.10794 0.77100003 1.6499719e-38
-0.17210953 0.10766 0.76900005 1.6314623e-38
-0.17064478 0.10766 0.76900005 1.4655102e-38
-0.16874 0.10738 0.76700002 1.3640953e-38
-0.16706096 0.10724001 0.76600003 1.3548757e-38
-0.16516954 0.10696001 0.76400006 1.4101194e-38
-0.16328572 0.10668 0.76200002 1.4562172e-38
-0.1618343 0.10668 0.76200002 1.4377775e-38
-0.16038287 0.10668 0.76200002 1.4377775e-38
-0.15893143 0.10668 0.76200002 1.4009358e-38
-0.15748 0.10668 0.76200002 1.3824967e-38
-0.15582381 0.10654 0.76100004 1.382464e-38
-0.15437429 0.10654 0.76100004 1.3455858e-38
-0.15292478 0.10654 0.76100004 1.3548358e-38
-0.15147525 0.10654 0.76100004 1.3179575e-38
-0.15002573 0.10654 0.76100004 1.3088475e-38
-0.14818573 0.10626 0.75900006 1.3641649e-38
-0.14674 0.10626 0.75900006 1.3732759e-38
-0.14529429 0.10626 0.75900006 1.3732759e-38
-0.14384858 0.10626 0.75900006 1.3364345e-38
-0.14240287 0.10626 0.75900006 1.3272149e-38
-0.14132857 0.10654 0.76100004 1.2811901e-38
-0.13987905 0.10654 0.76100004 1.2719705e-38
-0.13842954 0.10654 0.76100004 1.308813e-38
-0.13698001 0.10654 0.76100004 1.3641304e-38
-0.13570857 0.10668 0.76200002 1.3641299e-38
-0.13425714 0.10668 0.76200002 1.3641299e-38
-0.13280571 0.10668 0.76200002 1.3824621e-38
-0.13135429 0.10668 0.76200002 1.3824621e-38
-0.12990287 0.10668 0.76200002 1.4009012e-38
-0.12878858 0.10696001 0.76400006 1.4746577e-38
-0.12733334 0.10696001 0.76400006 1.4194826e-38
-0.12620762 0.10724001 0.76600003 1.4471412e-38
-0.12474858 0.10724001 0.76600003 1.4470339e-38
-0.12345047 0.10738 0.76700002 1.4193752e-38
-0.12262572 0.10794 0.77100003 1.4378143e-38
-0.12115715 0.10794 0.77100003 1.4470339e-38
-0.11999905 0.10822001 0.77300006 1.4562535e-38
-0.11868001 0.10836001 0.77400005 1.4562535e-38
-0.11750858 0.10864001 0.77600002 1.4654011e-38
-0.11632954 0.10892 0.77800006 1.4838403e-38
-0.11514286 0.1092 0.78000003 1.4744426e-38
-0.11380286 0.10934 0.78100002 1.465223e-38
-0.11260287 0.10962 0.78300005 1.5021016e-38
-0.11139524 0.10990001 0.78500003 1.6219559e-38
-0.11018001 0.11018001 0.78700006 1.576105e-38
-0.10895715 0.11046 0.78900003 1.6314224e-38
-0.10745429 0.11046 0.78900003 1.6958176e-38
-0.10608571 0.1106 0.79000002 1.9539654e-38
-0.10484572 0.11088001 0.79200006 2.0554535e-38
-0.1035981 0.11116 0.79400003 2.2675034e-38
-0.18106668 0.11011809 0.77600002 1.9174132e-38
-0.17958857 0.11011809 0.77600002 1.7975586e-38
-0.17765144 0.10983429 0.77400005 1.6869239e-38
-0.17594953 0.10969239 0.77300006 1.6960704e-38
-0.17402571 0.10940857 0.77100003 1.640753e-38
-0.17210953 0.10912477 0.76900005 1.6499377e-38
-0.17064478 0.10912477 0.76900005 1.4563269e-38
-0.16874 0.10884096 0.76700002 1.3549103e-38
-0.16706096 0.10869905 0.76600003 1.2073973e-38
-0.16516954 0.10841525 0.76400006 1.2899771e-38
-0.16371429 0.10841525 0.76400006 1.354514e-38
-0.1618343 0.10813143 0.76200002 1.4100475e-38
-0.16038287 0.10813143 0.76200002 1.4284866e-38
-0.15893143 0.10813143 0.76200002 1.410158e-38
-0.15748 0.10813143 0.76200002 1.3732798e-38
-0.15602857 0.10813143 0.76200002 1.3916113e-38
-0.15457714 0.10813143 0.76200002 1.3731722e-38
-0.1531257 0.10813143 0.76200002 1.4008279e-38
-0.1516743 0.10813143 0.76200002 1.3731692e-38
-0.15022287 0.10813143 0.76200002 1.3731329e-38
-0.1485762 0.10798953 0.76100004 1.3915721e-38
-0.14712666 0.10798953 0.76100004 1.4007553e-38
-0.14567715 0.10798953 0.76100004 1.4099749e-38
-0.14422762 0.10798953 0.76100004 1.4007197e-38
-0.1427781 0.10798953 0.76100004 1.4191589e-38
-0.14132857 0.10798953 0.76100004 1.410084e-38
-0.13987905 0.10798953 0.76100004 1.410084e-38
-0.13861144 0.10813143 0.76200002 1.382497e-38
-0.13716 0.10813143 0.76200002 1.4470339e-38
-0.13570857 0.10813143 0.76200002 1.4286682e-38
-0.13425714 0.10813143 0.76200002 1.39179e-38
-0.13280571 0.10813143 0.76200002 1.39179e-38
-0.13169906 0.10841525 0.76400006 1.3733508e-38
-0.13024382 0.10841525 0.76400006 1.3641318e-38
-0.12878858 0.10841525 0.76400006 1.4286688e-38
-0.12733334 0.10841525 0.76400006 1.3550535e-38
-0.12587811 0.10841525 0.76400006 1.4195905e-38
-0.12474858 0.10869905 0.76600003 1.4194486e-38
-0.12409429 0.10940857 0.77100003 1.4194486e-38
-0.12262572 0.10940857 0.77100003 1.4378518e-38
-0.12115715 0.10940857 0.77100003 1.4378518e-38
-0.11999905 0.10969239 0.77300006 1.4470357e-38
-0.11868001 0.10983429 0.77400005 1.4470357e-38
-0.11750858 0.11011809 0.77600002 1.4745854e-38
-0.11632954 0.11040191 0.77800006 1.4745854e-38
-0.11514286 0.11068571 0.78000003 1.4652579e-38
-0.11380286 0.11082762 0.78100002 1.4929166e-38
-0.11260287 0.11111143 0.78300005 1.5482693e-38
-0.11139524 0.11139524 0.78500003 1.5943671e-38
-0.11018001 0.11167905 0.78700006 1.5485211e-38
-0.10895715 0.11196286 0.78900003 1.5946189e-38
-0.10745429 0.11196286 0.78900003 1.6774501e-38
-0.10635429 0.11238858 0.79200006 1.8526218e-38
-0.10511048 0.11267239 0.79400003 2.0461976e-38
-0.10412 0.11324 0.79800004 2.2859062e-38
-0.10285714 0.11352381 0.80000001 2.2215519e-38
-0.18106668 0.11159619 0.77600002 1.9818783e-38
-0.17958857 0.11159619 0.77600002 1.8989738e-38
-0.17811048 0.11159619 0.77600002 1.6961434e-38
-0.17617714 0.11130857 0.77400005 1.7145098e-38
-0.17470287 0.11130857 0.77400005 1.6223142e-38
-0.17255716 0.11087715 0.77100003 1.6129881e-38
-0.17064478 0.11058953 0.76900005 1.4562556e-38
-0.16918001 0.11058953 0.76900005 1.3640965e-38
-0.16727905 0.1103019 0.76700002 1.1889248e-38
-0.16516954 0.10987048 0.76400006 1.2257665e-38
-0.16371429 0.10987048 0.76400006 1.2442056e-38
-0.1618343 0.10958286 0.76200002 1.2166538e-38
-0.16038287 0.10958286 0.76200002 1.170556e-38
-0.15893143 0.10958286 0.76200002 1.1889258e-38
-0.15789334 0.10987048 0.76400006 1.1981454e-38
-0.1564381 0.10987048 0.76400006 1.2165467e-38
-0.15457714 0.10958286 0.76200002 1.2257662e-38
-0.1531257 0.10958286 0.76200002 1.271755e-38
-0.1516743 0.10958286 0.76200002 1.2809746e-38
-0.15022287 0.10958286 0.76200002 1.3087049e-38
-0.14877144 0.10958286 0.76200002 1.3548027e-38
-0.14732 0.10958286 0.76200002 1.3732055e-38
-0.14586857 0.10958286 0.76200002 1.3732055e-38
-0.14441714 0.10958286 0.76200002 1.3823902e-38
-0.1429657 0.10958286 0.76200002 1.3823902e-38
-0.1415143 0.10958286 0.76200002 1.3916802e-38
-0.14006287 0.10958286 0.76200002 1.3916802e-38
-0.13861144 0.10958286 0.76200002 1.364095e-38
-0.13716 0.10958286 0.76200002 1.4194123e-38
-0.13570857 0.10958286 0.76200002 1.4102291e-38
-0.13425714 0.10958286 0.76200002 1.3733508e-38
-0.13280571 0.10958286 0.76200002 1.4009361e-38
-0.13169906 0.10987048 0.76400006 1.4101557e-38
-0.13024382 0.10987048 0.76400006 1.382607e-38
-0.12878858 0.10987048 0.76400006 1.4379243e-38
-0.12733334 0.10987048 0.76400006 1.4195544e-38
-0.12587811 0.10987048 0.76400006 1.4379936e-38
-0.12474858 0.1101581 0.76600003 1.4286682e-38
-0.12409429 0.11087715 0.77100003 1.4286682e-38
-0.12262572 0.11087715 0.77100003 1.4286685e-38
-0.12147144 0.11116477 0.77300006 1.4286685e-38
-0.11999905 0.11116477 0.77300006 1.447037e-38
-0.11868001 0.11130857 0.77400005 1.5023544e-38
-0.11750858 0.11159619 0.77600002 1.4838768e-38
-0.11632954 0.11188382 0.77800006 1.4654377e-38
-0.11514286 0.11217143 0.78000003 1.4746573e-38
-0.11380286 0.11231524 0.78100002 1.5484138e-38
-0.11260287 0.11260287 0.78300005 1.5483406e-38
-0.11111143 0.11260287 0.78300005 1.5483406e-38
-0.11018001 0.1131781 0.78700006 1.5944417e-38
-0.10895715 0.11346572 0.78900003 1.6221004e-38
-0.10786286 0.11389715 0.79200006 1.6404286e-38
-0.10662286 0.11418477 0.79400003 1.8524786e-38
-0.10537525 0.11447239 0.79600006 2.0185386e-38
-0.10412 0.11476 0.79800004 2.3320038e-38
-0.10285714 0.11504762 0.80000001 2.2584301e-38
-0.18005145 0.11336572 0.77800006 1.9542927e-38
-0.17811048 0.11307429 0.77600002 1.696145e-38
-0.17663239 0.11307429 0.77600002 1.7421685e-38
-0.17515428 0.11307429 0.77600002 1.6868511e-38
-0.17367619 0.11307429 0.77600002 1.6037689e-38
-0.1717543 0.11278286 0.77400005 1.474695e-38
-0.16918001 0.11205429 0.76900005 1.437888e-38
-0.16727905 0.11176286 0.76700002 1.3180337e-38
-0.16560191 0.11161715 0.76600003 1.3179271e-38
-0.16371429 0.11132572 0.76400006 1.2902684e-38
-0.16225906 0.11132572 0.76400006 1.1982876e-38
-0.16080381 0.11132572 0.76400006 1.1337507e-38
-0.15934858 0.11132572 0.76400006 1.0783977e-38
-0.15789334 0.11132572 0.76400006 1.0876172e-38
-0.1564381 0.11132572 0.76400006 1.1334983e-38
-0.15498286 0.11132572 0.76400006 1.1888157e-38
-0.15352763 0.11132572 0.76400006 1.179631e-38
-0.1516743 0.11103429 0.76200002 1.1704114e-38
-0.15022287 0.11103429 0.76200002 1.3087039e-38
-0.14877144 0.11103429 0.76200002 1.3824604e-38
-0.14732 0.11103429 0.76200002 1.3824251e-38
-0.14586857 0.11103429 0.76200002 1.3916446e-38
-0.14441714 0.11103429 0.76200002 1.39161e-38
-0.1429657 0.11103429 0.76200002 1.39161e-38
-0.1415143 0.11103429 0.76200002 1.3917165e-38
-0.14006287 0.11103429 0.76200002 1.382497e-38
-0.13861144 0.11103429 0.76200002 1.3641299e-38
-0.13716 0.11103429 0.76200002 1.3917886e-38
-0.13570857 0.11103429 0.76200002 1.3917886e-38
-0.13425714 0.11103429 0.76200002 1.382569e-38
-0.1331543 0.11132572 0.76400006 1.3918241e-38
-0.13169906 0.11132572 0.76400006 1.3918241e-38
-0.13058476 0.11161715 0.76600003 1.3917183e-38
-0.12912571 0.11161715 0.76600003 1.419377e-38
-0.12783334 0.11176286 0.76700002 1.4102291e-38
-0.12637238 0.11176286 0.76700002 1.4194486e-38
-0.12523715 0.11205429 0.76900005 1.4378162e-38
-0.12441619 0.11263715 0.77300006 1.419377e-38
-0.12294381 0.11263715 0.77300006 1.3918262e-38
-0.12147144 0.11263715 0.77300006 1.3918262e-38
-0.12015429 0.11278286 0.77400005 1.4195218e-38
-0.11898667 0.11307429 0.77600002 1.4656196e-38
-0.11781144 0.11336572 0.77800006 1.4655816e-38
-0.11662858 0.11365715 0.78000003 1.4655816e-38
-0.11529048 0.11380286 0.78100002 1.4655104e-38
-0.11409429 0.11409429 0.78300005 1.5023887e-38
-0.11260287 0.11409429 0.78300005 1.5300097e-38
-0.11111143 0.11409429 0.78300005 1.5392293e-38
-0.11018001 0.11467715 0.78700006 1.6220624e-38
-0.10895715 0.11496858 0.78900003 1.566745e-38
-0.10786286 0.11540572 0.79200006 1.5666709e-38
-0.10689144 0.11598858 0.79600006 1.7049643e-38
-0.10564 0.11628 0.79800004 2.036762e-38
-0.10438095 0.11657143 0.80000001 2.3041293e-38
-0.10285714 0.11657143 0.80000001 2.2214793e-38
-0.18153335 0.11484763 0.77800006 2.1293556e-38
-0.18005145 0.11484763 0.77800006 1.9818795e-38
-0.17811048 0.11455239 0.77600002 1.6684144e-38
-0.17663239 0.11455239 0.77600002 1.7052907e-38
-0.17515428 0.11455239 0.77600002 1.7329494e-38
-0.17367619 0.11455239 0.77600002 1.6499383e-38
-0.17219809 0.11455239 0.77600002 1.5116448e-38
-0.16962001 0.11381429 0.77100003 1.4287045e-38
-0.16771525 0.11351905 0.76900005 1.4194849e-38
-0.16560191 0.1130762 0.76600003 1.410159e-38
-0.16371429 0.11278096 0.76400006 1.3917199e-38
-0.16225906 0.11278096 0.76400006 1.3732445e-38
-0.16080381 0.11278096 0.76400006 1.3179271e-38
-0.15934858 0.11278096 0.76400006 1.2443488e-38
-0.15789334 0.11278096 0.76400006 1.1798119e-38
-0.1564381 0.11278096 0.76400006 1.1981797e-38
-0.15498286 0.11278096 0.76400006 1.1889601e-38
-0.15352763 0.11278096 0.76400006 1.1612998e-38
-0.15207238 0.11278096 0.76400006 1.1520802e-38
-0.15022287 0.11248571 0.76200002 1.2810452e-38
-0.14877144 0.11248571 0.76200002 1.4101191e-38
-0.14732 0.11248571 0.76200002 1.4100478e-38
-0.14586857 0.11248571 0.76200002 1.4100478e-38
-0.14441714 0.11248571 0.76200002 1.400794e-38
-0.1429657 0.11248571 0.76200002 1.4561114e-38
-0.1415143 0.11248571 0.76200002 1.4009361e-38
-0.14006287 0.11248571 0.76200002 1.4009361e-38
-0.13897525 0.11278096 0.76400006 1.382569e-38
-0.13752002 0.11278096 0.76400006 1.3917886e-38
-0.13606477 0.11278096 0.76400006 1.4009711e-38
-0.13460954 0.11278096 0.76400006 1.4009711e-38
-0.1331543 0.11278096 0.76400006 1.4193021e-38
-0.13204382 0.1130762 0.76600003 1.4469608e-38
-0.13058476 0.1130762 0.76600003 1.4193389e-38
-0.12912571 0.1130762 0.76600003 1.3916802e-38
-0.12783334 0.11322381 0.76700002 1.3364366e-38
-0.12670191 0.11351905 0.76900005 1.2995583e-38
-0.12523715 0.11351905 0.76900005 1.2258381e-38
-0.12441619 0.11410953 0.77300006 1.207399e-38
-0.12294381 0.11410953 0.77300006 1.1982154e-38
-0.12147144 0.11410953 0.77300006 1.3180697e-38
-0.12015429 0.11425715 0.77400005 1.3549132e-38
-0.11898667 0.11455239 0.77600002 1.4747676e-38
-0.11781144 0.11484763 0.77800006 1.4655813e-38
-0.11662858 0.11514286 0.78000003 1.4840205e-38
-0.11529048 0.11529048 0.78100002 1.4655104e-38
-0.11409429 0.11558571 0.78300005 1.4655104e-38
-0.11260287 0.11558571 0.78300005 1.5207901e-38
-0.11111143 0.11558571 0.78300005 1.5392293e-38
-0.11018001 0.1161762 0.78700006 1.5300453e-38
-0.10895715 0.11647143 0.78900003 1.5116062e-38
-0.10786286 0.11691429 0.79200006 1.5481964e-38
-0.10689144 0.11750478 0.79600006 1.6957094e-38
-0.10564 0.1178 0.79800004 2.0000276e-38
-0.10438095 0.11809523 0.80000001 2.2489558e-38
-0.10285714 0.11809523 0.80000001 2.1938559e-38
-0.10133334 0.11809523 0.80000001 2.2307342e-38
-0.18005145 0.11632954 0.77800006 1.9819514e-38
-0.17811048 0.11603048 0.77600002 1.7145841e-38
-0.17663239 0.11603048 0.77600002 1.7513166e-38
-0.17515428 0.11603048 0.77600002 1.7052188e-38
-0.17367619 0.11603048 0.77600002 1.6499027e-38
-0.17219809 0.11603048 0.77600002 1.5484875e-38
-0.17028001 0.11573143 0.77400005 1.410301e-38
-0.16815144 0.11528286 0.77100003 1.3826423e-38
-0.1662505 0.11498382 0.76900005 1.4377091e-38
-0.16414286 0.11453524 0.76600003 1.4284895e-38
-0.16225906 0.1142362 0.76400006 1.4100148e-38
-0.16080381 0.1142362 0.76400006 1.3915757e-38
-0.15934858 0.1142362 0.76400006 1.3640962e-38
-0.15830666 0.11453524 0.76600003 1.2811202e-38
-0.1564381 0.1142362 0.76400006 1.2627526e-38
-0.15498286 0.1142362 0.76400006 1.2443135e-38
-0.15352763 0.1142362 0.76400006 1.1706283e-38
-0.15207238 0.1142362 0.76400006 1.1614088e-38
-0.15061715 0.1142362 0.76400006 1.2810102e-38
-0.14877144 0.11393715 0.76200002 1.410084e-38
-0.14732 0.11393715 0.76200002 1.4192673e-38
-0.14625144 0.1142362 0.76400006 1.4192673e-38
-0.14479619 0.1142362 0.76400006 1.4191965e-38
-0.1429657 0.11393715 0.76200002 1.4191965e-38
-0.1415143 0.11393715 0.76200002 1.3825341e-38
-0.14043048 0.1142362 0.76400006 1.3733145e-38
-0.13897525 0.1142362 0.76400006 1.3640953e-38
-0.13752002 0.1142362 0.76400006 1.3456561e-38
-0.13606477 0.1142362 0.76400006 1.3639497e-38
-0.13460954 0.1142362 0.76400006 1.3731692e-38
-0.1331543 0.1142362 0.76400006 1.39143e-38
-0.13204382 0.11453524 0.76600003 1.4190886e-38
-0.13075523 0.11468477 0.76700002 1.3731356e-38
-0.12929429 0.11468477 0.76700002 1.3270378e-38
-0.12783334 0.11468477 0.76700002 1.262788e-38
-0.12670191 0.11498382 0.76900005 1.2443488e-38
-0.12523715 0.11498382 0.76900005 1.1706283e-38
-0.12441619 0.11558191 0.77300006 1.1521892e-38
-0.12294381 0.11558191 0.77300006 1.0691401e-38
-0.12162858 0.11573143 0.77400005 1.3180683e-38
-0.12046476 0.11603048 0.77600002 1.3365089e-38
-0.11929334 0.11632954 0.77800006 1.4471436e-38
-0.11781144 0.11632954 0.77800006 1.4287034e-38
-0.11662858 0.11662858 0.78000003 1.4655816e-38
-0.11529048 0.1167781 0.78100002 1.4747649e-38
-0.11409429 0.11707715 0.78300005 1.4747649e-38
-0.11260287 0.11707715 0.78300005 1.5115708e-38
-0.11111143 0.11707715 0.78300005 1.53001e-38
-0.11018001 0.11767524 0.78700006 1.5024233e-38
-0.10895715 0.1179743 0.78900003 1.4747646e-38
-0.10813525 0.11872191 0.79400003 1.5114264e-38
-0.10689144 0.11902096 0.79600006 1.6958176e-38
-0.10564 0.11932001 0.79800004 1.9631494e-38
-0.10438095 0.11961904 0.80000001 2.2120776e-38
-0.1026 0.11932001 0.79800004 2.1201357e-38
-0.10108 0.11932001 0.79800004 2.1293553e-38
-0.18005145 0.11781144 0.77800006 2.0280495e-38
-0.17856954 0.11781144 0.77800006 1.7422431e-38
-0.17663239 0.11750858 0.77600002 1.7421336e-38
-0.17515428 0.11750858 0.77600002 1.6407184e-38
-0.17367619 0.11750858 0.77600002 1.6498664e-38
-0.17219809 0.11750858 0.77600002 1.5668903e-38
-0.17028001 0.11720572 0.77400005 1.4195554e-38
-0.16815144 0.11675143 0.77100003 1.1429685e-38
-0.1662505 0.11644858 0.76900005 1.1889584e-38
-0.16478573 0.11644858 0.76900005 1.2350563e-38
-0.16332096 0.11644858 0.76900005 1.2534618e-38
-0.16080381 0.11569143 0.76400006 1.2534618e-38
-0.15934858 0.11569143 0.76400006 1.2627512e-38
-0.15830666 0.11599429 0.76600003 1.2166534e-38
-0.15684763 0.11599429 0.76600003 1.26275e-38
-0.15538858 0.11599429 0.76600003 1.2811891e-38
-0.15392953 0.11599429 0.76600003 1.1889971e-38
-0.15247048 0.11599429 0.76600003 1.1521189e-38
-0.15061715 0.11569143 0.76400006 1.2350926e-38
-0.14916192 0.11569143 0.76400006 1.2904099e-38
-0.14770667 0.11569143 0.76400006 1.3271067e-38
-0.14625144 0.11569143 0.76400006 1.3271067e-38
-0.14479619 0.11569143 0.76400006 1.345654e-38
-0.14334096 0.11569143 0.76400006 1.3548736e-38
-0.14188573 0.11569143 0.76400006 1.3364717e-38
-0.14043048 0.11569143 0.76400006 1.2811544e-38
-0.13897525 0.11569143 0.76400006 1.2165835e-38
-0.13752002 0.11569143 0.76400006 1.2073639e-38
-0.13642095 0.11599429 0.76600003 1.2165469e-38
-0.1349619 0.11599429 0.76600003 1.2534252e-38
-0.13350287 0.11599429 0.76600003 1.188675e-38
-0.1322162 0.11614572 0.76700002 1.1702358e-38
-0.13075523 0.11614572 0.76700002 1.1333919e-38
-0.12929429 0.11614572 0.76700002 1.0872941e-38
-0.12816668 0.11644858 0.76900005 1.1243139e-38
-0.12670191 0.11644858 0.76900005 1.1519726e-38
-0.12556286 0.11675143 0.77100003 1.2442407e-38
-0.12441619 0.1170543 0.77300006 1.2350211e-38
-0.12294381 0.1170543 0.77300006 1.2903037e-38
-0.12162858 0.11720572 0.77400005 1.3732798e-38
-0.12077525 0.11781144 0.77800006 1.3732798e-38
-0.11929334 0.11781144 0.77800006 1.5023537e-38
-0.11781144 0.11781144 0.77800006 1.4748379e-38
-0.11662858 0.11811429 0.78000003 1.4471792e-38
-0.11529048 0.11826571 0.78100002 1.4747646e-38
-0.11409429 0.11856858 0.78300005 1.4932037e-38
-0.11260287 0.11856858 0.78300005 1.4840195e-38
-0.11111143 0.11856858 0.78300005 1.4563608e-38
-0.11018001 0.11917429 0.78700006 1.3548404e-38
-0.10937144 0.11993144 0.79200006 1.2903034e-38
-0.10813525 0.12023429 0.79400003 1.4468175e-38
-0.10689144 0.12053715 0.79600006 1.7602827e-38
-0.10564 0.12084001 0.79800004 1.9539651e-38
-0.10438095 0.12114286 0.80000001 2.2213324e-38
-0.1026 0.12084001 0.79800004 2.120172e-38
-0.10108 0.12084001 0.79800004 2.120172e-38
-0.18005145 0.11929334 0.77800006 2.0649275e-38
-0.17856954 0.11929334 0.77800006 1.7514624e-38
-0.17663239 0.11898667 0.77600002 1.760499e-38
-0.17515428 0.11898667 0.77600002 1.6959621e-38
-0.17367619 0.11898667 0.77600002 1.6591222e-38
-0.17219809 0.11898667 0.77600002 1.5577071e-38
-0.17028001 0.11868001 0.77400005 1.428848e-38
-0.16815144 0.11822 0.77100003 1.1430415e-38
-0.16668287 0.11822 0.77100003 1.1429322e-38
-0.16478573 0.11791334 0.76900005 1.1705909e-38
-0.16332096 0.11791334 0.76900005 1.1521542e-38
-0.16185619 0.11791334 0.76900005 1.1429346e-38
-0.15997429 0.11760666 0.76700002 1.1704844e-38
-0.15851334 0.11760666 0.76700002 1.1520453e-38
-0.15684763 0.11745334 0.76600003 1.1887426e-38
-0.15538858 0.11745334 0.76600003 1.2256209e-38
-0.15392953 0.11745334 0.76600003 1.1337516e-38
-0.15247048 0.11745334 0.76600003 1.0876538e-38
-0.15101144 0.11745334 0.76600003 1.115311e-38
-0.14955239 0.11745334 0.76600003 1.1706283e-38
-0.14770667 0.11714668 0.76400006 1.1705923e-38
-0.14625144 0.11714668 0.76400006 1.1613728e-38
-0.14479619 0.11714668 0.76400006 1.170521e-38
-0.14334096 0.11714668 0.76400006 1.2166188e-38
-0.14188573 0.11714668 0.76400006 1.2536036e-38
-0.14043048 0.11714668 0.76400006 1.2351644e-38
-0.13933904 0.11745334 0.76600003 1.1705923e-38
-0.13788 0.11745334 0.76600003 1.1705923e-38
-0.13642095 0.11745334 0.76600003 1.1334983e-38
-0.1349619 0.11745334 0.76600003 1.1703765e-38
-0.13367715 0.11760666 0.76700002 1.1611219e-38
-0.1322162 0.11760666 0.76700002 1.1426828e-38
-0.13075523 0.11760666 0.76700002 1.0688544e-38
-0.12963143 0.11791334 0.76900005 1.0965131e-38
-0.12816668 0.11791334 0.76900005 1.1426088e-38
-0.12703143 0.11822 0.77100003 1.2255849e-38
-0.12556286 0.11822 0.77100003 1.3085986e-38
-0.12457716 0.11868001 0.77400005 1.3454769e-38
-0.12310287 0.11868001 0.77400005 1.4100136e-38
-0.12162858 0.11868001 0.77400005 1.4653309e-38
-0.12077525 0.11929334 0.77800006 1.456147e-38
-0.11929334 0.11929334 0.77800006 1.5114643e-38
-0.11811429 0.1196 0.78000003 1.4748379e-38
-0.11662858 0.1196 0.78000003 1.4656183e-38
-0.11558571 0.12006001 0.78300005 1.4748023e-38
-0.11438572 0.12036667 0.78500003 1.4563632e-38
-0.11289048 0.12036667 0.78500003 1.4471425e-38
-0.11139524 0.12036667 0.78500003 1.3918251e-38
-0.11018001 0.12067334 0.78700006 1.2628229e-38
-0.10937144 0.12144001 0.79200006 1.2628229e-38
-0.10813525 0.12174667 0.79400003 1.3914992e-38
-0.10716 0.12236001 0.79800004 1.7695013e-38
-0.10564 0.12236001 0.79800004 1.9447095e-38
-0.10438095 0.12266667 0.80000001 2.1751986e-38
-0.10285714 0.12266667 0.80000001 2.0923684e-38
-0.10133334 0.12266667 0.80000001 2.1476858e-38
-0.18051429 0.12108572 0.78000003 2.08333e-38
-0.17902859 0.12108572 0.78000003 1.7514258e-38
-0.17708763 0.12077525 0.77800006 1.7237284e-38
-0.17560573 0.12077525 0.77800006 1.6868502e-38
-0.17367619 0.12046476 0.77600002 1.6499746e-38
-0.17219809 0.12046476 0.77600002 1.5209007e-38
-0.17028001 0.12015429 0.77400005 1.4472158e-38
-0.16858763 0.11999905 0.77300006 1.3550202e-38
-0.16668287 0.11968857 0.77100003 1.2904829e-38
-0.16521429 0.11968857 0.77100003 1.2443851e-38
-0.16374572 0.11968857 0.77100003 1.1889971e-38
-0.16185619 0.1193781 0.76900005 1.1521189e-38
-0.15997429 0.11906762 0.76700002 1.170521e-38
-0.15851334 0.11906762 0.76700002 1.0691058e-38
-0.15684763 0.11891238 0.76600003 1.0874007e-38
-0.15538858 0.11891238 0.76600003 1.0689616e-38
-0.15413047 0.11906762 0.76700002 1.0322298e-38
-0.15266953 0.11906762 0.76700002 9.1237548e-39
-0.15101144 0.11891238 0.76600003 1.0507366e-38
-0.14955239 0.11891238 0.76600003 1.0968344e-38
-0.14809333 0.11891238 0.76600003 1.115132e-38
-0.14663428 0.11891238 0.76600003 1.0598146e-38
-0.14517525 0.11891238 0.76600003 1.0689646e-38
-0.14334096 0.11860192 0.76400006 1.0505254e-38
-0.14188573 0.11860192 0.76400006 1.0598848e-38
-0.14043048 0.11860192 0.76400006 1.0691044e-38
-0.13933904 0.11891238 0.76600003 1.1612298e-38
-0.13788 0.11891238 0.76600003 1.1981081e-38
-0.13642095 0.11891238 0.76600003 1.207399e-38
-0.13513809 0.11906762 0.76700002 1.2350577e-38
-0.13367715 0.11906762 0.76700002 1.1612305e-38
-0.13256097 0.1193781 0.76900005 1.1427914e-38
-0.1310962 0.1193781 0.76900005 1.216582e-38
-0.12963143 0.1193781 0.76900005 1.2350211e-38
-0.12816668 0.1193781 0.76900005 1.308632e-38
-0.12703143 0.11968857 0.77100003 1.3547298e-38
-0.12556286 0.11968857 0.77100003 1.3363289e-38
-0.12457716 0.12015429 0.77400005 1.3547681e-38
-0.12310287 0.12015429 0.77400005 1.4008293e-38
-0.12225715 0.12077525 0.77800006 1.4653663e-38
-0.12077525 0.12077525 0.77800006 1.4653658e-38
-0.11929334 0.12077525 0.77800006 1.4653658e-38
-0.11811429 0.12108572 0.78000003 1.4194486e-38
-0.11662858 0.12108572 0.78000003 1.3641313e-38
-0.11558571 0.12155143 0.78300005 1.318e-38
-0.11438572 0.1218619 0.78500003 1.2258043e-38
-0.11289048 0.1218619 0.78500003 1.2259083e-38
-0.11167905 0.12217239 0.78700006 1.2166887e-38
-0.11046 0.12248287 0.78900003 1.262715e-38
-0.10937144 0.12294858 0.79200006 1.4286671e-38
-0.10813525 0.12325906 0.79400003 1.5112855e-38
-0.10689144 0.12356954 0.79600006 1.7602137e-38
-0.10537525 0.12356954 0.79600006 1.9171225e-38
-0.10412 0.12388001 0.79800004 2.1844898e-38
-0.10285714 0.12419049 0.80000001 2.1385746e-38
-0.10133334 0.12419049 0.80000001 2.1201354e-38
-0.18074572 0.12272858 0.78100002 2.1017695e-38
-0.17902859 0.12257144 0.78000003 1.8067434e-38
-0.17754287 0.12257144 0.78000003 1.7606074e-38
-0.17605714 0.12257144 0.78000003 1.6776313e-38
-0.17412382 0.12225715 0.77800006 1.6499743e-38
-0.17219809 0.12194286 0.77600002 1.5669982e-38
-0.17028001 0.12162858 0.77400005 1.4656895e-38
-0.16858763 0.12147144 0.77300006 1.391933e-38
-0.16711524 0.12147144 0.77300006 1.4195565e-38
-0.16521429 0.12115715 0.77100003 1.3273609e-38
-0.16374572 0.12115715 0.77100003 1.2443498e-38
-0.16227715 0.12115715 0.77100003 1.2259107e-38
-0.16039144 0.12084287 0.76900005 1.2167264e-38
-0.15851334 0.12052857 0.76700002 1.1706286e-38
-0.15705238 0.12052857 0.76700002 1.1244578e-38
-0.15559143 0.12052857 0.76700002 1.1705556e-38
-0.15413047 0.12052857 0.76700002 1.170558e-38
-0.15266953 0.12052857 0.76700002 1.0691428e-38
-0.15101144 0.12037143 0.76600003 1.0874356e-38
-0.14955239 0.12037143 0.76600003 1.1335334e-38
-0.14809333 0.12037143 0.76600003 1.1334983e-38
-0.14663428 0.12037143 0.76600003 1.1334983e-38
-0.14517525 0.12037143 0.76600003 1.1151315e-38
-0.14334096 0.12005715 0.76400006 1.124351e-38
-0.14188573 0.12005715 0.76400006 1.2072897e-38
-0.14043048 0.12005715 0.76400006 1.1704114e-38
-0.13933904 0.12037143 0.76600003 1.1704121e-38
-0.13788 0.12037143 0.76600003 1.2257295e-38
-0.13659905 0.12052857 0.76700002 1.2258744e-38
-0.13513809 0.12052857 0.76700002 1.2258744e-38
-0.13402572 0.12084287 0.76900005 1.2166546e-38
-0.13256097 0.12084287 0.76900005 1.2350937e-38
-0.1310962 0.12084287 0.76900005 1.30867e-38
-0.12963143 0.12084287 0.76900005 1.3178895e-38
-0.1285 0.12115715 0.77100003 1.3270731e-38
-0.12703143 0.12115715 0.77100003 1.3178535e-38
-0.12588859 0.12147144 0.77300006 1.3086347e-38
-0.12457716 0.12162858 0.77400005 1.363952e-38
-0.12310287 0.12162858 0.77400005 1.3731716e-38
-0.12194286 0.12194286 0.77600002 1.4561477e-38
-0.12077525 0.12225715 0.77800006 1.4654028e-38
-0.1196 0.12257144 0.78000003 1.4654028e-38
-0.11811429 0.12257144 0.78000003 1.4286682e-38
-0.11662858 0.12257144 0.78000003 1.3088139e-38
-0.11558571 0.12304286 0.78300005 1.2904099e-38
-0.11438572 0.12335715 0.78500003 1.1797752e-38
-0.11289048 0.12335715 0.78500003 1.1428231e-38
-0.11167905 0.12367143 0.78700006 1.2350187e-38
-0.11046 0.12398572 0.78900003 1.2718607e-38
-0.10937144 0.12445715 0.79200006 1.5023497e-38
-0.10813525 0.12477144 0.79400003 1.7141133e-38
-0.10689144 0.12508573 0.79600006 1.7878698e-38
-0.10537525 0.12508573 0.79600006 1.8986138e-38
-0.10412 0.12540001 0.79800004 2.1659812e-38
-0.10285714 0.12571429 0.80000001 2.1386114e-38
-0.17856954 0.12373906 0.77800006 1.8528057e-38
-0.17663239 0.12342096 0.77600002 1.7513898e-38
-0.17515428 0.12342096 0.77600002 1.6868528e-38
-0.17412382 0.12373906 0.77800006 1.6591573e-38
-0.17219809 0.12342096 0.77600002 1.6038399e-38
-0.17028001 0.12310287 0.77400005 1.5302252e-38
-0.16880573 0.12310287 0.77400005 1.3181753e-38
-0.16711524 0.12294381 0.77300006 1.3273588e-38
-0.16564287 0.12294381 0.77300006 1.3457979e-38
-0.16374572 0.12262572 0.77100003 1.2443488e-38
-0.16227715 0.12262572 0.77100003 1.2351293e-38
-0.16080856 0.12262572 0.77100003 1.2167613e-38
-0.15892668 0.12230762 0.76900005 1.2259809e-38
-0.15746191 0.12230762 0.76900005 1.2075058e-38
-0.15599716 0.12230762 0.76900005 1.2259449e-38
-0.1545324 0.12230762 0.76900005 1.2349886e-38
-0.15266953 0.12198953 0.76700002 1.2165495e-38
-0.15120856 0.12198953 0.76700002 1.2166546e-38
-0.14974762 0.12198953 0.76700002 1.2166546e-38
-0.14828667 0.12198953 0.76700002 1.2442758e-38
-0.14663428 0.12183048 0.76600003 1.262715e-38
-0.14517525 0.12183048 0.76600003 1.2442769e-38
-0.14334096 0.12151239 0.76400006 1.3088139e-38
-0.14188573 0.12151239 0.76400006 1.2995949e-38
-0.14043048 0.12151239 0.76400006 1.2995949e-38
-0.13933904 0.12183048 0.76600003 1.2443121e-38
-0.13788 0.12183048 0.76600003 1.2350926e-38
-0.13659905 0.12198953 0.76700002 1.225911e-38
-0.13513809 0.12198953 0.76700002 1.2074718e-38
-0.13402572 0.12230762 0.76900005 1.2166899e-38
-0.13256097 0.12230762 0.76900005 1.235129e-38
-0.1310962 0.12230762 0.76900005 1.2350565e-38
-0.12963143 0.12230762 0.76900005 1.2073979e-38
-0.1285 0.12262572 0.77100003 1.2440614e-38
-0.12703143 0.12262572 0.77100003 1.253281e-38
-0.12588859 0.12294381 0.77300006 1.3086347e-38
-0.12457716 0.12310287 0.77400005 1.363952e-38
-0.12342096 0.12342096 0.77600002 1.3731719e-38
-0.12194286 0.12342096 0.77600002 1.4838066e-38
-0.12108572 0.12405715 0.78000003 1.4746224e-38
-0.1196 0.12405715 0.78000003 1.4285246e-38
-0.11811429 0.12405715 0.78000003 1.2904111e-38
-0.1167781 0.12421619 0.78100002 1.142898e-38
-0.11558571 0.12453429 0.78300005 1.1154515e-38
-0.11438572 0.12485238 0.78500003 1.1154515e-38
-0.11289048 0.12485238 0.78500003 1.1982856e-38
-0.11167905 0.12517048 0.78700006 1.4840921e-38
-0.11046 0.12548856 0.78900003 1.5116785e-38
-0.10937144 0.12596571 0.79200006 1.5393372e-38
-0.10813525 0.12628381 0.79400003 1.6497911e-38
-0.10689144 0.1266019 0.79600006 1.7512063e-38
-0.10537525 0.1266019 0.79600006 1.8893948e-38
-0.10412 0.12692 0.79800004 2.1475426e-38
-0.10285714 0.12723809 0.80000001 2.1199915e-38
-0.17856954 0.12522095 0.77800006 1.8529138e-38
-0.17663239 0.12489904 0.77600002 1.7422052e-38
-0.17515428 0.12489904 0.77600002 1.6315705e-38
-0.17367619 0.12489904 0.77600002 1.6499027e-38
-0.17219809 0.12489904 0.77600002 1.6130244e-38
-0.17028001 0.12457716 0.77400005 1.5210788e-38
-0.16880573 0.12457716 0.77400005 1.3090288e-38
-0.16711524 0.12441619 0.77300006 1.3181037e-38
-0.16564287 0.12441619 0.77300006 1.2720058e-38
-0.16417049 0.12441619 0.77300006 1.2166546e-38
-0.16227715 0.12409429 0.77100003 1.2166546e-38
-0.16080856 0.12409429 0.77100003 1.2075069e-38
-0.15892668 0.12377239 0.76900005 1.1982873e-38
-0.15746191 0.12377239 0.76900005 1.1798479e-38
-0.15599716 0.12377239 0.76900005 1.1890675e-38
-0.1545324 0.12377239 0.76900005 1.2074002e-38
-0.15266953 0.12345047 0.76700002 1.2166198e-38
-0.15120856 0.12345047 0.76700002 1.2350579e-38
-0.14974762 0.12345047 0.76700002 1.2258384e-38
-0.14828667 0.12345047 0.76700002 1.2719348e-38
-0.14682572 0.12345047 0.76700002 1.2811544e-38
-0.14536478 0.12345047 0.76700002 1.2166188e-38
-0.1437162 0.12328953 0.76600003 1.2350579e-38
-0.14225715 0.12328953 0.76600003 1.2442782e-38
-0.14079811 0.12328953 0.76600003 1.2534978e-38
-0.13933904 0.12328953 0.76600003 1.2535684e-38
-0.13806 0.12345047 0.76700002 1.2166901e-38
-0.13659905 0.12345047 0.76700002 1.2075072e-38
-0.13513809 0.12345047 0.76700002 1.1982876e-38
-0.13402572 0.12377239 0.76900005 1.2166546e-38
-0.13256097 0.12377239 0.76900005 1.207435e-38
-0.1310962 0.12377239 0.76900005 1.1798119e-38
-0.12963143 0.12377239 0.76900005 1.1798119e-38
-0.1285 0.12409429 0.77100003 1.2257288e-38
-0.12703143 0.12409429 0.77100003 1.2810462e-38
-0.12588859 0.12441619 0.77300006 1.3178542e-38
-0.12489904 0.12489904 0.77600002 1.3547325e-38
-0.12342096 0.12489904 0.77600002 1.3731716e-38
-0.12225715 0.12522095 0.77800006 1.428489e-38
-0.12108572 0.12554286 0.78000003 1.419377e-38
-0.1196 0.12554286 0.78000003 1.4101575e-38
-0.11811429 0.12554286 0.78000003 1.2443837e-38
-0.1167781 0.12570381 0.78100002 1.1245294e-38
-0.11588095 0.12634763 0.78500003 9.4045862e-39
-0.11438572 0.12634763 0.78500003 1.0971912e-38
-0.1131781 0.12666953 0.78700006 1.2811901e-38
-0.11167905 0.12666953 0.78700006 1.5301183e-38
-0.1106 0.12715238 0.79000002 1.5301176e-38
-0.10937144 0.12747429 0.79200006 1.5301176e-38
-0.10813525 0.12779619 0.79400003 1.5945469e-38
-0.10689144 0.12811811 0.79600006 1.7697186e-38
-0.10537525 0.12811811 0.79600006 1.8801044e-38
-0.17902859 0.12702857 0.78000003 1.9266343e-38
-0.17663239 0.12637714 0.77600002 1.7605737e-38
-0.17515428 0.12637714 0.77600002 1.6222803e-38
-0.17367619 0.12637714 0.77600002 1.6406478e-38
-0.17219809 0.12637714 0.77600002 1.5668913e-38
-0.17028001 0.12605143 0.77400005 1.53941e-38
-0.16880573 0.12605143 0.77400005 1.3273601e-38
-0.16733144 0.12605143 0.77400005 1.262788e-38
-0.16564287 0.12588859 0.77300006 1.2074706e-38
-0.16417049 0.12588859 0.77300006 1.207435e-38
-0.1626981 0.12588859 0.77300006 1.1336785e-38
-0.16080856 0.12556286 0.77100003 1.1521182e-38
-0.15892668 0.12523715 0.76900005 1.1244595e-38
-0.15746191 0.12523715 0.76900005 1.1060554e-38
-0.15599716 0.12523715 0.76900005 1.1060554e-38
-0.1545324 0.12523715 0.76900005 1.1057692e-38
-0.15306762 0.12523715 0.76900005 1.1149888e-38
-0.15120856 0.12491143 0.76700002 1.1058415e-38
-0.14974762 0.12491143 0.76700002 1.1427198e-38
-0.14867334 0.12523715 0.76900005 1.1427178e-38
-0.14682572 0.12491143 0.76700002 1.1334983e-38
-0.14536478 0.12491143 0.76700002 1.1336072e-38
-0.14390381 0.12491143 0.76700002 1.1243876e-38
-0.14225715 0.12474858 0.76600003 1.1336425e-38
-0.14079811 0.12474858 0.76600003 1.1336425e-38
-0.13952096 0.12491143 0.76700002 1.1612649e-38
-0.13806 0.12491143 0.76700002 1.1704844e-38
-0.13659905 0.12491143 0.76700002 1.1521169e-38
-0.13513809 0.12491143 0.76700002 1.1521169e-38
-0.13402572 0.12523715 0.76900005 1.1520813e-38
-0.13256097 0.12523715 0.76900005 1.1336422e-38
-0.1310962 0.12523715 0.76900005 1.1704494e-38
-0.12963143 0.12523715 0.76900005 1.2165472e-38
-0.1285 0.12556286 0.77100003 1.2165448e-38
-0.12703143 0.12556286 0.77100003 1.3271796e-38
-0.12588859 0.12588859 0.77300006 1.3548401e-38
-0.12457716 0.12605143 0.77400005 1.3456205e-38
-0.12373906 0.12670286 0.77800006 1.3731716e-38
-0.12225715 0.12670286 0.77800006 1.3916107e-38
-0.12108572 0.12702857 0.78000003 1.4285585e-38
-0.1196 0.12702857 0.78000003 1.4285585e-38
-0.11826571 0.12719144 0.78100002 1.3087426e-38
-0.11707715 0.12751715 0.78300005 1.2810839e-38
-0.11588095 0.12784286 0.78500003 1.3181405e-38
-0.11438572 0.12784286 0.78500003 1.4287753e-38
-0.1131781 0.12816858 0.78700006 1.465583e-38
-0.11196286 0.12849429 0.78900003 1.5669982e-38
-0.1106 0.12865713 0.79000002 1.5577763e-38
-0.10964762 0.12930857 0.79400003 1.5577763e-38
-0.10813525 0.12930857 0.79400003 1.6128428e-38
-0.10689144 0.12963429 0.79600006 1.8525515e-38
-0.10537525 0.12963429 0.79600006 1.8986156e-38
-0.17971715 0.12900859 0.78300005 1.8804643e-38
-0.17708763 0.12818477 0.77800006 1.834329e-38
-0.17560573 0.12818477 0.77800006 1.6499377e-38
-0.17367619 0.12785524 0.77600002 1.6590869e-38
-0.17219809 0.12785524 0.77600002 1.6129891e-38
-0.17072001 0.12785524 0.77600002 1.5301916e-38
-0.16880573 0.12752572 0.77400005 1.3273612e-38
-0.16733144 0.12752572 0.77400005 1.2627517e-38
-0.16585715 0.12752572 0.77400005 1.2074343e-38
-0.16417049 0.12736095 0.77300006 1.2074343e-38
-0.1626981 0.12736095 0.77300006 1.1613365e-38
-0.16080856 0.12703143 0.77100003 1.1612658e-38
-0.15934001 0.12703143 0.77100003 1.0967289e-38
-0.15746191 0.12670191 0.76900005 1.1151315e-38
-0.15599716 0.12670191 0.76900005 1.0874728e-38
-0.1545324 0.12670191 0.76900005 1.096585e-38
-0.15306762 0.12670191 0.76900005 1.1058046e-38
-0.15160286 0.12670191 0.76900005 1.0414118e-38
-0.1501381 0.12670191 0.76900005 1.0875096e-38
-0.14867334 0.12670191 0.76900005 1.0783611e-38
-0.14720859 0.12670191 0.76900005 1.0875807e-38
-0.14574382 0.12670191 0.76900005 1.1243876e-38
-0.14390381 0.12637238 0.76700002 1.115168e-38
-0.14244285 0.12637238 0.76700002 1.1150594e-38
-0.14098191 0.12637238 0.76700002 1.1427181e-38
-0.13952096 0.12637238 0.76700002 1.1519014e-38
-0.13806 0.12637238 0.76700002 1.1519014e-38
-0.13659905 0.12637238 0.76700002 1.1888861e-38
-0.13549049 0.12670191 0.76900005 1.1981057e-38
-0.13402572 0.12670191 0.76900005 1.1797037e-38
-0.13256097 0.12670191 0.76900005 1.1612646e-38
-0.1310962 0.12670191 0.76900005 1.1704114e-38
-0.12996858 0.12703143 0.77100003 1.2072897e-38
-0.1285 0.12703143 0.77100003 1.1612998e-38
-0.12703143 0.12703143 0.77100003 1.3180323e-38
-0.12588859 0.12736095 0.77300006 1.3548769e-38
-0.12457716 0.12752572 0.77400005 1.3456574e-38
-0.12373906 0.12818477 0.77800006 1.3823905e-38
-0.12225715 0.12818477 0.77800006 1.4284883e-38
-0.12108572 0.12851429 0.78000003 1.4193036e-38
-0.11975334 0.12867905 0.78100002 1.410084e-38
-0.11826571 0.12867905 0.78100002 1.3639494e-38
-0.11707715 0.12900859 0.78300005 1.3916081e-38
-0.11588095 0.1293381 0.78500003 1.4285582e-38
-0.11438572 0.1293381 0.78500003 1.5207538e-38
-0.11346572 0.12999715 0.78900003 1.4840935e-38
-0.11210477 0.1301619 0.79000002 1.5394109e-38
-0.11088001 0.13049144 0.79200006 1.548593e-38
-0.10964762 0.13082094 0.79400003 1.5393734e-38
-0.10813525 0.13082094 0.79400003 1.6035518e-38
-0.10689144 0.13115048 0.79600006 1.7971626e-38
-0.10537525 0.13115048 0.79600006 1.9170532e-38
-0.17971715 0.1305 0.78300005 1.8803881e-38
-0.17777048 0.13016666 0.78100002 1.8343995e-38
-0.17628285 0.13016666 0.78100002 1.6500082e-38
-0.17412382 0.12966667 0.77800006 1.6591588e-38
-0.17264192 0.12966667 0.77800006 1.613061e-38
-0.17072001 0.12933333 0.77600002 1.5393746e-38
-0.16924191 0.12933333 0.77600002 1.3088855e-38
-0.16733144 0.12900001 0.77400005 1.2351656e-38
-0.16585715 0.12900001 0.77400005 1.1337504e-38
-0.16438286 0.12900001 0.77400005 1.1613358e-38
-0.1626981 0.12883334 0.77300006 1.1521162e-38
-0.16080856 0.1285 0.77100003 1.1612298e-38
-0.15934001 0.1285 0.77100003 1.1059125e-38
-0.15746191 0.12816668 0.76900005 1.1058771e-38
-0.15599716 0.12816668 0.76900005 1.1058771e-38
-0.1545324 0.12816668 0.76900005 1.1151315e-38
-0.15306762 0.12816668 0.76900005 1.1520097e-38
-0.15160286 0.12816668 0.76900005 1.1243523e-38
-0.1501381 0.12816668 0.76900005 1.1059132e-38
-0.14867334 0.12816668 0.76900005 1.1059125e-38
-0.14720859 0.12816668 0.76900005 1.115132e-38
-0.14574382 0.12816668 0.76900005 1.115132e-38
-0.14427906 0.12816668 0.76900005 1.115132e-38
-0.14244285 0.12783334 0.76700002 1.115132e-38
-0.14098191 0.12783334 0.76700002 1.1888885e-38
-0.13952096 0.12783334 0.76700002 1.1703412e-38
-0.13842 0.12816668 0.76900005 1.1426825e-38
-0.13695525 0.12816668 0.76900005 1.1612995e-38
-0.13549049 0.12816668 0.76900005 1.2166169e-38
-0.13402572 0.12816668 0.76900005 1.2166534e-38
-0.13290572 0.1285 0.77100003 1.2996295e-38
-0.13143714 0.1285 0.77100003 1.3271433e-38
-0.12996858 0.1285 0.77100003 1.3732411e-38
-0.1285 0.1285 0.77100003 1.3364366e-38
-0.12736095 0.12883334 0.77300006 1.3640953e-38
-0.12588859 0.12883334 0.77300006 1.3548769e-38
-0.12522095 0.12966667 0.77800006 1.2719009e-38
-0.12373906 0.12966667 0.77800006 1.3824265e-38
-0.12225715 0.12966667 0.77800006 1.4100852e-38
-0.12108572 0.13 0.78000003 1.4192687e-38
-0.11975334 0.13016666 0.78100002 1.5114643e-38
-0.11826571 0.13016666 0.78100002 1.4839819e-38
-0.11707715 0.1305 0.78300005 1.5392993e-38
-0.11588095 0.13083333 0.78500003 1.5024216e-38
-0.11467715 0.13116667 0.78700006 1.5116412e-38
-0.11346572 0.13150001 0.78900003 1.4840924e-38
-0.11210477 0.13166666 0.79000002 1.5486293e-38
-0.11088001 0.132 0.79200006 1.5669608e-38
-0.10964762 0.13233334 0.79400003 1.5485217e-38
-0.10813525 0.13233334 0.79400003 1.6035884e-38
-0.10689144 0.13266668 0.79600006 1.7142231e-38
-0.10537525 0.13266668 0.79600006 1.8064897e-38
-0.17902859 0.13148573 0.78000003 1.8528047e-38
-0.17754287 0.13148573 0.78000003 1.8343302e-38
-0.17605714 0.13148573 0.78000003 1.649939e-38
-0.17412382 0.13114858 0.77800006 1.6592292e-38
-0.17264192 0.13114858 0.77800006 1.5946922e-38
-0.17116001 0.13114858 0.77800006 1.4748752e-38
-0.16924191 0.13081144 0.77600002 1.2997035e-38
-0.16776381 0.13081144 0.77600002 1.2259457e-38
-0.16585715 0.13047428 0.77400005 1.1337501e-38
-0.16438286 0.13047428 0.77400005 1.1704844e-38
-0.1626981 0.13030572 0.77300006 1.179704e-38
-0.16122574 0.13030572 0.77300006 1.1795611e-38
-0.15934001 0.12996858 0.77100003 1.1334632e-38
-0.15746191 0.12963143 0.76900005 1.1426109e-38
-0.15599716 0.12963143 0.76900005 1.1426109e-38
-0.15493429 0.12996858 0.77100003 1.1334983e-38
-0.15306762 0.12963143 0.76900005 1.1334983e-38
-0.15160286 0.12963143 0.76900005 1.1243523e-38
-0.15052858 0.12996858 0.77100003 1.1151327e-38
-0.14906 0.12996858 0.77100003 1.0966929e-38
-0.14759144 0.12996858 0.77100003 1.0966929e-38
-0.14612286 0.12996858 0.77100003 1.0783251e-38
-0.14427906 0.12963143 0.76900005 1.0783251e-38
-0.14281429 0.12963143 0.76900005 1.0875812e-38
-0.14134952 0.12963143 0.76900005 1.1244595e-38
-0.13988477 0.12963143 0.76900005 1.1427904e-38
-0.13842 0.12963143 0.76900005 1.1243513e-38
-0.13695525 0.12963143 0.76900005 1.1612995e-38
-0.13549049 0.12963143 0.76900005 1.2073973e-38
-0.13402572 0.12963143 0.76900005 1.2166534e-38
-0.13290572 0.12996858 0.77100003 1.3088491e-38
-0.13143714 0.12996858 0.77100003 1.3547654e-38
-0.12996858 0.12996858 0.77100003 1.3732045e-38
-0.1285 0.12996858 0.77100003 1.354803e-38
-0.12736095 0.13030572 0.77300006 1.3640225e-38
-0.12605143 0.13047428 0.77400005 1.3456205e-38
-0.12522095 0.13114858 0.77800006 1.3640597e-38
-0.12373906 0.13114858 0.77800006 1.4101557e-38
-0.12225715 0.13114858 0.77800006 1.4101557e-38
-0.12108572 0.13148573 0.78000003 1.3732795e-38
-0.11975334 0.13165428 0.78100002 1.4378164e-38
-0.11826571 0.13165428 0.78100002 1.4194823e-38
-0.11737619 0.13232857 0.78500003 1.4379214e-38
-0.1161762 0.13266572 0.78700006 1.428774e-38
-0.11467715 0.13266572 0.78700006 1.4840914e-38
-0.11360952 0.13317142 0.79000002 1.4840926e-38
-0.11210477 0.13317142 0.79000002 1.5209709e-38
-0.11088001 0.13350858 0.79200006 1.5392314e-38
-0.10964762 0.13384572 0.79400003 1.5207922e-38
-0.10813525 0.13384572 0.79400003 1.5944378e-38
-0.10689144 0.13418287 0.79600006 1.6497551e-38
-0.17902859 0.13297144 0.78000003 1.6498677e-38
-0.17754287 0.13297144 0.78000003 1.6499756e-38
-0.17605714 0.13297144 0.78000003 1.6499756e-38
-0.17457142 0.13297144 0.78000003 1.6224211e-38
-0.17264192 0.13263048 0.77800006 1.5210059e-38
-0.17116001 0.13263048 0.77800006 1.4932427e-38
-0.16967811 0.13263048 0.77800006 1.4287058e-38
-0.1681962 0.13263048 0.77800006 1.308923e-38
-0.16628572 0.13228953 0.77600002 1.2628252e-38
-0.16438286 0.13194858 0.77400005 1.2811928e-38
-0.16290858 0.13194858 0.77400005 1.2904123e-38
-0.16122574 0.13177809 0.77300006 1.1705223e-38
-0.15934001 0.13143714 0.77100003 1.1059853e-38
-0.15787143 0.13143714 0.77100003 1.1426828e-38
-0.15640286 0.13143714 0.77100003 1.1426828e-38
