# .PCD v0.7 - Point Cloud Data file format
VERSION 0.7
FIELDS x y z rgb
SIZE 4 4 4 4
TYPE F F F F
COUNT 1 1 1 1
WIDTH 960
HEIGHT 1
VIEWPOINT 0 0 0 1 0 0 0
POINTS 960
DATA ascii
-0.038987622 0.00082952384 0.87100005 1.0695322e-38
-0.037242856 0.00082761905 0.86900002 1.1248496e-38
-0.03558762 0.00082761905 0.86900002 1.1063764e-38
-0.03393238 0.00082761905 0.86900002 1.0879373e-38
-0.032202858 0.00082571432 0.86700004 1.0419124e-38
-0.030445714 0.00082285714 0.86400002 1.0511319e-38
-0.028733335 0.00082095241 0.86200005 1.1614064e-38
-0.027091429 0.00082095241 0.86200005 1.1337477e-38
-0.025449526 0.00082095241 0.86200005 1.1243489e-38
-0.023807621 0.00082095241 0.86200005 1.1796663e-38
-0.022165716 0.00082095241 0.86200005 1.2350537e-38
-0.020523811 0.00082095241 0.86200005 1.2442733e-38
-0.018881904 0.00082095241 0.86200005 1.2167228e-38
-0.017240001 0.00082095241 0.86200005 1.2904793e-38
-0.015598095 0.00082095241 0.86200005 1.2812973e-38
-0.013956192 0.00082095241 0.86200005 1.2812973e-38
-0.012285715 0.00081904762 0.86000001 1.2443118e-38
-0.010647619 0.00081904762 0.86000001 1.2443118e-38
-0.0090095233 0.00081904762 0.86000001 1.26275e-38
-0.0073714289 0.00081904762 0.86000001 1.26275e-38
-0.0057333331 0.00081904762 0.86000001 1.2351642e-38
-0.0040952382 0.00081904762 0.86000001 1.2351642e-38
-0.0024571428 0.00081904762 0.86000001 1.1706639e-38
-0.00081904762 0.00081904762 0.86000001 1.1891031e-38
0.00082095241 0.00082095241 0.86200005 1.1706988e-38
0.0024628574 0.00082095241 0.86200005 1.1338206e-38
0.0041047623 0.00082095241 0.86200005 1.1430344e-38
0.0057466668 0.00082095241 0.86200005 1.2628887e-38
0.0074057141 0.00082285714 0.86400002 1.2995549e-38
0.0090828575 0.00082571432 0.86700004 1.3364332e-38
0.010734286 0.00082571432 0.86700004 1.4099749e-38
0.012385715 0.00082571432 0.86700004 1.5206096e-38
0.014069525 0.00082761905 0.86900002 1.5573441e-38
0.015760954 0.00082952384 0.87100005 1.5757832e-38
0.01746 0.00083142857 0.87300003 1.6680517e-38
0.019166669 0.00083333335 0.87500006 1.6496126e-38
0.020904763 0.00083619048 0.87800002 1.6405368e-38
0.022577144 0.00083619048 0.87800002 1.7511716e-38
0.024249524 0.00083619048 0.87800002 1.7603543e-38
0.025980955 0.00083809526 0.88000005 2.1199172e-38
0.027657144 0.00083809526 0.88000005 2.2307693e-38
0.029333334 0.00083809526 0.88000005 2.3137454e-38
-0.051530477 0.0025342857 0.88700002 2.2768693e-38
-0.049728576 0.0025285715 0.88500005 2.1845641e-38
-0.047880001 0.0025200001 0.88200003 1.8987576e-38
-0.0462 0.0025200001 0.88200003 1.8895373e-38
-0.04441905 0.0025142857 0.88000005 1.6959265e-38
-0.042645715 0.0025085714 0.87800002 1.4104425e-38
-0.040739998 0.0024942856 0.87300003 1.1799534e-38
-0.039077144 0.0024942856 0.87300003 1.1618017e-38
-0.037328575 0.0024885715 0.87100005 1.2263386e-38
-0.03558762 0.0024828573 0.86900002 1.1800633e-38
-0.03393238 0.0024828573 0.86900002 1.2261611e-38
-0.032202858 0.002477143 0.86700004 1.2444904e-38
-0.030445714 0.0024685713 0.86400002 1.2168317e-38
-0.028800001 0.0024685713 0.86400002 1.2167954e-38
-0.027154287 0.0024685713 0.86400002 1.1153802e-38
-0.025449526 0.0024628574 0.86200005 1.1244592e-38
-0.023807621 0.0024628574 0.86200005 1.1152396e-38
-0.022165716 0.0024628574 0.86200005 1.1246351e-38
-0.020523811 0.0024628574 0.86200005 1.1154155e-38
-0.018881904 0.0024628574 0.86200005 1.1430392e-38
-0.017240001 0.0024628574 0.86200005 1.2813326e-38
-0.015598095 0.0024628574 0.86200005 1.2628942e-38
-0.013956192 0.0024628574 0.86200005 1.2628942e-38
-0.012314286 0.0024628574 0.86200005 1.2259446e-38
-0.010672381 0.0024628574 0.86200005 1.2351642e-38
-0.0090304762 0.0024628574 0.86200005 1.2443822e-38
-0.0073885717 0.0024628574 0.86200005 1.2628213e-38
-0.0057466668 0.0024628574 0.86200005 1.262751e-38
-0.0041047623 0.0024628574 0.86200005 1.262751e-38
-0.0024628574 0.0024628574 0.86200005 1.2811558e-38
-0.00082095241 0.0024628574 0.86200005 1.2995949e-38
0.00082095241 0.0024628574 0.86200005 1.4379197e-38
0.0024628574 0.0024628574 0.86200005 1.4563588e-38
0.0041047623 0.0024628574 0.86200005 1.4840526e-38
0.0057600001 0.0024685713 0.86400002 1.5301504e-38
0.0074314289 0.002477143 0.86700004 1.5208977e-38
0.0090828575 0.002477143 0.86700004 1.5116782e-38
0.010734286 0.002477143 0.86700004 1.5391914e-38
0.012414285 0.0024828573 0.86900002 1.548411e-38
0.014101906 0.0024885715 0.87100005 1.5482683e-38
0.015760954 0.0024885715 0.87100005 1.5482683e-38
0.01746 0.0024942856 0.87300003 1.6220962e-38
0.019166669 0.0025000002 0.87500006 1.6128766e-38
0.020904763 0.0025085714 0.87800002 1.6129132e-38
0.022628574 0.0025142857 0.88000005 1.7512066e-38
0.024304764 0.0025142857 0.88000005 1.7695373e-38
0.025980955 0.0025142857 0.88000005 2.1383198e-38
0.027657144 0.0025142857 0.88000005 2.249099e-38
0.029333334 0.0025142857 0.88000005 2.3228555e-38
-0.051530477 0.0042238096 0.88700002 2.2676853e-38
-0.049728576 0.0042142859 0.88500005 2.1661972e-38
-0.047880001 0.0042000003 0.88200003 1.917269e-38
-0.0462 0.0042000003 0.88200003 1.8987925e-38
-0.04441905 0.0041904761 0.88000005 1.6959621e-38
-0.042645715 0.0041809524 0.87800002 1.4565772e-38
-0.040833335 0.0041666669 0.87500006 1.2998446e-38
-0.039077144 0.0041571432 0.87300003 1.3091345e-38
-0.037328575 0.0041476195 0.87100005 1.3091345e-38
-0.035669528 0.0041476195 0.87100005 1.1984644e-38
-0.03393238 0.0041380953 0.86900002 1.3275383e-38
-0.032202858 0.0041285716 0.86700004 1.3826423e-38
-0.03055143 0.0041285716 0.86700004 1.3549836e-38
-0.028800001 0.004114286 0.86400002 1.2904827e-38
-0.027154287 0.004114286 0.86400002 1.2443848e-38
-0.025508571 0.004114286 0.86400002 1.1891391e-38
-0.023807621 0.0041047623 0.86200005 1.1246021e-38
-0.022165716 0.0041047623 0.86200005 1.1154521e-38
-0.020523811 0.0041047623 0.86200005 1.0970129e-38
-0.018881904 0.0041047623 0.86200005 1.1155224e-38
-0.017240001 0.0041047623 0.86200005 1.1616202e-38
-0.015598095 0.0041047623 0.86200005 1.1614765e-38
-0.013956192 0.0041047623 0.86200005 1.170696e-38
-0.012314286 0.0041047623 0.86200005 1.1429322e-38
-0.010672381 0.0041047623 0.86200005 1.2443474e-38
-0.0090304762 0.0041047623 0.86200005 1.262785e-38
-0.0073885717 0.0041047623 0.86200005 1.2720046e-38
-0.0057466668 0.0041047623 0.86200005 1.2719345e-38
-0.0041047623 0.0041047623 0.86200005 1.2995932e-38
-0.0024628574 0.0041047623 0.86200005 1.4193047e-38
-0.00082095241 0.0041047623 0.86200005 1.456183e-38
0.00082095241 0.0041047623 0.86200005 1.5023147e-38
0.0024628574 0.0041047623 0.86200005 1.5115343e-38
0.004114286 0.004114286 0.86400002 1.5944387e-38
0.0057600001 0.004114286 0.86400002 1.5759996e-38
0.0074314289 0.0041285716 0.86700004 1.5668882e-38
0.0090828575 0.0041285716 0.86700004 1.4931317e-38
0.010759047 0.0041380953 0.86900002 1.4194126e-38
0.012414285 0.0041380953 0.86900002 1.4009735e-38
0.014101906 0.0041476195 0.87100005 1.4192331e-38
0.015797142 0.0041571432 0.87300003 1.4284527e-38
0.017500002 0.0041666669 0.87500006 1.410158e-38
0.019232381 0.0041809524 0.87800002 1.4378167e-38
0.020952383 0.0041904761 0.88000005 1.5300447e-38
0.022628574 0.0041904761 0.88000005 1.7328751e-38
0.024304764 0.0041904761 0.88000005 1.7971962e-38
0.025980955 0.0041904761 0.88000005 2.1383201e-38
0.027657144 0.0041904761 0.88000005 2.2214053e-38
0.0294 0.0042000003 0.88200003 2.3228205e-38
-0.051530477 0.0059133335 0.88700002 2.2860878e-38
-0.049728576 0.0059000002 0.88500005 2.166197e-38
-0.04804286 0.0059000002 0.88500005 1.9449274e-38
-0.0462 0.0058800001 0.88200003 1.9079758e-38
-0.04441905 0.0058666668 0.88000005 1.7235845e-38
-0.042742856 0.0058666668 0.88000005 1.4841669e-38
-0.040833335 0.0058333338 0.87500006 1.4380691e-38
-0.039077144 0.0058200001 0.87300003 1.3830362e-38
-0.037414286 0.0058200001 0.87300003 1.4014753e-38
-0.035669528 0.0058066668 0.87100005 1.3458356e-38
-0.03393238 0.0057933335 0.86900002 1.3919334e-38
-0.032277141 0.0057933335 0.86900002 1.3641676e-38
-0.03055143 0.0057800002 0.86700004 1.3365089e-38
-0.028900001 0.0057800002 0.86700004 1.2720424e-38
-0.027248573 0.0057800002 0.86700004 1.2720424e-38
-0.025508571 0.0057600001 0.86400002 1.2167262e-38
-0.023862857 0.0057600001 0.86400002 1.2259457e-38
-0.022165716 0.0057466668 0.86200005 1.2444556e-38
-0.020523811 0.0057466668 0.86200005 1.2444556e-38
-0.018881904 0.0057466668 0.86200005 1.2904793e-38
-0.017240001 0.0057466668 0.86200005 1.3273575e-38
-0.015598095 0.0057466668 0.86200005 1.4471012e-38
-0.013956192 0.0057466668 0.86200005 1.4747599e-38
-0.012314286 0.0057466668 0.86200005 1.4930964e-38
-0.010672381 0.0057466668 0.86200005 1.5391942e-38
-0.0090304762 0.0057466668 0.86200005 1.5023866e-38
-0.0073885717 0.0057466668 0.86200005 1.5116062e-38
-0.0057466668 0.0057466668 0.86200005 1.5207199e-38
-0.0041047623 0.0057466668 0.86200005 1.5760373e-38
-0.0024628574 0.0057466668 0.86200005 1.5022797e-38
-0.00082095241 0.0057466668 0.86200005 1.4930601e-38
0.00082095241 0.0057466668 0.86200005 1.4471415e-38
0.0024685713 0.0057600001 0.86400002 1.4102633e-38
0.004114286 0.0057600001 0.86400002 1.2810851e-38
0.0057600001 0.0057600001 0.86400002 1.2165482e-38
0.0074314289 0.0057800002 0.86700004 1.1244919e-38
0.0090828575 0.0057800002 0.86700004 1.0415158e-38
0.010759047 0.0057933335 0.86900002 9.034408e-39
0.012414285 0.0057933335 0.86900002 8.1124517e-39
0.014134286 0.0058200001 0.87300003 8.4805308e-39
0.015833335 0.0058333338 0.87500006 8.664922e-39
0.01756 0.005853333 0.87800002 8.7574932e-39
0.019276192 0.0058666668 0.88000005 8.2043194e-39
0.020952383 0.0058666668 0.88000005 9.5840323e-39
0.022628574 0.0058666668 0.88000005 1.6867487e-38
0.024304764 0.0058666668 0.88000005 1.7695741e-38
0.025980955 0.0058666668 0.88000005 2.1291371e-38
0.027657144 0.0058666668 0.88000005 2.2030028e-38
0.0294 0.0058800001 0.88200003 2.3320766e-38
0.031080002 0.0058800001 0.88200003 2.2861594e-38
0.032760002 0.0058800001 0.88200003 2.2861594e-38
-0.051530477 0.0076028574 0.88700002 2.2583938e-38
-0.049728576 0.0075857146 0.88500005 2.1476502e-38
-0.04804286 0.0075857146 0.88500005 1.9632589e-38
-0.0462 0.0075600003 0.88200003 1.8896455e-38
-0.04441905 0.0075428574 0.88000005 1.6868151e-38
-0.042742856 0.0075428574 0.88000005 1.5855438e-38
-0.040833335 0.0075000003 0.87500006 1.45647e-38
-0.03916667 0.0075000003 0.87500006 1.3921113e-38
-0.037414286 0.0074828574 0.87300003 1.4013308e-38
-0.035751428 0.0074828574 0.87300003 1.3090642e-38
-0.034010477 0.0074657151 0.87100005 1.3182837e-38
-0.032277141 0.0074485713 0.86900002 1.3365796e-38
-0.030621905 0.0074485713 0.86900002 1.3181405e-38
-0.028900001 0.0074314289 0.86700004 1.2444541e-38
-0.027248573 0.0074314289 0.86700004 1.2444541e-38
-0.025597144 0.0074314289 0.86700004 1.2166875e-38
-0.023862857 0.0074057141 0.86400002 1.2535657e-38
-0.022217143 0.0074057141 0.86400002 1.3826046e-38
-0.020523811 0.0073885717 0.86200005 1.3365068e-38
-0.018881904 0.0073885717 0.86200005 1.3731682e-38
-0.017240001 0.0073885717 0.86200005 1.4561443e-38
-0.015598095 0.0073885717 0.86200005 1.5481967e-38
-0.013956192 0.0073885717 0.86200005 1.5481967e-38
-0.012314286 0.0073885717 0.86200005 1.5574175e-38
-0.010672381 0.0073885717 0.86200005 1.5574175e-38
-0.0090304762 0.0073885717 0.86200005 1.557416e-38
-0.0073885717 0.0073885717 0.86200005 1.557416e-38
-0.0057466668 0.0073885717 0.86200005 1.5481964e-38
-0.0041047623 0.0073885717 0.86200005 1.5481964e-38
-0.0024685713 0.0074057141 0.86400002 1.4929872e-38
-0.00082285714 0.0074057141 0.86400002 1.4653286e-38
0.00082285714 0.0074057141 0.86400002 1.3919308e-38
0.0024685713 0.0074057141 0.86400002 1.3089547e-38
0.0041285716 0.0074314289 0.86700004 1.1984294e-38
0.0057800002 0.0074314289 0.86700004 1.0232577e-38
0.0074314289 0.0074314289 0.86700004 9.7726751e-39
0.0091038095 0.0074485713 0.86900002 7.6521756e-39
0.010759047 0.0074485713 0.86900002 6.3660835e-39
0.012442858 0.0074657151 0.87100005 6.3660835e-39
0.014134286 0.0074828574 0.87300003 6.181398e-39
0.015833335 0.0075000003 0.87500006 6.2735936e-39
0.01756 0.0075257146 0.87800002 6.4580101e-39
0.019276192 0.0075428574 0.88000005 5.3516625e-39
0.020952383 0.0075428574 0.88000005 9.0322206e-39
0.022680001 0.0075600003 0.88200003 1.6868849e-38
0.024360001 0.0075600003 0.88200003 1.7327675e-38
0.025980955 0.0075428574 0.88000005 2.1292087e-38
0.027657144 0.0075428574 0.88000005 2.1754165e-38
0.0294 0.0075600003 0.88200003 2.2860513e-38
0.031080002 0.0075600003 0.88200003 2.2676484e-38
-0.051530477 0.0092923809 0.88700002 2.2307717e-38
-0.049728576 0.0092714289 0.88500005 2.1569777e-38
-0.04804286 0.0092714289 0.88500005 1.9541473e-38
-0.0462 0.0092400005 0.88200003 1.8988296e-38
-0.04441905 0.0092190476 0.88000005 1.6683405e-38
-0.042742856 0.0092190476 0.88000005 1.5394465e-38
-0.040973332 0.0091980947 0.87800002 1.4380313e-38
-0.03916667 0.0091666672 0.87500006 1.392039e-38
-0.037414286 0.0091457143 0.87300003 1.3828194e-38
-0.035751428 0.0091457143 0.87300003 1.3826409e-38
-0.034010477 0.0091247624 0.87100005 1.3826409e-38
-0.032351431 0.0091247624 0.87100005 1.4102291e-38
-0.030621905 0.0091038095 0.86900002 1.4839856e-38
-0.028900001 0.0090828575 0.86700004 1.5761425e-38
-0.027248573 0.0090828575 0.86700004 1.5853621e-38
-0.025597144 0.0090828575 0.86700004 1.5208977e-38
-0.023945715 0.0090828575 0.86700004 1.5116782e-38
-0.022217143 0.0090514291 0.86400002 1.5208624e-38
-0.020571429 0.0090514291 0.86400002 1.5116429e-38
-0.018881904 0.0090304762 0.86200005 1.5667084e-38
-0.017240001 0.0090304762 0.86200005 1.5943671e-38
-0.015598095 0.0090304762 0.86200005 1.5573108e-38
-0.013988572 0.0090514291 0.86400002 1.5388716e-38
-0.012342857 0.0090514291 0.86400002 1.5572371e-38
-0.010697143 0.0090514291 0.86400002 1.5295784e-38
-0.0090304762 0.0090304762 0.86200005 1.538868e-38
-0.0073885717 0.0090304762 0.86200005 1.5573071e-38
-0.0057600001 0.0090514291 0.86400002 1.5297891e-38
-0.004114286 0.0090514291 0.86400002 1.4468131e-38
-0.0024685713 0.0090514291 0.86400002 1.3453645e-38
-0.00082285714 0.0090514291 0.86400002 1.3084863e-38
0.00082571432 0.0090828575 0.86700004 1.1892411e-38
0.002477143 0.0090828575 0.86700004 1.0786063e-38
0.0041285716 0.0090828575 0.86700004 9.2216495e-39
0.0057800002 0.0090828575 0.86700004 7.10115e-39
0.0074485713 0.0091038095 0.86900002 6.9181979e-39
0.0091038095 0.0091038095 0.86900002 6.5494154e-39
0.01078381 0.0091247624 0.87100005 5.3548028e-39
0.012442858 0.0091247624 0.87100005 5.4469985e-39
0.014166667 0.0091666672 0.87500006 6.0902841e-39
0.015833335 0.0091666672 0.87500006 6.2746754e-39
0.01756 0.0091980947 0.87800002 5.8148113e-39
0.019276192 0.0092190476 0.88000005 4.5240725e-39
0.020952383 0.0092190476 0.88000005 9.1255527e-39
0.022680001 0.0092400005 0.88200003 1.6316812e-38
0.024360001 0.0092400005 0.88200003 1.7328028e-38
0.026040001 0.0092400005 0.88200003 2.1569027e-38
0.027720001 0.0092400005 0.88200003 2.1661972e-38
0.0294 0.0092400005 0.88200003 2.276832e-38
0.031080002 0.0092400005 0.88200003 2.276832e-38
-0.051530477 0.010981904 0.88700002 2.2399913e-38
-0.049840953 0.010981904 0.88700002 2.1754165e-38
-0.04804286 0.010957144 0.88500005 1.9264883e-38
-0.0462 0.01092 0.88200003 1.8988296e-38
-0.044520002 0.01092 0.88200003 1.6775601e-38
-0.042742856 0.010895238 0.88000005 1.5393722e-38
-0.040973332 0.010870476 0.87800002 1.4563961e-38
-0.03916667 0.010833334 0.87500006 1.4195176e-38
-0.037414286 0.010808571 0.87300003 1.4563958e-38
-0.035751428 0.010808571 0.87300003 1.4931317e-38
-0.034010477 0.01078381 0.87100005 1.4839122e-38
-0.032351431 0.01078381 0.87100005 1.5390132e-38
-0.030692382 0.01078381 0.87100005 1.6404284e-38
-0.028966667 0.010759047 0.86900002 1.6957823e-38
-0.027311428 0.010759047 0.86900002 1.6312454e-38
-0.025656192 0.010759047 0.86900002 1.5852571e-38
-0.023945715 0.010734286 0.86700004 1.566818e-38
-0.022294287 0.010734286 0.86700004 1.6128428e-38
-0.020571429 0.010697143 0.86400002 1.5575254e-38
-0.018925713 0.010697143 0.86400002 1.5757859e-38
-0.017280001 0.010697143 0.86400002 1.5573468e-38
-0.015634285 0.010697143 0.86400002 1.4558942e-38
-0.013988572 0.010697143 0.86400002 1.4558942e-38
-0.012342857 0.010697143 0.86400002 1.4834064e-38
-0.010697143 0.010697143 0.86400002 1.428089e-38
-0.0090514291 0.010697143 0.86400002 1.4097566e-38
-0.0074057141 0.010697143 0.86400002 1.54805e-38
-0.0057600001 0.010697143 0.86400002 1.5114586e-38
-0.0041285716 0.010734286 0.86700004 1.4100434e-38
-0.002477143 0.010734286 0.86700004 1.2994815e-38
-0.00082571432 0.010734286 0.86700004 1.2441641e-38
0.00082571432 0.010734286 0.86700004 1.1616184e-38
0.0024828573 0.010759047 0.86900002 1.0602032e-38
0.0041380953 0.010759047 0.86900002 8.8542809e-39
0.0057933335 0.010759047 0.86900002 6.6415858e-39
0.0074485713 0.010759047 0.86900002 6.6423145e-39
0.0091038095 0.010759047 0.86900002 6.4579232e-39
0.01078381 0.01078381 0.87100005 5.1704116e-39
0.012442858 0.01078381 0.87100005 5.5391941e-39
0.014166667 0.010833334 0.87500006 5.7225554e-39
0.01588762 0.010870476 0.87800002 6.2757292e-39
0.01756 0.010870476 0.87800002 6.0921114e-39
0.019276192 0.010895238 0.88000005 5.446742e-39
0.021000002 0.01092 0.88200003 9.2177483e-39
0.022680001 0.01092 0.88200003 1.6040225e-38
0.024360001 0.01092 0.88200003 1.7327675e-38
0.026040001 0.01092 0.88200003 2.1292087e-38
0.027720001 0.01092 0.88200003 2.1569421e-38
0.029500002 0.010957144 0.88500005 2.2675768e-38
0.031185716 0.010957144 0.88500005 2.2768317e-38
-0.051530477 0.012671429 0.88700002 2.2861244e-38
-0.049840953 0.012671429 0.88700002 2.1938908e-38
-0.04804286 0.012642858 0.88500005 1.8896452e-38
-0.046357144 0.012642858 0.88500005 1.8988662e-38
-0.044520002 0.0126 0.88200003 1.7790119e-38
-0.04284 0.0126 0.88200003 1.5670684e-38
-0.040973332 0.012542857 0.87800002 1.576288e-38
-0.03916667 0.012500001 0.87500006 1.6777022e-38
-0.037500001 0.012500001 0.87500006 1.6961413e-38
-0.035833336 0.012500001 0.87500006 1.7235855e-38
-0.034088571 0.012471429 0.87300003 1.7143659e-38
-0.032425717 0.012471429 0.87300003 1.7142933e-38
-0.030692382 0.012442858 0.87100005 1.741952e-38
-0.028966667 0.012414285 0.86900002 1.704964e-38
-0.027311428 0.012414285 0.86900002 1.5851097e-38
-0.025656192 0.012414285 0.86900002 1.5479843e-38
-0.023945715 0.012385715 0.86700004 1.4650082e-38
-0.022294287 0.012385715 0.86700004 1.3358243e-38
-0.020571429 0.012342857 0.86400002 1.2712874e-38
-0.018925713 0.012342857 0.86400002 1.307914e-38
-0.017280001 0.012342857 0.86400002 1.2894748e-38
-0.015634285 0.012342857 0.86400002 1.3170612e-38
-0.013988572 0.012342857 0.86400002 1.4461351e-38
-0.012342857 0.012342857 0.86400002 1.4371609e-38
-0.010697143 0.012342857 0.86400002 1.4371609e-38
-0.0090514291 0.012342857 0.86400002 1.4096847e-38
-0.0074057141 0.012342857 0.86400002 1.5387586e-38
-0.0057800002 0.012385715 0.86700004 1.4745791e-38
-0.0041285716 0.012385715 0.86700004 1.4008226e-38
-0.002477143 0.012385715 0.86700004 1.2811155e-38
-0.00082761905 0.012414285 0.86900002 1.1981395e-38
0.00082761905 0.012414285 0.86900002 1.1799512e-38
0.0024828573 0.012414285 0.86900002 1.2076099e-38
0.0041380953 0.012414285 0.86900002 1.0234732e-38
0.0057933335 0.012414285 0.86900002 1.0234732e-38
0.0074485713 0.012414285 0.86900002 1.0602085e-38
0.0091247624 0.012442858 0.87100005 1.0694281e-38
0.01078381 0.012442858 0.87100005 1.1615512e-38
0.012471429 0.012471429 0.87300003 1.1799903e-38
0.014166667 0.012500001 0.87500006 1.1247829e-38
0.01588762 0.012542857 0.87800002 1.1155633e-38
0.01756 0.012542857 0.87800002 9.2202945e-39
0.019276192 0.012571429 0.88000005 8.4827294e-39
0.021000002 0.0126 0.88200003 9.6776923e-39
0.022680001 0.0126 0.88200003 1.5670408e-38
0.024360001 0.0126 0.88200003 1.7235126e-38
0.026040001 0.0126 0.88200003 2.0830756e-38
0.027814288 0.012642858 0.88500005 2.1752736e-38
0.029566666 0.012671429 0.88700002 2.2766888e-38
-0.051530477 0.014360953 0.88700002 2.2769049e-38
-0.049840953 0.014360953 0.88700002 2.1939268e-38
-0.04804286 0.014328572 0.88500005 1.9265595e-38
-0.046357144 0.014328572 0.88500005 1.9081937e-38
-0.044671431 0.014328572 0.88500005 1.7883393e-38
-0.04284 0.014280001 0.88200003 1.7235489e-38
-0.040973332 0.014215238 0.87800002 1.7696467e-38
-0.03916667 0.014166667 0.87500006 1.8065253e-38
-0.037500001 0.014166667 0.87500006 1.8065253e-38
-0.035833336 0.014166667 0.87500006 1.7788314e-38
-0.034088571 0.014134286 0.87300003 1.7327336e-38
-0.032425717 0.014134286 0.87300003 1.723441e-38
-0.030692382 0.014101906 0.87100005 1.6957823e-38
-0.028966667 0.014069525 0.86900002 1.6587609e-38
-0.027311428 0.014069525 0.86900002 1.5665652e-38
-0.025656192 0.014069525 0.86900002 1.4833034e-38
-0.024000952 0.014069525 0.86900002 1.4740839e-38
-0.022345716 0.014069525 0.86900002 1.3540792e-38
-0.020642858 0.014037143 0.86700004 1.2434444e-38
-0.018991429 0.014037143 0.86700004 1.2891123e-38
-0.017340001 0.014037143 0.86700004 1.381308e-38
-0.015688572 0.014037143 0.86700004 1.3630476e-38
-0.014037143 0.014037143 0.86700004 1.4921215e-38
-0.012385715 0.014037143 0.86700004 1.4555279e-38
-0.010734286 0.014037143 0.86700004 1.4647474e-38
-0.0090828575 0.014037143 0.86700004 1.4373048e-38
-0.0074314289 0.014037143 0.86700004 1.5755983e-38
-0.0057800002 0.014037143 0.86700004 1.465327e-38
-0.0041380953 0.014069525 0.86900002 1.3731314e-38
-0.0024828573 0.014069525 0.86900002 1.3272494e-38
-0.00082761905 0.014069525 0.86900002 1.2903711e-38
0.00082761905 0.014069525 0.86900002 1.2904064e-38
0.0024828573 0.014069525 0.86900002 1.2811869e-38
0.0041380953 0.014069525 0.86900002 1.2628203e-38
0.0057933335 0.014069525 0.86900002 1.2720399e-38
0.0074657151 0.014101906 0.87100005 1.2903736e-38
0.0091247624 0.014101906 0.87100005 1.3641301e-38
0.01078381 0.014101906 0.87100005 1.4009012e-38
0.012471429 0.014134286 0.87300003 1.446999e-38
0.014166667 0.014166667 0.87500006 1.4194472e-38
0.01588762 0.014215238 0.87800002 1.3917886e-38
0.01756 0.014215238 0.87800002 1.1155305e-38
0.019276192 0.01424762 0.88000005 1.0602132e-38
0.021000002 0.014280001 0.88200003 1.2535681e-38
0.022680001 0.014280001 0.88200003 1.6039115e-38
0.024360001 0.014280001 0.88200003 1.7051098e-38
0.026040001 0.014280001 0.88200003 2.101551e-38
0.027720001 0.014280001 0.88200003 2.1569421e-38
-0.051530477 0.016050477 0.88700002 2.3137465e-38
-0.049840953 0.016050477 0.88700002 2.2399163e-38
-0.04804286 0.016014285 0.88500005 1.9817686e-38
-0.046357144 0.016014285 0.88500005 1.917269e-38
-0.044671431 0.016014285 0.88500005 1.917269e-38
-0.04284 0.01596 0.88200003 1.8803202e-38
-0.040973332 0.01588762 0.87800002 1.8711006e-38
-0.039300956 0.01588762 0.87800002 1.8434383e-38
-0.037500001 0.015833335 0.87500006 1.80656e-38
-0.035833336 0.015833335 0.87500006 1.7971626e-38
-0.034088571 0.015797142 0.87300003 1.7141866e-38
-0.032425717 0.015797142 0.87300003 1.584716e-38
-0.030762859 0.015797142 0.87300003 1.3265682e-38
-0.029033335 0.015760954 0.87100005 1.1877023e-38
-0.027374288 0.015760954 0.87100005 1.1692632e-38
-0.025715239 0.015760954 0.87100005 1.2428368e-38
-0.024000952 0.015724761 0.86900002 1.2520564e-38
-0.022345716 0.015724761 0.86900002 1.3076162e-38
-0.020690477 0.015724761 0.86900002 1.3444944e-38
-0.018991429 0.015688572 0.86700004 1.3260298e-38
-0.017340001 0.015688572 0.86700004 1.4735428e-38
-0.015688572 0.015688572 0.86700004 1.4277653e-38
-0.014037143 0.015688572 0.86700004 1.5291805e-38
-0.012385715 0.015688572 0.86700004 1.4834402e-38
-0.010734286 0.015688572 0.86700004 1.529538e-38
-0.0090828575 0.015688572 0.86700004 1.5387923e-38
-0.0074314289 0.015688572 0.86700004 1.5941097e-38
-0.0057933335 0.015724761 0.86900002 1.53905e-38
-0.0041380953 0.015724761 0.86900002 1.5113913e-38
-0.0024828573 0.015724761 0.86900002 1.4931668e-38
-0.00082761905 0.015724761 0.86900002 1.5116059e-38
0.00082761905 0.015724761 0.86900002 1.5024583e-38
0.0024828573 0.015724761 0.86900002 1.5208975e-38
0.0041380953 0.015724761 0.86900002 1.4932403e-38
0.0058066668 0.015760954 0.87100005 1.5116794e-38
0.0074657151 0.015760954 0.87100005 1.5484138e-38
0.0091247624 0.015760954 0.87100005 1.5760725e-38
0.010808571 0.015797142 0.87300003 1.5943682e-38
0.012500001 0.015833335 0.87500006 1.6404661e-38
0.014166667 0.015833335 0.87500006 1.6129485e-38
0.01588762 0.01588762 0.87800002 1.686705e-38
0.01756 0.01588762 0.87800002 1.4010852e-38
0.019276192 0.015923811 0.88000005 1.3088896e-38
0.020952383 0.015923811 0.88000005 1.2813326e-38
0.022680001 0.01596 0.88200003 1.6040173e-38
0.024360001 0.01596 0.88200003 1.7142945e-38
0.026040001 0.01596 0.88200003 2.1383943e-38
0.027720001 0.01596 0.88200003 2.1661249e-38
-0.049728576 0.017700002 0.88500005 2.2491003e-38
-0.04804286 0.017700002 0.88500005 2.0001721e-38
-0.046357144 0.017700002 0.88500005 1.9539312e-38
-0.044671431 0.017700002 0.88500005 1.9631508e-38
-0.04284 0.01764 0.88200003 1.898686e-38
-0.040973332 0.01756 0.87800002 1.8894664e-38
-0.039300956 0.01756 0.87800002 1.8434395e-38
-0.037500001 0.017500002 0.87500006 1.7604635e-38
-0.035833336 0.017500002 0.87500006 1.8246764e-38
-0.034166671 0.017500002 0.87500006 1.53887e-38
-0.032425717 0.01746 0.87300003 1.5381837e-38
-0.030762859 0.01746 0.87300003 1.2431577e-38
-0.029033335 0.017419999 0.87100005 1.288679e-38
-0.027374288 0.017419999 0.87100005 1.3163377e-38
-0.025715239 0.017419999 0.87100005 1.2703485e-38
-0.024056191 0.017419999 0.87100005 1.3348855e-38
-0.022345716 0.017380001 0.86900002 1.3627602e-38
-0.020690477 0.017380001 0.86900002 1.4365167e-38
-0.019035237 0.017380001 0.86900002 1.4552458e-38
-0.017340001 0.017340001 0.86700004 1.4644654e-38
-0.015688572 0.017340001 0.86700004 1.4185805e-38
-0.014037143 0.017340001 0.86700004 1.5384349e-38
-0.012385715 0.017340001 0.86700004 1.483478e-38
-0.010734286 0.017340001 0.86700004 1.5572345e-38
-0.0090828575 0.017340001 0.86700004 1.5757463e-38
-0.0074314289 0.017340001 0.86700004 1.5849658e-38
-0.0057933335 0.017380001 0.86900002 1.5666005e-38
-0.0041380953 0.017380001 0.86900002 1.5481614e-38
-0.0024828573 0.017380001 0.86900002 1.5852192e-38
-0.00082761905 0.017380001 0.86900002 1.5391214e-38
0.00082761905 0.017380001 0.86900002 1.5116782e-38
0.0024828573 0.017380001 0.86900002 1.5301173e-38
0.0041380953 0.017380001 0.86900002 1.5298299e-38
0.0057933335 0.017380001 0.86900002 1.5759277e-38
0.0074657151 0.017419999 0.87100005 1.5851473e-38
0.0091247624 0.017419999 0.87100005 1.5943668e-38
0.010808571 0.01746 0.87300003 1.6127344e-38
0.012500001 0.017500002 0.87500006 1.6496126e-38
0.014166667 0.017500002 0.87500006 1.640431e-38
0.01588762 0.01756 0.87800002 1.557455e-38
0.01756 0.01756 0.87800002 1.3826095e-38
0.019276192 0.017600002 0.88000005 1.2258769e-38
0.020952383 0.017600002 0.88000005 1.1799184e-38
0.022680001 0.01764 0.88200003 1.6408965e-38
0.024360001 0.01764 0.88200003 1.7235492e-38
0.026040001 0.01764 0.88200003 2.1107708e-38
0.027720001 0.01764 0.88200003 2.1661249e-38
-0.049840953 0.019429525 0.88700002 2.239881e-38
-0.04815143 0.019429525 0.88700002 2.0093919e-38
-0.046461903 0.019429525 0.88700002 1.9355652e-38
-0.044772383 0.019429525 0.88700002 1.9355652e-38
-0.042985715 0.019385716 0.88500005 1.8894661e-38
-0.041160002 0.019320002 0.88200003 1.8618075e-38
-0.039300956 0.019232381 0.87800002 1.8710259e-38
-0.037628572 0.019232381 0.87800002 1.7603911e-38
-0.035956193 0.019232381 0.87800002 1.6863447e-38
-0.034166671 0.019166669 0.87500006 1.0962927e-38
-0.032500003 0.019166669 0.87500006 1.2797854e-38
-0.030762859 0.019122858 0.87300003 1.3166637e-38
-0.029033335 0.019079048 0.87100005 1.3998187e-38
-0.027374288 0.019079048 0.87100005 1.4182578e-38
-0.025774287 0.019122858 0.87300003 1.3539385e-38
-0.024056191 0.019079048 0.87100005 1.4184754e-38
-0.022397144 0.019079048 0.87100005 1.3540851e-38
-0.020738097 0.019079048 0.87100005 1.630672e-38
-0.019035237 0.019035237 0.86900002 1.6032291e-38
-0.017380001 0.019035237 0.86900002 1.6216682e-38
-0.015724761 0.019035237 0.86900002 1.5849661e-38
-0.014069525 0.019035237 0.86900002 1.5849661e-38
-0.012414285 0.019035237 0.86900002 1.5758201e-38
-0.010759047 0.019035237 0.86900002 1.640357e-38
-0.0091038095 0.019035237 0.86900002 1.6311741e-38
-0.0074485713 0.019035237 0.86900002 1.6311741e-38
-0.0057933335 0.019035237 0.86900002 1.5574889e-38
-0.0041380953 0.019035237 0.86900002 1.5206106e-38
-0.0024828573 0.019035237 0.86900002 1.4930951e-38
-0.00082761905 0.019035237 0.86900002 1.4838756e-38
0.00082761905 0.019035237 0.86900002 1.5667788e-38
0.0024828573 0.019035237 0.86900002 1.5944375e-38
0.0041380953 0.019035237 0.86900002 1.5759981e-38
0.0057933335 0.019035237 0.86900002 1.5759981e-38
0.0074657151 0.019079048 0.87100005 1.5667788e-38
0.0091247624 0.019079048 0.87100005 1.5667788e-38
0.010808571 0.019122858 0.87300003 1.5206081e-38
0.012500001 0.019166669 0.87500006 1.4284125e-38
0.014215238 0.019232381 0.87800002 1.0778292e-38
0.01588762 0.019232381 0.87800002 7.8280316e-39
0.017600002 0.019276192 0.88000005 7.6507603e-39
0.019276192 0.019276192 0.88000005 7.6507603e-39
0.020952383 0.019276192 0.88000005 1.1981777e-38
0.022757143 0.019385716 0.88500005 1.7236928e-38
0.024442857 0.019385716 0.88500005 1.7235845e-38
0.026128573 0.019385716 0.88500005 2.092367e-38
-0.049953338 0.021166669 0.88900006 2.2398814e-38
-0.048260003 0.021166669 0.88900006 2.0093924e-38
-0.046461903 0.021119049 0.88700002 1.9908449e-38
-0.044772383 0.021119049 0.88700002 1.9908449e-38
-0.042985715 0.02107143 0.88500005 1.9079416e-38
-0.041160002 0.021000002 0.88200003 1.8802829e-38
-0.039480001 0.021000002 0.88200003 1.8710253e-38
-0.037714288 0.020952383 0.88000005 1.7142928e-38
-0.035956193 0.020904763 0.87800002 1.6491415e-38
-0.034166671 0.020833336 0.87500006 1.215822e-38
-0.032500003 0.020833336 0.87500006 1.2793873e-38
-0.030762859 0.020785715 0.87300003 1.5098764e-38
-0.029033335 0.020738097 0.87100005 1.4090797e-38
-0.027374288 0.020738097 0.87100005 1.298445e-38
-0.025774287 0.020785715 0.87300003 1.1792662e-38
-0.024056191 0.020738097 0.87100005 1.1884858e-38
-0.022397144 0.020738097 0.87100005 1.1886345e-38
-0.020738097 0.020738097 0.87100005 1.5020996e-38
-0.019079048 0.020738097 0.87100005 1.5115376e-38
-0.017380001 0.020690477 0.86900002 1.5207572e-38
-0.015724761 0.020690477 0.86900002 1.5758914e-38
-0.014069525 0.020690477 0.86900002 1.5758914e-38
-0.012414285 0.020690477 0.86900002 1.5759283e-38
-0.010759047 0.020690477 0.86900002 1.5667087e-38
-0.0091038095 0.020690477 0.86900002 1.5573834e-38
-0.0074485713 0.020690477 0.86900002 1.585042e-38
-0.0057933335 0.020690477 0.86900002 1.5575634e-38
-0.0041380953 0.020690477 0.86900002 1.41927e-38
-0.0024828573 0.020690477 0.86900002 1.3271067e-38
-0.00082761905 0.020690477 0.86900002 1.4285219e-38
0.00082761905 0.020690477 0.86900002 1.548234e-38
0.0024828573 0.020690477 0.86900002 1.5851122e-38
0.0041380953 0.020690477 0.86900002 1.5667447e-38
0.0057933335 0.020690477 0.86900002 1.4745491e-38
0.0074657151 0.020738097 0.87100005 1.446781e-38
0.0091457143 0.020785715 0.87300003 1.4652201e-38
0.010808571 0.020785715 0.87300003 1.3270009e-38
0.012500001 0.020833336 0.87500006 1.1887075e-38
0.014215238 0.020904763 0.87800002 8.5727292e-39
0.01588762 0.020904763 0.87800002 6.7288166e-39
0.017600002 0.020952383 0.88000005 7.1894444e-39
0.019276192 0.020952383 0.88000005 8.295792e-39
0.021000002 0.021000002 0.88200003 1.2532423e-38
0.022808572 0.021119049 0.88700002 1.7603183e-38
0.024498096 0.021119049 0.88700002 1.714293e-38
0.026305715 0.021214288 0.89100003 2.1015147e-38
-0.049953338 0.022860002 0.88900006 2.2215146e-38
-0.048260003 0.022860002 0.88900006 2.0002451e-38
-0.046461903 0.022808572 0.88700002 1.9816614e-38
-0.044772383 0.022808572 0.88700002 1.9816614e-38
-0.042985715 0.022757143 0.88500005 1.9079416e-38
-0.041300002 0.022757143 0.88500005 1.8895024e-38
-0.039480001 0.022680001 0.88200003 1.8710246e-38
-0.037800003 0.022680001 0.88200003 1.6589747e-38
-0.036038097 0.022628574 0.88000005 1.5938977e-38
-0.034283809 0.022577144 0.87800002 1.2435543e-38
-0.032500003 0.022500001 0.87500006 1.4366671e-38
-0.030762859 0.022448571 0.87300003 1.8884257e-38
-0.029033335 0.022397144 0.87100005 1.5389442e-38
-0.027374288 0.022397144 0.87100005 4.9713361e-39
-0.025774287 0.022448571 0.87300003 1.0413643e-38
-0.024056191 0.022397144 0.87100005 1.1335585e-38
-0.022397144 0.022397144 0.87100005 1.216289e-38
-0.020738097 0.022397144 0.87100005 1.3269237e-38
-0.019079048 0.022397144 0.87100005 1.4008276e-38
-0.017380001 0.022345716 0.86900002 1.3823885e-38
-0.015724761 0.022345716 0.86900002 1.5483374e-38
-0.014069525 0.022345716 0.86900002 1.5944352e-38
-0.012414285 0.022345716 0.86900002 1.5391917e-38
-0.010759047 0.022345716 0.86900002 1.3455809e-38
-0.0091038095 0.022345716 0.86900002 1.3179271e-38
-0.0074485713 0.022345716 0.86900002 1.3363662e-38
-0.0057933335 0.022345716 0.86900002 1.3455132e-38
-0.0041380953 0.022345716 0.86900002 1.0689263e-38
-0.0024828573 0.022345716 0.86900002 8.753131e-39
-0.00082761905 0.022345716 0.86900002 8.753131e-39
0.00082761905 0.022345716 0.86900002 9.951698e-39
0.0024828573 0.022345716 0.86900002 1.0873654e-38
0.0041380953 0.022345716 0.86900002 9.9516812e-39
0.0057933335 0.022345716 0.86900002 8.8453336e-39
0.0074485713 0.022345716 0.86900002 9.3069774e-39
0.0091457143 0.022448571 0.87300003 1.0321129e-38
0.010833334 0.022500001 0.87500006 9.5843546e-39
0.012542857 0.022577144 0.87800002 6.4497032e-39
0.014215238 0.022577144 0.87800002 7.5592779e-39
0.015923811 0.022628574 0.88000005 7.9280605e-39
0.017600002 0.022628574 0.88000005 8.3869479e-39
0.019320002 0.022680001 0.88200003 1.0691839e-38
0.02107143 0.022757143 0.88500005 1.2441667e-38
0.022860002 0.022860002 0.88900006 1.7328035e-38
0.024608571 0.022911429 0.89100003 1.7327687e-38
0.026305715 0.022911429 0.89100003 2.0831121e-38
0.028002858 0.022911429 0.89100003 2.129355e-38
-0.049840953 0.024498096 0.88700002 2.212295e-38
-0.04815143 0.024498096 0.88700002 2.0186842e-38
-0.046461903 0.024498096 0.88700002 2.0277948e-38
-0.044772383 0.024498096 0.88700002 1.9724774e-38
-0.043082856 0.024498096 0.88700002 1.8895376e-38
-0.041300002 0.024442857 0.88500005 1.8895376e-38
-0.039614286 0.024442857 0.88500005 1.8802089e-38
-0.037800003 0.024360001 0.88200003 1.7142568e-38
-0.036120001 0.024360001 0.88200003 1.5664213e-38
-0.034283809 0.024249524 0.87800002 1.4373474e-38
-0.032500003 0.024166668 0.87500006 1.5201804e-38
-0.030833337 0.024166668 0.87500006 1.7783282e-38
-0.029100001 0.024111429 0.87300003 1.4929909e-38
-0.027437143 0.024111429 0.87300003 5.8025415e-39
-0.025833335 0.024166668 0.87500006 1.1332362e-38
-0.024111429 0.024111429 0.87300003 1.4743601e-38
-0.022448571 0.024111429 0.87300003 1.3456211e-38
-0.020785715 0.024111429 0.87300003 1.1981081e-38
-0.019079048 0.024056191 0.87100005 1.1795961e-38
-0.017419999 0.024056191 0.87100005 1.1888157e-38
-0.015724761 0.024000952 0.86900002 1.2348032e-38
-0.014069525 0.024000952 0.86900002 1.3915358e-38
-0.012414285 0.024000952 0.86900002 1.2996306e-38
-0.010759047 0.024000952 0.86900002 1.2535328e-38
-0.0091038095 0.024000952 0.86900002 1.0234403e-38
-0.0074485713 0.024000952 0.86900002 1.0695381e-38
-0.0057933335 0.024000952 0.86900002 1.1982154e-38
-0.0041380953 0.024000952 0.86900002 9.4928722e-39
-0.0024828573 0.024000952 0.86900002 6.6340384e-39
-0.00082761905 0.024000952 0.86900002 8.2013641e-39
0.00082761905 0.024000952 0.86900002 7.2841358e-39
0.0024828573 0.024000952 0.86900002 6.8231576e-39
0.0041380953 0.024000952 0.86900002 6.9099316e-39
0.0057933335 0.024000952 0.86900002 8.6616486e-39
0.0074485713 0.024000952 0.86900002 7.926945e-39
0.0091247624 0.024056191 0.87100005 9.2176838e-39
0.010808571 0.024111429 0.87300003 8.7581939e-39
0.012500001 0.024166668 0.87500006 6.1767162e-39
0.01424762 0.024304764 0.88000005 8.1124377e-39
0.015923811 0.024304764 0.88000005 9.5875678e-39
0.017600002 0.024304764 0.88000005 1.0322298e-38
0.019320002 0.024360001 0.88200003 1.1152059e-38
0.02107143 0.024442857 0.88500005 1.2901922e-38
0.022860002 0.024553334 0.88900006 1.7419508e-38
0.024608571 0.024608571 0.89100003 1.7604274e-38
0.026305715 0.024608571 0.89100003 2.0923317e-38
0.028002858 0.024608571 0.89100003 2.1109515e-38
-0.049840953 0.026187621 0.88700002 2.2399181e-38
-0.04815143 0.026187621 0.88700002 2.0463073e-38
-0.046461903 0.026187621 0.88700002 1.9908813e-38
-0.044772383 0.026187621 0.88700002 1.9632227e-38
-0.043082856 0.026187621 0.88700002 1.880426e-38
-0.041300002 0.026128573 0.88500005 1.8619868e-38
-0.039614286 0.026128573 0.88500005 1.8709903e-38
-0.03792857 0.026128573 0.88500005 1.8248925e-38
-0.036120001 0.026040001 0.88200003 1.5941575e-38
-0.034361906 0.025980955 0.88000005 1.4927423e-38
-0.03261143 0.025921905 0.87800002 1.575606e-38
-0.030833337 0.025833335 0.87500006 1.7323386e-38
-0.029100001 0.025774287 0.87300003 1.4471014e-38
-0.027437143 0.025774287 0.87300003 5.1592895e-39
-0.025833335 0.025833335 0.87500006 1.0507013e-38
-0.024111429 0.025774287 0.87300003 1.5762164e-38
-0.022448571 0.025774287 0.87300003 1.4102654e-38
-0.020785715 0.025774287 0.87300003 7.2801771e-39
-0.019079048 0.025715239 0.87100005 7.9248024e-39
-0.017419999 0.025715239 0.87100005 8.8467587e-39
-0.015724761 0.025656192 0.86900002 8.9371565e-39
-0.014069525 0.025656192 0.86900002 8.7527652e-39
-0.012414285 0.025656192 0.86900002 8.4768944e-39
-0.010759047 0.025656192 0.86900002 7.831525e-39
-0.0091038095 0.025656192 0.86900002 7.1897681e-39
-0.0074485713 0.025656192 0.86900002 4.3317036e-39
-0.0057933335 0.025656192 0.86900002 7.651049e-39
-0.0041380953 0.025656192 0.86900002 8.1120271e-39
-0.0024828573 0.025656192 0.86900002 7.7415084e-39
-0.00082761905 0.025656192 0.86900002 1.2996659e-38
0.00082761905 0.025656192 0.86900002 1.0603515e-38
0.0024828573 0.025656192 0.86900002 6.6391027e-39
0.0041380953 0.025656192 0.86900002 8.2968906e-39
0.0057933335 0.025656192 0.86900002 1.0509586e-38
0.0074485713 0.025656192 0.86900002 9.3070306e-39
0.0091247624 0.025715239 0.87100005 9.7680088e-39
0.010808571 0.025774287 0.87300003 8.6652654e-39
0.012500001 0.025833335 0.87500006 6.268179e-39
0.01424762 0.025980955 0.88000005 8.3872323e-39
0.015923811 0.025980955 0.88000005 1.0323341e-38
0.01764 0.026040001 0.88200003 1.105768e-38
0.019385716 0.026128573 0.88500005 1.4192331e-38
0.021119049 0.026187621 0.88700002 1.4377059e-38
0.022911429 0.026305715 0.89100003 1.7235123e-38
0.024608571 0.026305715 0.89100003 1.769647e-38
0.026305715 0.026305715 0.89100003 2.1107708e-38
0.028097145 0.026394285 0.89400005 2.1201343e-38
0.0298 0.026394285 0.89400005 2.3045256e-38
-0.050234288 0.028097145 0.89400005 2.240026e-38
-0.048531432 0.028097145 0.89400005 2.0371957e-38
-0.046566669 0.027940001 0.88900006 1.9725134e-38
-0.044772383 0.027877143 0.88700002 1.9540743e-38
-0.043082856 0.027877143 0.88700002 1.935743e-38
-0.041393336 0.027877143 0.88700002 1.9173039e-38
-0.039614286 0.027814288 0.88500005 1.8434398e-38
-0.03792857 0.027814288 0.88500005 1.7881224e-38
-0.036242858 0.027814288 0.88500005 1.7326635e-38
-0.034361906 0.027657144 0.88000005 1.6220288e-38
-0.03261143 0.027594287 0.87800002 1.5942243e-38
-0.030833337 0.027500002 0.87500006 1.5942243e-38
-0.029100001 0.027437143 0.87300003 1.2809733e-38
-0.027437143 0.027437143 0.87300003 7.3701909e-39
-0.025833335 0.027500002 0.87500006 9.9563643e-39
-0.024111429 0.027437143 0.87300003 1.4381755e-38
-0.022448571 0.027437143 0.87300003 1.3921518e-38
-0.020785715 0.027437143 0.87300003 5.4395197e-39
-0.019122858 0.027437143 0.87300003 6.1719911e-39
-0.017419999 0.027374288 0.87100005 9.2144342e-39
-0.015724761 0.027311428 0.86900002 8.2939577e-39
-0.014069525 0.027311428 0.86900002 7.7407839e-39
-0.012414285 0.027311428 0.86900002 7.9255255e-39
-0.010759047 0.027311428 0.86900002 9.0318731e-39
-0.0091038095 0.027311428 0.86900002 9.4928877e-39
-0.0074485713 0.027311428 0.86900002 5.5284756e-39
-0.0057933335 0.027311428 0.86900002 7.1915506e-39
-0.0041476195 0.027374288 0.87100005 6.3617899e-39
-0.0024885715 0.027374288 0.87100005 7.0972236e-39
-0.00082952384 0.027374288 0.87100005 1.2536766e-38
0.00082952384 0.027374288 0.87100005 1.1157441e-38
0.0024885715 0.027374288 0.87100005 8.4837678e-39
0.0041380953 0.027311428 0.86900002 1.0141872e-38
0.0057933335 0.027311428 0.86900002 1.0234068e-38
0.0074485713 0.027311428 0.86900002 8.9378473e-39
0.0091247624 0.027374288 0.87100005 9.5832168e-39
0.010833334 0.027500002 0.87500006 8.5719739e-39
0.012542857 0.027594287 0.87800002 7.9266045e-39
0.014280001 0.027720001 0.88200003 8.9399899e-39
0.01596 0.027720001 0.88200003 1.1060489e-38
0.017700002 0.027814288 0.88500005 1.1701593e-38
0.019429525 0.027877143 0.88700002 1.4651853e-38
0.021166669 0.027940001 0.88900006 1.4836592e-38
0.022911429 0.028002858 0.89100003 1.7510265e-38
0.024608571 0.028002858 0.89100003 1.7695751e-38
0.026305715 0.028002858 0.89100003 2.0738207e-38
0.028097145 0.028097145 0.89400005 2.1384655e-38
0.0298 0.028097145 0.89400005 2.3228568e-38
-0.050234288 0.0298 0.89400005 2.2307705e-38
-0.048531432 0.0298 0.89400005 2.0555988e-38
-0.046566669 0.029633334 0.88900006 1.9817332e-38
-0.044873338 0.029633334 0.88900006 1.9632941e-38
-0.043082856 0.029566666 0.88700002 1.9264883e-38
-0.041393336 0.029566666 0.88700002 1.9264883e-38
-0.039614286 0.029500002 0.88500005 1.8433679e-38
-0.03792857 0.029500002 0.88500005 1.7880505e-38
-0.036242858 0.029500002 0.88500005 1.7418828e-38
-0.034440003 0.0294 0.88200003 1.7326632e-38
-0.032685716 0.029333334 0.88000005 1.7142933e-38
-0.030833337 0.029166669 0.87500006 1.446926e-38
-0.029166669 0.029166669 0.87500006 1.1522611e-38
-0.027500002 0.029166669 0.87500006 6.544047e-39
-0.025921905 0.029266668 0.87800002 9.0347808e-39
-0.024249524 0.029266668 0.87800002 1.4289932e-38
-0.022448571 0.029100001 0.87300003 1.3828895e-38
-0.020785715 0.029100001 0.87300003 5.2547123e-39
-0.019122858 0.029100001 0.87300003 6.2667665e-39
-0.017419999 0.029033335 0.87100005 9.862396e-39
-0.015760954 0.029033335 0.87100005 9.5850412e-39
-0.014069525 0.028966667 0.86900002 8.2943024e-39
-0.012414285 0.028966667 0.86900002 8.3861926e-39
-0.010759047 0.028966667 0.86900002 1.0506692e-38
-0.0091038095 0.028966667 0.86900002 9.4950386e-39
-0.0074485713 0.028966667 0.86900002 5.7150178e-39
-0.0058066668 0.029033335 0.87100005 5.1651035e-39
-0.0041476195 0.029033335 0.87100005 3.3211909e-39
-0.0024885715 0.029033335 0.87100005 7.0958167e-39
-0.00082952384 0.029033335 0.87100005 1.2535359e-38
0.00083142857 0.029100001 0.87300003 1.1340354e-38
0.0024942856 0.029100001 0.87300003 8.8510719e-39
0.0041476195 0.029033335 0.87100005 1.0140425e-38
0.0058066668 0.029033335 0.87100005 1.0140425e-38
0.0074657151 0.029033335 0.87100005 8.6616262e-39
0.0091457143 0.029100001 0.87300003 8.6616262e-39
0.010870476 0.029266668 0.87800002 9.5821728e-39
0.012542857 0.029266668 0.87800002 1.2993411e-38
0.014328572 0.029500002 0.88500005 1.465468e-38
0.016014285 0.029500002 0.88500005 1.6037614e-38
0.01774 0.029566666 0.88700002 1.5760729e-38
0.019473333 0.029633334 0.88900006 1.6682685e-38
0.021166669 0.029633334 0.88900006 1.6313173e-38
0.022911429 0.029700002 0.89100003 1.7235129e-38
0.024608571 0.029700002 0.89100003 1.7695391e-38
0.026305715 0.029700002 0.89100003 2.046126e-38
0.028097145 0.0298 0.89400005 2.1845271e-38
0.029866667 0.029866667 0.89600003 2.3412596e-38
0.031573333 0.029866667 0.89600003 2.2769396e-38
-0.050908573 0.031925712 0.90600002 2.2215146e-38
-0.048748575 0.031643812 0.89800006 2.0832212e-38
-0.046566669 0.031326666 0.88900006 2.0001361e-38
-0.044873338 0.031326666 0.88900006 1.9632578e-38
-0.043082856 0.031256191 0.88700002 1.8803552e-38
-0.041393336 0.031256191 0.88700002 1.8895747e-38
-0.039703812 0.031256191 0.88700002 1.8341853e-38
-0.03792857 0.031185716 0.88500005 1.778868e-38
-0.036242858 0.031185716 0.88500005 1.8064536e-38
-0.034440003 0.031080002 0.88200003 1.778795e-38
-0.032685716 0.031009525 0.88000005 1.7052201e-38
-0.030939048 0.030939048 0.87800002 1.5484875e-38
-0.029166669 0.030833337 0.87500006 9.7770275e-39
-0.027500002 0.030833337 0.87500006 6.2735936e-39
-0.025921905 0.030939048 0.87800002 9.0304185e-39
-0.024249524 0.030939048 0.87800002 1.3087026e-38
-0.022500001 0.030833337 0.87500006 1.0140758e-38
-0.020833336 0.030833337 0.87500006 6.5451288e-39
-0.019122858 0.030762859 0.87300003 7.3759447e-39
-0.017419999 0.030692382 0.87100005 9.4964441e-39
-0.015760954 0.030692382 0.87100005 1.0414817e-38
-0.014069525 0.030621905 0.86900002 8.2021222e-39
-0.012414285 0.030621905 0.86900002 8.0155379e-39
-0.010759047 0.030621905 0.86900002 1.1242385e-38
-0.0091038095 0.030621905 0.86900002 9.956716e-39
-0.0074485713 0.030621905 0.86900002 7.3752384e-39
-0.0058066668 0.030692382 0.87100005 6.9156994e-39
-0.0041571432 0.030762859 0.87300003 5.6249606e-39
-0.0024942856 0.030762859 0.87300003 7.2798002e-39
-0.00083142857 0.030762859 0.87300003 1.0045669e-38
0.00083333335 0.030833337 0.87500006 9.9523496e-39
0.0025000002 0.030833337 0.87500006 1.0597719e-38
0.0041476195 0.030692382 0.87100005 1.207435e-38
0.0058066668 0.030692382 0.87100005 1.0783611e-38
0.0074828574 0.030762859 0.87300003 1.0227893e-38
0.0091666672 0.030833337 0.87500006 1.0320088e-38
0.010870476 0.030939048 0.87800002 1.1883829e-38
0.012571429 0.031009525 0.88000005 1.4373111e-38
0.014328572 0.031185716 0.88500005 1.5389781e-38
0.016014285 0.031185716 0.88500005 1.5481977e-38
0.01774 0.031256191 0.88700002 1.557704e-38
0.019473333 0.031326666 0.88900006 1.6591192e-38
0.021166669 0.031326666 0.88900006 1.6312807e-38
0.022911429 0.031397145 0.89100003 1.7419154e-38
0.024608571 0.031397145 0.89100003 1.7694669e-38
0.026305715 0.031397145 0.89100003 2.0552734e-38
0.028097145 0.031502858 0.89400005 2.1937113e-38
0.029866667 0.031573333 0.89600003 2.3504439e-38
0.031573333 0.031573333 0.89600003 2.258428e-38
-0.052750479 0.033725716 0.90800005 2.2860515e-38
-0.050740004 0.033540003 0.90300006 2.2860513e-38
-0.048748575 0.03335429 0.89800006 2.1108796e-38
-0.046828572 0.033205714 0.89400005 2.0092838e-38
-0.044873338 0.033020001 0.88900006 1.9908446e-38
-0.043082856 0.032945715 0.88700002 1.898687e-38
-0.041393336 0.032945715 0.88700002 1.8802478e-38
-0.039703812 0.032945715 0.88700002 1.8893948e-38
-0.03792857 0.032871433 0.88500005 1.8525166e-38
-0.036242858 0.032871433 0.88500005 1.7971975e-38
-0.034440003 0.032760002 0.88200003 1.7787584e-38
-0.032760002 0.032760002 0.88200003 1.769647e-38
-0.030939048 0.03261143 0.87800002 1.7327687e-38
-0.029166669 0.032500003 0.87500006 1.2812691e-38
-0.027500002 0.032500003 0.87500006 1.0968779e-38
-0.025921905 0.03261143 0.87800002 1.1521853e-38
-0.024249524 0.03261143 0.87800002 1.2351614e-38
-0.022500001 0.032500003 0.87500006 1.0598888e-38
-0.020833336 0.032500003 0.87500006 9.1237576e-39
-0.019122858 0.032425717 0.87300003 8.5737662e-39
-0.01746 0.032425717 0.87300003 8.7581574e-39
-0.015760954 0.032351431 0.87100005 1.0781795e-38
-0.014101906 0.032351431 0.87100005 1.1334969e-38
-0.012414285 0.032277141 0.86900002 1.1427492e-38
-0.010759047 0.032277141 0.86900002 1.253384e-38
-0.0091038095 0.032277141 0.86900002 1.1798796e-38
-0.0074657151 0.032351431 0.87100005 1.1153426e-38
-0.0058066668 0.032351431 0.87100005 1.0415197e-38
-0.0041571432 0.032425717 0.87300003 1.0046415e-38
-0.0024942856 0.032425717 0.87300003 1.078073e-38
-0.00083333335 0.032500003 0.87500006 1.1794882e-38
0.00083333335 0.032500003 0.87500006 1.4008582e-38
0.0025000002 0.032500003 0.87500006 1.4653951e-38
0.0041666669 0.032500003 0.87500006 1.5116409e-38
0.0058333338 0.032500003 0.87500006 1.5392996e-38
0.0075000003 0.032500003 0.87500006 1.4010471e-38
0.0091980947 0.03261143 0.87800002 1.3918275e-38
0.010895238 0.032685716 0.88000005 1.2719375e-38
0.012571429 0.032685716 0.88000005 1.2719375e-38
0.014328572 0.032871433 0.88500005 1.0229049e-38
0.016014285 0.032871433 0.88500005 8.8461141e-39
0.01774 0.032945715 0.88700002 1.0598146e-38
0.019473333 0.033020001 0.88900006 1.6498667e-38
0.021166669 0.033020001 0.88900006 1.6774148e-38
0.022911429 0.033094287 0.89100003 1.7696104e-38
0.024608571 0.033094287 0.89100003 1.7786865e-38
0.026305715 0.033094287 0.89100003 2.0460538e-38
