# .PCD v0.7 - Point Cloud Data file format
VERSION 0.7
FIELDS x y z rgb
SIZE 4 4 4 4
TYPE F F F F
COUNT 1 1 1 1
WIDTH 1022
HEIGHT 1
VIEWPOINT 0 0 0 1 0 0 0
POINTS 1022
DATA ascii
-0.16207714 0.17953999 0.57300001 8.29648e-39
-0.16098572 0.17953999 0.57300001 8.2043166e-39
-0.15989429 0.17953999 0.57300001 8.112121e-39
-0.15880287 0.17953999 0.57300001 8.0213351e-39
-0.15771143 0.17953999 0.57300001 9.035487e-39
-0.15662 0.17953999 0.57300001 8.0224029e-39
-0.15552858 0.17953999 0.57300001 8.483381e-39
-0.15443714 0.17953999 0.57300001 8.390496e-39
-0.15334572 0.17953999 0.57300001 8.2061047e-39
-0.15225428 0.17953999 0.57300001 7.9305842e-39
-0.15116286 0.17953999 0.57300001 7.9305842e-39
-0.15007143 0.17953999 0.57300001 8.0217106e-39
-0.14898001 0.17953999 0.57300001 7.929515e-39
-0.14788857 0.17953999 0.57300001 8.1131776e-39
-0.14679715 0.17953999 0.57300001 8.4819601e-39
-0.14570571 0.17953999 0.57300001 9.7698249e-39
-0.14486666 0.17985332 0.574 1.0138607e-38
-0.14377333 0.17985332 0.574 1.0322648e-38
-0.14267999 0.17985332 0.574 1.0783626e-38
-0.14208001 0.18048 0.57600003 1.1613737e-38
-0.14122762 0.18079334 0.57700002 1.1705933e-38
-0.14037143 0.18110667 0.57800001 1.1244242e-38
-0.13951144 0.18142001 0.57900006 1.1889611e-38
-0.13864763 0.18173334 0.58000004 1.1706283e-38
-0.13754287 0.18173334 0.58000004 1.1706283e-38
-0.1364381 0.18173334 0.58000004 1.1614807e-38
-0.1358 0.18236001 0.58200002 1.1614807e-38
-0.13469143 0.18236001 0.58200002 1.1706649e-38
-0.13381238 0.18267334 0.583 1.1706649e-38
-0.1327019 0.18267334 0.583 1.1798485e-38
-0.13204286 0.1833 0.58500004 1.2075072e-38
-0.13137619 0.18392667 0.58700001 1.225911e-38
-0.13025808 0.18392667 0.58700001 1.2351305e-38
-0.12958001 0.18455335 0.58900005 1.2351293e-38
-0.12889428 0.18518001 0.59100002 1.2351293e-38
-0.12841715 0.18612 0.59400004 1.2167264e-38
-0.12728572 0.18612 0.59400004 1.225946e-38
-0.12657905 0.18674666 0.59600002 1.2351303e-38
-0.12586476 0.18737336 0.59800005 1.2443498e-38
-0.1249343 0.18768668 0.59900004 1.2443148e-38
-0.12400001 0.18800001 0.60000002 1.2535343e-38
-0.12326667 0.18862668 0.60200006 1.2535694e-38
-0.12212001 0.18862668 0.60200006 1.2904476e-38
-0.12117429 0.18894 0.60300004 1.2904818e-38
-0.12022477 0.18925333 0.60400003 1.2904818e-38
-0.11907429 0.18925333 0.60400003 1.3917186e-38
-0.18868668 0.18315333 0.58100003 1.143187e-38
-0.18758002 0.18315333 0.58100003 9.8624087e-39
-0.18647334 0.18315333 0.58100003 9.8624087e-39
-0.18504764 0.1828381 0.58000004 1.0230102e-38
-0.18394287 0.1828381 0.58000004 1.0230102e-38
-0.18252288 0.18252288 0.57900006 1.0415896e-38
-0.18110667 0.18220763 0.57800001 1.0692483e-38
-0.17969428 0.1818924 0.57700002 1.0232951e-38
-0.17828572 0.18157715 0.57600003 1.004856e-38
-0.17657332 0.18094666 0.574 1.0233303e-38
-0.17517428 0.18063143 0.57300001 1.0325499e-38
-0.17408286 0.18063143 0.57300001 1.0507366e-38
-0.17299144 0.18063143 0.57300001 1.0322975e-38
-0.1719 0.18063143 0.57300001 1.0139314e-38
-0.17080857 0.18063143 0.57300001 9.9549224e-39
-0.16971715 0.18063143 0.57300001 9.8627268e-39
-0.16862571 0.18063143 0.57300001 9.9549224e-39
-0.16753429 0.18063143 0.57300001 9.3109977e-39
-0.16644286 0.18063143 0.57300001 7.5592807e-39
-0.16535144 0.18063143 0.57300001 7.5603822e-39
-0.16426 0.18063143 0.57300001 7.4681865e-39
-0.16316858 0.18063143 0.57300001 7.9276933e-39
-0.16207714 0.18063143 0.57300001 8.019889e-39
-0.16098572 0.18063143 0.57300001 8.2042998e-39
-0.15989429 0.18063143 0.57300001 8.1121042e-39
-0.15880287 0.18063143 0.57300001 8.3883253e-39
-0.15771143 0.18063143 0.57300001 9.5868685e-39
-0.15662 0.18063143 0.57300001 9.1280344e-39
-0.15552858 0.18063143 0.57300001 9.22023e-39
-0.15443714 0.18063143 0.57300001 9.4039192e-39
-0.15334572 0.18063143 0.57300001 9.6805061e-39
-0.15225428 0.18063143 0.57300001 9.6805061e-39
-0.15116286 0.18063143 0.57300001 9.5883105e-39
-0.15007143 0.18063143 0.57300001 9.6794467e-39
-0.14898001 0.18063143 0.57300001 9.6794467e-39
-0.14788857 0.18063143 0.57300001 1.0599939e-38
-0.14705333 0.18094666 0.574 1.078433e-38
-0.14595999 0.18094666 0.574 1.1060914e-38
-0.14486666 0.18094666 0.574 1.1521892e-38
-0.14377333 0.18094666 0.574 1.1705598e-38
-0.14317715 0.18157715 0.57600003 1.1797794e-38
-0.14208001 0.18157715 0.57600003 1.1614456e-38
-0.14122762 0.1818924 0.57700002 1.1614456e-38
-0.14037143 0.18220763 0.57800001 1.1889627e-38
-0.13951144 0.18252288 0.57900006 1.1889627e-38
-0.13864763 0.1828381 0.58000004 1.1889961e-38
-0.13754287 0.1828381 0.58000004 1.1889961e-38
-0.1364381 0.1828381 0.58000004 1.1798485e-38
-0.1358 0.18346857 0.58200002 1.1798485e-38
-0.13469143 0.18346857 0.58200002 1.1706652e-38
-0.13381238 0.18378381 0.583 1.1798848e-38
-0.13292953 0.18409906 0.58400005 1.1798848e-38
-0.13226858 0.18472953 0.58600003 1.1891043e-38
-0.13137619 0.18504475 0.58700001 1.1982901e-38
-0.13025808 0.18504475 0.58700001 1.1982901e-38
-0.12958001 0.18567525 0.58900005 1.2259457e-38
-0.12889428 0.18630572 0.59100002 1.2259457e-38
-0.12820096 0.18693621 0.59300005 1.2075069e-38
-0.12728572 0.18725143 0.59400004 1.2075069e-38
-0.12679142 0.18819714 0.597 1.2258744e-38
-0.12586476 0.1885124 0.59800005 1.2443135e-38
-0.1249343 0.18882763 0.59900004 1.2535334e-38
-0.12379333 0.18882763 0.59900004 1.2535334e-38
-0.12326667 0.18977335 0.60200006 1.2443498e-38
-0.12232286 0.19008859 0.60300004 1.2904476e-38
-0.12117429 0.19008859 0.60300004 1.2996306e-38
-0.12062286 0.19103429 0.60600001 1.2996306e-38
-0.11946857 0.19103429 0.60600001 1.3732795e-38
-0.18647334 0.18426001 0.58100003 9.7719927e-39
-0.18504764 0.18394287 0.58000004 9.8631177e-39
-0.18394287 0.18394287 0.58000004 9.8631177e-39
-0.18252288 0.18362573 0.57900006 9.9545693e-39
-0.18110667 0.18330857 0.57800001 1.0138961e-38
-0.17969428 0.18299143 0.57700002 1.004821e-38
-0.17828572 0.1826743 0.57600003 9.956014e-39
-0.17688097 0.18235716 0.57500005 1.0415545e-38
-0.17547999 0.18203999 0.574 1.0784327e-38
-0.17438667 0.18203999 0.574 1.0876512e-38
-0.17299144 0.18172286 0.57300001 1.0415533e-38
-0.1719 0.18172286 0.57300001 1.0231156e-38
-0.17110667 0.18203999 0.574 1.0231156e-38
-0.17001334 0.18203999 0.574 9.7719731e-39
-0.16892 0.18203999 0.574 9.7719731e-39
-0.16753429 0.18172286 0.57300001 8.9429411e-39
-0.16644286 0.18172286 0.57300001 8.3897673e-39
-0.16564 0.18203999 0.574 8.4808741e-39
-0.16454667 0.18203999 0.574 8.5730697e-39
-0.16345334 0.18203999 0.574 8.7574582e-39
-0.16236 0.18203999 0.574 8.5730669e-39
-0.16098572 0.18172286 0.57300001 8.4790734e-39
-0.15989429 0.18172286 0.57300001 8.7556603e-39
-0.15880287 0.18172286 0.57300001 9.3088495e-39
-0.15771143 0.18172286 0.57300001 9.7698277e-39
-0.15662 0.18172286 0.57300001 9.495389e-39
-0.15552858 0.18172286 0.57300001 9.495389e-39
-0.15443714 0.18172286 0.57300001 1.0138607e-38
-0.15334572 0.18172286 0.57300001 1.050739e-38
-0.15252 0.18203999 0.574 1.0599586e-38
-0.15142667 0.18203999 0.574 1.1060564e-38
-0.15033334 0.18203999 0.574 1.1060566e-38
-0.14923999 0.18203999 0.574 1.1152762e-38
-0.14814666 0.18203999 0.574 1.1336788e-38
-0.14705333 0.18203999 0.574 1.1336788e-38
-0.14595999 0.18203999 0.574 1.1428618e-38
-0.14511906 0.18235716 0.57500005 1.17974e-38
-0.14402382 0.18235716 0.57500005 1.170558e-38
-0.14317715 0.1826743 0.57600003 1.170558e-38
-0.14208001 0.1826743 0.57600003 1.1521542e-38
-0.14122762 0.18299143 0.57700002 1.1613737e-38
-0.1406143 0.18362573 0.57900006 1.1981807e-38
-0.13975239 0.18394287 0.58000004 1.2074002e-38
-0.13864763 0.18394287 0.58000004 1.1982157e-38
-0.13778001 0.18426001 0.58100003 1.1889961e-38
-0.13667333 0.18426001 0.58100003 1.189068e-38
-0.1358 0.18457714 0.58200002 1.1798485e-38
-0.13492286 0.18489429 0.583 1.1890327e-38
-0.13404192 0.18521143 0.58400005 1.1890327e-38
-0.13315715 0.18552858 0.58500004 1.189068e-38
-0.13226858 0.18584573 0.58600003 1.189068e-38
-0.13137619 0.18616286 0.58700001 1.1614456e-38
-0.13025808 0.18616286 0.58700001 1.1798848e-38
-0.12980001 0.1871143 0.59000003 1.2167983e-38
-0.12889428 0.18743144 0.59100002 1.2075788e-38
-0.12820096 0.18806574 0.59300005 1.2075069e-38
-0.12728572 0.18838288 0.59400004 1.225946e-38
-0.12657905 0.18901715 0.59600002 1.2350937e-38
-0.12586476 0.18965144 0.59800005 1.2350937e-38
-0.1249343 0.18996859 0.59900004 1.2350937e-38
-0.12379333 0.18996859 0.59900004 1.2443132e-38
-0.12326667 0.19092001 0.60200006 1.2351656e-38
-0.12252572 0.19155429 0.60400003 1.2167264e-38
-0.12177715 0.19218858 0.60600001 1.2258741e-38
-0.12062286 0.19218858 0.60600001 1.3180697e-38
-0.11946857 0.19218858 0.60600001 1.3456218e-38
-0.18758002 0.18536668 0.58100003 1.0510286e-38
-0.18647334 0.18536668 0.58100003 1.0602482e-38
-0.18536668 0.18536668 0.58100003 1.0601753e-38
-0.18394287 0.18504764 0.58000004 9.5876014e-39
-0.1828381 0.18504764 0.58000004 9.219172e-39
-0.18142001 0.18472858 0.57900006 8.2050201e-39
-0.18000571 0.18440953 0.57800001 8.2050453e-39
-0.17859524 0.18409048 0.57700002 8.6660235e-39
-0.17688097 0.1834524 0.57500005 9.770178e-39
-0.17578572 0.1834524 0.57500005 1.0138961e-38
-0.17438667 0.18313332 0.574 1.0322975e-38
-0.17299144 0.18281429 0.57300001 1.0507366e-38
-0.1719 0.18281429 0.57300001 1.0507743e-38
-0.17110667 0.18313332 0.574 1.0323352e-38
-0.17001334 0.18313332 0.574 1.0138961e-38
-0.16892 0.18313332 0.574 1.0231156e-38
-0.16782667 0.18313332 0.574 1.0048212e-38
-0.16673334 0.18313332 0.574 1.0048212e-38
-0.16564 0.18313332 0.574 9.9563643e-39
-0.16454667 0.18313332 0.574 1.0325147e-38
-0.16345334 0.18313332 0.574 1.032515e-38
-0.16236 0.18313332 0.574 1.032515e-38
-0.16098572 0.18281429 0.57300001 1.0323352e-38
-0.15989429 0.18281429 0.57300001 1.0507743e-38
-0.15880287 0.18281429 0.57300001 1.0324096e-38
-0.15771143 0.18281429 0.57300001 9.8631177e-39
-0.15689334 0.18313332 0.574 9.8638212e-39
-0.1558 0.18313332 0.574 1.0048212e-38
-0.15470667 0.18313332 0.574 1.078433e-38
-0.15361334 0.18313332 0.574 1.1060917e-38
-0.15252 0.18313332 0.574 1.1060566e-38
-0.15169048 0.1834524 0.57500005 1.1244958e-38
-0.15033334 0.18313332 0.574 1.1153831e-38
-0.14923999 0.18313332 0.574 1.1153831e-38
-0.14814666 0.18313332 0.574 1.1337141e-38
-0.14705333 0.18313332 0.574 1.1337141e-38
-0.14621429 0.1834524 0.57500005 1.1428618e-38
-0.14511906 0.1834524 0.57500005 1.1613009e-38
-0.14427429 0.18377143 0.57600003 1.1521898e-38
-0.14317715 0.18377143 0.57600003 1.1521898e-38
-0.14232667 0.18409048 0.57700002 1.1521898e-38
-0.14147238 0.18440953 0.57800001 1.1614093e-38
-0.1406143 0.18472858 0.57900006 1.1797769e-38
-0.13975239 0.18504764 0.58000004 1.1889964e-38
-0.13864763 0.18504764 0.58000004 1.1981791e-38
-0.13778001 0.18536668 0.58100003 1.2166183e-38
-0.13667333 0.18536668 0.58100003 1.1889961e-38
-0.1358 0.18568571 0.58200002 1.1889961e-38
-0.13492286 0.18600477 0.583 1.1982167e-38
-0.13404192 0.18632382 0.58400005 1.1889971e-38
-0.13315715 0.18664286 0.58500004 1.1798845e-38
-0.13226858 0.18696192 0.58600003 1.1983236e-38
-0.13137619 0.18728095 0.58700001 1.1983222e-38
-0.13025808 0.18728095 0.58700001 1.1891026e-38
-0.12980001 0.1882381 0.59000003 1.1982876e-38
-0.12889428 0.18855715 0.59100002 1.1614093e-38
-0.12820096 0.18919525 0.59300005 1.1890324e-38
-0.12728572 0.18951431 0.59400004 1.2166911e-38
-0.12657905 0.19015238 0.59600002 1.2258741e-38
-0.12586476 0.19079049 0.59800005 1.2258741e-38
-0.1249343 0.19110952 0.59900004 1.2351293e-38
-0.12441335 0.19206668 0.60200006 1.2351293e-38
-0.12367619 0.19270477 0.60400003 1.1796697e-38
-0.12293143 0.19334285 0.60600001 1.1612305e-38
-0.1219781 0.19366191 0.60700005 1.2350579e-38
-0.12082192 0.19366191 0.60700005 1.3456927e-38
-0.11966572 0.19366191 0.60700005 1.3733173e-38
-0.18790285 0.18679428 0.58200002 1.0510286e-38
-0.18679428 0.18679428 0.58200002 1.0510286e-38
-0.18568571 0.18679428 0.58200002 1.0879072e-38
-0.18426001 0.18647334 0.58100003 9.5883329e-39
-0.1828381 0.1861524 0.58000004 8.8514685e-39
-0.18173334 0.1861524 0.58000004 7.7451209e-39
-0.18031716 0.18583144 0.57900006 7.8362376e-39
-0.17890477 0.18551047 0.57800001 8.8503895e-39
-0.17718858 0.18486859 0.57600003 9.4935799e-39
-0.17578572 0.18454763 0.57500005 9.216993e-39
-0.17469049 0.18454763 0.57500005 9.2166147e-39
-0.17359525 0.18454763 0.57500005 9.7697884e-39
-0.17250001 0.18454763 0.57500005 1.0782888e-38
-0.17140478 0.18454763 0.57500005 1.0690692e-38
-0.17030953 0.18454763 0.57500005 9.8616478e-39
-0.16892 0.18422666 0.574 9.9538434e-39
-0.16782667 0.18422666 0.574 1.0322283e-38
-0.16673334 0.18422666 0.574 1.0230087e-38
-0.16564 0.18422666 0.574 9.956014e-39
-0.16454667 0.18422666 0.574 1.0140405e-38
-0.16345334 0.18422666 0.574 1.0140408e-38
-0.16236 0.18422666 0.574 1.0140408e-38
-0.16126667 0.18422666 0.574 9.9560168e-39
-0.16017334 0.18422666 0.574 1.0048212e-38
-0.15908 0.18422666 0.574 1.1062011e-38
-0.15798667 0.18422666 0.574 1.0601033e-38
-0.15689334 0.18422666 0.574 1.0509188e-38
-0.15607144 0.18454763 0.57500005 1.0416992e-38
-0.15497619 0.18454763 0.57500005 1.0785775e-38
-0.15388097 0.18454763 0.57500005 1.0785775e-38
-0.15278573 0.18454763 0.57500005 1.0785074e-38
-0.15169048 0.18454763 0.57500005 1.087727e-38
-0.15033334 0.18422666 0.574 1.1153478e-38
-0.14923999 0.18422666 0.574 1.1245674e-38
-0.14840478 0.18454763 0.57500005 1.1429702e-38
-0.14730954 0.18454763 0.57500005 1.1337507e-38
-0.14621429 0.18454763 0.57500005 1.1429702e-38
-0.14537144 0.18486859 0.57600003 1.1429702e-38
-0.14427429 0.18486859 0.57600003 1.1521898e-38
-0.14342572 0.18518953 0.57700002 1.1521898e-38
-0.14232667 0.18518953 0.57700002 1.1521892e-38
-0.14147238 0.18551047 0.57800001 1.1521892e-38
-0.1406143 0.18583144 0.57900006 1.1797766e-38
-0.13975239 0.1861524 0.58000004 1.1797766e-38
-0.13888668 0.18647334 0.58100003 1.1889952e-38
-0.13778001 0.18647334 0.58100003 1.1982147e-38
-0.13667333 0.18647334 0.58100003 1.1704841e-38
-0.13603334 0.18711524 0.583 1.2442407e-38
-0.13492286 0.18711524 0.583 1.2443488e-38
-0.13404192 0.18743621 0.58400005 1.2166901e-38
-0.13338476 0.18807811 0.58600003 1.1799198e-38
-0.13249429 0.18839905 0.58700001 1.1983589e-38
-0.13159999 0.18872 0.588 1.2075422e-38
-0.13047999 0.18872 0.588 1.2167617e-38
-0.12980001 0.18936191 0.59000003 1.2258741e-38
-0.12911239 0.19000381 0.59200001 1.1982154e-38
-0.12820096 0.19032478 0.59300005 1.1982154e-38
-0.1275 0.19096668 0.59500003 1.2258741e-38
-0.12679142 0.19160856 0.597 1.2166546e-38
-0.12628572 0.19257143 0.60000002 1.2350937e-38
-0.12514286 0.19257143 0.60000002 1.2626445e-38
-0.12462001 0.1935343 0.60300004 1.124351e-38
-0.12367619 0.19385524 0.60400003 1.078073e-38
-0.12293143 0.19449714 0.60600001 1.1794882e-38
-0.1219781 0.19481811 0.60700005 1.2350577e-38
-0.12082192 0.19481811 0.60700005 1.3733511e-38
-0.11966572 0.19481811 0.60700005 1.4009757e-38
-0.18822572 0.18822572 0.583 1.0510286e-38
-0.18711524 0.18822572 0.583 9.5883301e-39
-0.18600477 0.18822572 0.583 9.8649198e-39
-0.18457714 0.18790285 0.58200002 9.9571154e-39
-0.18315333 0.18758002 0.58100003 9.7727017e-39
-0.18204668 0.18758002 0.58100003 9.3117236e-39
-0.18062858 0.18725716 0.58000004 9.219528e-39
-0.1792143 0.18693431 0.57900006 9.219528e-39
-0.17749619 0.18628858 0.57700002 9.034408e-39
-0.17609143 0.18596572 0.57600003 8.0202561e-39
-0.1749943 0.18596572 0.57600003 8.4815762e-39
-0.17359525 0.18564287 0.57500005 9.1269456e-39
-0.17250001 0.18564287 0.57500005 1.0322622e-38
-0.17170286 0.18596572 0.57600003 1.0322622e-38
-0.17030953 0.18564287 0.57500005 9.9545693e-39
-0.16921431 0.18564287 0.57500005 9.9545693e-39
-0.16811906 0.18564287 0.57500005 1.0138607e-38
-0.16702382 0.18564287 0.57500005 1.0138607e-38
-0.16564 0.18531999 0.574 9.7716255e-39
-0.16454667 0.18531999 0.574 9.8638212e-39
-0.16345334 0.18531999 0.574 1.0322648e-38
-0.16236 0.18531999 0.574 1.0230453e-38
-0.16126667 0.18531999 0.574 1.0046061e-38
-0.16017334 0.18531999 0.574 9.9538658e-39
-0.15908 0.18531999 0.574 1.096907e-38
-0.15798667 0.18531999 0.574 1.0415896e-38
-0.15689334 0.18531999 0.574 1.0324797e-38
-0.15607144 0.18564287 0.57500005 1.0324797e-38
-0.15497619 0.18564287 0.57500005 1.1153829e-38
-0.15388097 0.18564287 0.57500005 1.1430415e-38
-0.15278573 0.18564287 0.57500005 1.1151708e-38
-0.15169048 0.18564287 0.57500005 1.0967317e-38
-0.15059525 0.18564287 0.57500005 1.1152046e-38
-0.1495 0.18564287 0.57500005 1.2166198e-38
-0.14840478 0.18564287 0.57500005 1.1429702e-38
-0.14730954 0.18564287 0.57500005 1.106092e-38
-0.14646858 0.18596572 0.57600003 1.1521542e-38
-0.14537144 0.18596572 0.57600003 1.1521542e-38
-0.14452477 0.18628858 0.57700002 1.1521892e-38
-0.14342572 0.18628858 0.57700002 1.1521892e-38
-0.14257333 0.18661143 0.57800001 1.1430415e-38
-0.14171715 0.18693431 0.57900006 1.1522611e-38
-0.14085715 0.18725716 0.58000004 1.1521898e-38
-0.13975239 0.18725716 0.58000004 1.1614093e-38
-0.13888668 0.18758002 0.58100003 1.1798465e-38
-0.13801715 0.18790285 0.58200002 1.1798465e-38
-0.13690856 0.18790285 0.58200002 1.1798116e-38
-0.13626668 0.18854858 0.58400005 1.2259094e-38
-0.13515431 0.18854858 0.58400005 1.2075758e-38
-0.13427144 0.18887144 0.58500004 1.1983563e-38
-0.13338476 0.18919429 0.58600003 1.1799195e-38
-0.13249429 0.18951716 0.58700001 1.1799195e-38
-0.13159999 0.18984 0.588 1.1983226e-38
-0.13070191 0.19016287 0.58900005 1.2075422e-38
-0.13023999 0.19113143 0.59200001 1.2075069e-38
-0.12933049 0.19145431 0.59300005 1.2075069e-38
-0.12841715 0.19177715 0.59400004 1.2075069e-38
-0.12771429 0.19242287 0.59600002 1.225946e-38
-0.12700382 0.19306858 0.59800005 1.2351293e-38
-0.12628572 0.19371429 0.60000002 1.2074706e-38
-0.12535143 0.19403714 0.60100001 1.0506339e-38
-0.12441335 0.19436002 0.60200006 9.6765783e-39
-0.12367619 0.19500573 0.60400003 1.0321569e-38
-0.12293143 0.19565143 0.60600001 1.1427917e-38
-0.1219781 0.19597431 0.60700005 1.2258381e-38
-0.12082192 0.19597431 0.60700005 1.3917902e-38
-0.11966572 0.19597431 0.60700005 1.4010476e-38
-0.19501999 0.19388285 0.597 1.5487046e-38
-0.19323334 0.19323334 0.59500003 1.2352394e-38
-0.18711524 0.1893362 0.583 9.6805285e-39
-0.18600477 0.1893362 0.583 9.5890391e-39
-0.18457714 0.18901142 0.58200002 9.7734304e-39
-0.18346857 0.18901142 0.58200002 1.1060566e-38
-0.18204668 0.18868668 0.58100003 1.0230806e-38
-0.18094002 0.18868668 0.58100003 1.0138961e-38
-0.17952383 0.18836191 0.58000004 9.9545693e-39
-0.17841905 0.18836191 0.58000004 8.7592785e-39
-0.17359525 0.1867381 0.57500005 9.218449e-39
-0.17250001 0.1867381 0.57500005 9.9545693e-39
-0.17170286 0.18706287 0.57600003 1.0138961e-38
-0.17060573 0.18706287 0.57600003 1.0046765e-38
-0.16921431 0.1867381 0.57500005 1.0138961e-38
-0.16811906 0.1867381 0.57500005 1.0138607e-38
-0.16702382 0.1867381 0.57500005 1.0046412e-38
-0.16592859 0.1867381 0.57500005 1.013861e-38
-0.16483334 0.1867381 0.57500005 1.0323001e-38
-0.16345334 0.18641332 0.574 1.0875822e-38
-0.16236 0.18641332 0.574 1.050704e-38
-0.16126667 0.18641332 0.574 1.0137531e-38
-0.16017334 0.18641332 0.574 1.0321922e-38
-0.15908 0.18641332 0.574 1.1060917e-38
-0.15826192 0.1867381 0.57500005 1.0599939e-38
-0.15716667 0.1867381 0.57500005 1.0507743e-38
-0.15607144 0.1867381 0.57500005 1.0599939e-38
-0.15497619 0.1867381 0.57500005 1.133679e-38
-0.15388097 0.1867381 0.57500005 1.1428986e-38
-0.15305144 0.18706287 0.57600003 1.1059863e-38
-0.15169048 0.1867381 0.57500005 1.0875472e-38
-0.15059525 0.1867381 0.57500005 1.078398e-38
-0.1495 0.1867381 0.57500005 1.1521545e-38
-0.14840478 0.1867381 0.57500005 1.1152399e-38
-0.14756572 0.18706287 0.57600003 1.1152399e-38
-0.14646858 0.18706287 0.57600003 1.152011e-38
-0.1456238 0.18738762 0.57700002 1.1796697e-38
-0.14477524 0.18771239 0.57800001 1.1521898e-38
-0.14367428 0.18771239 0.57800001 1.1429702e-38
-0.14257333 0.18771239 0.57800001 1.1614807e-38
-0.14171715 0.18803717 0.57900006 1.1707002e-38
-0.14085715 0.18836191 0.58000004 1.1337516e-38
-0.13999334 0.18868668 0.58100003 1.1706299e-38
-0.13888668 0.18868668 0.58100003 1.1706639e-38
-0.13801715 0.18901142 0.58200002 1.1706639e-38
-0.13690856 0.18901142 0.58200002 1.170557e-38
-0.13626668 0.18966097 0.58400005 1.170557e-38
-0.13515431 0.18966097 0.58400005 1.15226e-38
-0.13427144 0.18998572 0.58500004 1.15226e-38
-0.13338476 0.19031048 0.58600003 1.1707002e-38
-0.13249429 0.19063525 0.58700001 1.1799198e-38
-0.13159999 0.19095999 0.588 1.1891031e-38
-0.13070191 0.19128478 0.58900005 1.1891031e-38
-0.13023999 0.19225906 0.59200001 1.2075072e-38
-0.12933049 0.19258381 0.59300005 1.2075072e-38
-0.12863334 0.19323334 0.59500003 1.1982876e-38
-0.12771429 0.1935581 0.59600002 1.2075072e-38
-0.12700382 0.19420762 0.59800005 1.1708454e-38
-0.12628572 0.19485715 0.60000002 1.1339672e-38
-0.12535143 0.19518191 0.60100001 9.1266233e-39
-0.12441335 0.19550668 0.60200006 9.1266233e-39
-0.12367619 0.19615619 0.60400003 1.1244229e-38
-0.12293143 0.19680572 0.60600001 1.1520816e-38
-0.1219781 0.19713049 0.60700005 1.2350577e-38
-0.12082192 0.19713049 0.60700005 1.3917902e-38
-0.11966572 0.19713049 0.60700005 1.4010476e-38
-0.19501999 0.19501999 0.597 1.5855821e-38
-0.19323334 0.19436666 0.59500003 1.2536778e-38
-0.19210002 0.19436666 0.59500003 1.0878371e-38
-0.19096668 0.19436666 0.59500003 1.0417393e-38
-0.18600477 0.19044666 0.583 1.0326226e-38
-0.18489429 0.19044666 0.583 8.5745089e-39
-0.18346857 0.19012001 0.58200002 9.4003417e-39
-0.18236001 0.19012001 0.58200002 9.584733e-39
-0.18125144 0.19012001 0.58200002 9.9545693e-39
-0.18014286 0.19012001 0.58200002 1.0415547e-38
-0.17792572 0.19012001 0.58200002 9.8638408e-39
-0.17280002 0.18816 0.57600003 1.0046765e-38
-0.17170286 0.18816 0.57600003 1.0138961e-38
-0.17060573 0.18816 0.57600003 1.0230074e-38
-0.16950858 0.18816 0.57600003 1.032227e-38
-0.16841145 0.18816 0.57600003 1.0138607e-38
-0.16702382 0.18783335 0.57500005 1.0138607e-38
-0.16592859 0.18783335 0.57500005 1.0047859e-38
-0.16483334 0.18783335 0.57500005 1.0140055e-38
-0.16345334 0.18750666 0.574 1.0691081e-38
-0.16236 0.18750666 0.574 1.0691081e-38
-0.16126667 0.18750666 0.574 1.0415197e-38
-0.16017334 0.18750666 0.574 1.0230806e-38
-0.15935715 0.18783335 0.57500005 1.0325147e-38
-0.15826192 0.18783335 0.57500005 1.0325147e-38
-0.15716667 0.18783335 0.57500005 1.0232601e-38
-0.15634286 0.18816 0.57600003 1.0324797e-38
-0.15524572 0.18816 0.57600003 1.0783977e-38
-0.15414858 0.18816 0.57600003 1.0783977e-38
-0.15305144 0.18816 0.57600003 1.0876175e-38
-0.15195429 0.18816 0.57600003 1.0876175e-38
-0.15085715 0.18816 0.57600003 1.1244589e-38
-0.14976001 0.18816 0.57600003 1.1521176e-38
-0.14866287 0.18816 0.57600003 1.1244589e-38
-0.14756572 0.18816 0.57600003 1.1244589e-38
-0.14672287 0.18848668 0.57700002 1.1428986e-38
-0.14587618 0.18881333 0.57800001 1.133679e-38
-0.14502572 0.18914001 0.57900006 1.0970519e-38
-0.14367428 0.18881333 0.57800001 1.0601737e-38
-0.14257333 0.18881333 0.57800001 1.1153829e-38
-0.14196192 0.18946669 0.58000004 1.1799198e-38
-0.14110002 0.18979333 0.58100003 1.1614106e-38
-0.13999334 0.18979333 0.58100003 1.152191e-38
-0.13912572 0.19012001 0.58200002 1.1613737e-38
-0.13801715 0.19012001 0.58200002 1.1613737e-38
-0.13714382 0.19044666 0.583 1.1704501e-38
-0.13626668 0.19077334 0.58400005 1.1704501e-38
-0.13515431 0.19077334 0.58400005 1.1706289e-38
-0.13427144 0.19110002 0.58500004 1.1614093e-38
-0.13361238 0.19175333 0.58700001 1.1521908e-38
-0.13272001 0.19208001 0.588 1.189069e-38
-0.13159999 0.19208001 0.588 1.179955e-38
-0.13092381 0.19273335 0.59000003 1.1891745e-38
-0.13046001 0.19371335 0.59300005 1.2166914e-38
-0.12954858 0.19404002 0.59400004 1.225911e-38
-0.12863334 0.19436666 0.59500003 1.189104e-38
-0.12771429 0.19469334 0.59600002 1.0600302e-38
-0.12700382 0.19534668 0.59800005 1.1062011e-38
-0.12628572 0.19599999 0.60000002 1.1707381e-38
-0.12535143 0.19632667 0.60100001 1.0600683e-38
-0.12441335 0.19665335 0.60200006 1.0416291e-38
-0.12367619 0.19730668 0.60400003 1.1336788e-38
-0.12293143 0.19796 0.60600001 1.2811918e-38
-0.12177715 0.19796 0.60600001 1.2627526e-38
-0.12062286 0.19796 0.60600001 1.3733874e-38
-0.11946857 0.19796 0.60600001 1.3826445e-38
-0.11850954 0.19828668 0.60700005 1.5946945e-38
-0.19615714 0.19615714 0.597 1.6500462e-38
-0.19501999 0.19615714 0.597 1.6224598e-38
-0.19323334 0.1955 0.59500003 1.3089947e-38
-0.19177715 0.19517143 0.59400004 1.1800309e-38
-0.19064572 0.19517143 0.59400004 1.050957e-38
-0.19047143 0.19615714 0.597 1.0693579e-38
-0.18521143 0.19188572 0.58400005 9.0340577e-39
-0.18378381 0.19155714 0.583 9.4918087e-39
-0.18236001 0.19122858 0.58200002 9.5840043e-39
-0.18125144 0.19122858 0.58200002 9.6779824e-39
-0.17170286 0.18925716 0.57600003 1.0138607e-38
-0.17060573 0.18925716 0.57600003 1.0230077e-38
-0.16950858 0.18925716 0.57600003 1.0414468e-38
-0.16841145 0.18925716 0.57600003 1.0414478e-38
-0.16731429 0.18925716 0.57600003 1.0230087e-38
-0.16592859 0.18892859 0.57500005 9.7716452e-39
-0.16483334 0.18892859 0.57500005 9.7716452e-39
-0.16345334 0.1886 0.574 9.9553133e-39
-0.16236 0.1886 0.574 1.0139705e-38
-0.16154763 0.18892859 0.57500005 1.004821e-38
-0.1604524 0.18892859 0.57500005 1.004821e-38
-0.15935715 0.18892859 0.57500005 9.8648918e-39
-0.15826192 0.18892859 0.57500005 9.8648918e-39
-0.15716667 0.18892859 0.57500005 9.8648974e-39
-0.15634286 0.18925716 0.57600003 1.023368e-38
-0.15524572 0.18925716 0.57600003 1.0509191e-38
-0.15414858 0.18925716 0.57600003 1.0509191e-38
-0.15305144 0.18925716 0.57600003 1.0876175e-38
-0.15195429 0.18925716 0.57600003 1.0876175e-38
-0.15085715 0.18925716 0.57600003 1.1245674e-38
-0.14976001 0.18925716 0.57600003 1.1245674e-38
-0.14892095 0.18958572 0.57700002 1.133679e-38
-0.14782192 0.18958572 0.57700002 1.133679e-38
-0.14697714 0.18991429 0.57800001 1.087797e-38
-0.14587618 0.18991429 0.57800001 1.0509188e-38
-0.14502572 0.19024287 0.57900006 1.0233674e-38
-0.14367428 0.18991429 0.57800001 1.0233674e-38
-0.14257333 0.18991429 0.57800001 1.0876523e-38
-0.14196192 0.19057144 0.58000004 1.1706283e-38
-0.14085715 0.19057144 0.58000004 1.1614456e-38
-0.13999334 0.1909 0.58100003 1.1522261e-38
-0.13912572 0.19122858 0.58200002 1.1521898e-38
-0.13825428 0.19155714 0.583 1.1614093e-38
-0.13737907 0.19188572 0.58400005 1.1796697e-38
-0.13650002 0.1922143 0.58500004 1.1981088e-38
-0.13538572 0.1922143 0.58500004 1.2075072e-38
-0.13427144 0.1922143 0.58500004 1.1614093e-38
-0.13361238 0.19287142 0.58700001 1.1521898e-38
-0.13272001 0.19319999 0.588 1.1798485e-38
-0.13159999 0.19319999 0.588 1.1891745e-38
-0.13114572 0.19418572 0.59100002 1.1891745e-38
-0.13046001 0.19484288 0.59300005 1.2075069e-38
-0.12954858 0.19517143 0.59400004 1.2167264e-38
-0.12884954 0.19582857 0.59600002 1.1982873e-38
-0.12771429 0.19582857 0.59600002 1.0692134e-38
-0.12679142 0.19615714 0.597 1.1060917e-38
-0.12628572 0.19714287 0.60000002 1.1521895e-38
-0.12535143 0.19747142 0.60100001 1.0784718e-38
-0.12441335 0.19780001 0.60200006 1.0969109e-38
-0.12347143 0.19812858 0.60300004 1.1890677e-38
-0.12293143 0.19911429 0.60600001 1.2720438e-38
-0.12177715 0.19911429 0.60600001 1.2535694e-38
-0.12062286 0.19911429 0.60600001 1.3734237e-38
-0.11946857 0.19911429 0.60600001 1.3367975e-38
-0.11850954 0.19944288 0.60700005 1.5949453e-38
-0.19615714 0.19729428 0.597 1.6316784e-38
-0.19501999 0.19729428 0.597 1.6225307e-38
-0.19323334 0.19663334 0.59500003 1.3459438e-38
-0.19177715 0.19630286 0.59400004 1.198434e-38
-0.19064572 0.19630286 0.59400004 1.0601406e-38
-0.18855715 0.19531144 0.59100002 1.0785775e-38
-0.1871143 0.19498096 0.59000003 9.8638184e-39
-0.18409906 0.1929981 0.58400005 9.309588e-39
-0.18298668 0.1929981 0.58400005 9.0330011e-39
-0.18187431 0.1929981 0.58400005 8.6652654e-39
-0.18076192 0.1929981 0.58400005 8.1120916e-39
-0.17310001 0.19068477 0.57700002 9.1244428e-39
-0.17200096 0.19068477 0.57700002 9.4932254e-39
-0.17090191 0.19068477 0.57700002 9.4932282e-39
-0.16980286 0.19068477 0.57700002 9.4010325e-39
-0.16870381 0.19068477 0.57700002 9.770178e-39
-0.16731429 0.19035429 0.57600003 9.4935911e-39
-0.16592859 0.19002381 0.57500005 9.9535183e-39
-0.16483334 0.19002381 0.57500005 1.013791e-38
-0.16373812 0.19002381 0.57500005 1.0414478e-38
-0.16264287 0.19002381 0.57500005 1.0598869e-38
-0.16154763 0.19002381 0.57500005 1.0140758e-38
-0.1604524 0.19002381 0.57500005 9.9563671e-39
-0.15935715 0.19002381 0.57500005 9.5879545e-39
-0.15826192 0.19002381 0.57500005 9.4035633e-39
-0.15744001 0.19035429 0.57600003 1.004856e-38
-0.15634286 0.19035429 0.57600003 1.0601734e-38
-0.15524572 0.19035429 0.57600003 1.0784327e-38
-0.15414858 0.19035429 0.57600003 1.0231153e-38
-0.15305144 0.19035429 0.57600003 9.7691242e-39
-0.1522181 0.19068477 0.57700002 9.6769286e-39
-0.15111905 0.19068477 0.57700002 1.0046412e-38
-0.15002 0.19068477 0.57700002 1.0322999e-38
-0.14892095 0.19068477 0.57700002 9.3106474e-39
-0.14782192 0.19068477 0.57700002 9.0340605e-39
-0.14697714 0.19101524 0.57800001 8.8503727e-39
-0.14587618 0.19101524 0.57800001 8.6659814e-39
-0.14502572 0.19134574 0.57900006 8.8503559e-39
-0.14367428 0.19101524 0.57800001 9.0347471e-39
-0.14257333 0.19101524 0.57800001 1.013861e-38
-0.14196192 0.1916762 0.58000004 1.1337153e-38
-0.14085715 0.1916762 0.58000004 1.1521892e-38
-0.14023429 0.19233716 0.58200002 1.1521892e-38
-0.13936476 0.19266762 0.583 1.1521898e-38
-0.13825428 0.19266762 0.583 1.1614093e-38
-0.13737907 0.1929981 0.58400005 1.1705583e-38
-0.13650002 0.19332857 0.58500004 1.1797778e-38
-0.13538572 0.19332857 0.58500004 1.1797766e-38
-0.13450097 0.19365905 0.58600003 1.1521179e-38
-0.13383999 0.19431999 0.588 1.1521898e-38
-0.13272001 0.19431999 0.588 1.1706289e-38
-0.13204762 0.19498096 0.59000003 1.179955e-38
-0.13136762 0.19564191 0.59200001 1.179955e-38
-0.13046001 0.19597238 0.59300005 1.1799184e-38
-0.12954858 0.19630286 0.59400004 1.1338206e-38
-0.12884954 0.19696382 0.59600002 1.0417694e-38
-0.12771429 0.19696382 0.59600002 8.3893903e-39
-0.12679142 0.19729428 0.597 9.3124467e-39
-0.12628572 0.19828573 0.60000002 1.0787577e-38
-0.12535143 0.19861619 0.60100001 1.0785444e-38
-0.12441335 0.19894667 0.60200006 1.1799596e-38
-0.12347143 0.19927715 0.60300004 1.2443854e-38
-0.12293143 0.20026857 0.60600001 1.2904832e-38
-0.12177715 0.20026857 0.60600001 1.2628974e-38
-0.12082192 0.20059906 0.60700005 1.3643126e-38
-0.11966572 0.20059906 0.60700005 1.3827505e-38
-0.11870477 0.20092954 0.60800004 1.686996e-38
-0.11754668 0.20092954 0.60800004 1.7329869e-38
-0.19501999 0.19843142 0.597 1.6409342e-38
-0.19323334 0.19776668 0.59500003 1.392006e-38
-0.19177715 0.19743429 0.59400004 1.2720814e-38
-0.19032478 0.19710192 0.59300005 1.0969097e-38
-0.18855715 0.19643715 0.59100002 1.0877973e-38
-0.1871143 0.19610478 0.59000003 1.0048212e-38
-0.18472953 0.19477524 0.58600003 9.7727214e-39
-0.18361333 0.19477524 0.58600003 9.2195476e-39
-0.18249714 0.19477524 0.58600003 8.4819629e-39
-0.18169048 0.19510762 0.58700001 8.1131804e-39
-0.17090191 0.19178382 0.57700002 8.4787203e-39
-0.16980286 0.19178382 0.57700002 9.0318941e-39
-0.16870381 0.19178382 0.57700002 9.7691088e-39
-0.16731429 0.19145145 0.57600003 9.4925219e-39
-0.16592859 0.19111906 0.57500005 9.4003445e-39
-0.16483334 0.19111906 0.57500005 9.769127e-39
-0.16373812 0.19111906 0.57500005 9.8616702e-39
-0.16292572 0.19145145 0.57600003 1.050704e-38
-0.16182858 0.19145145 0.57600003 1.0232604e-38
-0.16073143 0.19145145 0.57600003 9.6794299e-39
-0.15963429 0.19145145 0.57600003 9.2195223e-39
-0.15853715 0.19145145 0.57600003 9.311718e-39
-0.15744001 0.19145145 0.57600003 9.7716227e-39
-0.15661429 0.19178382 0.57700002 9.7716227e-39
-0.15551524 0.19178382 0.57700002 9.8620205e-39
-0.1544162 0.19178382 0.57700002 9.8620205e-39
-0.15331714 0.19178382 0.57700002 9.5850833e-39
-0.1524819 0.19211619 0.57800001 9.5850833e-39
-0.15138094 0.19211619 0.57800001 9.3106446e-39
-0.15028 0.19211619 0.57800001 8.9418621e-39
-0.14917904 0.19211619 0.57800001 8.6663514e-39
-0.1480781 0.19211619 0.57800001 8.6663514e-39
-0.14723144 0.19244859 0.57900006 8.1120888e-39
-0.14612858 0.19244859 0.57900006 8.4808713e-39
-0.1452762 0.19278096 0.58000004 8.6641696e-39
-0.14417143 0.19278096 0.58000004 9.5861258e-39
-0.14331333 0.19311334 0.58100003 1.0597418e-38
-0.14196192 0.19278096 0.58000004 1.1703765e-38
-0.14085715 0.19278096 0.58000004 1.1244592e-38
-0.14047524 0.19377808 0.583 1.1244592e-38
-0.13960382 0.1941105 0.58400005 1.1152399e-38
-0.13849144 0.1941105 0.58400005 1.1613377e-38
-0.13761429 0.19444287 0.58500004 1.1704501e-38
-0.13673334 0.19477524 0.58600003 1.1888892e-38
-0.13561715 0.19477524 0.58600003 1.1889236e-38
-0.13473049 0.19510762 0.58700001 1.1889236e-38
-0.13383999 0.19544001 0.588 1.1798116e-38
-0.13294573 0.19577239 0.58900005 1.1798116e-38
-0.13227144 0.19643715 0.59100002 1.1983592e-38
-0.13158953 0.19710192 0.59300005 1.1799201e-38
-0.13068001 0.19743429 0.59400004 1.1615888e-38
-0.12976667 0.19776668 0.59500003 1.0970519e-38
-0.12884954 0.19809906 0.59600002 9.5893895e-39
-0.12792857 0.19843142 0.597 8.4830419e-39
-0.12700382 0.19876382 0.59800005 9.1287645e-39
-0.12607525 0.1990962 0.59900004 1.0050721e-38
-0.12535143 0.19976096 0.60100001 1.0509207e-38
-0.12462001 0.20042573 0.60300004 1.1892142e-38
-0.12347143 0.20042573 0.60300004 1.2259826e-38
-0.12293143 0.20142286 0.60600001 1.2813e-38
-0.12177715 0.20142286 0.60600001 1.2628974e-38
-0.12082192 0.20175526 0.60700005 1.272117e-38
-0.11966572 0.20175526 0.60700005 1.4378869e-38
-0.11850954 0.20175526 0.60700005 1.7329129e-38
-0.19469334 0.19923428 0.59600002 1.6316781e-38
-0.19323334 0.19890001 0.59500003 1.4380673e-38
-0.19177715 0.19856574 0.59400004 1.2905205e-38
-0.19032478 0.19823144 0.59300005 1.0600314e-38
-0.1888762 0.19789715 0.59200001 1.0417362e-38
-0.1871143 0.19722858 0.59000003 9.9563839e-39
-0.18504475 0.19622572 0.58700001 9.8645414e-39
-0.18392667 0.19622572 0.58700001 9.8645414e-39
-0.18280858 0.19622572 0.58700001 9.3106474e-39
-0.17792572 0.1945543 0.58200002 8.9422124e-39
-0.17681715 0.1945543 0.58200002 8.7578239e-39
-0.17289524 0.19388573 0.58000004 7.4667152e-39
-0.1717905 0.19388573 0.58000004 7.9270067e-39
-0.17009714 0.19321714 0.57800001 8.0192023e-39
-0.16899619 0.19321714 0.57800001 8.2021334e-39
-0.16731429 0.19254857 0.57600003 8.3865247e-39
-0.16621715 0.19254857 0.57600003 8.1106917e-39
-0.16512001 0.19254857 0.57600003 8.1106917e-39
-0.16430762 0.19288287 0.57700002 8.2028873e-39
-0.16320857 0.19288287 0.57700002 8.8482567e-39
-0.16182858 0.19254857 0.57600003 8.5723607e-39
-0.16073143 0.19254857 0.57600003 7.8347956e-39
-0.15963429 0.19254857 0.57600003 8.2049865e-39
-0.15853715 0.19254857 0.57600003 9.1269428e-39
-0.15744001 0.19254857 0.57600003 8.4812539e-39
-0.15661429 0.19288287 0.57700002 8.1124713e-39
-0.15551524 0.19288287 0.57700002 8.3886757e-39
-0.1544162 0.19288287 0.57700002 8.4808713e-39
-0.15331714 0.19288287 0.57700002 8.6627767e-39
-0.1524819 0.19321714 0.57800001 8.4783854e-39
-0.15138094 0.19321714 0.57800001 8.2039313e-39
-0.15028 0.19321714 0.57800001 8.01954e-39
-0.14943716 0.19355145 0.57900006 9.0351367e-39
-0.14833431 0.19355145 0.57900006 9.1273323e-39
-0.14723144 0.19355145 0.57900006 8.7581939e-39
-0.14638096 0.19388573 0.58000004 8.6659982e-39
-0.1452762 0.19388573 0.58000004 9.5850833e-39
-0.14417143 0.19388573 0.58000004 1.0875822e-38
-0.14331333 0.19422001 0.58100003 1.1244578e-38
-0.14220667 0.19422001 0.58100003 1.1428969e-38
-0.14110002 0.19422001 0.58100003 1.1428623e-38
-0.1407162 0.19522288 0.58400005 1.1428623e-38
-0.13960382 0.19522288 0.58400005 1.1520463e-38
-0.13849144 0.19522288 0.58400005 1.179705e-38
-0.13761429 0.19555715 0.58500004 1.1797766e-38
-0.13673334 0.19589143 0.58600003 1.1797766e-38
-0.13561715 0.19589143 0.58600003 1.1705923e-38
-0.13473049 0.19622572 0.58700001 1.1705923e-38
-0.13383999 0.19656 0.588 1.1429334e-38
-0.13294573 0.1968943 0.58900005 1.0968355e-38
-0.13227144 0.19756286 0.59100002 1.0416992e-38
-0.13158953 0.19823144 0.59300005 9.7716227e-39
-0.13090001 0.19890001 0.59500003 9.6801502e-39
-0.12976667 0.19890001 0.59500003 9.6801502e-39
-0.12906571 0.19956857 0.597 9.5879545e-39
-0.12792857 0.19956857 0.597 8.7581939e-39
-0.12700382 0.19990286 0.59800005 9.4039136e-39
-0.12607525 0.20023715 0.59900004 1.1155631e-38
-0.12535143 0.20090571 0.60100001 1.1524066e-38
-0.12462001 0.2015743 0.60300004 1.1892848e-38
-0.12367619 0.20190859 0.60400003 1.2259475e-38
-0.12293143 0.20257714 0.60600001 1.3181432e-38
-0.12177715 0.20257714 0.60600001 1.272117e-38
-0.12082192 0.20291145 0.60700005 1.2444583e-38
-0.11966572 0.20291145 0.60700005 1.3918967e-38
-0.11850954 0.20291145 0.60700005 1.7330206e-38
-0.19469334 0.20036952 0.59600002 1.6408979e-38
-0.19323334 0.20003334 0.59500003 1.4472871e-38
-0.19177715 0.19969717 0.59400004 1.3458729e-38
-0.19064572 0.19969717 0.59400004 1.1246034e-38
-0.18919525 0.19936098 0.59300005 1.0877973e-38
-0.18743144 0.19868857 0.59100002 9.402843e-39
-0.18536 0.19768 0.588 9.4946855e-39
-0.18392667 0.19734381 0.58700001 9.4946855e-39
-0.18280858 0.19734381 0.58700001 9.677632e-39
-0.17792572 0.19566286 0.58200002 9.309197e-39
-0.17681715 0.19566286 0.58200002 8.6670828e-39
-0.17570858 0.19566286 0.58200002 8.390496e-39
-0.17460001 0.19566286 0.58200002 7.8373068e-39
-0.17289524 0.1949905 0.58000004 7.4685242e-39
-0.1717905 0.1949905 0.58000004 7.7436944e-39
-0.17068572 0.1949905 0.58000004 7.8358901e-39
-0.16928859 0.1946543 0.57900006 7.9255493e-39
-0.16789524 0.19431809 0.57800001 8.2943319e-39
-0.16650572 0.19398192 0.57700002 8.0188492e-39
-0.16540667 0.19398192 0.57700002 8.0188492e-39
-0.16430762 0.19398192 0.57700002 7.7436944e-39
-0.16320857 0.19398192 0.57700002 7.7436944e-39
-0.16210954 0.19398192 0.57700002 7.9284332e-39
-0.16073143 0.19364573 0.57600003 7.8362376e-39
-0.15963429 0.19364573 0.57600003 8.1127908e-39
-0.15881239 0.19398192 0.57700002 8.9425515e-39
-0.15771332 0.19398192 0.57700002 8.2983003e-39
-0.15661429 0.19398192 0.57700002 7.9295178e-39
-0.15551524 0.19398192 0.57700002 7.6514624e-39
-0.15468381 0.19431809 0.57800001 8.2968318e-39
-0.15358287 0.19431809 0.57800001 8.7549499e-39
-0.15274572 0.1946543 0.57900006 8.7549499e-39
-0.15164287 0.1946543 0.57900006 8.8500196e-39
-0.15054001 0.1946543 0.57900006 8.8500196e-39
-0.14943716 0.1946543 0.57900006 9.2202566e-39
-0.14833431 0.1946543 0.57900006 9.128061e-39
-0.14748573 0.1949905 0.58000004 9.1269764e-39
-0.14663334 0.19532669 0.58100003 9.4035633e-39
-0.14552668 0.19532669 0.58100003 1.0322999e-38
-0.14442 0.19532669 0.58100003 1.0876172e-38
-0.14331333 0.19532669 0.58100003 1.1520819e-38
-0.14245144 0.19566286 0.58200002 1.1520819e-38
-0.14158572 0.19599904 0.583 1.1428986e-38
-0.1407162 0.19633526 0.58400005 1.1613377e-38
-0.13960382 0.19633526 0.58400005 1.198216e-38
-0.13849144 0.19633526 0.58400005 1.1889964e-38
-0.13761429 0.19667144 0.58500004 1.1890324e-38
-0.13673334 0.19700761 0.58600003 1.1613737e-38
-0.13584858 0.19734381 0.58700001 1.1706289e-38
-0.13496 0.19768 0.588 1.1521898e-38
-0.13406762 0.19801621 0.58900005 1.1246027e-38
-0.13317142 0.19835238 0.59000003 1.0692853e-38
-0.13227144 0.19868857 0.59100002 1.0140405e-38
-0.13158953 0.19936098 0.59300005 9.5872315e-39
-0.13090001 0.20003334 0.59500003 9.4957589e-39
-0.12998477 0.20036952 0.59600002 9.5879545e-39
-0.12906571 0.20070571 0.597 9.6801502e-39
-0.12814288 0.20104192 0.59800005 9.4035633e-39
-0.12700382 0.20104192 0.59800005 1.0508092e-38
-0.12607525 0.20137809 0.59900004 1.2259809e-38
-0.12535143 0.20205048 0.60100001 1.2444217e-38
-0.12462001 0.20272286 0.60300004 1.2444217e-38
-0.12367619 0.20305905 0.60400003 1.2628605e-38
-0.12293143 0.20373143 0.60600001 1.3089584e-38
-0.12177715 0.20373143 0.60600001 1.2813716e-38
-0.12082192 0.20406763 0.60700005 1.2537129e-38
-0.11966572 0.20406763 0.60700005 1.3551278e-38
-0.19323334 0.20116667 0.59500003 1.4840935e-38
-0.19210002 0.20116667 0.59500003 1.3826423e-38
-0.19064572 0.20082858 0.59400004 1.1798119e-38
-0.18951431 0.20082858 0.59400004 1.0508837e-38
-0.18774857 0.20015238 0.59200001 8.9415117e-39
-0.18567525 0.1991381 0.58900005 9.033727e-39
-0.18392667 0.19846191 0.58700001 9.033727e-39
-0.18280858 0.19846191 0.58700001 9.218449e-39
-0.18138096 0.19812383 0.58600003 9.1262533e-39
-0.17964955 0.19744764 0.58400005 9.309539e-39
-0.17823143 0.19710952 0.583 8.9407564e-39
-0.17681715 0.19677143 0.58200002 8.9411614e-39
-0.17570858 0.19677143 0.58200002 9.1255527e-39
-0.17460001 0.19677143 0.58200002 8.2043166e-39
-0.17289524 0.19609524 0.58000004 8.0199254e-39
-0.1717905 0.19609524 0.58000004 8.5730992e-39
-0.17068572 0.19609524 0.58000004 8.6652948e-39
-0.16928859 0.19575715 0.57900006 8.295792e-39
-0.16818573 0.19575715 0.57900006 7.8348139e-39
-0.16679429 0.19541904 0.57800001 7.8351838e-39
-0.16569333 0.19541904 0.57800001 8.2039663e-39
-0.16487716 0.19575715 0.57900006 7.8366159e-39
-0.16349143 0.19541904 0.57800001 7.6522247e-39
-0.16210954 0.19508095 0.57700002 7.9284332e-39
-0.16101047 0.19508095 0.57700002 8.0206288e-39
-0.15991144 0.19508095 0.57700002 8.480521e-39
-0.15881239 0.19508095 0.57700002 9.1258904e-39
-0.15798667 0.19541904 0.57800001 8.8500364e-39
-0.15688571 0.19541904 0.57800001 8.3890582e-39
-0.15578477 0.19541904 0.57800001 8.5727292e-39
-0.15468381 0.19541904 0.57800001 9.125903e-39
-0.15358287 0.19541904 0.57800001 9.4013983e-39
-0.15274572 0.19575715 0.57900006 9.4935939e-39
-0.15164287 0.19575715 0.57900006 9.5875846e-39
-0.15054001 0.19575715 0.57900006 9.6797802e-39
-0.14943716 0.19575715 0.57900006 9.863468e-39
-0.14833431 0.19575715 0.57900006 9.9556637e-39
-0.14748573 0.19609524 0.58000004 9.8638184e-39
-0.14663334 0.19643334 0.58100003 1.004821e-38
-0.14552668 0.19643334 0.58100003 1.050739e-38
-0.14442 0.19643334 0.58100003 1.0783977e-38
-0.14356001 0.19677143 0.58200002 1.1428623e-38
-0.14245144 0.19677143 0.58200002 1.1520819e-38
-0.14182858 0.19744764 0.58400005 1.1520829e-38
-0.1407162 0.19744764 0.58400005 1.1613024e-38
-0.13984287 0.19778574 0.58500004 1.1336437e-38
-0.13872857 0.19778574 0.58500004 1.1152046e-38
-0.13784952 0.19812383 0.58600003 1.1614093e-38
-0.1372 0.1988 0.588 1.1337507e-38
-0.13631144 0.1991381 0.58900005 1.1153831e-38
-0.13518953 0.1991381 0.58900005 9.8630925e-39
-0.13406762 0.1991381 0.58900005 9.2177483e-39
-0.13317142 0.1994762 0.59000003 8.3879876e-39
-0.13249524 0.20015238 0.59200001 8.2057263e-39
-0.13158953 0.20049049 0.59300005 8.1135307e-39
-0.13090001 0.20116667 0.59500003 8.5734495e-39
-0.12998477 0.20150477 0.59600002 9.5876014e-39
-0.12906571 0.20184286 0.597 1.0232601e-38
-0.12814288 0.20218097 0.59800005 1.152334e-38
-0.12721621 0.20251906 0.59900004 1.2075418e-38
-0.12628572 0.20285715 0.60000002 1.2628591e-38
-0.12535143 0.20319524 0.60100001 1.25364e-38
-0.12462001 0.20387144 0.60300004 1.2812987e-38
-0.12347143 0.20387144 0.60300004 1.2721151e-38
-0.12252572 0.20420954 0.60400003 1.2997738e-38
-0.12177715 0.20488572 0.60600001 1.2813353e-38
-0.12062286 0.20488572 0.60600001 1.244457e-38
-0.19323334 0.20230001 0.59500003 1.4840222e-38
-0.19210002 0.20230001 0.59500003 1.3918981e-38
-0.19064572 0.20196001 0.59400004 1.1706286e-38
-0.18951431 0.20196001 0.59400004 1.0232971e-38
-0.18806574 0.20162001 0.59300005 8.8500364e-39
-0.18599048 0.2006 0.59000003 9.0330011e-39
-0.18424 0.19992 0.588 8.9408055e-39
-0.18280858 0.19958 0.58700001 8.5723607e-39
-0.18138096 0.19924001 0.58600003 9.0333388e-39
-0.17964955 0.19856001 0.58400005 8.9422012e-39
-0.17823143 0.19822 0.583 8.6656143e-39
-0.17712095 0.19822 0.583 9.1237394e-39
-0.17570858 0.19788 0.58200002 9.215935e-39
-0.17460001 0.19788 0.58200002 8.6652752e-39
-0.17349143 0.19788 0.58200002 8.8496664e-39
-0.17238286 0.19788 0.58200002 8.942232e-39
-0.17068572 0.19720002 0.58000004 8.8500364e-39
-0.16958097 0.19720002 0.58000004 8.6656451e-39
-0.16847619 0.19720002 0.58000004 8.4812539e-39
-0.16766001 0.19754 0.58100003 8.3887079e-39
-0.16655335 0.19754 0.58100003 8.4809035e-39
-0.16516192 0.19720002 0.58000004 8.6663738e-39
-0.1637743 0.19686002 0.57900006 8.4819825e-39
-0.16239049 0.19652 0.57800001 8.3897617e-39
-0.16128953 0.19652 0.57800001 8.4819573e-39
-0.16018857 0.19652 0.57800001 8.4808741e-39
-0.15936287 0.19686002 0.57900006 9.1262435e-39
-0.15826002 0.19686002 0.57900006 9.1262561e-39
-0.15715715 0.19686002 0.57900006 8.9418649e-39
-0.15605429 0.19686002 0.57900006 8.7574736e-39
-0.15495145 0.19686002 0.57900006 9.1262561e-39
-0.15384859 0.19686002 0.57900006 9.4013983e-39
-0.15274572 0.19686002 0.57900006 9.8623764e-39
-0.15164287 0.19686002 0.57900006 1.0138961e-38
-0.1508 0.19720002 0.58000004 1.0231156e-38
-0.14969525 0.19720002 0.58000004 1.0230453e-38
-0.14859048 0.19720002 0.58000004 1.0046061e-38
-0.14748573 0.19720002 0.58000004 1.0138961e-38
-0.14663334 0.19754 0.58100003 1.0138961e-38
-0.14577715 0.19788 0.58200002 1.1060554e-38
-0.14491713 0.19822 0.583 1.115275e-38
-0.14405334 0.19856001 0.58400005 1.1244229e-38
-0.14294097 0.19856001 0.58400005 1.1520816e-38
-0.14207143 0.19890001 0.58500004 1.1428633e-38
-0.14095715 0.19890001 0.58500004 1.1613024e-38
-0.13984287 0.19890001 0.58500004 1.1152759e-38
-0.13896571 0.19924001 0.58600003 1.1060564e-38
-0.13808475 0.19958 0.58700001 1.1613737e-38
-0.1372 0.19992 0.588 1.1244955e-38
-0.13631144 0.20026001 0.58900005 1.0693579e-38
-0.13518953 0.20026001 0.58900005 9.3106446e-39
-0.13406762 0.20026001 0.58900005 8.5748816e-39
-0.13317142 0.2006 0.59000003 8.2060991e-39
-0.13249524 0.20128001 0.59200001 8.481223e-39
-0.13181144 0.20196001 0.59400004 8.3890274e-39
-0.13112001 0.20264 0.59600002 8.6649094e-39
-0.13020286 0.20298 0.597 9.9556483e-39
-0.12928192 0.20332003 0.59800005 1.1059827e-38
-0.12814288 0.20332003 0.59800005 1.2350565e-38
-0.12721621 0.20366001 0.59900004 1.2259457e-38
-0.12607525 0.20366001 0.59900004 1.2536044e-38
-0.12535143 0.20434001 0.60100001 1.189104e-38
-0.12462001 0.20502001 0.60300004 1.2259823e-38
-0.12347143 0.20502001 0.60300004 1.2260176e-38
-0.12252572 0.20536001 0.60400003 1.281335e-38
-0.12177715 0.20603999 0.60600001 1.2354527e-38
-0.12062286 0.20603999 0.60600001 1.1985744e-38
-0.19323334 0.20343333 0.59500003 1.2997374e-38
-0.19210002 0.20343333 0.59500003 1.2997014e-38
-0.19096668 0.20343333 0.59500003 1.1890666e-38
-0.18951431 0.20309144 0.59400004 1.0692522e-38
-0.18774857 0.20240761 0.59200001 9.6783705e-39
-0.18599048 0.20172381 0.59000003 9.309588e-39
-0.18424 0.20104 0.588 8.8486099e-39
-0.18280858 0.20069809 0.58700001 8.4812539e-39
-0.18138096 0.2003562 0.58600003 8.5734495e-39
-0.17995715 0.20001429 0.58500004 8.6649094e-39
-0.17853716 0.1996724 0.58400005 8.2961269e-39
-0.17712095 0.19933046 0.583 8.2961395e-39
-0.17601047 0.19933046 0.583 8.5727264e-39
-0.17460001 0.19898857 0.58200002 8.6645563e-39
-0.17349143 0.19898857 0.58200002 8.6645563e-39
-0.17267905 0.19933046 0.583 8.5745061e-39
-0.17127429 0.19898857 0.58200002 8.5745061e-39
-0.17016572 0.19898857 0.58200002 8.5741529e-39
-0.16905715 0.19898857 0.58200002 8.5741529e-39
-0.16766001 0.19864668 0.58100003 8.4819629e-39
-0.16655335 0.19864668 0.58100003 8.4819629e-39
-0.16516192 0.19830477 0.58000004 8.8514685e-39
-0.16405715 0.19830477 0.58000004 9.0358598e-39
-0.16239049 0.19762094 0.57800001 8.8514447e-39
-0.16128953 0.19762094 0.57800001 8.9436403e-39
-0.16046573 0.19796288 0.57900006 9.2169902e-39
-0.15963811 0.19830477 0.58000004 9.1247946e-39
-0.15826002 0.19796288 0.57900006 9.3084838e-39
-0.15715715 0.19796288 0.57900006 9.4006794e-39
-0.15605429 0.19796288 0.57900006 9.2162882e-39
-0.15495145 0.19796288 0.57900006 9.4006794e-39
-0.15411429 0.19830477 0.58000004 9.4935883e-39
-0.15300953 0.19830477 0.58000004 9.8623708e-39
-0.15190478 0.19830477 0.58000004 1.0138958e-38
-0.1508 0.19830477 0.58000004 9.9545665e-39
-0.14969525 0.19830477 0.58000004 9.7698277e-39
-0.14859048 0.19830477 0.58000004 9.3088495e-39
-0.14774001 0.19864668 0.58100003 9.6776292e-39
-0.14663334 0.19864668 0.58100003 9.9542161e-39
-0.14577715 0.19898857 0.58200002 1.0876865e-38
-0.14466858 0.19898857 0.58200002 1.1153452e-38
-0.14405334 0.1996724 0.58400005 1.1244226e-38
-0.14294097 0.1996724 0.58400005 1.1336422e-38
-0.14207143 0.20001429 0.58500004 1.1428267e-38
