# .PCD v0.7 - Point Cloud Data file format
VERSION 0.7
FIELDS x y z rgb
SIZE 4 4 4 4
TYPE F F F F
COUNT 1 1 1 1
WIDTH 1009
HEIGHT 1
VIEWPOINT 0 0 0 1 0 0 0
POINTS 1009
DATA ascii
-0.14590572 0.10534 0.68700004 1.871352e-38
-0.14396572 0.10488 0.68400002 1.6408629e-38
-0.14266287 0.10488 0.68400002 1.6039118e-38
-0.14115334 0.10472667 0.68300003 1.5301553e-38
-0.13964762 0.10457334 0.68200004 1.5393032e-38
-0.13774 0.10411333 0.67900002 1.5208641e-38
-0.13584383 0.10365334 0.67600006 1.5209007e-38
-0.13435714 0.1035 0.67500001 1.4194855e-38
-0.1328743 0.10334668 0.67400002 1.3917186e-38
-0.1312 0.10304001 0.67200005 1.3917186e-38
-0.12992002 0.10304001 0.67200005 1.3272533e-38
-0.12864001 0.10304001 0.67200005 1.2995946e-38
-0.12717049 0.10288666 0.671 1.3364366e-38
-0.12570477 0.10273334 0.67000002 1.327217e-38
-0.12442858 0.10273334 0.67000002 1.3177816e-38
-0.12278477 0.10242667 0.66800004 1.2440251e-38
-0.12151238 0.10242667 0.66800004 1.1790576e-38
-0.12024 0.10242667 0.66800004 9.6700762e-39
-0.11896762 0.10242667 0.66800004 9.7568348e-39
-0.11769524 0.10242667 0.66800004 1.0033422e-38
-0.11642287 0.10242667 0.66800004 1.0033803e-38
-0.11515048 0.10242667 0.66800004 9.9416072e-39
-0.1138781 0.10242667 0.66800004 1.0125581e-38
-0.11260572 0.10242667 0.66800004 1.0770942e-38
-0.11133334 0.10242667 0.66800004 1.0403957e-38
-0.11006096 0.10242667 0.66800004 1.1510299e-38
-0.10878857 0.10242667 0.66800004 1.0960053e-38
-0.10751619 0.10242667 0.66800004 1.1421031e-38
-0.10624382 0.10242667 0.66800004 1.1329934e-38
-0.10497144 0.10242667 0.66800004 1.2067499e-38
-0.10369906 0.10242667 0.66800004 1.2164369e-38
-0.10273334 0.10273334 0.67000002 1.2901934e-38
-0.10115429 0.10242667 0.66800004 1.2810802e-38
-0.09988191 0.10242667 0.66800004 1.3087389e-38
-0.098904766 0.10273334 0.67000002 1.2811541e-38
-0.097628571 0.10273334 0.67000002 1.2719345e-38
-0.096352383 0.10273334 0.67000002 1.2351642e-38
-0.095076188 0.10273334 0.67000002 1.2443837e-38
-0.093800001 0.10273334 0.67000002 1.2811192e-38
-0.092523813 0.10273334 0.67000002 1.2718996e-38
-0.091383815 0.10288666 0.671 1.2994843e-38
-0.090240002 0.10304001 0.67200005 1.3087039e-38
-0.088960007 0.10304001 0.67200005 1.290409e-38
-0.087680012 0.10304001 0.67200005 1.2996285e-38
-0.086657144 0.10334668 0.67400002 1.3179621e-38
-0.085626669 0.10365334 0.67600006 1.2903034e-38
-0.084588572 0.10396 0.67800003 1.2811189e-38
-0.083420001 0.10411333 0.67900002 1.2626798e-38
-0.082247622 0.10426667 0.68000001 1.1614103e-38
-0.081190482 0.10457334 0.68200004 8.4794518e-39
-0.079891428 0.10457334 0.68200004 7.4681711e-39
-0.078592382 0.10457334 0.68200004 5.7164542e-39
-0.077406667 0.10472667 0.68300003 6.9095813e-39
-0.076105714 0.10472667 0.68300003 7.2783638e-39
-0.074804768 0.10472667 0.68300003 8.47837e-39
-0.1461181 0.10680381 0.68800002 1.9542196e-38
-0.14438668 0.10649334 0.68600005 1.7513892e-38
-0.14266287 0.10618286 0.68400002 1.6131662e-38
-0.14115334 0.10602762 0.68300003 1.5301902e-38
-0.13985237 0.10602762 0.68300003 1.5576705e-38
-0.13834858 0.10587239 0.68200004 1.4746944e-38
-0.13624573 0.10525143 0.67800003 1.4931691e-38
-0.1345562 0.10494096 0.67600006 1.4286322e-38
-0.1328743 0.10463049 0.67400002 1.382607e-38
-0.13159047 0.10463049 0.67400002 1.3733874e-38
-0.12992002 0.10432001 0.67200005 1.4009358e-38
-0.12864001 0.10432001 0.67200005 1.3456184e-38
-0.12717049 0.10416476 0.671 1.3546232e-38
-0.12589237 0.10416476 0.671 1.2163297e-38
-0.12442858 0.10400952 0.67000002 1.0959726e-38
-0.12315238 0.10400952 0.67000002 7.9172705e-39
-0.12151238 0.10369906 0.66800004 8.8345548e-39
-0.12024 0.10369906 0.66800004 8.6501636e-39
-0.11896762 0.10369906 0.66800004 9.0192852e-39
-0.11769524 0.10369906 0.66800004 1.0125633e-38
-0.11642287 0.10369906 0.66800004 1.0310401e-38
-0.11515048 0.10369906 0.66800004 1.1324553e-38
-0.1138781 0.10369906 0.66800004 1.2251107e-38
-0.11260572 0.10369906 0.66800004 1.2343302e-38
-0.11133334 0.10369906 0.66800004 1.2714953e-38
-0.11006096 0.10369906 0.66800004 1.3268127e-38
-0.10878857 0.10369906 0.66800004 1.3083473e-38
-0.10751619 0.10369906 0.66800004 1.3175668e-38
-0.10624382 0.10369906 0.66800004 1.3085268e-38
-0.10497144 0.10369906 0.66800004 1.3822833e-38
-0.10369906 0.10369906 0.66800004 1.2810839e-38
-0.10273334 0.10400952 0.67000002 1.2626447e-38
-0.10145715 0.10400952 0.67000002 1.26275e-38
-0.10018095 0.10400952 0.67000002 1.2719695e-38
-0.098904766 0.10400952 0.67000002 1.2719345e-38
-0.09777429 0.10416476 0.671 1.262715e-38
-0.096496187 0.10416476 0.671 1.2536023e-38
-0.0952181 0.10416476 0.671 1.2628219e-38
-0.093939997 0.10416476 0.671 1.1798119e-38
-0.092661902 0.10416476 0.671 9.8620107e-39
-0.091520004 0.10432001 0.67200005 1.2165799e-38
-0.090240002 0.10432001 0.67200005 1.3087755e-38
-0.088960007 0.10432001 0.67200005 1.2995194e-38
-0.087940954 0.10463049 0.67400002 1.244202e-38
-0.086785711 0.10478572 0.67500001 1.0690352e-38
-0.085626669 0.10494096 0.67600006 9.7683955e-39
-0.08471334 0.10540666 0.67900002 8.570539e-39
-0.083542861 0.1055619 0.68000001 8.9393215e-39
-0.082247622 0.1055619 0.68000001 8.2046361e-39
-0.081190482 0.10587239 0.68200004 4.6090066e-39
-0.079891428 0.10587239 0.68200004 4.8863684e-39
-0.078592382 0.10587239 0.68200004 4.978564e-39
-0.077406667 0.10602762 0.68300003 7.3745237e-39
-0.076217145 0.10618286 0.68400002 7.7433063e-39
-0.074914292 0.10618286 0.68400002 7.9269913e-39
-0.14654286 0.10842858 0.69000006 1.9542199e-38
-0.14459716 0.10795715 0.68700004 1.760609e-38
-0.14308001 0.10780001 0.68600005 1.6315342e-38
-0.14136 0.10748571 0.68400002 1.5393386e-38
-0.13985237 0.10732858 0.68300003 1.5761099e-38
-0.13855143 0.10732858 0.68300003 1.5023534e-38
-0.13644667 0.1067 0.67900002 1.5022808e-38
-0.13495429 0.10654286 0.67800003 1.4377439e-38
-0.13307144 0.10607143 0.67500001 1.3918262e-38
-0.13159047 0.10591429 0.67400002 1.3733871e-38
-0.13030668 0.10591429 0.67400002 1.4192687e-38
-0.12864001 0.10560001 0.67200005 1.3178535e-38
-0.12736002 0.10560001 0.67200005 1.3912496e-38
-0.12589237 0.10544286 0.671 1.0593453e-38
-0.12461428 0.10544286 0.671 1.0678794e-38
-0.12315238 0.10528572 0.67000002 8.7426857e-39
-0.12187619 0.10528572 0.67000002 9.2025975e-39
-0.12024 0.10497144 0.66800004 9.2947931e-39
-0.11896762 0.10497144 0.66800004 8.928156e-39
-0.11769524 0.10497144 0.66800004 1.0126699e-38
-0.11642287 0.10497144 0.66800004 1.049624e-38
-0.11549524 0.10528572 0.67000002 1.1141609e-38
-0.1138781 0.10497144 0.66800004 1.2527404e-38
-0.11260572 0.10497144 0.66800004 1.2250817e-38
-0.11133334 0.10497144 0.66800004 1.2531694e-38
-0.11006096 0.10497144 0.66800004 1.3084868e-38
-0.10878857 0.10497144 0.66800004 1.2349858e-38
-0.10783809 0.10528572 0.67000002 1.271864e-38
-0.10624382 0.10497144 0.66800004 1.2627166e-38
-0.10497144 0.10497144 0.66800004 1.2627166e-38
-0.10400952 0.10528572 0.67000002 1.2443132e-38
-0.10273334 0.10528572 0.67000002 1.2443132e-38
-0.10145715 0.10528572 0.67000002 1.2627517e-38
-0.10018095 0.10528572 0.67000002 1.2627517e-38
-0.098904766 0.10528572 0.67000002 1.2442769e-38
-0.09777429 0.10544286 0.671 1.2719356e-38
-0.096496187 0.10544286 0.671 1.2995949e-38
-0.0952181 0.10544286 0.671 1.2534971e-38
-0.093939997 0.10544286 0.671 1.096907e-38
-0.092800006 0.10560001 0.67200005 9.0329619e-39
-0.091520004 0.10560001 0.67200005 1.0136769e-38
-0.090508573 0.10591429 0.67400002 1.3179225e-38
-0.089224763 0.10591429 0.67400002 1.2443138e-38
-0.088071428 0.10607143 0.67500001 1.1521182e-38
-0.086914293 0.10622858 0.67600006 8.3912092e-39
-0.085880004 0.10654286 0.67800003 6.9160791e-39
-0.0848381 0.10685714 0.68000001 5.9929948e-39
-0.083542861 0.10685714 0.68000001 7.929103e-39
-0.082247622 0.10685714 0.68000001 7.9298555e-39
-0.081190482 0.10717143 0.68200004 4.5186172e-39
-0.079891428 0.10717143 0.68200004 6.4543723e-39
-0.078707621 0.10732858 0.68300003 5.4402204e-39
-0.077406667 0.10732858 0.68300003 8.0180981e-39
-0.076105714 0.10732858 0.68300003 8.0180981e-39
-0.076338097 0.10952857 0.69700003 7.6511134e-39
-0.14675523 0.10990191 0.69100004 1.9450356e-38
-0.14522858 0.10974286 0.69000006 1.7698639e-38
-0.14308001 0.10910667 0.68600005 1.6314636e-38
-0.14177334 0.10910667 0.68600005 1.5392679e-38
-0.14005713 0.10878857 0.68400002 1.5761102e-38
-0.13855143 0.10862952 0.68300003 1.5023537e-38
-0.13704953 0.10847048 0.68200004 1.502316e-38
-0.13515334 0.10799333 0.67900002 1.4469986e-38
-0.13366286 0.10783429 0.67800003 1.4102291e-38
-0.13178571 0.10735714 0.67500001 1.3825704e-38
-0.1305 0.10735714 0.67500001 1.4192317e-38
-0.12902285 0.1071981 0.67400002 1.2624992e-38
-0.12736002 0.10688 0.67200005 1.2713234e-38
-0.12608001 0.10688 0.67200005 8.011257e-39
-0.1248 0.10688 0.67200005 9.0193146e-39
-0.12315238 0.10656191 0.67000002 9.0193146e-39
-0.12187619 0.10656191 0.67000002 9.5721227e-39
-0.12024 0.10624382 0.66800004 1.1692622e-38
-0.11896762 0.10624382 0.66800004 1.0316854e-38
-0.11769524 0.10624382 0.66800004 1.0132463e-38
-0.11642287 0.10624382 0.66800004 8.7513724e-39
-0.11549524 0.10656191 0.67000002 8.843568e-39
-0.11421905 0.10656191 0.67000002 8.2929123e-39
-0.11260572 0.10624382 0.66800004 7.8319342e-39
-0.11133334 0.10624382 0.66800004 9.7669172e-39
-0.11006096 0.10624382 0.66800004 1.3270351e-38
-0.10911428 0.10656191 0.67000002 1.3178165e-38
-0.10783809 0.10656191 0.67000002 1.308597e-38
-0.10656191 0.10656191 0.67000002 1.2811192e-38
-0.10528572 0.10656191 0.67000002 1.2811192e-38
-0.10400952 0.10656191 0.67000002 1.2810839e-38
-0.10273334 0.10656191 0.67000002 1.2718643e-38
-0.10145715 0.10656191 0.67000002 1.2811192e-38
-0.10018095 0.10656191 0.67000002 1.2995583e-38
-0.098904766 0.10656191 0.67000002 1.2719006e-38
-0.09777429 0.10672095 0.671 1.2719006e-38
-0.096496187 0.10672095 0.671 1.2534965e-38
-0.0952181 0.10672095 0.671 1.0137879e-38
-0.093939997 0.10672095 0.671 8.7552862e-39
-0.092800006 0.10688 0.67200005 3.5923463e-39
-0.091792382 0.1071981 0.67400002 4.96952e-39
-0.090508573 0.1071981 0.67400002 9.8558884e-39
-0.089357145 0.10735714 0.67500001 7.2741067e-39
-0.08820191 0.1075162 0.67600006 4.2316509e-39
-0.087171435 0.10783429 0.67800003 6.8184395e-39
-0.086006664 0.10799333 0.67900002 7.0028307e-39
-0.0848381 0.10815237 0.68000001 7.0972236e-39
-0.083542861 0.10815237 0.68000001 8.2957668e-39
-0.082489528 0.10847048 0.68200004 7.5614219e-39
-0.081190482 0.10847048 0.68200004 4.3345749e-39
-0.079891428 0.10847048 0.68200004 4.4260909e-39
-0.078707621 0.10862952 0.68300003 4.4260909e-39
-0.077520005 0.10878857 0.68400002 7.2834169e-39
-0.076217145 0.10878857 0.68400002 7.0990257e-39
-0.076338097 0.11085619 0.69700003 8.1092371e-39
-0.075010478 0.11085619 0.69700003 1.1889258e-38
-0.073788576 0.11101524 0.69800001 1.2349876e-38
-0.072666667 0.11133334 0.70000005 1.4193789e-38
-0.071333334 0.11133334 0.70000005 1.4929522e-38
-0.070000008 0.11133334 0.70000005 1.7787587e-38
-0.14522858 0.11105715 0.69000006 1.8251823e-38
-0.14349715 0.11073524 0.68800002 1.6592304e-38
-0.14177334 0.11041334 0.68600005 1.5393761e-38
-0.14005713 0.11009143 0.68400002 1.6036607e-38
-0.13875428 0.11009143 0.68400002 1.5483433e-38
-0.13725048 0.10993048 0.68300003 1.5115004e-38
-0.13515334 0.10928667 0.67900002 1.4838417e-38
-0.13386001 0.10928667 0.67900002 1.4102296e-38
-0.13178571 0.10864286 0.67500001 1.382571e-38
-0.1305 0.10864286 0.67500001 1.437636e-38
-0.12902285 0.10848191 0.67400002 1.2624643e-38
-0.12773906 0.10848191 0.67400002 1.2711087e-38
-0.12608001 0.10816 0.67200005 8.4700883e-39
-0.1248 0.10816 0.67200005 9.4773571e-39
-0.1233362 0.10799905 0.671 1.0952487e-38
-0.12187619 0.10783809 0.67000002 1.0588085e-38
-0.1206 0.10783809 0.67000002 1.2708585e-38
-0.11896762 0.10751619 0.66800004 1.1150224e-38
-0.11769524 0.10751619 0.66800004 5.9872691e-39
-0.11642287 0.10751619 0.66800004 5.5273489e-39
-0.11549524 0.10783809 0.67000002 5.3429605e-39
-0.11421905 0.10783809 0.67000002 2.1269385e-39
-0.11260572 0.10751619 0.66800004 3.0488948e-39
-0.11133334 0.10751619 0.66800004 6.8166332e-39
-0.11006096 0.10751619 0.66800004 1.3362509e-38
-0.10911428 0.10783809 0.67000002 1.2627166e-38
-0.10783809 0.10783809 0.67000002 1.2534971e-38
-0.10656191 0.10783809 0.67000002 1.2811192e-38
-0.10528572 0.10783809 0.67000002 1.2903387e-38
-0.10400952 0.10783809 0.67000002 1.2903037e-38
-0.10288666 0.10799905 0.671 1.2534255e-38
-0.10160857 0.10799905 0.671 1.2258015e-38
-0.10033047 0.10799905 0.671 1.216582e-38
-0.099052377 0.10799905 0.671 1.1887829e-38
-0.09777429 0.10799905 0.671 1.1519046e-38
-0.096496187 0.10799905 0.671 1.115132e-38
-0.0952181 0.10799905 0.671 1.0044973e-38
-0.093939997 0.10799905 0.671 8.3868512e-39
-0.092800006 0.10816 0.67200005 4.6068416e-39
-0.091792382 0.10848191 0.67400002 4.6900675e-39
-0.090508573 0.10848191 0.67400002 7.6403206e-39
-0.089357145 0.10864286 0.67500001 6.8152123e-39
-0.08820191 0.10880382 0.67600006 6.7230166e-39
-0.087171435 0.10912572 0.67800003 7.9223123e-39
-0.086006664 0.10928667 0.67900002 8.6598774e-39
-0.0848381 0.10944761 0.68000001 8.2939521e-39
-0.083542861 0.10944761 0.68000001 8.570539e-39
-0.082247622 0.10944761 0.68000001 7.9284122e-39
-0.081190482 0.10976952 0.68200004 6.1766952e-39
-0.080008574 0.10993048 0.68300003 5.4416553e-39
-0.078707621 0.10993048 0.68300003 6.0870247e-39
-0.077520005 0.11009143 0.68400002 7.0078992e-39
-0.077554293 0.11202286 0.69600004 6.9157036e-39
-0.076228574 0.11202286 0.69600004 9.9513351e-39
-0.075010478 0.11218382 0.69700003 1.3731356e-38
-0.07368286 0.11218382 0.69700003 1.3640599e-38
-0.07245905 0.11234476 0.69800001 1.4101578e-38
-0.071129531 0.11234476 0.69800001 1.4837321e-38
-0.069799997 0.11234476 0.69800001 1.7510994e-38
-0.14522858 0.11237144 0.69000006 1.8528057e-38
-0.14349715 0.11204571 0.68800002 1.6959664e-38
-0.14198001 0.11188286 0.68700004 1.5484534e-38
-0.14046668 0.11172 0.68600005 1.5852571e-38
-0.13875428 0.11139429 0.68400002 1.5852571e-38
-0.13725048 0.11123143 0.68300003 1.5206846e-38
-0.13515334 0.11058 0.67900002 1.511465e-38
-0.13386001 0.11058 0.67900002 1.4194492e-38
-0.13198097 0.11009143 0.67600006 1.3641318e-38
-0.13069335 0.11009143 0.67600006 1.4100499e-38
-0.12921429 0.10992857 0.67500001 1.2348782e-38
-0.12773906 0.10976572 0.67400002 1.225192e-38
-0.12645523 0.10976572 0.67400002 8.2875075e-39
-0.1248 0.10944001 0.67200005 9.5742709e-39
-0.1233362 0.10927714 0.671 1.3262096e-38
-0.12205809 0.10927714 0.671 1.280617e-38
-0.1206 0.10911428 0.67000002 1.3082756e-38
-0.11896762 0.10878857 0.66800004 9.586479e-39
-0.11769524 0.10878857 0.66800004 1.473314e-39
-0.11642287 0.10878857 0.66800004 2.3977674e-39
-0.11549524 0.10911428 0.67000002 7.6529127e-39
-0.11421905 0.10911428 0.67000002 9.219151e-39
-0.11260572 0.10878857 0.66800004 9.1269554e-39
-0.11133334 0.10878857 0.66800004 9.4017346e-39
-0.11006096 0.10878857 0.66800004 8.8485608e-39
-0.10911428 0.10911428 0.67000002 9.1233428e-39
-0.10783809 0.10911428 0.67000002 9.0311472e-39
-0.10656191 0.10911428 0.67000002 9.1226366e-39
-0.10528572 0.10911428 0.67000002 1.032118e-38
-0.10400952 0.10911428 0.67000002 9.7687459e-39
-0.10288666 0.10927714 0.671 8.7545939e-39
-0.10160857 0.10927714 0.671 4.8773805e-39
-0.10033047 0.10927714 0.671 4.7851848e-39
-0.099052377 0.10927714 0.671 5.2479384e-39
-0.097920008 0.10944001 0.67200005 3.2196346e-39
-0.096640006 0.10944001 0.67200005 3.9579507e-39
-0.0952181 0.10927714 0.671 8.7521234e-39
-0.093939997 0.10927714 0.671 8.6626996e-39
-0.093076192 0.10976572 0.67400002 7.9251345e-39
-0.091792382 0.10976572 0.67400002 1.0045277e-38
-0.090508573 0.10976572 0.67400002 1.0414059e-38
-0.089357145 0.10992857 0.67500001 7.8304923e-39
-0.088462859 0.11041714 0.67800003 7.646101e-39
-0.087300003 0.11058 0.67900002 8.3858394e-39
-0.086006664 0.11058 0.67900002 8.4780351e-39
-0.08471334 0.11058 0.67900002 8.0184218e-39
-0.083542861 0.11074285 0.68000001 8.2950087e-39
-0.082247622 0.11074285 0.68000001 7.6521658e-39
-0.080952384 0.11074285 0.68000001 5.8082532e-39
-0.079891428 0.11106858 0.68200004 6.0837877e-39
-0.078707621 0.11123143 0.68300003 7.5589178e-39
-0.077746667 0.11172 0.68600005 9.9541895e-39
-0.077554293 0.11334857 0.69600004 1.2074689e-38
-0.076228574 0.11334857 0.69600004 1.2349876e-38
-0.074902862 0.11334857 0.69600004 1.373281e-38
-0.07368286 0.11351143 0.69700003 1.382497e-38
-0.07245905 0.11367428 0.69800001 1.4193752e-38
-0.071027622 0.11351143 0.69700003 1.4929872e-38
-0.069700003 0.11351143 0.69700003 1.7234763e-38
-0.068372384 0.11351143 0.69700003 1.8434035e-38
-0.14522858 0.11368572 0.69000006 1.8619889e-38
-0.14349715 0.11335619 0.68800002 1.6960371e-38
-0.14218667 0.11335619 0.68800002 1.5393045e-38
-0.14046668 0.11302667 0.68600005 1.5484512e-38
-0.13875428 0.11269714 0.68400002 1.5207925e-38
-0.13725048 0.11253238 0.68300003 1.5299045e-38
-0.13575049 0.11236762 0.68200004 1.4930262e-38
-0.13386001 0.11187334 0.67900002 1.4378164e-38
-0.13237143 0.11170857 0.67800003 1.4009382e-38
-0.13069335 0.11137906 0.67600006 1.4008303e-38
-0.12921429 0.11121429 0.67500001 1.2994151e-38
-0.12792857 0.11121429 0.67500001 1.1885295e-38
-0.12645523 0.11104953 0.67400002 8.3818612e-39
-0.12517144 0.11104953 0.67400002 8.9331754e-39
-0.12388762 0.11104953 0.67400002 1.3635153e-38
-0.12205809 0.11055524 0.671 1.2811943e-38
-0.1206 0.11039048 0.67000002 1.1797791e-38
-0.11932381 0.11039048 0.67000002 8.4819391e-39
-0.11804762 0.11039048 0.67000002 1.5673019e-39
-0.11677143 0.11039048 0.67000002 4.3270303e-39
-0.11549524 0.11039048 0.67000002 1.1887064e-38
-0.11421905 0.11039048 0.67000002 1.1428295e-38
-0.11260572 0.11006096 0.66800004 1.1243904e-38
-0.11133334 0.11006096 0.66800004 1.0783248e-38
-0.11006096 0.11006096 0.66800004 6.081271e-39
-0.10911428 0.11039048 0.67000002 5.8075343e-39
-0.10783809 0.11039048 0.67000002 6.1763169e-39
-0.10656191 0.11039048 0.67000002 4.5153648e-39
-0.10528572 0.11039048 0.67000002 6.0826891e-39
-0.10400952 0.11039048 0.67000002 9.1237548e-39
-0.10288666 0.11055524 0.671 6.1734947e-39
-0.10160857 0.11055524 0.671 2.670404e-39
-0.10033047 0.11055524 0.671 4.4221154e-39
-0.099052377 0.11055524 0.671 4.8820748e-39
-0.097920008 0.11072001 0.67200005 2.3005972e-39
-0.096640006 0.11072001 0.67200005 3.9575359e-39
-0.095360003 0.11072001 0.67200005 6.723395e-39
-0.094080001 0.11072001 0.67200005 6.723004e-39
-0.093076192 0.11104953 0.67400002 9.3044719e-39
-0.091792382 0.11104953 0.67400002 1.0413415e-38
-0.090642862 0.11121429 0.67500001 9.8602408e-39
-0.089489527 0.11137906 0.67600006 7.7407587e-39
-0.08820191 0.11137906 0.67600006 7.92515e-39
-0.087300003 0.11187334 0.67900002 8.6635151e-39
-0.086006664 0.11187334 0.67900002 8.1103414e-39
-0.08471334 0.11187334 0.67900002 6.3538684e-39
-0.083542861 0.11203809 0.68000001 6.9070338e-39
-0.082247622 0.11203809 0.68000001 6.6326035e-39
-0.080952384 0.11203809 0.68000001 6.8169919e-39
-0.079891428 0.11236762 0.68200004 6.3596319e-39
-0.078822859 0.11269714 0.68400002 8.6645227e-39
-0.077520005 0.11269714 0.68400002 1.188528e-38
-0.077554293 0.11467429 0.69600004 1.3176018e-38
-0.076228574 0.11467429 0.69600004 1.3085621e-38
-0.074902862 0.11467429 0.69600004 1.373099e-38
-0.07368286 0.11483905 0.69700003 1.3733148e-38
-0.07245905 0.11500382 0.69800001 1.4101931e-38
-0.071027622 0.11483905 0.69700003 1.5206459e-38
-0.069700003 0.11483905 0.69700003 1.6865981e-38
-0.068372384 0.11483905 0.69700003 1.8709906e-38
-0.067044765 0.11483905 0.69700003 2.0922601e-38
-0.14522858 0.11500001 0.69000006 1.8619877e-38
-0.1439143 0.11500001 0.69000006 1.7421346e-38
-0.14218667 0.11466667 0.68800002 1.5300847e-38
-0.14067143 0.1145 0.68700004 1.5300849e-38
-0.13916001 0.11433334 0.68600005 1.4747676e-38
-0.13725048 0.11383333 0.68300003 1.5023181e-38
-0.13575049 0.11366667 0.68200004 1.4470007e-38
-0.13386001 0.11316667 0.67900002 1.4378164e-38
-0.13237143 0.11300001 0.67800003 1.447036e-38
-0.13108 0.11300001 0.67800003 1.3824993e-38
-0.12940572 0.11266667 0.67600006 1.3640602e-38
-0.12792857 0.1125 0.67500001 1.2993085e-38
-0.12664287 0.1125 0.67500001 9.6740419e-39
-0.12535714 0.1125 0.67500001 9.7651431e-39
-0.12388762 0.11233333 0.67400002 1.2899795e-38
-0.12224001 0.112 0.67200005 1.2534615e-38
-0.12096001 0.112 0.67200005 1.0875093e-38
-0.11932381 0.11166666 0.67000002 8.1135041e-39
-0.11804762 0.11166666 0.67000002 1.3832722e-39
-0.11694571 0.11183333 0.671 5.0664436e-39
-0.11566762 0.11183333 0.671 1.3087463e-38
-0.11421905 0.11166666 0.67000002 1.3178195e-38
-0.11294286 0.11166666 0.67000002 1.179526e-38
-0.11166666 0.11166666 0.67000002 9.4942833e-39
-0.11039048 0.11166666 0.67000002 1.6577025e-39
-0.10911428 0.11166666 0.67000002 5.9933942e-39
-0.10783809 0.11166666 0.67000002 8.7592631e-39
-0.10672095 0.11183333 0.671 5.3437564e-39
-0.10544286 0.11183333 0.671 4.2374088e-39
-0.10416476 0.11183333 0.671 4.7952419e-39
-0.10288666 0.11183333 0.671 3.3201119e-39
-0.10160857 0.11183333 0.671 4.1462306e-39
-0.10033047 0.11183333 0.671 9.6779684e-39
-0.09920001 0.112 0.67200005 9.1240897e-39
-0.097920008 0.112 0.67200005 2.1172387e-39
-0.096640006 0.112 0.67200005 3.7757048e-39
-0.095643811 0.11233333 0.67400002 6.9103562e-39
-0.094360001 0.11233333 0.67400002 6.8134046e-39
-0.093076192 0.11233333 0.67400002 9.8558604e-39
-0.091792382 0.11233333 0.67400002 1.078074e-38
-0.090642862 0.1125 0.67500001 9.6743922e-39
-0.089489527 0.11266667 0.67600006 7.2805064e-39
-0.08820191 0.11266667 0.67600006 8.7556365e-39
-0.087300003 0.11316667 0.67900002 8.3876541e-39
-0.086006664 0.11316667 0.67900002 7.8344803e-39
-0.08471334 0.11316667 0.67900002 5.2511754e-39
-0.083542861 0.11333333 0.68000001 4.5136104e-39
-0.082247622 0.11333333 0.68000001 6.8162941e-39
-0.081190482 0.11366667 0.68200004 1.1241684e-38
-0.080125719 0.114 0.68400002 1.2351616e-38
-0.079053335 0.11433334 0.68600005 1.2996986e-38
-0.078200005 0.11500001 0.69000006 1.1243876e-38
-0.076997146 0.11516668 0.69100004 9.6765502e-39
-0.075899996 0.1155 0.69300002 1.0227935e-38
-0.074902862 0.11600001 0.69600004 1.3639173e-38
-0.07368286 0.11616667 0.69700003 1.3456211e-38
-0.07245905 0.11633334 0.69800001 1.3917189e-38
-0.071129531 0.11633334 0.69800001 1.4654362e-38
-0.069799997 0.11633334 0.69800001 1.6682666e-38
-0.068470478 0.11633334 0.69800001 1.7971639e-38
-0.14522858 0.1163143 0.69000006 1.9080495e-38
-0.1439143 0.1163143 0.69000006 1.7791195e-38
-0.14260001 0.1163143 0.69000006 1.5394109e-38
-0.14087619 0.11597715 0.68800002 1.5670348e-38
-0.13936286 0.11580858 0.68700004 1.5578152e-38
-0.13745143 0.11530285 0.68400002 1.53012e-38
-0.13594954 0.11513429 0.68300003 1.4194852e-38
-0.13405713 0.11462857 0.68000001 1.4285969e-38
-0.13256668 0.11446001 0.67900002 1.4193773e-38
-0.13108 0.11429143 0.67800003 1.3732442e-38
-0.12940572 0.11395429 0.67600006 1.3548051e-38
-0.12811811 0.11395429 0.67600006 1.3822848e-38
-0.12664287 0.11378571 0.67500001 1.0596001e-38
-0.12535714 0.11378571 0.67500001 1.0408699e-38
-0.12388762 0.11361714 0.67400002 1.3266764e-38
-0.12260382 0.11361714 0.67400002 1.2534978e-38
-0.12132 0.11361714 0.67400002 1.0322283e-38
-0.11968001 0.11328001 0.67200005 6.9156994e-39
-0.11840001 0.11328001 0.67200005 1.7527665e-39
-0.11712001 0.11328001 0.67200005 5.6206712e-39
-0.11584001 0.11328001 0.67200005 1.281193e-38
-0.11421905 0.11294286 0.67000002 1.2810867e-38
-0.11294286 0.11294286 0.67000002 1.1243541e-38
-0.11166666 0.11294286 0.67000002 7.8365697e-39
-0.11039048 0.11294286 0.67000002 2.7658269e-39
-0.10944001 0.11328001 0.67200005 7.4627523e-39
-0.10816 0.11328001 0.67200005 8.292513e-39
-0.10672095 0.11311143 0.671 7.005028e-39
-0.10544286 0.11311143 0.671 6.0830717e-39
-0.10416476 0.11311143 0.671 5.0736113e-39
-0.10288666 0.11311143 0.671 2.0311555e-39
-0.10160857 0.11311143 0.671 3.6841818e-39
-0.10033047 0.11311143 0.671 1.0045672e-38
-0.09920001 0.11328001 0.67200005 9.2173924e-39
-0.097920008 0.11328001 0.67200005 3.3168721e-39
-0.096640006 0.11328001 0.67200005 5.067873e-39
-0.095360003 0.11328001 0.67200005 5.2522642e-39
-0.094920009 0.11429143 0.67800003 5.5187393e-39
-0.093214288 0.11378571 0.67500001 1.0220708e-38
-0.091928571 0.11378571 0.67500001 1.1981093e-38
-0.091180004 0.11446001 0.67900002 9.2152246e-39
-0.089886673 0.11446001 0.67900002 5.0696064e-39
-0.088723809 0.11462857 0.68000001 9.4949868e-39
-0.08742857 0.11462857 0.68000001 9.6808943e-39
-0.086133331 0.11462857 0.68000001 7.6525904e-39
-0.0848381 0.11462857 0.68000001 7.2804812e-39
-0.083542861 0.11462857 0.68000001 7.833655e-39
-0.08261048 0.11513429 0.68300003 9.0304409e-39
-0.081428573 0.11530285 0.68400002 1.1427527e-38
-0.080360003 0.11564001 0.68600005 1.2995233e-38
-0.079053335 0.11564001 0.68600005 1.2718646e-38
-0.078200005 0.1163143 0.69000006 1.0142563e-38
-0.076997146 0.11648286 0.69100004 7.1001075e-39
-0.075899996 0.11682 0.69300002 8.2028355e-39
-0.074687615 0.11698857 0.69400001 1.3181399e-38
-0.073577143 0.11732572 0.69600004 1.3364375e-38
-0.07245905 0.11766286 0.69800001 1.3825354e-38
-0.071027622 0.11749429 0.69700003 1.4285935e-38
-0.069700003 0.11749429 0.69700003 1.6222043e-38
-0.068372384 0.11749429 0.69700003 1.8154934e-38
-0.14871427 0.11831047 0.69400001 1.9449629e-38
-0.14543906 0.11779906 0.69100004 1.8988662e-38
-0.14412287 0.11779906 0.69100004 1.8159963e-38
-0.14260001 0.11762858 0.69000006 1.5394095e-38
-0.14128572 0.11762858 0.69000006 1.5577787e-38
-0.13936286 0.11711715 0.68700004 1.5762178e-38
-0.13785335 0.11694667 0.68600005 1.5393381e-38
-0.13594954 0.11643524 0.68300003 1.4194838e-38
-0.13405713 0.11592381 0.68000001 1.4194136e-38
-0.13256668 0.11575333 0.67900002 1.410194e-38
-0.13108 0.11558286 0.67800003 1.3640965e-38
-0.12978856 0.11558286 0.67800003 1.3548769e-38
-0.12811811 0.11524191 0.67600006 1.3547328e-38
-0.12683049 0.11524191 0.67600006 1.3270741e-38
-0.12535714 0.11507143 0.67500001 1.262645e-38
-0.12407143 0.11507143 0.67500001 1.2442059e-38
-0.12260382 0.11490095 0.67400002 1.1982523e-38
-0.12132 0.11490095 0.67400002 9.3088495e-39
-0.12003619 0.11490095 0.67400002 6.8231548e-39
-0.11875238 0.11490095 0.67400002 2.0289905e-39
-0.11746857 0.11490095 0.67400002 6.9095953e-39
-0.11618476 0.11490095 0.67400002 1.3363289e-38
-0.11490095 0.11490095 0.67400002 1.2810113e-38
-0.11311143 0.11438952 0.671 1.0228635e-38
-0.11183333 0.11438952 0.671 7.8343963e-39
-0.11072001 0.11456001 0.67200005 3.5012283e-39
-0.10944001 0.11456001 0.67200005 5.4359268e-39
-0.10816 0.11456001 0.67200005 6.9110569e-39
-0.10672095 0.11438952 0.671 8.4772419e-39
-0.10544286 0.11438952 0.671 8.9382201e-39
-0.10416476 0.11438952 0.671 7.1007969e-39
-0.10288666 0.11438952 0.671 1.753484e-39
-0.10160857 0.11438952 0.671 3.8711375e-39
-0.10033047 0.11438952 0.671 9.5872665e-39
-0.09920001 0.11456001 0.67200005 8.2968318e-39
-0.097920008 0.11456001 0.67200005 1.9353613e-39
-0.096640006 0.11456001 0.67200005 3.8740143e-39
-0.095360003 0.11456001 0.67200005 4.4271881e-39
-0.095060006 0.11575333 0.67900002 3.0377488e-39
-0.093766667 0.11575333 0.67900002 5.8036177e-39
-0.092473336 0.11575333 0.67900002 7.6457156e-39
-0.091180004 0.11575333 0.67900002 8.3832807e-39
-0.090019047 0.11592381 0.68000001 7.5560045e-39
-0.088723809 0.11592381 0.68000001 1.0137482e-38
-0.087685719 0.11626477 0.68200004 1.1614795e-38
-0.086386673 0.11626477 0.68200004 1.2167969e-38
-0.08508762 0.11626477 0.68200004 1.2351619e-38
-0.083911426 0.11643524 0.68300003 1.2720402e-38
-0.082731433 0.11660571 0.68400002 1.133644e-38
-0.081666671 0.11694667 0.68600005 1.0967658e-38
-0.080477148 0.11711715 0.68700004 8.663162e-39
-0.079283811 0.11728762 0.68800002 7.5568145e-39
-0.078200005 0.11762858 0.69000006 5.9940864e-39
-0.076997146 0.11779906 0.69100004 4.7955432e-39
-0.075899996 0.11814 0.69300002 8.5723789e-39
-0.074580006 0.11814 0.69300002 1.2813378e-38
-0.073577143 0.11865143 0.69600004 1.3364015e-38
-0.07245905 0.11899238 0.69800001 1.4285972e-38
-0.071027622 0.11882191 0.69700003 1.4377778e-38
-0.069700003 0.11882191 0.69700003 1.622169e-38
-0.068372384 0.11882191 0.69700003 1.7694683e-38
-0.14871427 0.11963238 0.69400001 1.9265965e-38
-0.14739239 0.11963238 0.69400001 1.9173419e-38
-0.14607048 0.11963238 0.69400001 1.9081223e-38
-0.14412287 0.11911524 0.69100004 1.8528397e-38
-0.14260001 0.11894286 0.69000006 1.5578137e-38
-0.14128572 0.11894286 0.69000006 1.5485588e-38
-0.13956572 0.1185981 0.68800002 1.5669979e-38
-0.13805428 0.11842572 0.68700004 1.5302269e-38
-0.13614857 0.11790857 0.68400002 1.4103726e-38
-0.13405713 0.11721905 0.68000001 1.437888e-38
-0.13256668 0.11704667 0.67900002 1.4194489e-38
-0.13127334 0.11704667 0.67900002 1.3548769e-38
-0.12978856 0.11687429 0.67800003 1.3548769e-38
-0.12849715 0.11687429 0.67800003 1.3087426e-38
-0.12683049 0.11652953 0.67600006 1.3087426e-38
-0.12554286 0.11652953 0.67600006 1.3179621e-38
-0.12425525 0.11652953 0.67600006 1.2903034e-38
-0.12278572 0.11635715 0.67500001 1.1706652e-38
-0.1215 0.11635715 0.67500001 9.5861525e-39
-0.12021428 0.11635715 0.67500001 6.3632557e-39
-0.11892857 0.11635715 0.67500001 2.4910392e-39
-0.11764286 0.11635715 0.67500001 8.289999e-39
-0.11635715 0.11635715 0.67500001 1.3084172e-38
-0.11490095 0.11618476 0.67400002 1.2165835e-38
-0.11361714 0.11618476 0.67400002 9.676553e-39
-0.11233333 0.11618476 0.67400002 6.1756274e-39
-0.11104953 0.11618476 0.67400002 3.8707367e-39
-0.10976572 0.11618476 0.67400002 6.4464536e-39
-0.10848191 0.11618476 0.67400002 8.1059749e-39
-0.1071981 0.11618476 0.67400002 9.0293521e-39
-0.10591429 0.11618476 0.67400002 9.4903303e-39
-0.10463049 0.11618476 0.67400002 8.0184498e-39
-0.10334668 0.11618476 0.67400002 2.85551e-39
-0.10206286 0.11618476 0.67400002 4.3310142e-39
-0.10077905 0.11618476 0.67400002 9.6783607e-39
-0.09949524 0.11618476 0.67400002 7.1930023e-39
-0.097920008 0.11584001 0.67200005 5.4412854e-39
-0.096640006 0.11584001 0.67200005 4.7999181e-39
-0.095643811 0.11618476 0.67400002 4.062353e-39
-0.095060006 0.11704667 0.67900002 1.2017536e-39
-0.093766667 0.11704667 0.67900002 2.9534649e-39
-0.092473336 0.11704667 0.67900002 5.2504075e-39
-0.091180004 0.11704667 0.67900002 8.2006579e-39
-0.090019047 0.11721905 0.68000001 8.107756e-39
-0.088723809 0.11721905 0.68000001 1.0597038e-38
-0.087685719 0.11756381 0.68200004 1.253246e-38
-0.086386673 0.11756381 0.68200004 1.2993438e-38
-0.085212387 0.1177362 0.68300003 1.3362939e-38
-0.083911426 0.1177362 0.68300003 1.2625374e-38
-0.082731433 0.11790857 0.68400002 1.1060213e-38
-0.081666671 0.11825334 0.68600005 9.9538658e-39
-0.080477148 0.11842572 0.68700004 6.8260513e-39
-0.079283811 0.1185981 0.68800002 5.3509212e-39
-0.078200005 0.11894286 0.69000006 4.8906255e-39
-0.076997146 0.11911524 0.69100004 4.7984299e-39
-0.075899996 0.11946 0.69300002 8.9415117e-39
-0.074580006 0.11946 0.69300002 1.2813728e-38
-0.073577143 0.11997715 0.69600004 1.3363289e-38
-0.07245905 0.12032191 0.69800001 1.3916463e-38
-0.071129531 0.12032191 0.69800001 1.4469254e-38
-0.069799997 0.12032191 0.69800001 1.6220971e-38
-0.068470478 0.12032191 0.69800001 1.7235503e-38
-0.14739239 0.12095428 0.69400001 1.9173419e-38
-0.14607048 0.12095428 0.69400001 1.9173419e-38
-0.14454 0.12078 0.69300002 1.8435834e-38
-0.14321999 0.12078 0.69300002 1.5854357e-38
-0.1419 0.12078 0.69300002 1.5485591e-38
-0.13997145 0.12025715 0.69000006 1.5209004e-38
-0.13825524 0.11990858 0.68800002 1.5209709e-38
-0.13654667 0.11956001 0.68600005 1.4748731e-38
-0.13445143 0.11886286 0.68200004 1.4655813e-38
-0.1327619 0.11851428 0.68000001 1.4194835e-38
-0.13127334 0.11834 0.67900002 1.3640965e-38
-0.12978856 0.11816572 0.67800003 1.3640965e-38
-0.12849715 0.11816572 0.67800003 1.3548757e-38
-0.12720571 0.11816572 0.67800003 1.327217e-38
-0.12554286 0.11781715 0.67600006 1.299558e-38
-0.12425525 0.11781715 0.67600006 1.299558e-38
-0.12296763 0.11781715 0.67600006 1.2443848e-38
-0.12168001 0.11781715 0.67600006 1.0138958e-38
-0.12021428 0.11764286 0.67500001 5.8119274e-39
-0.11892857 0.11764286 0.67500001 4.6458089e-40
-0.11764286 0.11764286 0.67500001 4.2387821e-39
-0.11635715 0.11764286 0.67500001 5.1607328e-39
-0.11507143 0.11764286 0.67500001 6.2620483e-39
-0.11361714 0.11746857 0.67400002 6.7230265e-39
-0.11233333 0.11746857 0.67400002 5.6235116e-39
-0.11104953 0.11746857 0.67400002 3.0420508e-39
-0.10976572 0.11746857 0.67400002 3.6845756e-39
-0.10848191 0.11746857 0.67400002 6.6348357e-39
-0.1071981 0.11746857 0.67400002 7.3694889e-39
-0.10591429 0.11746857 0.67400002 9.582184e-39
-0.10463049 0.11746857 0.67400002 7.7443713e-39
-0.10334668 0.11746857 0.67400002 2.3048557e-39
-0.10206286 0.11746857 0.67400002 4.0548477e-39
-0.10092857 0.11764286 0.67500001 9.3099986e-39
-0.099642858 0.11764286 0.67500001 7.8347956e-39
-0.098357141 0.11764286 0.67500001 7.0972306e-39
-0.097646669 0.11834 0.67900002 9.311718e-39
-0.096353337 0.11834 0.67900002 1.0418066e-38
-0.095060006 0.11834 0.67900002 1.07836e-38
-0.093766667 0.11834 0.67900002 1.0507013e-38
-0.092473336 0.11834 0.67900002 1.1520453e-38
-0.091180004 0.11834 0.67900002 1.2718996e-38
-0.090019047 0.11851428 0.68000001 1.2166558e-38
-0.088723809 0.11851428 0.68000001 1.1982167e-38
-0.087685719 0.11886286 0.68200004 1.0508487e-38
-0.086513333 0.11903714 0.68300003 1.0139705e-38
-0.085212387 0.11903714 0.68300003 7.4653727e-39
-0.084034286 0.11921144 0.68400002 6.1746339e-39
-0.082731433 0.11921144 0.68400002 5.071791e-39
-0.081666671 0.11956001 0.68600005 4.5186172e-39
-0.080477148 0.11973429 0.68700004 5.5345474e-39
-0.079283811 0.11990858 0.68800002 5.9955255e-39
-0.078200005 0.12025715 0.69000006 5.4434434e-39
-0.076997146 0.12043144 0.69100004 5.1668565e-39
-0.075899996 0.12078 0.69300002 9.1262561e-39
-0.074580006 0.12078 0.69300002 1.3551646e-38
-0.073577143 0.12130286 0.69600004 1.3824988e-38
-0.072666667 0.122 0.70000005 1.3548401e-38
-0.071333334 0.122 0.70000005 1.4378497e-38
-0.070000008 0.122 0.70000005 1.5945822e-38
-0.14781715 0.12262858 0.69600004 1.9264899e-38
-0.14607048 0.12227619 0.69400001 1.9264899e-38
-0.14454 0.1221 0.69300002 1.8251446e-38
-0.14321999 0.1221 0.69300002 1.6038751e-38
-0.1419 0.1221 0.69300002 1.5669985e-38
-0.13997145 0.12157144 0.69000006 1.5393398e-38
-0.13825524 0.12121905 0.68800002 1.5117513e-38
-0.13674572 0.12104286 0.68700004 1.4748731e-38
-0.13445143 0.12016191 0.68200004 1.4748023e-38
-0.1331524 0.12016191 0.68200004 1.4010458e-38
-0.13127334 0.11963334 0.67900002 1.354913e-38
-0.12998 0.11963334 0.67900002 1.354913e-38
-0.12849715 0.11945715 0.67800003 1.3640599e-38
-0.12720571 0.11945715 0.67800003 1.3179621e-38
-0.12554286 0.11910477 0.67600006 1.2718996e-38
-0.12425525 0.11910477 0.67600006 1.2811192e-38
-0.12296763 0.11910477 0.67600006 1.2352374e-38
-0.12168001 0.11910477 0.67600006 1.0600658e-38
-0.12021428 0.11892857 0.67500001 8.1160517e-39
-0.11892857 0.11892857 0.67500001 3.3218789e-39
-0.11781715 0.11910477 0.67600006 3.8717989e-39
-0.11652953 0.11910477 0.67600006 3.6874104e-39
-0.11507143 0.11892857 0.67500001 2.1219022e-39
-0.11378571 0.11892857 0.67500001 4.8877655e-39
-0.1125 0.11892857 0.67500001 5.5341971e-39
-0.11121429 0.11892857 0.67500001 2.5839495e-39
-0.10992857 0.11892857 0.67500001 2.3055732e-39
-0.10864286 0.11892857 0.67500001 3.8728919e-39
-0.10735714 0.11892857 0.67500001 3.2260805e-39
-0.10607143 0.11892857 0.67500001 8.2968318e-39
-0.10478572 0.11892857 0.67500001 8.2064382e-39
-0.1035 0.11892857 0.67500001 7.1000907e-39
-0.10221429 0.11892857 0.67500001 7.9284122e-39
-0.10092857 0.11892857 0.67500001 9.1269554e-39
-0.099642858 0.11892857 0.67500001 9.308467e-39
-0.098357141 0.11892857 0.67500001 9.308467e-39
-0.097502865 0.11945715 0.67800003 1.1057317e-38
-0.096211433 0.11945715 0.67800003 1.2624643e-38
-0.095060006 0.11963334 0.67900002 1.2810102e-38
-0.093766667 0.11963334 0.67900002 1.2717906e-38
-0.092473336 0.11963334 0.67900002 1.2350226e-38
-0.091314279 0.11980952 0.68000001 1.2534618e-38
-0.090019047 0.11980952 0.68000001 1.2166574e-38
-0.088984765 0.12016191 0.68200004 1.1705595e-38
-0.087685719 0.12016191 0.68200004 8.577418e-39
-0.086513333 0.1203381 0.68300003 7.2866791e-39
-0.085337147 0.12051429 0.68400002 5.3520283e-39
-0.084034286 0.12051429 0.68400002 2.4939637e-39
-0.082973339 0.12086668 0.68600005 2.9545411e-39
-0.081666671 0.12086668 0.68600005 4.0608887e-39
-0.080477148 0.12104286 0.68700004 5.3498058e-39
-0.079283811 0.12121905 0.68800002 5.9951752e-39
-0.078200005 0.12157144 0.69000006 4.796988e-39
-0.076885715 0.12157144 0.69000006 5.534553e-39
-0.075680956 0.12174763 0.69100004 9.6776292e-39
-0.074580006 0.1221 0.69300002 1.3734237e-38
-0.074105717 0.12350953 0.70100003 1.3733148e-38
-0.073081911 0.1240381 0.70400006 1.3548757e-38
-0.071740955 0.1240381 0.70400006 1.4562532e-38
-0.070400007 0.1240381 0.70400006 1.5392293e-38
-0.14781715 0.12395429 0.69600004 1.935781e-38
-0.14607048 0.12359809 0.69400001 1.9173419e-38
-0.14454 0.12342 0.69300002 1.8619517e-38
-0.14321999 0.12342 0.69300002 1.6314626e-38
-0.1419 0.12342 0.69300002 1.5853307e-38
-0.1401743 0.12306382 0.69100004 1.5668916e-38
-0.13865715 0.12288573 0.69000006 1.5300826e-38
-0.13674572 0.12235144 0.68700004 1.4286674e-38
-0.13464858 0.12163905 0.68300003 1.4286332e-38
-0.1331524 0.12146095 0.68200004 1.3825354e-38
-0.13146667 0.12110476 0.68000001 1.3732442e-38
-0.12998 0.12092667 0.67900002 1.3640246e-38
-0.12868667 0.12092667 0.67900002 1.3548757e-38
-0.12720571 0.12074857 0.67800003 1.3087779e-38
-0.12591429 0.12074857 0.67800003 1.2810839e-38
-0.12425525 0.12039239 0.67600006 1.2626447e-38
-0.12296763 0.12039239 0.67600006 1.2351644e-38
-0.12168001 0.12039239 0.67600006 1.2351644e-38
-0.12039239 0.12039239 0.67600006 1.1616237e-38
-0.11910477 0.12039239 0.67600006 1.0970868e-38
-0.11781715 0.12039239 0.67600006 1.0878321e-38
-0.11652953 0.12039239 0.67600006 1.0878321e-38
-0.11524191 0.12039239 0.67600006 1.1153829e-38
-0.11378571 0.12021428 0.67500001 1.1430415e-38
-0.1125 0.12021428 0.67500001 1.0877973e-38
-0.11121429 0.12021428 0.67500001 1.0324799e-38
-0.10992857 0.12021428 0.67500001 1.0876175e-38
-0.10864286 0.12021428 0.67500001 1.1060566e-38
-0.1075162 0.12039239 0.67600006 1.1521518e-38
-0.10607143 0.12021428 0.67500001 1.2166887e-38
-0.10478572 0.12021428 0.67500001 1.1983592e-38
-0.1035 0.12021428 0.67500001 1.1799201e-38
-0.10221429 0.12021428 0.67500001 1.2075418e-38
-0.10092857 0.12021428 0.67500001 1.24442e-38
-0.099642858 0.12021428 0.67500001 1.207435e-38
-0.098357141 0.12021428 0.67500001 1.2166546e-38
-0.09721525 0.12039239 0.67600006 1.1705909e-38
-0.096211433 0.12074857 0.67800003 1.1705909e-38
-0.095060006 0.12092667 0.67900002 1.1337827e-38
-0.093766667 0.12092667 0.67900002 9.7705017e-39
-0.092473336 0.12092667 0.67900002 8.4794798e-39
-0.091314279 0.12110476 0.68000001 8.4794798e-39
-0.090019047 0.12110476 0.68000001 7.7433413e-39
-0.088984765 0.12146095 0.68200004 7.1901675e-39
-0.087814286 0.12163905 0.68300003 5.9970221e-39
-0.08664 0.12181715 0.68400002 4.7984789e-39
-0.085337147 0.12181715 0.68400002 4.1538382e-39
-0.084279999 0.12217335 0.68600005 2.8630994e-39
-0.082973339 0.12217335 0.68600005 3.5070311e-39
-0.081785724 0.12235144 0.68700004 4.3367917e-39
-0.080477148 0.12235144 0.68700004 5.2572641e-39
-0.079283811 0.12252953 0.68800002 7.008981e-39
-0.078200005 0.12288573 0.69000006 5.8100819e-39
-0.076885715 0.12288573 0.69000006 7.0086251e-39
-0.075680956 0.12306382 0.69100004 9.6797802e-39
-0.074580006 0.12342 0.69300002 1.3736388e-38
-0.07431715 0.12520096 0.70300001 1.3733148e-38
-0.073081911 0.12537906 0.70400006 1.3456561e-38
-0.071740955 0.12537906 0.70400006 1.4469254e-38
-0.070400007 0.12537906 0.70400006 1.5575602e-38
-0.069451429 0.12609142 0.708 1.686636e-38
-0.14781715 0.12528001 0.69600004 1.944929e-38
-0.14607048 0.12492 0.69400001 1.9357094e-38
-0.14454 0.12474 0.69300002 1.8896103e-38
-0.14321999 0.12474 0.69300002 1.6314626e-38
-0.1419 0.12474 0.69300002 1.6130244e-38
-0.13997145 0.1242 0.69000006 1.5669266e-38
-0.13865715 0.1242 0.69000006 1.520863e-38
-0.13674572 0.12366 0.68700004 1.4563261e-38
-0.13464858 0.12294 0.68300003 1.4653678e-38
-0.13334762 0.12294 0.68300003 1.41927e-38
-0.13146667 0.1224 0.68000001 1.4008306e-38
-0.12998 0.12222001 0.67900002 1.391611e-38
-0.12868667 0.12222001 0.67900002 1.3548401e-38
-0.12720571 0.12204001 0.67800003 1.3271814e-38
-0.12591429 0.12204001 0.67800003 1.327217e-38
-0.12462286 0.12204001 0.67800003 1.2811192e-38
-0.12296763 0.12168001 0.67600006 1.225873e-38
-0.12168001 0.12168001 0.67600006 1.2443121e-38
-0.12039239 0.12168001 0.67600006 1.2811189e-38
-0.11910477 0.12168001 0.67600006 1.2626798e-38
-0.11764286 0.1215 0.67500001 1.198178e-38
-0.11635715 0.1215 0.67500001 1.262715e-38
-0.11524191 0.12168001 0.67600006 1.244384e-38
-0.11395429 0.12168001 0.67600006 1.244384e-38
-0.11266667 0.12168001 0.67600006 1.2443121e-38
-0.11137906 0.12168001 0.67600006 1.2443121e-38
-0.10992857 0.1215 0.67500001 1.2534605e-38
-0.10864286 0.1215 0.67500001 1.2442409e-38
-0.1075162 0.12168001 0.67600006 1.2810442e-38
-0.10607143 0.1215 0.67500001 1.2902638e-38
-0.10478572 0.1215 0.67500001 1.2811189e-38
-0.1035 0.1215 0.67500001 1.2534602e-38
-0.10221429 0.1215 0.67500001 1.2443121e-38
-0.10092857 0.1215 0.67500001 1.2166534e-38
-0.099642858 0.1215 0.67500001 1.1798835e-38
-0.098357141 0.1215 0.67500001 1.1706639e-38
-0.097071432 0.1215 0.67500001 1.1061266e-38
-0.095927626 0.12168001 0.67600006 1.096907e-38
-0.095060006 0.12222001 0.67900002 9.0376478e-39
-0.093766667 0.12222001 0.67900002 6.8249527e-39
-0.092609517 0.1224 0.68000001 5.4441987e-39
-0.091314279 0.1224 0.68000001 5.9973725e-39
-0.090283811 0.12276001 0.68200004 6.5476876e-39
-0.088984765 0.12276001 0.68200004 6.3632963e-39
-0.087814286 0.12294 0.68300003 4.8946402e-39
-0.08664 0.12312 0.68400002 3.7882927e-39
-0.085586667 0.12348001 0.68600005 3.2361979e-39
-0.084279999 0.12348001 0.68600005 2.4986329e-39
-0.083094291 0.12366 0.68700004 3.323709e-39
-0.081785724 0.12366 0.68700004 3.6002959e-39
-0.080594286 0.12384 0.68800002 4.2448904e-39
-0.079283811 0.12384 0.68800002 5.6278248e-39
-0.078200005 0.1242 0.69000006 5.9022411e-39
-0.076997146 0.12438001 0.69100004 8.1149362e-39
-0.075680956 0.12438001 0.69100004 1.0599235e-38
-0.075010478 0.12546 0.69700003 1.3272908e-38
-0.07431715 0.12654001 0.70300001 1.3548757e-38
-0.073081911 0.12672001 0.70400006 1.3640953e-38
-0.071740955 0.12672001 0.70400006 1.465293e-38
-0.070800006 0.12743999 0.708 1.5574886e-38
-0.069451429 0.12743999 0.708 1.6865288e-38
-0.068102859 0.12743999 0.708 2.0921896e-38
-0.14649144 0.12660572 0.69600004 1.9357457e-38
-0.14454 0.12606001 0.69300002 1.8988296e-38
-0.14321999 0.12606001 0.69300002 1.6314623e-38
-0.1419 0.12606001 0.69300002 1.61306e-38
-0.13997145 0.1255143 0.69000006 1.5577426e-38
-0.13865715 0.1255143 0.69000006 1.520863e-38
-0.13694477 0.12515049 0.68800002 1.5300826e-38
-0.1348457 0.12442286 0.68400002 1.447001e-38
-0.13334762 0.12424096 0.68300003 1.4285618e-38
-0.13146667 0.12369524 0.68000001 1.3917186e-38
-0.13017143 0.12369524 0.68000001 1.3732795e-38
-0.12868667 0.12351334 0.67900002 1.3364015e-38
-0.12739334 0.12351334 0.67900002 1.327182e-38
-0.1261 0.12351334 0.67900002 1.3180326e-38
-0.12462286 0.12333143 0.67800003 1.308813e-38
-0.12333143 0.12333143 0.67800003 1.2627512e-38
-0.12168001 0.12296763 0.67600006 1.2074339e-38
-0.12039239 0.12296763 0.67600006 1.2442761e-38
-0.11910477 0.12296763 0.67600006 1.2442761e-38
-0.11764286 0.12278572 0.67500001 1.2442758e-38
-0.11635715 0.12278572 0.67500001 1.262715e-38
-0.11524191 0.12296763 0.67600006 1.2534578e-38
-0.11395429 0.12296763 0.67600006 1.2442383e-38
-0.11266667 0.12296763 0.67600006 1.2442736e-38
-0.11137906 0.12296763 0.67600006 1.235054e-38
-0.11009143 0.12296763 0.67600006 1.2166169e-38
-0.10880382 0.12296763 0.67600006 1.2073973e-38
-0.1075162 0.12296763 0.67600006 1.2258332e-38
-0.10622858 0.12296763 0.67600006 1.1428571e-38
-0.10494096 0.12296763 0.67600006 1.0321187e-38
-0.1035 0.12278572 0.67500001 1.00446e-38
-0.10221429 0.12278572 0.67500001 9.1269456e-39
-0.10092857 0.12278572 0.67500001 8.8503587e-39
-0.099642858 0.12278572 0.67500001 8.8503559e-39
-0.098357141 0.12278572 0.67500001 8.9425515e-39
-0.097071432 0.12278572 0.67500001 7.7454643e-39
-0.095927626 0.12296763 0.67600006 7.561073e-39
-0.095060006 0.12351334 0.67900002 5.4445518e-39
-0.093766667 0.12351334 0.67900002 3.2318567e-39
-0.092473336 0.12351334 0.67900002 3.143652e-39
-0.091314279 0.12369524 0.68000001 5.3563471e-39
-0.090283811 0.12405905 0.68200004 5.6275306e-39
-0.089115247 0.12424096 0.68300003 4.7055743e-39
-0.087814286 0.12424096 0.68300003 4.9828954e-39
-0.08664 0.12442286 0.68400002 5.9970474e-39
-0.085586667 0.12478668 0.68600005 4.9842995e-39
-0.084279999 0.12478668 0.68600005 2.8638e-39
-0.083094291 0.12496858 0.68700004 2.6794368e-39
-0.081785724 0.12496858 0.68700004 3.0482193e-39
-0.080594286 0.12515049 0.68800002 3.9683035e-39
-0.079514287 0.1255143 0.69000006 6.2731942e-39
-0.078200005 0.1255143 0.69000006 7.1919009e-39
-0.076997146 0.1256962 0.69100004 1.0326552e-38
-0.075899996 0.12606001 0.69300002 1.1058809e-38
-0.075010478 0.12678762 0.69700003 1.33637e-38
-0.07431715 0.12787904 0.70300001 1.3456561e-38
-0.073081911 0.12806095 0.70400006 1.4286322e-38
-0.072046667 0.12860666 0.70700002 1.446962e-38
-0.070800006 0.12878856 0.708 1.5483772e-38
-0.069451429 0.12878856 0.708 1.668126e-38
-0.06829524 0.12915239 0.71000004 2.1014455e-38
-0.066942856 0.12915239 0.71000004 2.0555974e-38
-0.1467019 0.12811525 0.69700003 1.9541483e-38
-0.14454 0.12738001 0.69300002 1.9173042e-38
-0.14321999 0.12738001 0.69300002 1.6591564e-38
-0.14210476 0.1275638 0.69400001 1.622243e-38
-0.14058001 0.12738001 0.69300002 1.5945843e-38
-0.13865715 0.12682858 0.69000006 1.5300847e-38
-0.13694477 0.12646097 0.68800002 1.4747673e-38
-0.1348457 0.12572572 0.68400002 1.447036e-38
-0.13334762 0.12554191 0.68300003 1.4378164e-38
-0.13146667 0.12499048 0.68000001 1.3917537e-38
-0.13017143 0.12499048 0.68000001 1.3456558e-38
-0.12868667 0.12480666 0.67900002 1.327217e-38
-0.12739334 0.12480666 0.67900002 1.327217e-38
-0.1261 0.12480666 0.67900002 1.3088491e-38
-0.12462286 0.12462286 0.67800003 1.2904099e-38
-0.12333143 0.12462286 0.67800003 1.2904104e-38
-0.12204001 0.12462286 0.67800003 1.235093e-38
-0.12039239 0.12425525 0.67600006 1.2625354e-38
-0.11910477 0.12425525 0.67600006 1.2625354e-38
-0.11781715 0.12425525 0.67600006 1.2625354e-38
-0.11687429 0.12462286 0.67800003 1.2533159e-38
-0.11558286 0.12462286 0.67800003 1.2533502e-38
-0.11429143 0.12462286 0.67800003 1.2625698e-38
-0.11300001 0.12462286 0.67800003 1.235019e-38
-0.11170857 0.12462286 0.67800003 1.2257994e-38
-0.11009143 0.12425525 0.67600006 1.1981777e-38
-0.10864286 0.12407143 0.67500001 1.1981777e-38
-0.10735714 0.12407143 0.67500001 1.2534578e-38
-0.10622858 0.12425525 0.67600006 1.0690666e-38
-0.10494096 0.12425525 0.67600006 9.5857699e-39
-0.10365334 0.12425525 0.67600006 8.571618e-39
-0.10236572 0.12425525 0.67600006 7.9302016e-39
-0.10107811 0.12425525 0.67600006 8.0223973e-39
-0.099790484 0.12425525 0.67600006 8.114946e-39
-0.098502867 0.12425525 0.67600006 8.2993373e-39
-0.09721525 0.12425525 0.67600006 7.3780999e-39
-0.096211433 0.12462286 0.67800003 6.8249261e-39
-0.095060006 0.12480666 0.67900002 5.5381375e-39
-0.093766667 0.12480666 0.67900002 3.6020321e-39
-0.092473336 0.12480666 0.67900002 3.1440023e-39
-0.091582857 0.1253581 0.68200004 4.8957192e-39
-0.090416193 0.12554191 0.68300003 3.605356e-39
-0.089115247 0.12554191 0.68300003 3.4209647e-39
-0.087942861 0.12572572 0.68400002 5.5331825e-39
-0.08664 0.12572572 0.68400002 6.5473345e-39
-0.085586667 0.12609334 0.68600005 5.7207856e-39
-0.084279999 0.12609334 0.68600005 2.862721e-39
-0.083094291 0.12627715 0.68700004 1.3915412e-39
-0.081785724 0.12627715 0.68700004 2.68228e-39
-0.080594286 0.12646097 0.68800002 4.0604991e-39
-0.079514287 0.12682858 0.69000006 6.4575855e-39
-0.078200005 0.12682858 0.69000006 7.6514469e-39
-0.076997146 0.12701239 0.69100004 1.180025e-38
-0.075899996 0.12738001 0.69300002 1.189035e-38
-0.075010478 0.12811525 0.69700003 1.2996697e-38
-0.07431715 0.1292181 0.70300001 1.3364366e-38
