# .PCD v0.7 - Point Cloud Data file format
VERSION 0.7
FIELDS x y z rgb
SIZE 4 4 4 4
TYPE F F F F
COUNT 1 1 1 1
WIDTH 958
HEIGHT 1
VIEWPOINT 0 0 0 1 0 0 0
POINTS 958
DATA ascii
-0.018706666 0.0089466665 0.85400003 1.5300453e-38
-0.017120002 0.0089676194 0.85600007 1.4470692e-38
-0.015489525 0.0089676194 0.85600007 1.4745128e-38
-0.013891429 0.0089885723 0.85800004 1.4468541e-38
-0.012285715 0.0090095233 0.86000001 1.4377439e-38
-0.010647619 0.0090095233 0.86000001 1.4285243e-38
-0.0090304762 0.0090304762 0.86200005 1.428489e-38
-0.0073885717 0.0090304762 0.86200005 1.4377085e-38
-0.0057600001 0.0090514291 0.86400002 1.6128413e-38
-0.0041285716 0.0090828575 0.86700004 1.6312804e-38
-0.0024828573 0.0091038095 0.86900002 1.6312105e-38
-0.00082761905 0.0091038095 0.86900002 1.7326257e-38
0.00082952384 0.0091247624 0.87100005 1.6865628e-38
0.0024885715 0.0091247624 0.87100005 1.7603193e-38
0.0041476195 0.0091247624 0.87100005 1.7604272e-38
0.0058200001 0.0091457143 0.87300003 1.7512076e-38
0.0074828574 0.0091457143 0.87300003 1.9632222e-38
0.0091457143 0.0091457143 0.87300003 2.350804e-38
-0.071642861 0.010957144 0.88500005 2.3137825e-38
-0.06972 0.01092 0.88200003 2.2492462e-38
-0.067731433 0.010870476 0.87800002 1.8989028e-38
-0.066059045 0.010870476 0.87800002 1.7053982e-38
-0.064166673 0.010833334 0.87500006 1.4656895e-38
-0.062357143 0.010808571 0.87300003 1.4197337e-38
-0.060416192 0.010759047 0.86900002 1.3736359e-38
-0.058760952 0.010759047 0.86900002 1.3274299e-38
-0.056974288 0.010734286 0.86700004 1.345869e-38
-0.055131428 0.010697143 0.86400002 1.3457611e-38
-0.053361908 0.010672381 0.86200005 1.3826393e-38
-0.051720005 0.010672381 0.86200005 1.4378518e-38
-0.049961902 0.010647619 0.86000001 1.4378518e-38
-0.04832381 0.010647619 0.86000001 1.5020999e-38
-0.046577144 0.010622857 0.85800004 1.5113195e-38
-0.044838097 0.010598096 0.85600007 1.5480525e-38
-0.043207623 0.010598096 0.85600007 1.6033699e-38
-0.041577145 0.010598096 0.85600007 1.6126984e-38
-0.039946672 0.010598096 0.85600007 1.6034788e-38
-0.038316194 0.010598096 0.85600007 1.6220248e-38
-0.036685716 0.010598096 0.85600007 1.6035857e-38
-0.035055239 0.010598096 0.85600007 1.5944022e-38
-0.033424765 0.010598096 0.85600007 1.6036217e-38
-0.031794287 0.010598096 0.85600007 1.6312454e-38
-0.030163812 0.010598096 0.85600007 1.6128063e-38
-0.028533336 0.010598096 0.85600007 1.6036586e-38
-0.02690286 0.010598096 0.85600007 1.5759999e-38
-0.025272382 0.010598096 0.85600007 1.5575602e-38
-0.023641907 0.010598096 0.85600007 1.5299015e-38
-0.022011429 0.010598096 0.85600007 1.4563258e-38
-0.020380953 0.010598096 0.85600007 1.4194475e-38
-0.018750478 0.010598096 0.85600007 1.382569e-38
-0.017160002 0.010622857 0.85800004 1.3641299e-38
-0.015525714 0.010622857 0.85800004 1.3180697e-38
-0.013923809 0.010647619 0.86000001 1.2443132e-38
-0.012285715 0.010647619 0.86000001 1.1340027e-38
-0.010647619 0.010647619 0.86000001 1.1340027e-38
-0.0090304762 0.010672381 0.86200005 1.1247479e-38
-0.0073885717 0.010672381 0.86200005 1.1892848e-38
-0.0057800002 0.010734286 0.86700004 1.2719725e-38
-0.0041285716 0.010734286 0.86700004 1.3549486e-38
-0.0024828573 0.010759047 0.86900002 1.6127334e-38
-0.00082761905 0.010759047 0.86900002 1.7510268e-38
0.00082952384 0.01078381 0.87100005 1.668195e-38
0.0024885715 0.01078381 0.87100005 1.751171e-38
0.0041476195 0.01078381 0.87100005 1.741952e-38
0.0058200001 0.010808571 0.87300003 1.7327325e-38
0.0074828574 0.010808571 0.87300003 1.9631862e-38
0.0091457143 0.010808571 0.87300003 2.3504799e-38
-0.071804762 0.012671429 0.88700002 2.3045986e-38
-0.069957145 0.012642858 0.88500005 2.2584657e-38
-0.067731433 0.012542857 0.87800002 1.9265615e-38
-0.066059045 0.012542857 0.87800002 1.7145463e-38
-0.064166673 0.012500001 0.87500006 1.5485941e-38
-0.062357143 0.012471429 0.87300003 1.5763581e-38
-0.060555242 0.012442858 0.87100005 1.6132363e-38
-0.058760952 0.012414285 0.86900002 1.6776654e-38
-0.056974288 0.012385715 0.86700004 1.7329827e-38
-0.055131428 0.012342857 0.86400002 1.6960694e-38
-0.053485714 0.012342857 0.86400002 1.7329477e-38
-0.051720005 0.012314286 0.86200005 1.6775617e-38
-0.049961902 0.012285715 0.86000001 1.6775617e-38
-0.04832381 0.012285715 0.86000001 1.6773459e-38
-0.046577144 0.012257144 0.85800004 1.6404676e-38
-0.04494286 0.012257144 0.85800004 1.649682e-38
-0.043207623 0.012228573 0.85600007 1.6773407e-38
-0.041577145 0.012228573 0.85600007 1.621846e-38
-0.039946672 0.012228573 0.85600007 1.5573091e-38
-0.038316194 0.012228573 0.85600007 1.5941857e-38
-0.036685716 0.012228573 0.85600007 1.6034052e-38
-0.035055239 0.012228573 0.85600007 1.5851448e-38
-0.033424765 0.012228573 0.85600007 1.5943643e-38
-0.031868573 0.012257144 0.85800004 1.5575229e-38
-0.030234287 0.012257144 0.85800004 1.4192295e-38
-0.0286 0.012257144 0.85800004 1.3733089e-38
-0.026965715 0.012257144 0.85800004 1.3548698e-38
-0.02533143 0.012257144 0.85800004 1.2166149e-38
-0.023697145 0.012257144 0.85800004 1.1889562e-38
-0.022062857 0.012257144 0.85800004 1.0230803e-38
-0.020428572 0.012257144 0.85800004 9.5854336e-39
-0.018794287 0.012257144 0.85800004 8.7588637e-39
-0.017160002 0.012257144 0.85800004 8.2978855e-39
-0.015561905 0.012285715 0.86000001 7.5617723e-39
-0.013923809 0.012285715 0.86000001 7.1929897e-39
-0.012314286 0.012314286 0.86200005 7.0079216e-39
-0.010672381 0.012314286 0.86200005 6.7313348e-39
-0.0090304762 0.012314286 0.86200005 7.1008488e-39
-0.0074057141 0.012342857 0.86400002 7.28524e-39
-0.0057800002 0.012385715 0.86700004 8.020982e-39
-0.0041380953 0.012414285 0.86900002 7.7443951e-39
-0.0024828573 0.012414285 0.86900002 1.1887803e-38
-0.00082952384 0.012442858 0.87100005 1.7419541e-38
0.00083142857 0.012471429 0.87300003 1.7327675e-38
0.0024942856 0.012471429 0.87300003 1.7512066e-38
0.0041571432 0.012471429 0.87300003 1.7235129e-38
0.0058200001 0.012471429 0.87300003 1.6866346e-38
0.0074828574 0.012471429 0.87300003 1.9631143e-38
0.0091457143 0.012471429 0.87300003 2.350372e-38
-0.071642861 0.014328572 0.88500005 2.3137818e-38
-0.069957145 0.014328572 0.88500005 2.258502e-38
-0.067885719 0.01424762 0.88000005 1.9450369e-38
-0.066059045 0.014215238 0.87800002 1.8527321e-38
-0.064166673 0.014166667 0.87500006 1.6683408e-38
-0.062357143 0.014134286 0.87300003 1.7142933e-38
-0.060555242 0.014101906 0.87100005 1.7880498e-38
-0.058760952 0.014069525 0.86900002 1.8065606e-38
-0.057105716 0.014069525 0.86900002 1.7881214e-38
-0.055322859 0.014037143 0.86700004 1.7143656e-38
-0.053485714 0.013988572 0.86400002 1.7051461e-38
-0.051840004 0.013988572 0.86400002 1.6867093e-38
-0.050078098 0.013956192 0.86200005 1.6682702e-38
-0.04832381 0.013923809 0.86000001 1.6865654e-38
-0.046577144 0.013891429 0.85800004 1.6035894e-38
-0.04494286 0.013891429 0.85800004 1.5942952e-38
-0.043308575 0.013891429 0.85800004 1.5942952e-38
-0.04167429 0.013891429 0.85800004 1.5203585e-38
-0.040040001 0.013891429 0.85800004 1.5203585e-38
-0.038405713 0.013891429 0.85800004 1.5202829e-38
-0.036771428 0.013891429 0.85800004 1.5479415e-38
-0.035137143 0.013891429 0.85800004 1.5665607e-38
-0.033502858 0.013891429 0.85800004 1.5849999e-38
-0.031868573 0.013891429 0.85800004 1.4746913e-38
-0.030234287 0.013891429 0.85800004 1.3179588e-38
-0.0286 0.013891429 0.85800004 1.3180641e-38
-0.026965715 0.013891429 0.85800004 1.2350881e-38
-0.02533143 0.013891429 0.85800004 1.1799149e-38
-0.023697145 0.013891429 0.85800004 1.0047432e-38
-0.022062857 0.013891429 0.85800004 9.5879209e-39
-0.020428572 0.013891429 0.85800004 7.8362039e-39
-0.018794287 0.013891429 0.85800004 7.1015102e-39
-0.017199999 0.013923809 0.86000001 5.9951626e-39
-0.015561905 0.013923809 0.86000001 4.7105278e-39
-0.013923809 0.013923809 0.86000001 5.3558973e-39
-0.012314286 0.013956192 0.86200005 5.0790161e-39
-0.010672381 0.013956192 0.86200005 4.8946248e-39
-0.0090514291 0.013988572 0.86400002 4.9861268e-39
-0.0074057141 0.013988572 0.86400002 5.0783225e-39
-0.0057800002 0.014037143 0.86700004 4.710249e-39
-0.0041380953 0.014069525 0.86900002 4.8024446e-39
-0.0024828573 0.014069525 0.86900002 1.1244919e-38
-0.00082952384 0.014101906 0.87100005 1.6868852e-38
0.00083142857 0.014134286 0.87300003 1.7142568e-38
0.0024942856 0.014134286 0.87300003 1.751135e-38
0.0041571432 0.014134286 0.87300003 1.7142577e-38
0.0058200001 0.014134286 0.87300003 1.6958186e-38
0.0075000003 0.014166667 0.87500006 1.972225e-38
0.0091666672 0.014166667 0.87500006 2.3503711e-38
-0.067731433 0.01588762 0.87800002 2.0649272e-38
-0.066059045 0.01588762 0.87800002 1.8435879e-38
-0.064386666 0.01588762 0.87800002 1.7974901e-38
-0.062500007 0.015833335 0.87500006 1.8525894e-38
-0.060555242 0.015760954 0.87100005 1.861809e-38
-0.058896191 0.015760954 0.87100005 1.8709893e-38
-0.057105716 0.015724761 0.86900002 1.8248915e-38
-0.055322859 0.015688572 0.86700004 1.6956388e-38
-0.053671431 0.015688572 0.86700004 1.5665649e-38
-0.051840004 0.015634285 0.86400002 1.4463901e-38
-0.050078098 0.015598095 0.86200005 1.427951e-38
-0.048436191 0.015598095 0.86200005 1.3910676e-38
-0.046577144 0.015525714 0.85800004 1.3449698e-38
-0.04494286 0.015525714 0.85800004 1.3633736e-38
-0.043308575 0.015525714 0.85800004 1.3725931e-38
-0.04167429 0.015525714 0.85800004 1.4185108e-38
-0.040040001 0.015525714 0.85800004 1.5107064e-38
-0.038405713 0.015525714 0.85800004 1.4465254e-38
-0.036771428 0.015525714 0.85800004 1.538721e-38
-0.035137143 0.015525714 0.85800004 1.5480848e-38
-0.033502858 0.015525714 0.85800004 1.584963e-38
-0.031868573 0.015525714 0.85800004 1.4561077e-38
-0.030234287 0.015525714 0.85800004 1.2993752e-38
-0.0286 0.015525714 0.85800004 1.2628181e-38
-0.027028572 0.015561905 0.86000001 1.1982811e-38
-0.02533143 0.015525714 0.85800004 1.1061591e-38
-0.023697145 0.015525714 0.85800004 9.770852e-39
-0.022062857 0.015525714 0.85800004 9.1291008e-39
-0.020428572 0.015525714 0.85800004 7.2851882e-39
-0.018838096 0.015561905 0.86000001 6.2742999e-39
-0.017199999 0.015561905 0.86000001 5.4445392e-39
-0.015561905 0.015561905 0.86000001 4.8945632e-39
-0.013956192 0.015598095 0.86200005 5.2633457e-39
-0.012314286 0.015598095 0.86200005 4.7109524e-39
-0.010672381 0.015598095 0.86200005 4.8031481e-39
-0.0090514291 0.015634285 0.86400002 4.8028174e-39
-0.0074314289 0.015688572 0.86700004 4.895013e-39
-0.0057933335 0.015724761 0.86900002 4.8939564e-39
-0.0041380953 0.015724761 0.86900002 5.1705433e-39
-0.0024885715 0.015760954 0.87100005 1.0693229e-38
-0.00082952384 0.015760954 0.87100005 1.6224966e-38
0.00083142857 0.015797142 0.87300003 1.6958176e-38
0.0024942856 0.015797142 0.87300003 1.8064524e-38
0.0041666669 0.015833335 0.87500006 1.7696118e-38
0.0058333338 0.015833335 0.87500006 1.7696118e-38
0.0075000003 0.015833335 0.87500006 1.9538935e-38
0.0091666672 0.015833335 0.87500006 2.3504067e-38
-0.067731433 0.01756 0.87800002 2.0465603e-38
-0.066059045 0.01756 0.87800002 1.9449653e-38
-0.064386666 0.01756 0.87800002 1.8435501e-38
-0.062500007 0.017500002 0.87500006 1.8985422e-38
-0.060694285 0.01746 0.87300003 1.8893227e-38
-0.058896191 0.017419999 0.87100005 1.8893215e-38
-0.057105716 0.017380001 0.86900002 1.7971259e-38
-0.055322859 0.017340001 0.86700004 1.6217758e-38
-0.053671431 0.017340001 0.86700004 1.5664584e-38
-0.051840004 0.017280001 0.86400002 1.4830477e-38
-0.050194286 0.017280001 0.86400002 1.3908521e-38
-0.048436191 0.017240001 0.86200005 1.3998177e-38
-0.046685714 0.017199999 0.86000001 1.4090373e-38
-0.04494286 0.017160002 0.85800004 1.4089294e-38
-0.043308575 0.017160002 0.85800004 1.4458076e-38
-0.04167429 0.017160002 0.85800004 1.4183638e-38
-0.040040001 0.017160002 0.85800004 1.5382181e-38
-0.038405713 0.017160002 0.85800004 1.4648546e-38
-0.036771428 0.017160002 0.85800004 1.5754894e-38
-0.035137143 0.017160002 0.85800004 1.5204266e-38
-0.033502858 0.017160002 0.85800004 1.5296462e-38
-0.031868573 0.017160002 0.85800004 1.4191566e-38
-0.030234287 0.017160002 0.85800004 1.326961e-38
-0.0286 0.017160002 0.85800004 1.2627828e-38
-0.027028572 0.017199999 0.86000001 1.1890263e-38
-0.025390476 0.017199999 0.86000001 1.0877906e-38
-0.023752382 0.017199999 0.86000001 1.0232536e-38
-0.022114286 0.017199999 0.86000001 9.0372555e-39
-0.02047619 0.017199999 0.86000001 7.9309079e-39
-0.018838096 0.017199999 0.86000001 5.6306835e-39
-0.017199999 0.017199999 0.86000001 5.4462922e-39
-0.015561905 0.017199999 0.86000001 5.5399074e-39
-0.013956192 0.017240001 0.86200005 5.2633219e-39
-0.012314286 0.017240001 0.86200005 4.0676892e-39
-0.010672381 0.017240001 0.86200005 4.3442761e-39
-0.0090514291 0.017280001 0.86400002 4.3429056e-39
-0.0074314289 0.017340001 0.86700004 4.0663187e-39
-0.0057933335 0.017380001 0.86900002 3.7897122e-39
-0.0041380953 0.017380001 0.86900002 5.3570379e-39
-0.0024885715 0.017419999 0.87100005 1.0783251e-38
-0.00082952384 0.017419999 0.87100005 1.6407184e-38
0.00083142857 0.01746 0.87300003 1.6866341e-38
0.0024942856 0.01746 0.87300003 1.7696101e-38
0.0041666669 0.017500002 0.87500006 1.7512795e-38
0.0058333338 0.017500002 0.87500006 1.760499e-38
0.0075000003 0.017500002 0.87500006 1.9723326e-38
0.0091666672 0.017500002 0.87500006 2.3504428e-38
-0.069561906 0.019276192 0.88000005 2.2769043e-38
-0.067885719 0.019276192 0.88000005 2.0556348e-38
-0.066059045 0.019232381 0.87800002 1.9633325e-38
-0.064386666 0.019232381 0.87800002 1.889576e-38
-0.062500007 0.019166669 0.87500006 1.9169083e-38
-0.060833335 0.019166669 0.87500006 1.7325171e-38
-0.059031431 0.019122858 0.87300003 1.4923432e-38
-0.057237145 0.019079048 0.87100005 1.1973172e-38
-0.055450477 0.019035237 0.86900002 1.2888633e-38
-0.053671431 0.018991429 0.86700004 1.2427655e-38
-0.052020002 0.018991429 0.86700004 1.3257022e-38
-0.050194286 0.018925713 0.86400002 1.4178978e-38
-0.048548572 0.018925713 0.86400002 1.4091089e-38
-0.046685714 0.018838096 0.86000001 1.4183284e-38
-0.045047618 0.018838096 0.86000001 1.4091467e-38
-0.043409526 0.018838096 0.86000001 1.5105619e-38
-0.041771431 0.018838096 0.86000001 1.4830824e-38
-0.040040001 0.018794287 0.85800004 1.6213759e-38
-0.038405713 0.018794287 0.85800004 1.5387576e-38
-0.036771428 0.018794287 0.85800004 1.594075e-38
-0.035137143 0.018794287 0.85800004 1.5665264e-38
-0.033502858 0.018794287 0.85800004 1.5665264e-38
-0.031868573 0.018794287 0.85800004 1.5114236e-38
-0.030234287 0.018794287 0.85800004 1.502204e-38
-0.0286 0.018794287 0.85800004 1.4101897e-38
-0.027028572 0.018838096 0.86000001 1.4009701e-38
-0.025390476 0.018838096 0.86000001 1.3734201e-38
-0.023752382 0.018838096 0.86000001 1.3826396e-38
-0.022114286 0.018838096 0.86000001 1.3919318e-38
-0.02047619 0.018838096 0.86000001 1.42881e-38
-0.018838096 0.018838096 0.86000001 1.4104077e-38
-0.017240001 0.018881904 0.86200005 1.4011882e-38
-0.015598095 0.018881904 0.86200005 1.3735289e-38
-0.013956192 0.018881904 0.86200005 1.3550898e-38
-0.012342857 0.018925713 0.86400002 1.3182837e-38
-0.010697143 0.018925713 0.86400002 1.3182837e-38
-0.0090828575 0.018991429 0.86700004 1.1894979e-38
-0.0074485713 0.019035237 0.86900002 7.8383718e-39
-0.0057933335 0.019035237 0.86900002 8.1150007e-39
-0.0041380953 0.019035237 0.86900002 1.0604283e-38
-0.0024885715 0.019079048 0.87100005 1.1889627e-38
-0.00083142857 0.019122858 0.87300003 1.6130625e-38
0.00083142857 0.019122858 0.87300003 1.7050732e-38
0.0025000002 0.019166669 0.87500006 1.7419515e-38
0.0041666669 0.019166669 0.87500006 1.7420584e-38
0.005853333 0.019232381 0.87800002 1.8158149e-38
0.0075257146 0.019232381 0.87800002 1.926342e-38
0.0091980947 0.019232381 0.87800002 2.3505139e-38
-0.06972 0.021000002 0.88200003 2.2768683e-38
-0.068039998 0.021000002 0.88200003 2.1293553e-38
-0.066059045 0.020904763 0.87800002 2.0278685e-38
-0.064386666 0.020904763 0.87800002 1.9080142e-38
-0.062714286 0.020904763 0.87800002 1.9261279e-38
-0.060833335 0.020833336 0.87500006 1.3452954e-38
-0.059031431 0.020785715 0.87300003 1.5378215e-38
-0.057237145 0.020738097 0.87100005 1.3534302e-38
-0.055450477 0.020690477 0.86900002 1.3437136e-38
-0.053671431 0.020642858 0.86700004 1.3805919e-38
-0.052020002 0.020642858 0.86700004 1.3625426e-38
-0.050194286 0.020571429 0.86400002 1.5284947e-38
-0.048548572 0.020571429 0.86400002 1.5014152e-38
-0.046794288 0.020523811 0.86200005 1.5659522e-38
-0.045047618 0.02047619 0.86000001 1.5201046e-38
-0.043409526 0.02047619 0.86000001 1.5293242e-38
-0.041771431 0.02047619 0.86000001 1.5385793e-38
-0.040133331 0.02047619 0.86000001 1.5846771e-38
-0.038405713 0.020428572 0.85800004 1.520356e-38
-0.036771428 0.020428572 0.85800004 1.6033321e-38
-0.035137143 0.020428572 0.85800004 1.5943306e-38
-0.033502858 0.020428572 0.85800004 1.5666719e-38
-0.031868573 0.020428572 0.85800004 1.5758186e-38
-0.030234287 0.020428572 0.85800004 1.5573794e-38
-0.0286 0.020428572 0.85800004 1.5297576e-38
-0.027028572 0.02047619 0.86000001 1.585075e-38
-0.025390476 0.02047619 0.86000001 1.5759643e-38
-0.023752382 0.02047619 0.86000001 1.5759643e-38
-0.022114286 0.02047619 0.86000001 1.5299021e-38
-0.02047619 0.02047619 0.86000001 1.6220977e-38
-0.018881904 0.020523811 0.86200005 1.612986e-38
-0.017240001 0.020523811 0.86200005 1.612986e-38
-0.015598095 0.020523811 0.86200005 1.6220621e-38
-0.013956192 0.020523811 0.86200005 1.6220621e-38
-0.012342857 0.020571429 0.86400002 1.5668526e-38
-0.010734286 0.020642858 0.86700004 1.5852918e-38
-0.0090828575 0.020642858 0.86700004 1.4012997e-38
-0.0074485713 0.020690477 0.86900002 1.0878346e-38
-0.0057933335 0.020690477 0.86900002 9.8641687e-39
-0.0041476195 0.020738097 0.87100005 1.1800277e-38
-0.0024885715 0.020738097 0.87100005 1.4744775e-38
-0.00083142857 0.020785715 0.87300003 1.695747e-38
0.00083333335 0.020833336 0.87500006 1.6866707e-38
0.0025085714 0.020904763 0.87800002 1.7327685e-38
0.0041809524 0.020904763 0.87800002 1.7512429e-38
0.005853333 0.020904763 0.87800002 1.769682e-38
0.0075257146 0.020904763 0.87800002 1.9170143e-38
0.0091980947 0.020904763 0.87800002 2.3504058e-38
-0.069957145 0.022757143 0.88500005 2.295415e-38
-0.068271436 0.022757143 0.88500005 2.1663411e-38
-0.066360004 0.022680001 0.88200003 2.0186489e-38
-0.064386666 0.022577144 0.87800002 1.9356728e-38
-0.062714286 0.022577144 0.87800002 1.9446037e-38
-0.061041906 0.022577144 0.87800002 1.2346974e-38
-0.05916667 0.022500001 0.87500006 1.4182212e-38
-0.057237145 0.022397144 0.87100005 1.5380756e-38
-0.055450477 0.022345716 0.86900002 1.4921267e-38
-0.053671431 0.022294287 0.86700004 1.4368093e-38
-0.052020002 0.022294287 0.86700004 1.3079519e-38
-0.050194286 0.022217143 0.86400002 1.4739041e-38
-0.048548572 0.022217143 0.86400002 1.4463889e-38
-0.046794288 0.022165716 0.86200005 1.7414149e-38
-0.045047618 0.022114286 0.86000001 1.6955655e-38
-0.043409526 0.022114286 0.86000001 1.6679068e-38
-0.041771431 0.022114286 0.86000001 1.6587596e-38
-0.040133331 0.022114286 0.86000001 1.7048574e-38
-0.038405713 0.022062857 0.85800004 1.6035501e-38
-0.036771428 0.022062857 0.85800004 1.5943306e-38
-0.035219047 0.022114286 0.86000001 1.6127349e-38
-0.033580955 0.022114286 0.86000001 1.6772719e-38
-0.031942859 0.022114286 0.86000001 1.6404987e-38
-0.030304762 0.022114286 0.86000001 1.6589378e-38
-0.028666668 0.022114286 0.86000001 1.5851122e-38
-0.027028572 0.022114286 0.86000001 1.5758927e-38
-0.025390476 0.022114286 0.86000001 1.6311738e-38
-0.023807621 0.022165716 0.86200005 1.668052e-38
-0.022114286 0.022114286 0.86000001 1.6588322e-38
-0.02047619 0.022114286 0.86000001 1.6496126e-38
-0.018881904 0.022165716 0.86200005 1.6220248e-38
-0.017240001 0.022165716 0.86200005 1.6220248e-38
-0.015598095 0.022165716 0.86200005 1.6312457e-38
-0.013956192 0.022165716 0.86200005 1.6773435e-38
-0.012342857 0.022217143 0.86400002 1.6128074e-38
-0.010734286 0.022294287 0.86700004 1.6404661e-38
-0.0090828575 0.022294287 0.86700004 1.4563644e-38
-0.0074314289 0.022294287 0.86700004 1.2996319e-38
-0.0057933335 0.022345716 0.86900002 1.180065e-38
-0.0041476195 0.022397144 0.87100005 1.2261628e-38
-0.0024942856 0.022448571 0.87300003 1.3456907e-38
-0.00083142857 0.022448571 0.87300003 1.6683754e-38
0.00083333335 0.022500001 0.87500006 1.6958549e-38
0.0025085714 0.022577144 0.87800002 1.7327332e-38
0.0041809524 0.022577144 0.87800002 1.7327322e-38
0.005853333 0.022577144 0.87800002 1.7696104e-38
0.0075257146 0.022577144 0.87800002 1.907831e-38
0.0091980947 0.022577144 0.87800002 2.3505861e-38
-0.074074291 0.024691431 0.89400005 2.2861239e-38
-0.072371431 0.024691431 0.89400005 2.304563e-38
-0.070431434 0.024608571 0.89100003 2.2954519e-38
-0.068425715 0.024498096 0.88700002 2.166378e-38
-0.066585712 0.024442857 0.88500005 2.009501e-38
-0.064680003 0.024360001 0.88200003 1.9265249e-38
-0.062857151 0.024304764 0.88000005 2.0181444e-38
-0.061041906 0.024249524 0.87800002 1.4188728e-38
-0.05916667 0.024166668 0.87500006 1.4086738e-38
-0.057368573 0.024111429 0.87300003 1.8512128e-38
-0.055578098 0.024056191 0.87100005 1.6402512e-38
-0.053795237 0.024000952 0.86900002 1.1977122e-38
-0.052020002 0.023945715 0.86700004 1.0872935e-38
-0.050194286 0.023862857 0.86400002 1.2532457e-38
-0.048548572 0.023862857 0.86400002 1.3176747e-38
-0.046794288 0.023807621 0.86200005 1.6680181e-38
-0.045047618 0.023752382 0.86000001 1.6773782e-38
-0.043409526 0.023752382 0.86000001 1.6220608e-38
-0.041771431 0.023752382 0.86000001 1.6312451e-38
-0.040133331 0.023752382 0.86000001 1.6220255e-38
-0.038495239 0.023752382 0.86000001 1.6035501e-38
-0.036857143 0.023752382 0.86000001 1.6035501e-38
-0.035219047 0.023752382 0.86000001 1.61277e-38
-0.033580955 0.023752382 0.86000001 1.61277e-38
-0.031942859 0.023752382 0.86000001 1.5667087e-38
-0.030304762 0.023752382 0.86000001 1.5482696e-38
-0.028666668 0.023752382 0.86000001 1.5759605e-38
-0.027028572 0.023752382 0.86000001 1.5943996e-38
-0.025449526 0.023807621 0.86200005 1.6403933e-38
-0.023807621 0.023807621 0.86200005 1.6311738e-38
-0.022165716 0.023807621 0.86200005 1.621883e-38
-0.020523811 0.023807621 0.86200005 1.6311026e-38
-0.018881904 0.023807621 0.86200005 1.6311735e-38
-0.017240001 0.023807621 0.86200005 1.6311735e-38
-0.015598095 0.023807621 0.86200005 1.631282e-38
-0.013956192 0.023807621 0.86200005 1.631282e-38
-0.012342857 0.023862857 0.86400002 1.6127723e-38
-0.010734286 0.023945715 0.86700004 1.5482354e-38
-0.0090828575 0.023945715 0.86700004 1.4101956e-38
-0.0074314289 0.023945715 0.86700004 1.2719021e-38
-0.0057933335 0.024000952 0.86900002 1.1707351e-38
-0.0041476195 0.024056191 0.87100005 1.1338569e-38
-0.0024942856 0.024111429 0.87300003 1.2535317e-38
-0.00083142857 0.024111429 0.87300003 1.6591925e-38
0.00083333335 0.024166668 0.87500006 1.6958542e-38
0.0025085714 0.024249524 0.87800002 1.7511716e-38
0.0041809524 0.024249524 0.87800002 1.7510997e-38
0.0058666668 0.024304764 0.88000005 1.723441e-38
0.0075428574 0.024304764 0.88000005 1.8986117e-38
0.0092190476 0.024304764 0.88000005 2.3506224e-38
-0.074239999 0.026453335 0.89600003 2.2769043e-38
-0.072371431 0.026394285 0.89400005 2.2676847e-38
-0.070431434 0.026305715 0.89100003 2.2769409e-38
-0.068425715 0.026187621 0.88700002 2.2031844e-38
-0.066585712 0.026128573 0.88500005 2.0555274e-38
-0.064680003 0.026040001 0.88200003 1.9356731e-38
-0.063000001 0.026040001 0.88200003 1.9722264e-38
-0.061180957 0.025980955 0.88000005 1.4835896e-38
-0.059369523 0.025921905 0.87800002 1.6304901e-38
-0.057500005 0.025833335 0.87500006 1.9992726e-38
-0.055578098 0.025715239 0.87100005 1.6218813e-38
-0.053795237 0.025656192 0.86900002 1.1148054e-38
-0.052020002 0.025597144 0.86700004 1.1609071e-38
-0.050194286 0.025508571 0.86400002 1.3176397e-38
-0.048548572 0.025508571 0.86400002 1.3913216e-38
-0.046794288 0.025449526 0.86200005 1.5203955e-38
-0.045152385 0.025449526 0.86200005 1.5576649e-38
-0.043409526 0.025390476 0.86000001 1.576104e-38
-0.041771431 0.025390476 0.86000001 1.5851826e-38
-0.040133331 0.025390476 0.86000001 1.5851826e-38
-0.038495239 0.025390476 0.86000001 1.5851826e-38
-0.036857143 0.025390476 0.86000001 1.6128413e-38
-0.035219047 0.025390476 0.86000001 1.6035857e-38
-0.033580955 0.025390476 0.86000001 1.640464e-38
-0.031942859 0.025390476 0.86000001 1.4654749e-38
-0.030304762 0.025390476 0.86000001 8.5698369e-39
-0.028666668 0.025390476 0.86000001 1.1426773e-38
-0.027091429 0.025449526 0.86200005 1.5391186e-38
-0.025449526 0.025449526 0.86200005 1.5389403e-38
-0.023807621 0.025449526 0.86200005 1.4836229e-38
-0.022165716 0.025449526 0.86200005 1.4191965e-38
-0.020523811 0.025449526 0.86200005 1.3730987e-38
-0.018881904 0.025449526 0.86200005 1.4006844e-38
-0.017240001 0.025449526 0.86200005 1.409904e-38
-0.015634285 0.025508571 0.86400002 1.2717917e-38
-0.013988572 0.025508571 0.86400002 1.244133e-38
-0.012342857 0.025508571 0.86400002 8.7531898e-39
-0.010734286 0.025597144 0.86700004 8.4766029e-39
-0.0090828575 0.025597144 0.86700004 8.2929123e-39
-0.0074314289 0.025597144 0.86700004 7.4631517e-39
-0.0057933335 0.025656192 0.86900002 8.9396298e-39
-0.0041476195 0.025715239 0.87100005 1.0230369e-38
-0.0024942856 0.025774287 0.87300003 1.2718643e-38
-0.00083333335 0.025833335 0.87500006 1.7051838e-38
0.00083619048 0.025921905 0.87800002 1.7235123e-38
0.0025085714 0.025921905 0.87800002 1.7696101e-38
0.0041904761 0.025980955 0.88000005 1.7695391e-38
0.0058666668 0.025980955 0.88000005 1.7234413e-38
0.0075428574 0.025980955 0.88000005 1.907796e-38
0.0092714289 0.026128573 0.88500005 2.3505871e-38
0.010957144 0.026128573 0.88500005 2.3046346e-38
-0.074074291 0.028097145 0.89400005 2.2770128e-38
-0.072371431 0.028097145 0.89400005 2.2862323e-38
-0.070431434 0.028002858 0.89100003 2.2677213e-38
-0.068580002 0.027940001 0.88900006 2.2031844e-38
-0.066736192 0.027877143 0.88700002 2.1109164e-38
-0.064900003 0.027814288 0.88500005 1.9265252e-38
-0.063000001 0.027720001 0.88200003 1.935457e-38
-0.061319999 0.027720001 0.88200003 1.5758941e-38
-0.059504766 0.027657144 0.88000005 1.7319769e-38
-0.057500005 0.027500002 0.87500006 1.9348073e-38
-0.055705715 0.027437143 0.87300003 1.5389784e-38
-0.053795237 0.027311428 0.86900002 1.0872198e-38
-0.052020002 0.027248573 0.86700004 1.2435219e-38
-0.050194286 0.027154287 0.86400002 1.5938653e-38
-0.048548572 0.027154287 0.86400002 1.5021712e-38
-0.046902858 0.027154287 0.86400002 1.2624626e-38
-0.045152385 0.027091429 0.86200005 1.2350187e-38
-0.043409526 0.027028572 0.86000001 1.3272143e-38
-0.041771431 0.027028572 0.86000001 1.3916802e-38
-0.040133331 0.027028572 0.86000001 1.4008998e-38
-0.038495239 0.027028572 0.86000001 1.3639484e-38
-0.036857143 0.027028572 0.86000001 1.3362897e-38
-0.035219047 0.027028572 0.86000001 1.3914992e-38
-0.033580955 0.027028572 0.86000001 1.5297926e-38
-0.031942859 0.027028572 0.86000001 1.3825366e-38
-0.030304762 0.027028572 0.86000001 4.6979988e-39
-0.028666668 0.027028572 0.86000001 7.090346e-39
-0.027091429 0.027091429 0.86200005 1.4097203e-38
-0.025449526 0.027091429 0.86200005 1.3640931e-38
-0.023807621 0.027091429 0.86200005 1.2811171e-38
-0.022165716 0.027091429 0.86200005 1.2166185e-38
-0.020523811 0.027091429 0.86200005 1.1889598e-38
-0.018881904 0.027091429 0.86200005 1.1795937e-38
-0.017240001 0.027091429 0.86200005 1.1888133e-38
-0.015634285 0.027154287 0.86400002 1.15201e-38
-0.013988572 0.027154287 0.86400002 8.754231e-39
-0.012342857 0.027154287 0.86400002 7.7410866e-39
-0.010734286 0.027248573 0.86700004 7.9254751e-39
-0.0090828575 0.027248573 0.86700004 7.3691386e-39
-0.0074314289 0.027248573 0.86700004 8.4754861e-39
-0.0058066668 0.027374288 0.87100005 9.858719e-39
-0.0041571432 0.027437143 0.87300003 1.0965067e-38
-0.0024942856 0.027437143 0.87300003 1.3268563e-38
-0.00083333335 0.027500002 0.87500006 1.7232975e-38
0.00083619048 0.027594287 0.87800002 1.6773066e-38
0.0025142857 0.027657144 0.88000005 1.7602827e-38
0.0041904761 0.027657144 0.88000005 1.7695025e-38
0.0058666668 0.027657144 0.88000005 1.7510634e-38
0.0075600003 0.027720001 0.88200003 1.9169436e-38
0.0092714289 0.027814288 0.88500005 2.3504432e-38
0.010957144 0.027814288 0.88500005 2.2953434e-38
-0.074074291 0.0298 0.89400005 2.2770125e-38
-0.072371431 0.0298 0.89400005 2.2954516e-38
-0.070431434 0.029700002 0.89100003 2.2769049e-38
-0.068580002 0.029633334 0.88900006 2.1662701e-38
-0.066736192 0.029566666 0.88700002 2.110772e-38
-0.064900003 0.029500002 0.88500005 1.9448198e-38
-0.063214287 0.029500002 0.88500005 1.9354933e-38
-0.061319999 0.0294 0.88200003 1.8432977e-38
-0.059504766 0.029333334 0.88000005 1.843224e-38
-0.057697143 0.029266668 0.87800002 1.7971262e-38
-0.055833336 0.029166669 0.87500006 1.4099066e-38
-0.053919047 0.029033335 0.87100005 1.0780024e-38
-0.052020002 0.028900001 0.86700004 1.2712538e-38
-0.050368574 0.028900001 0.86700004 1.6584754e-38
-0.048548572 0.028800001 0.86400002 1.4467447e-38
-0.046902858 0.028800001 0.86400002 8.2903396e-39
-0.045152385 0.028733335 0.86200005 7.7422525e-39
-0.043510478 0.028733335 0.86200005 7.0046874e-39
-0.041771431 0.028666668 0.86000001 8.9378698e-39
-0.040133331 0.028666668 0.86000001 1.0044217e-38
-0.038495239 0.028666668 0.86000001 7.7360896e-39
-0.036857143 0.028666668 0.86000001 7.2751114e-39
-0.035219047 0.028666668 0.86000001 8.5654999e-39
-0.033580955 0.028666668 0.86000001 1.1607956e-38
-0.031942859 0.028666668 0.86000001 9.2156001e-39
-0.030304762 0.028666668 0.86000001 4.1448405e-39
-0.028666668 0.028666668 0.86000001 7.0013958e-39
-0.027091429 0.028733335 0.86200005 1.0965808e-38
-0.025449526 0.028733335 0.86200005 9.9523496e-39
-0.023807621 0.028733335 0.86200005 7.3708748e-39
-0.022165716 0.028733335 0.86200005 8.5709159e-39
-0.020523811 0.028733335 0.86200005 8.5709159e-39
-0.018881904 0.028733335 0.86200005 9.1215576e-39
-0.017240001 0.028733335 0.86200005 1.0412296e-38
-0.015598095 0.028733335 0.86200005 9.769099e-39
-0.013956192 0.028733335 0.86200005 7.0032301e-39
-0.012342857 0.028800001 0.86400002 7.3755635e-39
-0.010697143 0.028800001 0.86400002 9.4038674e-39
-0.0090828575 0.028900001 0.86700004 1.0228285e-38
-0.0074314289 0.028900001 0.86700004 1.0320481e-38
-0.0058066668 0.029033335 0.87100005 9.5843574e-39
-0.0041571432 0.029100001 0.87300003 1.1612661e-38
-0.0025000002 0.029166669 0.87500006 1.2717937e-38
-0.00083619048 0.029266668 0.87800002 1.6774545e-38
0.00083619048 0.029266668 0.87800002 1.7326959e-38
0.0025142857 0.029333334 0.88000005 1.7234763e-38
0.0041904761 0.029333334 0.88000005 1.7603533e-38
0.0058800001 0.0294 0.88200003 1.7695729e-38
0.0075600003 0.0294 0.88200003 1.8800657e-38
0.0092714289 0.029500002 0.88500005 2.3503714e-38
0.010957144 0.029500002 0.88500005 2.2953434e-38
-0.074074291 0.031502858 0.89400005 2.2584654e-38
-0.072371431 0.031502858 0.89400005 2.3137828e-38
-0.070431434 0.031397145 0.89100003 2.2861244e-38
-0.068580002 0.031326666 0.88900006 2.1662701e-38
-0.066736192 0.031256191 0.88700002 2.0738937e-38
-0.065046668 0.031256191 0.88700002 1.9540394e-38
-0.063214287 0.031185716 0.88500005 1.9447485e-38
-0.061528575 0.031185716 0.88500005 1.8802116e-38
-0.059504766 0.031009525 0.88000005 1.8157096e-38
-0.057697143 0.030939048 0.87800002 1.7327336e-38
-0.055833336 0.030833337 0.87500006 1.3547678e-38
-0.054042861 0.030762859 0.87300003 1.0781809e-38
-0.052140001 0.030621905 0.86900002 1.4187652e-38
-0.050194286 0.030445714 0.86400002 1.5386195e-38
-0.048548572 0.030445714 0.86400002 1.4189424e-38
-0.046902858 0.030445714 0.86400002 9.4874464e-39
-0.045257144 0.030445714 0.86400002 8.8496636e-39
-0.04361143 0.030445714 0.86400002 7.9277073e-39
-0.041771431 0.030304762 0.86000001 8.0138045e-39
-0.040133331 0.030304762 0.86000001 7.3684351e-39
-0.038495239 0.030304762 0.86000001 7.6431527e-39
-0.036857143 0.030304762 0.86000001 8.6572948e-39
-0.035300955 0.030375239 0.86200005 8.7498632e-39
-0.033659048 0.030375239 0.86200005 9.2108413e-39
-0.032017142 0.030375239 0.86200005 7.8315713e-39
-0.030304762 0.030304762 0.86000001 7.64718e-39
-0.028666668 0.030304762 0.86000001 9.0308277e-39
-0.027091429 0.030375239 0.86200005 1.0413762e-38
-0.025449526 0.030375239 0.86200005 8.9399703e-39
-0.023807621 0.030375239 0.86200005 9.4931357e-39
-0.022165716 0.030375239 0.86200005 1.1242822e-38
-0.020523811 0.030375239 0.86200005 8.292562e-39
-0.018881904 0.030375239 0.86200005 7.6438813e-39
-0.017240001 0.030375239 0.86200005 1.105512e-38
-0.015598095 0.030375239 0.86200005 9.6779655e-39
-0.013956192 0.030375239 0.86200005 7.1886835e-39
-0.012342857 0.030445714 0.86400002 7.6500022e-39
-0.010697143 0.030445714 0.86400002 9.954893e-39
-0.0090828575 0.03055143 0.86700004 1.0137163e-38
-0.0074314289 0.03055143 0.86700004 9.6761845e-39
-0.0058066668 0.030692382 0.87100005 8.3865009e-39
-0.0041571432 0.030762859 0.87300003 1.2350913e-38
-0.0025000002 0.030833337 0.87500006 1.4194126e-38
-0.00083619048 0.030939048 0.87800002 1.68678e-38
0.00083619048 0.030939048 0.87800002 1.7418813e-38
0.0025142857 0.031009525 0.88000005 1.7326617e-38
0.0041904761 0.031009525 0.88000005 1.7695013e-38
0.0058800001 0.031080002 0.88200003 1.7695013e-38
0.0075600003 0.031080002 0.88200003 1.861591e-38
0.0092714289 0.031185716 0.88500005 2.3502998e-38
0.010957144 0.031185716 0.88500005 2.276832e-38
-0.074074291 0.033205714 0.89400005 2.2584652e-38
-0.072371431 0.033205714 0.89400005 2.3414412e-38
-0.070431434 0.033094287 0.89100003 2.2769046e-38
-0.068580002 0.033020001 0.88900006 2.1754894e-38
-0.066736192 0.032945715 0.88700002 2.0647117e-38
-0.065046668 0.032945715 0.88700002 2.0186139e-38
-0.063214287 0.032871433 0.88500005 1.9448201e-38
-0.061528575 0.032871433 0.88500005 1.9171614e-38
-0.059504766 0.032685716 0.88000005 1.9172304e-38
-0.057697143 0.03261143 0.87800002 1.7144e-38
-0.05602476 0.03261143 0.87800002 1.3087814e-38
-0.054166671 0.032500003 0.87500006 8.3858366e-39
-0.052140001 0.032277141 0.86900002 1.0686774e-38
-0.050194286 0.032091428 0.86400002 1.4005817e-38
-0.048548572 0.032091428 0.86400002 1.2903341e-38
-0.046902858 0.032091428 0.86400002 8.3857554e-39
-0.045257144 0.032091428 0.86400002 8.7564142e-39
-0.04361143 0.032091428 0.86400002 1.0600327e-38
-0.041868571 0.032017142 0.86200005 9.2170449e-39
-0.040226668 0.032017142 0.86200005 6.0823934e-39
-0.038808573 0.032202858 0.86700004 8.1077756e-39
-0.037157144 0.032202858 0.86700004 1.1334623e-38
-0.035505716 0.032202858 0.86700004 9.305237e-39
-0.033737142 0.032091428 0.86400002 8.4754763e-39
-0.032017142 0.032017142 0.86200005 8.4790734e-39
-0.030375239 0.032017142 0.86200005 1.0138595e-38
-0.028733335 0.032017142 0.86200005 1.2167253e-38
-0.027091429 0.032017142 0.86200005 1.1982862e-38
-0.025449526 0.032017142 0.86200005 9.8608826e-39
-0.023807621 0.032017142 0.86200005 1.1981382e-38
-0.022165716 0.032017142 0.86200005 1.1889271e-38
-0.020523811 0.032017142 0.86200005 8.0170541e-39
-0.018881904 0.032017142 0.86200005 7.8301069e-39
-0.017240001 0.032017142 0.86200005 1.0964758e-38
-0.015634285 0.032091428 0.86400002 9.1247343e-39
-0.013988572 0.032091428 0.86400002 7.2808329e-39
-0.012342857 0.032091428 0.86400002 7.9248024e-39
-0.010734286 0.032202858 0.86700004 9.768715e-39
-0.0090828575 0.032202858 0.86700004 1.0043175e-38
-0.0074485713 0.032277141 0.86900002 1.078074e-38
-0.0058066668 0.032351431 0.87100005 1.0966949e-38
-0.0041666669 0.032500003 0.87500006 1.3917209e-38
-0.0025000002 0.032500003 0.87500006 1.4471089e-38
-0.00083619048 0.03261143 0.87800002 1.6775979e-38
0.00083619048 0.03261143 0.87800002 1.7327339e-38
0.0025142857 0.032685716 0.88000005 1.7419534e-38
0.0042000003 0.032760002 0.88200003 1.7695013e-38
0.0058800001 0.032760002 0.88200003 1.7787208e-38
0.0075857146 0.032871433 0.88500005 1.8615917e-38
0.0092714289 0.032871433 0.88500005 2.3504086e-38
0.010957144 0.032871433 0.88500005 2.2953434e-38
-0.074074291 0.034908574 0.89400005 2.2583573e-38
-0.072371431 0.034908574 0.89400005 2.3136746e-38
-0.070431434 0.034791429 0.89100003 2.2861241e-38
-0.068580002 0.034713335 0.88900006 2.1939285e-38
-0.066736192 0.034635238 0.88700002 2.0924417e-38
-0.065046668 0.034635238 0.88700002 1.9910265e-38
-0.063357145 0.034635238 0.88700002 1.9264886e-38
-0.061528575 0.034557145 0.88500005 1.917269e-38
-0.059640002 0.034440003 0.88200003 1.9173039e-38
-0.057828575 0.034361906 0.88000005 1.7697909e-38
-0.05602476 0.034283809 0.87800002 1.4472894e-38
-0.054166671 0.034166671 0.87500006 8.7567646e-39
-0.052260004 0.034010477 0.87100005 9.7661885e-39
-0.050600957 0.034010477 0.87100005 1.0964732e-38
-0.048941907 0.034010477 0.87100005 9.9538434e-39
-0.046902858 0.033737142 0.86400002 8.2021264e-39
-0.045257144 0.033737142 0.86400002 8.8474762e-39
-0.043762859 0.033854287 0.86700004 1.2074323e-38
-0.04211143 0.033854287 0.86700004 1.1246753e-38
-0.040460002 0.033854287 0.86700004 6.6369713e-39
-0.038808573 0.033854287 0.86700004 8.5687635e-39
-0.037157144 0.033854287 0.86700004 1.0689263e-38
-0.035505716 0.033854287 0.86700004 8.6623675e-39
-0.03393238 0.03393238 0.86900002 8.1091937e-39
-0.032277141 0.03393238 0.86900002 8.6634675e-39
-0.03055143 0.033854287 0.86700004 9.9542063e-39
-0.028800001 0.033737142 0.86400002 1.2627166e-38
-0.027091429 0.033659048 0.86200005 1.170521e-38
-0.025449526 0.033659048 0.86200005 7.0982381e-39
-0.023807621 0.033659048 0.86200005 1.2629961e-38
-0.022165716 0.033659048 0.86200005 1.2630082e-38
-0.020523811 0.033659048 0.86200005 7.2827359e-39
-0.018881904 0.033659048 0.86200005 7.1832591e-39
-0.017240001 0.033659048 0.86200005 7.8286285e-39
-0.015634285 0.033737142 0.86400002 7.6445876e-39
-0.013988572 0.033737142 0.86400002 8.3821414e-39
-0.012342857 0.033737142 0.86400002 8.2017088e-39
-0.010734286 0.033854287 0.86700004 9.7690345e-39
-0.0091038095 0.03393238 0.86900002 1.1703013e-38
-0.0074485713 0.03393238 0.86900002 1.2440578e-38
-0.0058200001 0.034088571 0.87300003 1.4100489e-38
-0.0041666669 0.034166671 0.87500006 1.5206836e-38
-0.0025000002 0.034166671 0.87500006 1.6130581e-38
-0.00083619048 0.034283809 0.87800002 1.6683754e-38
0.00083619048 0.034283809 0.87800002 1.7050382e-38
0.0025142857 0.034361906 0.88000005 1.7419164e-38
0.0041904761 0.034361906 0.88000005 1.7786489e-38
0.0058800001 0.034440003 0.88200003 1.7970881e-38
0.0075857146 0.034557145 0.88500005 1.8615917e-38
0.0092714289 0.034557145 0.88500005 2.3503726e-38
0.010957144 0.034557145 0.88500005 2.2860876e-38
-0.072371431 0.03661143 0.89400005 2.2861957e-38
-0.070431434 0.03648857 0.89100003 2.2861244e-38
-0.068580002 0.036406666 0.88900006 2.2123679e-38
-0.066736192 0.036324766 0.88700002 2.1016969e-38
-0.065046668 0.036324766 0.88700002 1.9818425e-38
-0.063357145 0.036324766 0.88700002 1.9448198e-38
-0.061528575 0.036242858 0.88500005 1.9079416e-38
-0.059640002 0.036120001 0.88200003 1.9171938e-38
-0.057828575 0.036038097 0.88000005 1.871096e-38
-0.05602476 0.035956193 0.87800002 1.5760433e-38
-0.054166671 0.035833336 0.87500006 1.5207259e-38
-0.052260004 0.035669528 0.87100005 1.4010101e-38
-0.050484765 0.03558762 0.86900002 1.3272536e-38
-0.048829522 0.03558762 0.86900002 1.0784365e-38
-0.047174286 0.03558762 0.86900002 8.9404524e-39
-0.045414288 0.035505716 0.86700004 9.586479e-39
-0.043762859 0.035505716 0.86700004 1.2260152e-38
-0.042208571 0.03558762 0.86900002 1.1338181e-38
-0.040460002 0.035505716 0.86700004 6.6362034e-39
-0.038808573 0.035505716 0.86700004 8.2922117e-39
-0.037242856 0.03558762 0.86900002 1.0412711e-38
-0.035505716 0.035505716 0.86700004 1.0043852e-38
-0.033854287 0.035505716 0.86700004 9.951656e-39
-0.032091428 0.035382856 0.86400002 8.6631144e-39
-0.030445714 0.035382856 0.86400002 6.0816367e-39
-0.028800001 0.035382856 0.86400002 9.5829029e-39
-0.027091429 0.035300955 0.86200005 1.0412664e-38
-0.025449526 0.035300955 0.86200005 1.0137104e-38
-0.023807621 0.035300955 0.86200005 1.317956e-38
-0.022165716 0.035300955 0.86200005 1.2996319e-38
-0.020523811 0.035300955 0.86200005 1.0507037e-38
-0.018925713 0.035382856 0.86400002 1.0597051e-38
-0.017280001 0.035382856 0.86400002 1.0320464e-38
-0.015688572 0.035505716 0.86700004 1.3916717e-38
-0.014037143 0.035505716 0.86700004 1.4746478e-38
-0.012414285 0.03558762 0.86900002 1.5022421e-38
-0.010759047 0.03558762 0.86900002 1.5575595e-38
-0.0091038095 0.03558762 0.86900002 1.493167e-38
-0.0074657151 0.035669528 0.87100005 1.5853627e-38
-0.0058200001 0.035751428 0.87300003 1.5668533e-38
-0.0041666669 0.035833336 0.87500006 1.6406098e-38
-0.0025000002 0.035833336 0.87500006 1.6405363e-38
-0.00083619048 0.035956193 0.87800002 1.6497558e-38
0.00083809526 0.036038097 0.88000005 1.6958536e-38
0.0025142857 0.036038097 0.88000005 1.7327319e-38
0.0041904761 0.036038097 0.88000005 1.7419502e-38
0.0058800001 0.036120001 0.88200003 1.7788284e-38
0.0075857146 0.036242858 0.88500005 1.8524444e-38
0.0092714289 0.036242858 0.88500005 2.3505169e-38
0.010957144 0.036242858 0.88500005 2.3137825e-38
-0.072533339 0.038399998 0.89600003 2.2770128e-38
-0.070431434 0.038185716 0.89100003 2.2677213e-38
-0.068580002 0.0381 0.88900006 2.2124039e-38
-0.066736192 0.038014285 0.88700002 2.1109522e-38
-0.065046668 0.038014285 0.88700002 1.9818783e-38
-0.063357145 0.038014285 0.88700002 1.9816614e-38
-0.061528575 0.03792857 0.88500005 1.9171244e-38
-0.059640002 0.037800003 0.88200003 1.8987196e-38
-0.057828575 0.037714288 0.88000005 1.8618414e-38
-0.05602476 0.037628572 0.87800002 1.8248576e-38
-0.054166671 0.037500001 0.87500006 1.7603207e-38
-0.052379999 0.037414286 0.87300003 1.6957474e-38
-0.050484765 0.037242856 0.86900002 1.6865279e-38
-0.048829522 0.037242856 0.86900002 1.4841303e-38
-0.047174286 0.037242856 0.86900002 1.1614456e-38
-0.04551905 0.037242856 0.86900002 1.096722e-38
-0.043863807 0.037242856 0.86900002 1.2626742e-38
-0.042208571 0.037242856 0.86900002 1.1890285e-38
-0.040460002 0.037157144 0.86700004 1.1798089e-38
-0.038808573 0.037157144 0.86700004 1.2350937e-38
-0.037242856 0.037242856 0.86900002 1.0968002e-38
-0.035505716 0.037157144 0.86700004 1.0871798e-38
-0.033854287 0.037157144 0.86700004 1.1978145e-38
-0.032091428 0.037028573 0.86400002 1.1428618e-38
-0.030445714 0.037028573 0.86400002 8.8471399e-39
-0.028800001 0.037028573 0.86400002 9.9502238e-39
-0.027091429 0.036942858 0.86200005 1.1425354e-38
-0.025449526 0.036942858 0.86200005 1.1333527e-38
-0.023807621 0.036942858 0.86200005 1.3822809e-38
-0.022217143 0.037028573 0.86400002 1.3825354e-38
-0.020571429 0.037028573 0.86400002 1.3087789e-38
-0.018925713 0.037028573 0.86400002 1.234951e-38
-0.017340001 0.037157144 0.86700004 1.299488e-38
-0.015688572 0.037157144 0.86700004 1.4835876e-38
-0.014069525 0.037242856 0.86900002 1.538905e-38
-0.012414285 0.037242856 0.86900002 1.6403231e-38
-0.01078381 0.037328575 0.87100005 1.5573471e-38
-0.0091247624 0.037328575 0.87100005 1.4838365e-38
-0.0074657151 0.037328575 0.87100005 1.557593e-38
-0.0058200001 0.037414286 0.87300003 1.5759999e-38
-0.0041809524 0.037628572 0.87800002 1.6405368e-38
-0.0025085714 0.037628572 0.87800002 1.6220255e-38
-0.00083809526 0.037714288 0.88000005 1.6865625e-38
0.00083809526 0.037714288 0.88000005 1.7050732e-38
0.0025142857 0.037714288 0.88000005 1.751171e-38
0.0041904761 0.037714288 0.88000005 1.7327675e-38
0.0058800001 0.037800003 0.88200003 1.7512066e-38
0.0075857146 0.03792857 0.88500005 1.8341498e-38
0.0092714289 0.03792857 0.88500005 2.3412257e-38
0.010957144 0.03792857 0.88500005 2.304563e-38
-0.070431434 0.039882861 0.89100003 2.2861241e-38
-0.068580002 0.039793335 0.88900006 2.2308068e-38
-0.066736192 0.039703812 0.88700002 2.129355e-38
-0.065046668 0.039703812 0.88700002 2.0279398e-38
-0.063357145 0.039703812 0.88700002 1.9632941e-38
-0.061528575 0.039614286 0.88500005 1.8895376e-38
-0.059640002 0.039480001 0.88200003 1.9079053e-38
-0.057828575 0.039390478 0.88000005 1.8525879e-38
-0.05602476 0.039300956 0.87800002 1.8341827e-38
-0.054166671 0.03916667 0.87500006 1.8434022e-38
-0.052500002 0.03916667 0.87500006 1.8064534e-38
-0.050600957 0.038987622 0.87100005 1.7695751e-38
-0.048829522 0.038898095 0.86900002 1.6866346e-38
-0.047174286 0.038898095 0.86900002 1.6405368e-38
-0.04551905 0.038898095 0.86900002 1.6222053e-38
-0.043863807 0.038898095 0.86900002 1.6590836e-38
-0.042208571 0.038898095 0.86900002 1.5116808e-38
-0.040553335 0.038898095 0.86900002 1.5024613e-38
-0.038898095 0.038898095 0.86900002 1.4657262e-38
-0.037157144 0.038808573 0.86700004 1.5026045e-38
-0.035505716 0.038808573 0.86700004 1.4932037e-38
-0.033854287 0.038808573 0.86700004 1.5024233e-38
-0.032091428 0.038674287 0.86400002 1.465583e-38
-0.030445714 0.038674287 0.86400002 1.4563635e-38
-0.028800001 0.038674287 0.86400002 1.3919347e-38
-0.027154287 0.038674287 0.86400002 1.5210086e-38
-0.025508571 0.038674287 0.86400002 1.4471442e-38
-0.023862857 0.038674287 0.86400002 1.4379246e-38
-0.022294287 0.038808573 0.86700004 1.3733877e-38
-0.020642858 0.038808573 0.86700004 1.4010464e-38
-0.018991429 0.038808573 0.86700004 1.2811946e-38
-0.017380001 0.038898095 0.86900002 1.2627554e-38
-0.015724761 0.038898095 0.86900002 1.198214e-38
-0.014069525 0.038898095 0.86900002 1.1889945e-38
-0.012414285 0.038898095 0.86900002 9.7677145e-39
-0.01078381 0.038987622 0.87100005 8.3847801e-39
-0.0091247624 0.038987622 0.87100005 8.3882399e-39
-0.0074828574 0.039077144 0.87300003 1.299802e-38
-0.0058333338 0.03916667 0.87500006 1.5576684e-38
-0.0041809524 0.039300956 0.87800002 1.6222053e-38
-0.0025085714 0.039300956 0.87800002 1.6405368e-38
-0.00083809526 0.039390478 0.88000005 1.7142933e-38
0.00083809526 0.039390478 0.88000005 1.7142565e-38
0.0025142857 0.039390478 0.88000005 1.7603543e-38
0.0042000003 0.039480001 0.88200003 1.7420231e-38
0.0059000002 0.039614286 0.88500005 1.7604622e-38
0.0075857146 0.039614286 0.88500005 1.7973068e-38
0.0092714289 0.039614286 0.88500005 2.3136023e-38
-0.070431434 0.041579999 0.89100003 2.2769043e-38
-0.068580002 0.041486669 0.88900006 2.2308065e-38
-0.066736192 0.041393336 0.88700002 2.1385737e-38
-0.065046668 0.041393336 0.88700002 1.9910607e-38
-0.063357145 0.041393336 0.88700002 2.0001361e-38
-0.061528575 0.041300002 0.88500005 1.8987209e-38
-0.059640002 0.041160002 0.88200003 1.9078688e-38
-0.057828575 0.041066669 0.88000005 1.861771e-38
-0.05602476 0.040973332 0.87800002 1.8434022e-38
-0.05435238 0.040973332 0.87800002 1.8249631e-38
-0.052500002 0.040833335 0.87500006 1.8063818e-38
-0.050717145 0.040739998 0.87300003 1.7418448e-38
-0.048941907 0.040646669 0.87100005 1.7232965e-38
-0.047174286 0.040553335 0.86900002 1.6864183e-38
-0.04551905 0.040553335 0.86900002 1.6589028e-38
-0.043863807 0.040553335 0.86900002 1.6589028e-38
-0.042208571 0.040553335 0.86900002 1.4748728e-38
-0.040553335 0.040553335 0.86900002 1.4195554e-38
-0.038898095 0.040553335 0.86900002 1.4104428e-38
-0.037157144 0.040460002 0.86700004 1.4381015e-38
-0.035505716 0.040460002 0.86700004 1.4932391e-38
-0.033854287 0.040460002 0.86700004 1.4747999e-38
-0.032202858 0.040460002 0.86700004 1.437888e-38
-0.03055143 0.040460002 0.86700004 1.3917902e-38
-0.028900001 0.040460002 0.86700004 1.3273987e-38
-0.027248573 0.040460002 0.86700004 1.3089596e-38
-0.025597144 0.040460002 0.86700004 1.2537877e-38
-0.023945715 0.040460002 0.86700004 1.2722268e-38
-0.022294287 0.040460002 0.86700004 1.3090332e-38
-0.020690477 0.040553335 0.86900002 1.2998136e-38
-0.019035237 0.040553335 0.86900002 1.1063829e-38
-0.017380001 0.040553335 0.86900002 1.0326264e-38
-0.015724761 0.040553335 0.86900002 8.300796e-39
-0.014069525 0.040553335 0.86900002 7.4710354e-39
-0.012414285 0.040553335 0.86900002 7.2866763e-39
-0.010808571 0.040739998 0.87300003 5.1661769e-39
-0.0091457143 0.040739998 0.87300003 5.2579409e-39
-0.0074828574 0.040739998 0.87300003 1.2633579e-38
-0.0058333338 0.040833335 0.87500006 1.53941e-38
-0.0041809524 0.040973332 0.87800002 1.5947274e-38
-0.0025085714 0.040973332 0.87800002 1.6496842e-38
-0.00083809526 0.041066669 0.88000005 1.6681233e-38
0.00083809526 0.041066669 0.88000005 1.6681943e-38
0.0025200001 0.041160002 0.88200003 1.7511703e-38
0.0042000003 0.041160002 0.88200003 1.7512066e-38
0.0058800001 0.041160002 0.88200003 1.7143284e-38
0.0075600003 0.041160002 0.88200003 1.7786882e-38
0.0092400005 0.041160002 0.88200003 2.3503371e-38
-0.070431434 0.043277144 0.89100003 2.2953787e-38
-0.068734288 0.043277144 0.89100003 2.2400614e-38
-0.066886671 0.043180004 0.88900006 2.1938185e-38
