# .PCD v0.7 - Point Cloud Data file format
VERSION 0.7
FIELDS x y z rgba
SIZE 4 4 4 4
TYPE F F F U
COUNT 1 1 1 1
WIDTH 1123
HEIGHT 1
VIEWPOINT 0 0 0 1 0 0 0
POINTS 1123
DATA ascii
-0.081190482 0.18381524 0.68200004 4599850
-0.079891428 0.18381524 0.68200004 6039353
-0.078592382 0.18381524 0.68200004 6960455
-0.077066667 0.18327619 0.68000001 6830375
-0.075771429 0.18327619 0.68000001 7225133
-0.074476197 0.18327619 0.68000001 7556650
-0.073180959 0.18327619 0.68000001 7885615
-0.07188572 0.18327619 0.68000001 7754564
-0.070590481 0.18327619 0.68000001 7622978
-0.069499053 0.18381524 0.68200004 7755056
-0.0682 0.18381524 0.68200004 8149814
-0.066704765 0.18327619 0.68000001 7821871
-0.065409526 0.18327619 0.68000001 7624492
-0.064302862 0.18381524 0.68200004 7755077
-0.063003816 0.18381524 0.68200004 7491905
-0.061704762 0.18381524 0.68200004 7490868
-0.060405716 0.18381524 0.68200004 7490868
-0.05910667 0.18381524 0.68200004 7556661
-0.057807621 0.18381524 0.68200004 7490868
-0.056508575 0.18381524 0.68200004 7161402
-0.055209529 0.18381524 0.68200004 7161402
-0.053910479 0.18381524 0.68200004 6964798
-0.052688573 0.18408476 0.68300003 6767419
-0.051387619 0.18408476 0.68300003 6834456
-0.050159998 0.18435429 0.68400002 7229214
-0.049000002 0.18489334 0.68600005 7032633
-0.047762856 0.18516286 0.68700004 6835254
-0.046454288 0.18516286 0.68700004 6638906
-0.045145717 0.18516286 0.68700004 6704699
-0.044028573 0.18597144 0.69000006 6639664
-0.042776193 0.18624096 0.69100004 6047527
-0.041579999 0.18678001 0.69300002 6048048
-0.040492382 0.1878581 0.69700003 7561287
-0.039164763 0.1878581 0.69700003 7890772
-0.038000003 0.18866667 0.70000005 8877667
-0.036666669 0.18866667 0.70000005 8286519
-0.035333335 0.18866667 0.70000005 10786653
-0.034000002 0.18866667 0.70000005 12497037
-0.032666668 0.18866667 0.70000005 13418139
-0.099049523 0.18945715 0.69800001 12300693
-0.097580008 0.18918572 0.69700003 10526337
-0.096252382 0.18918572 0.69700003 5986620
-0.094924763 0.18918572 0.69700003 6181420
-0.093194291 0.18837143 0.69400001 6510385
-0.091740005 0.1881 0.69300002 6050617
-0.090159051 0.18755715 0.69100004 5129515
-0.08832857 0.18647143 0.68700004 3751232
-0.086893335 0.18620001 0.68600005 3488060
-0.085586667 0.18620001 0.68600005 4405821
-0.084034286 0.18565714 0.68400002 5392716
-0.08261048 0.18538572 0.68300003 6312255
-0.081190482 0.18511429 0.68200004 5193774
-0.079891428 0.18511429 0.68200004 5909539
-0.078592382 0.18511429 0.68200004 6567469
-0.077293336 0.18511429 0.68200004 6960150
-0.07599429 0.18511429 0.68200004 7354908
-0.074695244 0.18511429 0.68200004 7290923
-0.073396191 0.18511429 0.68200004 8080439
-0.072097145 0.18511429 0.68200004 7688262
-0.070798099 0.18511429 0.68200004 7819848
-0.069499053 0.18511429 0.68200004 7951693
-0.0682 0.18511429 0.68200004 7951693
-0.066900954 0.18511429 0.68200004 7886922
-0.065601908 0.18511429 0.68200004 7821129
-0.064302862 0.18511429 0.68200004 7886404
-0.063003816 0.18511429 0.68200004 7557439
-0.061704762 0.18511429 0.68200004 7424824
-0.060405716 0.18511429 0.68200004 7424824
-0.05910667 0.18511429 0.68200004 7490094
-0.057807621 0.18511429 0.68200004 7490094
-0.056508575 0.18511429 0.68200004 7424311
-0.055290479 0.18538572 0.68300003 7226932
-0.053989526 0.18538572 0.68300003 7029553
-0.052688573 0.18538572 0.68300003 7226932
-0.051462859 0.18565714 0.68400002 6902330
-0.050159998 0.18565714 0.68400002 6836537
-0.049071431 0.18647143 0.68700004 6574396
-0.047762856 0.18647143 0.68700004 6508603
-0.046454288 0.18647143 0.68700004 5787178
-0.045211427 0.18674286 0.68800002 5918764
-0.044092383 0.18755715 0.69100004 5984828
-0.042776193 0.18755715 0.69100004 5129519
-0.041639999 0.18837143 0.69400001 5325624
-0.040434286 0.1889143 0.69600004 7233621
-0.039164763 0.18918572 0.69700003 7826258
-0.038000003 0.19000001 0.70000005 7826258
-0.036719047 0.19027144 0.70100003 8088366
-0.035383813 0.19027144 0.70100003 10983258
-0.034145713 0.19081429 0.70300001 12628120
-0.032806665 0.19081429 0.70300001 13351843
-0.03146762 0.19081429 0.70300001 12825741
-0.097580008 0.19051333 0.69700003 11051386
-0.096252382 0.19051333 0.69700003 6182704
-0.094924763 0.19051333 0.69700003 6312505
-0.093462862 0.19024001 0.69600004 6970435
-0.091872387 0.18969335 0.69400001 6380087
-0.09042 0.18942 0.69300002 4998434
-0.088457145 0.18805334 0.68800002 3619396
-0.087020002 0.18778001 0.68700004 3158845
-0.085586667 0.18750668 0.68600005 3748929
-0.084279999 0.18750668 0.68600005 4209480
-0.082731433 0.18696 0.68400002 5654822
-0.08130952 0.18668668 0.68300003 6115373
-0.080008574 0.18668668 0.68300003 6045982
-0.078592382 0.18641333 0.68200004 5519638
-0.077293336 0.18641333 0.68200004 6107664
-0.07599429 0.18641333 0.68200004 6568215
-0.074695244 0.18641333 0.68200004 6831145
-0.073396191 0.18641333 0.68200004 7160110
-0.072097145 0.18641333 0.68200004 7094324
-0.070798099 0.18641333 0.68200004 6896945
-0.069499053 0.18641333 0.68200004 6765120
-0.0682 0.18641333 0.68200004 6765120
-0.066900954 0.18641333 0.68200004 6635574
-0.065601908 0.18641333 0.68200004 6372402
-0.064302862 0.18641333 0.68200004 6635291
-0.063003816 0.18641333 0.68200004 7030049
-0.061704762 0.18641333 0.68200004 7096634
-0.060405716 0.18641333 0.68200004 7030841
-0.05910667 0.18641333 0.68200004 6899756
-0.057892382 0.18668668 0.68300003 7097135
-0.056591429 0.18668668 0.68300003 6704699
-0.055290479 0.18668668 0.68300003 6704699
-0.053989526 0.18668668 0.68300003 6704956
-0.052765712 0.18696 0.68400002 7165507
-0.051462859 0.18696 0.68400002 7297622
-0.050306667 0.18750668 0.68600005 7100243
-0.049071431 0.18778001 0.68700004 6575166
-0.047762856 0.18778001 0.68700004 6377787
-0.046454288 0.18778001 0.68700004 5194523
-0.045211427 0.18805334 0.68800002 4602386
-0.044092383 0.18887335 0.69100004 5196089
-0.0429 0.18942 0.69300002 5196089
-0.041760001 0.19024001 0.69600004 5523010
-0.040434286 0.19024001 0.69600004 6641491
-0.039220951 0.19078667 0.69800001 7497021
-0.038000003 0.19133334 0.70000005 7825986
-0.036719047 0.19160667 0.70100003 7891498
-0.035383813 0.19160667 0.70100003 11049562
-0.034145713 0.19215333 0.70300001 12694424
-0.032806665 0.19215333 0.70300001 13286561
-0.097580008 0.19184096 0.69700003 11379581
-0.096252382 0.19184096 0.69700003 6247727
-0.094924763 0.19184096 0.69700003 7036218
-0.093462862 0.19156572 0.69600004 7102011
-0.092137143 0.19156572 0.69600004 6511168
-0.090550475 0.19101523 0.69400001 5984824
-0.088457145 0.18936381 0.68800002 4343871
-0.087020002 0.18908858 0.68700004 3225390
-0.085586667 0.18881334 0.68600005 3815994
-0.084279999 0.18881334 0.68600005 4013373
-0.082731433 0.18826286 0.68400002 4669467
-0.08130952 0.18798763 0.68300003 5195811
-0.080008574 0.18798763 0.68300003 6048299
-0.078707621 0.18798763 0.68300003 5390369
-0.077293336 0.18771239 0.68200004 5714957
-0.07599429 0.18771239 0.68200004 6241301
-0.074695244 0.18771239 0.68200004 6766122
-0.073396191 0.18771239 0.68200004 7095087
-0.072097145 0.18771239 0.68200004 7029553
-0.070798099 0.18771239 0.68200004 6634795
-0.069499053 0.18771239 0.68200004 6567193
-0.0682 0.18771239 0.68200004 7027744
-0.066900954 0.18771239 0.68200004 6634785
-0.065601908 0.18771239 0.68200004 6305820
-0.064397149 0.18798763 0.68300003 5847813
-0.063096188 0.18798763 0.68300003 7097880
-0.061795238 0.18798763 0.68300003 6835531
-0.060494285 0.18798763 0.68300003 6769738
-0.059193335 0.18798763 0.68300003 6573624
-0.057892382 0.18798763 0.68300003 6902589
-0.056674287 0.18826286 0.68400002 6772568
-0.055371426 0.18826286 0.68400002 6114638
-0.054068573 0.18826286 0.68400002 6246476
-0.052765712 0.18826286 0.68400002 6641234
-0.051613338 0.18881334 0.68600005 7430221
-0.050306667 0.18881334 0.68600005 6706498
-0.049071431 0.18908858 0.68700004 6181435
-0.047832385 0.18936381 0.68800002 6378814
-0.046521906 0.18936381 0.68800002 4671000
-0.045342863 0.1899143 0.69000006 4210449
-0.044220001 0.19074 0.69300002 4934457
-0.042961907 0.19101523 0.69400001 5131836
-0.041760001 0.19156572 0.69600004 5720902
-0.040434286 0.19156572 0.69600004 6378832
-0.039220951 0.19211619 0.69800001 6904388
-0.038000003 0.19266668 0.70000005 6838595
-0.036719047 0.1929419 0.70100003 8022836
-0.035484761 0.19349238 0.70300001 11641451
-0.034194287 0.19376762 0.70400006 12629660
-0.032853335 0.19376762 0.70400006 13090211
-0.096252382 0.19316858 0.69700003 6116395
-0.094924763 0.19316858 0.69700003 5984559
-0.093462862 0.19289143 0.69600004 6774075
-0.092137143 0.19289143 0.69600004 6510899
-0.090550475 0.19233714 0.69400001 6576692
-0.088714294 0.1912286 0.69000006 5132590
-0.08714667 0.19067429 0.68800002 3356179
-0.085711427 0.19039714 0.68700004 3552570
-0.084279999 0.19012001 0.68600005 3881535
-0.082973339 0.19012001 0.68600005 3882269
-0.081428573 0.18956572 0.68400002 3816476
-0.080125719 0.18956572 0.68400002 5128231
-0.078822859 0.18956572 0.68400002 5983540
-0.077406667 0.18928857 0.68300003 5915941
-0.076105714 0.18928857 0.68300003 5652769
-0.074804768 0.18928857 0.68300003 6242367
-0.073503807 0.18928857 0.68300003 6768711
-0.072202861 0.18928857 0.68300003 7426863
-0.070901908 0.18928857 0.68300003 7426863
-0.069600955 0.18928857 0.68300003 7493169
-0.068300001 0.18928857 0.68300003 7953720
-0.066999055 0.18928857 0.68300003 7691543
-0.065698095 0.18928857 0.68300003 6836234
-0.064397149 0.18928857 0.68300003 6573876
-0.063188568 0.18956572 0.68400002 8021322
-0.061885718 0.18956572 0.68400002 7561557
-0.060582858 0.18956572 0.68400002 7298385
-0.059280004 0.18956572 0.68400002 6509123
-0.05797714 0.18956572 0.68400002 6706502
-0.056840003 0.19012001 0.68600005 5590102
-0.055533338 0.19012001 0.68600005 4274242
-0.05422667 0.19012001 0.68600005 5324870
-0.052920006 0.19012001 0.68600005 5127491
-0.051688574 0.19039714 0.68700004 5390108
-0.050380003 0.19039714 0.68700004 6245417
-0.04914286 0.19067429 0.68800002 6641211
-0.047971431 0.1912286 0.69000006 7957071
-0.046657149 0.1912286 0.69000006 6511160
-0.045408577 0.19150572 0.69100004 5853230
-0.044220001 0.19206001 0.69300002 5788991
-0.043085717 0.19289143 0.69600004 5591612
-0.041760001 0.19289143 0.69600004 5917770
-0.040492382 0.19316858 0.69700003 6049356
-0.039220951 0.19344573 0.69800001 6444114
-0.038000003 0.19400001 0.70000005 6246735
-0.036719047 0.19427715 0.70100003 6905141
-0.035484761 0.19483143 0.70300001 11444858
-0.034194287 0.19510858 0.70400006 12760466
-0.032853335 0.19510858 0.70400006 13286810
-0.096390471 0.19477524 0.69800001 6313784
-0.094924763 0.1944962 0.69700003 5459233
-0.093597144 0.1944962 0.69700003 6117163
-0.092137143 0.19421715 0.69600004 6314043
-0.090811431 0.19421715 0.69600004 6445629
-0.088842861 0.19282192 0.69100004 5198133
-0.087526672 0.19282192 0.69100004 3224343
-0.085836194 0.19198476 0.68800002 3159095
-0.084402859 0.19170573 0.68700004 3290681
-0.083094291 0.19170573 0.68700004 3291433
-0.081666671 0.19142668 0.68600005 3225640
-0.080360003 0.19142668 0.68600005 3881769
-0.078822859 0.19086857 0.68400002 4868664
-0.077520005 0.19086857 0.68400002 5984317
-0.076217145 0.19086857 0.68400002 5589559
-0.074914292 0.19086857 0.68400002 5784626
-0.073503807 0.19058953 0.68300003 6968900
-0.072202861 0.19058953 0.68300003 6970157
-0.070901908 0.19058953 0.68300003 6970157
-0.069600955 0.19058953 0.68300003 7166514
-0.068399996 0.19086857 0.68400002 7758651
-0.067097142 0.19086857 0.68400002 7562049
-0.065794282 0.19086857 0.68400002 6180396
-0.064491428 0.19086857 0.68400002 6049331
-0.063188568 0.19086857 0.68400002 6773054
-0.062066671 0.19142668 0.68600005 6446669
-0.060760003 0.19142668 0.68600005 6249290
-0.059453338 0.19142668 0.68600005 5260331
-0.05814667 0.19142668 0.68600005 5194538
-0.056840003 0.19142668 0.68600005 4930852
-0.055533338 0.19142668 0.68600005 5128231
-0.05422667 0.19142668 0.68600005 5984824
-0.052920006 0.19142668 0.68600005 5063722
-0.051688574 0.19170573 0.68700004 5259520
-0.050380003 0.19170573 0.68700004 6246412
-0.04914286 0.19198476 0.68800002 7035197
-0.047971431 0.19254287 0.69000006 7890506
-0.046657149 0.19254287 0.69000006 7101519
-0.045408577 0.19282192 0.69100004 6443589
-0.044283811 0.19365904 0.69400001 6115640
-0.043085717 0.19421715 0.69600004 5918261
-0.041760001 0.19421715 0.69600004 6114874
-0.040492382 0.1944962 0.69700003 6378046
-0.039220951 0.19477524 0.69800001 6050367
-0.038054287 0.19561239 0.70100003 5852988
-0.036823809 0.19617048 0.70300001 5853743
-0.035484761 0.19617048 0.70300001 11577734
-0.034145713 0.19617048 0.70300001 12431254
-0.094924763 0.19582382 0.69700003 5524268
-0.093597144 0.19582382 0.69700003 5458475
-0.092269525 0.19582382 0.69700003 5853242
-0.090811431 0.19554286 0.69600004 6445379
-0.089099996 0.19470002 0.69300002 5066545
-0.087526672 0.19413811 0.69100004 2500618
-0.086085722 0.19385716 0.69000006 2435908
-0.084525719 0.19329524 0.68800002 3093838
-0.083094291 0.19301429 0.68700004 3292217
-0.081785724 0.19301429 0.68700004 3160631
-0.080360003 0.19273335 0.68600005 3882550
-0.079053335 0.19273335 0.68600005 3816757
-0.077520005 0.19217142 0.68400002 4668223
-0.076217145 0.19217142 0.68400002 5523532
-0.074914292 0.19217142 0.68400002 6444089
-0.073611431 0.19217142 0.68400002 7825742
-0.072308578 0.19217142 0.68400002 7891248
-0.071005717 0.19217142 0.68400002 8088627
-0.069702856 0.19217142 0.68400002 8087885
-0.068399996 0.19217142 0.68400002 8285264
-0.067097142 0.19217142 0.68400002 7431228
-0.065794282 0.19217142 0.68400002 5786403
-0.064491428 0.19217142 0.68400002 5325099
-0.063373342 0.19273335 0.68600005 5259306
-0.062066671 0.19273335 0.68600005 5459233
-0.060760003 0.19273335 0.68600005 6248749
-0.059453338 0.19273335 0.68600005 5590068
-0.05814667 0.19273335 0.68600005 5261103
-0.056840003 0.19273335 0.68600005 5985041
-0.055533338 0.19273335 0.68600005 6511385
-0.05422667 0.19273335 0.68600005 6511151
-0.052920006 0.19273335 0.68600005 6576944
-0.051688574 0.19301429 0.68700004 6444590
-0.050453335 0.19329524 0.68800002 6707762
-0.04914286 0.19329524 0.68800002 6969665
-0.047971431 0.19385716 0.69000006 7627595
-0.046724766 0.19413811 0.69100004 7166808
-0.045540001 0.19470002 0.69300002 6903636
-0.044411432 0.19554286 0.69600004 6773056
-0.043085717 0.19554286 0.69600004 6773056
-0.041820001 0.19582382 0.69700003 6838336
-0.040492382 0.19582382 0.69700003 7298887
-0.039220951 0.19610476 0.69800001 6445386
-0.038054287 0.19694763 0.70100003 5984835
-0.036823809 0.19750953 0.70300001 6247757
-0.035484761 0.19750953 0.70300001 11971748
-0.095060952 0.19743428 0.69800001 5787699
-0.093731426 0.19743428 0.69800001 5524527
-0.092269525 0.19715142 0.69700003 5655343
-0.090811431 0.19686857 0.69600004 6576445
-0.089099996 0.19601999 0.69300002 5000752
-0.087779999 0.19601999 0.69300002 2961169
-0.086210482 0.1954543 0.69100004 2634041
-0.084771439 0.19517145 0.69000006 3028799
-0.083215237 0.19460572 0.68800002 3029049
-0.081785724 0.19432287 0.68700004 3226428
-0.080477148 0.19432287 0.68700004 3684908
-0.079053335 0.19404002 0.68600005 3619115
-0.077746667 0.19404002 0.68600005 3684138
-0.076440006 0.19404002 0.68600005 4999998
-0.075133339 0.19404002 0.68600005 6117441
-0.073611431 0.19347429 0.68400002 7301715
-0.072308578 0.19347429 0.68400002 7957813
-0.071213335 0.19404002 0.68600005 8155192
-0.069906674 0.19404002 0.68600005 8153935
-0.068600006 0.19404002 0.68600005 8219728
-0.067293338 0.19404002 0.68600005 7300175
-0.065986671 0.19404002 0.68600005 5589557
-0.064680003 0.19404002 0.68600005 4996635
-0.063373342 0.19404002 0.68600005 5588772
-0.062066671 0.19404002 0.68600005 5655328
-0.060760003 0.19404002 0.68600005 5918500
-0.059453338 0.19404002 0.68600005 5655861
-0.05814667 0.19404002 0.68600005 5853240
-0.05692286 0.19432287 0.68700004 6313774
-0.055614289 0.19432287 0.68700004 6445360
-0.054305717 0.19432287 0.68700004 6445106
-0.052997146 0.19432287 0.68700004 6313520
-0.05176381 0.19460572 0.68800002 6444590
-0.050453335 0.19460572 0.68800002 6641969
-0.049285717 0.19517145 0.69000006 6772291
-0.048040956 0.1954543 0.69100004 6969670
-0.046724766 0.1954543 0.69100004 7035990
-0.045540001 0.19601999 0.69300002 6904404
-0.044411432 0.19686857 0.69600004 7364423
-0.043085717 0.19686857 0.69600004 7364423
-0.041820001 0.19715142 0.69700003 6904381
-0.040492382 0.19715142 0.69700003 6838588
-0.039220951 0.19743428 0.69800001 6445106
-0.038162857 0.19884858 0.70300001 6116141
-0.03687619 0.19913144 0.70400006 6575952
-0.035535242 0.19913144 0.70400006 12365736
-0.097080946 0.20018762 0.70300001 7827020
-0.095060952 0.19876382 0.69800001 5525810
-0.093731426 0.19876382 0.69800001 5196845
-0.092269525 0.19847906 0.69700003 5918522
-0.090941906 0.19847906 0.69700003 6905417
-0.089099996 0.19734 0.69300002 5789229
-0.087779999 0.19734 0.69300002 3354888
-0.086460002 0.19734 0.69300002 2634291
-0.084894292 0.19677049 0.69100004 2831670
-0.08345715 0.19648573 0.69000006 2963256
-0.081904761 0.19591619 0.68800002 2831670
-0.080477148 0.19563143 0.68700004 3028011
-0.07916858 0.19563143 0.68700004 3291183
-0.077746667 0.19534668 0.68600005 3750964
-0.076440006 0.19534668 0.68600005 4869445
-0.075133339 0.19534668 0.68600005 6248231
-0.073826671 0.19534668 0.68600005 7037747
-0.072520003 0.19534668 0.68600005 7825705
-0.071213335 0.19534668 0.68600005 8088877
-0.069906674 0.19534668 0.68600005 7365433
-0.068600006 0.19534668 0.68600005 6707503
-0.067293338 0.19534668 0.68600005 6379836
-0.065986671 0.19534668 0.68600005 5721906
-0.064680003 0.19534668 0.68600005 4997951
-0.063465714 0.19563143 0.68700004 5524295
-0.06215715 0.19563143 0.68700004 5590318
-0.060848575 0.19563143 0.68700004 5590318
-0.05954 0.19563143 0.68700004 5393727
-0.058231428 0.19563143 0.68700004 5788485
-0.05692286 0.19563143 0.68700004 6051120
-0.055614289 0.19563143 0.68700004 6051120
-0.054305717 0.19563143 0.68700004 6051118
-0.052997146 0.19563143 0.68700004 6051118
-0.05176381 0.19591619 0.68800002 6182186
-0.050600003 0.19648573 0.69000006 6313772
-0.049285717 0.19648573 0.69000006 6247235
-0.048040956 0.19677049 0.69100004 6049856
-0.046860002 0.19734 0.69300002 6312528
-0.045540001 0.19734 0.69300002 7431009
-0.044411432 0.1981943 0.69600004 7627324
-0.043085717 0.1981943 0.69600004 7495738
-0.041820001 0.19847906 0.69700003 7167034
-0.040492382 0.19847906 0.69700003 6772276
-0.039220951 0.19876382 0.69800001 6182958
-0.038217146 0.2004724 0.70400006 6446130
-0.03687619 0.2004724 0.70400006 6905689
-0.035535242 0.2004724 0.70400006 12432301
-0.097080946 0.20152666 0.70300001 7959119
-0.095333338 0.20066668 0.70000005 5656113
-0.094000004 0.20066668 0.70000005 5195562
-0.092401907 0.20009334 0.69800001 5721136
-0.090941906 0.19980668 0.69700003 6971203
-0.08922857 0.19894665 0.69400001 5723964
-0.087779999 0.19866 0.69300002 3355416
-0.086460002 0.19866 0.69300002 2831420
-0.084894292 0.19808668 0.69100004 2963006
-0.08345715 0.19780001 0.69000006 2963256
-0.082142867 0.19780001 0.69000006 2765877
-0.080594286 0.19722667 0.68800002 3028011
-0.07916858 0.19694002 0.68700004 3291183
-0.077860005 0.19694002 0.68700004 3750451
-0.07655143 0.19694002 0.68700004 5263690
-0.075133339 0.19665334 0.68600005 6050869
-0.073826671 0.19665334 0.68600005 7103557
-0.072520003 0.19665334 0.68600005 7694407
-0.071213335 0.19665334 0.68600005 7694407
-0.069906674 0.19665334 0.68600005 6708799
-0.068600006 0.19665334 0.68600005 5392939
-0.067391433 0.19694002 0.68700004 5196602
-0.066082858 0.19694002 0.68700004 5196602
-0.064774282 0.19694002 0.68700004 4997947
-0.063465714 0.19694002 0.68700004 5524291
-0.06215715 0.19694002 0.68700004 5329208
-0.060848575 0.19694002 0.68700004 5197622
-0.05954 0.19694002 0.68700004 5262659
-0.058231428 0.19694002 0.68700004 5591624
-0.05692286 0.19694002 0.68700004 5788980
-0.055614289 0.19694002 0.68700004 5788980
-0.054305717 0.19694002 0.68700004 5788980
-0.052997146 0.19694002 0.68700004 5854773
-0.05176381 0.19722667 0.68800002 6050869
-0.050600003 0.19780001 0.69000006 6182455
-0.049357146 0.19808668 0.69100004 5723212
-0.048179999 0.19866 0.69300002 5262661
-0.046860002 0.19866 0.69300002 5919031
-0.045605715 0.19894665 0.69400001 7169098
-0.044411432 0.19952002 0.69600004 7692362
-0.043085717 0.19952002 0.69600004 7692362
-0.041820001 0.19980668 0.69700003 7232573
-0.040550474 0.20009334 0.69800001 6508850
-0.039333336 0.20066668 0.70000005 5658672
-0.038217146 0.20181336 0.70400006 6316602
-0.03687619 0.20181336 0.70400006 7037523
-0.035535242 0.20181336 0.70400006 12235170
-0.097080946 0.20286572 0.70300001 8288084
-0.095333338 0.20200002 0.70000005 5657396
-0.094000004 0.20200002 0.70000005 4802087
-0.092401907 0.20142286 0.69800001 5918533
-0.090941906 0.20113429 0.69700003 7694944
-0.08922857 0.20026857 0.69400001 6710558
-0.087906666 0.20026857 0.69400001 3684096
-0.086460002 0.19998001 0.69300002 2896459
-0.085140005 0.19998001 0.69300002 3028045
-0.083578095 0.19940287 0.69100004 2831666
-0.082142867 0.19911431 0.69000006 2831666
-0.080594286 0.19853714 0.68800002 2963256
-0.079283811 0.19853714 0.68800002 3555393
-0.077860005 0.19824858 0.68700004 4211515
-0.07655143 0.19824858 0.68700004 5461582
-0.075242862 0.19824858 0.68700004 6050869
-0.073826671 0.19796002 0.68600005 6774592
-0.072520003 0.19796002 0.68600005 7167564
-0.071213335 0.19796002 0.68600005 7167564
-0.070008576 0.19824858 0.68700004 6577464
-0.068700001 0.19824858 0.68700004 5524776
-0.067391433 0.19824858 0.68700004 5131593
-0.066082858 0.19824858 0.68700004 4868421
-0.064774282 0.19824858 0.68700004 4999755
-0.063465714 0.19824858 0.68700004 5328720
-0.06215715 0.19824858 0.68700004 5460292
-0.060848575 0.19824858 0.68700004 5526085
-0.05954 0.19824858 0.68700004 5591374
-0.058231428 0.19824858 0.68700004 5591374
-0.05692286 0.19824858 0.68700004 5854773
-0.055614289 0.19824858 0.68700004 6512703
-0.054384761 0.19853714 0.68800002 5788728
-0.053074285 0.19853714 0.68800002 5788728
-0.05191429 0.19911431 0.69000006 5788487
-0.050673336 0.19940287 0.69100004 5854280
-0.049500003 0.19998001 0.69300002 5526603
-0.048179999 0.19998001 0.69300002 3421227
-0.04692762 0.20026857 0.69400001 4931145
-0.045737144 0.20084573 0.69600004 7299693
-0.044411432 0.20084573 0.69600004 7757905
-0.043085717 0.20084573 0.69600004 7626319
-0.041820001 0.20113429 0.69700003 7233094
-0.040550474 0.20142286 0.69800001 6311992
-0.039333336 0.20200002 0.70000005 5789507
-0.038217146 0.2031543 0.70400006 6579023
-0.03687619 0.2031543 0.70400006 7169361
-0.035535242 0.2031543 0.70400006 12103836
-0.10018477 0.20507619 0.70600003 12629652
-0.098840006 0.20507619 0.70600003 12367250
-0.097080946 0.20420477 0.70300001 8617049
-0.095469527 0.20362382 0.70100003 6182205
-0.094134286 0.20362382 0.70100003 4800552
-0.092401907 0.20275238 0.69800001 5590569
-0.090941906 0.20246191 0.69700003 7564359
-0.08922857 0.20159048 0.69400001 6448711
-0.087906666 0.20159048 0.69400001 3553819
-0.086460002 0.20130001 0.69300002 2831420
-0.085140005 0.20130001 0.69300002 2897213
-0.083578095 0.20071906 0.69100004 3225890
-0.082261913 0.20071906 0.69100004 3225890
-0.080828577 0.20042858 0.69000006 3029551
-0.079283811 0.19984762 0.68800002 3555895
-0.077973336 0.19984762 0.68800002 4539197
-0.07655143 0.19955714 0.68700004 4868162
-0.075242862 0.19955714 0.68700004 5391930
-0.073826671 0.19926667 0.68600005 6444618
-0.072520003 0.19926667 0.68600005 6643017
-0.071213335 0.19926667 0.68600005 6708810
-0.070008576 0.19955714 0.68700004 5854784
-0.068700001 0.19955714 0.68700004 5591612
-0.067391433 0.19955714 0.68700004 5460810
-0.066082858 0.19955714 0.68700004 5526603
-0.064774282 0.19955714 0.68700004 5328972
-0.063465714 0.19955714 0.68700004 5328972
-0.06215715 0.19955714 0.68700004 5460292
-0.060848575 0.19955714 0.68700004 5460292
-0.05954 0.19955714 0.68700004 5854282
-0.058231428 0.19955714 0.68700004 5920075
-0.05692286 0.19955714 0.68700004 6050869
-0.055614289 0.19955714 0.68700004 5853490
-0.054384761 0.19984762 0.68800002 5591598
-0.053074285 0.19984762 0.68800002 5525805
-0.05191429 0.20042858 0.69000006 5394497
-0.050673336 0.20071906 0.69100004 5723462
-0.049500003 0.20130001 0.69300002 5461323
-0.04824952 0.20159048 0.69400001 3619119
-0.04692762 0.20159048 0.69400001 5061686
-0.045737144 0.20217144 0.69600004 7561820
-0.044411432 0.20217144 0.69600004 7692105
-0.04314762 0.20246191 0.69700003 7626312
-0.041820001 0.20246191 0.69700003 7298378
-0.040550474 0.20275238 0.69800001 6377276
-0.039333336 0.20333335 0.70000005 5788487
-0.038217146 0.20449525 0.70400006 6578003
-0.036980953 0.20507619 0.70600003 7431761
-0.035838097 0.20623811 0.71000004 12168857
-0.034485716 0.20623811 0.71000004 12891544
-0.10032666 0.20671335 0.70700002 12694414
-0.098560005 0.20583621 0.70400006 12366735
-0.097219057 0.20583621 0.70400006 8945499
-0.095469527 0.20495906 0.70100003 6313798
-0.094000004 0.20466667 0.70000005 4668973
-0.092666671 0.20466667 0.70000005 5655343
-0.090941906 0.20378953 0.69700003 7826512
-0.08922857 0.20291238 0.69400001 6776124
-0.087906666 0.20291238 0.69400001 3815439
-0.086460002 0.20262 0.69300002 2173747
-0.085140005 0.20262 0.69300002 2305333
-0.083578095 0.20203525 0.69100004 2897920
-0.082261913 0.20203525 0.69100004 3226884
-0.080828577 0.20174287 0.69000006 3291433
-0.079514287 0.20174287 0.69000006 3357226
-0.077973336 0.20115809 0.68800002 3946810
-0.07655143 0.20086573 0.68700004 4407361
-0.075242862 0.20086573 0.68700004 4602948
-0.073934287 0.20086573 0.68700004 5721429
-0.072625719 0.20086573 0.68700004 6116410
-0.071317144 0.20086573 0.68700004 6247996
-0.070008576 0.20086573 0.68700004 5854784
-0.068700001 0.20086573 0.68700004 5723198
-0.067391433 0.20086573 0.68700004 5526855
-0.066082858 0.20086573 0.68700004 5526855
-0.064774282 0.20086573 0.68700004 5394765
-0.063465714 0.20086573 0.68700004 5263179
-0.06215715 0.20086573 0.68700004 5197888
-0.060848575 0.20086573 0.68700004 5197888
-0.05954 0.20086573 0.68700004 5591097
-0.058231428 0.20086573 0.68700004 5591097
-0.057005715 0.20115809 0.68800002 5526059
-0.055695239 0.20115809 0.68800002 5526059
-0.054384761 0.20115809 0.68800002 5460518
-0.053228576 0.20174287 0.69000006 5526311
-0.051989529 0.20203525 0.69100004 5789507
-0.05082 0.20262 0.69300002 6710609
-0.049500003 0.20262 0.69300002 5856072
-0.04824952 0.20291238 0.69400001 4342833
-0.047062859 0.20349716 0.69600004 5588564
-0.045802858 0.20378953 0.69700003 7759733
-0.044475239 0.20378953 0.69700003 7757372
-0.04314762 0.20378953 0.69700003 7691579
-0.04188 0.20408191 0.69800001 7298378
-0.040550474 0.20408191 0.69800001 6903620
-0.039333336 0.20466667 0.70000005 6772829
-0.038217146 0.20583621 0.70400006 6970208
-0.037033334 0.20671335 0.70700002 7431500
-0.035838097 0.20759049 0.71000004 12168596
-0.034485716 0.20759049 0.71000004 12891292
-0.10032666 0.20806001 0.70700002 12760459
-0.098560005 0.20717715 0.70400006 12366737
-0.097219057 0.20717715 0.70400006 9142880
-0.095333338 0.20600002 0.70000005 6511179
-0.094000004 0.20600002 0.70000005 5590077
-0.092666671 0.20600002 0.70000005 6444338
-0.091072381 0.20541143 0.69800001 7825991
-0.08922857 0.20423429 0.69400001 6841691
-0.087906666 0.20423429 0.69400001 3881006
-0.086460002 0.20394 0.69300002 2172464
-0.085140005 0.20394 0.69300002 2633015
-0.083578095 0.20335144 0.69100004 2962468
-0.082261913 0.20335144 0.69100004 3225640
-0.080828577 0.20305716 0.69000006 3225140
-0.079514287 0.20305716 0.69000006 3159347
-0.077973336 0.20246857 0.68800002 3421236
-0.076662861 0.20246857 0.68800002 4342338
-0.075242862 0.20217429 0.68700004 4407611
-0.073934287 0.20217429 0.68700004 5262920
-0.072625719 0.20217429 0.68700004 5592376
-0.071317144 0.20217429 0.68700004 5789755
-0.070008576 0.20217429 0.68700004 5789507
-0.068700001 0.20217429 0.68700004 5394749
-0.067391433 0.20217429 0.68700004 5197638
-0.066082858 0.20217429 0.68700004 5395017
-0.064868569 0.20246857 0.68800002 5329233
-0.063558094 0.20246857 0.68800002 5197647
-0.062247619 0.20246857 0.68800002 5132356
-0.060937144 0.20246857 0.68800002 5066563
-0.059626669 0.20246857 0.68800002 5132340
-0.058316194 0.20246857 0.68800002 5066547
-0.057005715 0.20246857 0.68800002 4933419
-0.055857148 0.20305716 0.69000006 5657142
-0.054542862 0.20305716 0.69000006 5526583
-0.053305719 0.20335144 0.69100004 5658169
-0.052140001 0.20394 0.69300002 6052425
-0.05082 0.20394 0.69300002 6184011
-0.049571428 0.20423429 0.69400001 5921865
-0.048388574 0.20482287 0.69600004 5263935
-0.047062859 0.20482287 0.69600004 6378550
-0.045802858 0.20511714 0.69700003 7628617
-0.044475239 0.20511714 0.69700003 7757372
-0.04314762 0.20511714 0.69700003 7625786
-0.04188 0.20541143 0.69800001 7559754
-0.04066667 0.20600002 0.70000005 7888719
-0.039389525 0.2062943 0.70100003 7627350
-0.038217146 0.20717715 0.70400006 7298385
-0.036980953 0.20776571 0.70600003 7562059
-0.035737146 0.20835428 0.708 12299155
-0.034388572 0.20835428 0.708 12628129
-0.033040002 0.20835428 0.708 13022887
-0.099900961 0.2085181 0.70400006 12826245
-0.098560005 0.2085181 0.70400006 12300947
-0.097219057 0.2085181 0.70400006 9406055
-0.095333338 0.20733334 0.70000005 6446669
-0.094000004 0.20733334 0.70000005 5459774
-0.092666671 0.20733334 0.70000005 6181948
-0.091072381 0.20674095 0.69800001 7366222
-0.089614287 0.20644477 0.69700003 6972509
-0.088160008 0.20614858 0.69600004 4998719
-0.086460002 0.20526001 0.69300002 2370372
-0.085140005 0.20526001 0.69300002 2633544
-0.083578095 0.20466763 0.69100004 2765877
-0.082261913 0.20466763 0.69100004 2765877
-0.080945715 0.20466763 0.69100004 2765877
-0.079514287 0.20437144 0.69000006 2700084
-0.078200005 0.20437144 0.69000006 3158845
-0.076885715 0.20437144 0.69000006 4343119
-0.075571433 0.20437144 0.69000006 4539197
-0.07404191 0.20377904 0.68800002 4736576
-0.072731428 0.20377904 0.68800002 5723688
-0.071420953 0.20377904 0.68800002 5986860
-0.070110478 0.20377904 0.68800002 5723949
-0.068800002 0.20377904 0.68800002 5197605
-0.067489527 0.20377904 0.68800002 4803652
-0.066179045 0.20377904 0.68800002 4343101
-0.064868569 0.20377904 0.68800002 4014404
-0.063558094 0.20377904 0.68800002 3751232
-0.062247619 0.20377904 0.68800002 4014136
-0.060937144 0.20377904 0.68800002 4211515
-0.059626669 0.20377904 0.68800002 5001004
-0.058316194 0.20377904 0.68800002 5066797
-0.057171434 0.20437144 0.69000006 5065793
-0.055938099 0.20466763 0.69100004 5263172
-0.054621909 0.20466763 0.69100004 5329476
-0.053460002 0.20526001 0.69300002 5724234
-0.052140001 0.20526001 0.69300002 6117702
-0.050893333 0.20555618 0.69400001 6117702
-0.04971429 0.20614858 0.69600004 6708549
-0.048388574 0.20614858 0.69600004 6708549
-0.04713048 0.20644477 0.69700003 7232555
-0.045802858 0.20644477 0.69700003 7561520
-0.044475239 0.20644477 0.69700003 7559490
-0.043209527 0.20674095 0.69800001 7296318
-0.042000003 0.20733334 0.70000005 7889482
-0.04066667 0.20733334 0.70000005 7955275
-0.039501905 0.2082219 0.70300001 7823957
-0.038217146 0.2085181 0.70400006 7692371
-0.036980953 0.20911048 0.70600003 7890767
-0.035737146 0.20970286 0.708 12364691
-0.034388572 0.20970286 0.708 12628131
-0.033040002 0.20970286 0.708 12891303
-0.098560005 0.20985906 0.70400006 12103827
-0.097219057 0.20985906 0.70400006 9274728
-0.095741905 0.20956095 0.70300001 6708810
-0.094000004 0.20866668 0.70000005 5327157
-0.092666671 0.20866668 0.70000005 5326875
-0.091072381 0.20807047 0.69800001 7234872
-0.089614287 0.20777239 0.69700003 6841427
-0.088286668 0.20777239 0.69700003 5065016
-0.086584762 0.2068781 0.69400001 2370372
-0.085140005 0.20658001 0.69300002 2501958
-0.08382 0.20658001 0.69300002 2700604
-0.082261913 0.20598383 0.69100004 2634811
-0.080945715 0.20598383 0.69100004 2634291
-0.079629533 0.20598383 0.69100004 2371119
-0.078313336 0.20598383 0.69100004 2566708
-0.076885715 0.20568573 0.69000006 4014154
-0.075571433 0.20568573 0.69000006 4014404
-0.07425715 0.20568573 0.69000006 4474955
-0.07294286 0.20568573 0.69000006 5066302
-0.071628578 0.20568573 0.69000006 5197888
-0.070314296 0.20568573 0.69000006 5131843
-0.068800002 0.20508952 0.68800002 5066050
-0.067489527 0.20508952 0.68800002 4540748
-0.066179045 0.20508952 0.68800002 3685439
-0.065057144 0.20568573 0.69000006 3685439
-0.063742861 0.20568573 0.69000006 3685439
-0.062428575 0.20568573 0.69000006 4144689
-0.061114289 0.20568573 0.69000006 4407861
-0.059800003 0.20568573 0.69000006 5065016
-0.058485717 0.20568573 0.69000006 5065016
-0.057171434 0.20568573 0.69000006 5000250
-0.055938099 0.20598383 0.69100004 5131836
-0.054621909 0.20598383 0.69100004 5328942
-0.053460002 0.20658001 0.69300002 5789493
-0.052215237 0.2068781 0.69400001 6248250
-0.050893333 0.2068781 0.69400001 6511422
-0.04971429 0.20747429 0.69600004 7298630
-0.048458096 0.20777239 0.69700003 7496009
-0.04713048 0.20777239 0.69700003 7757368
-0.045802858 0.20777239 0.69700003 7625782
-0.044539049 0.20807047 0.69800001 7493946
-0.043209527 0.20807047 0.69800001 7888704
-0.042000003 0.20866668 0.70000005 8086604
-0.04066667 0.20866668 0.70000005 8020811
-0.039501905 0.20956095 0.70300001 7889745
-0.038217146 0.20985906 0.70400006 7692366
-0.036980953 0.21045525 0.70600003 8219209
-0.035737146 0.21105143 0.708 12627340
-0.034388572 0.21105143 0.708 12562336
-0.033040002 0.21105143 0.708 12891301
-0.10075239 0.213 0.71000004 12759717
-0.098840006 0.21180001 0.70600003 12300695
-0.097495243 0.21180001 0.70600003 9274217
-0.095741905 0.21090001 0.70300001 6511168
-0.094134286 0.21030001 0.70100003 5392687
-0.092799053 0.21030001 0.70100003 5984574
-0.091072381 0.20940001 0.69800001 7300434
-0.089742862 0.20940001 0.69800001 6971971
-0.088286668 0.20910001 0.69700003 5590318
-0.086584762 0.20819999 0.69400001 2633558
-0.085262857 0.20819999 0.69400001 2436179
-0.08382 0.20790002 0.69300002 2371646
-0.082261913 0.20730001 0.69100004 2437439
-0.080945715 0.20730001 0.69100004 2502701
-0.079629533 0.20730001 0.69100004 2371115
-0.078313336 0.20730001 0.69100004 2829126
-0.076885715 0.20700002 0.69000006 3750228
-0.075571433 0.20700002 0.69000006 4079166
-0.07425715 0.20700002 0.69000006 4013373
-0.07294286 0.20700002 0.69000006 3554355
-0.071628578 0.20700002 0.69000006 3093804
-0.070314296 0.20700002 0.69000006 3093838
-0.069000006 0.20700002 0.69000006 4212319
-0.067685723 0.20700002 0.69000006 4212535
-0.066371433 0.20700002 0.69000006 3225640
-0.065057144 0.20700002 0.69000006 3160133
-0.063742861 0.20700002 0.69000006 3225926
-0.062428575 0.20700002 0.69000006 3749931
-0.061202858 0.20730001 0.69100004 4407861
-0.059886672 0.20730001 0.69100004 5130809
-0.058570478 0.20730001 0.69100004 4933430
-0.057254288 0.20730001 0.69100004 5525313
-0.055938099 0.20730001 0.69100004 6051657
-0.054779999 0.20790002 0.69300002 6511669
-0.053460002 0.20790002 0.69300002 6906427
-0.052215237 0.20819999 0.69400001 6839096
-0.050893333 0.20819999 0.69400001 7036475
-0.04971429 0.2088 0.69600004 7494726
-0.048458096 0.20910001 0.69700003 7626312
-0.04713048 0.20910001 0.69700003 7756867
-0.045868572 0.20940001 0.69800001 7559488
-0.044539049 0.20940001 0.69800001 7494467
-0.043209527 0.20940001 0.69800001 7955018
-0.042000003 0.21000001 0.70000005 7889472
-0.04066667 0.21000001 0.70000005 8021058
-0.039501905 0.21090001 0.70300001 8021327
-0.038217146 0.21120003 0.70400006 7823948
-0.036980953 0.21180001 0.70600003 8219452
-0.035737146 0.2124 0.708 12759169
-0.034388572 0.2124 0.708 12825249
-0.033040002 0.2124 0.708 13285800
-0.10075239 0.21435238 0.71000004 12627870
-0.098980002 0.21344666 0.70700002 12366486
-0.097495243 0.21314476 0.70600003 9011043
-0.095878102 0.21254097 0.70400006 6379836
-0.094402857 0.21223904 0.70300001 6050871
-0.092799053 0.21163525 0.70100003 6970181
-0.091333345 0.21133333 0.70000005 7693904
-0.089742862 0.21072952 0.69800001 7497554
-0.088286668 0.21042763 0.69700003 5721143
-0.086584762 0.2095219 0.69400001 4145990
-0.085262857 0.2095219 0.69400001 2566958
-0.08382 0.20921999 0.69300002 2043194
-0.082499996 0.20921999 0.69300002 2108987
-0.080945715 0.2086162 0.69100004 2502455
-0.079629533 0.2086162 0.69100004 2831420
-0.078313336 0.2086162 0.69100004 3619396
-0.076997146 0.2086162 0.69100004 3948361
-0.075680956 0.2086162 0.69100004 3750730
-0.074364766 0.2086162 0.69100004 3619144
-0.073048577 0.2086162 0.69100004 2963256
-0.071628578 0.2083143 0.69000006 2502705
-0.070314296 0.2083143 0.69000006 2306355
-0.069000006 0.2083143 0.69000006 3227457
-0.067685723 0.2083143 0.69000006 3620148
-0.066371433 0.2083143 0.69000006 3028011
-0.065057144 0.2083143 0.69000006 2764589
-0.063835248 0.2086162 0.69100004 3027761
-0.062519051 0.2086162 0.69100004 3618597
-0.061202858 0.2086162 0.69100004 4539699
-0.059886672 0.2086162 0.69100004 4998691
-0.058570478 0.2086162 0.69100004 5130277
-0.057254288 0.2086162 0.69100004 6247741
-0.056100003 0.20921999 0.69300002 6510913
-0.054779999 0.20921999 0.69300002 7036218
-0.053460002 0.20921999 0.69300002 7430976
-0.052215237 0.2095219 0.69400001 7101237
-0.051040001 0.21012573 0.69600004 7364409
-0.049785715 0.21042763 0.69700003 7888971
-0.048458096 0.21042763 0.69700003 8020557
-0.04713048 0.21042763 0.69700003 7888723
-0.045868572 0.21072952 0.69800001 7362379
-0.044539049 0.21072952 0.69800001 7296316
-0.043333337 0.21133333 0.70000005 7625281
-0.042000003 0.21133333 0.70000005 7625534
-0.04066667 0.21133333 0.70000005 8151878
-0.039501905 0.21223904 0.70300001 8152654
-0.038217146 0.21254097 0.70400006 7757896
-0.036980953 0.21314476 0.70600003 8481086
-0.035737146 0.21374857 0.708 12955010
-0.034388572 0.21374857 0.708 12563615
-0.10075239 0.21570477 0.71000004 12562581
-0.098980002 0.21479334 0.70700002 12366227
-0.097219057 0.21388192 0.70400006 9010784
-0.095878102 0.21388192 0.70400006 6971462
-0.094402857 0.21357809 0.70300001 6971462
-0.092799053 0.2129705 0.70100003 6970960
-0.091333345 0.21266668 0.70000005 7365718
-0.089742862 0.21205905 0.69800001 7300695
-0.088286668 0.21175523 0.69700003 5655870
-0.086959057 0.21175523 0.69700003 3290933
-0.085262857 0.2108438 0.69400001 2172452
-0.08382 0.21054 0.69300002 2108987
-0.082499996 0.21054 0.69300002 2240573
-0.080945715 0.20993239 0.69100004 2437689
-0.079629533 0.20993239 0.69100004 2700861
-0.078313336 0.20993239 0.69100004 3750201
-0.076997146 0.20993239 0.69100004 4079166
-0.075680956 0.20993239 0.69100004 4143955
-0.074364766 0.20993239 0.69100004 3814990
-0.073048577 0.20993239 0.69100004 3094592
-0.071628578 0.20962858 0.69000006 2963006
-0.070314296 0.20962858 0.69000006 3619396
-0.069100007 0.20993239 0.69100004 4737877
-0.06778381 0.20993239 0.69100004 5393470
-0.066467628 0.20993239 0.69100004 5393470
-0.065151431 0.20993239 0.69100004 5459765
-0.063835248 0.20993239 0.69100004 5459765
-0.062519051 0.20993239 0.69100004 5853492
-0.061202858 0.20993239 0.69100004 6511422
-0.059886672 0.20993239 0.69100004 6575926
-0.058570478 0.20993239 0.69100004 6707512
-0.057254288 0.20993239 0.69100004 6969924
-0.056100003 0.21054 0.69300002 7167303
-0.054779999 0.21054 0.69300002 7232573
-0.053537142 0.2108438 0.69400001 7561538
-0.052215237 0.2108438 0.69400001 7561028
-0.051040001 0.21145144 0.69600004 7626821
-0.049785715 0.21175523 0.69700003 7691853
-0.048458096 0.21175523 0.69700003 8481369
-0.047198098 0.21205905 0.69800001 8152411
-0.045868572 0.21205905 0.69800001 7362895
-0.044666667 0.21266668 0.70000005 7361611
-0.043333337 0.21266668 0.70000005 7690576
-0.042060003 0.2129705 0.70100003 7624779
-0.040724762 0.2129705 0.70100003 8216916
-0.039501905 0.21357809 0.70300001 8152908
-0.038217146 0.21388192 0.70400006 7758150
-0.036980953 0.21448952 0.70600003 8021310
-0.035737146 0.21509714 0.708 11508339
-0.034388572 0.21509714 0.708 12825743
-0.098560005 0.21522288 0.70400006 12497299
-0.097219057 0.21522288 0.70400006 8944477
-0.095878102 0.21522288 0.70400006 7431500
-0.094402857 0.21491715 0.70300001 6707777
-0.092799053 0.21430573 0.70100003 7167564
-0.091463812 0.21430573 0.70100003 7496529
-0.089742862 0.21338856 0.69800001 7366238
-0.088413335 0.21338856 0.69800001 5392448
-0.086959057 0.21308286 0.69700003 3094054
-0.085262857 0.21216571 0.69400001 2370331
-0.083940953 0.21216571 0.69400001 2109237
-0.082499996 0.21186 0.69300002 2109237
-0.081180006 0.21186 0.69300002 2437689
-0.079629533 0.21124859 0.69100004 2635068
-0.078313336 0.21124859 0.69100004 3552570
-0.076997146 0.21124859 0.69100004 4276293
-0.075680956 0.21124859 0.69100004 4209228
-0.074364766 0.21124859 0.69100004 3485505
-0.073048577 0.21124859 0.69100004 2763810
-0.071732387 0.21124859 0.69100004 3684912
-0.070416197 0.21124859 0.69100004 4866354
-0.069100007 0.21124859 0.69100004 6182214
-0.06778381 0.21124859 0.69100004 6707004
-0.066467628 0.21124859 0.69100004 6443832
-0.065151431 0.21124859 0.69100004 6378029
-0.063835248 0.21124859 0.69100004 6312236
-0.062519051 0.21124859 0.69100004 6377768
-0.061202858 0.21124859 0.69100004 6904112
-0.059886672 0.21124859 0.69100004 7034413
-0.058570478 0.21124859 0.69100004 7363378
-0.05742 0.21186 0.69300002 7691327
-0.056100003 0.21186 0.69300002 7757120
-0.05485905 0.21216571 0.69400001 7560759
-0.053537142 0.21216571 0.69400001 7758138
-0.05236572 0.21277715 0.69600004 7823940
-0.051040001 0.21277715 0.69600004 7758147
-0.049785715 0.21308286 0.69700003 7560258
-0.048527621 0.21338856 0.69800001 8086602
-0.047198098 0.21338856 0.69800001 8152402
-0.045868572 0.21338856 0.69800001 7362886
-0.044666667 0.21400002 0.70000005 7689797
-0.043333337 0.21400002 0.70000005 7887176
-0.042180002 0.21491715 0.70300001 7690572
-0.04084095 0.21491715 0.70300001 8480088
-0.039558098 0.21522288 0.70400006 8350795
-0.038217146 0.21522288 0.70400006 7890244
-0.037033334 0.21614 0.70700002 7758649
-0.035737146 0.21644571 0.708 11245678
-0.034388572 0.21644571 0.708 12431242
-0.098840006 0.21717906 0.70600003 12300434
-0.097495243 0.21717906 0.70600003 8550233
-0.095878102 0.21656382 0.70400006 6445379
-0.094402857 0.21625619 0.70300001 6248000
-0.093063809 0.21625619 0.70300001 6707788
-0.091463812 0.21564095 0.70100003 6707788
-0.090000004 0.21533336 0.70000005 6642515
-0.088413335 0.2147181 0.69800001 5129276
-0.086959057 0.21441048 0.69700003 3225390
-0.08563143 0.21441048 0.69700003 2435874
-0.083940953 0.21348763 0.69400001 1977651
-0.082499996 0.21318001 0.69300002 2240823
-0.081180006 0.21318001 0.69300002 2635061
-0.079860002 0.21318001 0.69300002 2766647
-0.078540005 0.21318001 0.69300002 3486777
-0.076997146 0.21256477 0.69100004 3749949
-0.075680956 0.21256477 0.69100004 3815742
-0.074364766 0.21256477 0.69100004 2894640
-0.073048577 0.21256477 0.69100004 3223337
-0.071732387 0.21256477 0.69100004 5131334
-0.070416197 0.21256477 0.69100004 6575908
-0.069100007 0.21256477 0.69100004 6773287
-0.06778381 0.21256477 0.69100004 6772022
-0.066467628 0.21256477 0.69100004 6837815
-0.065151431 0.21256477 0.69100004 7299120
-0.063835248 0.21256477 0.69100004 7299120
-0.062699996 0.21318001 0.69300002 7495729
-0.061380003 0.21318001 0.69300002 7495729
-0.060060002 0.21318001 0.69300002 7561531
-0.058740001 0.21318001 0.69300002 7956289
-0.05742 0.21318001 0.69300002 7955788
-0.056180954 0.21348763 0.69400001 7955788
-0.05485905 0.21348763 0.69400001 7890739
-0.053691432 0.21410286 0.69600004 7693360
-0.05236572 0.21410286 0.69600004 7823940
-0.051113334 0.21441048 0.69700003 7823940
-0.049785715 0.21441048 0.69700003 7889985
-0.048527621 0.2147181 0.69800001 7889985
-0.047198098 0.2147181 0.69800001 7756591
-0.045868572 0.2147181 0.69800001 7493419
-0.044666667 0.21533336 0.70000005 7689797
-0.043333337 0.21533336 0.70000005 8413520
-0.042180002 0.21625619 0.70300001 8283988
-0.04084095 0.21625619 0.70300001 8415574
-0.039558098 0.21656382 0.70400006 8285000
-0.038325716 0.21717906 0.70600003 7758656
-0.037085712 0.21779428 0.708 7692856
-0.035838097 0.21840954 0.71000004 11245678
-0.034485716 0.21840954 0.71000004 12365694
-0.098840006 0.21852382 0.70600003 12169618
-0.097495243 0.21852382 0.70600003 8616796
-0.09615048 0.21852382 0.70600003 6248499
-0.094537146 0.21790478 0.70400006 6051120
-0.093063809 0.21759523 0.70300001 6709058
-0.091463812 0.2169762 0.70100003 7103816
-0.090000004 0.21666668 0.70000005 6511456
-0.088413335 0.21604763 0.69800001 5064010
-0.087083809 0.21604763 0.69800001 3816494
-0.08563143 0.2157381 0.69700003 2632220
-0.083940953 0.21480952 0.69400001 1257010
-0.082619049 0.21480952 0.69400001 1717561
-0.081180006 0.21450001 0.69300002 2897713
-0.079860002 0.21450001 0.69300002 3095092
-0.078540005 0.21450001 0.69300002 3356726
-0.076997146 0.21388096 0.69100004 3619898
-0.075680956 0.21388096 0.69100004 3621186
-0.074364766 0.21388096 0.69100004 2107947
-0.073048577 0.21388096 0.69100004 4074267
-0.071732387 0.21388096 0.69100004 7100745
-0.070416197 0.21388096 0.69100004 6903860
-0.069100007 0.21388096 0.69100004 6772274
-0.06778381 0.21388096 0.69100004 6837043
-0.066467628 0.21388096 0.69100004 7429180
-0.065151431 0.21388096 0.69100004 7430204
-0.06402 0.21450001 0.69300002 7561790
-0.062699996 0.21450001 0.69300002 7496256
-0.061380003 0.21450001 0.69300002 7364670
-0.060060002 0.21450001 0.69300002 7496256
-0.058740001 0.21450001 0.69300002 7627842
-0.05742 0.21450001 0.69300002 7693386
-0.056180954 0.21480952 0.69400001 7824972
-0.05485905 0.21480952 0.69400001 7889985
-0.053691432 0.21542858 0.69600004 7824192
-0.05236572 0.21542858 0.69600004 7823940
-0.051113334 0.2157381 0.69700003 7955526
-0.049785715 0.2157381 0.69700003 8020806
-0.048527621 0.21604763 0.69800001 7362876
-0.047198098 0.21604763 0.69800001 7558188
-0.045868572 0.21604763 0.69800001 7623981
-0.044666667 0.21666668 0.70000005 7558199
-0.04339524 0.2169762 0.70100003 8413508
-0.042180002 0.21759523 0.70300001 8087124
-0.040899049 0.21790478 0.70400006 8284503
-0.039670479 0.21852382 0.70600003 8153929
-0.038380001 0.21883334 0.70700002 7561792
-0.037190478 0.21976192 0.71000004 7692345
-0.035888575 0.22007143 0.71100003 11376753
-0.034534287 0.22007143 0.71100003 12299899
-0.098840006 0.21986859 0.70600003 12104078
-0.097495243 0.21986859 0.70600003 8946014
-0.09615048 0.21986859 0.70600003 6052403
-0.094537146 0.21924573 0.70400006 4933922
-0.093063809 0.21893428 0.70300001 6115669
-0.091724768 0.21893428 0.70300001 7826287
-0.090000004 0.21800001 0.70000005 7629142
-0.08866667 0.21800001 0.70000005 5721145
-0.087083809 0.21737714 0.69800001 3816494
-0.08563143 0.21706572 0.69700003 2698013
-0.084182858 0.21675429 0.69600004 2108987
-0.082619049 0.21613143 0.69400001 2240573
-0.081180006 0.21582 0.69300002 2502705
-0.079860002 0.21582 0.69300002 3160635
-0.078540005 0.21582 0.69300002 3684408
-0.07722 0.21582 0.69300002 3750201
-0.075899996 0.21582 0.69300002 4405821
-0.074364766 0.21519716 0.69100004 4997958
-0.073048577 0.21519716 0.69100004 5785638
-0.071732387 0.21519716 0.69100004 6904119
-0.070416197 0.21519716 0.69100004 6968620
-0.069299996 0.21582 0.69300002 6837034
-0.06778381 0.21519716 0.69100004 6836794
-0.066467628 0.21519716 0.69100004 7363138
-0.065151431 0.21519716 0.69100004 7494964
-0.06402 0.21582 0.69300002 7626550
-0.062699996 0.21582 0.69300002 7495235
-0.061380003 0.21582 0.69300002 7495235
-0.060060002 0.21582 0.69300002 7298109
-0.058740001 0.21582 0.69300002 7232316
-0.05742 0.21582 0.69300002 7429695
-0.056180954 0.21613143 0.69400001 7824453
-0.05485905 0.21613143 0.69400001 7824442
-0.053691432 0.21675429 0.69600004 7824442
-0.05236572 0.21675429 0.69600004 7758397
-0.051113334 0.21706572 0.69700003 7824190
-0.049857143 0.21737714 0.69800001 7889225
-0.048527621 0.21737714 0.69800001 7165502
-0.047198098 0.21737714 0.69800001 7427400
-0.046000004 0.21800001 0.70000005 8151123
-0.044666667 0.21800001 0.70000005 7955265
-0.04339524 0.21831143 0.70100003 7955265
-0.042180002 0.21893428 0.70300001 8153414
-0.040899049 0.21924573 0.70400006 8219207
-0.039726667 0.22018 0.70700002 8021832
-0.038434286 0.22049144 0.708 7363902
-0.037242856 0.22142573 0.71100003 7626559
-0.035888575 0.22142573 0.71100003 11179381
-0.034534287 0.22142573 0.71100003 12234095
-0.097495243 0.22121334 0.70600003 8748895
-0.09615048 0.22121334 0.70600003 6117947
-0.094805717 0.22121334 0.70600003 4670501
