# .PCD v0.7 - Point Cloud Data file format
VERSION 0.7
FIELDS x y z rgb
SIZE 4 4 4 4
TYPE F F F F
COUNT 1 1 1 1
WIDTH 398
HEIGHT 1
VIEWPOINT 0 0 0 1 0 0 0
POINTS 398
DATA ascii
0.1302 -0.29260001 1.47 1.6595213e-38
0.133 -0.29260001 1.47 1.6134235e-38
0.13524573 -0.29140574 1.4640001 1.5951224e-38
0.13803428 -0.29140574 1.4640001 1.2908768e-38
0.1302 -0.28980002 1.47 1.6872519e-38
0.13524573 -0.28861716 1.4640001 1.6778886e-38
0.13803428 -0.28861716 1.4640001 1.5764734e-38
0.097454287 -0.28953812 1.483 1.7979946e-38
0.13579999 -0.287 1.47 1.6318626e-38
0.13859999 -0.287 1.47 1.5212279e-38
0.14082287 -0.28582859 1.4640001 1.4105225e-38
0.097848572 -0.28787336 1.4890001 1.7795554e-38
0.14082287 -0.28304002 1.4640001 1.3922632e-38
0.074433342 -0.26390004 1.4210001 1.4662345e-38
0.10107143 -0.26278573 1.4150001 1.7252477e-38
0.10376667 -0.26278573 1.4150001 1.8353767e-38
0.074433342 -0.26119336 1.4210001 1.6694612e-38
0.098376192 -0.26009047 1.4150001 1.7155577e-38
0.10107143 -0.26009047 1.4150001 1.7800947e-38
0.10376667 -0.26009047 1.4150001 1.6052842e-38
0.1064619 -0.26009047 1.4150001 1.3379169e-38
0.11774001 -0.26119336 1.4210001 1.6971924e-38
0.061414286 -0.26066953 1.4330001 9.415117e-39
0.095680952 -0.25739524 1.4150001 1.9915325e-38
0.098376192 -0.25739524 1.4150001 1.8167949e-38
0.10107143 -0.25739524 1.4150001 1.6600624e-38
0.10376667 -0.25739524 1.4150001 1.3661163e-38
0.1064619 -0.25739524 1.4150001 1.2278229e-38
0.10915715 -0.25739524 1.4150001 1.1544614e-38
0.061414286 -0.25793999 1.4330001 1.0609665e-38
0.095680952 -0.25470003 1.4150001 1.9456515e-38
0.098376192 -0.25470003 1.4150001 1.7800243e-38
0.10107143 -0.25470003 1.4150001 1.3928027e-38
0.10376667 -0.25470003 1.4150001 1.1544627e-38
0.1064619 -0.25470003 1.4150001 1.1729018e-38
0.10915715 -0.25470003 1.4150001 1.2004156e-38
0.11185239 -0.25470003 1.4150001 1.1543178e-38
0.095680952 -0.25200477 1.4150001 1.8078615e-38
0.098376192 -0.25200477 1.4150001 1.6697874e-38
0.10107143 -0.25200477 1.4150001 1.2917853e-38
0.10376667 -0.25200477 1.4150001 1.1084365e-38
0.1064619 -0.25200477 1.4150001 1.1545343e-38
0.10915715 -0.25200477 1.4150001 1.1636094e-38
0.11185239 -0.25200477 1.4150001 1.1359507e-38
0.12586002 -0.25307336 1.4210001 1.2359607e-39
0.061928574 -0.25459525 1.4450001 1.0974109e-38
0.072332382 -0.25248095 1.4330001 9.3218704e-39
0.074747622 -0.25142381 1.427 1.586776e-38
0.07746572 -0.25142381 1.427 1.7242751e-38
0.095680952 -0.24930954 1.4150001 1.9639875e-38
0.098376192 -0.24930954 1.4150001 1.8076843e-38
0.10107143 -0.24930954 1.4150001 1.5310974e-38
0.10376667 -0.24930954 1.4150001 1.1452437e-38
0.1064619 -0.24930954 1.4150001 1.1083654e-38
0.10915715 -0.24930954 1.4150001 1.246262e-38
0.11185239 -0.24930954 1.4150001 1.3845555e-38
0.064680949 -0.25184286 1.4450001 1.2906627e-38
0.067153335 -0.25079715 1.439 1.2633322e-38
0.072332382 -0.24975143 1.4330001 1.3190459e-38
0.07506191 -0.24975143 1.4330001 1.5679741e-38
0.07746572 -0.24870573 1.427 1.6690649e-38
0.095680952 -0.24661429 1.4150001 1.9176338e-38
0.098376192 -0.24661429 1.4150001 1.7708761e-38
0.10107143 -0.24661429 1.4150001 1.6418022e-38
0.10376667 -0.24661429 1.4150001 1.3844479e-38
0.1064619 -0.24661429 1.4150001 1.2000566e-38
0.10915715 -0.24661429 1.4150001 1.3473175e-38
0.11185239 -0.24661429 1.4150001 1.5317088e-38
0.11454763 -0.24661429 1.4150001 1.7521488e-38
0.064680949 -0.24909049 1.4450001 1.0421696e-38
0.07506191 -0.24702191 1.4330001 1.2636935e-38
0.07746572 -0.24598764 1.427 1.3836162e-38
0.080183811 -0.24598764 1.427 1.6694226e-38
0.08290191 -0.24598764 1.427 1.6966167e-38
0.096086673 -0.24495335 1.4210001 1.0888497e-38
0.098793343 -0.24495335 1.4210001 1.3103658e-38
0.10107143 -0.24391906 1.4150001 1.7436853e-38
0.10376667 -0.24391906 1.4150001 1.8261234e-38
0.1064619 -0.24391906 1.4150001 1.7339278e-38
0.10915715 -0.24391906 1.4150001 1.7799514e-38
0.064680949 -0.24633808 1.4450001 7.6579952e-39
0.067433335 -0.24633808 1.4450001 1.2170529e-38
0.077791438 -0.24429239 1.4330001 1.0157704e-38
0.080520958 -0.24429239 1.4330001 1.3107964e-38
0.096086673 -0.24224669 1.4210001 5.462232e-39
0.098793343 -0.24224669 1.4210001 8.6861643e-39
0.10107143 -0.24122383 1.4150001 1.4125706e-38
0.10376667 -0.24122383 1.4150001 1.9915698e-38
0.10691334 -0.24224669 1.4210001 1.9546915e-38
0.10962001 -0.24224669 1.4210001 1.8811511e-38
0.11232667 -0.24224669 1.4210001 1.4754904e-38
0.14057049 -0.24429239 1.4330001 4.4325551e-39
0.067433335 -0.24358572 1.4450001 8.766491e-39
0.070185713 -0.24358572 1.4450001 1.3560664e-38
0.077791438 -0.24156287 1.4330001 9.7910952e-39
0.080520958 -0.24156287 1.4330001 1.052866e-38
0.08290191 -0.24055144 1.427 1.5955933e-38
0.085620001 -0.24055144 1.427 1.8353019e-38
0.096086673 -0.23954003 1.4210001 2.895873e-39
0.098793343 -0.23954003 1.4210001 3.4468971e-39
0.10691334 -0.23954003 1.4210001 1.8814698e-38
0.10962001 -0.23954003 1.4210001 1.8625979e-38
0.11232667 -0.23954003 1.4210001 1.1250329e-38
0.14057049 -0.24156287 1.4330001 5.0772112e-39
0.067433335 -0.24083334 1.4450001 8.6750212e-39
0.070185713 -0.24083334 1.4450001 1.3284803e-38
0.080520958 -0.23883334 1.4330001 9.7014177e-39
0.08290191 -0.23783334 1.427 1.3470641e-38
0.085620001 -0.23783334 1.427 1.6974075e-38
0.096086673 -0.23683335 1.4210001 3.6373981e-39
0.098793343 -0.23683335 1.4210001 1.6123214e-39
0.10150001 -0.23683335 1.4210001 1.9811039e-39
0.10420667 -0.23683335 1.4210001 1.2000553e-38
0.10691334 -0.23683335 1.4210001 1.6518139e-38
0.10962001 -0.23683335 1.4210001 1.5586094e-38
0.11232667 -0.23683335 1.4210001 1.0330943e-38
0.1372638 -0.23783334 1.427 1.1713502e-38
0.14057049 -0.23883334 1.4330001 5.4441987e-39
0.080520958 -0.23610382 1.4330001 1.1817954e-38
0.083250478 -0.23610382 1.4330001 1.5771211e-38
0.096086673 -0.23412669 1.4210001 4.0022051e-39
0.098793343 -0.23412669 1.4210001 2.7139998e-39
0.10150001 -0.23412669 1.4210001 5.7564556e-39
0.10420667 -0.23412669 1.4210001 1.4853226e-38
0.10691334 -0.23412669 1.4210001 1.771129e-38
0.10962001 -0.23412669 1.4210001 1.7244876e-38
0.11232667 -0.23412669 1.4210001 9.9614216e-39
0.14057049 -0.23610382 1.4330001 3.4151886e-39
0.083250478 -0.2333743 1.4330001 1.6690659e-38
0.096086673 -0.23142003 1.4210001 4.1772455e-39
0.098793343 -0.23142003 1.4210001 3.171378e-39
0.10150001 -0.23142003 1.4210001 9.2562896e-39
0.10420667 -0.23142003 1.4210001 1.7705176e-38
0.10691334 -0.23142003 1.4210001 1.8350546e-38
0.10962001 -0.23142003 1.4210001 1.7429305e-38
0.11232667 -0.23142003 1.4210001 1.143659e-38
0.11503334 -0.23142003 1.4210001 9.7788226e-39
0.12095524 -0.23239715 1.427 1.318759e-38
0.083250478 -0.23064478 1.4330001 1.4938967e-38
0.085980006 -0.23064478 1.4330001 1.3556032e-38
0.098793343 -0.22871335 1.4210001 1.3290936e-38
0.10150001 -0.22871335 1.4210001 1.7716326e-38
0.10420667 -0.22871335 1.4210001 1.7247445e-38
0.10691334 -0.22871335 1.4210001 1.6417684e-38
0.10962001 -0.22871335 1.4210001 1.6969776e-38
0.11280096 -0.22967905 1.427 1.6693189e-38
0.11551905 -0.22967905 1.427 1.604776e-38
0.11873429 -0.23064478 1.4330001 1.6600933e-38
0.083250478 -0.22791526 1.4330001 1.3283371e-38
0.090673342 -0.22600669 1.4210001 1.697045e-38
0.096086673 -0.22600669 1.4210001 1.7059791e-38
0.098793343 -0.22600669 1.4210001 1.6511688e-38
0.10150001 -0.22600669 1.4210001 1.7249253e-38
0.10420667 -0.22600669 1.4210001 1.6235804e-38
0.10691334 -0.22600669 1.4210001 1.4299696e-38
0.10962001 -0.22600669 1.4210001 1.5130533e-38
0.11280096 -0.22696096 1.427 1.6697858e-38
0.11551905 -0.22696096 1.427 1.788812e-38
0.11873429 -0.22791526 1.4330001 1.7427142e-38
0.12146382 -0.22791526 1.4330001 1.5682265e-38
0.062228575 -0.22817142 1.452 1.3647163e-38
0.06499429 -0.22817142 1.452 8.7607947e-39
0.098793343 -0.22330002 1.4210001 1.8168685e-38
0.10150001 -0.22330002 1.4210001 1.5495012e-38
0.10420667 -0.22330002 1.4210001 1.2831403e-38
0.10691334 -0.22330002 1.4210001 1.2370425e-38
0.10962001 -0.22330002 1.4210001 1.3566084e-38
0.11280096 -0.22424285 1.427 1.5870975e-38
0.11551905 -0.22424285 1.427 1.715382e-38
0.12146382 -0.22518572 1.4330001 9.9758241e-39
0.062228575 -0.22540572 1.452 1.3924465e-38
0.06499429 -0.22540572 1.452 1.0052248e-38
0.098793343 -0.22059335 1.4210001 1.7525842e-38
0.10736476 -0.22152478 1.427 1.2374025e-38
0.11008286 -0.22152478 1.427 1.2004156e-38
0.11280096 -0.22152478 1.427 1.3848069e-38
0.11551905 -0.22152478 1.427 1.5408594e-38
0.065262854 -0.22356001 1.4580001 1.2541515e-38
0.099627629 -0.21972668 1.4330001 1.724923e-38
0.10235715 -0.21972668 1.4330001 1.429897e-38
0.10508667 -0.21972668 1.4330001 1.1821214e-38
0.10736476 -0.21880667 1.427 1.1913409e-38
0.11008286 -0.21880667 1.427 1.2831043e-38
0.11327524 -0.21972668 1.4330001 1.5043738e-38
0.13966858 -0.22264001 1.452 9.6812726e-39
0.14243428 -0.22264001 1.452 1.0234446e-38
0.099627629 -0.21699716 1.4330001 1.7157398e-38
0.10235715 -0.21699716 1.4330001 1.4483724e-38
0.10508667 -0.21699716 1.4330001 1.145315e-38
0.11008286 -0.21608858 1.427 1.3749056e-38
0.11327524 -0.21699716 1.4330001 1.577736e-38
0.11972857 -0.21881428 1.4450001 1.6324024e-38
0.070525713 -0.21710858 1.452 1.3376235e-38
0.073291428 -0.21710858 1.452 1.4021279e-38
0.096898101 -0.21426764 1.4330001 1.6690671e-38
0.099627629 -0.21426764 1.4330001 1.6512031e-38
0.10235715 -0.21426764 1.4330001 1.7526183e-38
0.10508667 -0.21426764 1.4330001 1.6329782e-38
0.1078162 -0.21426764 1.4330001 1.5776608e-38
0.11054572 -0.21426764 1.4330001 1.7063051e-38
0.11327524 -0.21426764 1.4330001 1.5864508e-38
0.073291428 -0.21434285 1.452 1.5402068e-38
0.096898101 -0.21153811 1.4330001 1.2825645e-38
0.099627629 -0.21153811 1.4330001 1.4303627e-38
0.10235715 -0.21153811 1.4330001 1.7622669e-38
0.10508667 -0.21153811 1.4330001 1.8445259e-38
0.1078162 -0.21153811 1.4330001 1.7892086e-38
0.11054572 -0.21153811 1.4330001 1.8352338e-38
0.11327524 -0.21153811 1.4330001 1.3281578e-38
0.11600477 -0.21153811 1.4330001 1.3001683e-38
0.13899525 -0.21330953 1.4450001 1.0881235e-38
0.073291428 -0.21157715 1.452 1.3375216e-38
0.10004476 -0.20968287 1.439 6.939883e-39
0.10278571 -0.20968287 1.439 1.3670164e-38
0.10508667 -0.20880857 1.4330001 1.7983941e-38
0.1078162 -0.20880857 1.4330001 1.7430767e-38
0.11054572 -0.20880857 1.4330001 1.5864466e-38
0.11374953 -0.20968287 1.439 1.0517119e-38
0.073594287 -0.20967428 1.4580001 1.2087724e-38
0.076057144 -0.20881143 1.452 1.0889181e-38
0.10278571 -0.2069419 1.439 1.0639192e-38
0.10552666 -0.2069419 1.439 1.6605339e-38
0.1078162 -0.20607905 1.4330001 1.6144361e-38
0.11054572 -0.20607905 1.4330001 1.2825254e-38
0.11374953 -0.2069419 1.439 9.6906025e-39
0.073594287 -0.20689714 1.4580001 1.328267e-38
0.076057144 -0.20604572 1.452 1.2084127e-38
0.10004476 -0.20420095 1.439 3.6323674e-39
0.10278571 -0.20420095 1.439 8.6109314e-39
0.10552666 -0.20420095 1.439 1.5868095e-38
0.11054572 -0.20334953 1.4330001 1.144124e-38
0.11374953 -0.20420095 1.439 9.5051322e-39
0.076057144 -0.20328 1.452 1.3834001e-38
0.078822859 -0.20328 1.452 1.0526146e-38
0.10004476 -0.20146 1.439 2.9884161e-39
0.10278571 -0.20146 1.439 9.9030884e-39
0.10552666 -0.20146 1.439 1.6145423e-38
0.10826762 -0.20146 1.439 1.5131271e-38
0.11100857 -0.20146 1.439 1.1534556e-38
0.11374953 -0.20146 1.439 9.5062518e-39
0.076057144 -0.20051429 1.452 1.4115578e-38
0.078822859 -0.20051429 1.452 1.4114919e-38
0.10004476 -0.19871904 1.439 1.0161695e-38
0.10278571 -0.19871904 1.439 1.6154411e-38
0.10552666 -0.19871904 1.439 1.8904796e-38
0.10826762 -0.19871904 1.439 1.8720404e-38
0.11100857 -0.19871904 1.439 1.5585805e-38
0.11374953 -0.19871904 1.439 1.1713588e-38
0.14361143 -0.20217144 1.4640001 1.1802838e-38
0.14640002 -0.20217144 1.4640001 1.2537877e-38
0.076371431 -0.19856572 1.4580001 1.2552899e-38
0.10004476 -0.19597811 1.439 1.4763926e-38
0.10321429 -0.19679524 1.4450001 1.6976622e-38
0.10552666 -0.19597811 1.439 1.8259063e-38
0.10826762 -0.19597811 1.439 1.8259063e-38
0.11100857 -0.19597811 1.439 1.7890656e-38
0.11374953 -0.19597811 1.439 1.6138939e-38
0.11649048 -0.19597811 1.439 1.3744024e-38
0.12248096 -0.19679524 1.4450001 1.3653598e-38
0.10321429 -0.19404286 1.4450001 1.5588277e-38
0.10596667 -0.19404286 1.4450001 1.430257e-38
0.10826762 -0.19323714 1.439 1.4394766e-38
0.11100857 -0.19323714 1.439 1.660206e-38
0.12030858 -0.19498287 1.452 1.1621344e-38
0.14302287 -0.19578858 1.4580001 1.2170151e-38
0.079148576 -0.19301143 1.4580001 1.2732348e-38
0.10046191 -0.19129048 1.4450001 1.7893533e-38
0.10321429 -0.19129048 1.4450001 1.4205708e-38
0.10596667 -0.19129048 1.4450001 1.1453153e-38
0.10871905 -0.19129048 1.4450001 1.1453153e-38
0.11147143 -0.19129048 1.4450001 1.4578075e-38
0.11422382 -0.19129048 1.4450001 1.7804922e-38
0.068599999 -0.1918 1.47 1.2083376e-38
0.079148576 -0.19023429 1.4580001 1.2916361e-38
0.10046191 -0.1885381 1.4450001 1.660493e-38
0.10321429 -0.1885381 1.4450001 1.365467e-38
0.10596667 -0.1885381 1.4450001 1.1361686e-38
0.10871905 -0.1885381 1.4450001 1.1177295e-38
0.11147143 -0.1885381 1.4450001 1.420929e-38
0.11422382 -0.1885381 1.4450001 1.7067354e-38
0.12030858 -0.18945143 1.452 6.282604e-39
0.12307428 -0.18945143 1.452 1.4207429e-39
0.079148576 -0.18745714 1.4580001 1.4204241e-38
0.08192572 -0.18745714 1.4580001 1.4573023e-38
0.10046191 -0.18578573 1.4450001 1.5961022e-38
0.10321429 -0.18578573 1.4450001 1.3379544e-38
0.10596667 -0.18578573 1.4450001 1.1545699e-38
0.10871905 -0.18578573 1.4450001 1.1453503e-38
0.11147143 -0.18578573 1.4450001 1.4393687e-38
0.11422382 -0.18578573 1.4450001 1.7159556e-38
0.11697619 -0.18578573 1.4450001 1.4397649e-38
0.12080572 -0.18745714 1.4580001 5.546869e-39
0.076685719 -0.18544002 1.4640001 1.4298589e-38
0.079148576 -0.18468 1.4580001 1.5309885e-38
0.08192572 -0.18468 1.4580001 1.6508428e-38
0.092204764 -0.18303335 1.4450001 1.8166845e-38
0.10046191 -0.18303335 1.4450001 1.7342878e-38
0.10321429 -0.18303335 1.4450001 1.5498965e-38
0.10596667 -0.18303335 1.4450001 1.4765328e-38
0.10871905 -0.18303335 1.4450001 1.5595088e-38
0.11147143 -0.18303335 1.4450001 1.7063038e-38
0.076685719 -0.18265145 1.4640001 1.5949831e-38
0.079474293 -0.18265145 1.4640001 1.5032917e-38
0.08192572 -0.18190286 1.4580001 1.5401699e-38
0.10046191 -0.18028097 1.4450001 1.6700009e-38
0.10321429 -0.18028097 1.4450001 1.6515618e-38
0.10596667 -0.18028097 1.4450001 1.6235827e-38
0.10871905 -0.18028097 1.4450001 1.6881196e-38
0.11147143 -0.18028097 1.4450001 1.7063031e-38
0.12688001 -0.18265145 1.4640001 1.4481926e-38
0.08192572 -0.17912571 1.4580001 1.3008897e-38
0.084354281 -0.17838857 1.452 1.4850331e-38
0.10371429 -0.17838857 1.452 1.790072e-38
0.10871905 -0.17752859 1.4450001 1.7426789e-38
0.11147143 -0.17752859 1.4450001 1.1992684e-38
0.11477714 -0.17838857 1.452 8.6736409e-39
0.12688001 -0.17986287 1.4640001 1.4018055e-38
0.12966858 -0.17986287 1.4640001 1.116719e-38
0.087480001 -0.17634858 1.4580001 1.7711275e-38
0.090257145 -0.17634858 1.4580001 1.6972666e-38
0.10321429 -0.17477618 1.4450001 1.7167802e-38
0.10596667 -0.17477618 1.4450001 2.0286313e-38
0.10871905 -0.17477618 1.4450001 1.5399945e-38
0.11147143 -0.17477618 1.4450001 1.1991899e-38
0.087480001 -0.17357144 1.4580001 1.697371e-38
0.10094857 -0.17285714 1.452 7.4908708e-39
0.10321429 -0.1720238 1.4450001 1.403676e-38
0.10596667 -0.1720238 1.4450001 1.7063031e-38
0.10871905 -0.1720238 1.4450001 1.097812e-38
0.11147143 -0.1720238 1.4450001 8.9548549e-39
0.074200004 -0.17219999 1.47 1.2358881e-38
0.077 -0.17219999 1.47 1.3926206e-38
0.10094857 -0.17009144 1.452 4.0900945e-39
0.10596667 -0.16927142 1.4450001 1.595998e-38
0.10871905 -0.16927142 1.4450001 1.0151655e-38
0.11147143 -0.16927142 1.4450001 9.4136526e-39
0.077 -0.16940001 1.47 1.6688829e-38
0.10094857 -0.16732572 1.452 9.6985927e-39
0.11147143 -0.16651905 1.4450001 1.0061947e-38
0.12358286 -0.16801715 1.4580001 1.8074297e-38
0.13524573 -0.16870858 1.4640001 1.2356703e-38
0.13859999 -0.16940001 1.47 1.2541094e-38
0.10094857 -0.16456001 1.452 1.522021e-38
0.11477714 -0.16456001 1.452 1.3375922e-38
0.11754286 -0.16456001 1.452 1.6965438e-38
0.12358286 -0.16524 1.4580001 1.8440571e-38
0.13926001 -0.16739334 1.4770001 1.2908445e-38
0.098182857 -0.16179429 1.452 1.8444874e-38
0.10094857 -0.16179429 1.452 1.9365414e-38
0.10924571 -0.16179429 1.452 1.9916774e-38
0.11477714 -0.16179429 1.452 1.8350527e-38
0.11802858 -0.16246288 1.4580001 1.8533843e-38
0.12080572 -0.16246288 1.4580001 1.8441647e-38
0.13926001 -0.16458002 1.4770001 1.300064e-38
0.10136572 -0.15968573 1.4580001 1.9824947e-38
0.10414286 -0.15968573 1.4580001 2.0378121e-38
0.10692 -0.15968573 1.4580001 1.9825663e-38
0.10969715 -0.15968573 1.4580001 1.9917859e-38
0.11247429 -0.15968573 1.4580001 1.9732749e-38
0.12080572 -0.15968573 1.4580001 1.8258337e-38
0.12409143 -0.16034287 1.4640001 1.7520056e-38
0.13926001 -0.16176668 1.4770001 1.3185032e-38
0.10136572 -0.15690859 1.4580001 2.0008973e-38
0.10414286 -0.15690859 1.4580001 2.0562146e-38
0.10692 -0.15690859 1.4580001 1.9824944e-38
0.10969715 -0.15690859 1.4580001 1.9732749e-38
0.11293714 -0.15755428 1.4640001 1.96402e-38
0.13926001 -0.15895335 1.4770001 1.3369796e-38
0.087840006 -0.15476573 1.4640001 1.8718231e-38
0.09303429 -0.15413144 1.4580001 1.9733105e-38
0.10136572 -0.15413144 1.4580001 2.0101168e-38
0.10414286 -0.15413144 1.4580001 2.028556e-38
0.10692 -0.15413144 1.4580001 1.9732749e-38
0.10969715 -0.15413144 1.4580001 1.9732749e-38
0.11293714 -0.15476573 1.4640001 1.9455809e-38
0.13579999 -0.15539999 1.47 1.2356703e-38
0.13926001 -0.15614 1.4770001 1.3555246e-38
0.088200003 -0.15259999 1.47 1.8624962e-38
0.10457144 -0.15197715 1.4640001 2.0193364e-38
0.10736001 -0.15197715 1.4640001 1.991678e-38
0.11014858 -0.15197715 1.4640001 2.0008975e-38
0.11293714 -0.15197715 1.4640001 2.0008975e-38
0.11572572 -0.15197715 1.4640001 1.9455802e-38
0.13363335 -0.15332668 1.4770001 1.3003524e-38
0.13644667 -0.15332668 1.4770001 1.3280096e-38
0.088200003 -0.1498 1.47 1.7335652e-38
0.091000006 -0.1498 1.47 1.7336015e-38
0.10457144 -0.14918858 1.4640001 2.0101171e-38
0.10736001 -0.14918858 1.4640001 2.0192288e-38
0.11014858 -0.14918858 1.4640001 2.0284483e-38
0.11293714 -0.14918858 1.4640001 2.0100815e-38
0.11572572 -0.14918858 1.4640001 1.9455446e-38
0.12130287 -0.14918858 1.4640001 1.835017e-38
0.093417145 -0.14640002 1.4640001 1.9914972e-38
0.119 -0.1274 1.47 1.5769043e-38
0.1218 -0.1274 1.47 1.5676847e-38
0.1246 -0.1274 1.47 1.5307709e-38
0.1274 -0.1274 1.47 1.4846731e-38
