# .PCD v0.7 - Point Cloud Data file format
VERSION 0.7
FIELDS x y z rgb
SIZE 4 4 4 4
TYPE F F F F
COUNT 1 1 1 1
WIDTH 433
HEIGHT 1
VIEWPOINT 0 0 0 1 0 0 0
POINTS 433
DATA ascii
-0.01624381 -0.19867429 1.312 4.4487779e-39
-0.046972383 -0.19931524 1.3330001 8.2078703e-39
-0.044266671 -0.19856763 1.3280001 1.0046099e-38
-0.041737143 -0.19856763 1.3280001 1.4287098e-38
-0.039207622 -0.19856763 1.3280001 1.2356713e-38
-0.028958095 -0.19767047 1.322 1.1436577e-38
-0.02644 -0.19767047 1.322 1.4571228e-38
-0.023921905 -0.19767047 1.322 1.4753452e-38
-0.018814286 -0.19692287 1.317 8.7719238e-39
-0.016305715 -0.19692287 1.317 5.1762942e-39
-0.0062952382 -0.19767047 1.322 1.1998004e-38
-0.0037771428 -0.19767047 1.322 1.4845256e-38
-0.0012590477 -0.19767047 1.322 1.5306235e-38
0.0012647619 -0.19856763 1.3280001 1.3459846e-38
0.013964763 -0.19931524 1.3330001 1.0879062e-38
0.016503809 -0.19931524 1.3330001 1.1341104e-38
-0.052245714 -0.1975143 1.3380001 6.358644e-39
-0.049511433 -0.1967762 1.3330001 8.0180981e-39
-0.046972383 -0.1967762 1.3330001 1.0691771e-38
-0.044266671 -0.1960381 1.3280001 1.2442432e-38
-0.02140381 -0.19515239 1.322 1.5488454e-38
-0.016305715 -0.19441429 1.317 7.8434781e-39
-0.013797143 -0.19441429 1.317 3.0694364e-39
-0.011288572 -0.19441429 1.317 3.8070014e-39
-0.0087799998 -0.19441429 1.317 9.2274663e-39
-0.0062952382 -0.19515239 1.322 1.3284074e-38
-0.0037771428 -0.19515239 1.322 1.5395932e-38
-0.0012590477 -0.19515239 1.322 1.521154e-38
0.013964763 -0.1967762 1.3330001 7.8384138e-39
-0.049697146 -0.19496572 1.3380001 9.4039416e-39
-0.046972383 -0.19423714 1.3330001 1.2446397e-38
-0.044433337 -0.19423714 1.3330001 1.0142601e-38
-0.023921905 -0.19263428 1.322 1.2261203e-38
-0.02140381 -0.19263428 1.322 1.5303659e-38
0.011382857 -0.19350858 1.3280001 9.5958859e-39
0.013964763 -0.19423714 1.3330001 3.9719525e-39
0.016503809 -0.19423714 1.3330001 4.3446979e-39
-0.046972383 -0.1916981 1.3330001 1.1156365e-38
-0.044433337 -0.1916981 1.3330001 8.4895355e-39
0.008853334 -0.19097906 1.3280001 1.0511381e-38
0.011425715 -0.1916981 1.3330001 7.9363618e-39
0.016565716 -0.19241714 1.3380001 2.5076054e-39
0.026860001 -0.1931362 1.3430001 1.6591967e-38
0.029549526 -0.19399907 1.3490001 1.6407575e-38
-0.04714857 -0.18986858 1.3380001 8.8565188e-39
-0.044433337 -0.18915905 1.3330001 5.5425376e-39
-0.041737143 -0.18844953 1.3280001 3.4220381e-39
0.008886667 -0.18915905 1.3330001 7.10372e-39
0.016565716 -0.18986858 1.3380001 4.6205589e-39
0.026980001 -0.19142953 1.3490001 1.7513907e-38
0.029549526 -0.19142953 1.3490001 1.6776342e-38
-0.044433337 -0.18662 1.3330001 4.255026e-39
-0.041894287 -0.18662 1.3330001 3.8862435e-39
0.0063238097 -0.18592 1.3280001 1.2085897e-38
0.008886667 -0.18662 1.3330001 6.1853763e-39
0.016565716 -0.18732001 1.3380001 5.8162182e-39
0.019185714 -0.18802001 1.3430001 6.7381745e-39
0.029549526 -0.18886 1.3490001 1.668273e-38
-0.044433337 -0.18408096 1.3330001 6.3701557e-39
-0.041894287 -0.18408096 1.3330001 4.2496562e-39
-0.039207622 -0.18339048 1.3280001 1.1322562e-39
-0.031476188 -0.1825619 1.322 1.2449995e-38
-0.028958095 -0.1825619 1.322 1.1153128e-38
-0.024030479 -0.18339048 1.3280001 8.4827014e-39
-0.021500953 -0.18339048 1.3280001 9.0358752e-39
-0.01897143 -0.18339048 1.3280001 9.0358654e-39
-0.016441904 -0.18339048 1.3280001 1.3922234e-38
-0.013912382 -0.18339048 1.3280001 1.5028941e-38
0.0037942859 -0.18339048 1.3280001 1.3097543e-38
0.0063476195 -0.18408096 1.3330001 1.3740373e-38
0.016565716 -0.18477143 1.3380001 7.1991751e-39
0.019185714 -0.18546191 1.3430001 7.5679576e-39
-0.044600002 -0.18222287 1.3380001 8.1222006e-39
-0.041894287 -0.1815419 1.3330001 4.3421797e-39
-0.039355241 -0.1815419 1.3330001 1.0404011e-39
-0.036678094 -0.18086095 1.3280001 2.2389442e-39
-0.021581905 -0.1815419 1.3330001 9.4975302e-39
-0.019042857 -0.1815419 1.3330001 9.8649352e-39
-0.016503809 -0.1815419 1.3330001 1.4566912e-38
-0.013964763 -0.1815419 1.3330001 1.5765065e-38
-0.008853334 -0.18086095 1.3280001 1.2360698e-38
-0.0063238097 -0.18086095 1.3280001 1.0240199e-38
-0.0037942859 -0.18086095 1.3280001 9.6002243e-39
-0.0012647619 -0.18086095 1.3280001 9.6002243e-39
0.0012647619 -0.18086095 1.3280001 1.1622047e-38
0.0038085715 -0.1815419 1.3330001 1.282059e-38
0.013964763 -0.1815419 1.3330001 9.775608e-39
0.019185714 -0.18290381 1.3430001 6.4637582e-39
-0.044600002 -0.17967428 1.3380001 9.0405541e-39
-0.042051431 -0.17967428 1.3380001 7.1044459e-39
-0.039355241 -0.17900285 1.3330001 6.4641085e-39
-0.036816191 -0.17900285 1.3330001 1.0520716e-38
-0.034148574 -0.17833145 1.3280001 1.4015493e-38
-0.0063476195 -0.17900285 1.3330001 1.3095745e-38
-0.0038085715 -0.17900285 1.3330001 1.3096446e-38
-0.0012695239 -0.17900285 1.3330001 1.364962e-38
0.008886667 -0.17900285 1.3330001 1.3276112e-38
0.011425715 -0.17900285 1.3330001 1.2631508e-38
0.014017143 -0.17967428 1.3380001 1.1801747e-38
0.016565716 -0.17967428 1.3380001 8.7665008e-39
-0.044766668 -0.17778762 1.3430001 1.0327315e-38
-0.042051431 -0.17712572 1.3380001 9.7741409e-39
-0.039355241 -0.17646381 1.3330001 9.9592608e-39
-0.036816191 -0.17646381 1.3330001 1.3462695e-38
-0.034277145 -0.17646381 1.3330001 1.4199547e-38
0.0038085715 -0.17646381 1.3330001 8.850042e-39
0.0063476195 -0.17646381 1.3330001 9.0304185e-39
0.0089199999 -0.17712572 1.3380001 1.1335309e-38
0.011468572 -0.17712572 1.3380001 1.3825e-38
0.014017143 -0.17712572 1.3380001 1.3364022e-38
0.016627621 -0.17778762 1.3430001 9.7791855e-39
-0.039502859 -0.17457716 1.3380001 1.2817325e-38
-0.036816191 -0.17392476 1.3330001 1.2909521e-38
-0.034277145 -0.17392476 1.3330001 1.134366e-38
-0.03161905 -0.17327239 1.3280001 1.0513899e-38
-0.016503809 -0.17392476 1.3330001 7.7491273e-39
-0.013964763 -0.17392476 1.3330001 4.9050799e-39
0.0012695239 -0.17392476 1.3330001 1.1432939e-38
0.003822857 -0.17457716 1.3380001 8.2982877e-39
0.0063714292 -0.17457716 1.3380001 7.7447734e-39
0.011468572 -0.17457716 1.3380001 1.1707707e-38
0.014017143 -0.17457716 1.3380001 1.2629663e-38
-0.050105717 -0.17344286 1.3490001 3.2300714e-39
-0.042051431 -0.17202857 1.3380001 1.2906573e-38
-0.036954287 -0.17202857 1.3380001 1.1712072e-38
-0.034277145 -0.17138572 1.3330001 9.873542e-39
-0.029089525 -0.17074287 1.3280001 9.781003e-39
-0.019042857 -0.17138572 1.3330001 9.6009278e-39
-0.016503809 -0.17138572 1.3330001 5.4521244e-39
-0.013964763 -0.17138572 1.3330001 2.8854179e-39
-0.011425715 -0.17138572 1.3330001 2.3322441e-39
-0.003822857 -0.17202857 1.3380001 1.4200661e-38
0.0012695239 -0.17138572 1.3330001 9.4961148e-39
0.003822857 -0.17202857 1.3380001 8.4819629e-39
0.0089199999 -0.17202857 1.3380001 8.0217106e-39
0.011511429 -0.17267144 1.3430001 1.0324797e-38
0.014069525 -0.17267144 1.3430001 1.2076513e-38
0.016701905 -0.17344286 1.3490001 9.0376576e-39
-0.042051431 -0.16948001 1.3380001 1.0602472e-38
-0.039502859 -0.16948001 1.3380001 1.1986133e-38
-0.036954287 -0.16948001 1.3380001 1.1340763e-38
-0.034405716 -0.16948001 1.3380001 9.5047693e-39
-0.024120953 -0.16884667 1.3330001 1.3374117e-38
-0.021581905 -0.16884667 1.3330001 1.1530205e-38
-0.019042857 -0.16884667 1.3330001 7.3910843e-39
-0.016503809 -0.16884667 1.3330001 5.1783892e-39
-0.013964763 -0.16884667 1.3330001 3.6233388e-39
-0.011425715 -0.16884667 1.3330001 3.0701651e-39
-0.0063476195 -0.16884667 1.3330001 9.7903693e-39
-0.003822857 -0.16948001 1.3380001 1.3832196e-38
-0.0012742857 -0.16948001 1.3380001 1.0605349e-38
0.0012742857 -0.16948001 1.3380001 8.9436641e-39
0.0063714292 -0.16948001 1.3380001 8.6645941e-39
0.0089199999 -0.16948001 1.3380001 1.0692898e-38
0.011511429 -0.17011334 1.3430001 1.2444567e-38
0.014069525 -0.17011334 1.3430001 1.3274328e-38
-0.039650477 -0.16755524 1.3430001 1.1617002e-38
-0.037092384 -0.16755524 1.3430001 1.124822e-38
-0.034405716 -0.16693144 1.3380001 9.1363371e-39
-0.031857144 -0.16693144 1.3380001 8.9519458e-39
-0.029308572 -0.16693144 1.3380001 8.4953019e-39
-0.026760001 -0.16693144 1.3380001 1.1353366e-38
-0.024211429 -0.16693144 1.3380001 1.2822748e-38
-0.021662857 -0.16693144 1.3380001 1.1992988e-38
-0.019114288 -0.16693144 1.3380001 6.2891032e-39
-0.016503809 -0.16630761 1.3330001 4.0764081e-39
-0.013964763 -0.16630761 1.3330001 3.1623481e-39
-0.011425715 -0.16630761 1.3330001 2.5169787e-39
-0.008886667 -0.16630761 1.3330001 5.0887425e-39
-0.0063476195 -0.16630761 1.3330001 1.062048e-38
-0.003822857 -0.16693144 1.3380001 1.3373045e-38
-0.0012742857 -0.16693144 1.3380001 1.1436937e-38
0.0012742857 -0.16693144 1.3380001 9.1284464e-39
0.003822857 -0.16693144 1.3380001 7.2845338e-39
0.006395238 -0.16755524 1.3430001 8.6649249e-39
0.0089533329 -0.16755524 1.3430001 1.1891772e-38
0.011511429 -0.16755524 1.3430001 1.2904129e-38
0.014069525 -0.16755524 1.3430001 1.2719738e-38
-0.034534287 -0.16499715 1.3430001 1.1716e-38
-0.031976189 -0.16499715 1.3430001 1.0056479e-38
-0.016565716 -0.16438286 1.3380001 7.1999192e-39
-0.014017143 -0.16438286 1.3380001 4.3579948e-39
-0.011468572 -0.16438286 1.3380001 5.0955598e-39
-0.0089199999 -0.16438286 1.3380001 9.2278545e-39
-0.0063714292 -0.16438286 1.3380001 1.374544e-38
-0.0038371431 -0.16499715 1.3430001 1.5395951e-38
-0.0012790477 -0.16499715 1.3430001 1.5303756e-38
0.0012790477 -0.16499715 1.3430001 1.2537549e-38
0.0038371431 -0.16499715 1.3430001 9.1263108e-39
-0.031976189 -0.16243905 1.3430001 1.0978823e-38
-0.024301905 -0.16243905 1.3430001 1.4748379e-38
-0.021662857 -0.1618343 1.3380001 1.6039118e-38
-0.019114288 -0.1618343 1.3380001 1.4571588e-38
-0.016565716 -0.1618343 1.3380001 1.0330589e-38
-0.014017143 -0.1618343 1.3380001 6.1032321e-39
-0.011468572 -0.1618343 1.3380001 7.393971e-39
-0.0089199999 -0.1618343 1.3380001 1.3368717e-38
-0.0063714292 -0.1618343 1.3380001 1.4751651e-38
-0.0038371431 -0.16243905 1.3430001 1.5302307e-38
-0.029308572 -0.15928571 1.3380001 1.3367625e-38
-0.026760001 -0.15928571 1.3380001 1.1247126e-38
-0.02174381 -0.15988095 1.3430001 1.2536752e-38
-0.019185714 -0.15988095 1.3430001 1.3185423e-38
-0.016627621 -0.15988095 1.3430001 1.5305922e-38
-0.011468572 -0.15928571 1.3380001 1.4386806e-38
-0.0063714292 -0.15928571 1.3380001 1.2081218e-38
0.014132381 -0.16059525 1.3490001 3.1494169e-39
0.01676381 -0.16119049 1.3540001 7.3795908e-39
-0.042208571 -0.15732287 1.3430001 6.550556e-39
-0.026860001 -0.15732287 1.3430001 9.5854616e-39
-0.011468572 -0.15673715 1.3380001 1.5948026e-38
-0.0089199999 -0.15673715 1.3380001 1.3373048e-38
-0.0063714292 -0.15673715 1.3380001 1.079157e-38
0.011562858 -0.15802573 1.3490001 8.5385179e-40
0.014184763 -0.15861143 1.3540001 1.5914168e-39
-0.016627621 -0.15476477 1.3430001 1.3829332e-38
-0.014069525 -0.15476477 1.3430001 1.4475067e-38
-0.011511429 -0.15476477 1.3430001 1.4014089e-38
-0.0089533329 -0.15476477 1.3430001 1.190007e-38
0.011562858 -0.1554562 1.3490001 1.2230253e-39
0.014184763 -0.1560324 1.3540001 3.8045029e-39
-0.011511429 -0.15220666 1.3430001 1.2543648e-38
-0.0089533329 -0.15220666 1.3430001 1.0243429e-38
0.0089933341 -0.15288667 1.3490001 4.247466e-39
0.011605715 -0.15345334 1.3540001 2.9678493e-39
-0.029418096 -0.14964858 1.3430001 1.3002426e-38
-0.0089533329 -0.14964858 1.3430001 1.2084462e-38
-0.0038371431 -0.14964858 1.3430001 1.0702987e-38
0.0089933341 -0.15031715 1.3490001 9.5883455e-39
0.011605715 -0.1508743 1.3540001 9.1327105e-39
-0.042554289 -0.14829524 1.3540001 1.032907e-38
-0.039975241 -0.14829524 1.3540001 7.475399e-39
-0.037258096 -0.14774762 1.3490001 4.3407476e-39
0.00642381 -0.14774762 1.3490001 1.3553802e-38
0.0090266671 -0.14829524 1.3540001 1.2078671e-38
-0.048100002 -0.1469 1.365 7.6511457e-39
-0.045300003 -0.1462543 1.3590001 8.3890274e-39
-0.042554289 -0.14571621 1.3540001 1.1615874e-38
-0.039975241 -0.14571621 1.3540001 1.1064555e-38
-0.037258096 -0.14517811 1.3490001 1.0787968e-38
-0.021840954 -0.14517811 1.3490001 1.4475378e-38
0.0038542862 -0.14517811 1.3490001 8.2050579e-39
0.0064476193 -0.14571621 1.3540001 8.9426104e-39
0.024500953 -0.14571621 1.3540001 1.5115048e-38
-0.048276197 -0.14482857 1.3700001 7.739754e-39
-0.045500003 -0.1443 1.365 7.0028153e-39
-0.042711433 -0.14366573 1.3590001 9.7686744e-39
-0.039975241 -0.14313714 1.3540001 1.2442069e-38
-0.037396193 -0.14313714 1.3540001 1.4654764e-38
-0.034688573 -0.14260858 1.3490001 1.2910613e-38
-0.021921907 -0.14313714 1.3540001 1.6131692e-38
-0.019342858 -0.14313714 1.3540001 1.502933e-38
-0.016701905 -0.14260858 1.3490001 1.0327352e-38
-0.014132381 -0.14260858 1.3490001 8.2147367e-39
-0.011562858 -0.14260858 1.3490001 8.6757148e-39
-0.0089933341 -0.14260858 1.3490001 1.2816599e-38
0.0012847619 -0.14260858 1.3490001 1.1065245e-38
0.0038685717 -0.14313714 1.3540001 7.5618115e-39
0.014184763 -0.14313714 1.3540001 8.1150329e-39
0.01676381 -0.14313714 1.3540001 7.4713717e-39
-0.051108573 -0.14284191 1.376 1.4839899e-38
-0.048487622 -0.14284191 1.376 7.0032707e-39
-0.045500003 -0.1417 1.365 5.6235116e-39
-0.0429 -0.1417 1.365 6.5454679e-39
-0.040122859 -0.14107715 1.3590001 8.4787708e-39
-0.037396193 -0.14055811 1.3540001 1.4287095e-38
-0.034817144 -0.14055811 1.3540001 1.2818041e-38
-0.032119051 -0.14003906 1.3490001 1.0236564e-38
-0.029549526 -0.14003906 1.3490001 9.9628733e-39
-0.019342858 -0.14055811 1.3540001 1.2637256e-38
-0.016701905 -0.14003906 1.3490001 7.4743004e-39
-0.014132381 -0.14003906 1.3490001 4.8143206e-39
-0.011562858 -0.14003906 1.3490001 4.5377337e-39
-0.0089933341 -0.14003906 1.3490001 8.7675349e-39
-0.00642381 -0.14003906 1.3490001 1.3469512e-38
-0.0038542862 -0.14003906 1.3490001 1.4842417e-38
-0.0012847619 -0.14003906 1.3490001 1.0232636e-38
0.0012895239 -0.14055811 1.3540001 8.1139217e-39
0.0090266671 -0.14055811 1.3540001 1.2444946e-38
0.011648572 -0.14107715 1.3590001 1.2079413e-38
-0.054354288 -0.14185144 1.3920001 1.7143696e-38
-0.051108573 -0.14022096 1.376 1.4841701e-38
-0.048487622 -0.14022096 1.376 7.7426378e-39
-0.045666672 -0.13960953 1.3700001 5.07287e-39
-0.0429 -0.1391 1.365 5.3494569e-39
-0.040299997 -0.1391 1.365 7.5603569e-39
-0.037534289 -0.13848858 1.3590001 1.3737464e-38
-0.032238096 -0.13797905 1.3540001 9.4082576e-39
-0.02965905 -0.13797905 1.3540001 8.217245e-39
-0.014184763 -0.13797905 1.3540001 4.1718309e-39
-0.011605715 -0.13797905 1.3540001 3.5264615e-39
-0.0090266671 -0.13797905 1.3540001 5.1812632e-39
-0.0064476193 -0.13797905 1.3540001 1.1173979e-38
-0.0038685717 -0.13797905 1.3540001 1.3371994e-38
0.0064476193 -0.13797905 1.3540001 8.7574736e-39
0.0090600001 -0.13848858 1.3590001 1.262969e-38
0.0221 -0.1391 1.365 1.4930998e-38
0.024699999 -0.1391 1.365 1.4930998e-38
0.0273 -0.1391 1.365 1.4837713e-38
-0.054354288 -0.1392 1.3920001 1.6405762e-38
-0.048487622 -0.1376 1.376 9.8606164e-39
-0.045666672 -0.13700001 1.3700001 5.9916594e-39
-0.0429 -0.1365 1.365 5.2540943e-39
-0.040299997 -0.1365 1.365 8.1114007e-39
0.0038685717 -0.13540001 1.3540001 7.9316954e-39
0.006471429 -0.13590001 1.3590001 9.6783705e-39
0.0221 -0.1365 1.365 1.437818e-38
0.024790479 -0.13700001 1.3700001 1.4562571e-38
-0.054588575 -0.13713716 1.3980001 1.6036629e-38
-0.051294286 -0.13546953 1.381 1.5667859e-38
-0.04866381 -0.13546953 1.381 1.0965882e-38
-0.045666672 -0.13439049 1.3700001 8.1145985e-39
-0.043057144 -0.13439049 1.3700001 7.5614247e-39
-0.040299997 -0.1339 1.365 9.2163008e-39
-0.034817144 -0.13282095 1.3540001 1.2817681e-38
-0.014184763 -0.13282095 1.3540001 1.4134898e-39
-0.011605715 -0.13282095 1.3540001 2.1510548e-39
-0.0090266671 -0.13282095 1.3540001 8.5824753e-39
-0.0064476193 -0.13282095 1.3540001 1.3745431e-38
0.0038685717 -0.13282095 1.3540001 9.7741689e-39
0.006471429 -0.13331144 1.3590001 1.1244264e-38
0.0195 -0.1339 1.365 1.308813e-38
0.0221 -0.1339 1.365 1.4010126e-38
0.024790479 -0.13439049 1.3700001 1.4471104e-38
0.027520001 -0.13497905 1.376 1.4470373e-38
-0.051294286 -0.13283905 1.381 1.5668575e-38
-0.04866381 -0.13283905 1.381 1.1150989e-38
-0.045866664 -0.13235809 1.376 9.2184518e-39
-0.040447623 -0.13178097 1.3700001 1.106345e-38
-0.037534289 -0.13072287 1.3590001 1.2261994e-38
-0.034817144 -0.13024192 1.3540001 1.2724757e-38
-0.021921907 -0.13024192 1.3540001 1.4844187e-38
-0.019342858 -0.13024192 1.3540001 1.3464177e-38
-0.01676381 -0.13024192 1.3540001 1.1159287e-38
-0.014184763 -0.13024192 1.3540001 9.5069048e-39
-0.011605715 -0.13024192 1.3540001 1.0797644e-38
-0.0090266671 -0.13024192 1.3540001 1.291207e-38
-0.0064476193 -0.13024192 1.3540001 1.3926222e-38
-0.0038685717 -0.13024192 1.3540001 1.4568316e-38
-0.0012895239 -0.13024192 1.3540001 1.4844903e-38
0.0012895239 -0.13024192 1.3540001 1.4383199e-38
0.0038828573 -0.13072287 1.3590001 1.3276852e-38
0.006471429 -0.13072287 1.3590001 1.2908094e-38
0.022180954 -0.13178097 1.3700001 1.4101966e-38
0.024790479 -0.13178097 1.3700001 1.4562944e-38
0.027520001 -0.13235809 1.376 1.4561849e-38
-0.040447623 -0.12917143 1.3700001 1.1064885e-38
-0.037699997 -0.12869999 1.365 9.3131683e-39
-0.032238096 -0.12766287 1.3540001 1.3464103e-38
-0.02965905 -0.12766287 1.3540001 1.4195976e-38
-0.016825715 -0.1281343 1.3590001 1.4197383e-38
-0.014237144 -0.1281343 1.3590001 1.2538596e-38
-0.011648572 -0.1281343 1.3590001 1.4290313e-38
-0.0090600001 -0.1281343 1.3590001 1.4202077e-38
-0.006471429 -0.1281343 1.3590001 1.2173773e-38
-0.0038828573 -0.1281343 1.3590001 1.3091744e-38
0.0013 -0.12869999 1.365 1.5854402e-38
0.014352382 -0.12917143 1.3700001 5.8212138e-39
0.022278095 -0.12973714 1.376 1.400976e-38
0.024899049 -0.12973714 1.376 1.4286347e-38
-0.040447623 -0.12656191 1.3700001 8.1211216e-39
-0.037699997 -0.1261 1.365 3.8801226e-39
-0.035099998 -0.1261 1.365 4.8042523e-39
-0.032357145 -0.12554573 1.3590001 1.0796968e-38
-0.029768573 -0.12554573 1.3590001 1.3366937e-38
-0.014237144 -0.12554573 1.3590001 1.5489219e-38
-0.011648572 -0.12554573 1.3590001 1.484385e-38
-0.0090600001 -0.12554573 1.3590001 1.2913124e-38
-0.006471429 -0.12554573 1.3590001 1.0792624e-38
0.0117 -0.1261 1.365 3.9791229e-39
0.014352382 -0.12656191 1.3700001 4.9932748e-39
0.022278095 -0.12711619 1.376 1.4470373e-38
0.024899049 -0.12711619 1.376 1.4285981e-38
-0.040447623 -0.12395239 1.3700001 6.5591936e-39
-0.037699997 -0.1235 1.365 2.9635641e-39
-0.0064999997 -0.1235 1.365 9.9661132e-39
0.0091000004 -0.1235 1.365 2.8695384e-39
0.0117 -0.1235 1.365 4.6216056e-39
-0.043057144 -0.12134287 1.3700001 9.7741689e-39
-0.037699997 -0.1209 1.365 3.6067825e-39
-0.029768573 -0.12036858 1.3590001 1.0331643e-38
0.0091333343 -0.12134287 1.3700001 2.9635641e-39
0.011742858 -0.12134287 1.3700001 5.8173322e-39
-0.040624764 -0.11925334 1.376 9.0420059e-39
-0.037838098 -0.11873335 1.3700001 4.1556375e-39
-0.035099998 -0.11830001 1.365 7.6302663e-40
-0.029768573 -0.11778001 1.3590001 1.0055084e-38
0.0064999997 -0.11830001 1.365 7.5740743e-39
0.0091333343 -0.11873335 1.3700001 4.4394228e-39
-0.037838098 -0.11612382 1.3700001 7.2881365e-39
-0.035099998 -0.1157 1.365 4.9954202e-39
-0.019571429 -0.11612382 1.3700001 9.2184938e-39
-0.016900001 -0.1157 1.365 1.5948775e-38
0.0064999997 -0.1157 1.365 1.2450023e-38
0.0091333343 -0.11612382 1.3700001 1.0329523e-38
0.01703619 -0.11663239 1.376 1.3087056e-38
-0.035099998 -0.1131 1.365 8.3015009e-39
0.0039000001 -0.1131 1.365 1.5946945e-38
0.0064999997 -0.1131 1.365 1.4658379e-38
-0.035228573 -0.11090478 1.3700001 1.3461226e-38
-0.032499999 -0.1105 1.365 1.4936356e-38
-0.0117 -0.1105 1.365 1.6592304e-38
0.0013 -0.1105 1.365 1.5486683e-38
0.0039142864 -0.11090478 1.3700001 1.5394487e-38
0.0065238099 -0.11090478 1.3700001 1.5209733e-38
-0.035228573 -0.10829525 1.3700001 1.4655806e-38
-0.032499999 -0.10789999 1.365 1.5946545e-38
-0.0117 -0.10789999 1.365 1.6592304e-38
-0.0091000004 -0.10789999 1.365 1.6592314e-38
0.0013 -0.10789999 1.365 1.539449e-38
0.0039142864 -0.10829525 1.3700001 1.5302294e-38
0.014352382 -0.10829525 1.3700001 1.2533529e-38
-0.032619052 -0.10568572 1.3700001 1.4103699e-38
-0.029899999 -0.1053 1.365 1.4010139e-38
-0.0117 -0.1053 1.365 1.6223885e-38
-0.0091000004 -0.1053 1.365 1.631573e-38
0.019657144 -0.10614857 1.376 1.4471065e-38
-0.032619052 -0.1030762 1.3700001 1.1341726e-38
-0.029899999 -0.1027 1.365 1.3826435e-38
0.006552381 -0.10352762 1.376 1.4933149e-38
0.01703619 -0.10352762 1.376 1.2718996e-38
0.019728571 -0.10390382 1.381 1.4655104e-38
0.022359049 -0.10390382 1.381 1.4929543e-38
-0.040624764 -0.10090667 1.376 9.6812348e-39
-0.030009525 -0.10046668 1.3700001 1.1799596e-38
-0.011742858 -0.10046668 1.3700001 1.659303e-38
-0.0091333343 -0.10046668 1.3700001 1.622532e-38
-0.0065238099 -0.10046668 1.3700001 1.622532e-38
-0.0039142864 -0.10046668 1.3700001 1.6133111e-38
0.006552381 -0.10090667 1.376 1.493243e-38
-0.037838098 -0.097857147 1.3700001 7.0075559e-39
-0.0091333343 -0.097857147 1.3700001 1.5578878e-38
-0.0065238099 -0.097857147 1.3700001 1.5302291e-38
