# .PCD v0.7 - Point Cloud Data file format
VERSION 0.7
FIELDS x y z rgb
SIZE 4 4 4 4
TYPE F F F F
COUNT 1 1 1 1
WIDTH 241
HEIGHT 1
VIEWPOINT 0 0 0 1 0 0 0
POINTS 241
DATA ascii
-0.063960001 -0.36244002 1.7220001 9.310667e-39
-0.074185714 -0.36103716 1.7310001 1.401448e-38
-0.070520006 -0.35916004 1.7220001 1.1159975e-38
-0.067240007 -0.35916004 1.7220001 7.6565407e-39
-0.063960001 -0.35916004 1.7220001 8.0223973e-39
-0.10434 -0.35939333 1.7390001 9.4097122e-39
-0.10102762 -0.35939333 1.7390001 1.2728755e-38
-0.077482857 -0.35774001 1.7310001 1.3187222e-38
-0.074185714 -0.35774001 1.7310001 9.9603748e-39
-0.070520006 -0.35587999 1.7220001 8.1164398e-39
-0.067240007 -0.35587999 1.7220001 7.9320486e-39
-0.063960001 -0.35587999 1.7220001 8.3897869e-39
-0.054120004 -0.35587999 1.7220001 1.3369057e-38
-0.028300952 -0.36125335 1.748 5.1705181e-39
-0.11153905 -0.35792381 1.748 4.4332319e-39
-0.10434 -0.35608095 1.7390001 9.1334812e-39
-0.09726572 -0.35444286 1.7310001 1.1163937e-38
-0.077482857 -0.35444286 1.7310001 1.2635859e-38
-0.074185714 -0.35444286 1.7310001 1.0330968e-38
-0.070520006 -0.35260004 1.7220001 8.7596638e-39
-0.067240007 -0.35260004 1.7220001 8.2986857e-39
-0.063960001 -0.35260004 1.7220001 8.6670772e-39
-0.03146762 -0.35608095 1.7390001 8.581769e-39
-0.10102762 -0.35276857 1.7390001 1.2817325e-38
-0.094402857 -0.35276857 1.7390001 1.2634379e-38
-0.080779999 -0.35114571 1.7310001 1.2549065e-38
-0.077482857 -0.35114571 1.7310001 1.438361e-38
-0.074185714 -0.35114571 1.7310001 1.4291414e-38
-0.070888579 -0.35114571 1.7310001 1.2354242e-38
-0.067591429 -0.35114571 1.7310001 9.219591e-39
-0.064294286 -0.35114571 1.7310001 9.9556833e-39
-0.034779999 -0.35276857 1.7390001 1.051247e-38
-0.031630479 -0.35459429 1.748 8.94909e-39
-0.080779999 -0.34784859 1.7310001 1.3373424e-38
-0.077482857 -0.34784859 1.7310001 1.4475067e-38
-0.074185714 -0.34784859 1.7310001 1.4567263e-38
-0.070888579 -0.34784859 1.7310001 1.4566912e-38
-0.067591429 -0.34784859 1.7310001 1.3183978e-38
-0.064294286 -0.34784859 1.7310001 1.1340791e-38
-0.060997147 -0.34784859 1.7310001 1.2539334e-38
-0.034779999 -0.34945619 1.7390001 1.032915e-38
-0.087374285 -0.34455144 1.7310001 1.4753825e-38
-0.080779999 -0.34455144 1.7310001 1.1252549e-38
-0.077482857 -0.34455144 1.7310001 1.0977043e-38
-0.074185714 -0.34455144 1.7310001 1.1622413e-38
-0.070888579 -0.34455144 1.7310001 1.3462347e-38
-0.067591429 -0.34455144 1.7310001 1.5490651e-38
-0.064294286 -0.34455144 1.7310001 1.4105931e-38
-0.037917141 -0.34455144 1.7310001 9.4990211e-39
-0.094402857 -0.34283143 1.7390001 9.1305399e-39
-0.077482857 -0.34125429 1.7310001 9.0477666e-39
-0.074185714 -0.34125429 1.7310001 9.5087447e-39
-0.070888579 -0.34125429 1.7310001 1.2266688e-38
-0.067591429 -0.34125429 1.7310001 1.5216948e-38
-0.064294286 -0.34125429 1.7310001 1.2912443e-38
-0.05134191 -0.34283143 1.7390001 7.2902721e-39
-0.048029527 -0.34283143 1.7390001 1.0332728e-38
-0.091561906 -0.34127617 1.748 1.1249652e-38
-0.077840954 -0.33951905 1.7390001 9.2328893e-39
-0.074528575 -0.33951905 1.7390001 9.8782587e-39
-0.071216188 -0.33951905 1.7390001 1.2818064e-38
-0.067591429 -0.33795714 1.7310001 1.521515e-38
-0.064294286 -0.33795714 1.7310001 1.3280827e-38
-0.077840954 -0.3362067 1.7390001 9.3250625e-39
-0.074528575 -0.3362067 1.7390001 1.0154823e-38
-0.071216188 -0.3362067 1.7390001 1.3093221e-38
-0.067903809 -0.3362067 1.7390001 1.4660547e-38
-0.064591438 -0.3362067 1.7390001 1.3464856e-38
-0.087778099 -0.3328943 1.7390001 1.1249682e-38
-0.081153341 -0.3328943 1.7390001 1.3189385e-38
-0.077840954 -0.3328943 1.7390001 1.3283329e-38
-0.074528575 -0.3328943 1.7390001 1.4113089e-38
-0.071216188 -0.3328943 1.7390001 1.4199925e-38
-0.067903809 -0.3328943 1.7390001 1.2171621e-38
-0.064591438 -0.3328943 1.7390001 1.2448555e-38
-0.081153341 -0.32958192 1.7390001 1.3285159e-38
-0.077840954 -0.32958192 1.7390001 1.493821e-38
-0.074528575 -0.32958192 1.7390001 1.4846015e-38
-0.071216188 -0.32958192 1.7390001 1.3832581e-38
-0.067903809 -0.32958192 1.7390001 9.3149956e-39
-0.064591438 -0.32958192 1.7390001 1.1062362e-38
-0.048278097 -0.33128762 1.748 8.6707052e-39
-0.077840954 -0.32626954 1.7390001 1.3095745e-38
-0.074528575 -0.32626954 1.7390001 1.1712811e-38
-0.071216188 -0.32626954 1.7390001 8.7622128e-39
-0.067903809 -0.32626954 1.7390001 7.7480609e-39
-0.064591438 -0.32626954 1.7390001 8.760017e-39
-0.074528575 -0.32295716 1.7390001 1.1531313e-38
-0.071216188 -0.32295716 1.7390001 8.5777781e-39
-0.067903809 -0.32295716 1.7390001 7.9324087e-39
-0.064591438 -0.32295716 1.7390001 8.2089521e-39
-0.085340001 -0.32295334 1.7570001 4.6288588e-39
-0.078243807 -0.32129905 1.748 1.3832228e-38
-0.074528575 -0.31964478 1.7390001 1.3555641e-38
-0.071216188 -0.31964478 1.7390001 1.0235895e-38
-0.068255238 -0.32129905 1.748 7.9310046e-39
-0.078243807 -0.31796953 1.748 1.5211197e-38
-0.074914292 -0.31796953 1.748 1.4658023e-38
-0.071584761 -0.31796953 1.748 1.2909556e-38
-0.068255238 -0.31796953 1.748 1.0420274e-38
-0.038683809 -0.32124379 1.766 2.2867037e-38
-0.092504762 -0.31788 1.766 1.1434817e-38
-0.08157333 -0.31464002 1.748 1.3005317e-38
-0.078243807 -0.31464002 1.748 1.309573e-38
-0.074914292 -0.31464002 1.748 1.309573e-38
-0.071584761 -0.31464002 1.748 1.4383613e-38
-0.068255238 -0.31464002 1.748 1.4936786e-38
-0.038683809 -0.31788 1.766 2.341769e-38
-0.035520002 -0.31968004 1.7760001 2.341769e-38
-0.032137144 -0.31968004 1.7760001 2.341769e-38
-0.08157333 -0.31131047 1.748 1.2356733e-38
-0.078243807 -0.31131047 1.748 1.0703325e-38
-0.074914292 -0.31131047 1.748 1.0979912e-38
-0.071584761 -0.31131047 1.748 1.4199209e-38
-0.068255238 -0.31131047 1.748 1.5582143e-38
-0.064925715 -0.31131047 1.748 1.3464891e-38
-0.038683809 -0.31451619 1.766 2.341769e-38
-0.035520002 -0.31629717 1.7760001 2.3141103e-38
-0.08157333 -0.30798095 1.748 1.0975959e-38
-0.078243807 -0.30798095 1.748 9.6927759e-39
-0.074914292 -0.30798095 1.748 9.9693628e-39
-0.071584761 -0.30798095 1.748 1.2817711e-38
-0.068255238 -0.30798095 1.748 1.4477232e-38
-0.064925715 -0.30798095 1.748 1.217701e-38
-0.038683809 -0.31115237 1.766 2.341769e-38
-0.08157333 -0.30465144 1.748 1.0792647e-38
-0.078243807 -0.30465144 1.748 9.2325138e-39
-0.074914292 -0.30465144 1.748 9.6934919e-39
-0.071584761 -0.30465144 1.748 1.2080874e-38
-0.068255238 -0.30465144 1.748 1.4109178e-38
-0.064925715 -0.30465144 1.748 1.1349792e-38
-0.05160762 -0.30465144 1.748 1.1618056e-38
-0.038683809 -0.30778858 1.766 2.341769e-38
-0.035520002 -0.30953145 1.7760001 2.3141103e-38
-0.078243807 -0.30132189 1.748 1.2913136e-38
-0.074914292 -0.30132189 1.748 1.3005332e-38
-0.071584761 -0.30132189 1.748 1.4107023e-38
-0.068255238 -0.30132189 1.748 1.4568001e-38
-0.04204762 -0.30442476 1.766 2.3509862e-38
-0.038683809 -0.30442476 1.766 2.341769e-38
-0.035520002 -0.30614859 1.7760001 2.3141103e-38
-0.078243807 -0.29799238 1.748 1.4751654e-38
-0.074914292 -0.29799238 1.748 1.4751654e-38
-0.071584761 -0.29799238 1.748 1.475238e-38
-0.068255238 -0.29799238 1.748 1.3738228e-38
-0.081993334 -0.29618001 1.7570001 9.9718935e-39
-0.078646667 -0.29618001 1.7570001 1.4476136e-38
-0.074914292 -0.29466286 1.748 1.4476136e-38
-0.071584761 -0.29466286 1.748 1.1984719e-38
-0.068255238 -0.29466286 1.748 8.2046978e-39
-0.081993334 -0.29283333 1.7570001 7.0345239e-39
-0.078646667 -0.29283333 1.7570001 1.2911714e-38
-0.075300001 -0.29283333 1.7570001 1.3096105e-38
-0.071953334 -0.29283333 1.7570001 1.1153153e-38
-0.068606667 -0.29283333 1.7570001 8.3872842e-39
-0.065260001 -0.29283333 1.7570001 8.116018e-39
-0.085340001 -0.28948668 1.7570001 2.2386346e-39
-0.081993334 -0.28948668 1.7570001 6.0186554e-39
-0.078646667 -0.28948668 1.7570001 1.2726574e-38
-0.075300001 -0.28948668 1.7570001 1.2726574e-38
-0.071953334 -0.28948668 1.7570001 1.0877314e-38
-0.068606667 -0.28948668 1.7570001 8.6646194e-39
-0.065260001 -0.28948668 1.7570001 8.4852223e-39
-0.081993334 -0.28614002 1.7570001 8.4088768e-39
-0.078646667 -0.28614002 1.7570001 1.3830774e-38
-0.075300001 -0.28614002 1.7570001 1.4015165e-38
-0.071953334 -0.28614002 1.7570001 1.1432999e-38
-0.068606667 -0.28614002 1.7570001 8.9437174e-39
-0.075685717 -0.28424191 1.766 1.4478301e-38
-0.071953334 -0.28279334 1.7570001 1.4750925e-38
-0.068606667 -0.28279334 1.7570001 1.3644578e-38
-0.11050001 -0.28389999 1.7850001 2.341769e-38
-0.1071 -0.28389999 1.7850001 2.341769e-38
-0.07904952 -0.2808781 1.766 1.2819874e-38
-0.075685717 -0.2808781 1.766 1.3373048e-38
-0.072321907 -0.2808781 1.766 1.5028241e-38
-0.068606667 -0.27944666 1.7570001 1.5581415e-38
-0.11050001 -0.28050002 1.7850001 2.341769e-38
-0.1071 -0.28050002 1.7850001 2.341769e-38
-0.082413338 -0.27751431 1.766 1.1712808e-38
-0.07904952 -0.27751431 1.766 1.079517e-38
-0.075685717 -0.27751431 1.766 1.0702975e-38
-0.072321907 -0.27751431 1.766 1.2726594e-38
-0.068958096 -0.27751431 1.766 1.429392e-38
-0.1071 -0.27710003 1.7850001 2.341769e-38
-0.10317715 -0.27570289 1.7760001 8.7585848e-39
-0.082413338 -0.27415046 1.766 1.0976334e-38
-0.07904952 -0.27415046 1.766 9.5080315e-39
-0.075685717 -0.27415046 1.766 9.5080315e-39
-0.072321907 -0.27415046 1.766 1.088699e-38
-0.068958096 -0.27415046 1.766 1.3099686e-38
-0.1071 -0.2737 1.7850001 2.341769e-38
-0.082413338 -0.27078667 1.766 1.3094303e-38
-0.07904952 -0.27078667 1.766 1.1900076e-38
-0.075685717 -0.27078667 1.766 1.1623489e-38
-0.072321907 -0.27078667 1.766 1.3464137e-38
-0.068958096 -0.27078667 1.766 1.5769027e-38
-0.096900001 -0.2703 1.7850001 1.1062397e-38
-0.093500003 -0.2703 1.7850001 1.1520841e-38
-0.075685717 -0.26742285 1.766 1.2633673e-38
-0.072321907 -0.26742285 1.766 1.4842758e-38
-0.068958096 -0.26742285 1.766 1.6778866e-38
-0.10422286 -0.2682457 1.794 1.2630801e-38
-0.10080571 -0.2682457 1.794 1.2167643e-38
-0.093500003 -0.26690003 1.7850001 1.4842417e-38
-0.075685717 -0.26405904 1.766 1.5766156e-38
-0.072321907 -0.26405904 1.766 1.6133497e-38
-0.068958096 -0.26405904 1.766 1.6502279e-38
-0.06596572 -0.26555431 1.7760001 1.5766172e-38
-0.096900001 -0.26350001 1.7850001 1.5393405e-38
-0.093500003 -0.26350001 1.7850001 1.5209758e-38
-0.079497151 -0.26217145 1.7760001 1.6409007e-38
-0.075685717 -0.26069525 1.766 1.6593399e-38
-0.072321907 -0.26069525 1.766 1.6225339e-38
-0.068958096 -0.26069525 1.766 1.6133144e-38
-0.10480382 -0.26286858 1.8040001 1.2907388e-38
-0.10080571 -0.26141143 1.794 1.2258394e-38
-0.097388573 -0.26141143 1.794 1.5116458e-38
-0.082880005 -0.25878859 1.7760001 1.5765077e-38
-0.079497151 -0.25878859 1.7760001 1.5948752e-38
-0.075685717 -0.25733143 1.766 1.6225339e-38
-0.072321907 -0.25733143 1.766 1.6132788e-38
-0.045668576 -0.25878859 1.7760001 1.3087463e-38
-0.042714287 -0.26141143 1.794 2.3508091e-38
-0.10080571 -0.25799429 1.794 1.1796697e-38
-0.097388573 -0.25799429 1.794 1.5207935e-38
-0.082880005 -0.25540572 1.7760001 1.6132418e-38
-0.079497151 -0.25540572 1.7760001 1.6133497e-38
-0.075685717 -0.25396764 1.766 1.6225692e-38
-0.072321907 -0.25396764 1.766 1.6132437e-38
-0.045900002 -0.25670001 1.7850001 1.345371e-38
-0.089645721 -0.25202286 1.7760001 1.567037e-38
-0.086262859 -0.25202286 1.7760001 1.5763635e-38
-0.082880005 -0.25202286 1.7760001 1.6409005e-38
-0.079497151 -0.25202286 1.7760001 1.6316809e-38
-0.075685717 -0.2506038 1.766 1.6869983e-38
-0.0867 -0.22950001 1.7850001 1.4748026e-38
-0.083300002 -0.22950001 1.7850001 1.4748026e-38
-0.055817146 -0.22834288 1.7760001 1.4286335e-38
-0.0867 -0.22610001 1.7850001 1.4654751e-38
-0.083300002 -0.22610001 1.7850001 1.4746947e-38
