# .PCD v0.7 - Point Cloud Data file format
VERSION 0.7
FIELDS x y z rgb
SIZE 4 4 4 4
TYPE F F F F
COUNT 1 1 1 1
WIDTH 900
HEIGHT 1
VIEWPOINT 0 0 0 1 0 0 0
POINTS 900
DATA ascii
0.10661428 -0.22953428 1.317 1.2174174e-38
0.10912286 -0.22953428 1.317 1.3925891e-38
0.074901909 -0.22978382 1.3330001 1.309573e-38
0.077440955 -0.22978382 1.3330001 1.3280121e-38
0.079980001 -0.22978382 1.3330001 1.3372317e-38
0.082519054 -0.22978382 1.3330001 1.3003184e-38
0.085058101 -0.22978382 1.3330001 1.2910988e-38
0.087597147 -0.22978382 1.3330001 1.2634401e-38
0.10450096 -0.22788762 1.322 1.005399e-38
0.10661428 -0.22702572 1.317 9.1338343e-39
0.11163143 -0.22702572 1.317 8.5774278e-39
0.11370667 -0.2261638 1.312 7.3788846e-39
0.074901909 -0.22724476 1.3330001 1.3922609e-38
0.077440955 -0.22724476 1.3330001 1.3830774e-38
0.079980001 -0.22724476 1.3330001 1.3830774e-38
0.082519054 -0.22724476 1.3330001 1.3739294e-38
0.085058101 -0.22724476 1.3330001 1.3554903e-38
0.087597147 -0.22724476 1.3330001 1.3370517e-38
0.10029238 -0.22724476 1.3330001 1.2448561e-38
0.10450096 -0.22536953 1.322 1.1803189e-38
0.10661428 -0.22451715 1.317 1.1618081e-38
0.11163143 -0.22451715 1.317 1.0234794e-38
0.074901909 -0.22470573 1.3330001 1.3647099e-38
0.077731431 -0.22554858 1.3380001 1.383113e-38
0.079980001 -0.22470573 1.3330001 1.383113e-38
0.082519054 -0.22470573 1.3330001 1.392296e-38
0.085058101 -0.22470573 1.3330001 1.3738568e-38
0.087597147 -0.22470573 1.3330001 1.346271e-38
0.090136193 -0.22470573 1.3330001 1.3278319e-38
0.10029238 -0.22470573 1.3330001 1.2540404e-38
0.10497525 -0.22386287 1.3280001 1.1895034e-38
0.10701905 -0.22285143 1.322 1.1710287e-38
0.10912286 -0.22200857 1.317 1.1710287e-38
0.11163143 -0.22200857 1.317 1.1617375e-38
0.12475906 -0.21863715 1.2970001 2.2956709e-38
0.062206667 -0.22216667 1.3330001 1.3278319e-38
0.064745717 -0.22216667 1.3330001 1.3370515e-38
0.072634295 -0.223 1.3380001 1.3369796e-38
0.075182855 -0.223 1.3380001 1.3369796e-38
0.077731431 -0.223 1.3380001 1.3554187e-38
0.082519054 -0.22216667 1.3330001 1.32776e-38
0.085058101 -0.22216667 1.3330001 1.3093209e-38
0.087597147 -0.22216667 1.3330001 1.3185404e-38
0.10283143 -0.22216667 1.3330001 1.2264167e-38
0.10701905 -0.22033334 1.322 1.1802473e-38
0.10912286 -0.21950001 1.317 1.1894668e-38
0.11163143 -0.21950001 1.317 1.1709574e-38
0.11370667 -0.21866667 1.312 1.1617378e-38
0.12475906 -0.21616668 1.2970001 2.0562162e-38
0.12722953 -0.21616668 1.2970001 2.2313872e-38
0.057128575 -0.21962762 1.3330001 1.3093565e-38
0.059667625 -0.21962762 1.3330001 1.3093565e-38
0.062440004 -0.22045144 1.3380001 1.3093928e-38
0.064988576 -0.22045144 1.3380001 1.3186123e-38
0.070085719 -0.22045144 1.3380001 1.3186474e-38
0.072634295 -0.22045144 1.3380001 1.309393e-38
0.075182855 -0.22045144 1.3380001 1.309393e-38
0.077731431 -0.22045144 1.3380001 1.3186126e-38
0.085058101 -0.21962762 1.3330001 1.3185407e-38
0.10283143 -0.21962762 1.3330001 1.2632587e-38
0.10912286 -0.21699142 1.317 1.3186474e-38
0.11163143 -0.21699142 1.317 1.244823e-38
0.12228857 -0.2136962 1.2970001 2.1947606e-38
0.12475906 -0.2136962 1.2970001 2.3326213e-38
0.12722953 -0.2136962 1.2970001 2.2865235e-38
0.057128575 -0.21708858 1.3330001 1.2818064e-38
0.059891429 -0.21790285 1.3380001 1.2818064e-38
0.070085719 -0.21790285 1.3380001 1.3278669e-38
0.072634295 -0.21790285 1.3380001 1.3002455e-38
0.075182855 -0.21790285 1.3380001 1.3094651e-38
0.077731431 -0.21790285 1.3380001 1.3186493e-38
0.085058101 -0.21708858 1.3330001 1.32776e-38
0.095214292 -0.21708858 1.3330001 1.2633673e-38
0.097753339 -0.21708858 1.3330001 1.2908467e-38
0.10283143 -0.21708858 1.3330001 1.3093209e-38
0.10701905 -0.21529715 1.322 1.3002811e-38
0.10912286 -0.21448286 1.317 1.2449637e-38
0.11163143 -0.21448286 1.317 1.1896483e-38
0.12096858 -0.20894574 1.2830001 2.3141109e-38
0.049325716 -0.21374476 1.3280001 1.2171641e-38
0.05155905 -0.20263906 1.2590001 1.2171974e-38
0.053957146 -0.20263906 1.2590001 1.2173426e-38
0.059891429 -0.21535429 1.3380001 1.2542208e-38
0.070085719 -0.21535429 1.3380001 1.3187547e-38
0.072634295 -0.21535429 1.3380001 1.3188281e-38
0.075182855 -0.21535429 1.3380001 1.3188281e-38
0.077731431 -0.21535429 1.3380001 1.3279771e-38
0.095571436 -0.21535429 1.3380001 1.3187575e-38
0.098119996 -0.21535429 1.3380001 1.2542206e-38
0.10029238 -0.21454953 1.3330001 1.2265619e-38
0.10283143 -0.21454953 1.3330001 1.1252912e-38
0.10537048 -0.21454953 1.3330001 1.0791933e-38
0.10701905 -0.21277905 1.322 8.5799767e-39
0.10912286 -0.21197428 1.317 8.5799767e-39
0.11760096 -0.20489237 1.273 1.5768388e-38
0.12002572 -0.20489237 1.273 2.2498619e-38
0.12341239 -0.20650193 1.2830001 2.2864882e-38
0.040322863 -0.20405811 1.2830001 7.2873952e-39
0.047282856 -0.20246762 1.273 1.2262019e-38
0.05185524 -0.21121526 1.3280001 1.1435858e-38
0.05155905 -0.20024095 1.2590001 1.1159271e-38
0.053957146 -0.20024095 1.2590001 1.1162138e-38
0.072634295 -0.21280573 1.3380001 1.3004979e-38
0.075182855 -0.21280573 1.3380001 1.2636196e-38
0.077731431 -0.21280573 1.3380001 1.2821266e-38
0.095571436 -0.21280573 1.3380001 1.2544001e-38
0.098119996 -0.21280573 1.3380001 1.2175937e-38
0.10029238 -0.21201049 1.3330001 1.1069589e-38
0.09681429 -0.19960478 1.2550001 1.0243066e-38
0.10398573 -0.19960478 1.2550001 9.0416583e-39
0.10671524 -0.20024095 1.2590001 9.7784751e-39
0.1143619 -0.2010362 1.2640001 1.0160517e-38
0.11713905 -0.20167238 1.268 1.5585792e-38
0.12002572 -0.20246762 1.273 2.1301888e-38
0.12293144 -0.20326288 1.2780001 2.2404267e-38
0.046948571 -0.19862857 1.2640001 1.069792e-38
0.049356192 -0.19862857 1.2640001 8.0282477e-39
0.053957146 -0.19784287 1.2590001 8.3058912e-39
0.056176193 -0.19721429 1.2550001 1.2085912e-38
0.058566671 -0.19721429 1.2550001 1.2635107e-38
0.065476187 -0.19642857 1.25 1.3650699e-38
0.075300008 -0.19721429 1.2550001 1.3188952e-38
0.077690482 -0.19721429 1.2550001 1.3096461e-38
0.09681429 -0.19721429 1.2550001 9.4136835e-39
0.10398573 -0.19721429 1.2550001 1.069971e-38
0.10671524 -0.19784287 1.2590001 8.9519388e-39
0.10954667 -0.19862857 1.2640001 2.682636e-39
0.11713905 -0.19925714 1.268 1.6321185e-38
0.12002572 -0.20004286 1.273 2.1391929e-38
0.12293144 -0.2008286 1.2780001 2.2219159e-38
0.044681903 -0.19684191 1.268 1.0425662e-38
0.046948571 -0.19622096 1.2640001 8.5817494e-39
0.049356192 -0.19622096 1.2640001 5.2720744e-39
0.05155905 -0.19544476 1.2590001 4.5345093e-39
0.053957146 -0.19544476 1.2590001 7.6604839e-39
0.056355242 -0.19544476 1.2590001 1.0887331e-38
0.058566671 -0.19482383 1.2550001 1.3094278e-38
0.060957149 -0.19482383 1.2550001 1.3370865e-38
0.063347623 -0.19482383 1.2550001 1.2819531e-38
0.065476187 -0.19404761 1.25 1.263514e-38
0.072909534 -0.19482383 1.2550001 8.1153216e-39
0.075300008 -0.19482383 1.2550001 1.0788995e-38
0.077690482 -0.19482383 1.2550001 1.2818044e-38
0.080080956 -0.19482383 1.2550001 1.2633653e-38
0.082734287 -0.19544476 1.2590001 1.1255773e-38
0.11760096 -0.19761808 1.273 1.6781814e-38
0.12002572 -0.19761808 1.273 2.1391571e-38
0.12341239 -0.19917049 1.2830001 2.15738e-38
0.042600002 -0.19596003 1.2780001 9.4133051e-39
0.044858098 -0.19519334 1.273 9.2278096e-39
0.046948571 -0.19381334 1.2640001 6.0931582e-39
0.049356192 -0.19381334 1.2640001 4.4419662e-39
0.05176381 -0.19381334 1.2640001 4.5341618e-39
0.053957146 -0.19304667 1.2590001 5.0844391e-39
0.058753334 -0.19304667 1.2590001 1.1529085e-38
0.061151426 -0.19304667 1.2590001 1.438715e-38
0.063347623 -0.19243336 1.2550001 1.383113e-38
0.070743814 -0.19304667 1.2590001 8.4870272e-39
0.07314191 -0.19304667 1.2590001 8.669629e-39
0.075300008 -0.19243336 1.2550001 8.1164552e-39
0.077690482 -0.19243336 1.2550001 8.9494151e-39
0.082734287 -0.19304667 1.2590001 1.2084462e-38
0.08513239 -0.19304667 1.2590001 1.2268853e-38
0.087530479 -0.19304667 1.2590001 1.1533426e-38
0.089928575 -0.19304667 1.2590001 9.5051224e-39
0.092326671 -0.19304667 1.2590001 8.1261788e-39
0.094724767 -0.19304667 1.2590001 8.0339832e-39
0.097508572 -0.19381334 1.2640001 8.12546e-39
0.09991619 -0.19381334 1.2640001 8.6786338e-39
0.10232381 -0.19381334 1.2640001 1.0149072e-38
0.10506286 -0.19442666 1.268 8.6739422e-39
0.10747809 -0.19442666 1.268 5.0823035e-39
0.11275142 -0.19519334 1.273 4.7684085e-40
0.12049715 -0.19596003 1.2780001 2.1758913e-38
0.12389334 -0.19749334 1.2880001 2.1665988e-38
0.042600002 -0.19352572 1.2780001 8.4949361e-39
0.044858098 -0.19276857 1.273 8.029677e-39
0.047097143 -0.19201143 1.268 5.7247863e-39
0.058753334 -0.19064859 1.2590001 8.4913236e-39
0.063549526 -0.19064859 1.2590001 1.2909912e-38
0.070743814 -0.19064859 1.2590001 8.7618246e-39
0.075539999 -0.19064859 1.2590001 8.207932e-39
0.077938102 -0.19064859 1.2590001 7.2913259e-39
0.080336191 -0.19064859 1.2590001 1.1440129e-38
0.082734287 -0.19064859 1.2590001 1.2176657e-38
0.08513239 -0.19064859 1.2590001 1.1807875e-38
0.087530479 -0.19064859 1.2590001 9.6920598e-39
0.089928575 -0.19064859 1.2590001 8.5857123e-39
0.10232381 -0.19140573 1.2640001 9.5969901e-39
0.10506286 -0.19201143 1.268 8.6750338e-39
0.10747809 -0.19201143 1.268 3.6121831e-39
0.11032667 -0.19276857 1.273 9.3850984e-40
0.11517619 -0.19276857 1.273 1.3016132e-38
0.11806287 -0.19352572 1.2780001 1.8254773e-38
0.12049715 -0.19352572 1.2780001 2.1112836e-38
0.1242781 -0.19564572 1.2920001 2.1480881e-38
0.044858098 -0.19034381 1.273 1.0055438e-38
0.051927619 -0.18959619 1.268 4.717809e-39
0.071024768 -0.1889981 1.2640001 7.9353108e-39
0.073432386 -0.1889981 1.2640001 8.5774334e-39
0.075539999 -0.18825048 1.2590001 8.1164552e-39
0.077938102 -0.18825048 1.2590001 7.2892127e-39
0.080336191 -0.18825048 1.2590001 1.0792647e-38
0.082734287 -0.18825048 1.2590001 1.2084089e-38
0.08513239 -0.18825048 1.2590001 1.1991893e-38
0.087530479 -0.18825048 1.2590001 9.6917039e-39
0.089928575 -0.18825048 1.2590001 8.4009651e-39
0.097508572 -0.1889981 1.2640001 8.7693874e-39
0.09991619 -0.1889981 1.2640001 9.9679306e-39
0.10232381 -0.1889981 1.2640001 1.1069937e-38
0.10506286 -0.18959619 1.268 1.0147981e-38
0.1079019 -0.19034381 1.273 6.0035312e-39
0.11275142 -0.19034381 1.273 8.4956102e-40
0.12096858 -0.19183905 1.2830001 2.0375247e-38
0.1242781 -0.19318476 1.2920001 2.0005758e-38
0.045034289 -0.18865715 1.2780001 9.5966272e-39
0.047282856 -0.18791905 1.273 7.7527146e-39
0.049707618 -0.18791905 1.273 3.3399374e-39
0.059173334 -0.18718095 1.268 8.6739422e-39
0.061394289 -0.18659049 1.2640001 1.2269572e-38
0.071024768 -0.18659049 1.2640001 8.0246099e-39
0.073432386 -0.18659049 1.2640001 8.0249602e-39
0.075539999 -0.18585238 1.2590001 7.9327646e-39
0.077938102 -0.18585238 1.2590001 7.4736096e-39
0.080336191 -0.18585238 1.2590001 1.1806804e-38
0.082734287 -0.18585238 1.2590001 1.2085168e-38
0.08513239 -0.18585238 1.2590001 1.1992972e-38
0.087530479 -0.18585238 1.2590001 9.7835618e-39
0.089928575 -0.18585238 1.2590001 8.2162361e-39
0.094724767 -0.18585238 1.2590001 7.7588284e-39
0.097508572 -0.18659049 1.2640001 9.4115171e-39
0.10023239 -0.18718095 1.268 1.061006e-38
0.10264762 -0.18718095 1.268 1.1345788e-38
0.10506286 -0.18718095 1.268 1.0792614e-38
0.11319429 -0.18865715 1.2780001 2.1370474e-39
0.12096858 -0.18939525 1.2830001 2.0466386e-38
0.1242781 -0.19072382 1.2920001 1.9728821e-38
0.042766668 -0.18695144 1.2830001 8.0271505e-39
0.045034289 -0.18622287 1.2780001 9.2242419e-39
0.047282856 -0.18549427 1.273 1.1068155e-38
0.056981906 -0.18549427 1.273 9.1439279e-39
0.059173334 -0.18476571 1.268 1.2268473e-38
0.06158857 -0.18476571 1.268 1.2821647e-38
0.063801907 -0.18418287 1.2640001 1.2358553e-38
0.07124953 -0.18476571 1.268 6.7396192e-39
0.073432386 -0.18418287 1.2640001 7.2895686e-39
0.075840004 -0.18418287 1.2640001 9.5022637e-39
0.078247622 -0.18418287 1.2640001 1.1067076e-38
0.08065524 -0.18418287 1.2640001 1.3095379e-38
0.082734287 -0.18345429 1.2590001 1.2636903e-38
0.08513239 -0.18345429 1.2590001 1.2729098e-38
0.087530479 -0.18345429 1.2590001 1.2084477e-38
0.089928575 -0.18345429 1.2590001 1.0517151e-38
0.092326671 -0.18345429 1.2590001 9.5065769e-39
0.097508572 -0.18418287 1.2640001 1.1069577e-38
0.10023239 -0.18476571 1.268 9.8710336e-39
0.12096858 -0.18695144 1.2830001 2.0836247e-38
0.1242781 -0.18826286 1.2920001 2.065113e-38
0.045210481 -0.18450764 1.2830001 8.3905086e-39
0.047282856 -0.18306953 1.273 1.1248573e-38
0.059406664 -0.18306953 1.273 1.2819509e-38
0.06158857 -0.18235047 1.268 1.1897552e-38
0.06400381 -0.18235047 1.268 1.162241e-38
0.066419043 -0.18235047 1.268 1.162241e-38
0.07124953 -0.18235047 1.268 7.934938e-39
0.073432386 -0.18177524 1.2640001 7.5650765e-39
0.075840004 -0.18177524 1.2640001 1.0884119e-38
0.078247622 -0.18177524 1.2640001 1.3001026e-38
0.08065524 -0.18177524 1.2640001 1.1894678e-38
0.083062857 -0.18177524 1.2640001 1.1159975e-38
0.08513239 -0.1810562 1.2590001 1.2266322e-38
0.087530479 -0.1810562 1.2590001 1.2636547e-38
0.090285718 -0.18177524 1.2640001 1.235996e-38
0.092693336 -0.18177524 1.2640001 1.0334924e-38
0.095100954 -0.18177524 1.2640001 1.0519315e-38
0.097817145 -0.18235047 1.268 1.1989382e-38
0.11032667 -0.18306953 1.273 8.2993919e-39
0.12096858 -0.18450764 1.2830001 1.9916096e-38
0.045210481 -0.18206383 1.2830001 5.7208108e-39
0.047468573 -0.1813543 1.2780001 8.5788753e-39
0.049902864 -0.1813543 1.2780001 9.6845194e-39
0.052132379 -0.18064477 1.273 1.2173801e-38
0.07124953 -0.17993525 1.268 1.1899e-38
0.073432386 -0.17936763 1.2640001 1.2635107e-38
0.075840004 -0.17936763 1.2640001 1.3557064e-38
0.078247622 -0.17936763 1.2640001 1.134512e-38
0.08065524 -0.17936763 1.2640001 7.9338815e-39
0.083062857 -0.17936763 1.2640001 6.1907713e-39
0.085470475 -0.17936763 1.2640001 6.3751625e-39
0.087878101 -0.17936763 1.2640001 9.2292418e-39
0.090285718 -0.17936763 1.2640001 1.2363893e-38
0.092693336 -0.17936763 1.2640001 1.3280487e-38
0.095100954 -0.17936763 1.2640001 1.1713161e-38
0.097817145 -0.17993525 1.268 1.0790817e-38
0.10506286 -0.17993525 1.268 7.3788972e-39
0.11032667 -0.18064477 1.273 6.8271555e-39
0.12096858 -0.18206383 1.2830001 2.0099035e-38
0.045210481 -0.17962001 1.2830001 5.9980885e-39
0.047468573 -0.17892002 1.2780001 6.7356536e-39
0.052337147 -0.17892002 1.2780001 1.3187199e-38
0.054557141 -0.17821999 1.273 1.2268486e-38
0.06158857 -0.17751999 1.268 8.4949487e-39
0.06400381 -0.17751999 1.268 8.6775421e-39
0.066419043 -0.17751999 1.268 9.5994984e-39
0.073664762 -0.17751999 1.268 1.3280497e-38
0.076080002 -0.17751999 1.268 1.2542931e-38
0.078495234 -0.17751999 1.268 8.9555766e-39
0.085470475 -0.17696001 1.2640001 2.9718584e-39
0.087878101 -0.17696001 1.2640001 5.8230579e-39
0.090285718 -0.17696001 1.2640001 1.0986013e-38
0.092986666 -0.17751999 1.268 1.3096484e-38
0.095401898 -0.17751999 1.268 1.106818e-38
0.10547714 -0.17821999 1.273 7.5629157e-39
0.11076001 -0.17892002 1.2780001 6.4572786e-39
0.035683811 -0.17841905 1.2920001 1.8900145e-38
0.045210481 -0.17717621 1.2830001 6.2721867e-39
0.047468573 -0.17648572 1.2780001 6.0877954e-39
0.054771435 -0.17648572 1.2780001 1.1531268e-38
0.066680953 -0.17579524 1.273 8.4016811e-39
0.069105707 -0.17579524 1.273 1.042494e-38
0.073664762 -0.17510477 1.268 1.2728395e-38
0.076080002 -0.17510477 1.268 8.0264176e-39
0.078495234 -0.17510477 1.268 3.2484677e-39
0.085470475 -0.1745524 1.2640001 3.5246888e-39
0.087878101 -0.1745524 1.2640001 4.7196195e-39
0.090285718 -0.1745524 1.2640001 8.2230534e-39
0.092986666 -0.17510477 1.268 1.0977764e-38
0.10023239 -0.17510477 1.268 5.907723e-39
0.10264762 -0.17510477 1.268 6.7338781e-39
0.035683811 -0.17595811 1.2920001 1.9454745e-38
0.045386672 -0.17541336 1.2880001 6.7313502e-39
0.047654286 -0.17473239 1.2830001 6.8235458e-39
0.050098099 -0.17473239 1.2830001 7.010458e-39
0.056981906 -0.17337048 1.273 8.7665008e-39
0.07124953 -0.17268953 1.268 1.2088783e-38
0.073664762 -0.17268953 1.268 1.1534906e-38
0.076080002 -0.17268953 1.268 5.9109726e-39
0.078495234 -0.17268953 1.268 1.4110137e-39
0.080910474 -0.17268953 1.268 3.1627306e-39
0.083325714 -0.17268953 1.268 4.7217775e-39
0.092986666 -0.17268953 1.268 1.0242019e-38
0.095401898 -0.17268953 1.268 8.490302e-39
0.097817145 -0.17268953 1.268 6.2775593e-39
0.10062762 -0.17337048 1.273 5.9087768e-39
0.10305239 -0.17337048 1.273 7.0101077e-39
0.045386672 -0.17296001 1.2880001 7.1934269e-39
0.047654286 -0.17228858 1.2830001 7.8387963e-39
0.050098099 -0.17228858 1.2830001 8.5760237e-39
0.057205718 -0.17161715 1.2780001 9.6870081e-39
0.07124953 -0.17027427 1.268 1.2639799e-38
0.073664762 -0.17027427 1.268 1.2637638e-38
0.076080002 -0.17027427 1.268 8.7654218e-39
0.078804761 -0.1709457 1.273 3.4321429e-39
0.081229523 -0.1709457 1.273 3.3399472e-39
0.088503808 -0.1709457 1.273 5.6397681e-39
0.090928569 -0.1709457 1.273 1.0157354e-38
0.093353339 -0.1709457 1.273 1.2451452e-38
0.095778093 -0.1709457 1.273 1.1068517e-38
0.1079019 -0.1709457 1.273 8.5799319e-39
0.045386672 -0.17050667 1.2880001 7.1023033e-39
0.052337147 -0.16918287 1.2780001 1.1895034e-38
0.059406664 -0.16852096 1.273 9.2292796e-39
0.071530476 -0.16852096 1.273 1.2728407e-38
0.073664762 -0.16785905 1.268 1.2730165e-38
0.076080002 -0.16785905 1.268 1.0794056e-38
0.078804761 -0.16852096 1.273 6.9294657e-39
0.081229523 -0.16852096 1.273 3.9792056e-39
0.083654284 -0.16852096 1.273 2.7895999e-39
0.10547714 -0.16852096 1.273 7.9353108e-39
0.10832573 -0.16918287 1.2780001 7.5650191e-39
0.045386672 -0.16805334 1.2880001 8.6710681e-39
0.052541912 -0.16740096 1.2830001 6.5527239e-39
0.059640005 -0.16674858 1.2780001 1.134725e-38
0.07638 -0.1660962 1.273 1.3373723e-38
0.078804761 -0.1660962 1.273 1.1438051e-38
0.081229523 -0.1660962 1.273 8.8565734e-39
0.083654284 -0.1660962 1.273 8.0332419e-39
0.086079046 -0.1660962 1.273 1.061472e-38
0.098202854 -0.1660962 1.273 1.0976665e-38
0.10062762 -0.1660962 1.273 1.1345448e-38
0.10305239 -0.1660962 1.273 9.4115044e-39
0.10589144 -0.16674858 1.2780001 5.7236792e-39
0.040605716 -0.1661143 1.2920001 3.4231227e-39
0.042933334 -0.16560002 1.2880001 6.096796e-39
0.045386672 -0.16560002 1.2880001 8.7632638e-39
0.054771435 -0.1643143 1.2780001 5.1755305e-39
0.061831426 -0.16367142 1.273 1.1990086e-38
0.073955238 -0.16367142 1.273 8.7607176e-39
0.07638 -0.16367142 1.273 1.1710978e-38
0.078804761 -0.16367142 1.273 1.392189e-38
0.081229523 -0.16367142 1.273 1.2723347e-38
0.083654284 -0.16367142 1.273 1.0055823e-38
0.086079046 -0.16367142 1.273 1.1899735e-38
0.088503808 -0.16367142 1.273 1.24536e-38
0.090928569 -0.16367142 1.273 9.5033399e-39
0.093353339 -0.16367142 1.273 8.3091254e-39
0.096154287 -0.1643143 1.2780001 8.4935166e-39
0.098588586 -0.1643143 1.2780001 1.0884467e-38
0.040605716 -0.16365334 1.2920001 4.4365586e-39
0.042933334 -0.16314667 1.2880001 4.6209498e-39
0.045386672 -0.16314667 1.2880001 7.8431151e-39
0.054985717 -0.16251335 1.2830001 3.7036823e-39
0.062074292 -0.16188002 1.2780001 1.319148e-38
0.064256191 -0.16124667 1.273 1.2909909e-38
0.066680953 -0.16124667 1.273 9.959649e-39
0.071530476 -0.16124667 1.273 7.1966667e-39
0.073955238 -0.16124667 1.273 7.6562156e-39
0.07638 -0.16124667 1.273 8.1171937e-39
0.078804761 -0.16124667 1.273 9.685185e-39
0.081229523 -0.16124667 1.273 1.3465206e-38
0.083654284 -0.16124667 1.273 1.3373401e-38
0.086079046 -0.16124667 1.273 1.1529489e-38
0.088503808 -0.16124667 1.273 9.4140282e-39
0.09128572 -0.16188002 1.2780001 8.7686588e-39
0.093720004 -0.16188002 1.2780001 8.0329112e-39
0.11363715 -0.16251335 1.2830001 1.226636e-38
0.11935619 -0.16365334 1.2920001 1.8898685e-38
0.12181715 -0.16365334 1.2920001 1.8253315e-38
0.040605716 -0.16119239 1.2920001 7.3789252e-39
0.042933334 -0.16069335 1.2880001 5.9959908e-39
0.045386672 -0.16069335 1.2880001 7.4764808e-39
0.06450858 -0.15944573 1.2780001 1.2727335e-38
0.066942863 -0.15944573 1.2780001 7.6565757e-39
0.069105707 -0.15882191 1.273 7.7462154e-39
0.071530476 -0.15882191 1.273 8.7603673e-39
0.073955238 -0.15882191 1.273 8.3930393e-39
0.07638 -0.15882191 1.273 7.471083e-39
0.078804761 -0.15882191 1.273 7.3831712e-39
0.081229523 -0.15882191 1.273 1.2638322e-38
0.083654284 -0.15882191 1.273 1.3374503e-38
0.086079046 -0.15882191 1.273 1.0516438e-38
0.088503808 -0.15882191 1.273 7.8503052e-39
0.11363715 -0.16006954 1.2830001 1.3645692e-38
0.04076286 -0.15934572 1.2970001 7.9321607e-39
0.043066666 -0.15873145 1.2920001 5.5350743e-39
0.045527618 -0.15873145 1.2920001 7.3839166e-39
0.047654286 -0.15762573 1.2830001 8.6746555e-39
0.069377147 -0.15701143 1.2780001 6.277209e-39
0.071811438 -0.15701143 1.2780001 7.5679478e-39
0.073955238 -0.15639713 1.273 8.3008437e-39
0.07638 -0.15639713 1.273 7.5632786e-39
0.078804761 -0.15639713 1.273 6.8300296e-39
0.081229523 -0.15639713 1.273 1.1439811e-38
0.083654284 -0.15639713 1.273 1.2362121e-38
0.086079046 -0.15639713 1.273 9.7806429e-39
0.088851437 -0.15701143 1.2780001 7.6659266e-39
0.11689524 -0.15873145 1.2920001 1.7705183e-38
0.043066666 -0.15627047 1.2920001 7.194534e-39
0.045386672 -0.15578668 1.2880001 7.7512502e-39
0.047840003 -0.15578668 1.2880001 9.2263803e-39
0.057205718 -0.15457715 1.2780001 1.4091864e-39
0.073955238 -0.15397239 1.273 7.840569e-39
0.07638 -0.15397239 1.273 7.6561777e-39
0.078804761 -0.15397239 1.273 7.1977429e-39
0.081229523 -0.15397239 1.273 1.189972e-38
0.083654284 -0.15397239 1.273 1.2178092e-38
0.086079046 -0.15397239 1.273 1.0702962e-38
0.088851437 -0.15457715 1.2780001 7.1156395e-39
0.11076001 -0.15457715 1.2780001 9.3358427e-39
0.11443429 -0.15627047 1.2920001 1.3923736e-38
0.11689524 -0.15627047 1.2920001 1.7795952e-38
0.043066666 -0.15380952 1.2920001 7.5629535e-39
0.045386672 -0.15333335 1.2880001 7.7505216e-39
0.052541912 -0.15273811 1.2830001 6.8300422e-39
0.05742953 -0.15273811 1.2830001 7.8513492e-39
0.059640005 -0.15214287 1.2780001 1.0424946e-38
0.074245721 -0.15214287 1.2780001 6.5538085e-39
0.076680005 -0.15214287 1.2780001 9.2274817e-39
0.079114296 -0.15214287 1.2780001 1.0884848e-38
0.081229523 -0.15154761 1.273 1.2267782e-38
0.083654284 -0.15154761 1.273 1.1993323e-38
0.086079046 -0.15154761 1.273 1.2085518e-38
0.088851437 -0.15214287 1.2780001 1.0703325e-38
0.09128572 -0.15214287 1.2780001 8.7672168e-39
0.10345715 -0.15214287 1.2780001 9.1335008e-39
0.10630573 -0.15273811 1.2830001 9.1335008e-39
0.11443429 -0.15380952 1.2920001 1.5030458e-38
0.11689524 -0.15380952 1.2920001 1.8718283e-38
0.043066666 -0.15134858 1.2920001 6.7328243e-39
0.045527618 -0.15134858 1.2920001 6.089931e-39
0.052746668 -0.15088001 1.2880001 8.9462005e-39
0.054985717 -0.1502943 1.2830001 8.1196768e-39
0.059873335 -0.1502943 1.2830001 1.1529849e-38
0.062074292 -0.14970858 1.2780001 1.1253262e-38
0.06450858 -0.14970858 1.2780001 1.1345811e-38
0.067204766 -0.1502943 1.2830001 1.1345811e-38
0.069377147 -0.14970858 1.2780001 1.0976322e-38
0.074245721 -0.14970858 1.2780001 7.3817643e-39
0.076680005 -0.14970858 1.2780001 1.0977394e-38
0.079114296 -0.14970858 1.2780001 1.2084467e-38
0.081548579 -0.14970858 1.2780001 1.0609337e-38
0.086079046 -0.14912285 1.273 1.2177697e-38
0.088851437 -0.14970858 1.2780001 1.2361049e-38
0.09128572 -0.14970858 1.2780001 1.1162505e-38
0.10386191 -0.1502943 1.2830001 9.2231475e-39
0.11162667 -0.15088001 1.2880001 1.5127604e-38
0.11734762 -0.1519343 1.2970001 1.9273615e-38
0.043066666 -0.14888762 1.2920001 2.8613267e-39
0.045527618 -0.14888762 1.2920001 3.8754913e-39
0.055200007 -0.14842667 1.2880001 1.1161419e-38
0.062317148 -0.14785048 1.2830001 8.6753869e-39
0.069648571 -0.14785048 1.2830001 1.2267063e-38
0.074245721 -0.1472743 1.2780001 1.1806789e-38
0.076680005 -0.1472743 1.2780001 1.2359963e-38
0.079114296 -0.1472743 1.2780001 9.9664915e-39
0.081548579 -0.1472743 1.2780001 5.7254925e-39
0.083982863 -0.1472743 1.2780001 4.4430228e-39
0.086417146 -0.1472743 1.2780001 7.6698698e-39
0.088851437 -0.1472743 1.2780001 1.1807855e-38
0.10102287 -0.1472743 1.2780001 5.3548995e-39
0.10917334 -0.14842667 1.2880001 4.9007261e-39
0.055200007 -0.14597335 1.2880001 1.1346899e-38
0.05742953 -0.14540668 1.2830001 1.0332747e-38
0.059873335 -0.14540668 1.2830001 8.0343237e-39
0.062317148 -0.14540668 1.2830001 7.5733456e-39
0.071811438 -0.14484002 1.2780001 1.3005345e-38
0.074245721 -0.14484002 1.2780001 1.2912786e-38
0.076680005 -0.14484002 1.2780001 1.0976678e-38
0.079114296 -0.14484002 1.2780001 7.8506611e-39
0.081548579 -0.14484002 1.2780001 4.9925966e-39
0.083982863 -0.14484002 1.2780001 1.9613008e-39
0.086417146 -0.14484002 1.2780001 2.9754527e-39
0.088851437 -0.14484002 1.2780001 9.6866396e-39
0.091642864 -0.14540668 1.2830001 1.2729095e-38
0.098588586 -0.14484002 1.2780001 5.7236694e-39
0.10426667 -0.14597335 1.2880001 5.7240478e-39
0.052910481 -0.14396572 1.2920001 9.0427401e-39
0.060106672 -0.14352001 1.2880001 7.9406932e-39
0.06256 -0.14352001 1.2880001 8.0328888e-39
0.064760961 -0.14296286 1.2830001 7.7577621e-39
0.067204766 -0.14296286 1.2830001 8.1265446e-39
0.072092384 -0.14296286 1.2830001 1.3373035e-38
0.074536197 -0.14296286 1.2830001 1.2083373e-38
0.076680005 -0.14240573 1.2780001 6.6438307e-39
0.079114296 -0.14240573 1.2780001 3.2495243e-39
0.081548579 -0.14240573 1.2780001 3.7105024e-39
0.083982863 -0.14240573 1.2780001 3.9845852e-39
0.086417146 -0.14240573 1.2780001 2.8782376e-39
0.088851437 -0.14240573 1.2780001 7.5682883e-39
0.096906669 -0.14352001 1.2880001 6.9168106e-39
0.10181334 -0.14352001 1.2880001 5.9087992e-39
0.055200007 -0.14106667 1.2880001 9.6877438e-39
0.06256 -0.14106667 1.2880001 7.8484975e-39
0.065013342 -0.14106667 1.2880001 7.6655608e-39
0.067466669 -0.14106667 1.2880001 7.6655608e-39
0.069648571 -0.14051905 1.2830001 9.0434534e-39
0.074536197 -0.14051905 1.2830001 1.0613666e-38
0.076680005 -0.13997145 1.2780001 5.081928e-39
0.079114296 -0.13997145 1.2780001 1.318818e-39
0.081548579 -0.13997145 1.2780001 2.33297e-39
0.083982863 -0.13997145 1.2780001 2.9736534e-39
0.086417146 -0.13997145 1.2780001 2.6048709e-39
0.088851437 -0.13997145 1.2780001 6.6477963e-39
0.094086677 -0.14051905 1.2830001 1.0238034e-38
0.10181334 -0.14106667 1.2880001 6.3693892e-39
0.10459048 -0.14150476 1.2920001 7.9324087e-39
0.060293335 -0.13904381 1.2920001 9.0448855e-39
0.062754288 -0.13904381 1.2920001 8.5839074e-39
0.065013342 -0.13861334 1.2880001 7.7574061e-39
0.067466669 -0.13861334 1.2880001 8.033993e-39
0.069920003 -0.13861334 1.2880001 9.5955706e-39
0.072092384 -0.13807526 1.2830001 1.2822418e-38
0.074536197 -0.13807526 1.2830001 1.2177023e-38
0.07698001 -0.13807526 1.2830001 7.6594372e-39
0.081548579 -0.13753715 1.2780001 1.8687674e-39
0.083982863 -0.13753715 1.2780001 2.3293728e-39
0.086755246 -0.13807526 1.2830001 4.6342636e-39
0.089199059 -0.13807526 1.2830001 1.0607895e-38
0.091642864 -0.13807526 1.2830001 1.3097177e-38
0.094453342 -0.13861334 1.2880001 1.2540363e-38
0.099360012 -0.13861334 1.2880001 7.1969974e-39
0.10181334 -0.13861334 1.2880001 9.04091e-39
0.10459048 -0.13904381 1.2920001 8.7661056e-39
0.058056194 -0.13711144 1.2970001 1.0699703e-38
0.060293335 -0.13658285 1.2920001 9.4133149e-39
0.062754288 -0.13658285 1.2920001 8.5835543e-39
0.065215245 -0.13658285 1.2920001 7.0223494e-39
0.067466669 -0.13616002 1.2880001 7.8521101e-39
0.072092384 -0.13563144 1.2830001 1.3003549e-38
0.074536197 -0.13563144 1.2830001 1.2270272e-38
0.07698001 -0.13563144 1.2830001 9.5965992e-39
0.079423815 -0.13563144 1.2830001 4.6313895e-39
0.086755246 -0.13563144 1.2830001 6.5685543e-39
0.089199059 -0.13563144 1.2830001 1.1620249e-38
0.091642864 -0.13563144 1.2830001 1.2265619e-38
0.096906669 -0.13616002 1.2880001 9.774522e-39
0.099668577 -0.13658285 1.2920001 8.207932e-39
0.10212953 -0.13658285 1.2920001 9.7752577e-39
0.055800002 -0.13516 1.302 8.1214396e-39
0.058056194 -0.13464095 1.2970001 9.1355916e-39
0.060526669 -0.13464095 1.2970001 9.5952049e-39
0.067676194 -0.13412191 1.2920001 1.2452871e-38
0.070137143 -0.13412191 1.2920001 1.1529496e-38
0.072092384 -0.13318764 1.2830001 9.5933874e-39
0.074536197 -0.13318764 1.2830001 1.0886242e-38
0.07698001 -0.13318764 1.2830001 1.2914546e-38
0.079423815 -0.13318764 1.2830001 1.1071742e-38
0.08186762 -0.13318764 1.2830001 8.5824598e-39
0.084311433 -0.13318764 1.2830001 9.0452387e-39
0.086755246 -0.13318764 1.2830001 1.1718912e-38
0.089199059 -0.13318764 1.2830001 1.0977747e-38
0.091642864 -0.13318764 1.2830001 9.6870081e-39
0.096906669 -0.13370667 1.2880001 1.1529849e-38
0.099668577 -0.13412191 1.2920001 1.1804968e-38
0.055800002 -0.13268001 1.302 4.2542721e-39
0.058056194 -0.13217048 1.2970001 5.4528153e-39
0.060526669 -0.13217048 1.2970001 9.7784821e-39
0.062754288 -0.13166095 1.2920001 1.1806786e-38
0.070137143 -0.13166095 1.2920001 1.1529483e-38
0.074826673 -0.13125335 1.2880001 8.8550614e-39
0.07698001 -0.13074382 1.2830001 1.1713126e-38
0.079423815 -0.13074382 1.2830001 1.3555256e-38
0.08186762 -0.13074382 1.2830001 1.26333e-38
0.084311433 -0.13074382 1.2830001 1.0702268e-38
0.086755246 -0.13074382 1.2830001 1.1071051e-38
0.089546673 -0.13125335 1.2880001 1.0333464e-38
0.092000008 -0.13125335 1.2880001 8.0285728e-39
0.096906669 -0.13125335 1.2880001 1.0520732e-38
0.099668577 -0.13166095 1.2920001 1.1989029e-38
0.055800002 -0.1302 1.302 2.6002018e-39
0.058056194 -0.12970001 1.2970001 2.6002018e-39
0.060526669 -0.12970001 1.2970001 5.7287113e-39
0.062754288 -0.1292 1.2920001 1.0891667e-38
0.070137143 -0.1292 1.2920001 6.4612625e-39
0.074826673 -0.1288 1.2880001 6.8278744e-39
0.077280007 -0.1288 1.2880001 8.671787e-39
0.08186762 -0.12830001 1.2830001 1.401731e-38
0.084311433 -0.12830001 1.2830001 1.254365e-38
0.087093338 -0.1288 1.2880001 1.0054368e-38
0.089546673 -0.1288 1.2880001 8.124381e-39
0.092000008 -0.1288 1.2880001 7.6634028e-39
0.094453342 -0.1288 1.2880001 8.2169297e-39
0.097207621 -0.1292 1.2920001 9.9686467e-39
0.10459048 -0.1292 1.2920001 2.4168363e-39
0.055800002 -0.12772 1.302 3.1526441e-39
0.058056194 -0.12722953 1.2970001 2.3228834e-39
0.060526669 -0.12722953 1.2970001 2.1427955e-39
0.062754288 -0.12673905 1.2920001 8.3199027e-39
0.070137143 -0.12673905 1.2920001 7.3774356e-39
0.072373338 -0.12634668 1.2880001 8.0228051e-39
0.074826673 -0.12634668 1.2880001 7.6561777e-39
0.077280007 -0.12634668 1.2880001 7.2873952e-39
0.079733342 -0.12634668 1.2880001 9.0394625e-39
0.087093338 -0.12634668 1.2880001 8.9491194e-39
0.089546673 -0.12634668 1.2880001 7.1141793e-39
0.092000008 -0.12634668 1.2880001 7.1141793e-39
0.094453342 -0.12634668 1.2880001 7.7573963e-39
0.097207621 -0.12673905 1.2920001 9.4169177e-39
0.10499524 -0.12722953 1.2970001 7.5979524e-40
0.055800002 -0.12524 1.302 2.6945498e-39
0.058056194 -0.12475906 1.2970001 1.9569848e-39
0.060526669 -0.12475906 1.2970001 1.9577134e-39
0.062754288 -0.1242781 1.2920001 7.5816469e-39
0.0725981 -0.1242781 1.2920001 6.7374809e-39
0.074826673 -0.12389334 1.2880001 6.735676e-39
0.077280007 -0.12389334 1.2880001 6.3668935e-39
0.079733342 -0.12389334 1.2880001 8.3951847e-39
0.084640011 -0.12389334 1.2880001 1.1900424e-38
0.087093338 -0.12389334 1.2880001 8.5813808e-39
0.089824766 -0.1242781 1.2920001 7.2985762e-39
0.092285715 -0.1242781 1.2920001 7.3907718e-39
0.094746664 -0.1242781 1.2920001 8.4917216e-39
0.10212953 -0.1242781 1.2920001 7.474683e-39
0.046056192 -0.12323143 1.307 6.9171904e-39
0.055800002 -0.12276001 1.302 2.602357e-39
0.058056194 -0.12228857 1.2970001 1.9569876e-39
0.060526669 -0.12228857 1.2970001 2.3257799e-39
0.062754288 -0.12181715 1.2920001 8.1341046e-39
0.065215245 -0.12181715 1.2920001 1.1439458e-38
0.075059049 -0.12181715 1.2920001 6.2764551e-39
0.077520005 -0.12181715 1.2920001 7.290607e-39
0.079980955 -0.12181715 1.2920001 9.4071912e-39
0.082186669 -0.12144001 1.2880001 1.2541843e-38
0.084640011 -0.12144001 1.2880001 1.1808947e-38
0.087093338 -0.12144001 1.2880001 9.0430779e-39
0.089824766 -0.12181715 1.2920001 7.6655608e-39
0.092285715 -0.12181715 1.2920001 7.8499521e-39
0.10252476 -0.12228857 1.2970001 8.9476326e-39
0.046232384 -0.12120381 1.312 6.4587542e-39
0.055800002 -0.12028001 1.302 8.3995161e-39
0.058056194 -0.1198181 1.2970001 7.4775598e-39
0.062997147 -0.1198181 1.2970001 1.097995e-38
0.065467626 -0.1198181 1.2970001 1.1439098e-38
0.067676194 -0.11935619 1.2920001 1.1254707e-38
0.070137143 -0.11935619 1.2920001 8.6725591e-39
0.0725981 -0.11935619 1.2920001 5.722299e-39
0.075059049 -0.11935619 1.2920001 7.1977261e-39
0.077520005 -0.11935619 1.2920001 1.1530921e-38
0.079980955 -0.11935619 1.2920001 1.2082297e-38
0.082441904 -0.11935619 1.2920001 1.1713514e-38
0.084640011 -0.11898667 1.2880001 1.1255054e-38
0.087093338 -0.11898667 1.2880001 1.1255054e-38
0.089824766 -0.11935619 1.2920001 9.7813814e-39
0.092285715 -0.11935619 1.2920001 9.0438163e-39
0.10993619 -0.1198181 1.2970001 1.2542597e-38
0.046232384 -0.11870477 1.312 6.9197169e-39
0.048545718 -0.11825238 1.307 4.0616524e-39
0.058056194 -0.11734762 1.2970001 1.1067789e-38
0.067938097 -0.11734762 1.2970001 1.1530918e-38
0.070408568 -0.11734762 1.2970001 1.0885215e-38
0.0725981 -0.11689524 1.2920001 8.4881286e-39
0.075059049 -0.11689524 1.2920001 8.0282225e-39
0.077520005 -0.11689524 1.2920001 1.1623852e-38
0.079980955 -0.11689524 1.2920001 1.1808228e-38
0.082441904 -0.11689524 1.2920001 9.8721197e-39
0.08490286 -0.11689524 1.2920001 9.873179e-39
0.087363809 -0.11689524 1.2920001 1.1717092e-38
0.089824766 -0.11689524 1.2920001 1.1806082e-38
0.092285715 -0.11689524 1.2920001 1.0330952e-38
0.097207621 -0.11689524 1.2920001 7.6569064e-39
0.099668577 -0.11689524 1.2920001 7.6546966e-39
0.11327334 -0.11825238 1.307 1.9641294e-38
0.060526669 -0.11487714 1.2970001 9.8731916e-39
0.070408568 -0.11487714 1.2970001 1.1345811e-38
0.0725981 -0.11443429 1.2920001 1.2544354e-38
0.075059049 -0.11443429 1.2920001 1.2635808e-38
0.077520005 -0.11443429 1.2920001 1.0791896e-38
0.079980955 -0.11443429 1.2920001 6.4670359e-39
0.082441904 -0.11443429 1.2920001 3.8855582e-39
0.08490286 -0.11443429 1.2920001 4.5345121e-39
0.087363809 -0.11443429 1.2920001 9.4208805e-39
0.089824766 -0.11443429 1.2920001 1.1898634e-38
0.092285715 -0.11443429 1.2920001 1.0792286e-38
0.097583815 -0.11487714 1.2970001 5.538174e-39
0.10005429 -0.11487714 1.2970001 5.2623536e-39
0.060760003 -0.11284 1.302 9.1374343e-39
0.062997147 -0.11240667 1.2970001 8.1232824e-39
0.075349525 -0.11240667 1.2970001 1.2819871e-38
0.077820003 -0.11240667 1.2970001 8.1178944e-39
0.080290474 -0.11240667 1.2970001 5.1795088e-39
0.082760952 -0.11240667 1.2970001 3.151205e-39
0.087363809 -0.11197334 1.2920001 7.3068228e-39
0.089824766 -0.11197334 1.2920001 1.0979574e-38
0.092285715 -0.11197334 1.2920001 1.0149814e-38
0.094746664 -0.11197334 1.2920001 7.9370806e-39
0.05850381 -0.11078382 1.307 1.0976662e-38
0.060760003 -0.11036 1.302 9.1367154e-39
0.063239999 -0.11036 1.302 8.3069547e-39
0.065467626 -0.10993619 1.2970001 6.9297937e-39
0.075349525 -0.10993619 1.2970001 1.1530199e-38
0.077820003 -0.10993619 1.2970001 5.7218744e-39
0.080290474 -0.10993619 1.2970001 2.4205091e-39
0.082760952 -0.10993619 1.2970001 2.6049003e-39
0.085231431 -0.10993619 1.2970001 2.5123194e-39
0.087701909 -0.10993619 1.2970001 4.4484276e-39
0.090172388 -0.10993619 1.2970001 9.1367182e-39
0.092642859 -0.10993619 1.2970001 8.3991532e-39
0.058727618 -0.10870858 1.312 1.1067066e-38
0.060760003 -0.10788 1.302 8.4931537e-39
0.063239999 -0.10788 1.302 7.5711974e-39
0.065467626 -0.10746571 1.2970001 7.2056519e-39
0.072879046 -0.10746571 1.2970001 1.2177729e-38
0.075349525 -0.10746571 1.2970001 9.5995082e-39
0.077820003 -0.10746571 1.2970001 4.2521617e-39
0.080290474 -0.10746571 1.2970001 2.6959945e-39
0.082760952 -0.10746571 1.2970001 3.2491683e-39
0.085231431 -0.10746571 1.2970001 1.8683891e-39
0.087701909 -0.10746571 1.2970001 4.8186492e-39
0.090172388 -0.10746571 1.2970001 9.2282202e-39
0.092642859 -0.10746571 1.2970001 8.7672421e-39
0.058727618 -0.10620952 1.312 1.2082284e-38
0.063239999 -0.1054 1.302 8.0299923e-39
0.065720007 -0.1054 1.302 6.746494e-39
0.067938097 -0.10499524 1.2970001 7.5762547e-39
0.075349525 -0.10499524 1.2970001 1.1994758e-38
0.077820003 -0.10499524 1.2970001 6.1864328e-39
0.080290474 -0.10499524 1.2970001 9.4970201e-40
0.082760952 -0.10499524 1.2970001 5.8091949e-40
0.085231431 -0.10499524 1.2970001 3.4317547e-39
0.087701909 -0.10499524 1.2970001 8.4103187e-39
0.090172388 -0.10499524 1.2970001 1.1713905e-38
0.058727618 -0.10371048 1.312 1.2265243e-38
0.063239999 -0.10292 1.302 8.4899041e-39
0.0682 -0.10292 1.302 8.2187346e-39
0.070408568 -0.10252476 1.2970001 1.0886628e-38
0.075349525 -0.10252476 1.2970001 1.2086615e-38
0.077820003 -0.10252476 1.2970001 8.6753771e-39
0.080290474 -0.10252476 1.2970001 3.066219e-39
0.082760952 -0.10252476 1.2970001 1.9598714e-39
0.085231431 -0.10252476 1.2970001 5.0883922e-39
0.087701909 -0.10252476 1.2970001 1.0527934e-38
0.090172388 -0.10252476 1.2970001 1.2912786e-38
0.092642859 -0.10252476 1.2970001 1.2267417e-38
0.095113337 -0.10252476 1.2970001 9.4136708e-39
0.097583815 -0.10252476 1.2970001 7.4775626e-39
0.10044 -0.10292 1.302 7.9370904e-39
0.058727618 -0.10121143 1.312 1.217448e-38
0.060993332 -0.10082572 1.307 1.1254331e-38
0.063239999 -0.10044 1.302 1.0701157e-38
0.065720007 -0.10044 1.302 1.0518937e-38
0.0682 -0.10044 1.302 1.1625284e-38
0.070408568 -0.10005429 1.2970001 1.2268483e-38
0.072879046 -0.10005429 1.2970001 1.2913852e-38
0.075349525 -0.10005429 1.2970001 1.2637256e-38
0.077820003 -0.10005429 1.2970001 1.2637256e-38
0.080290474 -0.10005429 1.2970001 9.7842652e-39
0.082760952 -0.10005429 1.2970001 8.4935264e-39
0.085231431 -0.10005429 1.2970001 9.8732393e-39
0.088040002 -0.10044 1.302 1.2454717e-38
0.090520002 -0.10044 1.302 1.2635458e-38
0.093000002 -0.10044 1.302 1.2451067e-38
0.095480002 -0.10044 1.302 1.1714593e-38
0.097960003 -0.10044 1.302 1.1069224e-38
0.056442861 -0.099088572 1.317 1.1160693e-38
0.058727618 -0.098712385 1.312 1.1713867e-38
0.060993332 -0.098336197 1.307 1.189754e-38
0.063482858 -0.098336197 1.307 1.189754e-38
0.06597238 -0.098336197 1.307 1.1897542e-38
0.0682 -0.097960003 1.302 1.2727303e-38
0.07068 -0.097960003 1.302 1.2727663e-38
0.07316 -0.097960003 1.302 1.300425e-38
0.077820003 -0.097583815 1.2970001 1.3096802e-38
0.080290474 -0.097583815 1.2970001 1.1992266e-38
0.083080001 -0.097960003 1.302 1.1531288e-38
0.085560001 -0.097960003 1.302 1.1532007e-38
0.088040002 -0.097960003 1.302 1.2269572e-38
0.090520002 -0.097960003 1.302 1.1991177e-38
0.093000002 -0.097960003 1.302 1.1898982e-38
0.095480002 -0.097960003 1.302 1.2174129e-38
0.097960003 -0.097960003 1.302 1.1897542e-38
0.10044 -0.097960003 1.302 1.1527678e-38
0.056442861 -0.096580006 1.317 1.1159975e-38
0.058727618 -0.096213333 1.312 1.1805344e-38
0.060993332 -0.095846668 1.307 1.1805347e-38
0.068461902 -0.095846668 1.307 1.2450713e-38
0.07068 -0.095480002 1.302 1.2451079e-38
0.07316 -0.095480002 1.302 1.2819862e-38
0.083080001 -0.095480002 1.302 1.2544351e-38
0.085560001 -0.095480002 1.302 1.2268483e-38
0.088040002 -0.095480002 1.302 1.2268483e-38
0.090520002 -0.095480002 1.302 1.1898984e-38
0.093000002 -0.095480002 1.302 1.1714593e-38
0.095846668 -0.095846668 1.307 1.189754e-38
0.098336197 -0.095846668 1.307 1.1713148e-38
0.11414 -0.096580006 1.317 1.8531675e-38
0.056442861 -0.094071425 1.317 1.134329e-38
0.058727618 -0.093714289 1.312 1.1896463e-38
0.06122667 -0.093714289 1.312 1.1529476e-38
0.063482858 -0.093357146 1.307 1.208265e-38
0.06597238 -0.093357146 1.307 1.2267041e-38
0.068461902 -0.093357146 1.307 1.2451432e-38
0.070951432 -0.093357146 1.307 1.2451076e-38
0.073440954 -0.093357146 1.307 1.2819859e-38
0.075930484 -0.093357146 1.307 1.2819862e-38
0.078420006 -0.093357146 1.307 1.2727666e-38
0.080909528 -0.093357146 1.307 1.2820215e-38
0.08339905 -0.093357146 1.307 1.2820215e-38
0.085888579 -0.093357146 1.307 1.2544707e-38
0.093000002 -0.093000002 1.302 1.1898984e-38
0.044266671 -0.092327625 1.3280001 1.7886303e-38
0.056442861 -0.091562852 1.317 1.1710993e-38
0.058727618 -0.091215238 1.312 1.2264167e-38
0.066224761 -0.091215238 1.312 1.2358871e-38
0.068723813 -0.091215238 1.312 1.2543262e-38
0.070951432 -0.090867624 1.307 1.2543628e-38
0.075930484 -0.090867624 1.307 1.291242e-38
0.078420006 -0.090867624 1.307 1.2728029e-38
0.080909528 -0.090867624 1.307 1.2727663e-38
0.088040002 -0.090520002 1.302 1.2635824e-38
0.090867624 -0.090867624 1.307 1.199118e-38
0.093357146 -0.090867624 1.307 1.1806789e-38
0.10371048 -0.091215238 1.312 9.4082604e-39
0.10620952 -0.091215238 1.312 8.3962637e-39
0.044266671 -0.089798093 1.3280001 1.7794107e-38
0.056442861 -0.089054286 1.317 1.0882312e-38
0.058727618 -0.088716187 1.312 1.1619877e-38
0.068723813 -0.088716187 1.312 1.2451432e-38
0.070951432 -0.088378102 1.307 1.235996e-38
0.073440954 -0.088378102 1.307 1.2636547e-38
0.075930484 -0.088378102 1.307 1.2636549e-38
0.078420006 -0.088378102 1.307 1.2544354e-38
0.080909528 -0.088378102 1.307 1.2543272e-38
0.08339905 -0.088378102 1.307 1.2727663e-38
0.090867624 -0.088378102 1.307 1.2175568e-38
0.093357146 -0.088378102 1.307 1.1806786e-38
0.10371048 -0.088716187 1.312 9.591923e-39
0.10912286 -0.089054286 1.317 1.5678639e-38
0.11163143 -0.089054286 1.317 1.8163265e-38
0.056442861 -0.086545713 1.317 1.0880867e-38
0.05895143 -0.086545713 1.317 1.0880867e-38
0.06122667 -0.086217143 1.312 1.0881605e-38
0.071222864 -0.086217143 1.312 1.1712795e-38
0.073721908 -0.086217143 1.312 1.1804991e-38
0.075930484 -0.085888579 1.307 1.1897555e-38
0.078420006 -0.085888579 1.307 1.2542924e-38
0.080909528 -0.085888579 1.307 1.2635824e-38
0.08339905 -0.085888579 1.307 1.2728019e-38
0.085888579 -0.085888579 1.307 1.2819509e-38
0.088378102 -0.085888579 1.307 1.2635117e-38
0.090867624 -0.085888579 1.307 1.2359231e-38
0.093357146 -0.085888579 1.307 1.1990449e-38
0.10371048 -0.086217143 1.312 9.2224118e-39
0.06122667 -0.083718091 1.312 1.0973431e-38
0.075930484 -0.08339905 1.307 1.1989735e-38
0.078420006 -0.08339905 1.307 1.2542909e-38
0.08339905 -0.08339905 1.307 1.2635468e-38
0.085888579 -0.08339905 1.307 1.2727313e-38
0.088378102 -0.08339905 1.307 1.2635117e-38
0.090867624 -0.08339905 1.307 1.2082294e-38
0.093357146 -0.08339905 1.307 1.1990098e-38
