# .PCD v0.7 - Point Cloud Data file format
VERSION 0.7
FIELDS x y z rgb
SIZE 4 4 4 4
TYPE F F F F
COUNT 1 1 1 1
WIDTH 243
HEIGHT 1
VIEWPOINT 0 0 0 1 0 0 0
POINTS 243
DATA ascii
-0.13332859 -0.34351715 1.6470001 1.5103844e-38
-0.078400001 -0.3504 1.6800001 1.3457678e-38
-0.12767144 -0.34203333 1.6550001 1.5207938e-38
-0.10449524 -0.3456381 1.6880001 1.567001e-38
-0.10128 -0.3456381 1.6880001 1.5301956e-38
-0.10449524 -0.34242287 1.6880001 1.6499765e-38
-0.10128 -0.34242287 1.6880001 1.6315387e-38
-0.10128 -0.33920765 1.6880001 1.6132437e-38
-0.098064765 -0.33920765 1.6880001 1.5394872e-38
-0.051291432 -0.32484573 1.6320001 2.3141103e-38
-0.14829047 -0.32311714 1.6390001 2.341769e-38
-0.1000381 -0.31858286 1.6160001 1.5580355e-38
-0.054400001 -0.32173714 1.6320001 2.341769e-38
-0.051291432 -0.32173714 1.6320001 2.3141103e-38
-0.14829047 -0.31999525 1.6390001 2.3325494e-38
-0.10311619 -0.31550476 1.6160001 1.4936786e-38
-0.1000381 -0.31550476 1.6160001 1.3461656e-38
-0.054400001 -0.31862861 1.6320001 2.3233299e-38
-0.10619429 -0.31242666 1.6160001 1.0256354e-38
-0.10311619 -0.31242666 1.6160001 1.4478339e-38
-0.1000381 -0.31242666 1.6160001 1.1804666e-38
-0.096960008 -0.31242666 1.6160001 8.6703297e-39
-0.093881905 -0.31242666 1.6160001 8.3015471e-39
-0.054400001 -0.31552002 1.6320001 2.3141103e-38
-0.14829047 -0.31375146 1.6390001 2.3141103e-38
-0.14516857 -0.31375146 1.6390001 2.341769e-38
-0.11235048 -0.30934858 1.6160001 3.1573356e-39
-0.10927239 -0.30934858 1.6160001 5.0880391e-39
-0.10619429 -0.30934858 1.6160001 1.0435386e-38
-0.10311619 -0.30934858 1.6160001 1.4294276e-38
-0.1000381 -0.30934858 1.6160001 1.125182e-38
-0.096960008 -0.30934858 1.6160001 8.7629106e-39
-0.093881905 -0.30934858 1.6160001 8.0253456e-39
-0.12528001 -0.30778667 1.6240001 1.4380017e-38
-0.10619429 -0.30627048 1.6160001 1.1722184e-38
-0.10311619 -0.30627048 1.6160001 1.4570144e-38
-0.1000381 -0.30627048 1.6160001 1.3187209e-38
-0.096960008 -0.30627048 1.6160001 1.115822e-38
-0.093881905 -0.30627048 1.6160001 8.3001556e-39
-0.10362667 -0.30469334 1.6240001 1.4110225e-38
-0.10053334 -0.30469334 1.6240001 1.5308768e-38
-0.096960008 -0.30319241 1.6160001 1.4751323e-38
-0.093881905 -0.30319241 1.6160001 1.2169846e-38
-0.084647626 -0.30319241 1.6160001 1.2263483e-38
-0.054633334 -0.30750763 1.6390001 2.3141103e-38
-0.14516857 -0.30438572 1.6390001 2.341769e-38
-0.14204666 -0.30438572 1.6390001 2.341769e-38
-0.10053334 -0.30160001 1.6240001 1.364962e-38
-0.097440004 -0.30160001 1.6240001 1.5122967e-38
-0.054633334 -0.30438572 1.6390001 2.3141103e-38
-0.10362667 -0.29850668 1.6240001 1.0795186e-38
-0.10053334 -0.29850668 1.6240001 1.0887381e-38
-0.097440004 -0.29850668 1.6240001 1.3188629e-38
-0.094346665 -0.29850668 1.6240001 1.5309128e-38
-0.057755239 -0.30126384 1.6390001 2.341769e-38
-0.11909334 -0.29541335 1.6240001 9.7762919e-39
-0.10672001 -0.29541335 1.6240001 1.0611132e-38
-0.10362667 -0.29541335 1.6240001 1.0061215e-38
-0.10053334 -0.29541335 1.6240001 9.5080413e-39
-0.097440004 -0.29541335 1.6240001 1.0886637e-38
-0.094346665 -0.29541335 1.6240001 1.4482267e-38
-0.091253333 -0.29541335 1.6240001 1.3560699e-38
-0.10672001 -0.29232001 1.6240001 1.1255037e-38
-0.10362667 -0.29232001 1.6240001 1.0061218e-38
-0.10053334 -0.29232001 1.6240001 9.9690222e-39
-0.097440004 -0.29232001 1.6240001 1.1899e-38
-0.094346665 -0.29232001 1.6240001 1.484926e-38
-0.091253333 -0.29232001 1.6240001 1.5031488e-38
-0.10362667 -0.28922668 1.6240001 1.0060477e-38
-0.10053334 -0.28922668 1.6240001 1.0705846e-38
-0.097440004 -0.28922668 1.6240001 1.2818445e-38
-0.094346665 -0.28922668 1.6240001 1.4938944e-38
-0.091253333 -0.28922668 1.6240001 1.5399512e-38
-0.13892476 -0.28877619 1.6390001 2.341769e-38
-0.13580287 -0.28877619 1.6390001 1.9448676e-38
-0.10362667 -0.28613332 1.6240001 1.4387172e-38
-0.10053334 -0.28613332 1.6240001 1.4755954e-38
-0.097440004 -0.28613332 1.6240001 1.4659468e-38
-0.094346665 -0.28613332 1.6240001 1.1709208e-38
-0.091253333 -0.28613332 1.6240001 1.2355935e-38
-0.063999049 -0.28877619 1.6390001 1.5309118e-38
-0.13580287 -0.28565431 1.6390001 2.1848955e-38
-0.10053334 -0.28304002 1.6240001 1.567362e-38
-0.097440004 -0.28304002 1.6240001 1.484385e-38
-0.094346665 -0.28304002 1.6240001 9.4043074e-39
-0.091253333 -0.28304002 1.6240001 9.7694353e-39
-0.066834286 -0.28443429 1.6320001 6.9200154e-39
-0.13580287 -0.28253236 1.6390001 2.341769e-38
-0.10413715 -0.28132573 1.6320001 1.3094676e-38
-0.10102858 -0.28132573 1.6320001 1.2910285e-38
-0.097920001 -0.28132573 1.6320001 1.1248573e-38
-0.070242859 -0.28253236 1.6390001 9.4111443e-39
-0.12331524 -0.27941048 1.6390001 1.1533089e-38
-0.12019333 -0.27941048 1.6390001 9.0438065e-39
-0.10413715 -0.27821717 1.6320001 1.1716057e-38
-0.10102858 -0.27821717 1.6320001 1.1808253e-38
-0.097920001 -0.27821717 1.6320001 9.9578315e-39
-0.094811432 -0.27821717 1.6320001 9.1280708e-39
-0.073364764 -0.27941048 1.6390001 9.8713966e-39
-0.070242859 -0.27941048 1.6390001 9.4104184e-39
-0.12331524 -0.27628857 1.6390001 1.3003903e-38
-0.12019333 -0.27628857 1.6390001 1.2911707e-38
-0.10413715 -0.27510858 1.6320001 1.4479007e-38
-0.10102858 -0.27510858 1.6320001 1.4571203e-38
-0.097920001 -0.27510858 1.6320001 1.1893612e-38
-0.094811432 -0.27510858 1.6320001 8.5745691e-39
-0.091702856 -0.27510858 1.6320001 9.1291498e-39
-0.076159999 -0.27510858 1.6320001 1.1436234e-38
-0.073364764 -0.27628857 1.6390001 1.1068142e-38
-0.070242859 -0.27628857 1.6390001 9.4086206e-39
-0.14028096 -0.27583337 1.6550001 2.341769e-38
-0.10413715 -0.27200001 1.6320001 1.548849e-38
-0.10102858 -0.27200001 1.6320001 1.5580686e-38
-0.097920001 -0.27200001 1.6320001 1.4383244e-38
-0.094811432 -0.27200001 1.6320001 1.087981e-38
-0.091702856 -0.27200001 1.6320001 1.0509949e-38
-0.14028096 -0.27268094 1.6550001 2.341769e-38
-0.12078001 -0.27136284 1.6470001 1.1803147e-38
-0.10413715 -0.26889145 1.6320001 1.3373752e-38
-0.10102858 -0.26889145 1.6320001 1.3558143e-38
-0.097920001 -0.26889145 1.6320001 1.4568004e-38
-0.094811432 -0.26889145 1.6320001 1.5121178e-38
-0.14028096 -0.26952857 1.6550001 2.341769e-38
-0.10146191 -0.26692286 1.6390001 1.0706565e-38
-0.098340005 -0.26692286 1.6390001 1.3556355e-38
-0.0952181 -0.26692286 1.6390001 1.5676854e-38
-0.076486669 -0.26692286 1.6390001 1.1533076e-38
-0.14028096 -0.2663762 1.6550001 2.341769e-38
-0.10146191 -0.26380095 1.6390001 9.9697383e-39
-0.098340005 -0.26380095 1.6390001 1.2174845e-38
-0.0952181 -0.26380095 1.6390001 1.4940714e-38
-0.14028096 -0.26322383 1.6550001 2.341769e-38
-0.13712858 -0.26322383 1.6550001 2.341769e-38
-0.10458381 -0.26067907 1.6390001 9.8775329e-39
-0.10146191 -0.26067907 1.6390001 9.8775329e-39
-0.098340005 -0.26067907 1.6390001 1.1346897e-38
-0.074080952 -0.26322383 1.6550001 1.2354568e-38
-0.070928574 -0.26322383 1.6550001 7.1916123e-39
-0.14028096 -0.26007143 1.6550001 2.341769e-38
-0.11707143 -0.25755712 1.6390001 1.1063504e-38
-0.10458381 -0.25755712 1.6390001 1.2177386e-38
-0.10146191 -0.25755712 1.6390001 1.208519e-38
-0.098340005 -0.25755712 1.6390001 1.3834014e-38
-0.14095905 -0.25816098 1.6630001 2.341769e-38
-0.12767144 -0.25691906 1.6550001 8.3084583e-39
-0.11450572 -0.25567713 1.6470001 1.3644234e-38
-0.10458381 -0.25443524 1.6390001 1.3556367e-38
-0.10146191 -0.25443524 1.6390001 1.4109541e-38
-0.073722862 -0.25567713 1.6470001 1.2722987e-38
-0.12391715 -0.25254002 1.6470001 1.0974883e-38
-0.11450572 -0.25254002 1.6470001 7.6551085e-39
-0.11082762 -0.25131333 1.6390001 7.3846355e-39
-0.10458381 -0.25131333 1.6390001 1.3924074e-38
-0.098820001 -0.25254002 1.6470001 1.4843847e-38
-0.095682859 -0.25254002 1.6470001 9.7730871e-39
-0.11506192 -0.25061432 1.6550001 5.1705111e-39
-0.10195715 -0.24940287 1.6470001 1.5212276e-38
-0.098820001 -0.24940287 1.6470001 1.4011205e-38
-0.095682859 -0.24940287 1.6470001 9.5858148e-39
-0.092545718 -0.24940287 1.6470001 8.3912092e-39
-0.086690478 -0.25061432 1.6550001 1.3366931e-38
-0.11136857 -0.24626572 1.6470001 1.3202628e-39
-0.10195715 -0.24626572 1.6470001 1.3834678e-38
-0.098820001 -0.24626572 1.6470001 1.3275047e-38
-0.095682859 -0.24626572 1.6470001 9.4028304e-39
-0.092545718 -0.24626572 1.6470001 8.4845189e-39
-0.089408576 -0.24626572 1.6470001 9.5908664e-39
-0.10509429 -0.24312858 1.6470001 1.1713499e-38
-0.10195715 -0.24312858 1.6470001 1.3926194e-38
-0.098820001 -0.24312858 1.6470001 1.2354217e-38
-0.095682859 -0.24312858 1.6470001 8.9429789e-39
-0.092545718 -0.24312858 1.6470001 8.668522e-39
-0.089408576 -0.24312858 1.6470001 1.0512435e-38
-0.10509429 -0.23999144 1.6470001 1.4479014e-38
-0.10195715 -0.23999144 1.6470001 1.5400971e-38
-0.098820001 -0.23999144 1.6470001 1.4751304e-38
-0.095682859 -0.23999144 1.6470001 1.1063478e-38
-0.092545718 -0.23999144 1.6470001 1.1156725e-38
-0.089408576 -0.23999144 1.6470001 1.4199181e-38
-0.10195715 -0.23685429 1.6470001 1.4477951e-38
-0.098820001 -0.23685429 1.6470001 1.4755264e-38
-0.095682859 -0.23685429 1.6470001 1.420209e-38
-0.092545718 -0.23685429 1.6470001 1.30936e-38
-0.13462383 -0.23598763 1.6630001 2.341769e-38
-0.098820001 -0.23371716 1.6470001 1.3096095e-38
-0.095682859 -0.23371716 1.6470001 1.5677573e-38
-0.092545718 -0.23371716 1.6470001 1.5582153e-38
-0.089408576 -0.23371716 1.6470001 1.078798e-38
-0.098820001 -0.23058 1.6470001 1.1531291e-38
-0.095682859 -0.23058 1.6470001 1.512692e-38
-0.092545718 -0.23058 1.6470001 1.4113512e-38
-0.10245238 -0.22854762 1.6550001 9.7846086e-39
-0.099300005 -0.22854762 1.6550001 1.1623499e-38
-0.095682859 -0.22744288 1.6470001 1.4850346e-38
-0.089842863 -0.22854762 1.6550001 6.094247e-39
-0.13208857 -0.2275743 1.6710001 2.1389414e-38
-0.12890573 -0.2275743 1.6710001 1.0602525e-38
-0.10245238 -0.22539525 1.6550001 9.6924129e-39
-0.099300005 -0.22539525 1.6550001 1.1531654e-38
-0.096147619 -0.22539525 1.6550001 1.4758501e-38
-0.092995241 -0.22539525 1.6550001 1.4114566e-38
-0.089842863 -0.22539525 1.6550001 8.5828284e-39
-0.12572286 -0.22439145 1.6710001 1.1341495e-38
-0.10245238 -0.22224286 1.6550001 1.3004619e-38
-0.099300005 -0.22224286 1.6550001 1.3924071e-38
-0.096147619 -0.22224286 1.6550001 1.6321157e-38
-0.092995241 -0.22224286 1.6550001 1.6413321e-38
-0.089842863 -0.22224286 1.6550001 1.4753799e-38
-0.13343239 -0.22345906 1.6880001 1.7888849e-38
-0.1296 -0.22239999 1.6800001 1.1066372e-38
-0.12254 -0.22120859 1.6710001 1.4933136e-38
-0.096147619 -0.21909049 1.6550001 1.6871081e-38
-0.092995241 -0.21909049 1.6550001 1.6962554e-38
-0.089842863 -0.21909049 1.6550001 1.640938e-38
-0.13021715 -0.22024381 1.6880001 1.134005e-38
-0.12639999 -0.2192 1.6800001 1.2169085e-38
-0.11935715 -0.21802573 1.6710001 1.5026443e-38
-0.096612386 -0.21698192 1.6630001 1.6962914e-38
-0.092995241 -0.21593811 1.6550001 1.6501573e-38
-0.089842863 -0.21593811 1.6550001 1.6409377e-38
-0.13021715 -0.21702857 1.6880001 1.143335e-38
-0.12639999 -0.21600001 1.6800001 1.1985394e-38
-0.12254 -0.21484287 1.6710001 1.4843459e-38
-0.11935715 -0.21484287 1.6710001 1.4842771e-38
-0.099780001 -0.2138143 1.6630001 1.6225352e-38
-0.096612386 -0.2138143 1.6630001 1.6594134e-38
-0.093444765 -0.2138143 1.6630001 1.6225349e-38
-0.086690478 -0.21278574 1.6550001 1.5948765e-38
-0.06843143 -0.21484287 1.6710001 1.3641318e-38
-0.12639999 -0.2128 1.6800001 1.2077602e-38
-0.12254 -0.21166001 1.6710001 1.465908e-38
-0.11935715 -0.21166001 1.6710001 1.4750572e-38
-0.099780001 -0.21064667 1.6630001 1.650122e-38
-0.096612386 -0.21064667 1.6630001 1.6593416e-38
-0.093444765 -0.21064667 1.6630001 1.6502289e-38
-0.09027715 -0.21064667 1.6630001 1.6225702e-38
-0.06843143 -0.21166001 1.6710001 1.3364729e-38
-0.11935715 -0.20847715 1.6710001 1.4750572e-38
-0.1156181 -0.20747906 1.6630001 1.585692e-38
-0.099780001 -0.20747906 1.6630001 1.6501583e-38
-0.096612386 -0.20747906 1.6630001 1.6685974e-38
-0.093444765 -0.20747906 1.6630001 1.668668e-38
-0.09027715 -0.20747906 1.6630001 1.6317898e-38
