# .PCD v0.7 - Point Cloud Data file format
VERSION 0.7
FIELDS x y z rgb
SIZE 4 4 4 4
TYPE F F F F
COUNT 1 1 1 1
WIDTH 978
HEIGHT 1
VIEWPOINT 0 0 0 1 0 0 0
POINTS 978
DATA ascii
-0.15387048 -0.0081942854 0.95600003 1.5128002e-38
-0.15173143 -0.0081771435 0.95400006 1.7425687e-38
-0.14991429 -0.0081771435 0.95400006 1.71491e-38
-0.14809716 -0.0081771435 0.95400006 1.7795889e-38
-0.14582001 -0.0081514288 0.95100003 1.8717846e-38
-0.14400858 -0.0081514288 0.95100003 1.5957773e-38
-0.14219715 -0.0081514288 0.95100003 1.11636e-38
-0.14082858 -0.0081771435 0.95400006 3.3532624e-39
-0.13901143 -0.0081771435 0.95400006 2.3391105e-39
-0.13719429 -0.0081771435 0.95400006 5.8335228e-39
-0.13537715 -0.0081771435 0.95400006 1.0627696e-38
-0.13356 -0.0081771435 0.95400006 1.6508766e-38
-0.13174286 -0.0081771435 0.95400006 1.9090244e-38
-0.12992573 -0.0081771435 0.95400006 1.9361798e-38
-0.12837714 -0.0081942854 0.95600003 1.9453994e-38
-0.12629142 -0.0081771435 0.95400006 1.9729875e-38
-0.12447429 -0.0081771435 0.95400006 1.9268896e-38
-0.12291428 -0.0081942854 0.95600003 1.6043872e-38
-0.12109333 -0.0081942854 0.95600003 1.0973113e-38
-0.11964667 -0.0082200002 0.95900005 1.171063e-38
-0.11782 -0.0082200002 0.95900005 1.8533107e-38
-0.1163562 -0.0082457149 0.96200007 1.9268173e-38
-0.11452381 -0.0082457149 0.96200007 1.5211566e-38
-0.11269144 -0.0082457149 0.96200007 8.5875564e-39
-0.11108953 -0.0082628578 0.96400005 5.1763181e-39
-0.10925333 -0.0082628578 0.96400005 9.5076335e-39
-0.10775144 -0.0082885725 0.96700007 1.5408154e-38
-0.10590953 -0.0082885725 0.96700007 1.760757e-38
-0.10439047 -0.0083142864 0.97000003 1.2997789e-38
-0.17275238 -0.0064666667 0.97000003 1.1614103e-38
-0.16853429 -0.006446667 0.96700007 1.2077981e-38
-0.16669239 -0.006446667 0.96700007 1.0326264e-38
-0.16399811 -0.006413334 0.96200007 1.0327246e-38
-0.16166002 -0.0063933334 0.95900005 1.3554093e-38
-0.15983334 -0.0063933334 0.95900005 1.5122222e-38
-0.15435335 -0.0063933334 0.95900005 1.6507349e-38
-0.15204953 -0.0063733337 0.95600003 1.7794475e-38
-0.15022857 -0.0063733337 0.95600003 1.5305193e-38
-0.14809716 -0.0063600005 0.95400006 1.5763596e-38
-0.14628001 -0.0063600005 0.95400006 1.926703e-38
-0.14446285 -0.0063600005 0.95400006 1.8902272e-38
-0.14264573 -0.0063600005 0.95400006 1.4661273e-38
-0.14082858 -0.0063600005 0.95400006 5.6545728e-39
-0.13901143 -0.0063600005 0.95400006 3.0730952e-39
-0.13719429 -0.0063600005 0.95400006 6.7529428e-39
-0.13537715 -0.0063600005 0.95400006 1.3852006e-38
-0.13356 -0.0063600005 0.95400006 1.9085587e-38
-0.13174286 -0.0063600005 0.95400006 1.8440218e-38
-0.12992573 -0.0063600005 0.95400006 1.7243454e-38
-0.12837714 -0.0063733337 0.95600003 1.7612237e-38
-0.12512667 -0.0063933334 0.95900005 2.0283036e-38
-0.12330001 -0.0063933334 0.95900005 1.9361098e-38
-0.12147333 -0.0063933334 0.95900005 1.5488881e-38
-0.11964667 -0.0063933334 0.95900005 1.4106657e-38
-0.11818857 -0.006413334 0.96200007 1.9085221e-38
-0.1163562 -0.006413334 0.96200007 1.8901196e-38
-0.11452381 -0.006413334 0.96200007 1.1248958e-38
-0.11292572 -0.0064266669 0.96400005 7.3929144e-39
-0.11108953 -0.0064266669 0.96400005 4.7192411e-39
-0.10959334 -0.006446667 0.96700007 6.6560276e-39
-0.10775144 -0.006446667 0.96700007 1.3294113e-38
-0.1062381 -0.0064666667 0.97000003 1.6137497e-38
-0.10471334 -0.0064866669 0.97300005 1.0697955e-38
-0.17328666 -0.0046333335 0.97300005 1.1798492e-38
-0.17090477 -0.004619048 0.97000003 1.1153122e-38
-0.16905715 -0.004619048 0.97000003 9.5930244e-39
-0.16720954 -0.004619048 0.97000003 6.8271555e-39
-0.16399811 -0.0045809527 0.96200007 5.0829818e-39
-0.16216573 -0.0045809527 0.96200007 7.756655e-39
-0.16033334 -0.0045809527 0.96200007 1.1806764e-38
-0.15800668 -0.0045666667 0.95900005 1.5310197e-38
-0.15435335 -0.0045666667 0.95900005 1.6135655e-38
-0.15204953 -0.0045523811 0.95600003 1.3276562e-38
-0.15022857 -0.0045523811 0.95600003 8.8511714e-39
-0.14840762 -0.0045523811 0.95600003 9.8624143e-39
-0.14658667 -0.0045523811 0.95600003 1.65005e-38
-0.1447657 -0.0045523811 0.95600003 1.8069618e-38
-0.14294477 -0.0045523811 0.95600003 2.0190117e-38
-0.14112382 -0.0045523811 0.95600003 1.7614776e-38
-0.13930286 -0.0045523811 0.95600003 1.3742559e-38
-0.13748191 -0.0045523811 0.95600003 1.4297175e-38
-0.13566095 -0.0045523811 0.95600003 1.8999152e-38
-0.13201906 -0.0045523811 0.95600003 1.6228611e-38
-0.13019811 -0.0045523811 0.95600003 1.3838352e-38
-0.12878001 -0.0045666667 0.95900005 1.3653961e-38
-0.12695335 -0.0045666667 0.95900005 1.5954145e-38
-0.12330001 -0.0045666667 0.95900005 1.9360729e-38
-0.12147333 -0.0045666667 0.95900005 2.0282685e-38
-0.12002096 -0.0045809527 0.96200007 2.0099354e-38
-0.1163562 -0.0045809527 0.96200007 1.4667349e-38
-0.11452381 -0.0045809527 0.96200007 8.4902418e-39
-0.11292572 -0.0045904764 0.96400005 4.4545485e-39
-0.11143525 -0.0046047624 0.96700007 3.7169834e-39
-0.10993333 -0.004619048 0.97000003 7.3925669e-39
-0.10808572 -0.004619048 0.97000003 1.1080392e-38
-0.1062381 -0.004619048 0.97000003 1.429391e-38
-0.10471334 -0.0046333335 0.97300005 9.6841285e-39
-0.16905715 -0.0027714286 0.97000003 9.0420087e-39
-0.16720954 -0.0027714286 0.97000003 5.5385747e-39
-0.16433907 -0.0027542859 0.96400005 8.5778243e-40
-0.16216573 -0.0027485716 0.96200007 1.5031518e-39
-0.16033334 -0.0027485716 0.96200007 9.8717077e-39
-0.15800668 -0.0027400001 0.95900005 1.5772228e-38
-0.15252668 -0.0027400001 0.95900005 1.152877e-38
-0.15070002 -0.0027400001 0.95900005 8.7629008e-39
-0.14887333 -0.0027400001 0.95900005 9.9563643e-39
-0.14704667 -0.0027400001 0.95900005 1.3920776e-38
-0.1447657 -0.0027314285 0.95600003 1.7051115e-38
-0.14294477 -0.0027314285 0.95600003 2.009357e-38
-0.14156666 -0.0027400001 0.95900005 2.0282323e-38
-0.13974001 -0.0027400001 0.95900005 1.8899388e-38
-0.13791333 -0.0027400001 0.95900005 1.7428589e-38
-0.13608667 -0.0027400001 0.95900005 1.8719328e-38
-0.13426 -0.0027400001 0.95900005 1.7521861e-38
-0.13243334 -0.0027400001 0.95900005 1.4295014e-38
-0.13060667 -0.0027400001 0.95900005 1.2093475e-38
-0.12330001 -0.0027400001 0.95900005 1.8531675e-38
-0.12185334 -0.0027485716 0.96200007 2.1205348e-38
-0.1163562 -0.0027485716 0.96200007 1.0523966e-38
-0.11476191 -0.0027542859 0.96400005 7.2049232e-39
-0.11292572 -0.0027542859 0.96400005 5.4679717e-39
-0.11143525 -0.0027628574 0.96700007 4.7304067e-39
-0.10993333 -0.0027714286 0.97000003 5.9217528e-39
-0.10808572 -0.0027714286 0.97000003 1.0254947e-38
-0.10656667 -0.0027800002 0.97300005 1.3925881e-38
-0.16958 -0.00092666672 0.97300005 8.7672196e-39
-0.16772667 -0.00092666672 0.97300005 5.1715901e-39
-0.16485049 -0.00092095241 0.96700007 1.2269783e-39
-0.16250286 -0.00091809529 0.96400005 1.319174e-39
-0.16033334 -0.00091619056 0.96200007 6.5591628e-39
-0.15850095 -0.00091619056 0.96200007 1.1168944e-38
-0.15618001 -0.00091333338 0.95900005 1.419671e-38
-0.15435335 -0.00091333338 0.95900005 1.2905971e-38
-0.14522 -0.00091333338 0.95900005 1.3457961e-38
-0.14339334 -0.00091333338 0.95900005 1.622383e-38
-0.14156666 -0.00091333338 0.95900005 1.8620265e-38
-0.13974001 -0.00091333338 0.95900005 2.1386134e-38
-0.12878001 -0.00091333338 0.95900005 1.2830324e-38
-0.12695335 -0.00091333338 0.95900005 1.3013273e-38
-0.12512667 -0.00091333338 0.95900005 1.2460099e-38
-0.12368573 -0.00091619056 0.96200007 1.5769393e-38
-0.1163562 -0.00091619056 0.96200007 3.074893e-39
-0.11476191 -0.00091809529 0.96400005 4.089045e-39
-0.11327715 -0.00092095241 0.96700007 5.4676214e-39
-0.11178096 -0.00092380954 0.97000003 4.4534695e-39
-0.10993333 -0.00092380954 0.97000003 6.6571472e-39
-0.10842 -0.00092666672 0.97300005 1.1727907e-38
-0.10656667 -0.00092666672 0.97300005 1.5030081e-38
-0.16958 0.00092666672 0.97300005 8.5828256e-39
-0.16772667 0.00092666672 0.97300005 5.9091523e-39
-0.16536191 0.00092380954 0.97000003 2.3293728e-39
-0.16300859 0.00092095241 0.96700007 2.6059597e-39
-0.16066667 0.00091809529 0.96400005 4.5373386e-39
-0.15850095 0.00091619056 0.96200007 7.8563812e-39
-0.15666859 0.00091619056 0.96200007 1.3463083e-38
-0.15483621 0.00091619056 0.96200007 1.3186496e-38
-0.15252668 0.00091333338 0.95900005 1.1155305e-38
-0.15070002 0.00091333338 0.95900005 1.0970914e-38
-0.14017715 0.00091619056 0.96200007 2.2120089e-38
-0.13791333 0.00091333338 0.95900005 1.8995199e-38
-0.13608667 0.00091333338 0.95900005 1.4293222e-38
-0.13426 0.00091333338 0.95900005 1.227714e-38
-0.13243334 0.00091333338 0.95900005 1.3014705e-38
-0.13060667 0.00091333338 0.95900005 1.328986e-38
-0.12918288 0.00091619056 0.96200007 1.328986e-38
-0.12735049 0.00091619056 0.96200007 1.2922873e-38
-0.1255181 0.00091619056 0.96200007 1.2000916e-38
-0.1163562 0.00091619056 0.96200007 1.97213e-39
-0.11178096 0.00092380954 0.97000003 3.532232e-39
-0.10993333 0.00092380954 0.97000003 6.9322894e-39
-0.10842 0.00092666672 0.97300005 1.3570375e-38
-0.10656667 0.00092666672 0.97300005 1.6598823e-38
-0.17364286 0.0027857143 0.97500002 1.2903748e-38
-0.17178571 0.0027857143 0.97500002 1.2258378e-38
-0.16772667 0.0027800002 0.97300005 9.4997344e-39
-0.16536191 0.0027714286 0.97000003 5.7319861e-39
-0.16351429 0.0027714286 0.97000003 4.533443e-39
-0.16116667 0.0027628574 0.96700007 2.5155592e-39
-0.15883048 0.0027542859 0.96400005 3.5297111e-39
-0.15666859 0.0027485716 0.96200007 1.2544665e-38
-0.15483621 0.0027485716 0.96200007 1.4204186e-38
-0.15300381 0.0027485716 0.96200007 1.2443173e-38
-0.15117143 0.0027485716 0.96200007 1.124463e-38
-0.14887333 0.0027400001 0.95900005 1.1156024e-38
-0.13834476 0.0027485716 0.96200007 1.8535638e-38
-0.1365124 0.0027485716 0.96200007 1.3925856e-38
-0.13468002 0.0027485716 0.96200007 1.1910163e-38
-0.13284762 0.0027485716 0.96200007 1.2555532e-38
-0.13101524 0.0027485716 0.96200007 1.3197664e-38
-0.12185334 0.0027485716 0.96200007 1.8539238e-38
-0.12002096 0.0027485716 0.96200007 1.8995909e-38
-0.1163562 0.0027485716 0.96200007 4.0872849e-39
-0.11476191 0.0027542859 0.96400005 2.7043505e-39
-0.11327715 0.0027628574 0.96700007 1.6973438e-39
-0.11178096 0.0027714286 0.97000003 3.0802782e-39
-0.10993333 0.0027714286 0.97000003 9.5080469e-39
-0.10842 0.0027800002 0.97300005 1.4763198e-38
-0.10678571 0.0027857143 0.97500002 1.6689547e-38
-0.10525143 0.0027942858 0.97800004 1.6044178e-38
-0.098399997 0.0028114286 0.98400003 1.4932064e-38
-0.096525721 0.0028114286 0.98400003 1.5575254e-38
-0.17417714 0.0046571433 0.97800004 1.3362205e-38
-0.17231429 0.0046571433 0.97800004 1.3085618e-38
-0.16992857 0.0046428572 0.97500002 1.1982886e-38
-0.16807143 0.0046428572 0.97500002 1.1798494e-38
-0.16587333 0.0046333335 0.97300005 7.7555858e-39
-0.16351429 0.004619048 0.97000003 5.4506951e-39
-0.16116667 0.0046047624 0.96700007 1.0436605e-39
-0.15883048 0.0045904764 0.96400005 1.8734211e-39
-0.1569943 0.0045904764 0.96400005 1.0700088e-38
-0.15483621 0.0045809527 0.96200007 1.3742544e-38
-0.15300381 0.0045809527 0.96200007 1.2169473e-38
-0.15117143 0.0045809527 0.96200007 1.0786538e-38
-0.14887333 0.0045666667 0.95900005 1.1155661e-38
-0.14704667 0.0045666667 0.95900005 1.1893226e-38
-0.14522 0.0045666667 0.95900005 1.0605725e-38
-0.13101524 0.0045809527 0.96200007 1.2922156e-38
-0.12918288 0.0045809527 0.96200007 1.2737765e-38
-0.12735049 0.0045809527 0.96200007 1.218674e-38
-0.1255181 0.0045809527 0.96200007 1.2278935e-38
-0.12368573 0.0045809527 0.96200007 1.5493204e-38
-0.12185334 0.0045809527 0.96200007 1.8904443e-38
-0.12027048 0.0045904764 0.96400005 1.9824209e-38
-0.11843429 0.0045904764 0.96400005 1.8072492e-38
-0.1165981 0.0045904764 0.96400005 1.1265924e-38
-0.11476191 0.0045904764 0.96400005 4.7200343e-39
-0.11327715 0.0046047624 0.96700007 1.6951213e-39
-0.11212667 0.0046333335 0.97300005 5.1985553e-39
-0.11027333 0.0046333335 0.97300005 1.4109894e-38
-0.10864286 0.0046428572 0.97500002 1.5216242e-38
-0.10678571 0.0046428572 0.97500002 1.5306613e-38
-0.10557429 0.0046714288 0.98100007 1.5214417e-38
-0.098399997 0.0046857144 0.98400003 1.5482707e-38
-0.096525721 0.0046857144 0.98400003 1.5758581e-38
-0.17417714 0.0065200003 0.97800004 1.3179244e-38
-0.17231429 0.0065200003 0.97800004 1.3179244e-38
-0.16992857 0.0065000001 0.97500002 1.1706652e-38
-0.16807143 0.0065000001 0.97500002 1.1798848e-38
-0.16587333 0.0064866669 0.97300005 8.3073177e-39
-0.16351429 0.0064666667 0.97000003 5.3570575e-39
-0.16166666 0.0064666667 0.97000003 2.0531489e-39
-0.15932478 0.006446667 0.96700007 6.3863435e-39
-0.1569943 0.0064266669 0.96400005 1.3464515e-38
-0.15515809 0.0064266669 0.96400005 1.567721e-38
-0.15300381 0.006413334 0.96200007 1.3920111e-38
-0.14933906 0.006413334 0.96200007 9.5908664e-39
-0.14750668 0.006413334 0.96200007 1.014404e-38
-0.14567429 0.006413334 0.96200007 1.1154927e-38
-0.14384191 0.006413334 0.96200007 1.5580317e-38
-0.13834476 0.006413334 0.96200007 1.8718597e-38
-0.13101524 0.006413334 0.96200007 1.2094203e-38
-0.12945144 0.0064266669 0.96400005 1.2186399e-38
-0.12735049 0.006413334 0.96200007 1.3564629e-38
-0.1255181 0.006413334 0.96200007 1.6146107e-38
-0.12394285 0.0064266669 0.96400005 1.8440571e-38
-0.12210667 0.0064266669 0.96400005 1.8071788e-38
-0.12027048 0.0064266669 0.96400005 1.9269914e-38
-0.1165981 0.0064266669 0.96400005 1.8166164e-38
-0.11511905 0.006446667 0.96700007 1.4478339e-38
-0.11362857 0.0064666667 0.97000003 1.2644416e-38
-0.11212667 0.0064866669 0.97300005 1.4303938e-38
-0.11027333 0.0064866669 0.97300005 1.5770863e-38
-0.10864286 0.0065000001 0.97500002 1.3926951e-38
-0.10711429 0.0065200003 0.97800004 1.1992988e-38
-0.10557429 0.0065400004 0.98100007 1.1992988e-38
-0.10402286 0.0065600001 0.98400003 1.3187202e-38
-0.17231429 0.0083828568 0.97800004 1.2994853e-38
-0.17045145 0.0083828568 0.97800004 1.105985e-38
-0.16807143 0.008357143 0.97500002 1.1336437e-38
-0.16587333 0.0083400002 0.97300005 9.5965865e-39
-0.16351429 0.0083142864 0.97000003 6.1853482e-39
-0.16166666 0.0083142864 0.97000003 5.3592183e-39
-0.15932478 0.0082885725 0.96700007 1.1259739e-38
-0.15748286 0.0082885725 0.96700007 1.5395954e-38
-0.15515809 0.0082628578 0.96400005 1.6410106e-38
-0.15300381 0.0082457149 0.96200007 1.4659831e-38
-0.15117143 0.0082457149 0.96200007 1.0511028e-38
-0.14933906 0.0082457149 0.96200007 9.7737905e-39
-0.14384191 0.0082457149 0.96200007 1.7609e-38
-0.14200954 0.0082457149 0.96200007 1.8898675e-38
-0.14017715 0.0082457149 0.96200007 1.8529892e-38
-0.13834476 0.0082457149 0.96200007 1.8624912e-38
-0.1365124 0.0082457149 0.96200007 1.8993694e-38
-0.13468002 0.0082457149 0.96200007 1.6971912e-38
-0.13284762 0.0082457149 0.96200007 1.4206043e-38
-0.13101524 0.0082457149 0.96200007 1.1357717e-38
-0.12945144 0.0082628578 0.96400005 1.1634304e-38
-0.12577905 0.0082628578 0.96400005 1.8079707e-38
-0.12394285 0.0082628578 0.96400005 1.9732033e-38
-0.11843429 0.0082628578 0.96400005 1.9541825e-38
-0.1165981 0.0082628578 0.96400005 2.0281957e-38
-0.11547619 0.0083142864 0.97000003 1.788487e-38
-0.11362857 0.0083142864 0.97000003 1.540028e-38
-0.11212667 0.0083400002 0.97300005 1.687541e-38
-0.1105 0.008357143 0.97500002 1.6232917e-38
-0.10864286 0.008357143 0.97500002 1.2545092e-38
-0.10711429 0.0083828568 0.97800004 1.0248098e-38
-0.10557429 0.0084085716 0.98100007 1.0248098e-38
-0.10402286 0.0084342854 0.98400003 1.1992266e-38
-0.17284288 0.010277143 0.98100007 1.308597e-38
-0.17045145 0.010245714 0.97800004 1.0600683e-38
-0.16807143 0.010214286 0.97500002 7.1894444e-39
-0.16587333 0.010193334 0.97300005 6.5527519e-39
-0.16402 0.010193334 0.97300005 1.0793751e-38
-0.16166666 0.010161905 0.97000003 1.3831821e-38
-0.15981904 0.010161905 0.97000003 1.6228907e-38
-0.15748286 0.010130477 0.96700007 1.6410103e-38
-0.15564096 0.010130477 0.96700007 1.6133516e-38
-0.15332191 0.010099048 0.96400005 1.5858727e-38
-0.15148573 0.010099048 0.96400005 1.5489945e-38
-0.14933906 0.010078096 0.96200007 1.4107328e-38
-0.14046857 0.010099048 0.96400005 1.3184351e-38
-0.13834476 0.010078096 0.96200007 1.3652445e-38
-0.1365124 0.010078096 0.96200007 1.7524661e-38
-0.13468002 0.010078096 0.96200007 1.8534561e-38
-0.13284762 0.010078096 0.96200007 1.8718953e-38
-0.13128762 0.010099048 0.96400005 1.7154498e-38
-0.12945144 0.010099048 0.96400005 1.5771564e-38
-0.12394285 0.010099048 0.96400005 1.8993369e-38
-0.12210667 0.010099048 0.96400005 1.1617719e-38
-0.12027048 0.010099048 0.96400005 1.1341104e-38
-0.11880287 0.010130477 0.96700007 1.2631842e-38
-0.11696096 0.010130477 0.96700007 1.502572e-38
-0.11547619 0.010161905 0.97000003 1.9358914e-38
-0.11362857 0.010161905 0.97000003 1.9084498e-38
-0.11212667 0.010193334 0.97300005 1.7517172e-38
-0.1105 0.010214286 0.97500002 1.5772257e-38
-0.10864286 0.010214286 0.97500002 1.2176628e-38
-0.10711429 0.010245714 0.97800004 1.0522902e-38
-0.10557429 0.010277143 0.98100007 1.0891685e-38
-0.17284288 0.012145716 0.98100007 1.3454392e-38
-0.17045145 0.012108572 0.97800004 1.1152049e-38
-0.16807143 0.012071429 0.97500002 6.7266586e-39
-0.16587333 0.012046667 0.97300005 6.8256267e-39
-0.16402 0.012046667 0.97300005 1.2633951e-38
-0.16166666 0.012009524 0.97000003 1.5394856e-38
-0.15981904 0.012009524 0.97000003 1.7146572e-38
-0.15748286 0.011972382 0.96700007 1.5307712e-38
-0.15564096 0.011972382 0.96700007 1.3924777e-38
-0.15332191 0.011935239 0.96400005 1.4937124e-38
-0.15148573 0.011935239 0.96400005 1.5951276e-38
-0.14933906 0.011910477 0.96200007 1.5672163e-38
-0.14750668 0.011910477 0.96200007 1.6501923e-38
-0.14567429 0.011910477 0.96200007 1.8343706e-38
-0.14046857 0.011935239 0.96400005 9.3157243e-39
-0.13863239 0.011935239 0.96400005 8.1279094e-39
-0.13679619 0.011935239 0.96400005 1.2737691e-38
-0.13496001 0.011935239 0.96400005 1.8623482e-38
-0.13312382 0.011935239 0.96400005 1.9545438e-38
-0.13128762 0.011935239 0.96400005 1.9085577e-38
-0.12761524 0.011935239 0.96400005 1.9086663e-38
-0.12577905 0.011935239 0.96400005 1.8072511e-38
-0.12432858 0.011972382 0.96700007 1.6501939e-38
-0.12248667 0.011972382 0.96700007 1.1799962e-38
-0.12064477 0.011972382 0.96700007 1.0880867e-38
-0.11880287 0.011972382 0.96700007 1.0788671e-38
-0.11696096 0.011972382 0.96700007 1.3273222e-38
-0.11547619 0.012009524 0.97000003 1.9081547e-38
-0.11398001 0.012046667 0.97300005 1.9360732e-38
-0.11212667 0.012046667 0.97300005 1.7148037e-38
-0.1105 0.012071429 0.97500002 1.3838342e-38
-0.10897715 0.012108572 0.97800004 1.1441256e-38
-0.10744286 0.012145716 0.98100007 1.0614732e-38
-0.10557429 0.012145716 0.98100007 1.1352297e-38
-0.16858858 0.013971429 0.97800004 7.0039462e-39
-0.16587333 0.013900001 0.97300005 6.8224514e-39
-0.16216667 0.013900001 0.97300005 1.4842029e-38
-0.15981904 0.013857143 0.97000003 1.5303007e-38
-0.15797144 0.013857143 0.97000003 1.2359256e-38
-0.15564096 0.013814286 0.96700007 1.0699735e-38
-0.15379906 0.013814286 0.96700007 1.1900076e-38
-0.15148573 0.01377143 0.96400005 1.5495706e-38
-0.14964953 0.01377143 0.96400005 1.7331343e-38
-0.14781334 0.01377143 0.96400005 1.9544039e-38
-0.14567429 0.013742859 0.96200007 1.8069643e-38
-0.14384191 0.013742859 0.96200007 1.4842796e-38
-0.14046857 0.01377143 0.96400005 7.205324e-39
-0.13863239 0.01377143 0.96400005 6.3841855e-39
-0.13679619 0.01377143 0.96400005 6.6607724e-39
-0.13496001 0.01377143 0.96400005 1.2088333e-38
-0.13312382 0.01377143 0.96400005 1.6052746e-38
-0.13128762 0.01377143 0.96400005 1.9453628e-38
-0.12945144 0.01377143 0.96400005 2.1297541e-38
-0.12801239 0.013814286 0.96700007 1.9544757e-38
-0.12617047 0.013814286 0.96700007 1.3552042e-38
-0.12432858 0.013814286 0.96700007 1.1247517e-38
-0.12248667 0.013814286 0.96700007 1.2169473e-38
-0.12064477 0.013814286 0.96700007 1.2353861e-38
-0.11917143 0.013857143 0.97000003 1.1708492e-38
-0.11732381 0.013857143 0.97000003 1.1523712e-38
-0.11583334 0.013900001 0.97300005 1.5303733e-38
-0.11398001 0.013900001 0.97300005 1.6780298e-38
-0.11235715 0.013928572 0.97500002 1.6688103e-38
-0.1105 0.013928572 0.97500002 1.4297878e-38
-0.10897715 0.013971429 0.97800004 1.1716401e-38
-0.10744286 0.014014287 0.98100007 1.1534533e-38
-0.16858858 0.015834287 0.97800004 7.6486121e-39
-0.16621429 0.015785715 0.97500002 7.5538563e-39
-0.16402 0.015753334 0.97300005 1.2809007e-38
-0.16216667 0.015753334 0.97300005 1.3092486e-38
-0.16031334 0.015753334 0.97300005 1.3737855e-38
-0.15797144 0.015704762 0.97000003 1.0889161e-38
-0.15612382 0.015704762 0.97000003 9.7828135e-39
-0.15379906 0.015656192 0.96700007 1.098206e-38
-0.15195715 0.015656192 0.96700007 1.3471342e-38
-0.15011525 0.015656192 0.96700007 1.6963996e-38
-0.14781334 0.01560762 0.96400005 1.9268887e-38
-0.14597714 0.01560762 0.96400005 1.7152353e-38
-0.14274763 0.015656192 0.96700007 5.6476938e-39
-0.14046857 0.01560762 0.96400005 6.2930632e-39
-0.13863239 0.01560762 0.96400005 6.1119146e-39
-0.13679619 0.01560762 0.96400005 4.6367845e-39
-0.13496001 0.01560762 0.96400005 5.7416299e-39
-0.13312382 0.01560762 0.96400005 9.4294551e-39
-0.13169619 0.015656192 0.96700007 1.8529504e-38
-0.12985429 0.015656192 0.96700007 2.092659e-38
-0.12801239 0.015656192 0.96700007 1.9634079e-38
-0.12617047 0.015656192 0.96700007 1.244282e-38
-0.12471429 0.015704762 0.97000003 1.0972712e-38
-0.12286668 0.015704762 0.97000003 1.2540038e-38
-0.12101905 0.015704762 0.97000003 1.2998865e-38
-0.11917143 0.015704762 0.97000003 1.1892517e-38
-0.11768667 0.015753334 0.97300005 1.1064885e-38
-0.11583334 0.015753334 0.97300005 1.5029297e-38
-0.11398001 0.015753334 0.97300005 1.5306995e-38
-0.11235715 0.015785715 0.97500002 1.5767974e-38
-0.11084 0.015834287 0.97800004 1.273237e-38
-0.10897715 0.015834287 0.97800004 1.1072849e-38
-0.17045145 0.017697142 0.97800004 1.2627526e-38
-0.16858858 0.017697142 0.97800004 9.5850707e-39
-0.16621429 0.017642858 0.97500002 7.9284332e-39
-0.16435714 0.017642858 0.97500002 9.5879545e-39
-0.16216667 0.017606668 0.97300005 1.254001e-38
-0.16031334 0.017606668 0.97300005 1.401514e-38
-0.15797144 0.017552381 0.97000003 1.1716413e-38
-0.15427619 0.017552381 0.97000003 9.9704446e-39
-0.15195715 0.017498096 0.96700007 1.0892401e-38
-0.15011525 0.017498096 0.96700007 1.6044163e-38
-0.14781334 0.01744381 0.96400005 1.8533445e-38
-0.14597714 0.01744381 0.96400005 1.6508725e-38
-0.14090572 0.017498096 0.96700007 5.6563413e-39
-0.13863239 0.01744381 0.96400005 7.032429e-39
-0.13679619 0.01744381 0.96400005 6.6636464e-39
-0.13496001 0.01744381 0.96400005 5.3750782e-39
-0.13353811 0.017498096 0.96700007 4.4531219e-39
-0.13169619 0.017498096 0.96700007 1.5585293e-38
-0.12985429 0.017498096 0.96700007 1.945751e-38
-0.12801239 0.017498096 0.96700007 1.871246e-38
-0.12656191 0.017552381 0.97000003 1.2166571e-38
-0.12471429 0.017552381 0.97000003 1.1433706e-38
-0.12286668 0.017552381 0.97000003 1.2447858e-38
-0.12101905 0.017552381 0.97000003 1.2630085e-38
-0.11954001 0.017606668 0.97300005 1.1708129e-38
-0.11768667 0.017606668 0.97300005 1.1432248e-38
-0.11607143 0.017642858 0.97500002 1.6410812e-38
-0.11421429 0.017642858 0.97500002 1.8255438e-38
-0.11235715 0.017642858 0.97500002 1.8163243e-38
-0.11084 0.017697142 0.97800004 1.5402428e-38
-0.10897715 0.017697142 0.97800004 1.1714603e-38
-0.10744286 0.017751429 0.98100007 1.2270288e-38
-0.1709743 0.019620001 0.98100007 1.2627161e-38
-0.16910572 0.019620001 0.98100007 9.9534875e-39
-0.16672572 0.01956 0.97800004 8.3897309e-39
-0.16435714 0.0195 0.97500002 9.7726653e-39
-0.16249999 0.0195 0.97500002 1.2077968e-38
-0.16031334 0.01946 0.97300005 1.4290663e-38
-0.15846001 0.01946 0.97300005 1.1532382e-38
-0.15612382 0.019400001 0.97000003 1.051823e-38
-0.15242857 0.019400001 0.97000003 9.7892875e-39
-0.15011525 0.019340001 0.96700007 1.3834742e-38
-0.14827335 0.019340001 0.96700007 1.7522567e-38
-0.14597714 0.019280002 0.96400005 1.347174e-38
-0.14090572 0.019340001 0.96700007 6.1151418e-39
-0.13863239 0.019280002 0.96400005 7.4916092e-39
-0.13679619 0.019280002 0.96400005 7.307218e-39
-0.13538001 0.019340001 0.96700007 2.9873497e-39
-0.13353811 0.019340001 0.96700007 1.9731978e-39
-0.13169619 0.019340001 0.96700007 1.1995123e-38
-0.12985429 0.019340001 0.96700007 1.7803448e-38
-0.12840952 0.019400001 0.97000003 1.6873621e-38
-0.12656191 0.019400001 0.97000003 1.1157492e-38
-0.12471429 0.019400001 0.97000003 1.1708845e-38
-0.12286668 0.019400001 0.97000003 1.2354214e-38
-0.12139334 0.01946 0.97300005 1.2353836e-38
-0.11954001 0.01946 0.97300005 1.1616271e-38
-0.11768667 0.01946 0.97300005 1.1800675e-38
-0.11607143 0.0195 0.97500002 1.7977782e-38
-0.11421429 0.0195 0.97500002 1.8348e-38
-0.11270286 0.01956 0.97800004 1.8255804e-38
-0.11084 0.01956 0.97800004 1.6415864e-38
-0.10897715 0.01956 0.97800004 1.3465604e-38
-0.10744286 0.019620001 0.98100007 1.27302e-38
-0.16910572 0.021488573 0.98100007 1.1705553e-38
-0.16672572 0.021422857 0.97800004 1.0232604e-38
-0.16486286 0.021422857 0.97800004 1.1799929e-38
-0.16249999 0.021357143 0.97500002 1.3461256e-38
-0.16031334 0.021313334 0.97300005 1.5028581e-38
-0.15846001 0.021313334 0.97300005 1.282273e-38
-0.15612382 0.02124762 0.97000003 1.0978818e-38
-0.15427619 0.02124762 0.97000003 9.510565e-39
-0.15242857 0.02124762 0.97000003 1.1170086e-38
-0.15011525 0.021181906 0.96700007 1.5123683e-38
-0.14827335 0.021181906 0.96700007 1.8534922e-38
-0.14643143 0.021181906 0.96700007 1.7522192e-38
-0.14274763 0.021181906 0.96700007 3.6280402e-39
-0.14090572 0.021181906 0.96700007 4.3656052e-39
-0.13906382 0.021181906 0.96700007 5.3768831e-39
-0.13722192 0.021181906 0.96700007 5.2846875e-39
-0.13538001 0.021181906 0.96700007 4.9155392e-39
-0.13395239 0.02124762 0.97000003 7.6814081e-39
-0.13210477 0.02124762 0.97000003 1.4480494e-38
-0.13025714 0.02124762 0.97000003 1.9827841e-38
-0.12840952 0.02124762 0.97000003 1.9914597e-38
-0.12695335 0.021313334 0.97300005 1.3368707e-38
-0.1251 0.021313334 0.97300005 1.0053677e-38
-0.12324668 0.021313334 0.97300005 1.0238069e-38
-0.12139334 0.021313334 0.97300005 1.1157103e-38
-0.11954001 0.021313334 0.97300005 1.3369798e-38
-0.11792857 0.021357143 0.97500002 1.5396304e-38
-0.11607143 0.021357143 0.97500002 1.843876e-38
-0.11421429 0.021357143 0.97500002 1.7612195e-38
-0.11270286 0.021422857 0.97800004 1.6598043e-38
-0.10931143 0.021488573 0.98100007 1.6783202e-38
-0.10777143 0.021554286 0.98400003 1.650659e-38
-0.16536857 0.023357144 0.98100007 1.2997022e-38
-0.163 0.023285715 0.97800004 1.4381076e-38
-0.16064286 0.023214286 0.97500002 1.5026446e-38
-0.15846001 0.023166668 0.97300005 1.2915657e-38
-0.15660667 0.023166668 0.97300005 1.0795158e-38
-0.15475334 0.023166668 0.97300005 9.4179868e-39
-0.15242857 0.023095237 0.97000003 1.2368247e-38
-0.15058096 0.023095237 0.97000003 1.6410832e-38
-0.14873333 0.023095237 0.97000003 1.8623527e-38
-0.14688572 0.023095237 0.97000003 1.697083e-38
-0.1450381 0.023095237 0.97000003 1.3836179e-38
-0.14319047 0.023095237 0.97000003 6.113421e-39
-0.14134286 0.023095237 0.97000003 4.2695084e-39
-0.13949524 0.023095237 0.97000003 3.9049676e-39
-0.13764761 0.023095237 0.97000003 3.9049676e-39
-0.1358 0.023095237 0.97000003 6.4778104e-39
-0.13395239 0.023095237 0.97000003 1.154857e-38
-0.13251334 0.023166668 0.97300005 1.7794135e-38
-0.13066001 0.023166668 0.97300005 2.0099026e-38
-0.12880668 0.023166668 0.97300005 1.9730944e-38
-0.12324668 0.023166668 0.97300005 9.5934364e-39
-0.12164287 0.023214286 0.97500002 9.9617593e-39
-0.11978571 0.023214286 0.97500002 1.4202758e-38
-0.11792857 0.023214286 0.97500002 1.760722e-38
-0.11642858 0.023285715 0.97800004 1.6777459e-38
-0.11456572 0.023285715 0.97800004 1.4479721e-38
-0.11304858 0.023357144 0.98100007 1.4110938e-38
-0.11152 0.023428572 0.98400003 1.6047046e-38
-0.163 0.025148572 0.97800004 1.2263113e-38
-0.16064286 0.025071429 0.97500002 1.106457e-38
-0.15878572 0.025071429 0.97500002 1.1438394e-38
-0.15660667 0.025020001 0.97300005 1.4019872e-38
-0.15475334 0.025020001 0.97300005 1.4110948e-38
-0.15242857 0.024942858 0.97000003 1.6139252e-38
-0.15058096 0.024942858 0.97000003 1.6504097e-38
-0.14319047 0.024942858 0.97000003 1.5497538e-38
-0.14134286 0.024942858 0.97000003 9.5048225e-39
-0.13949524 0.024942858 0.97000003 5.1945994e-39
-0.13764761 0.024942858 0.97000003 6.300947e-39
-0.1358 0.024942858 0.97000003 1.1811866e-38
-0.13436668 0.025020001 0.97300005 1.7712386e-38
-0.12695335 0.025020001 0.97300005 2.0100796e-38
-0.1251 0.025020001 0.97300005 1.8531347e-38
-0.12324668 0.025020001 0.97300005 1.4198152e-38
-0.12164287 0.025071429 0.97500002 1.4015168e-38
-0.11792857 0.025071429 0.97500002 1.8626035e-38
-0.11491715 0.025225716 0.98100007 6.012173e-39
-0.11339429 0.025302857 0.98400003 3.8916735e-39
-0.16113715 0.02701143 0.97800004 8.3951973e-39
-0.15878572 0.026928572 0.97500002 1.0977356e-38
-0.15660667 0.026873333 0.97300005 1.5402746e-38
-0.15475334 0.026873333 0.97300005 1.6225352e-38
-0.15290001 0.026873333 0.97300005 1.7147308e-38
-0.15104668 0.026873333 0.97300005 1.6045279e-38
-0.14178 0.026873333 0.97300005 1.3830789e-38
-0.13949524 0.026790477 0.97000003 7.7674478e-39
-0.12880668 0.026873333 0.97300005 1.6046706e-38
-0.12695335 0.026873333 0.97300005 1.890477e-38
-0.12535714 0.026928572 0.97500002 2.0467077e-38
-0.1235 0.026928572 0.97500002 1.8623164e-38
-0.12164287 0.026928572 0.97500002 1.5584336e-38
-0.11792857 0.026928572 0.97500002 1.715595e-38
-0.11339429 0.027177144 0.98400003 1.6033167e-39
-0.10964572 0.027177144 0.98400003 1.3750041e-38
-0.1081 0.02726 0.98700005 1.5579995e-38
-0.16774857 0.029051431 0.98400003 1.1339674e-38
-0.16587429 0.029051431 0.98400003 1.0970892e-38
-0.164 0.029051431 0.98400003 7.8477815e-39
-0.16163144 0.028962858 0.98100007 4.3443475e-39
-0.15927429 0.028874286 0.97800004 5.7290799e-39
-0.15692858 0.028785715 0.97500002 1.2551556e-38
-0.15507142 0.028785715 0.97500002 1.5764021e-38
-0.15290001 0.028726669 0.97300005 1.4657673e-38
-0.15104668 0.028726669 0.97300005 1.1524845e-38
-0.14873333 0.028638097 0.97000003 9.2199539e-39
-0.14178 0.028726669 0.97300005 1.9452915e-38
-0.13949524 0.028638097 0.97000003 1.807465e-38
-0.13622001 0.028726669 0.97300005 1.7797722e-38
-0.13436668 0.028726669 0.97300005 1.6691375e-38
-0.13251334 0.028726669 0.97300005 1.3656119e-38
-0.13066001 0.028726669 0.97300005 1.2549771e-38
-0.12880668 0.028726669 0.97300005 1.3102948e-38
-0.12721428 0.028785715 0.97500002 1.4485882e-38
-0.12535714 0.028785715 0.97500002 1.8164675e-38
-0.11978571 0.028785715 0.97500002 1.6872516e-38
-0.11829144 0.028874286 0.97800004 1.2735206e-38
-0.11642858 0.028874286 0.97800004 7.2956643e-39
-0.11339429 0.029051431 0.98400003 4.2701572e-39
-0.10964572 0.029051431 0.98400003 1.301144e-38
-0.10078382 0.029199047 0.98900002 1.5668903e-38
-0.16638 0.031020002 0.98700005 1.0235122e-38
-0.16212572 0.030925713 0.98400003 4.3479405e-39
-0.15976286 0.03083143 0.98100007 5.0869124e-39
-0.15692858 0.030642856 0.97500002 1.0342063e-38
-0.15507142 0.030642856 0.97500002 1.4754891e-38
-0.15290001 0.030580001 0.97300005 1.3832935e-38
-0.15104668 0.030580001 0.97300005 1.1340788e-38
-0.14873333 0.030485716 0.97000003 9.9578539e-39
-0.14688572 0.030485716 0.97000003 1.0418066e-38
-0.14363334 0.030580001 0.97300005 1.6220269e-38
-0.14178 0.030580001 0.97300005 2.0461268e-38
-0.13992667 0.030580001 0.97300005 2.0280152e-38
-0.13807334 0.030580001 0.97300005 2.0003565e-38
-0.13622001 0.030580001 0.97300005 1.7890644e-38
-0.13436668 0.030580001 0.97300005 1.438721e-38
-0.13278572 0.030642856 0.97500002 1.2828869e-38
-0.13092858 0.030642856 0.97500002 1.2828869e-38
-0.12907143 0.030642856 0.97500002 1.2093462e-38
-0.12721428 0.030642856 0.97500002 1.1540288e-38
-0.12164287 0.030642856 0.97500002 2.0192676e-38
-0.11978571 0.030642856 0.97500002 1.3923373e-38
-0.11829144 0.030737145 0.97800004 9.6034445e-39
-0.11642858 0.030737145 0.97800004 7.2985538e-39
-0.11491715 0.03083143 0.98100007 5.742416e-39
-0.11339429 0.030925713 0.98400003 4.3594816e-39
-0.11152 0.030925713 0.98400003 7.5751378e-39
-0.10998 0.031020002 0.98700005 1.2922484e-38
-0.10266762 0.031082857 0.98900002 1.5117171e-38
-0.10108953 0.031177143 0.99200004 1.5576708e-38
-0.099200003 0.031177143 0.99200004 1.5484512e-38
-0.16638 0.032900002 0.98700005 1.1432236e-38
-0.164 0.0328 0.98400003 9.1388538e-39
-0.16212572 0.0328 0.98400003 5.2666373e-39
-0.15976286 0.032700002 0.98100007 3.9845852e-39
-0.15741144 0.032600004 0.97800004 5.275324e-39
-0.15554857 0.032600004 0.97800004 1.2266996e-38
-0.15321429 0.032499999 0.97500002 1.42953e-38
-0.15135714 0.032499999 0.97500002 1.2721565e-38
-0.14919335 0.032433335 0.97300005 1.1154239e-38
-0.14392857 0.032499999 0.97500002 1.1427927e-38
-0.14178 0.032433335 0.97300005 1.7144056e-38
-0.13992667 0.032433335 0.97300005 1.8990479e-38
-0.13807334 0.032433335 0.97300005 1.8898284e-38
-0.13622001 0.032433335 0.97300005 1.6877899e-38
-0.13436668 0.032433335 0.97300005 1.411203e-38
-0.13278572 0.032499999 0.97500002 1.2369346e-38
-0.12535714 0.032499999 0.97500002 1.3469563e-38
-0.1235 0.032499999 0.97500002 1.7249583e-38
-0.12201715 0.032600004 0.97800004 1.816688e-38
-0.12015428 0.032600004 0.97800004 1.1620991e-38
-0.11829144 0.032600004 0.97800004 3.902832e-39
-0.11678572 0.032700002 0.98100007 3.5340495e-39
-0.11491715 0.032700002 0.98100007 4.1797748e-39
-0.11339429 0.0328 0.98400003 2.5202535e-39
-0.11152 0.0328 0.98400003 9.4147344e-39
-0.10998 0.032900002 0.98700005 1.6329407e-38
-0.1081 0.032900002 0.98700005 1.779411e-38
-0.10643524 0.03296667 0.98900002 1.1709198e-38
-0.10266762 0.03296667 0.98900002 1.4750209e-38
-0.099200003 0.033066668 0.99200004 1.566818e-38
-0.17048477 0.034850478 0.98900002 1.3178548e-38
-0.164 0.034674287 0.98400003 9.7810282e-39
-0.16212572 0.034674287 0.98400003 6.0932031e-39
-0.15976286 0.034568571 0.98100007 2.2396855e-39
-0.1578943 0.034568571 0.98100007 2.3318812e-39
-0.15602572 0.034568571 0.98100007 9.0441344e-39
-0.15368572 0.034462858 0.97800004 1.3653916e-38
-0.15135714 0.034357142 0.97500002 1.3920839e-38
-0.14919335 0.03428667 0.97300005 1.1247166e-38
-0.14734 0.03428667 0.97300005 1.0695772e-38
-0.14548667 0.03428667 0.97300005 1.0603576e-38
-0.14392857 0.034357142 0.97500002 1.0328024e-38
-0.14178 0.03428667 0.97300005 1.5583175e-38
-0.13992667 0.03428667 0.97300005 1.6597011e-38
-0.13807334 0.03428667 0.97300005 1.7518968e-38
-0.13622001 0.03428667 0.97300005 1.4393684e-38
-0.13464285 0.034357142 0.97500002 1.3102945e-38
-0.13278572 0.034357142 0.97500002 1.2277503e-38
-0.12721428 0.034357142 0.97500002 1.2184589e-38
-0.12574285 0.034462858 0.97800004 1.2735585e-38
-0.12388001 0.034462858 0.97800004 1.642341e-38
-0.12201715 0.034462858 0.97800004 1.6697881e-38
-0.12015428 0.034462858 0.97800004 1.1258339e-38
-0.11865429 0.034568571 0.98100007 2.3412811e-39
-0.11678572 0.034568571 0.98100007 1.6959117e-39
-0.11526857 0.034674287 0.98400003 2.4327018e-39
-0.11339429 0.034674287 0.98400003 2.2483105e-39
-0.11186 0.034779999 0.98700005 1.1162858e-38
-0.10998 0.034779999 0.98700005 1.7063379e-38
-0.1081 0.034779999 0.98700005 1.8345501e-38
-0.10643524 0.034850478 0.98900002 1.456548e-38
-0.10486858 0.034956191 0.99200004 1.4102322e-38
-0.16826001 0.036660001 0.98700005 1.2258741e-38
-0.1645 0.036660001 0.98700005 1.2083741e-38
-0.16212572 0.03654857 0.98400003 7.934938e-39
-0.16025144 0.03654857 0.98400003 2.7013699e-39
-0.1578943 0.036437146 0.98100007 2.0560005e-39
-0.15602572 0.036437146 0.98100007 8.8597656e-39
-0.15368572 0.036325715 0.97800004 1.3561743e-38
-0.15182285 0.036325715 0.97800004 1.4751291e-38
-0.1495 0.036214288 0.97500002 1.0879075e-38
-0.14764287 0.036214288 0.97500002 1.0051842e-38
-0.1457857 0.036214288 0.97500002 1.0420624e-38
-0.14392857 0.036214288 0.97500002 9.8674505e-39
-0.14207143 0.036214288 0.97500002 1.4569428e-38
-0.14021429 0.036214288 0.97500002 1.7334564e-38
-0.13835715 0.036214288 0.97500002 1.8440911e-38
-0.1365 0.036214288 0.97500002 1.5681892e-38
-0.13464285 0.036214288 0.97500002 1.3284806e-38
-0.13278572 0.036214288 0.97500002 1.2094191e-38
-0.13092858 0.036214288 0.97500002 1.2555169e-38
-0.12907143 0.036214288 0.97500002 1.2737765e-38
-0.12760572 0.036325715 0.97800004 1.1908005e-38
-0.12201715 0.036325715 0.97800004 1.8535297e-38
-0.12052286 0.036437146 0.98100007 1.6875776e-38
-0.11865429 0.036437146 0.98100007 9.7011192e-39
-0.11714286 0.03654857 0.98400003 4.4459683e-39
-0.11526857 0.03654857 0.98400003 1.971746e-39
-0.11339429 0.03654857 0.98400003 7.1347013e-39
-0.11186 0.036660001 0.98700005 1.4754911e-38
-0.10998 0.036660001 0.98700005 1.7797366e-38
-0.10831904 0.036734283 0.98900002 1.8160368e-38
-0.10643524 0.036734283 0.98900002 1.6685238e-38
-0.10486858 0.036845718 0.99200004 1.6038442e-38
-0.16671716 0.038618095 0.98900002 1.4287374e-38
-0.1645 0.038540002 0.98700005 1.2912057e-38
-0.16262001 0.038540002 0.98700005 9.6852103e-39
-0.16025144 0.03842286 0.98400003 3.5275307e-39
-0.15837714 0.03842286 0.98400003 2.2367918e-39
-0.15602572 0.038305718 0.98100007 8.9512578e-39
-0.15415715 0.038305718 0.98100007 1.3653235e-38
-0.15182285 0.038188573 0.97800004 1.4291434e-38
-0.14996001 0.038188573 0.97800004 9.8660436e-39
-0.14809716 0.038188573 0.97800004 9.5904783e-39
-0.14623429 0.038188573 0.97800004 1.0143652e-38
-0.14437144 0.038188573 0.97800004 9.3153431e-39
-0.14207143 0.038071431 0.97500002 1.5953428e-38
-0.14021429 0.038071431 0.97500002 1.7243104e-38
-0.13835715 0.038071431 0.97500002 1.8441647e-38
-0.1365 0.038071431 0.97500002 1.6049615e-38
-0.13464285 0.038071431 0.97500002 1.3560333e-38
-0.13319428 0.038188573 0.97800004 1.1542096e-38
-0.13133144 0.038188573 0.97800004 1.1910879e-38
-0.12946858 0.038188573 0.97800004 1.2186377e-38
-0.12201715 0.038188573 0.97800004 1.9639114e-38
-0.11901715 0.03842286 0.98400003 1.4488428e-38
-0.11339429 0.03842286 0.98400003 1.0718049e-38
-0.11186 0.038540002 0.98700005 1.7423529e-38
-0.11020286 0.038618095 0.98900002 1.825329e-38
-0.10831904 0.038618095 0.98900002 1.7791236e-38
-0.10708096 0.038852382 0.99500006 1.6777084e-38
-0.1645 0.04042 0.98700005 1.336977e-38
-0.16262001 0.04042 0.98700005 1.3277575e-38
-0.16025144 0.040297143 0.98400003 1.0427444e-38
-0.15650286 0.040297143 0.98400003 1.2357842e-38
-0.15415715 0.040174287 0.98100007 1.7152015e-38
-0.15228859 0.040174287 0.98100007 1.7242353e-38
-0.14996001 0.04005143 0.97800004 1.0880854e-38
-0.14437144 0.04005143 0.97800004 1.1524489e-38
-0.14250857 0.04005143 0.97800004 1.8531357e-38
-0.14064573 0.04005143 0.97800004 1.9545471e-38
-0.13878286 0.04005143 0.97800004 2.0098645e-38
-0.13692001 0.04005143 0.97800004 1.8719313e-38
-0.13505715 0.04005143 0.97800004 1.6414422e-38
-0.13319428 0.04005143 0.97800004 1.2093137e-38
-0.12388001 0.04005143 0.97800004 1.9732386e-38
-0.12239143 0.040174287 0.98100007 1.9730215e-38
-0.11901715 0.040297143 0.98400003 1.7521526e-38
-0.11339429 0.040297143 0.98400003 1.6511612e-38
-0.11186 0.04042 0.98700005 1.8161813e-38
-0.11020286 0.040501904 0.98900002 1.7885226e-38
-0.10708096 0.040747624 0.99500006 1.6776721e-38
-0.16483332 0.042385716 0.98900002 1.3827149e-38
-0.16262001 0.042300001 0.98700005 1.4288127e-38
-0.16025144 0.04217143 0.98400003 1.2540751e-38
-0.15650286 0.04217143 0.98400003 1.5119364e-38
-0.15415715 0.042042863 0.98100007 1.7977429e-38
-0.15042001 0.042042863 0.98100007 1.2079075e-38
-0.14809716 0.041914288 0.97800004 1.0328747e-38
-0.14623429 0.041914288 0.97800004 1.1342899e-38
-0.1448143 0.042042863 0.98100007 1.5761853e-38
-0.14250857 0.041914288 0.97800004 2.0002852e-38
-0.14064573 0.041914288 0.97800004 1.9544755e-38
-0.13878286 0.041914288 0.97800004 1.9821342e-38
-0.13692001 0.041914288 0.97800004 1.945472e-38
-0.13505715 0.041914288 0.97800004 1.8163981e-38
-0.13319428 0.041914288 0.97800004 1.4669918e-38
-0.12760572 0.041914288 0.97800004 1.6606364e-38
-0.12574285 0.041914288 0.97800004 1.9361801e-38
-0.12426001 0.042042863 0.98100007 1.9730584e-38
-0.12239143 0.042042863 0.98100007 1.9453631e-38
-0.12052286 0.042042863 0.98100007 1.9730218e-38
-0.11901715 0.04217143 0.98400003 1.9269252e-38
-0.11526857 0.04217143 0.98400003 1.7793741e-38
-0.11374 0.042300001 0.98700005 1.8346915e-38
-0.11186 0.042300001 0.98700005 1.8806461e-38
-0.11020286 0.042385716 0.98900002 1.7792309e-38
-0.10708096 0.042642858 0.99500006 1.6684885e-38
-0.16294952 0.044269525 0.98900002 1.5669617e-38
-0.16074 0.044180002 0.98700005 1.5486342e-38
-0.15837714 0.044045717 0.98400003 1.6039516e-38
-0.15462857 0.044045717 0.98400003 1.7883772e-38
-0.14855143 0.043911431 0.98100007 1.6503718e-38
-0.14668287 0.043911431 0.98100007 1.6872501e-38
-0.1448143 0.043911431 0.98100007 1.7700144e-38
-0.14294574 0.043911431 0.98100007 1.9544057e-38
-0.14107715 0.043911431 0.98100007 1.9083777e-38
-0.13920857 0.043911431 0.98100007 1.9452559e-38
-0.13734001 0.043911431 0.98100007 1.92696e-38
-0.13547143 0.043911431 0.98100007 1.9730578e-38
-0.13360286 0.043911431 0.98100007 1.871896e-38
-0.12946858 0.043777145 0.97800004 1.7705151e-38
-0.12799715 0.043911431 0.98100007 1.9456868e-38
-0.12612858 0.043911431 0.98100007 1.982206e-38
-0.12426001 0.043911431 0.98100007 1.9453278e-38
-0.12276572 0.044045717 0.98400003 1.9360717e-38
-0.12089143 0.044045717 0.98400003 1.9268521e-38
-0.11714286 0.044045717 0.98400003 1.8992297e-38
-0.11562001 0.044180002 0.98700005 1.8807906e-38
-0.11374 0.044180002 0.98700005 1.8070341e-38
-0.11186 0.044180002 0.98700005 1.8253996e-38
-0.11020286 0.044269525 0.98900002 1.7700822e-38
-0.10831904 0.044269525 0.98900002 1.769903e-38
-0.10708096 0.044538099 0.99500006 1.6777074e-38
-0.10518572 0.044538099 0.99500006 1.6130257e-38
-0.16074 0.046060003 0.98700005 1.5669979e-38
-0.15837714 0.045919999 0.98400003 1.6591936e-38
-0.15462857 0.045919999 0.98400003 1.7973819e-38
-0.15228859 0.045780003 0.98100007 1.7699037e-38
-0.14668287 0.045780003 0.98100007 1.8345113e-38
-0.14525715 0.045919999 0.98400003 1.8622438e-38
-0.14294574 0.045780003 0.98100007 1.9267808e-38
-0.14107715 0.045780003 0.98100007 1.8807908e-38
-0.13920857 0.045780003 0.98100007 1.9176691e-38
-0.13734001 0.045780003 0.98100007 1.9269237e-38
-0.13547143 0.045780003 0.98100007 1.9545824e-38
-0.13360286 0.045780003 0.98100007 1.9638032e-38
-0.1317343 0.045780003 0.98100007 1.926925e-38
-0.12986572 0.045780003 0.98100007 1.8992297e-38
-0.12799715 0.045780003 0.98100007 1.9914253e-38
-0.12612858 0.045780003 0.98100007 1.9821342e-38
-0.12464001 0.045919999 0.98400003 1.9544755e-38
-0.11714286 0.045919999 0.98400003 1.9084493e-38
-0.11562001 0.046060003 0.98700005 1.880719e-38
-0.11186 0.046060003 0.98700005 1.7977056e-38
-0.11020286 0.046153337 0.98900002 1.7792665e-38
-0.10864762 0.046293333 0.99200004 1.769939e-38
-0.10708096 0.046433337 0.99500006 1.6316456e-38
-0.10550286 0.046573333 0.99800003 1.622209e-38
-0.16106571 0.048037145 0.98900002 1.207435e-38
-0.15886001 0.047940001 0.98700005 1.502461e-38
-0.15650286 0.047794286 0.98400003 1.6497976e-38
-0.15462857 0.047794286 0.98400003 1.8341888e-38
-0.15228859 0.047648571 0.98100007 1.7790873e-38
-0.14294574 0.047648571 0.98100007 1.899229e-38
-0.14107715 0.047648571 0.98100007 1.9084493e-38
-0.13920857 0.047648571 0.98100007 1.9084493e-38
-0.13734001 0.047648571 0.98100007 1.9177044e-38
-0.13547143 0.047648571 0.98100007 1.926924e-38
-0.13360286 0.047648571 0.98100007 1.9268887e-38
-0.1317343 0.047648571 0.98100007 1.9361082e-38
-0.12986572 0.047648571 0.98100007 1.9453281e-38
-0.12799715 0.047648571 0.98100007 1.9637672e-38
-0.12651429 0.047794286 0.98400003 1.9545111e-38
-0.11901715 0.047794286 0.98400003 1.9084849e-38
-0.11750001 0.047940001 0.98700005 1.8992653e-38
-0.11562001 0.047940001 0.98700005 1.8714994e-38
-0.11374 0.047940001 0.98700005 1.8530603e-38
-0.11208667 0.048037145 0.98900002 1.8253643e-38
-0.11020286 0.048037145 0.98900002 1.7792665e-38
-0.10864762 0.04818286 0.99200004 1.7514999e-38
-0.10708096 0.048328575 0.99500006 1.622426e-38
-0.10550286 0.048474289 0.99800003 1.5854039e-38
-0.10391334 0.04862 1.001 1.603843e-38
-0.10231239 0.048765715 1.0040001 1.6590159e-38
-0.16393811 0.050223812 0.99500006 1.0325522e-38
-0.16155429 0.050072383 0.99200004 9.6794271e-39
-0.15918191 0.04992095 0.98900002 1.1799927e-38
-0.15650286 0.049668573 0.98400003 1.585076e-38
-0.15462857 0.049668573 0.98400003 1.8063455e-38
-0.15275428 0.049668573 0.98400003 1.7698311e-38
-0.15042001 0.049517147 0.98100007 1.8343681e-38
-0.14855143 0.049517147 0.98100007 1.7793744e-38
-0.14338286 0.049668573 0.98400003 1.8900101e-38
-0.14150856 0.049668573 0.98400003 1.8992297e-38
-0.13963428 0.049668573 0.98400003 1.9084493e-38
-0.13776001 0.049668573 0.98400003 1.9176688e-38
-0.13588572 0.049668573 0.98400003 1.9453275e-38
-0.13401143 0.049668573 0.98400003 1.9361082e-38
-0.13213715 0.049668573 0.98400003 1.9453278e-38
-0.13026285 0.049668573 0.98400003 1.9545476e-38
-0.12838857 0.049668573 0.98400003 1.9545476e-38
-0.12276572 0.049668573 0.98400003 1.9361435e-38
-0.12089143 0.049668573 0.98400003 1.9361435e-38
-0.11938 0.049819998 0.98700005 1.9084493e-38
-0.11750001 0.049819998 0.98700005 1.8900101e-38
-0.11562001 0.049819998 0.98700005 1.8806829e-38
-0.11374 0.049819998 0.98700005 1.8714634e-38
-0.11208667 0.04992095 0.98900002 1.8345486e-38
-0.11053714 0.050072383 0.99200004 1.7884507e-38
-0.1089762 0.050223812 0.99500006 1.7239491e-38
-0.10740381 0.050375238 0.99800003 1.5856557e-38
-0.10582001 0.050526667 1.001 1.5854376e-38
-0.10422476 0.050678097 1.0040001 1.6223159e-38
-0.16633335 0.052276194 0.99800003 1.1617337e-38
-0.16443239 0.052276194 0.99800003 1.1893924e-38
-0.16204286 0.05211905 0.99500006 1.0693974e-38
-0.15966477 0.051961906 0.99200004 9.0344529e-39
-0.1572981 0.051804762 0.98900002 9.7687739e-39
-0.15541428 0.051804762 0.98900002 1.6130272e-38
-0.15322001 0.051700003 0.98700005 1.7607551e-38
-0.15088001 0.05154286 0.98400003 1.8160724e-38
-0.14900573 0.05154286 0.98400003 1.7793744e-38
-0.14569999 0.051700003 0.98700005 1.8254016e-38
-0.14338286 0.05154286 0.98400003 1.8991581e-38
-0.14150856 0.05154286 0.98400003 1.8900454e-38
-0.13963428 0.05154286 0.98400003 1.9084846e-38
-0.13776001 0.05154286 0.98400003 1.9084495e-38
-0.13588572 0.05154286 0.98400003 1.9453278e-38
-0.13401143 0.05154286 0.98400003 1.9453275e-38
-0.13213715 0.05154286 0.98400003 1.9453275e-38
-0.12651429 0.05154286 0.98400003 1.9452559e-38
-0.12464001 0.05154286 0.98400003 1.9544755e-38
-0.12314001 0.051700003 0.98700005 1.9545464e-38
-0.12126 0.051700003 0.98700005 1.9545464e-38
-0.11938 0.051700003 0.98700005 1.9176681e-38
-0.11750001 0.051700003 0.98700005 1.8807899e-38
-0.11585429 0.051804762 0.98900002 1.8714634e-38
-0.11397048 0.051804762 0.98900002 1.8714634e-38
-0.11242667 0.051961906 0.99200004 1.8253656e-38
-0.11087143 0.05211905 0.99500006 1.7792678e-38
-0.1089762 0.05211905 0.99500006 1.7331331e-38
-0.10740381 0.052276194 0.99800003 1.6132788e-38
-0.16253144 0.054177143 0.99800003 1.1154577e-38
-0.15966477 0.053851429 0.99200004 8.4809035e-39
-0.1572981 0.053688571 0.98900002 7.7465264e-39
-0.15541428 0.053688571 0.98900002 1.4753394e-38
-0.15322001 0.053580001 0.98700005 1.7424596e-38
-0.15134001 0.053580001 0.98700005 1.7977769e-38
-0.14569999 0.053580001 0.98700005 1.8162539e-38
-0.14382 0.053580001 0.98700005 1.8900104e-38
-0.14194 0.053580001 0.98700005 1.8992653e-38
-0.14006001 0.053580001 0.98700005 1.9084849e-38
-0.13818 0.053580001 0.98700005 1.8992297e-38
-0.1363 0.053580001 0.98700005 1.9453275e-38
-0.13401143 0.053417142 0.98400003 1.9545827e-38
-0.13213715 0.053417142 0.98400003 1.9545827e-38
-0.13026285 0.053417142 0.98400003 1.9545474e-38
-0.12838857 0.053417142 0.98400003 1.9453278e-38
-0.1269 0.053580001 0.98700005 1.9637306e-38
-0.12502001 0.053580001 0.98700005 1.9729502e-38
-0.12126 0.053580001 0.98700005 1.9544748e-38
-0.11962191 0.053688571 0.98900002 1.9084493e-38
-0.11773809 0.053688571 0.98900002 1.8900101e-38
-0.11620572 0.053851429 0.99200004 1.8530603e-38
-0.1143162 0.053851429 0.99200004 1.8622798e-38
-0.11276667 0.054014288 0.99500006 1.8069264e-38
-0.11087143 0.054014288 0.99500006 1.7700482e-38
-0.15777524 0.055740956 0.99200004 8.4816322e-39
-0.15588573 0.055740956 0.99200004 1.4197761e-38
-0.15353048 0.055572383 0.98900002 1.742421e-38
-0.15164667 0.055572383 0.98900002 1.8253971e-38
-0.14946002 0.055460002 0.98700005 1.8070331e-38
-0.14569999 0.055460002 0.98700005 1.8530956e-38
