# .PCD v0.7 - Point Cloud Data file format
VERSION 0.7
FIELDS x y z rgb
SIZE 4 4 4 4
TYPE F F F F
COUNT 1 1 1 1
WIDTH 612
HEIGHT 1
VIEWPOINT 0 0 0 1 0 0 0
POINTS 612
DATA ascii
-0.14862192 -0.23805811 1.381 1.9914253e-38
-0.14599143 -0.23542762 1.381 1.4471487e-38
-0.11228096 -0.23645048 1.3870001 1.2535722e-38
-0.14926761 -0.23380858 1.3870001 1.309246e-38
-0.14450286 -0.23465145 1.3920001 1.4563998e-38
-0.13389716 -0.23465145 1.3920001 1.4563294e-38
-0.13124573 -0.23465145 1.3920001 1.465513e-38
-0.12813239 -0.23380858 1.3870001 1.4562934e-38
-0.12549049 -0.23380858 1.3870001 1.4563287e-38
-0.12284859 -0.23380858 1.3870001 1.4655483e-38
-0.11533715 -0.23465145 1.3920001 1.3733171e-38
-0.15125239 -0.23016667 1.381 1.4194499e-38
-0.14662573 -0.23116669 1.3870001 1.4932783e-38
-0.13654858 -0.23200002 1.3920001 1.5208657e-38
-0.13389716 -0.23200002 1.3920001 1.5024265e-38
-0.13124573 -0.23200002 1.3920001 1.4932796e-38
-0.12859428 -0.23200002 1.3920001 1.4932796e-38
-0.12594286 -0.23200002 1.3920001 1.5024628e-38
-0.12329143 -0.23200002 1.3920001 1.4932433e-38
-0.12064 -0.23200002 1.3920001 1.465513e-38
-0.10127334 -0.23016667 1.381 1.2902328e-38
-0.15983525 -0.22852477 1.3870001 1.4654767e-38
-0.14926761 -0.22852477 1.3870001 1.4839158e-38
-0.14662573 -0.22852477 1.3870001 1.4840234e-38
-0.14450286 -0.22934859 1.3920001 1.5116821e-38
-0.15190953 -0.22588287 1.3870001 1.4747678e-38
-0.14926761 -0.22588287 1.3870001 1.493207e-38
-0.14715429 -0.22669715 1.3920001 1.4840231e-38
-0.14450286 -0.22669715 1.3920001 1.5116818e-38
-0.15455143 -0.22324097 1.3870001 1.5669629e-38
-0.15190953 -0.22324097 1.3870001 1.5577433e-38
-0.14980572 -0.22404572 1.3920001 1.5669629e-38
-0.13069999 -0.21036477 1.307 1.5945853e-38
-0.15983525 -0.22059906 1.3870001 1.5023193e-38
-0.15510859 -0.2213943 1.3920001 1.5578505e-38
-0.15245715 -0.2213943 1.3920001 1.5485606e-38
-0.12821047 -0.20787525 1.307 1.6314282e-38
-0.097753339 -0.21201049 1.3330001 1.2356733e-38
-0.089798093 -0.21121526 1.3280001 7.5566982e-39
-0.14119619 -0.20617144 1.312 1.0416968e-38
-0.097753339 -0.20947143 1.3330001 1.3644562e-38
-0.14369524 -0.20367238 1.312 1.345947e-38
-0.14119619 -0.20367238 1.312 1.0048232e-38
-0.13816857 -0.20289619 1.307 7.9363421e-39
-0.13567904 -0.20289619 1.307 1.3560276e-38
-0.13318951 -0.20289619 1.307 1.4386115e-38
-0.12572095 -0.20289619 1.307 1.5303007e-38
-0.12323143 -0.20289619 1.307 1.4935682e-38
-0.11870477 -0.20367238 1.312 1.1898243e-38
-0.11205524 -0.20522477 1.322 1.3829685e-38
-0.16884667 -0.20439334 1.3330001 1.6688128e-38
-0.14369524 -0.20117334 1.312 1.3731426e-38
-0.14119619 -0.20117334 1.312 1.5667534e-38
-0.1361981 -0.20117334 1.312 1.6043093e-38
-0.13369904 -0.20117334 1.312 1.3649279e-38
-0.1312 -0.20117334 1.312 1.1989758e-38
-0.12821047 -0.20040667 1.307 1.1899338e-38
-0.12572095 -0.20040667 1.307 1.2821294e-38
-0.12323143 -0.20040667 1.307 1.4200265e-38
-0.12074191 -0.20040667 1.307 1.5398809e-38
-0.11870477 -0.20117334 1.312 1.5582105e-38
-0.11205524 -0.20270668 1.322 9.4990366e-39
-0.083138101 -0.20592667 1.3430001 2.341769e-38
-0.16884667 -0.20185429 1.3330001 2.2035474e-38
-0.16568381 -0.20109715 1.3280001 9.4617214e-40
-0.15486285 -0.20018856 1.322 8.2983003e-39
-0.15176858 -0.19943142 1.317 7.1919528e-39
-0.14173429 -0.19943142 1.317 1.6957862e-38
-0.13922571 -0.19943142 1.317 1.6409743e-38
-0.1361981 -0.19867429 1.312 1.52112e-38
-0.13369904 -0.19867429 1.312 1.162601e-38
-0.11620572 -0.19867429 1.312 1.6685594e-38
-0.11457334 -0.20018856 1.322 1.245396e-38
-0.097386673 -0.20109715 1.3280001 1.0238409e-38
-0.087925717 -0.20261143 1.3380001 2.3507356e-38
-0.085696191 -0.20336857 1.3430001 2.341769e-38
-0.15809526 -0.19856763 1.3280001 8.8590467e-39
-0.15486285 -0.19767047 1.322 8.7571205e-39
-0.15234476 -0.19767047 1.322 8.5727292e-39
-0.14926 -0.19692287 1.317 8.2958088e-39
-0.14675143 -0.19692287 1.317 7.6504394e-39
-0.13420857 -0.19692287 1.317 9.9679306e-39
-0.13170001 -0.19692287 1.317 1.0336713e-38
-0.12919143 -0.19692287 1.317 1.0245587e-38
-0.12668285 -0.19692287 1.317 9.9689998e-39
-0.12417428 -0.19692287 1.317 1.125507e-38
-0.12166572 -0.19692287 1.317 1.3006786e-38
-0.11915715 -0.19692287 1.317 1.4293557e-38
-0.11457334 -0.19767047 1.322 9.6009152e-39
-0.09991619 -0.19856763 1.3280001 1.2173401e-38
-0.097753339 -0.19931524 1.3330001 1.0421684e-38
-0.087925717 -0.20006287 1.3380001 2.3506277e-38
-0.083138101 -0.20081049 1.3430001 2.3141103e-38
-0.15869048 -0.1967762 1.3330001 8.860469e-39
-0.15556572 -0.1960381 1.3280001 9.0326536e-39
-0.15234476 -0.19515239 1.322 8.5716754e-39
-0.14982668 -0.19515239 1.322 7.8366131e-39
-0.14730857 -0.19515239 1.322 7.1912437e-39
-0.14424285 -0.19441429 1.317 7.1022388e-39
-0.14173429 -0.19441429 1.317 1.4570085e-38
-0.13420857 -0.19441429 1.317 9.6002271e-39
-0.13170001 -0.19441429 1.317 1.0245597e-38
-0.12919143 -0.19441429 1.317 1.0521458e-38
-0.12668285 -0.19441429 1.317 1.0337066e-38
-0.12417428 -0.19441429 1.317 9.9697159e-39
-0.09991619 -0.1960381 1.3280001 1.2266688e-38
-0.097753339 -0.1967762 1.3330001 1.1068145e-38
-0.092675239 -0.1967762 1.3330001 1.0138016e-39
-0.085377142 -0.1975143 1.3380001 2.341769e-38
-0.15869048 -0.19423714 1.3330001 1.1620953e-38
-0.15615144 -0.19423714 1.3330001 1.0970211e-38
-0.15303619 -0.19350858 1.3280001 8.2043419e-39
-0.14982668 -0.19263428 1.322 7.7451364e-39
-0.14479047 -0.19263428 1.322 9.127017e-39
-0.14227238 -0.19263428 1.322 1.5211929e-38
-0.1397543 -0.19263428 1.322 1.5213721e-38
-0.13671716 -0.19190572 1.317 1.3738591e-38
-0.13170001 -0.19190572 1.317 1.0518599e-38
-0.12919143 -0.19190572 1.317 1.0245246e-38
-0.12668285 -0.19190572 1.317 1.0337442e-38
-0.11664857 -0.19190572 1.317 1.5768674e-38
-0.11457334 -0.19263428 1.322 1.2822045e-38
-0.11205524 -0.19263428 1.322 8.0278721e-39
-0.10953714 -0.19263428 1.322 3.343522e-39
-0.10029238 -0.19423714 1.3330001 1.4014427e-38
-0.093022861 -0.19496572 1.3380001 4.3328415e-39
-0.15615144 -0.1916981 1.3330001 1.180212e-38
-0.15303619 -0.19097906 1.3280001 8.4830769e-39
-0.15050668 -0.19097906 1.3280001 8.2961297e-39
-0.13723619 -0.1901162 1.322 1.5028213e-38
-0.12716381 -0.1901162 1.322 1.0062272e-38
-0.12464572 -0.1901162 1.322 1.3002105e-38
-0.11664857 -0.18939714 1.317 1.6685945e-38
-0.11509334 -0.19097906 1.3280001 1.4940011e-38
-0.10244572 -0.19097906 1.3280001 1.2729111e-38
-0.10029238 -0.1916981 1.3330001 1.4195947e-38
-0.095214292 -0.1916981 1.3330001 1.3735717e-38
-0.093022861 -0.19241714 1.3380001 6.1756751e-39
-0.090474285 -0.19241714 1.3380001 3.5952162e-39
-0.17011334 -0.1905781 1.3430001 2.341769e-38
-0.15615144 -0.18915905 1.3330001 1.0328429e-38
-0.15361239 -0.18915905 1.3330001 1.2080146e-38
-0.13420857 -0.18688858 1.317 1.4291767e-38
-0.12716381 -0.18759809 1.322 1.4755954e-38
-0.12166572 -0.18688858 1.317 1.3647092e-38
-0.11915715 -0.18688858 1.317 1.2260571e-38
-0.10244572 -0.18844953 1.3280001 1.1621684e-38
-0.10029238 -0.18915905 1.3330001 1.0146564e-38
-0.097753339 -0.18915905 1.3330001 1.0423151e-38
-0.095571436 -0.18986858 1.3380001 1.1250388e-38
-0.15673715 -0.18732001 1.3380001 9.6837627e-39
-0.15361239 -0.18662 1.3330001 1.2449632e-38
-0.15050668 -0.18592 1.3280001 1.3641704e-38
-0.14038858 -0.18592 1.3280001 5.4538873e-39
-0.13471811 -0.18507999 1.322 1.4472881e-38
-0.1322 -0.18507999 1.322 1.6408989e-38
-0.1296819 -0.18507999 1.322 1.6040958e-38
-0.12716381 -0.18507999 1.322 1.6225349e-38
-0.12464572 -0.18507999 1.322 1.5858001e-38
-0.12212763 -0.18507999 1.322 1.1340416e-38
-0.11960953 -0.18507999 1.322 1.032552e-38
-0.11709142 -0.18507999 1.322 1.032552e-38
-0.10244572 -0.18592 1.3280001 9.5955482e-39
-0.10029238 -0.18662 1.3330001 8.0328916e-39
-0.098119996 -0.18732001 1.3380001 8.4016741e-39
-0.095571436 -0.18732001 1.3380001 1.014728e-38
-0.15107335 -0.18408096 1.3330001 1.2540038e-38
-0.14797714 -0.18339048 1.3280001 1.1802473e-38
-0.14544761 -0.18339048 1.3280001 7.2017114e-39
-0.14291811 -0.18339048 1.3280001 4.804625e-39
-0.14038858 -0.18339048 1.3280001 4.3530076e-39
-0.1322 -0.1825619 1.322 1.3376607e-38
-0.1296819 -0.1825619 1.322 1.5396673e-38
-0.12716381 -0.1825619 1.322 1.4566912e-38
-0.12464572 -0.1825619 1.322 1.2354565e-38
-0.10750476 -0.18339048 1.3280001 1.5395553e-38
-0.10497525 -0.18339048 1.3280001 1.3190064e-38
-0.10283143 -0.18408096 1.3330001 9.9632167e-39
-0.10029238 -0.18408096 1.3330001 8.2180115e-39
-0.098119996 -0.18477143 1.3380001 8.5867941e-39
-0.095571436 -0.18477143 1.3380001 1.0239473e-38
-0.16243905 -0.18290381 1.3430001 7.5483184e-40
-0.14599524 -0.1815419 1.3330001 4.7203201e-39
-0.14345621 -0.1815419 1.3330001 4.259342e-39
-0.14038858 -0.18086095 1.3280001 4.5398973e-39
-0.13723619 -0.18004382 1.322 3.1569629e-39
-0.1296819 -0.18004382 1.322 1.4661286e-38
-0.11960953 -0.18004382 1.322 1.0048605e-38
-0.11709142 -0.18004382 1.322 9.6798223e-39
-0.11509334 -0.18086095 1.3280001 8.4841111e-39
-0.11256382 -0.18086095 1.3280001 1.1342176e-38
-0.11003429 -0.18086095 1.3280001 1.2724426e-38
-0.10790953 -0.1815419 1.3330001 1.4383948e-38
-0.10537048 -0.1815419 1.3330001 1.1623483e-38
-0.10283143 -0.1815419 1.3330001 9.3185927e-39
-0.10066857 -0.18222287 1.3380001 8.5842703e-39
-0.098119996 -0.18222287 1.3380001 9.3218354e-39
-0.09592858 -0.18290381 1.3430001 1.0700078e-38
-0.15361239 -0.17900285 1.3330001 1.1253625e-38
-0.14091715 -0.17900285 1.3330001 2.0563985e-39
-0.13785906 -0.17833145 1.3280001 2.2407897e-39
-0.11762286 -0.17833145 1.3280001 9.2202945e-39
-0.11552668 -0.17900285 1.3330001 9.4950386e-39
-0.11298762 -0.17900285 1.3330001 1.2906277e-38
-0.11044858 -0.17900285 1.3330001 1.5026774e-38
-0.10790953 -0.17900285 1.3330001 1.5672143e-38
-0.10537048 -0.17900285 1.3330001 1.3648891e-38
-0.10283143 -0.17900285 1.3330001 9.9610657e-39
-0.10066857 -0.17967428 1.3380001 9.5044189e-39
-0.098486669 -0.18034571 1.3430001 1.0702962e-38
-0.16243905 -0.17778762 1.3430001 1.764253e-39
-0.15928571 -0.17712572 1.3380001 6.9272083e-39
-0.15418857 -0.17712572 1.3380001 1.1898266e-38
-0.13027048 -0.17580192 1.3280001 1.4570509e-38
-0.12774095 -0.17580192 1.3280001 1.392514e-38
-0.12521143 -0.17580192 1.3280001 1.0882344e-38
-0.11762286 -0.17580192 1.3280001 8.8514839e-39
-0.11552668 -0.17646381 1.3330001 9.7716452e-39
-0.11044858 -0.17646381 1.3330001 1.5118989e-38
-0.10831429 -0.17712572 1.3380001 1.5026793e-38
-0.10066857 -0.17712572 1.3380001 1.0240567e-38
-0.098486669 -0.17778762 1.3430001 1.1162524e-38
-0.16573429 -0.1760124 1.3490001 9.8649324e-39
-0.16243905 -0.17522953 1.3430001 1.3976649e-39
-0.15988095 -0.17522953 1.3430001 7.5747721e-39
-0.1328 -0.17327239 1.3280001 1.5494264e-38
-0.13027048 -0.17327239 1.3280001 1.5859078e-38
-0.12774095 -0.17327239 1.3280001 1.5582491e-38
-0.12521143 -0.17327239 1.3280001 1.4475458e-38
-0.12268192 -0.17327239 1.3280001 1.2262763e-38
-0.11086286 -0.17457716 1.3380001 1.3370515e-38
-0.10066857 -0.17457716 1.3380001 1.456867e-38
-0.17353335 -0.17614287 1.3700001 2.341769e-38
-0.16955143 -0.17472859 1.3590001 2.3326213e-38
-0.16634859 -0.17408572 1.3540001 1.1709564e-38
-0.16316478 -0.17344286 1.3490001 1.9194706e-40
-0.15988095 -0.17267144 1.3430001 7.7519887e-39
-0.15673715 -0.17202857 1.3380001 1.3548429e-38
-0.15107335 -0.17138572 1.3330001 1.1890324e-38
-0.1485343 -0.17138572 1.3330001 1.198252e-38
-0.14038858 -0.17074287 1.3280001 1.1342211e-38
-0.13027048 -0.17074287 1.3280001 1.484385e-38
-0.12774095 -0.17074287 1.3280001 1.484385e-38
-0.12521143 -0.17074287 1.3280001 1.5582496e-38
-0.11044858 -0.17138572 1.3330001 1.1160693e-38
-0.10321715 -0.17202857 1.3380001 1.3653923e-38
-0.10104477 -0.17267144 1.3430001 1.5487081e-38
-0.083509527 -0.17344286 1.3490001 2.1204291e-38
-0.17614287 -0.17353335 1.3700001 2.221951e-38
-0.17353335 -0.17353335 1.3700001 2.3325856e-38
-0.17030001 -0.17289999 1.365 2.3326213e-38
-0.16696286 -0.17214 1.3590001 1.475202e-38
-0.16376953 -0.17150667 1.3540001 7.538145e-40
-0.16059525 -0.17087334 1.3490001 4.626031e-39
-0.15732287 -0.17011334 1.3430001 1.0140463e-38
-0.15418857 -0.16948001 1.3380001 9.4950933e-39
-0.15164 -0.16948001 1.3380001 8.8500196e-39
-0.14909144 -0.16948001 1.3380001 8.1124545e-39
-0.14599524 -0.16884667 1.3330001 9.4964652e-39
-0.14091715 -0.16884667 1.3330001 1.4658389e-38
-0.11552668 -0.16884667 1.3330001 1.4107729e-38
-0.11298762 -0.16884667 1.3330001 9.4057521e-39
-0.11044858 -0.16884667 1.3330001 3.8938147e-39
-0.10831429 -0.16948001 1.3380001 2.6952715e-39
-0.10576572 -0.16948001 1.3380001 6.280453e-39
-0.10360286 -0.17011334 1.3430001 1.1166821e-38
-0.086398095 -0.17150667 1.3540001 2.1019885e-38
-0.17289999 -0.17030001 1.365 2.2588658e-38
-0.17030001 -0.17030001 1.365 2.3326213e-38
-0.16696286 -0.16955143 1.3590001 1.5489585e-38
-0.16376953 -0.16892762 1.3540001 3.0569326e-39
-0.16119049 -0.16892762 1.3540001 3.6101064e-39
-0.15732287 -0.16755524 1.3430001 8.3019353e-39
-0.15476477 -0.16755524 1.3430001 8.4863266e-39
-0.15164 -0.16693144 1.3380001 7.4703221e-39
-0.14909144 -0.16693144 1.3380001 7.2859309e-39
-0.14654286 -0.16693144 1.3380001 8.7570686e-39
-0.14345621 -0.16630761 1.3330001 1.2352698e-38
-0.13785906 -0.16568381 1.3280001 1.640757e-38
-0.13532953 -0.16568381 1.3280001 1.3925503e-38
-0.1328 -0.16568381 1.3280001 1.1067438e-38
-0.13027048 -0.16568381 1.3280001 9.785319e-39
-0.12774095 -0.16568381 1.3280001 9.9697103e-39
-0.12521143 -0.16568381 1.3280001 1.1163925e-38
-0.12268192 -0.16568381 1.3280001 1.337662e-38
-0.12015238 -0.16568381 1.3280001 1.5674336e-38
-0.11762286 -0.16568381 1.3280001 1.6135314e-38
-0.10831429 -0.16693144 1.3380001 2.0567334e-39
-0.10616095 -0.16755524 1.3430001 4.8124933e-39
-0.08864858 -0.16830382 1.3490001 1.7516409e-38
-0.086398095 -0.16892762 1.3540001 1.9820991e-38
-0.16696286 -0.16696286 1.3590001 1.5581793e-38
-0.16437431 -0.16696286 1.3590001 4.2519655e-39
-0.16119049 -0.16634859 1.3540001 2.0392704e-39
-0.15861143 -0.16634859 1.3540001 7.4743298e-39
-0.1554562 -0.16573429 1.3490001 8.672873e-39
-0.15220666 -0.16499715 1.3430001 8.4819629e-39
-0.14964858 -0.16499715 1.3430001 8.3897673e-39
-0.14654286 -0.16438286 1.3380001 7.8366131e-39
-0.14399429 -0.16438286 1.3380001 8.4819825e-39
-0.14144571 -0.16438286 1.3380001 1.2539983e-38
-0.13583906 -0.16376857 1.3330001 1.3650326e-38
-0.13330001 -0.16376857 1.3330001 1.1068848e-38
-0.13076097 -0.16376857 1.3330001 9.8778804e-39
-0.12822191 -0.16376857 1.3330001 1.0338859e-38
-0.12568286 -0.16376857 1.3330001 1.0521102e-38
-0.11383525 -0.16499715 1.3430001 5.54036e-39
-0.11127715 -0.16499715 1.3430001 1.7833919e-39
-0.091218099 -0.16573429 1.3490001 7.1926534e-39
-0.088977151 -0.16634859 1.3540001 1.6780999e-38
-0.086717151 -0.16696286 1.3590001 1.9544392e-38
-0.15861143 -0.16376953 1.3540001 8.3029891e-39
-0.1554562 -0.16316478 1.3490001 1.0054706e-38
-0.15288667 -0.16316478 1.3490001 9.3099636e-39
-0.14964858 -0.16243905 1.3430001 8.6645941e-39
-0.14709048 -0.16243905 1.3430001 7.4688732e-39
-0.13889715 -0.1618343 1.3380001 1.4751989e-38
-0.12360572 -0.1618343 1.3380001 1.0522899e-38
-0.12105715 -0.1618343 1.3380001 1.3006051e-38
-0.11639334 -0.16243905 1.3430001 1.0337086e-38
-0.098926671 -0.16316478 1.3490001 1.1158542e-38
-0.096357152 -0.16316478 1.3490001 7.9306094e-39
-0.086717151 -0.16437431 1.3590001 1.8806476e-38
-0.0845 -0.16509999 1.365 1.8253303e-38
-0.1554562 -0.16059525 1.3490001 1.2540391e-38
-0.15288667 -0.16059525 1.3490001 1.1245731e-38
-0.14399429 -0.15928571 1.3380001 1.3459468e-38
-0.13583906 -0.15869048 1.3330001 1.4202433e-38
-0.13330001 -0.15869048 1.3330001 1.2635107e-38
-0.12568286 -0.15869048 1.3330001 1.1716751e-38
-0.11639334 -0.15988095 1.3430001 1.4017361e-38
-0.1014962 -0.16059525 1.3490001 1.4107341e-38
-0.099293344 -0.16119049 1.3540001 1.3646363e-38
-0.14453238 -0.15732287 1.3430001 1.5114332e-38
-0.13634858 -0.15673715 1.3380001 1.4478286e-38
-0.1338 -0.15673715 1.3380001 1.3740721e-38
-0.13076097 -0.15615144 1.3330001 1.2268856e-38
-0.12822191 -0.15615144 1.3330001 1.1346899e-38
-0.12568286 -0.15615144 1.3330001 1.2910991e-38
-0.12360572 -0.15673715 1.3380001 1.503149e-38
-0.11639334 -0.15732287 1.3430001 1.5305188e-38
-0.1014962 -0.15802573 1.3490001 1.2722256e-38
-0.099293344 -0.15861143 1.3540001 1.3644212e-38
-0.1554562 -0.1554562 1.3490001 1.0050403e-38
-0.15288667 -0.1554562 1.3490001 1.1432245e-38
-0.14144571 -0.15418857 1.3380001 9.4104535e-39
-0.13889715 -0.15418857 1.3380001 6.8289758e-39
-0.13125144 -0.15418857 1.3380001 1.5950923e-38
-0.12870285 -0.15418857 1.3380001 1.5858727e-38
-0.12615429 -0.15418857 1.3380001 1.567361e-38
-0.12360572 -0.15418857 1.3380001 1.3829698e-38
-0.12105715 -0.15418857 1.3380001 1.0969507e-38
-0.1014962 -0.1554562 1.3490001 9.9625132e-39
-0.1554562 -0.15288667 1.3490001 8.3015471e-39
-0.15288667 -0.15288667 1.3490001 1.0971968e-38
-0.14964858 -0.15220666 1.3430001 1.5028576e-38
-0.1419743 -0.15220666 1.3430001 5.7352007e-39
-0.1394162 -0.15220666 1.3430001 3.2459187e-39
-0.13634858 -0.15164 1.3380001 7.2941999e-39
-0.1338 -0.15164 1.3380001 1.2549351e-38
-0.13125144 -0.15164 1.3380001 1.6777071e-38
-0.12870285 -0.15164 1.3380001 1.7145854e-38
-0.12615429 -0.15164 1.3380001 1.6683456e-38
-0.12360572 -0.15164 1.3380001 1.216587e-38
-0.11850858 -0.15164 1.3380001 9.4003417e-39
-0.10406572 -0.15288667 1.3490001 9.6852229e-39
-0.10187238 -0.15345334 1.3540001 8.8601159e-39
-0.083819054 -0.15345334 1.3540001 1.7329551e-38
-0.1560324 -0.1508743 1.3540001 7.9356261e-39
-0.15345334 -0.1508743 1.3540001 9.9592608e-39
-0.15031715 -0.15031715 1.3490001 1.3647086e-38
-0.14774762 -0.15031715 1.3490001 1.2542924e-38
-0.13685809 -0.14964858 1.3430001 3.7090577e-39
-0.13429999 -0.14964858 1.3430001 5.6451659e-39
-0.12870285 -0.14909144 1.3380001 1.5582103e-38
-0.12615429 -0.14909144 1.3380001 1.5395176e-38
-0.11850858 -0.14909144 1.3380001 9.0355249e-39
-0.10406572 -0.15031715 1.3490001 9.7773905e-39
-0.10187238 -0.1508743 1.3540001 9.3200305e-39
-0.086717151 -0.15143143 1.3590001 1.7883421e-38
-0.15660858 -0.14884286 1.3590001 7.7515977e-39
-0.15345334 -0.14829524 1.3540001 8.6717716e-39
-0.13125144 -0.14654286 1.3380001 8.8608418e-39
-0.12870285 -0.14654286 1.3380001 1.3655015e-38
-0.12615429 -0.14654286 1.3380001 1.3554555e-38
-0.12360572 -0.14654286 1.3380001 9.3135565e-39
-0.12105715 -0.14654286 1.3380001 9.1291526e-39
-0.10663525 -0.14774762 1.3490001 1.1346546e-38
-0.10445144 -0.14829524 1.3540001 8.9494599e-39
-0.091556191 -0.14829524 1.3540001 9.2180986e-39
-0.086717151 -0.14884286 1.3590001 1.7421008e-38
-0.15345334 -0.14571621 1.3540001 1.0327343e-38
-0.13174191 -0.14453238 1.3430001 1.1067814e-38
-0.12918381 -0.14453238 1.3430001 1.5769791e-38
-0.12662572 -0.14453238 1.3430001 1.5304452e-38
-0.12406763 -0.14453238 1.3430001 9.9571056e-39
-0.12150953 -0.14453238 1.3430001 8.3926764e-39
-0.11895143 -0.14453238 1.3430001 8.484872e-39
-0.10920477 -0.14517811 1.3490001 1.5579947e-38
-0.10703048 -0.14571621 1.3540001 1.4109159e-38
-0.096714288 -0.14571621 1.3540001 1.2170864e-38
-0.094482861 -0.1462543 1.3590001 9.9581692e-39
-0.086717151 -0.1462543 1.3590001 1.7328434e-38
-0.15402001 -0.14366573 1.3590001 1.1523006e-38
-0.1419743 -0.1419743 1.3430001 9.3207564e-39
-0.13174191 -0.1419743 1.3430001 1.4656587e-38
-0.12918381 -0.1419743 1.3430001 1.6316108e-38
-0.12662572 -0.1419743 1.3430001 1.5579247e-38
-0.12406763 -0.1419743 1.3430001 1.1522639e-38
-0.12150953 -0.1419743 1.3430001 9.6794495e-39
-0.11177429 -0.14260858 1.3490001 1.5855112e-38
-0.10960954 -0.14313714 1.3540001 1.5301938e-38
-0.096714288 -0.14313714 1.3540001 1.1243136e-38
-0.094900005 -0.1443 1.365 1.0597767e-38
-0.15143143 -0.14107715 1.3590001 1.1615921e-38
-0.14774762 -0.14003906 1.3490001 1.2998418e-38
-0.12918381 -0.1394162 1.3430001 1.410807e-38
-0.12662572 -0.1394162 1.3430001 1.4476133e-38
-0.12406763 -0.1394162 1.3430001 1.5582481e-38
-0.11434382 -0.14003906 1.3490001 1.4934623e-38
-0.11218858 -0.14055811 1.3540001 1.1344754e-38
-0.10187238 -0.14055811 1.3540001 1.465909e-38
-0.097071432 -0.14107715 1.3590001 7.83692e-39
-0.15143143 -0.13848858 1.3590001 9.4039444e-39
-0.14829524 -0.13797905 1.3540001 9.9519993e-39
-0.11734667 -0.13797905 1.3540001 1.4939282e-38
-0.11476763 -0.13797905 1.3540001 1.1435848e-38
-0.10960954 -0.13797905 1.3540001 4.8085557e-39
-0.10742572 -0.13848858 1.3590001 8.492027e-39
-0.10483715 -0.13848858 1.3590001 1.3747178e-38
-0.097071432 -0.13848858 1.3590001 6.1777308e-39
-0.092299998 -0.1391 1.365 1.1519021e-38
-0.090028577 -0.13960953 1.3700001 1.5944411e-38
-0.087419055 -0.13960953 1.3700001 1.5760398e-38
-0.15143143 -0.13590001 1.3590001 7.837332e-39
-0.14829524 -0.13540001 1.3540001 8.1114007e-39
-0.12462191 -0.1349 1.3490001 1.2454692e-38
-0.11895143 -0.13429999 1.3430001 1.6504775e-38
-0.11218858 -0.13540001 1.3540001 2.3318938e-39
-0.11001429 -0.13590001 1.3590001 1.6865244e-39
-0.092299998 -0.1365 1.365 1.1887473e-38
-0.090028577 -0.13700001 1.3700001 1.5575298e-38
-0.15143143 -0.13331144 1.3590001 8.0228051e-39
-0.14884286 -0.13331144 1.3590001 7.9287835e-39
-0.14517811 -0.13233048 1.3490001 7.4678054e-39
-0.14260858 -0.13233048 1.3490001 7.9302016e-39
-0.14003906 -0.13233048 1.3490001 1.4752678e-38
-0.12918381 -0.13174191 1.3430001 1.0523253e-38
-0.12662572 -0.13174191 1.3430001 1.0431054e-38
-0.12462191 -0.13233048 1.3490001 1.0246663e-38
-0.12205239 -0.13233048 1.3490001 1.2913837e-38
-0.11218858 -0.13282095 1.3540001 1.6883166e-39
-0.11001429 -0.13331144 1.3590001 1.9649035e-39
-0.094900005 -0.1339 1.365 9.7715709e-39
-0.092299998 -0.1339 1.365 1.3178542e-38
-0.090028577 -0.13439049 1.3700001 1.5575629e-38
-0.15143143 -0.13072287 1.3590001 9.9600021e-39
-0.14884286 -0.13072287 1.3590001 8.4816322e-39
-0.14571621 -0.13024192 1.3540001 7.283089e-39
-0.14313714 -0.13024192 1.3540001 8.0210044e-39
-0.14055811 -0.13024192 1.3540001 1.3829329e-38
-0.13797905 -0.13024192 1.3540001 1.4479005e-38
-0.12719144 -0.12976097 1.3490001 1.0430694e-38
-0.12462191 -0.12976097 1.3490001 1.0246303e-38
-0.11734667 -0.13024192 1.3540001 1.346631e-38
-0.11476763 -0.13024192 1.3540001 6.0906597e-39
-0.11260287 -0.13072287 1.3590001 1.1366002e-39
-0.097499996 -0.1313 1.365 8.8528642e-39
-0.095247626 -0.13178097 1.3700001 1.0235799e-38
-0.15143143 -0.1281343 1.3590001 1.1249271e-38
-0.14571621 -0.12766287 1.3540001 8.1139091e-39
-0.14313714 -0.12766287 1.3540001 8.9415314e-39
-0.1349 -0.12719144 1.3490001 1.337266e-38
-0.12205239 -0.12719144 1.3490001 1.4290676e-38
-0.11948287 -0.12719144 1.3490001 1.6042393e-38
-0.11519143 -0.1281343 1.3590001 7.7498279e-39
-0.1001 -0.12869999 1.365 1.2169448e-38
-0.097857147 -0.12917143 1.3700001 1.0417715e-38
-0.1462543 -0.12554573 1.3590001 1.115493e-38
-0.14366573 -0.12554573 1.3590001 1.1707063e-38
-0.14055811 -0.12508382 1.3540001 1.4380736e-38
-0.13797905 -0.12508382 1.3540001 1.4754839e-38
-0.13540001 -0.12508382 1.3540001 1.5308013e-38
-0.13233048 -0.12462191 1.3490001 1.383473e-38
-0.12508382 -0.12508382 1.3540001 1.4941443e-38
-0.12250476 -0.12508382 1.3540001 1.5580696e-38
-0.11519143 -0.12554573 1.3590001 1.4751664e-38
-0.1131 -0.1261 1.365 1.25472e-38
-0.1027 -0.1261 1.365 1.3000272e-38
-0.1001 -0.1261 1.365 1.3645641e-38
-0.097857147 -0.12656191 1.3700001 1.0602525e-38
-0.16048571 -0.12395239 1.3700001 1.4748076e-38
-0.15787621 -0.12395239 1.3700001 9.5851211e-39
-0.14107715 -0.12295716 1.3590001 1.1159624e-38
-0.13848858 -0.12295716 1.3590001 1.189533e-38
-0.12976097 -0.12205239 1.3490001 1.4936746e-38
-0.12719144 -0.12205239 1.3490001 1.4659849e-38
-0.12508382 -0.12250476 1.3540001 1.5766197e-38
-0.12250476 -0.12250476 1.3540001 1.5488856e-38
-0.1053 -0.1235 1.365 9.5037001e-39
-0.1030762 -0.12395239 1.3700001 1.0881933e-38
-0.16048571 -0.12134287 1.3700001 1.4748427e-38
-0.15787621 -0.12134287 1.3700001 8.4791239e-39
-0.1547 -0.1209 1.365 7.3820894e-39
-0.13590001 -0.12036858 1.3590001 7.5733428e-39
-0.13331144 -0.12036858 1.3590001 1.2357767e-38
-0.13024192 -0.11992572 1.3540001 1.6598766e-38
-0.12766287 -0.11992572 1.3540001 1.7238065e-38
-0.12508382 -0.11992572 1.3540001 1.3550239e-38
-0.12250476 -0.11992572 1.3540001 9.7716704e-39
-0.11992572 -0.11992572 1.3540001 8.4809316e-39
-0.1053 -0.1209 1.365 9.4114722e-39
-0.1030762 -0.12134287 1.3700001 9.9635894e-39
-0.15787621 -0.11873335 1.3700001 9.1255695e-39
-0.15526667 -0.11873335 1.3700001 6.4640987e-39
-0.13024192 -0.11734667 1.3540001 1.5773321e-38
-0.12766287 -0.11734667 1.3540001 1.6870746e-38
-0.12508382 -0.11734667 1.3540001 1.0970226e-38
-0.12250476 -0.11734667 1.3540001 1.0045696e-38
-0.10568572 -0.11873335 1.3700001 8.5828158e-39
-0.15856762 -0.11663239 1.376 1.1336816e-38
-0.15526667 -0.11612382 1.3700001 8.3962637e-39
-0.13072287 -0.11519143 1.3590001 1.282631e-38
-0.1281343 -0.11519143 1.3590001 1.4476143e-38
-0.12554573 -0.11519143 1.3590001 9.0366011e-39
-0.12295716 -0.11519143 1.3590001 8.3004808e-39
-0.12036858 -0.11519143 1.3590001 8.6692633e-39
-0.10789999 -0.1157 1.365 1.1254701e-38
-0.10568572 -0.11612382 1.3700001 8.3044408e-39
-0.15856762 -0.11401143 1.376 1.2258043e-38
-0.15526667 -0.1135143 1.3700001 9.4986358e-39
-0.14366573 -0.11260287 1.3590001 1.1439471e-38
-0.1281343 -0.11260287 1.3590001 1.4017358e-38
-0.12554573 -0.11260287 1.3590001 9.5919679e-39
-0.12295716 -0.11260287 1.3590001 8.5745467e-39
-0.12036858 -0.11260287 1.3590001 8.3901554e-39
-0.10789999 -0.1131 1.365 1.1990474e-38
-0.15856762 -0.11139048 1.376 1.3732808e-38
-0.15526667 -0.11090478 1.3700001 1.1063826e-38
-0.1521 -0.1105 1.365 1.0510652e-38
-0.1469 -0.1105 1.365 1.5212279e-38
-0.1443 -0.1105 1.365 1.4201717e-38
-0.1417 -0.1105 1.365 1.0513892e-38
-0.1391 -0.1105 1.365 7.0237689e-39
-0.1281343 -0.11001429 1.3590001 1.6688122e-38
-0.12554573 -0.11001429 1.3590001 1.3922253e-38
-0.12295716 -0.11001429 1.3590001 9.2228406e-39
-0.12036858 -0.11001429 1.3590001 7.378928e-39
-0.11778001 -0.11001429 1.3590001 9.5893895e-39
-0.1131 -0.1105 1.365 1.6962166e-38
-0.1105 -0.1105 1.365 1.686997e-38
-0.10829525 -0.11090478 1.3700001 1.438361e-38
-0.15914381 -0.10916476 1.381 1.3732454e-38
-0.15594667 -0.10876952 1.376 1.2350942e-38
-0.15070477 -0.10876952 1.376 1.3456937e-38
-0.14743811 -0.10829525 1.3700001 1.5854023e-38
-0.14482857 -0.10829525 1.3700001 1.5303393e-38
-0.13590001 -0.10742572 1.3590001 8.7653895e-39
-0.1235 -0.10789999 1.365 1.309393e-38
-0.1157 -0.10789999 1.365 1.6960711e-38
-0.1135143 -0.10829525 1.3700001 1.7329513e-38
-0.11090478 -0.10829525 1.3700001 1.6960731e-38
-0.15651333 -0.10653429 1.381 1.272117e-38
-0.15332572 -0.10614857 1.376 1.3089952e-38
-0.15070477 -0.10614857 1.376 1.3365817e-38
-0.14808382 -0.10614857 1.376 1.5025339e-38
-0.14482857 -0.10568572 1.3700001 1.4842758e-38
-0.1417 -0.1053 1.365 1.5580323e-38
-0.1261 -0.1053 1.365 1.7331311e-38
-0.1235 -0.1053 1.365 1.6595201e-38
-0.1209 -0.1053 1.365 1.5304462e-38
-0.11612382 -0.10568572 1.3700001 1.6962879e-38
-0.10090667 -0.10614857 1.376 1.2720801e-38
-0.15125239 -0.10390382 1.381 1.3733521e-38
-0.14808382 -0.10352762 1.376 1.502426e-38
-0.14482857 -0.1030762 1.3700001 1.474948e-38
-0.14221907 -0.1030762 1.3700001 1.5763632e-38
-0.12869999 -0.1027 1.365 1.6226408e-38
-0.1261 -0.1027 1.365 1.6779582e-38
-0.1235 -0.1027 1.365 1.7055813e-38
-0.1209 -0.1027 1.365 1.6963618e-38
-0.11612382 -0.1030762 1.3700001 1.6686298e-38
-0.10352762 -0.10352762 1.376 1.5485601e-38
-0.10090667 -0.10352762 1.376 1.0968015e-38
-0.09828572 -0.10352762 1.376 1.0135672e-38
-0.096012384 -0.10390382 1.381 1.1887389e-38
-0.14808382 -0.10090667 1.376 1.4932427e-38
-0.14546286 -0.10090667 1.376 1.4657288e-38
-0.14221907 -0.10046668 1.3700001 1.5394853e-38
-0.1261 -0.1001 1.365 1.686963e-38
-0.1235 -0.1001 1.365 1.6778493e-38
-0.10352762 -0.10090667 1.376 1.5394121e-38
-0.10090667 -0.10090667 1.376 1.0507753e-38
-0.15719333 -0.099071436 1.3870001 1.2628618e-38
-0.14862192 -0.098642863 1.381 1.4748755e-38
-0.14546286 -0.09828572 1.376 1.438178e-38
-0.14221907 -0.097857147 1.3700001 1.5119345e-38
-0.1391 -0.097499996 1.365 1.5303007e-38
-0.1365 -0.097499996 1.365 1.6224964e-38
-0.1235 -0.097499996 1.365 1.6593386e-38
-0.10568572 -0.097857147 1.3700001 1.5854396e-38
-0.15388286 -0.096012384 1.381 1.1708457e-38
-0.14862192 -0.096012384 1.381 1.4564726e-38
-0.14546286 -0.095664769 1.376 1.4289231e-38
-0.14221907 -0.095247626 1.3700001 1.5026796e-38
-0.13960953 -0.095247626 1.3700001 1.5119342e-38
-0.13700001 -0.095247626 1.3700001 1.6133494e-38
-0.1339 -0.094900005 1.365 1.6407923e-38
-0.11139048 -0.095664769 1.376 1.5949105e-38
-0.13960953 -0.092638105 1.3700001 1.5119342e-38
-0.13700001 -0.092638105 1.3700001 1.6041298e-38
-0.13439049 -0.092638105 1.3700001 1.6224248e-38
