# .PCD v0.7 - Point Cloud Data file format
VERSION 0.7
FIELDS x y z rgb
SIZE 4 4 4 4
TYPE F F F F
COUNT 1 1 1 1
WIDTH 308
HEIGHT 1
VIEWPOINT 0 0 0 1 0 0 0
POINTS 308
DATA ascii
-0.12774095 -0.32781714 1.6160001 1.8340868e-38
-0.12466287 -0.32781714 1.6160001 1.7972086e-38
-0.12158477 -0.32781714 1.6160001 1.6959705e-38
-0.11850667 -0.32781714 1.6160001 1.6037749e-38
-0.11542857 -0.32781714 1.6160001 1.5485641e-38
-0.11235048 -0.32781714 1.6160001 1.5209055e-38
-0.089567624 -0.3233543 1.5940001 1.5301944e-38
-0.086531438 -0.3233543 1.5940001 1.6316096e-38
-0.12466287 -0.32473907 1.6160001 1.2719047e-38
-0.12158477 -0.32473907 1.6160001 1.2441381e-38
-0.11850667 -0.32473907 1.6160001 1.2441381e-38
-0.11542857 -0.32473907 1.6160001 1.2533571e-38
-0.11235048 -0.32473907 1.6160001 1.2533571e-38
-0.089567624 -0.3203181 1.5940001 1.1148809e-38
-0.086531438 -0.3203181 1.5940001 1.1701983e-38
-0.083076194 -0.31871051 1.5860001 1.1704494e-38
-0.079701908 -0.31730384 1.5790001 1.1520103e-38
-0.12412287 -0.32026762 1.6090001 1.2995946e-38
-0.12158477 -0.32166097 1.6160001 1.3087072e-38
-0.11799334 -0.32026762 1.6090001 1.3179268e-38
-0.13814668 -0.31120953 1.5940001 1.3823552e-38
-0.11021429 -0.28949618 1.5430001 8.9491124e-39
-0.10727525 -0.28949618 1.5430001 1.2452546e-38
-0.10386286 -0.28818285 1.536 1.3739287e-38
-0.11849143 -0.28525713 1.536 6.0885143e-39
-0.11556572 -0.28525713 1.536 2.5115711e-39
-0.11264 -0.28525713 1.536 2.5115711e-39
-0.11021429 -0.28655714 1.5430001 7.1998659e-39
-0.10678857 -0.28525713 1.536 1.2270626e-38
-0.10386286 -0.28525713 1.536 1.43836e-38
-0.10093714 -0.28525713 1.536 1.4014818e-38
-0.13604572 -0.28233144 1.536 7.2953083e-39
-0.12141714 -0.28233144 1.536 1.0423491e-38
-0.11849143 -0.28233144 1.536 5.1683405e-39
-0.11556572 -0.28233144 1.536 2.144976e-39
-0.11264 -0.28233144 1.536 2.6981497e-39
-0.11021429 -0.28361809 1.5430001 5.268452e-39
-0.10678857 -0.28233144 1.536 8.4952991e-39
-0.10386286 -0.28233144 1.536 1.2447492e-38
-0.10093714 -0.28233144 1.536 1.1709927e-38
-0.14548285 -0.28067905 1.5430001 2.3232583e-38
-0.11849143 -0.27940571 1.536 4.7095399e-39
-0.11556572 -0.27940571 1.536 2.6041422e-39
-0.11315334 -0.28067905 1.5430001 3.0651204e-39
-0.11021429 -0.28067905 1.5430001 3.1551524e-39
-0.10727525 -0.28067905 1.5430001 7.3039558e-39
-0.10433619 -0.28067905 1.5430001 1.1528773e-38
-0.10139715 -0.28067905 1.5430001 1.1528773e-38
-0.098458096 -0.28067905 1.5430001 9.4039388e-39
-0.14614287 -0.27900001 1.5500001 2.3325494e-38
-0.14319047 -0.27900001 1.5500001 3.5956296e-39
-0.11609239 -0.27774 1.5430001 5.2717044e-39
-0.11315334 -0.27774 1.5430001 3.7965744e-39
-0.11021429 -0.27774 1.5430001 6.2801026e-39
-0.10727525 -0.27774 1.5430001 1.1443058e-38
-0.10433619 -0.27774 1.5430001 1.4106985e-38
-0.10139715 -0.27774 1.5430001 1.4291376e-38
-0.098458096 -0.27774 1.5430001 1.2445341e-38
-0.14319047 -0.27604762 1.5500001 2.5814776e-39
-0.13960476 -0.27480096 1.5430001 1.1045371e-39
-0.11609239 -0.27480096 1.5430001 9.4107884e-39
-0.11315334 -0.27480096 1.5430001 7.4746802e-39
-0.11021429 -0.27480096 1.5430001 9.2271062e-39
-0.10727525 -0.27480096 1.5430001 1.2638344e-38
-0.10433619 -0.27480096 1.5430001 1.4841676e-38
-0.10139715 -0.27480096 1.5430001 1.4565089e-38
-0.098458096 -0.27480096 1.5430001 1.3829698e-38
-0.14383715 -0.27432859 1.557 1.3829344e-39
-0.11609239 -0.27186191 1.5430001 1.3276897e-38
-0.11315334 -0.27186191 1.5430001 1.3369092e-38
-0.11021429 -0.27186191 1.5430001 1.2450713e-38
-0.10727525 -0.27186191 1.5430001 1.1805344e-38
-0.10433619 -0.27186191 1.5430001 1.1620227e-38
-0.10139715 -0.27186191 1.5430001 1.1251444e-38
-0.098458096 -0.27186191 1.5430001 1.2079773e-38
-0.084142864 -0.27309522 1.5500001 3.786883e-39
-0.078591429 -0.27432859 1.557 9.965725e-39
-0.14383715 -0.27136284 1.557 3.5034339e-39
-0.14087144 -0.27136284 1.557 9.7216482e-41
-0.13728572 -0.27014288 1.5500001 5.5367544e-39
-0.13197428 -0.27136284 1.557 1.0785794e-38
-0.1254762 -0.27014288 1.5500001 7.1901479e-39
-0.11609239 -0.26892287 1.5430001 1.4102666e-38
-0.11315334 -0.26892287 1.5430001 1.530121e-38
-0.11021429 -0.26892287 1.5430001 1.3188281e-38
-0.10727525 -0.26892287 1.5430001 1.0422412e-38
-0.10433619 -0.26892287 1.5430001 9.3214696e-39
-0.10139715 -0.26892287 1.5430001 8.9526871e-39
-0.098458096 -0.26892287 1.5430001 1.0332372e-38
-0.084142864 -0.27014288 1.5500001 2.870637e-39
-0.081190482 -0.27014288 1.5500001 4.1624156e-39
-0.072986677 -0.27258289 1.5640001 1.4363309e-42
-0.14383715 -0.26839715 1.557 6.3614985e-39
-0.14087144 -0.26839715 1.557 9.6511629e-41
-0.13728572 -0.26719049 1.5500001 4.5219019e-39
-0.12842858 -0.26719049 1.5500001 8.7578407e-39
-0.11315334 -0.26598382 1.5430001 1.4290614e-38
-0.11021429 -0.26598382 1.5430001 1.2451064e-38
-0.10727525 -0.26598382 1.5430001 1.0146173e-38
-0.10433619 -0.26598382 1.5430001 8.8626621e-39
-0.10139715 -0.26598382 1.5430001 8.6782708e-39
-0.098458096 -0.26598382 1.5430001 1.0147986e-38
-0.081190482 -0.26719049 1.5500001 4.8056788e-39
-0.12604286 -0.26543143 1.557 7.6515184e-39
-0.11021429 -0.26304477 1.5430001 1.1807142e-38
-0.10727525 -0.26304477 1.5430001 9.8710336e-39
-0.10433619 -0.26304477 1.5430001 8.678268e-39
-0.10139715 -0.26304477 1.5430001 8.4016811e-39
-0.098458096 -0.26304477 1.5430001 9.9635922e-39
-0.075625718 -0.26543143 1.557 1.1986126e-38
-0.12900858 -0.26246572 1.557 1.0234444e-38
-0.12604286 -0.26246572 1.557 7.4685747e-39
-0.11661905 -0.26128572 1.5500001 1.3276864e-38
-0.11366667 -0.26128572 1.5500001 1.3645647e-38
-0.11021429 -0.26010573 1.5430001 1.2266322e-38
-0.10727525 -0.26010573 1.5430001 1.1528757e-38
-0.10433619 -0.26010573 1.5430001 1.0977394e-38
-0.10139715 -0.26010573 1.5430001 1.0793003e-38
-0.098458096 -0.26010573 1.5430001 1.1896814e-38
-0.086701907 -0.26010573 1.5430001 1.0607539e-38
-0.078591429 -0.26246572 1.557 1.116035e-38
-0.12604286 -0.2595 1.557 9.6844914e-39
-0.12307715 -0.2595 1.557 1.0047529e-38
-0.11957143 -0.25833333 1.5500001 1.3458767e-38
-0.11661905 -0.25833333 1.5500001 1.3644222e-38
-0.11366667 -0.25833333 1.5500001 1.2353483e-38
-0.11071429 -0.25833333 1.5500001 1.1804966e-38
-0.1077619 -0.25833333 1.5500001 1.2450335e-38
-0.10480952 -0.25833333 1.5500001 1.2447852e-38
-0.10185715 -0.25833333 1.5500001 1.290883e-38
-0.098904766 -0.25833333 1.5500001 1.3093925e-38
-0.13324572 -0.2590057 1.572 9.0391122e-39
-0.12307715 -0.25653428 1.557 1.30907e-38
-0.11071429 -0.25538096 1.5500001 6.8318275e-39
-0.1077619 -0.25538096 1.5500001 1.1626e-38
-0.10480952 -0.25538096 1.5500001 1.3737149e-38
-0.10185715 -0.25538096 1.5500001 1.4382518e-38
-0.098904766 -0.25538096 1.5500001 1.3459821e-38
-0.095952384 -0.25538096 1.5500001 8.8500392e-39
-0.093000002 -0.25538096 1.5500001 8.4819629e-39
-0.1077619 -0.25242859 1.5500001 8.7743747e-39
-0.10480952 -0.25242859 1.5500001 1.3737855e-38
-0.10185715 -0.25242859 1.5500001 1.4198833e-38
-0.098904766 -0.25242859 1.5500001 1.2260927e-38
-0.095952384 -0.25242859 1.5500001 8.2043194e-39
-0.1077619 -0.24947619 1.5500001 3.8941622e-39
-0.10480952 -0.24947619 1.5500001 1.180387e-38
-0.10185715 -0.24947619 1.5500001 1.2818022e-38
-0.098904766 -0.24947619 1.5500001 1.1891745e-38
-0.095952384 -0.24947619 1.5500001 8.0195288e-39
-0.093419999 -0.25060284 1.557 7.5607479e-39
-0.090454288 -0.25060284 1.557 7.5607479e-39
-0.076354288 -0.25301713 1.572 8.8547209e-39
-0.067028575 -0.25172952 1.5640001 2.3508451e-38
-0.10480952 -0.24652381 1.5500001 1.1157431e-38
-0.10185715 -0.24652381 1.5500001 1.2909148e-38
-0.099351428 -0.24763715 1.557 1.069468e-38
-0.096385717 -0.24763715 1.557 7.4678334e-39
-0.093419999 -0.24763715 1.557 7.7450747e-39
-0.090454288 -0.24763715 1.557 8.9436179e-39
-0.1077619 -0.24357145 1.5500001 1.0707628e-38
-0.10480952 -0.24357145 1.5500001 1.3647792e-38
-0.10185715 -0.24357145 1.5500001 1.410877e-38
-0.099351428 -0.24467142 1.557 1.3276158e-38
-0.096385717 -0.24467142 1.557 9.4961373e-39
-0.093419999 -0.24467142 1.557 9.4968141e-39
-0.064377144 -0.24702857 1.572 2.341769e-38
-0.10824858 -0.24170572 1.557 1.2545443e-38
-0.10528286 -0.24170572 1.557 1.3923678e-38
-0.10231715 -0.24170572 1.557 1.3370505e-38
-0.099351428 -0.24170572 1.557 1.3555985e-38
-0.096385717 -0.24170572 1.557 1.1988659e-38
-0.093840003 -0.2427924 1.5640001 1.0509586e-38
-0.064377144 -0.24403428 1.572 2.341769e-38
-0.1465162 -0.24318667 1.5860001 2.341769e-38
-0.10528286 -0.23874 1.557 1.0884129e-38
-0.10231715 -0.23874 1.557 1.0330955e-38
-0.099351428 -0.23874 1.557 1.2172322e-38
-0.096385717 -0.23874 1.557 1.410843e-38
-0.093840003 -0.23981334 1.5640001 1.4014073e-38
-0.090860955 -0.23981334 1.5640001 1.1063813e-38
-0.085337147 -0.24104001 1.572 3.6964824e-39
-0.14725524 -0.24137716 1.5940001 2.341769e-38
-0.13083144 -0.23910573 1.5790001 1.0419188e-38
-0.10528286 -0.23577429 1.557 9.3207564e-39
-0.10231715 -0.23577429 1.557 9.1363651e-39
-0.099351428 -0.23577429 1.557 1.0423832e-38
-0.096385717 -0.23577429 1.557 1.3466288e-38
-0.093840003 -0.2368343 1.5640001 1.3371616e-38
-0.090860955 -0.2368343 1.5640001 8.3008563e-39
-0.087881915 -0.2368343 1.5640001 4.7152684e-39
-0.070679054 -0.23910573 1.5790001 1.4563675e-38
-0.14349525 -0.23714477 1.5860001 2.341769e-38
-0.13443239 -0.23714477 1.5860001 9.8685169e-39
-0.12782381 -0.23609811 1.5790001 7.7462154e-39
-0.11121429 -0.23280858 1.557 1.383149e-38
-0.10231715 -0.23280858 1.557 9.0452513e-39
-0.099351428 -0.23280858 1.557 1.0239441e-38
-0.096819058 -0.23385525 1.5640001 1.300531e-38
-0.093840003 -0.23385525 1.5640001 1.272873e-38
-0.090860955 -0.23385525 1.5640001 7.1969918e-39
-0.087881915 -0.23385525 1.5640001 2.1438928e-39
-0.13443239 -0.23412383 1.5860001 9.5033175e-39
-0.10277715 -0.23087621 1.5640001 9.0452387e-39
-0.099798106 -0.23087621 1.5640001 9.7799016e-39
-0.096819058 -0.23087621 1.5640001 1.2545771e-38
-0.093840003 -0.23087621 1.5640001 1.263725e-38
-0.090860955 -0.23087621 1.5640001 8.672838e-39
-0.10277715 -0.22789717 1.5640001 1.1530908e-38
-0.099798106 -0.22789717 1.5640001 1.2450335e-38
-0.096819058 -0.22789717 1.5640001 1.3003509e-38
-0.093840003 -0.22789717 1.5640001 1.3185379e-38
-0.090860955 -0.22789717 1.5640001 1.3185379e-38
-0.14349525 -0.22808191 1.5860001 2.341769e-38
-0.10277715 -0.22491811 1.5640001 1.3553811e-38
-0.099798106 -0.22491811 1.5640001 1.3554906e-38
-0.096819058 -0.22491811 1.5640001 1.1342211e-38
-0.093840003 -0.22491811 1.5640001 1.2256576e-38
-0.091325715 -0.22606857 1.572 1.3455119e-38
-0.088331431 -0.22606857 1.572 1.4010108e-38
-0.14349525 -0.22506095 1.5860001 2.341769e-38
-0.13141143 -0.22506095 1.5860001 8.7632287e-39
-0.097314283 -0.22307429 1.572 8.9425851e-39
-0.094319999 -0.22307429 1.572 8.6645745e-39
-0.091325715 -0.22307429 1.572 9.4943352e-39
-0.088331431 -0.22307429 1.572 1.1798848e-38
-0.085337147 -0.22307429 1.572 1.3550565e-38
-0.1398543 -0.22106002 1.5790001 1.5765453e-38
-0.097314283 -0.22008 1.572 8.2961591e-39
-0.094319999 -0.22008 1.572 7.3770545e-39
-0.091325715 -0.22008 1.572 8.1146195e-39
-0.088331431 -0.22008 1.572 1.0048933e-38
-0.085337147 -0.22008 1.572 1.2999193e-38
-0.082342856 -0.22008 1.572 1.0055075e-38
-0.10030857 -0.21708572 1.572 1.2536773e-38
-0.097314283 -0.21708572 1.572 8.2035782e-39
-0.094319999 -0.21708572 1.572 7.4699844e-39
-0.091325715 -0.21708572 1.572 8.2075494e-39
-0.088331431 -0.21708572 1.572 1.0508504e-38
-0.085337147 -0.21708572 1.572 1.3366568e-38
-0.082709529 -0.2180524 1.5790001 1.1987565e-38
-0.079701908 -0.2180524 1.5790001 9.6826739e-39
-0.12839049 -0.21599811 1.5860001 9.5036706e-39
-0.10030857 -0.21409144 1.572 1.2445318e-38
-0.097314283 -0.21409144 1.572 8.1121238e-39
-0.094319999 -0.21409144 1.572 7.5614219e-39
-0.091325715 -0.21409144 1.572 9.1287476e-39
-0.088331431 -0.21409144 1.572 1.2074002e-38
-0.085337147 -0.21409144 1.572 1.3272546e-38
-0.082709529 -0.21504477 1.5790001 1.2445694e-38
-0.076694295 -0.21504477 1.5790001 8.4826594e-39
-0.13141143 -0.21297714 1.5860001 7.4743074e-39
-0.12839049 -0.21297714 1.5860001 1.0977741e-38
-0.12481619 -0.21203716 1.5790001 1.2354202e-38
-0.10030857 -0.21109715 1.572 1.4013348e-38
-0.097314283 -0.21109715 1.572 1.1339674e-38
-0.094740003 -0.21203716 1.5790001 1.1525121e-38
-0.09173239 -0.21203716 1.5790001 1.281586e-38
-0.088724762 -0.21203716 1.5790001 1.1340047e-38
-0.085717149 -0.21203716 1.5790001 9.9571126e-39
-0.080055244 -0.21297714 1.5860001 9.0355501e-39
-0.13875334 -0.21194191 1.6010001 1.226711e-38
-0.13511048 -0.21101524 1.5940001 3.969503e-39
-0.1320743 -0.21101524 1.5940001 7.5650359e-39
-0.1290381 -0.21101524 1.5940001 1.1990426e-38
-0.10030857 -0.20810287 1.572 1.3461991e-38
-0.094740003 -0.20902954 1.5790001 1.2537527e-38
-0.09173239 -0.20902954 1.5790001 1.226094e-38
-0.088724762 -0.20902954 1.5790001 1.0789021e-38
-0.085717149 -0.20902954 1.5790001 8.2997395e-39
-0.077034287 -0.2099562 1.5860001 8.1109804e-39
-0.13875334 -0.20889239 1.6010001 1.2912119e-38
-0.13570382 -0.20889239 1.6010001 5.5790456e-40
-0.12536952 -0.20693524 1.5860001 1.0692134e-38
-0.094740003 -0.20602192 1.5790001 1.3738581e-38
-0.09173239 -0.20602192 1.5790001 9.497582e-39
-0.088724762 -0.20602192 1.5790001 4.3465238e-39
-0.085717149 -0.20602192 1.5790001 2.9635893e-39
-0.13875334 -0.20584287 1.6010001 1.5123721e-38
-0.13570382 -0.20584287 1.6010001 5.5681155e-40
-0.094740003 -0.20301428 1.5790001 1.2360711e-38
-0.09173239 -0.20301428 1.5790001 6.2757993e-39
-0.088724762 -0.20301428 1.5790001 7.6344842e-40
-0.085717149 -0.20301428 1.5790001 8.5564405e-40
-0.13570382 -0.20279334 1.6010001 2.3067335e-39
-0.094740003 -0.20000668 1.5790001 1.2360681e-38
-0.09173239 -0.20000668 1.5790001 7.3821174e-39
-0.089118101 -0.20089334 1.5860001 2.0520671e-39
-0.086097151 -0.20089334 1.5860001 2.328654e-39
-0.083076194 -0.20089334 1.5860001 8.8525657e-39
-0.11932763 -0.19787239 1.5860001 7.0064461e-39
-0.097747624 -0.19699906 1.5790001 1.2914559e-38
-0.094740003 -0.19699906 1.5790001 1.3004613e-38
-0.09173239 -0.19699906 1.5790001 9.5011791e-39
-0.089118101 -0.19787239 1.5860001 6.6484998e-39
-0.086097151 -0.19787239 1.5860001 6.5563042e-39
-0.083076194 -0.19787239 1.5860001 1.1063435e-38
-0.13570382 -0.19669428 1.6010001 9.2188848e-39
-0.10724381 -0.19485143 1.5860001 1.3095377e-38
-0.10422286 -0.19485143 1.5860001 1.1251464e-38
-0.089118101 -0.19485143 1.5860001 1.2910227e-38
-0.086097151 -0.19485143 1.5860001 1.1527293e-38
-0.10422286 -0.19183049 1.5860001 1.3276524e-38
-0.074713334 -0.19364478 1.6010001 1.419627e-38
-0.12655525 -0.18754572 1.6010001 1.3733524e-38
-0.13331714 -0.1854181 1.6090001 1.0598888e-38
-0.13025239 -0.1854181 1.6090001 1.3180365e-38
-0.12655525 -0.18449619 1.6010001 1.3365817e-38
