# .PCD v0.7 - Point Cloud Data file format
VERSION 0.7
FIELDS x y z rgb
SIZE 4 4 4 4
TYPE F F F F
COUNT 1 1 1 1
WIDTH 136
HEIGHT 1
VIEWPOINT 0 0 0 1 0 0 0
POINTS 136
DATA ascii
0.15517333 -0.55822098 2.1160002 1.1429715e-38
0.15920383 -0.55822098 2.1160002 1.1706302e-38
0.15114287 -0.55419052 2.1160002 1.2073993e-38
0.15517333 -0.55419052 2.1160002 1.2534618e-38
0.1471124 -0.55016005 2.1160002 1.4197389e-38
0.15114287 -0.55016005 2.1160002 1.3552019e-38
0.15517333 -0.55016005 2.1160002 1.3643123e-38
0.15920383 -0.55016005 2.1160002 1.3550927e-38
0.1471124 -0.54612952 2.1160002 1.3922969e-38
0.15114287 -0.54612952 2.1160002 1.2908818e-38
0.15517333 -0.54612952 2.1160002 1.3093186e-38
0.15920383 -0.54612952 2.1160002 1.2355621e-38
0.16323429 -0.54612952 2.1160002 1.1249652e-38
0.16726477 -0.54612952 2.1160002 1.1341848e-38
0.1471124 -0.54209906 2.1160002 1.2817711e-38
0.15114287 -0.54209906 2.1160002 1.1803559e-38
0.15612668 -0.54542959 2.1290002 1.1712047e-38
0.16323429 -0.54209906 2.1160002 8.7618092e-39
0.16726477 -0.54209906 2.1160002 9.2227874e-39
0.15612668 -0.54137433 2.1290002 1.1345085e-38
0.16726477 -0.53806859 2.1160002 8.1189537e-39
0.15207145 -0.53731912 2.1290002 1.2082306e-38
0.15612668 -0.53731912 2.1290002 1.1804966e-38
0.087760955 -0.53677046 2.1430001 8.301159e-39
0.1430819 -0.53000766 2.1160002 8.0271084e-39
0.15207145 -0.53326386 2.1290002 1.189788e-38
0.15612668 -0.53326386 2.1290002 1.1067426e-38
0.16323429 -0.53000766 2.1160002 8.0249602e-39
0.087760955 -0.53268862 2.1430001 8.7614365e-39
0.1430819 -0.52597719 2.1160002 1.1250709e-38
0.1480162 -0.5292086 2.1290002 1.143583e-38
0.15207145 -0.5292086 2.1290002 1.2357786e-38
0.15612668 -0.5292086 2.1290002 1.1436221e-38
0.16323429 -0.52597719 2.1160002 8.3930267e-39
0.08367905 -0.52860671 2.1430001 6.8220983e-39
0.1480162 -0.5251534 2.1290002 1.2080479e-38
0.15207145 -0.5251534 2.1290002 1.1527305e-38
0.15517333 -0.52194673 2.1160002 1.1160363e-38
0.15920383 -0.52194673 2.1160002 8.855472e-39
0.16323429 -0.52194673 2.1160002 9.0387436e-39
0.08367905 -0.52452481 2.1430001 7.8380957e-39
0.13905144 -0.51791626 2.1160002 1.401662e-38
0.14396097 -0.52109814 2.1290002 1.1250751e-38
0.1480162 -0.52109814 2.1290002 6.6485446e-39
0.15207145 -0.52109814 2.1290002 5.6343927e-39
0.15920383 -0.51791626 2.1160002 6.7371529e-39
0.14396097 -0.51704288 2.1290002 9.1349456e-39
0.1480162 -0.51704288 2.1290002 1.9634392e-39
0.15207145 -0.51704288 2.1290002 2.5166129e-39
0.15612668 -0.51704288 2.1290002 7.7534461e-39
0.13990572 -0.51298761 2.1290002 1.3742897e-38
0.14396097 -0.51298761 2.1290002 9.9628762e-39
0.1480162 -0.51298761 2.1290002 7.0205095e-39
0.15207145 -0.51298761 2.1290002 7.8502702e-39
0.15612668 -0.51298761 2.1290002 9.5044217e-39
0.13990572 -0.50893241 2.1290002 1.383507e-38
0.14396097 -0.50893241 2.1290002 1.1069201e-38
0.1480162 -0.50893241 2.1290002 9.8703274e-39
0.15207145 -0.50893241 2.1290002 1.0607892e-38
0.15612668 -0.50893241 2.1290002 1.0977028e-38
0.13585047 -0.50487715 2.1290002 1.1436577e-38
0.13990572 -0.50487715 2.1290002 1.0793318e-38
0.14396097 -0.50487715 2.1290002 1.1899665e-38
0.1480162 -0.50487715 2.1290002 1.1898631e-38
0.15207145 -0.50487715 2.1290002 1.1068871e-38
0.13585047 -0.50082195 2.1290002 9.1299037e-39
0.14898953 -0.50411528 2.1430001 1.2818792e-38
0.13585047 -0.49676669 2.1290002 7.8412851e-39
0.14490764 -0.50003338 2.1430001 1.0240176e-38
0.14898953 -0.50003338 2.1430001 1.2359218e-38
0.14082572 -0.49595144 2.1430001 9.219563e-39
0.14490764 -0.49595144 2.1430001 1.1524454e-38
0.14898953 -0.49595144 2.1430001 1.2634379e-38
0.14082572 -0.49186954 2.1430001 1.3371941e-38
0.14490764 -0.49186954 2.1430001 1.1343637e-38
0.14898953 -0.49186954 2.1430001 1.1160328e-38
0.13674381 -0.4877876 2.1430001 1.4295733e-38
0.14082572 -0.4877876 2.1430001 1.45705e-38
0.14490764 -0.4877876 2.1430001 9.0387619e-39
0.14898953 -0.4877876 2.1430001 8.8536223e-39
0.13674381 -0.48370573 2.1430001 1.3743998e-38
0.14082572 -0.48370573 2.1430001 1.3373739e-38
0.14490764 -0.48370573 2.1430001 7.381023e-39
0.14898953 -0.48370573 2.1430001 7.0147362e-39
0.13266191 -0.47962385 2.1430001 1.1624565e-38
0.13674381 -0.47962385 2.1430001 1.2823108e-38
0.14082572 -0.47962385 2.1430001 1.2728392e-38
0.14490764 -0.47962385 2.1430001 7.9342192e-39
0.14898953 -0.47962385 2.1430001 7.7476251e-39
0.13266191 -0.47554192 2.1430001 1.4019822e-38
0.13674381 -0.47554192 2.1430001 1.3190061e-38
0.14082572 -0.47554192 2.1430001 1.3095379e-38
0.14490764 -0.47554192 2.1430001 1.1896836e-38
0.14898953 -0.47554192 2.1430001 1.180641e-38
0.12858 -0.47146001 2.1430001 1.4299285e-38
0.13266191 -0.47146001 2.1430001 1.4754904e-38
0.13674381 -0.47146001 2.1430001 1.2450013e-38
0.14082572 -0.47146001 2.1430001 1.1161041e-38
0.14490764 -0.47146001 2.1430001 1.2359584e-38
0.12858 -0.46737814 2.1430001 1.3559559e-38
0.13266191 -0.46737814 2.1430001 1.3465947e-38
0.14898953 -0.46737814 2.1430001 1.2451079e-38
0.089440003 -0.47216001 2.184 4.9753396e-39
0.12858 -0.4632962 2.1430001 1.3004927e-38
0.13266191 -0.4632962 2.1430001 1.1532385e-38
0.13674381 -0.4632962 2.1430001 8.3977337e-39
0.14082572 -0.4632962 2.1430001 9.9650019e-39
0.17864001 -0.46610668 2.1560001 1.1799637e-38
0.12858 -0.4592143 2.1430001 1.4204967e-38
0.13266191 -0.4592143 2.1430001 1.392656e-38
0.13674381 -0.4592143 2.1430001 9.6855606e-39
0.14082572 -0.4592143 2.1430001 1.0791931e-38
0.14490764 -0.4592143 2.1430001 1.3189017e-38
0.12858 -0.45513242 2.1430001 1.4295365e-38
0.13266191 -0.45513242 2.1430001 1.4477951e-38
0.13674381 -0.45513242 2.1430001 1.3279408e-38
0.14082572 -0.45513242 2.1430001 1.079517e-38
0.14490764 -0.45513242 2.1430001 1.079517e-38
0.12936001 -0.4537867 2.1560001 1.1806801e-38
0.13266191 -0.45105049 2.1430001 1.245396e-38
0.13674381 -0.45105049 2.1430001 1.3468112e-38
0.14082572 -0.45105049 2.1430001 1.1345843e-38
0.12936001 -0.44968003 2.1560001 9.5073154e-39
0.13266191 -0.44696859 2.1430001 9.695287e-39
0.13674381 -0.44696859 2.1430001 1.1631395e-38
0.14082572 -0.44696859 2.1430001 1.0428558e-38
0.12936001 -0.44557336 2.1560001 1.1072098e-38
0.13346668 -0.44557336 2.1560001 1.1995499e-38
0.13674381 -0.44288671 2.1430001 1.365502e-38
0.14082572 -0.44288671 2.1430001 1.189972e-38
0.13346668 -0.44146669 2.1560001 1.392549e-38
0.13757335 -0.44146669 2.1560001 1.5216229e-38
0.13346668 -0.43736002 2.1560001 1.5675408e-38
0.13757335 -0.43736002 2.1560001 1.6320777e-38
0.1302 -0.43606669 2.1700001 1.6319693e-38
0.1302 -0.43193334 2.1700001 1.6872507e-38
