# .PCD v0.7 - Point Cloud Data file format
VERSION 0.7
FIELDS x y z rgb
SIZE 4 4 4 4
TYPE F F F F
COUNT 1 1 1 1
WIDTH 531
HEIGHT 1
VIEWPOINT 0 0 0 1 0 0 0
POINTS 531
DATA ascii
-0.068039998 -0.27077141 1.4580001 2.341769e-38
-0.065531433 -0.27188572 1.4640001 2.341769e-38
-0.05716572 -0.27188572 1.4640001 2.341769e-38
-0.040600002 -0.273 1.47 1.871931e-38
-0.0546 -0.27019998 1.47 1.0790113e-38
-0.040600002 -0.27019998 1.47 1.1157807e-38
-0.057399999 -0.26740003 1.47 1.2073283e-38
-0.023799999 -0.26740003 1.47 1.4010486e-38
-0.059657145 -0.24525715 1.3920001 1.4654401e-38
-0.056800954 -0.24437618 1.3870001 1.447037e-38
-0.062577151 -0.24365143 1.3980001 1.437818e-38
-0.059657145 -0.24260572 1.3920001 1.437818e-38
-0.056800954 -0.2417343 1.3870001 1.4929909e-38
-0.033142861 -0.24260572 1.3920001 1.6313566e-38
-0.03049143 -0.24260572 1.3920001 1.631249e-38
-0.068485714 -0.24305716 1.4100001 1.2813674e-38
-0.065520003 -0.24202286 1.404 1.3827825e-38
-0.062577151 -0.2409886 1.3980001 1.3825016e-38
-0.059657145 -0.23995429 1.3920001 1.290306e-38
-0.057005715 -0.23995429 1.3920001 1.3640978e-38
-0.054159053 -0.23909239 1.3870001 1.5116108e-38
-0.035794288 -0.23995429 1.3920001 1.5393408e-38
-0.033142861 -0.23995429 1.3920001 1.640756e-38
-0.03049143 -0.23995429 1.3920001 1.5301215e-38
-0.027840002 -0.23995429 1.3920001 1.1244607e-38
-0.025297144 -0.2409886 1.3980001 1.1337519e-38
-0.071171433 -0.24037144 1.4100001 9.5955131e-39
-0.068485714 -0.24037144 1.4100001 1.2169788e-38
-0.065520003 -0.23934858 1.404 1.3644918e-38
-0.062845714 -0.23934858 1.404 1.2907378e-38
-0.059914287 -0.23832573 1.3980001 1.1063466e-38
-0.054354288 -0.23730287 1.3920001 1.3276133e-38
-0.051517144 -0.23645048 1.3870001 1.1896836e-38
-0.048875242 -0.23645048 1.3870001 8.3934023e-39
-0.046233334 -0.23645048 1.3870001 8.1246963e-39
-0.038445719 -0.23730287 1.3920001 1.32776e-38
-0.035794288 -0.23730287 1.3920001 1.4287058e-38
-0.033142861 -0.23730287 1.3920001 1.5577796e-38
-0.03049143 -0.23730287 1.3920001 1.4381076e-38
-0.027840002 -0.23730287 1.3920001 1.0693251e-38
-0.071171433 -0.23768574 1.4100001 9.6841257e-39
-0.068485714 -0.23768574 1.4100001 1.1524441e-38
-0.065520003 -0.23667429 1.404 1.134005e-38
-0.062845714 -0.23667429 1.404 8.7571681e-39
-0.059914287 -0.23566286 1.3980001 7.4664293e-39
-0.04905143 -0.23465145 1.3920001 1.5210496e-38
-0.046399999 -0.23465145 1.3920001 1.438572e-38
-0.043748572 -0.23465145 1.3920001 1.438572e-38
-0.041097146 -0.23465145 1.3920001 1.2912771e-38
-0.038445719 -0.23465145 1.3920001 1.1161054e-38
-0.035794288 -0.23465145 1.3920001 1.1712442e-38
-0.033142861 -0.23465145 1.3920001 1.3464159e-38
-0.03049143 -0.23465145 1.3920001 1.4566191e-38
-0.027840002 -0.23465145 1.3920001 1.5119364e-38
-0.071171433 -0.23500001 1.4100001 9.4089709e-39
-0.068485714 -0.23500001 1.4100001 1.0972722e-38
-0.065520003 -0.23400001 1.404 9.6819831e-39
-0.057005715 -0.23200002 1.3920001 8.0202421e-39
-0.041097146 -0.23200002 1.3920001 1.0980981e-38
-0.038445719 -0.23200002 1.3920001 1.0335612e-38
-0.035794288 -0.23200002 1.3920001 9.693129e-39
-0.033142861 -0.23200002 1.3920001 9.9697159e-39
-0.03049143 -0.23200002 1.3920001 1.3371238e-38
-0.027840002 -0.23200002 1.3920001 1.5676128e-38
-0.068485714 -0.23231429 1.4100001 1.0420239e-38
-0.065800004 -0.23231429 1.4100001 9.0373045e-39
-0.062845714 -0.23132573 1.404 8.2979598e-39
-0.060171429 -0.23132573 1.404 8.0213729e-39
-0.038445719 -0.22934859 1.3920001 1.0245584e-38
-0.035794288 -0.22934859 1.3920001 1.0153391e-38
-0.033142861 -0.22934859 1.3920001 9.6002173e-39
-0.03049143 -0.22934859 1.3920001 1.1712442e-38
-0.012034286 -0.23132573 1.404 3.4346288e-39
-0.0094000008 -0.23231429 1.4100001 9.9628271e-39
-0.0067142858 -0.23231429 1.4100001 1.0976979e-38
-0.077140011 -0.23142003 1.4210001 4.240999e-39
-0.068728574 -0.23044287 1.4150001 1.1156365e-38
-0.065800004 -0.22962858 1.4100001 1.0234409e-38
-0.062845714 -0.22865143 1.404 8.2061425e-39
-0.060171429 -0.22865143 1.404 7.4685775e-39
-0.057251435 -0.22767429 1.3980001 7.0100432e-39
-0.038445719 -0.22669715 1.3920001 9.7856848e-39
-0.035794288 -0.22669715 1.3920001 1.0152669e-38
-0.033142861 -0.22669715 1.3920001 9.7838869e-39
-0.03049143 -0.22669715 1.3920001 1.0977741e-38
-0.025297144 -0.22767429 1.3980001 1.2916386e-38
-0.017382858 -0.22865143 1.404 1.4095717e-39
-0.014708571 -0.22865143 1.404 2.6062652e-39
-0.012034286 -0.22865143 1.404 4.911156e-39
-0.0094000008 -0.22962858 1.4100001 1.1065611e-38
-0.0067142858 -0.22962858 1.4100001 1.1618785e-38
-0.077140011 -0.22871335 1.4210001 5.7161291e-39
-0.065800004 -0.22694287 1.4100001 1.2815518e-38
-0.060171429 -0.22597714 1.404 7.7430232e-39
-0.033142861 -0.22404572 1.3920001 1.1441619e-38
-0.017382858 -0.22597714 1.404 3.7926465e-39
-0.01477143 -0.22694287 1.4100001 5.3617421e-39
-0.0094000008 -0.22694287 1.4100001 1.2631855e-38
-0.0067380955 -0.22774762 1.4150001 1.2539659e-38
-0.080520958 -0.22791526 1.4330001 2.341769e-38
-0.077140011 -0.22600669 1.4210001 1.0141519e-38
-0.065800004 -0.22425716 1.4100001 1.2904466e-38
-0.057497144 -0.22330286 1.404 9.1226758e-39
-0.041451432 -0.22330286 1.404 1.3096814e-38
-0.033142861 -0.2213943 1.3920001 1.2638357e-38
-0.03049143 -0.2213943 1.3920001 1.4934966e-38
-0.027960001 -0.22234859 1.3980001 1.4750575e-38
-0.017382858 -0.22330286 1.404 8.8554622e-39
-0.0094000008 -0.22425716 1.4100001 1.2906647e-38
-0.0067380955 -0.22505239 1.4150001 1.2261277e-38
-0.080520958 -0.22518572 1.4330001 2.341769e-38
-0.077140011 -0.22330002 1.4210001 1.4198127e-38
-0.065800004 -0.22157143 1.4100001 1.1158133e-38
-0.041451432 -0.22062857 1.404 1.4477245e-38
-0.038777143 -0.22062857 1.404 1.4661636e-38
-0.033285718 -0.21968572 1.3980001 1.5122585e-38
-0.03062286 -0.21968572 1.3980001 1.3550985e-38
-0.027960001 -0.21968572 1.3980001 9.309986e-39
-0.025405714 -0.22062857 1.404 1.0229374e-38
-0.017382858 -0.22062857 1.404 1.5118648e-38
-0.01477143 -0.22157143 1.4100001 1.4292809e-38
-0.012085714 -0.22157143 1.4100001 1.1803527e-38
-0.0094000008 -0.22157143 1.4100001 9.5004785e-39
-0.080520958 -0.2224562 1.4330001 2.341769e-38
-0.07746572 -0.22152478 1.427 2.1204995e-38
-0.066033341 -0.21966192 1.4150001 7.662995e-39
-0.063114285 -0.21888573 1.4100001 1.1341848e-38
-0.044314288 -0.21888573 1.4100001 8.4106102e-39
-0.041451432 -0.21795429 1.404 1.4476484e-38
-0.038777143 -0.21795429 1.404 1.6228201e-38
-0.036102857 -0.21795429 1.404 1.6685624e-38
-0.033285718 -0.21702288 1.3980001 1.5118298e-38
-0.03062286 -0.21702288 1.3980001 1.2169823e-38
-0.01477143 -0.21888573 1.4100001 1.5028253e-38
-0.012128572 -0.21966192 1.4150001 1.0418472e-38
-0.083250478 -0.21972668 1.4330001 2.3325494e-38
-0.080520958 -0.21972668 1.4330001 2.341769e-38
-0.07746572 -0.21880667 1.427 2.341769e-38
-0.066033341 -0.21696669 1.4150001 7.8463143e-39
-0.063114285 -0.21620001 1.4100001 9.4078947e-39
-0.055057146 -0.21620001 1.4100001 8.0249701e-39
-0.041451432 -0.21528 1.404 1.0331947e-38
-0.038777143 -0.21528 1.404 1.5679294e-38
-0.036102857 -0.21528 1.404 1.6039872e-38
-0.033285718 -0.21436001 1.3980001 1.0323743e-38
-0.03062286 -0.21436001 1.3980001 9.0351563e-39
-0.025405714 -0.21528 1.404 9.2184686e-39
-0.01477143 -0.21620001 1.4100001 1.4383575e-38
-0.012128572 -0.21696669 1.4150001 9.9581846e-39
-0.080520958 -0.21699716 1.4330001 2.341769e-38
-0.077791438 -0.21699716 1.4330001 2.341769e-38
-0.066033341 -0.21427144 1.4150001 8.0303426e-39
-0.055252384 -0.21427144 1.4150001 5.817335e-39
-0.036102857 -0.21260571 1.404 1.4383983e-38
-0.027960001 -0.21169715 1.3980001 9.2202664e-39
-0.025405714 -0.21260571 1.404 9.402843e-39
-0.022731429 -0.21260571 1.404 8.5730823e-39
-0.017457144 -0.2135143 1.4100001 1.4935633e-38
-0.01477143 -0.2135143 1.4100001 1.3280121e-38
-0.066313341 -0.21247335 1.4210001 7.3889487e-39
-0.055252384 -0.21157621 1.4150001 1.1067078e-38
-0.052371431 -0.21082857 1.4100001 5.3660679e-39
-0.038942859 -0.21082857 1.4100001 1.4852479e-38
-0.036257144 -0.21082857 1.4100001 1.6226406e-38
-0.030754285 -0.20993143 1.404 8.6660389e-39
-0.028080001 -0.20993143 1.404 8.8504301e-39
-0.025514286 -0.21082857 1.4100001 9.5865308e-39
-0.017457144 -0.21082857 1.4100001 1.5762566e-38
-0.01482381 -0.21157621 1.4150001 1.3923691e-38
-0.063606672 -0.20976669 1.4210001 1.1799606e-38
-0.052371431 -0.20814288 1.4100001 9.7820876e-39
-0.049685717 -0.20814288 1.4100001 4.9879149e-39
-0.041628573 -0.20814288 1.4100001 1.1802838e-38
-0.038942859 -0.20814288 1.4100001 1.5767251e-38
-0.036257144 -0.20814288 1.4100001 1.6134573e-38
-0.033571433 -0.20814288 1.4100001 1.34609e-38
-0.030754285 -0.20725715 1.404 1.1063125e-38
-0.028080001 -0.20725715 1.404 8.4816476e-39
-0.022828571 -0.20814288 1.4100001 1.3364738e-38
-0.020142859 -0.20814288 1.4100001 1.48406e-38
-0.017457144 -0.20814288 1.4100001 1.4287426e-38
-0.01482381 -0.20888096 1.4150001 1.3462319e-38
-0.063606672 -0.20706002 1.4210001 1.3826445e-38
-0.052557144 -0.20618573 1.4150001 1.2634404e-38
-0.049861908 -0.20618573 1.4150001 1.1343665e-38
-0.047000002 -0.20545715 1.4100001 1.1991858e-38
-0.044314288 -0.20545715 1.4100001 1.448114e-38
-0.041628573 -0.20545715 1.4100001 1.4753452e-38
-0.038942859 -0.20545715 1.4100001 1.3831495e-38
-0.036257144 -0.20545715 1.4100001 1.4938521e-38
-0.033571433 -0.20545715 1.4100001 1.5676086e-38
-0.025514286 -0.20545715 1.4100001 1.3458732e-38
-0.022828571 -0.20545715 1.4100001 1.5671427e-38
-0.020214286 -0.20618573 1.4150001 1.2079448e-38
-0.017519047 -0.20618573 1.4150001 7.3774707e-39
-0.063606672 -0.20435335 1.4210001 1.3643521e-38
-0.047166668 -0.20349048 1.4150001 1.4656221e-38
-0.044471432 -0.20349048 1.4150001 1.6500134e-38
-0.041628573 -0.20277144 1.4100001 1.4847084e-38
-0.038942859 -0.20277144 1.4100001 1.1804628e-38
-0.036257144 -0.20277144 1.4100001 1.171565e-38
-0.033571433 -0.20277144 1.4100001 1.3375171e-38
-0.025604764 -0.20349048 1.4150001 1.4475077e-38
-0.022909526 -0.20349048 1.4150001 1.3092142e-38
-0.069311425 -0.20249809 1.427 9.6499017e-41
-0.066593334 -0.20249809 1.427 1.0514602e-38
-0.063606672 -0.20164669 1.4210001 1.1523725e-38
-0.060900006 -0.20164669 1.4210001 8.1124868e-39
-0.044471432 -0.20079525 1.4150001 1.3827922e-38
-0.041628573 -0.20008573 1.4100001 1.162419e-38
-0.038942859 -0.20008573 1.4100001 1.0886625e-38
-0.036257144 -0.20008573 1.4100001 1.0796227e-38
-0.033571433 -0.20008573 1.4100001 1.0796227e-38
-0.030885715 -0.20008573 1.4100001 1.4107341e-38
-0.028200002 -0.20008573 1.4100001 1.687321e-38
-0.025604764 -0.20079525 1.4150001 1.4567635e-38
-0.069311425 -0.19978002 1.427 1.0044507e-40
-0.066593334 -0.19978002 1.427 9.2278068e-39
-0.063606672 -0.19894002 1.4210001 1.0420274e-38
-0.060900006 -0.19894002 1.4210001 7.6544051e-39
-0.041776191 -0.1981 1.4150001 9.5087447e-39
-0.039080955 -0.1981 1.4150001 1.0061919e-38
-0.033571433 -0.19740002 1.4100001 9.6924073e-39
-0.030885715 -0.19740002 1.4100001 1.1345811e-38
-0.060900006 -0.19623335 1.4210001 8.7599917e-39
-0.058193337 -0.19623335 1.4210001 8.2990136e-39
-0.041776191 -0.19540478 1.4150001 1.1256146e-38
-0.039080955 -0.19540478 1.4150001 1.0795168e-38
-0.030885715 -0.19471429 1.4100001 1.2449657e-38
-0.064143814 -0.19516096 1.4330001 1.2816246e-38
-0.061157145 -0.19434381 1.427 9.7737905e-39
-0.058193337 -0.19352669 1.4210001 8.3908561e-39
-0.055486672 -0.19352669 1.4210001 7.9298779e-39
-0.044471432 -0.19270954 1.4150001 1.4843108e-38
-0.041776191 -0.19270954 1.4150001 1.1623499e-38
-0.039080955 -0.19270954 1.4150001 1.0885934e-38
-0.030885715 -0.19202857 1.4100001 1.3460565e-38
-0.023006668 -0.19352669 1.4210001 1.1345067e-38
-0.061157145 -0.19162571 1.427 1.2817303e-38
-0.058193337 -0.19082002 1.4210001 1.2813009e-38
-0.055486672 -0.19082002 1.4210001 1.2352031e-38
-0.044471432 -0.1900143 1.4150001 1.5123587e-38
-0.041776191 -0.1900143 1.4150001 1.4570147e-38
-0.039080955 -0.1900143 1.4150001 1.3371603e-38
-0.036385715 -0.1900143 1.4150001 1.3465228e-38
-0.030885715 -0.18934287 1.4100001 1.4936746e-38
-0.028200002 -0.18934287 1.4100001 1.3000638e-38
-0.0094733341 -0.19082002 1.4210001 1.2354902e-38
-0.064143814 -0.18970191 1.4330001 1.0142914e-38
-0.061157145 -0.18890762 1.427 1.2908782e-38
-0.058193337 -0.18811335 1.4210001 1.4101953e-38
-0.052557144 -0.18731906 1.4150001 1.3371591e-38
-0.041776191 -0.18731906 1.4150001 1.5581033e-38
-0.039080955 -0.18731906 1.4150001 1.5212251e-38
-0.036385715 -0.18731906 1.4150001 1.4751679e-38
-0.033690479 -0.18731906 1.4150001 1.5673635e-38
-0.03099524 -0.18731906 1.4150001 1.4844926e-38
-0.028300002 -0.18731906 1.4150001 9.9585573e-39
-0.012231429 -0.18890762 1.427 9.5015477e-39
-0.0068238098 -0.18970191 1.4330001 1.0328043e-38
-0.064143814 -0.18697239 1.4330001 8.5806353e-39
-0.061414286 -0.18697239 1.4330001 1.0424548e-38
-0.058439046 -0.18618953 1.427 1.2723688e-38
-0.041776191 -0.18462382 1.4150001 1.1529414e-38
-0.039080955 -0.18462382 1.4150001 1.6047e-38
-0.036385715 -0.18462382 1.4150001 1.6502655e-38
-0.033690479 -0.18462382 1.4150001 1.3091417e-38
-0.03099524 -0.18462382 1.4150001 9.6805636e-39
-0.012231429 -0.18618953 1.427 9.4075262e-39
-0.0095133334 -0.18618953 1.427 9.5015323e-39
-0.061414286 -0.18424287 1.4330001 8.677154e-39
-0.041776191 -0.18192858 1.4150001 6.4683993e-39
-0.039080955 -0.18192858 1.4150001 1.3290876e-38
-0.036385715 -0.18192858 1.4150001 1.6226456e-38
-0.033690479 -0.18192858 1.4150001 1.0694718e-38
-0.03099524 -0.18192858 1.4150001 9.9535001e-39
-0.012231429 -0.18347143 1.427 8.765049e-39
-0.0095533337 -0.18424287 1.4330001 8.9505137e-39
-0.061414286 -0.18151334 1.4330001 9.04451e-39
-0.044471432 -0.17923334 1.4150001 1.3224138e-39
-0.041776191 -0.17923334 1.4150001 6.0985756e-39
-0.039080955 -0.17923334 1.4150001 1.2183487e-38
-0.036385715 -0.17923334 1.4150001 1.4753449e-38
-0.033690479 -0.17923334 1.4150001 9.3139068e-39
-0.03099524 -0.17923334 1.4150001 8.6670955e-39
-0.014886668 -0.17999335 1.4210001 1.3097493e-38
-0.012231429 -0.18075334 1.427 9.501863e-39
-0.0095533337 -0.18151334 1.4330001 9.5040406e-39
-0.072938092 -0.18028097 1.4450001 1.4288906e-38
-0.070185713 -0.18028097 1.4450001 9.1287995e-39
-0.061414286 -0.17878382 1.4330001 9.7809834e-39
-0.058439046 -0.17803524 1.427 1.2170173e-38
-0.044660006 -0.17728668 1.4210001 1.6890103e-39
-0.041953336 -0.17728668 1.4210001 6.5577587e-39
-0.039246671 -0.17728668 1.4210001 1.3011453e-38
-0.036385715 -0.17653809 1.4150001 1.5398105e-38
-0.033690479 -0.17653809 1.4150001 1.1433693e-38
-0.012282859 -0.17878382 1.4330001 1.0700438e-38
-0.0095533337 -0.17878382 1.4330001 9.4125764e-39
-0.070185713 -0.17752859 1.4450001 8.7618218e-39
-0.061414286 -0.1760543 1.4330001 1.263689e-38
-0.058439046 -0.17531715 1.427 1.3367988e-38
-0.055720955 -0.17531715 1.427 1.3183597e-38
-0.044660006 -0.17458002 1.4210001 9.3221478e-39
-0.041953336 -0.17458002 1.4210001 1.1436602e-38
-0.039246671 -0.17458002 1.4210001 1.4940036e-38
-0.036540005 -0.17458002 1.4210001 1.5581061e-38
-0.033833336 -0.17458002 1.4210001 1.5120083e-38
-0.031126669 -0.17458002 1.4210001 1.2723022e-38
-0.028300002 -0.17384286 1.4150001 9.772762e-39
-0.023103811 -0.17531715 1.427 1.5394146e-38
-0.012282859 -0.1760543 1.4330001 1.3648525e-38
-0.0013761905 -0.17752859 1.4450001 1.3371905e-38
-0.070185713 -0.17477618 1.4450001 8.9473047e-39
-0.061414286 -0.17332478 1.4330001 1.3461969e-38
-0.058684763 -0.17332478 1.4330001 1.2908082e-38
-0.044660006 -0.17187335 1.4210001 1.3553448e-38
-0.041953336 -0.17187335 1.4210001 1.43836e-38
-0.039246671 -0.17187335 1.4210001 1.4567991e-38
-0.036540005 -0.17187335 1.4210001 1.4843131e-38
-0.033833336 -0.17187335 1.4210001 1.5211913e-38
-0.031126669 -0.17187335 1.4210001 1.4935692e-38
-0.014949524 -0.17259905 1.427 1.1711687e-38
-0.012282859 -0.17332478 1.4330001 1.4016578e-38
-0.070185713 -0.1720238 1.4450001 9.408685e-39
-0.061414286 -0.17059524 1.4330001 1.1895722e-38
-0.058684763 -0.17059524 1.4330001 1.0690342e-38
-0.044848572 -0.16988096 1.427 1.5856907e-38
-0.042130474 -0.16988096 1.427 1.4107366e-38
-0.039412383 -0.16988096 1.427 1.2355649e-38
-0.036694285 -0.16988096 1.427 1.171424e-38
-0.033976194 -0.16988096 1.427 1.2359609e-38
-0.031258095 -0.16988096 1.427 1.4199184e-38
-0.023200953 -0.17059524 1.4330001 1.0879069e-38
-0.061414286 -0.16786572 1.4330001 1.1527279e-38
-0.044848572 -0.16716287 1.427 1.5764711e-38
-0.042130474 -0.16716287 1.427 1.3372682e-38
-0.039412383 -0.16716287 1.427 1.1252183e-38
-0.036694285 -0.16716287 1.427 9.7853316e-39
-0.033976194 -0.16716287 1.427 9.5087447e-39
-0.031258095 -0.16716287 1.427 1.3279025e-38
-0.02854 -0.16716287 1.427 1.6598068e-38
-0.055955239 -0.16513619 1.4330001 8.5691461e-39
-0.044848572 -0.16444477 1.427 1.5212594e-38
-0.042130474 -0.16444477 1.427 1.3004969e-38
-0.039412383 -0.16444477 1.427 1.1253252e-38
-0.036694285 -0.16444477 1.427 1.0061924e-38
-0.033976194 -0.16444477 1.427 9.600946e-39
-0.031258095 -0.16444477 1.427 1.2633653e-38
-0.02854 -0.16444477 1.427 1.58605e-38
-0.025821906 -0.16444477 1.427 1.3834714e-38
-0.067433335 -0.16376667 1.4450001 5.5382216e-39
-0.064412385 -0.16308667 1.439 8.6677723e-39
-0.061671425 -0.16308667 1.439 1.2171206e-38
-0.058684763 -0.16240667 1.4330001 1.1245699e-38
-0.055955239 -0.16240667 1.4330001 8.2032432e-39
-0.044848572 -0.16172667 1.427 1.4750562e-38
-0.042130474 -0.16172667 1.427 1.24536e-38
-0.036848571 -0.16240667 1.4330001 9.8775203e-39
-0.034119047 -0.16240667 1.4330001 9.7853246e-39
-0.020557143 -0.16308667 1.439 1.962007e-39
-0.015012382 -0.16240667 1.4330001 9.4075444e-39
-0.067433335 -0.16101429 1.4450001 9.8652855e-39
-0.064412385 -0.16034572 1.439 1.0234403e-38
-0.061671425 -0.16034572 1.439 1.3000272e-38
-0.058684763 -0.15967715 1.4330001 1.2445666e-38
-0.053002857 -0.15900856 1.427 9.8648974e-39
-0.042130474 -0.15900856 1.427 1.3742519e-38
-0.039578099 -0.15967715 1.4330001 1.245178e-38
-0.036848571 -0.15967715 1.4330001 1.1992975e-38
-0.034119047 -0.15967715 1.4330001 1.273054e-38
-0.031389527 -0.15967715 1.4330001 1.4568342e-38
-0.023298094 -0.16034572 1.439 1.2541477e-38
-0.067759998 -0.15902856 1.452 1.0783292e-38
-0.064680949 -0.15826191 1.4450001 1.0509541e-38
-0.061928574 -0.15826191 1.4450001 1.1984671e-38
-0.039578099 -0.15694763 1.4330001 1.4018743e-38
-0.036848571 -0.15694763 1.4330001 1.3187941e-38
-0.034119047 -0.15694763 1.4330001 1.4109897e-38
-0.031389527 -0.15694763 1.4330001 1.5211913e-38
-0.012385714 -0.15826191 1.4450001 1.0241618e-38
-0.067759998 -0.15626286 1.452 8.4787581e-39
-0.061928574 -0.15550953 1.4450001 9.4986708e-39
-0.056189522 -0.1548638 1.439 1.4476121e-38
-0.045037143 -0.15421811 1.4330001 7.0151397e-39
-0.042307623 -0.15421811 1.4330001 1.014869e-38
-0.039578099 -0.15421811 1.4330001 1.5035058e-38
-0.036848571 -0.15421811 1.4330001 1.6410812e-38
-0.034119047 -0.15421811 1.4330001 1.5027878e-38
-0.031389527 -0.15421811 1.4330001 1.2353511e-38
-0.028660001 -0.15421811 1.4330001 8.6656858e-39
-0.068039998 -0.15413144 1.4580001 8.2979472e-39
-0.06499429 -0.15349714 1.452 6.4612373e-39
-0.062228575 -0.15349714 1.452 7.5675848e-39
-0.059176192 -0.15275714 1.4450001 9.8695735e-39
-0.045037143 -0.15148857 1.4330001 2.511934e-39
-0.042307623 -0.15148857 1.4330001 7.202733e-39
-0.039578099 -0.15148857 1.4330001 1.4117405e-38
-0.036848571 -0.15148857 1.4330001 1.6044576e-38
-0.034119047 -0.15148857 1.4330001 1.3463098e-38
-0.031389527 -0.15148857 1.4330001 1.097269e-38
-0.028660001 -0.15148857 1.4330001 8.2990164e-39
-0.068039998 -0.1513543 1.4580001 1.0691052e-38
-0.06499429 -0.15073143 1.452 9.1313078e-39
-0.062228575 -0.15073143 1.452 8.6703297e-39
-0.056189522 -0.14938191 1.439 1.2728735e-38
-0.045037143 -0.14875905 1.4330001 1.6893858e-39
-0.042307623 -0.14875905 1.4330001 5.6397709e-39
-0.039578099 -0.14875905 1.4330001 1.0618335e-38
-0.036848571 -0.14875905 1.4330001 1.3924039e-38
-0.034119047 -0.14875905 1.4330001 9.7752353e-39
-0.031520952 -0.14938191 1.439 8.3905058e-39
-0.028660001 -0.14875905 1.4330001 8.3905058e-39
-0.025930477 -0.14875905 1.4330001 8.4812539e-39
-0.012385714 -0.15000476 1.4450001 8.9508822e-39
-0.0096800001 -0.15073143 1.452 8.950892e-39
-0.068039998 -0.14857715 1.4580001 1.1796684e-38
-0.065262854 -0.14857715 1.4580001 1.0601383e-38
-0.062228575 -0.14796571 1.452 9.3106446e-39
-0.059176192 -0.14725238 1.4450001 8.7632287e-39
-0.056423813 -0.14725238 1.4450001 1.2912032e-38
-0.053448573 -0.14664096 1.439 1.1440187e-38
-0.045225713 -0.14664096 1.439 1.3188012e-39
-0.042484764 -0.14664096 1.439 3.157316e-39
-0.039743807 -0.14664096 1.439 9.5188145e-39
-0.037002858 -0.14664096 1.439 1.3004644e-38
-0.034261905 -0.14664096 1.439 9.8699925e-39
-0.023395238 -0.14725238 1.4450001 1.2079005e-38
-0.012445714 -0.14796571 1.452 9.3189487e-39
-0.0069428575 -0.14857715 1.4580001 1.0146186e-38
-0.065262854 -0.14580001 1.4580001 1.1064166e-38
-0.062228575 -0.1452 1.452 1.0234406e-38
-0.059462857 -0.1452 1.452 1.0695747e-38
-0.053671431 -0.1445 1.4450001 1.4292474e-38
-0.047966667 -0.14390001 1.439 5.9196172e-39
-0.045225713 -0.14390001 1.439 2.9693571e-39
-0.042484764 -0.14390001 1.439 6.8375756e-39
-0.039743807 -0.14390001 1.439 1.3199074e-38
-0.037002858 -0.14390001 1.439 1.6133882e-38
-0.034261905 -0.14390001 1.439 1.4382165e-38
-0.031520952 -0.14390001 1.439 9.9585952e-39
-0.02878 -0.14390001 1.439 7.4693132e-39
-0.012445714 -0.1452 1.452 1.1803186e-38
-0.0096800001 -0.1452 1.452 1.2264507e-38
-0.065262854 -0.14302287 1.4580001 1.1892821e-38
-0.062485714 -0.14302287 1.4580001 1.1892821e-38
-0.059462857 -0.14243428 1.452 1.2444583e-38
-0.047966667 -0.14115904 1.439 1.1071379e-38
-0.045225713 -0.14115904 1.439 7.1991625e-39
-0.042484764 -0.14115904 1.439 9.4118576e-39
-0.039743807 -0.14115904 1.439 1.5035791e-38
-0.037002858 -0.14115904 1.439 1.7421374e-38
-0.034261905 -0.14115904 1.439 1.603844e-38
-0.031520952 -0.14115904 1.439 1.3737136e-38
-0.02878 -0.14115904 1.439 9.9571154e-39
-0.012445714 -0.14243428 1.452 1.3827897e-38
-0.0096800001 -0.14243428 1.452 1.3367622e-38
-0.068320006 -0.14082287 1.4640001 1.2811558e-38
-0.065531433 -0.14082287 1.4640001 1.1983586e-38
-0.062485714 -0.14024572 1.4580001 1.318213e-38
-0.059708573 -0.14024572 1.4580001 1.3458379e-38
-0.056697145 -0.13966858 1.452 1.4933509e-38
-0.045225713 -0.13841809 1.439 1.3922969e-38
-0.042484764 -0.13841809 1.439 1.4659105e-38
-0.039743807 -0.13841809 1.439 1.6779605e-38
-0.037002858 -0.13841809 1.439 1.6961813e-38
-0.034261905 -0.13841809 1.439 1.6961813e-38
-0.031520952 -0.13841809 1.439 1.6501573e-38
-0.02878 -0.13841809 1.439 1.5671812e-38
-0.015211429 -0.13966858 1.452 1.548632e-38
-0.012445714 -0.13966858 1.452 1.4656559e-38
-0.0097200004 -0.14024572 1.4580001 1.2446032e-38
-0.0069428575 -0.14024572 1.4580001 9.4035759e-39
-0.0041657141 -0.14024572 1.4580001 1.0781829e-38
-0.065531433 -0.13803428 1.4640001 1.225837e-38
-0.062742859 -0.13803428 1.4640001 1.3456913e-38
-0.059708573 -0.13746858 1.4580001 1.3641681e-38
-0.042484764 -0.13567714 1.439 1.6223895e-38
-0.039743807 -0.13567714 1.439 1.6777068e-38
-0.037002858 -0.13567714 1.439 1.6777424e-38
-0.034261905 -0.13567714 1.439 1.686962e-38
-0.031520952 -0.13567714 1.439 1.7145856e-38
-0.026039047 -0.13567714 1.439 1.6408995e-38
-0.020642858 -0.13624287 1.4450001 1.6223882e-38
-0.015211429 -0.13690285 1.452 1.5669642e-38
-0.012497144 -0.13746858 1.4580001 1.4932077e-38
-0.0097600007 -0.13803428 1.4640001 1.2628968e-38
-0.0041828575 -0.13803428 1.4640001 1.0045977e-38
-0.065800004 -0.13579999 1.47 1.2442788e-38
-0.062742859 -0.13524573 1.4640001 1.3180353e-38
-0.059708573 -0.13469143 1.4580001 1.3457637e-38
-0.042484764 -0.13293619 1.439 1.6039143e-38
-0.039743807 -0.13293619 1.439 1.6592317e-38
-0.037002858 -0.13293619 1.439 1.6592314e-38
-0.034261905 -0.13293619 1.439 1.6592314e-38
-0.023508571 -0.13413715 1.452 1.6130986e-38
-0.020742858 -0.13413715 1.452 1.6223522e-38
-0.017977143 -0.13413715 1.452 1.6039131e-38
-0.015274285 -0.13469143 1.4580001 1.5761474e-38
-0.012497144 -0.13469143 1.4580001 1.4839518e-38
-0.0097600007 -0.13524573 1.4640001 1.22627e-38
-0.0069714291 -0.13524573 1.4640001 6.1777882e-39
-0.0014000001 -0.13579999 1.47 1.4564348e-38
-0.065800004 -0.133 1.47 1.2534264e-38
-0.062742859 -0.13245715 1.4640001 1.3179634e-38
-0.059954289 -0.13245715 1.4640001 1.354948e-38
-0.048600003 -0.13191429 1.4580001 1.5578515e-38
-0.042661905 -0.13073811 1.4450001 1.6039143e-38
-0.039909527 -0.13073811 1.4450001 1.6684513e-38
-0.037157144 -0.13073811 1.4450001 1.6776705e-38
-0.034404762 -0.13073811 1.4450001 1.668451e-38
-0.03165238 -0.13073811 1.4450001 1.6684157e-38
-0.023508571 -0.13137142 1.452 1.6315377e-38
-0.020742858 -0.13137142 1.452 1.6315361e-38
-0.018051429 -0.13191429 1.4580001 1.5946579e-38
-0.015274285 -0.13191429 1.4580001 1.5853673e-38
-0.012497144 -0.13191429 1.4580001 1.4839521e-38
-0.0097600007 -0.13245715 1.4640001 1.2812997e-38
-0.0069714291 -0.13245715 1.4640001 8.5719977e-39
-0.048600003 -0.12913714 1.4580001 1.5487036e-38
-0.042661905 -0.12798572 1.4450001 1.640757e-38
-0.039909527 -0.12798572 1.4450001 1.6776352e-38
-0.037157144 -0.12798572 1.4450001 1.6685229e-38
-0.034404762 -0.12798572 1.4450001 1.7054011e-38
-0.03165238 -0.12798572 1.4450001 1.686997e-38
-0.028900001 -0.12798572 1.4450001 1.6501188e-38
-0.020742858 -0.12860571 1.452 1.6315361e-38
-0.039909527 -0.12523334 1.4450001 1.6592677e-38
-0.037157144 -0.12523334 1.4450001 1.6317885e-38
-0.034404762 -0.12523334 1.4450001 1.6594472e-38
-0.03165238 -0.12523334 1.4450001 1.6502995e-38
