# .PCD v0.7 - Point Cloud Data file format
VERSION 0.7
FIELDS x y z rgb
SIZE 4 4 4 4
TYPE F F F F
COUNT 1 1 1 1
WIDTH 207
HEIGHT 1
VIEWPOINT 0 0 0 1 0 0 0
POINTS 207
DATA ascii
-0.05160762 -0.37457144 1.748 1.447397e-38
-0.048278097 -0.37457144 1.748 1.5027144e-38
-0.04494857 -0.37457144 1.748 1.2450373e-38
-0.058266666 -0.37124193 1.748 1.208123e-38
-0.05160762 -0.37124193 1.748 1.4844941e-38
-0.048278097 -0.37124193 1.748 1.3277615e-38
-0.04494857 -0.37124193 1.748 9.690971e-39
-0.041619048 -0.37124193 1.748 4.8046026e-39
-0.038289525 -0.37124193 1.748 4.25893e-39
-0.058266666 -0.36791238 1.748 1.0976337e-38
-0.05160762 -0.36791238 1.748 1.3742184e-38
-0.048278097 -0.36791238 1.748 9.3167935e-39
-0.04494857 -0.36791238 1.748 3.9863732e-39
-0.041619048 -0.36791238 1.748 3.1566126e-39
-0.038289525 -0.36791238 1.748 4.44302e-39
-0.021988573 -0.37380573 1.7760001 7.1919528e-39
-0.051873334 -0.36646003 1.7570001 1.2824553e-38
-0.048278097 -0.36458287 1.748 9.2289237e-39
-0.04494857 -0.36458287 1.748 2.424109e-39
-0.041619048 -0.36458287 1.748 1.686544e-39
-0.038486671 -0.36646003 1.7570001 2.5133535e-39
-0.021988573 -0.37042287 1.7760001 8.2061173e-39
-0.051873334 -0.36311334 1.7570001 1.411025e-38
-0.048526671 -0.36311334 1.7570001 1.3833663e-38
-0.045180004 -0.36311334 1.7570001 1.0243108e-38
-0.041833337 -0.36311334 1.7570001 7.0162608e-39
-0.038486671 -0.36311334 1.7570001 7.938538e-39
-0.068958096 -0.36160952 1.766 1.2817669e-38
-0.05522 -0.35976666 1.7570001 1.2911351e-38
-0.051873334 -0.35976666 1.7570001 1.3645647e-38
-0.048526671 -0.35976666 1.7570001 1.4751994e-38
-0.045180004 -0.35976666 1.7570001 1.3925153e-38
-0.041833337 -0.35976666 1.7570001 1.1989044e-38
-0.038486671 -0.35976666 1.7570001 1.0148381e-38
-0.035140004 -0.35976666 1.7570001 1.2453272e-38
-0.05522 -0.35642001 1.7570001 9.7734276e-39
-0.051873334 -0.35642001 1.7570001 9.4968561e-39
-0.048526671 -0.35642001 1.7570001 1.1617356e-38
-0.045180004 -0.35642001 1.7570001 1.2815218e-38
-0.065260001 -0.35307336 1.7570001 1.1986861e-38
-0.05522 -0.35307336 1.7570001 9.587614e-39
-0.051873334 -0.35307336 1.7570001 8.8514839e-39
-0.048526671 -0.35307336 1.7570001 9.3124621e-39
-0.04204762 -0.35488191 1.766 1.5949822e-38
-0.0084095234 -0.35488191 1.766 4.7105965e-39
-0.048775237 -0.35151809 1.766 8.6689101e-39
-0.045411427 -0.35151809 1.766 1.1432939e-38
-0.04204762 -0.35151809 1.766 1.5766134e-38
-0.052139048 -0.34815431 1.766 8.7592729e-39
-0.048775237 -0.34815431 1.766 1.0050012e-38
-0.045411427 -0.34815431 1.766 1.3086019e-38
-0.04204762 -0.34815431 1.766 1.5759692e-38
-0.052139048 -0.34479046 1.766 1.3185353e-38
-0.048775237 -0.34479046 1.766 1.5029265e-38
-0.045411427 -0.34479046 1.766 1.4107373e-38
-0.04204762 -0.34479046 1.766 1.14337e-38
-0.032137144 -0.34674287 1.7760001 1.4016587e-38
-0.028754288 -0.34674287 1.7760001 1.2449262e-38
-0.025500001 -0.34850001 1.7850001 1.1340751e-38
-0.052139048 -0.34142667 1.766 1.4381086e-38
-0.048775237 -0.34142667 1.766 1.5026456e-38
-0.045411427 -0.34142667 1.766 1.2638004e-38
-0.04204762 -0.34142667 1.766 6.645288e-39
-0.038683809 -0.34142667 1.766 7.7573557e-39
-0.032137144 -0.34336001 1.7760001 1.4751679e-38
-0.028754288 -0.34336001 1.7760001 1.1524832e-38
-0.025500001 -0.34510002 1.7850001 1.0048563e-38
-0.055502858 -0.33806285 1.766 1.4479033e-38
-0.052139048 -0.33806285 1.766 1.4477598e-38
-0.048775237 -0.33806285 1.766 1.1250751e-38
-0.045411427 -0.33806285 1.766 5.0902167e-39
-0.04204762 -0.33806285 1.766 2.7853259e-39
-0.038683809 -0.33806285 1.766 4.5362974e-39
-0.028754288 -0.33997717 1.7760001 8.3919701e-39
-0.055502858 -0.33469906 1.766 1.3376998e-38
-0.052139048 -0.33469906 1.766 1.273239e-38
-0.048775237 -0.33469906 1.766 8.7679777e-39
-0.045411427 -0.33469906 1.766 1.4149597e-39
-0.04204762 -0.33469906 1.766 6.7739468e-40
-0.038683809 -0.33469906 1.766 3.8008525e-39
-0.028754288 -0.33659431 1.7760001 7.7491399e-39
-0.055502858 -0.33133525 1.766 1.4110989e-38
-0.052139048 -0.33133525 1.766 1.4386134e-38
-0.048775237 -0.33133525 1.766 1.2542221e-38
-0.045411427 -0.33133525 1.766 6.4699197e-39
-0.04204762 -0.33133525 1.766 4.0728333e-39
-0.038683809 -0.33133525 1.766 7.2049358e-39
-0.028754288 -0.33321145 1.7760001 1.115781e-38
-0.076114289 -0.32982859 1.7760001 1.2905573e-38
-0.072731428 -0.32982859 1.7760001 1.3000638e-38
-0.055502858 -0.32797143 1.766 1.3925162e-38
-0.052139048 -0.32797143 1.766 1.484455e-38
-0.048775237 -0.32797143 1.766 1.4106985e-38
-0.045411427 -0.32797143 1.766 1.1623852e-38
-0.04204762 -0.32797143 1.766 8.5813963e-39
-0.038683809 -0.32797143 1.766 8.7679609e-39
-0.028754288 -0.32982859 1.7760001 1.3459117e-38
-0.073100001 -0.3281 1.7850001 9.5962026e-39
-0.055502858 -0.32460764 1.766 1.1523735e-38
-0.052139048 -0.32460764 1.766 1.106487e-38
-0.048775237 -0.32460764 1.766 1.3369761e-38
-0.045411427 -0.32460764 1.766 1.3922279e-38
-0.04204762 -0.32460764 1.766 1.4752039e-38
-0.038683809 -0.32460764 1.766 1.3465594e-38
-0.073100001 -0.32470003 1.7850001 5.3620672e-39
-0.069348581 -0.3230629 1.7760001 5.5464584e-39
-0.055502858 -0.32124379 1.766 1.0230491e-38
-0.052139048 -0.32124379 1.766 9.3116998e-39
-0.048775237 -0.32124379 1.766 1.0971221e-38
-0.045411427 -0.32124379 1.766 1.4747685e-38
-0.04204762 -0.32124379 1.766 1.6591598e-38
-0.038683809 -0.32124379 1.766 1.4200663e-38
-0.073100001 -0.32130003 1.7850001 5.3639001e-39
-0.069700003 -0.32130003 1.7850001 4.3497481e-39
-0.052434288 -0.31968004 1.7760001 8.5756257e-39
-0.049051434 -0.31968004 1.7760001 9.1287995e-39
-0.045668576 -0.31968004 1.7760001 1.207794e-38
-0.042285718 -0.31968004 1.7760001 1.5212591e-38
-0.069700003 -0.3179 1.7850001 5.2666668e-39
-0.052434288 -0.31629717 1.7760001 9.2209545e-39
-0.049051434 -0.31629717 1.7760001 1.0235106e-38
-0.045668576 -0.31629717 1.7760001 1.2444227e-38
-0.042285718 -0.31629717 1.7760001 1.4933509e-38
-0.069700003 -0.3145 1.7850001 1.0974877e-38
-0.055817146 -0.31291431 1.7760001 1.1893924e-38
-0.052434288 -0.31291431 1.7760001 1.207759e-38
-0.049051434 -0.31291431 1.7760001 1.4566872e-38
-0.045668576 -0.31291431 1.7760001 1.4199559e-38
-0.042285718 -0.31291431 1.7760001 1.3646385e-38
-0.03890286 -0.31291431 1.7760001 1.3188644e-38
-0.069700003 -0.31110004 1.7850001 1.438179e-38
-0.06596572 -0.30953145 1.7760001 1.3464881e-38
-0.055817146 -0.30953145 1.7760001 1.3554187e-38
-0.052434288 -0.30953145 1.7760001 1.3548464e-38
-0.049051434 -0.30953145 1.7760001 1.5300181e-38
-0.045668576 -0.30953145 1.7760001 1.3465591e-38
-0.059500001 -0.30770001 1.7850001 1.1896839e-38
-0.055817146 -0.30614859 1.7760001 1.4754904e-38
-0.052434288 -0.30614859 1.7760001 1.5213373e-38
-0.049051434 -0.30614859 1.7760001 1.2447504e-38
-0.045668576 -0.30614859 1.7760001 7.2957147e-39
-0.042285718 -0.30614859 1.7760001 4.6220415e-39
-0.03890286 -0.30614859 1.7760001 7.8463395e-39
-0.028754288 -0.30614859 1.7760001 6.8238863e-39
-0.055817146 -0.30276573 1.7760001 1.3562471e-38
-0.052434288 -0.30276573 1.7760001 1.3836582e-38
-0.049051434 -0.30276573 1.7760001 9.7799745e-39
-0.045668576 -0.30276573 1.7760001 3.2527585e-39
-0.042285718 -0.30276573 1.7760001 1.7776284e-39
-0.028754288 -0.30276573 1.7760001 6.2736441e-39
-0.055817146 -0.29938287 1.7760001 1.3836204e-38
-0.052434288 -0.29938287 1.7760001 1.4295365e-38
-0.049051434 -0.29938287 1.7760001 1.1160713e-38
-0.045900002 -0.30090001 1.7850001 5.5504816e-39
-0.042500004 -0.30090001 1.7850001 3.7987646e-39
-0.055817146 -0.296 1.7760001 1.3282317e-38
-0.052434288 -0.296 1.7760001 1.4938544e-38
-0.049051434 -0.296 1.7760001 1.2818044e-38
-0.045900002 -0.29749998 1.7850001 9.2292866e-39
-0.042500004 -0.29749998 1.7850001 7.2009827e-39
-0.055817146 -0.29261714 1.7760001 1.2907385e-38
-0.052434288 -0.29261714 1.7760001 1.3831791e-38
-0.049051434 -0.29261714 1.7760001 1.5030334e-38
-0.045900002 -0.29410002 1.7850001 1.3925856e-38
-0.042500004 -0.29410002 1.7850001 1.3280487e-38
-0.056100003 -0.29070002 1.7850001 1.1337924e-38
-0.052700002 -0.29070002 1.7850001 1.1152019e-38
-0.049300004 -0.29070002 1.7850001 1.3272519e-38
-0.045900002 -0.29070002 1.7850001 1.5395932e-38
-0.042500004 -0.29070002 1.7850001 1.5488127e-38
-0.056100003 -0.28729999 1.7850001 9.5886958e-39
-0.052700002 -0.28729999 1.7850001 8.0242414e-39
-0.049300004 -0.28729999 1.7850001 8.9461977e-39
-0.045900002 -0.28729999 1.7850001 1.3277931e-38
-0.042500004 -0.28729999 1.7850001 1.4845256e-38
-0.039099999 -0.28729999 1.7850001 1.2728029e-38
-0.02577143 -0.29035813 1.8040001 3.9794732e-39
-0.056100003 -0.28389999 1.7850001 8.6689452e-39
-0.052700002 -0.28389999 1.7850001 7.7479614e-39
-0.049300004 -0.28389999 1.7850001 9.4996783e-39
-0.045900002 -0.28389999 1.7850001 1.2170529e-38
-0.042500004 -0.28389999 1.7850001 1.4383225e-38
-0.039099999 -0.28389999 1.7850001 1.1347625e-38
-0.052965716 -0.28191429 1.794 9.3160396e-39
-0.04954857 -0.28191429 1.794 1.2635082e-38
-0.046131428 -0.28191429 1.794 1.5026443e-38
-0.052965716 -0.27849713 1.794 1.1706649e-38
-0.04954857 -0.27849713 1.794 1.4195931e-38
-0.046131428 -0.27849713 1.794 1.6405777e-38
-0.056382857 -0.27508003 1.794 1.5857623e-38
-0.052965716 -0.27508003 1.794 1.6133504e-38
-0.04954857 -0.27508003 1.794 1.6686678e-38
-0.046131428 -0.27508003 1.794 1.6776708e-38
-0.042714287 -0.27508003 1.794 1.6776708e-38
-0.02577143 -0.27661335 1.8040001 1.1798494e-38
-0.056382857 -0.27166286 1.794 1.6685589e-38
-0.052965716 -0.27166286 1.794 1.6594475e-38
-0.04954857 -0.27166286 1.794 1.6686671e-38
-0.046131428 -0.27166286 1.794 1.6317535e-38
-0.042714287 -0.27166286 1.794 1.6040948e-38
-0.052965716 -0.2682457 1.794 1.6500481e-38
-0.04954857 -0.2682457 1.794 1.696146e-38
-0.046131428 -0.2682457 1.794 1.659303e-38
-0.042714287 -0.2682457 1.794 1.6316443e-38
-0.049824767 -0.26630479 1.8040001 1.6686317e-38
-0.053260956 -0.26286858 1.8040001 1.6501573e-38
-0.049824767 -0.26286858 1.8040001 1.6962551e-38
