# .PCD v0.7 - Point Cloud Data file format
VERSION 0.7
FIELDS x y z rgb
SIZE 4 4 4 4
TYPE F F F F
COUNT 1 1 1 1
WIDTH 1037
HEIGHT 1
VIEWPOINT 0 0 0 1 0 0 0
POINTS 1037
DATA ascii
-0.056780003 -0.14584666 1.169 1.4471092e-38
-0.093355246 -0.14509429 1.1810001 1.6130613e-38
-0.091105722 -0.14509429 1.1810001 1.64072e-38
-0.088856198 -0.14509429 1.1810001 1.6406847e-38
-0.086606674 -0.14509429 1.1810001 1.6314651e-38
-0.08435715 -0.14509429 1.1810001 1.603878e-38
-0.082107626 -0.14509429 1.1810001 1.603878e-38
-0.066136189 -0.14460286 1.177 1.4747704e-38
-0.059208576 -0.14411144 1.1730001 1.437819e-38
-0.056780003 -0.14362001 1.169 1.4285981e-38
-0.09560477 -0.14284478 1.1810001 1.5853304e-38
-0.093671434 -0.14332858 1.1850001 1.5761111e-38
-0.091414295 -0.14332858 1.1850001 1.5945503e-38
-0.086900003 -0.14332858 1.1850001 1.6037701e-38
-0.084642865 -0.14332858 1.1850001 1.5577799e-38
-0.066360958 -0.14284478 1.1810001 1.4378903e-38
-0.063894287 -0.14236096 1.177 1.4471099e-38
-0.061652381 -0.14236096 1.177 1.4286344e-38
-0.059410479 -0.14236096 1.177 1.4286344e-38
-0.056780003 -0.14139333 1.169 1.410159e-38
-0.054553334 -0.14139333 1.169 1.474696e-38
-0.099764764 -0.14011905 1.177 1.5484171e-38
-0.09560477 -0.14059526 1.1810001 1.5668916e-38
-0.084642865 -0.14107144 1.1850001 1.5852588e-38
-0.077608578 -0.14059526 1.1810001 1.6315335e-38
-0.066360958 -0.14059526 1.1810001 1.6130613e-38
-0.063894287 -0.14011905 1.177 1.6130613e-38
-0.061652381 -0.14011905 1.177 1.6499039e-38
-0.056780003 -0.13916667 1.169 1.668415e-38
-0.054553334 -0.13916667 1.169 1.6776345e-38
-0.12546857 -0.13190286 1.126 9.5862001e-39
-0.12255716 -0.13108286 1.1190001 7.192226e-39
-0.10612858 -0.13740857 1.1730001 1.5761114e-38
-0.099764764 -0.13787715 1.177 1.6037698e-38
-0.093987621 -0.13928285 1.189 1.6496884e-38
-0.091722853 -0.13928285 1.189 1.658908e-38
-0.082385719 -0.13881429 1.1850001 1.7050058e-38
-0.075359054 -0.13834573 1.1810001 1.7235891e-38
-0.060365722 -0.13026287 1.1120001 1.7697583e-38
-0.058247626 -0.13026287 1.1120001 1.7605753e-38
-0.056280952 -0.1306143 1.115 1.6868188e-38
-0.050088573 -0.13108286 1.1190001 1.5026806e-38
-0.048128571 -0.13155143 1.123 1.3090698e-38
-0.11886191 -0.13194764 1.1450001 1.1798482e-38
-0.11403143 -0.12895143 1.1190001 1.4010787e-38
-0.10908192 -0.12814477 1.1120001 1.5117861e-38
-0.10696382 -0.12814477 1.1120001 1.5671035e-38
-0.10612858 -0.1351743 1.1730001 1.4658376e-38
-0.10424858 -0.13563524 1.177 1.4934963e-38
-0.091225713 -0.12687714 1.1010001 1.7881624e-38
-0.079142861 -0.12768382 1.108 1.7514649e-38
-0.060365722 -0.12814477 1.1120001 1.7055453e-38
-0.058247626 -0.12814477 1.1120001 1.6500835e-38
-0.056280952 -0.12849048 1.115 1.3734966e-38
-0.052033335 -0.12849048 1.115 1.4750569e-38
-0.050088573 -0.12895143 1.1190001 1.3460877e-38
-0.048128571 -0.12941237 1.123 7.8369438e-39
-0.043850474 -0.12941237 1.123 1.0233009e-38
-0.12546857 -0.12761334 1.126 9.9567749e-39
-0.12085619 -0.12727334 1.123 3.6978403e-39
-0.11403143 -0.12682001 1.1190001 1.2262009e-38
-0.1115 -0.12636666 1.115 1.0694683e-38
-0.10908192 -0.12602669 1.1120001 1.1428574e-38
-0.10696382 -0.12602669 1.1120001 1.29959e-38
-0.08524286 -0.12523332 1.105 1.7424949e-38
-0.083138093 -0.12523332 1.105 1.7426406e-38
-0.079142861 -0.12557334 1.108 1.5766179e-38
-0.064195238 -0.12523332 1.105 1.2727676e-38
-0.058404762 -0.12636666 1.115 1.604239e-38
-0.056280952 -0.12636666 1.115 1.4382869e-38
-0.052033335 -0.12636666 1.115 1.2265629e-38
-0.050088573 -0.12682001 1.1190001 1.3088495e-38
-0.048128571 -0.12727334 1.123 8.2021264e-39
-0.045989525 -0.12727334 1.123 7.9284122e-39
-0.04396762 -0.12761334 1.126 9.956716e-39
-0.12546857 -0.12546857 1.126 1.22613e-38
-0.12332381 -0.12546857 1.126 6.6018674e-40
-0.11403143 -0.12468857 1.1190001 1.3365107e-38
-0.1115 -0.12424286 1.115 8.847521e-39
-0.10908192 -0.12390859 1.1120001 7.9284164e-39
-0.10696382 -0.12390859 1.1120001 1.0048916e-38
-0.10446857 -0.12346286 1.108 1.2166936e-38
-0.1023581 -0.12346286 1.108 1.6407935e-38
-0.087347619 -0.12312857 1.105 1.3097515e-38
-0.08524286 -0.12312857 1.105 1.4296058e-38
-0.083138093 -0.12312857 1.105 1.6595211e-38
-0.066299997 -0.12312857 1.105 7.1145703e-39
-0.064195238 -0.12312857 1.105 5.178462e-39
-0.058404762 -0.12424286 1.115 1.6779589e-38
-0.052033335 -0.12424286 1.115 1.1984353e-38
-0.050088573 -0.12468857 1.1190001 9.4954058e-39
-0.048128571 -0.12513429 1.123 7.4671019e-39
-0.045989525 -0.12513429 1.123 7.099767e-39
-0.04396762 -0.12546857 1.126 8.9436795e-39
-0.12332381 -0.12332381 1.126 5.9999438e-39
-0.1115 -0.12211905 1.115 8.6631522e-39
-0.10908192 -0.12179048 1.1120001 7.1937324e-39
-0.10696382 -0.12179048 1.1120001 7.6547106e-39
-0.10446857 -0.12135238 1.108 1.1428606e-38
-0.1023581 -0.12135238 1.108 1.5300823e-38
-0.099976189 -0.12102381 1.105 1.5856537e-38
-0.097517148 -0.12058572 1.1010001 1.5672146e-38
-0.09542001 -0.12058572 1.1010001 1.576545e-38
-0.089452386 -0.12102381 1.105 1.2174492e-38
-0.087347619 -0.12102381 1.105 1.1351566e-38
-0.08524286 -0.12102381 1.105 1.2365718e-38
-0.083138093 -0.12102381 1.105 1.5950545e-38
-0.074719049 -0.12102381 1.105 1.585873e-38
-0.068404764 -0.12102381 1.105 1.0145832e-38
-0.066299997 -0.12102381 1.105 4.2687054e-39
-0.062483817 -0.12179048 1.1120001 5.6462225e-39
-0.060365722 -0.12179048 1.1120001 8.5964826e-39
-0.052220006 -0.12255716 1.1190001 1.0413437e-38
-0.050088573 -0.12255716 1.1190001 8.1142566e-39
-0.048128571 -0.12299524 1.123 7.7454741e-39
-0.045989525 -0.12299524 1.123 7.2837925e-39
-0.04396762 -0.12332381 1.126 9.2199007e-39
-0.1237619 -0.12160952 1.13 6.6453847e-39
-0.1115 -0.11999524 1.115 8.5723789e-39
-0.10937619 -0.11999524 1.115 7.9295528e-39
-0.10696382 -0.1196724 1.1120001 8.0217485e-39
-0.10484572 -0.1196724 1.1120001 8.6659982e-39
-0.1023581 -0.11924191 1.108 1.1431867e-38
-0.10024762 -0.11924191 1.108 1.4287764e-38
-0.09787143 -0.11891905 1.105 1.8067785e-38
-0.091805719 -0.11924191 1.108 1.1718912e-38
-0.089695238 -0.11924191 1.108 1.1626716e-38
-0.08524286 -0.11891905 1.105 1.1905115e-38
-0.083138093 -0.11891905 1.105 1.3284064e-38
-0.081033334 -0.11891905 1.105 1.4113825e-38
-0.076823808 -0.11891905 1.105 1.9361789e-38
-0.068404764 -0.11891905 1.105 6.4677561e-39
-0.066480003 -0.11924191 1.108 4.6371376e-39
-0.064369529 -0.11924191 1.108 5.0059202e-39
-0.054157145 -0.11999524 1.115 1.6777382e-38
-0.052220006 -0.12042572 1.1190001 8.848558e-39
-0.050088573 -0.12042572 1.1190001 7.8366285e-39
-0.048128571 -0.12085619 1.123 8.2976067e-39
-0.045989525 -0.12085619 1.123 8.574181e-39
-0.1237619 -0.11945714 1.13 1.1527719e-38
-0.11403143 -0.11829429 1.1190001 1.0418485e-38
-0.1115 -0.11787143 1.115 7.9292025e-39
-0.10937619 -0.11787143 1.115 7.744786e-39
-0.10696382 -0.1175543 1.1120001 8.5745467e-39
-0.10484572 -0.1175543 1.1120001 8.2068152e-39
-0.10272763 -0.1175543 1.1120001 8.6677933e-39
-0.10024762 -0.11713143 1.108 1.3181416e-38
-0.098137148 -0.11713143 1.108 1.7975589e-38
-0.093916193 -0.11713143 1.108 1.1620625e-38
-0.089695238 -0.11713143 1.108 1.0803076e-38
-0.087347619 -0.11681429 1.105 1.1537049e-38
-0.08524286 -0.11681429 1.105 1.1537049e-38
-0.083138093 -0.11681429 1.105 1.0985313e-38
-0.081033334 -0.11681429 1.105 1.0893117e-38
-0.078928567 -0.11681429 1.105 1.4755251e-38
-0.076823808 -0.11681429 1.105 1.8811859e-38
-0.074719049 -0.11681429 1.105 1.7796653e-38
-0.07261429 -0.11681429 1.105 1.0144416e-38
-0.068404764 -0.11681429 1.105 5.5544024e-39
-0.066480003 -0.11713143 1.108 5.7413244e-39
-0.056280952 -0.11787143 1.115 1.4579097e-38
-0.054157145 -0.11787143 1.115 1.4107729e-38
-0.052220006 -0.11829429 1.1190001 8.2994046e-39
-0.050088573 -0.11829429 1.1190001 7.5625276e-39
-0.048128571 -0.11871714 1.123 8.3922882e-39
-0.045989525 -0.11871714 1.123 9.1266233e-39
-0.1115 -0.11574762 1.115 7.8373068e-39
-0.10937619 -0.11574762 1.115 7.2845338e-39
-0.10725237 -0.11574762 1.115 8.2986857e-39
-0.10484572 -0.1154362 1.1120001 8.1135686e-39
-0.10272763 -0.1154362 1.1120001 8.2057642e-39
-0.10060953 -0.1154362 1.1120001 1.1616621e-38
-0.098137148 -0.11502095 1.108 1.7056163e-38
-0.094255246 -0.1154362 1.1120001 1.1345097e-38
-0.091805719 -0.11502095 1.108 9.6963856e-39
-0.089695238 -0.11502095 1.108 1.0710538e-38
-0.087584764 -0.11502095 1.108 1.1629247e-38
-0.085474283 -0.11502095 1.108 1.1721443e-38
-0.083363816 -0.11502095 1.108 1.153778e-38
-0.081253335 -0.11502095 1.108 1.0892411e-38
-0.079142861 -0.11502095 1.108 1.4018402e-38
-0.07703238 -0.11502095 1.108 1.8259401e-38
-0.074921906 -0.11502095 1.108 1.7061221e-38
-0.068404764 -0.11470952 1.105 2.8947785e-39
-0.066480003 -0.11502095 1.108 5.0974095e-39
-0.062259048 -0.11502095 1.108 5.095955e-39
-0.060365722 -0.1154362 1.1120001 5.0037594e-39
-0.058247626 -0.1154362 1.1120001 1.0331691e-38
-0.056280952 -0.11574762 1.115 1.6508798e-38
-0.054157145 -0.11574762 1.115 1.6319305e-38
-0.052220006 -0.11616287 1.1190001 9.1280456e-39
-0.050088573 -0.11616287 1.1190001 8.484837e-39
-0.048128571 -0.1165781 1.123 9.9599671e-39
-0.045989525 -0.1165781 1.123 1.0416995e-38
-0.11190001 -0.11403143 1.1190001 9.7727143e-39
-0.10725237 -0.11362381 1.115 7.929906e-39
-0.10512857 -0.11362381 1.115 7.8380382e-39
-0.10272763 -0.1133181 1.1120001 8.7599945e-39
-0.094255246 -0.1133181 1.1120001 1.1806438e-38
-0.09213715 -0.1133181 1.1120001 9.5116342e-39
-0.089695238 -0.11291048 1.108 1.0802373e-38
-0.087584764 -0.11291048 1.108 1.1537051e-38
-0.085474283 -0.11291048 1.108 1.1721443e-38
-0.083363816 -0.11291048 1.108 1.1537061e-38
-0.081253335 -0.11291048 1.108 1.1076083e-38
-0.079142861 -0.11291048 1.108 1.3926219e-38
-0.07703238 -0.11291048 1.108 1.7798435e-38
-0.074921906 -0.11291048 1.108 1.6326182e-38
-0.072811432 -0.11291048 1.108 9.9646838e-39
-0.070700951 -0.11291048 1.108 3.0730742e-39
-0.068590477 -0.11291048 1.108 3.4418567e-39
-0.066480003 -0.11291048 1.108 4.085403e-39
-0.064369529 -0.11291048 1.108 3.6244248e-39
-0.062483817 -0.1133181 1.1120001 3.9924717e-39
-0.060365722 -0.1133181 1.1120001 6.666145e-39
-0.058247626 -0.1133181 1.1120001 1.4014818e-38
-0.056280952 -0.11362381 1.115 1.6780686e-38
-0.054157145 -0.11362381 1.115 1.6594848e-38
-0.052220006 -0.11403143 1.1190001 1.1524088e-38
-0.050267622 -0.11443905 1.123 1.0137907e-38
-0.048128571 -0.11443905 1.123 1.133645e-38
-0.046112385 -0.11474476 1.126 1.1152399e-38
-0.12042572 -0.11190001 1.1190001 8.4823357e-39
-0.10512857 -0.1115 1.115 8.6663766e-39
-0.10272763 -0.1112 1.1120001 1.4013723e-38
-0.090019055 -0.1112 1.1120001 1.1534884e-38
-0.087900959 -0.1112 1.1120001 1.1076805e-38
-0.085782863 -0.1112 1.1120001 1.1353392e-38
-0.081253335 -0.11080001 1.108 1.448443e-38
-0.079142861 -0.11080001 1.108 1.7057987e-38
-0.07703238 -0.11080001 1.108 1.825653e-38
-0.074921906 -0.11080001 1.108 1.7336015e-38
-0.068590477 -0.11080001 1.108 7.2049708e-39
-0.066720009 -0.1112 1.1120001 2.4305662e-39
-0.064601913 -0.1112 1.1120001 2.6149575e-39
-0.062483817 -0.1112 1.1120001 7.7584753e-39
-0.060528573 -0.1115 1.115 1.3843387e-38
-0.058404762 -0.1115 1.115 1.6136383e-38
-0.056280952 -0.1115 1.115 1.4753449e-38
-0.05435143 -0.11190001 1.1190001 1.5396667e-38
-0.052220006 -0.11190001 1.1190001 1.5673254e-38
-0.050267622 -0.1123 1.123 1.4381777e-38
-0.048257146 -0.1126 1.126 1.1892495e-38
-0.12085619 -0.11016095 1.123 9.4925471e-39
-0.10512857 -0.10937619 1.115 1.0508131e-38
-0.10272763 -0.10908192 1.1120001 1.5578891e-38
-0.09213715 -0.10908192 1.1120001 1.4849247e-38
-0.087900959 -0.10908192 1.1120001 1.0615808e-38
-0.085782863 -0.10908192 1.1120001 1.1076787e-38
-0.083664767 -0.10908192 1.1120001 1.3374853e-38
-0.081546672 -0.10908192 1.1120001 1.6325113e-38
-0.079428576 -0.10908192 1.1120001 1.7886668e-38
-0.077310488 -0.10908192 1.1120001 1.6780321e-38
-0.070700951 -0.10868952 1.108 1.6139646e-38
-0.068838097 -0.10908192 1.1120001 1.1161082e-38
-0.064601913 -0.10908192 1.1120001 5.832441e-39
-0.062652387 -0.10937619 1.115 1.2726221e-38
-0.060528573 -0.10937619 1.115 1.6598438e-38
-0.056280952 -0.10937619 1.115 1.2358167e-38
-0.05435143 -0.10976858 1.1190001 1.4015521e-38
-0.052220006 -0.10976858 1.1190001 1.5675042e-38
-0.050267622 -0.11016095 1.123 1.5578543e-38
-0.048257146 -0.11045524 1.126 1.1614131e-38
-0.12085619 -0.10802191 1.123 7.834095e-39
-0.11829429 -0.10763714 1.1190001 6.1850105e-39
-0.11616287 -0.10763714 1.1190001 7.1069668e-39
-0.11403143 -0.10763714 1.1190001 8.1193293e-39
-0.1115 -0.10725237 1.115 1.0885198e-38
-0.10512857 -0.10725237 1.115 1.4383559e-38
-0.10272763 -0.10696382 1.1120001 1.4844538e-38
-0.092385709 -0.10725237 1.115 1.5676847e-38
-0.090019055 -0.10696382 1.1120001 1.5861238e-38
-0.087900959 -0.10696382 1.1120001 1.5034339e-38
-0.085782863 -0.10696382 1.1120001 1.5218731e-38
-0.083664767 -0.10696382 1.1120001 1.6782123e-38
-0.081546672 -0.10696382 1.1120001 1.7427492e-38
-0.079428576 -0.10696382 1.1120001 1.5212645e-38
-0.077310488 -0.10696382 1.1120001 1.0510668e-38
-0.075192392 -0.10696382 1.1120001 1.1891792e-38
-0.068838097 -0.10696382 1.1120001 1.8069625e-38
-0.066720009 -0.10696382 1.1120001 1.5954513e-38
-0.064601913 -0.10696382 1.1120001 1.5309144e-38
-0.062652387 -0.10725237 1.115 1.5401702e-38
-0.060528573 -0.10725237 1.115 1.4479746e-38
-0.058404762 -0.10725237 1.115 1.2270654e-38
-0.056482859 -0.10763714 1.1190001 1.0334545e-38
-0.052220006 -0.10763714 1.1190001 1.3006771e-38
-0.050401904 -0.10831048 1.126 1.3923325e-38
-0.1242 -0.10692 1.1340001 1.5855503e-38
-0.12085619 -0.10588286 1.123 7.9266788e-39
-0.10937619 -0.10512857 1.115 1.2631154e-38
-0.10725237 -0.10512857 1.115 1.5489219e-38
-0.10512857 -0.10512857 1.115 1.4753449e-38
-0.10272763 -0.10484572 1.1120001 1.2448558e-38
-0.10060953 -0.10484572 1.1120001 7.3018034e-39
-0.098491438 -0.10484572 1.1120001 3.6139782e-39
-0.092385709 -0.10512857 1.115 1.5583535e-38
-0.090261906 -0.10512857 1.115 1.7243056e-38
-0.088138096 -0.10512857 1.115 1.6965065e-38
-0.086014286 -0.10512857 1.115 1.7241652e-38
-0.083890475 -0.10512857 1.115 1.7794826e-38
-0.081546672 -0.10484572 1.1120001 1.6319696e-38
-0.079428576 -0.10484572 1.1120001 1.3646383e-38
-0.077310488 -0.10484572 1.1120001 1.0142949e-38
-0.075192392 -0.10484572 1.1120001 1.0694278e-38
-0.073271424 -0.10512857 1.115 1.3736734e-38
-0.071147621 -0.10512857 1.115 1.7695405e-38
-0.06902381 -0.10512857 1.115 1.9631513e-38
-0.0669 -0.10512857 1.115 1.8345132e-38
-0.06477619 -0.10512857 1.115 1.7607567e-38
-0.062652387 -0.10512857 1.115 1.5771567e-38
-0.06074572 -0.10550572 1.1190001 1.2360328e-38
-0.058614291 -0.10550572 1.1190001 1.0983502e-38
-0.05435143 -0.10550572 1.1190001 1.0243776e-38
-0.052406665 -0.10588286 1.123 1.1718906e-38
-0.050401904 -0.10616572 1.126 1.2453966e-38
-0.046112385 -0.10616572 1.126 3.6117179e-39
-0.1242 -0.10476001 1.1340001 1.8344412e-38
-0.12160952 -0.10439047 1.13 1.1614131e-38
-0.11945714 -0.10439047 1.13 5.9080635e-39
-0.1123 -0.10374381 1.123 8.1218474e-39
-0.10976858 -0.10337429 1.1190001 1.1802085e-38
-0.10763714 -0.10337429 1.1190001 1.5213323e-38
-0.10512857 -0.10300476 1.115 1.4016935e-38
-0.10300476 -0.10300476 1.115 7.6554364e-39
-0.09875714 -0.10300476 1.115 3.7151715e-39
-0.096633337 -0.10300476 1.115 5.1831312e-39
-0.094509527 -0.10300476 1.115 4.9065443e-39
-0.088138096 -0.10300476 1.115 1.7149103e-38
-0.086014286 -0.10300476 1.115 1.742569e-38
-0.083890475 -0.10300476 1.115 1.5949816e-38
-0.081766672 -0.10300476 1.115 1.1340034e-38
-0.079642855 -0.10300476 1.115 1.1247857e-38
-0.077519052 -0.10300476 1.115 1.1708835e-38
-0.075395241 -0.10300476 1.115 1.1616627e-38
-0.073271424 -0.10300476 1.115 1.0971258e-38
-0.06477619 -0.10300476 1.115 1.7054759e-38
-0.062877148 -0.10337429 1.1190001 1.5218718e-38
-0.056482859 -0.10337429 1.1190001 1.0155899e-38
-0.05435143 -0.10337429 1.1190001 1.0153391e-38
-0.052406665 -0.10374381 1.123 1.144413e-38
-0.050401904 -0.10402096 1.126 1.2821304e-38
-0.048428569 -0.10439047 1.13 8.3959134e-39
-0.046276189 -0.10439047 1.13 4.621991e-39
-0.1242 -0.1026 1.1340001 1.8436625e-38
-0.12160952 -0.1022381 1.13 1.2536104e-38
-0.11945714 -0.1022381 1.13 8.2968906e-39
-0.11688953 -0.10187619 1.126 8.3890863e-39
-0.11474476 -0.10187619 1.126 7.3839166e-39
-0.1126 -0.10187619 1.126 7.6605035e-39
-0.11016095 -0.10160477 1.123 9.5018882e-39
-0.10763714 -0.10124286 1.1190001 1.3835083e-38
-0.10550572 -0.10124286 1.1190001 1.0704792e-38
-0.10300476 -0.10088095 1.115 5.0808588e-39
-0.092717148 -0.10124286 1.1190001 4.5408993e-39
-0.090261906 -0.10088095 1.115 1.1824354e-38
-0.088138096 -0.10088095 1.115 1.586269e-38
-0.086014286 -0.10088095 1.115 1.5770495e-38
-0.083890475 -0.10088095 1.115 1.392295e-38
-0.081766672 -0.10088095 1.115 1.0603907e-38
-0.079642855 -0.10088095 1.115 1.1155305e-38
-0.077519052 -0.10088095 1.115 1.1892871e-38
-0.075395241 -0.10088095 1.115 1.1985419e-38
-0.06902381 -0.10088095 1.115 1.5399132e-38
-0.0669 -0.10088095 1.115 1.6411551e-38
-0.065008573 -0.10124286 1.1190001 1.622716e-38
-0.058614291 -0.10124286 1.1190001 1.0708726e-38
-0.056684762 -0.10160477 1.123 9.9711606e-39
-0.05469143 -0.10187619 1.126 1.0153025e-38
-0.052546669 -0.10187619 1.126 1.1720351e-38
-0.050401904 -0.10187619 1.126 1.2637635e-38
-0.048428569 -0.1022381 1.13 8.4888321e-39
-0.1242 -0.10044 1.1340001 1.8251863e-38
-0.12204001 -0.10044 1.1340001 1.4379647e-38
-0.11730476 -0.10008571 1.13 7.7480609e-39
-0.11515237 -0.10008571 1.13 7.2935189e-39
-0.1126 -0.09973143 1.126 7.016932e-39
-0.11045524 -0.09973143 1.126 9.7766772e-39
-0.10802191 -0.099465713 1.123 1.4478654e-38
-0.10550572 -0.099111438 1.1190001 1.3558843e-38
-0.10300476 -0.09875714 1.115 7.0129537e-39
-0.090585716 -0.099111438 1.1190001 9.3344232e-39
-0.088454291 -0.099111438 1.1190001 1.4755241e-38
-0.086014286 -0.09875714 1.115 1.4663046e-38
-0.083890475 -0.09875714 1.115 1.3092467e-38
-0.081766672 -0.09875714 1.115 1.0787577e-38
-0.079642855 -0.09875714 1.115 1.1340065e-38
-0.077519052 -0.09875714 1.115 1.1708848e-38
-0.075395241 -0.09875714 1.115 1.1708479e-38
-0.073271424 -0.09875714 1.115 1.0878719e-38
-0.071402863 -0.099111438 1.1190001 1.0602851e-38
-0.069271438 -0.099111438 1.1190001 1.5120436e-38
-0.06074572 -0.099111438 1.1190001 1.0796249e-38
-0.058823813 -0.099465713 1.123 9.6963856e-39
-0.056684762 -0.099465713 1.123 9.2354075e-39
-0.05469143 -0.09973143 1.126 1.1439811e-38
-0.052546669 -0.09973143 1.126 1.3191528e-38
-0.050580952 -0.10008571 1.13 1.4291752e-38
-0.12204001 -0.098280005 1.1340001 1.4011588e-38
-0.11945714 -0.097933337 1.13 8.8544028e-39
-0.11515237 -0.097933337 1.13 7.3856865e-39
-0.1126 -0.097586669 1.126 7.6622734e-39
-0.11045524 -0.097586669 1.126 1.1156022e-38
-0.10802191 -0.097326666 1.123 1.5120434e-38
-0.10588286 -0.097326666 1.123 1.3650701e-38
-0.10337429 -0.096980006 1.1190001 9.7784849e-39
-0.10088095 -0.096633337 1.115 2.6099492e-39
-0.088454291 -0.096980006 1.1190001 1.4480462e-38
-0.086322866 -0.096980006 1.1190001 1.4664853e-38
-0.081766672 -0.096633337 1.115 1.0694693e-38
-0.079642855 -0.096633337 1.115 1.1247141e-38
-0.077797145 -0.096980006 1.1190001 1.1523728e-38
-0.07566572 -0.096980006 1.1190001 1.1248911e-38
-0.065008573 -0.096980006 1.1190001 1.6596643e-38
-0.062877148 -0.096980006 1.1190001 1.3746162e-38
-0.06096286 -0.097326666 1.123 1.1164684e-38
-0.058823813 -0.097326666 1.123 9.5119817e-39
-0.056684762 -0.097326666 1.123 9.696373e-39
-0.05469143 -0.097586669 1.126 1.2359612e-38
-0.052546669 -0.097586669 1.126 1.346596e-38
-0.050580952 -0.097933337 1.13 1.520937e-38
-0.046276189 -0.097933337 1.13 1.3273249e-38
-0.042120002 -0.098280005 1.1340001 1.4655483e-38
-0.12204001 -0.09612 1.1340001 1.3643524e-38
-0.11945714 -0.095780954 1.13 8.3041185e-39
-0.113 -0.095780954 1.13 1.1164291e-38
-0.11045524 -0.095441908 1.126 1.3276862e-38
-0.10831048 -0.095441908 1.126 1.309247e-38
-0.10588286 -0.095187619 1.123 1.3738906e-38
-0.10337429 -0.094848573 1.1190001 1.4199884e-38
-0.10124286 -0.094848573 1.1190001 9.9668769e-39
-0.096980006 -0.094848573 1.1190001 2.8847172e-39
-0.090585716 -0.094848573 1.1190001 1.4670296e-38
-0.088454291 -0.094848573 1.1190001 1.779446e-38
-0.086322866 -0.094848573 1.1190001 1.779446e-38
-0.084191434 -0.094848573 1.1190001 1.6503018e-38
-0.082060009 -0.094848573 1.1190001 1.2538606e-38
-0.079928577 -0.094848573 1.1190001 1.0603223e-38
-0.077797145 -0.094848573 1.1190001 1.0234441e-38
-0.07566572 -0.094848573 1.1190001 1.0786145e-38
-0.073534288 -0.094848573 1.1190001 1.299884e-38
-0.067139998 -0.094848573 1.1190001 1.6965425e-38
-0.065240949 -0.095187619 1.123 1.6412251e-38
-0.06310191 -0.095187619 1.123 1.549356e-38
-0.06096286 -0.095187619 1.123 1.4663799e-38
-0.058980957 -0.095441908 1.126 1.3191881e-38
-0.056836192 -0.095441908 1.126 1.3191881e-38
-0.05469143 -0.095441908 1.126 1.4753799e-38
-0.052733332 -0.095780954 1.13 1.2448909e-38
-0.050580952 -0.095780954 1.13 1.1428636e-38
-0.048600003 -0.09612 1.1340001 1.1613027e-38
-0.046440002 -0.09612 1.1340001 1.1704879e-38
-0.044280004 -0.09612 1.1340001 1.3640988e-38
-0.042268571 -0.096459046 1.138 1.4839518e-38
-0.040100951 -0.096459046 1.138 1.585367e-38
-0.12204001 -0.093960002 1.1340001 1.4197414e-38
-0.11988001 -0.093960002 1.1340001 9.5026463e-39
-0.11730476 -0.09362857 1.13 5.353843e-39
-0.11515237 -0.09362857 1.13 7.4753402e-39
-0.113 -0.09362857 1.13 1.2361709e-38
-0.11045524 -0.093297146 1.126 1.3461644e-38
-0.10831048 -0.093297146 1.126 1.1248949e-38
-0.10588286 -0.093048573 1.123 1.189173e-38
-0.10337429 -0.092717148 1.1190001 1.4381012e-38
-0.094848573 -0.092717148 1.1190001 6.5656424e-39
-0.092717148 -0.092717148 1.1190001 1.3277253e-38
-0.090585716 -0.092717148 1.1190001 1.7149469e-38
-0.088454291 -0.092717148 1.1190001 1.8252564e-38
-0.086322866 -0.092717148 1.1190001 1.7975977e-38
-0.084191434 -0.092717148 1.1190001 1.7242025e-38
-0.082060009 -0.092717148 1.1190001 1.4844938e-38
-0.079928577 -0.092717148 1.1190001 1.2080527e-38
-0.077797145 -0.092717148 1.1190001 9.6834404e-39
-0.07566572 -0.092717148 1.1190001 1.0878323e-38
-0.073534288 -0.092717148 1.1190001 1.5027127e-38
-0.067139998 -0.092717148 1.1190001 1.5308062e-38
-0.065240949 -0.093048573 1.123 1.4662692e-38
-0.06310191 -0.093048573 1.123 1.5770469e-38
-0.06096286 -0.093048573 1.123 1.6231448e-38
-0.058980957 -0.093297146 1.126 1.5307346e-38
-0.056836192 -0.093297146 1.126 1.521515e-38
-0.054885715 -0.09362857 1.13 1.5305907e-38
-0.052733332 -0.09362857 1.13 9.6819733e-39
-0.050580952 -0.09362857 1.13 1.0227893e-38
-0.048600003 -0.093960002 1.1340001 1.0873262e-38
-0.042268571 -0.094291434 1.138 1.4748757e-38
-0.040100951 -0.094291434 1.138 1.5578518e-38
-0.12204001 -0.091800004 1.1340001 1.5302677e-38
-0.11988001 -0.091800004 1.1340001 1.0239848e-38
-0.11556 -0.091800004 1.1340001 4.7095455e-39
-0.113 -0.091476195 1.13 1.1808609e-38
-0.11045524 -0.091152385 1.126 1.2907716e-38
-0.10831048 -0.091152385 1.126 7.6525652e-39
-0.10616572 -0.091152385 1.126 7.560029e-39
-0.10374381 -0.090909526 1.123 1.1985419e-38
-0.088454291 -0.090585716 1.1190001 1.429392e-38
-0.086322866 -0.090585716 1.1190001 1.3740746e-38
-0.084191434 -0.090585716 1.1190001 1.4939295e-38
-0.082060009 -0.090585716 1.1190001 1.7889555e-38
-0.079928577 -0.090585716 1.1190001 1.7517876e-38
-0.077797145 -0.090585716 1.1190001 1.4383225e-38
-0.07566572 -0.090585716 1.1190001 1.5856171e-38
-0.073534288 -0.090585716 1.1190001 1.9543997e-38
-0.065415241 -0.091152385 1.126 4.7192818e-39
-0.063270479 -0.091152385 1.126 9.5991103e-39
-0.061125714 -0.091152385 1.126 1.4946457e-38
-0.058980957 -0.091152385 1.126 1.6411535e-38
-0.057038095 -0.091476195 1.13 1.5950557e-38
-0.054885715 -0.091476195 1.13 1.5121827e-38
-0.050760005 -0.091800004 1.1340001 8.8503727e-39
-0.044280004 -0.091800004 1.1340001 1.3273262e-38
-0.042268571 -0.092123814 1.138 1.4840231e-38
-0.11556 -0.089639999 1.1340001 4.8938275e-39
-0.1134 -0.089639999 1.1340001 1.125532e-38
-0.11084761 -0.089323811 1.13 1.17074e-38
-0.10869523 -0.089323811 1.13 7.8351838e-39
-0.10616572 -0.089007616 1.126 7.1933457e-39
-0.10402096 -0.089007616 1.126 9.4982364e-39
-0.10187619 -0.089007616 1.126 1.2628974e-38
-0.099465713 -0.088770472 1.123 1.5487039e-38
-0.093297146 -0.089007616 1.126 1.6597008e-38
-0.090909526 -0.088770472 1.123 1.383114e-38
-0.086322866 -0.088454291 1.1190001 1.1258297e-38
-0.084191434 -0.088454291 1.1190001 1.3465947e-38
-0.082060009 -0.088454291 1.1190001 1.6508403e-38
-0.079928577 -0.088454291 1.1190001 1.8346928e-38
-0.077797145 -0.088454291 1.1190001 1.7793754e-38
-0.07566572 -0.088454291 1.1190001 1.6871813e-38
-0.069271438 -0.088454291 1.1190001 7.9345849e-39
-0.061125714 -0.089007616 1.126 1.1726787e-38
-0.059190478 -0.089323811 1.13 1.604457e-38
-0.052733332 -0.089323811 1.13 8.3000954e-39
-0.050760005 -0.089639999 1.1340001 9.0326017e-39
-0.046440002 -0.089639999 1.1340001 1.0231156e-38
-0.04443619 -0.089956194 1.138 1.3458003e-38
-0.042268571 -0.089956194 1.138 1.4655477e-38
-0.11596762 -0.087788574 1.138 2.2259738e-39
-0.1134 -0.087480001 1.1340001 8.7718635e-39
-0.11084761 -0.087171428 1.13 1.1246027e-38
-0.10869523 -0.087171428 1.13 8.5723537e-39
-0.10654286 -0.087171428 1.13 7.9291773e-39
-0.10402096 -0.086862855 1.126 8.2979598e-39
-0.10187619 -0.086862855 1.126 8.4819853e-39
-0.09973143 -0.086862855 1.126 1.4566897e-38
-0.095441908 -0.086862855 1.126 1.6776731e-38
-0.093297146 -0.086862855 1.126 1.4387535e-38
-0.091152385 -0.086862855 1.126 1.2635818e-38
-0.088770472 -0.086631432 1.123 1.1444137e-38
-0.086631432 -0.086631432 1.123 1.1628528e-38
-0.082060009 -0.086322866 1.1190001 1.30093e-38
-0.079928577 -0.086322866 1.1190001 1.6044175e-38
-0.077797145 -0.086322866 1.1190001 1.890224e-38
-0.07566572 -0.086322866 1.1190001 1.8716782e-38
-0.073534288 -0.086322866 1.1190001 1.4107001e-38
-0.071402863 -0.086322866 1.1190001 7.9443183e-39
-0.069271438 -0.086322866 1.1190001 6.1004057e-39
-0.065647617 -0.087171428 1.13 4.8226205e-39
-0.063495234 -0.087171428 1.13 6.0139484e-39
-0.052733332 -0.087171428 1.13 8.5752109e-39
-0.050760005 -0.087480001 1.1340001 8.9433292e-39
-0.048600003 -0.087480001 1.1340001 1.0602851e-38
-0.046440002 -0.087480001 1.1340001 1.1153122e-38
-0.04443619 -0.087788574 1.138 1.37346e-38
-0.042380001 -0.088020004 1.141 1.4840219e-38
-0.11596762 -0.085620955 1.138 1.489457e-39
-0.1134 -0.085320003 1.1340001 9.0494902e-39
-0.11124001 -0.085320003 1.1340001 1.1520857e-38
-0.10869523 -0.085019045 1.13 9.0315746e-39
-0.10654286 -0.085019045 1.13 8.3887079e-39
-0.10402096 -0.084718093 1.126 8.6652948e-39
-0.10187619 -0.084718093 1.126 8.6652584e-39
-0.093297146 -0.084718093 1.126 1.2179534e-38
-0.091152385 -0.084718093 1.126 1.1441969e-38
-0.088770472 -0.084492385 1.123 1.1260465e-38
-0.086631432 -0.084492385 1.123 1.1813638e-38
-0.084492385 -0.084492385 1.123 1.1353023e-38
-0.082060009 -0.084191434 1.1190001 1.1168632e-38
-0.079928577 -0.084191434 1.1190001 1.3100046e-38
-0.077797145 -0.084191434 1.1190001 1.7709827e-38
-0.069952376 -0.085019045 1.13 4.364501e-39
-0.054885715 -0.085019045 1.13 1.1155305e-38
-0.052920002 -0.085320003 1.1340001 8.2972409e-39
-0.050760005 -0.085320003 1.1340001 8.3915876e-39
-0.048771426 -0.085620955 1.138 1.0419891e-38
-0.04660381 -0.085620955 1.138 1.2443848e-38
-0.04443619 -0.085620955 1.138 1.4379957e-38
-0.042380001 -0.085846663 1.141 1.5115729e-38
-0.11627334 -0.083673336 1.141 7.3795782e-39
-0.1138 -0.083453335 1.138 1.2911316e-38
-0.11124001 -0.083160006 1.1340001 1.3274694e-38
-0.10908 -0.083160006 1.1340001 8.6649122e-39
-0.10654286 -0.082866669 1.13 7.9291773e-39
-0.10439047 -0.082866669 1.13 8.2979598e-39
-0.1022381 -0.082866669 1.13 8.0210044e-39
-0.09973143 -0.082573339 1.126 1.3091764e-38
-0.09362857 -0.082866669 1.13 1.3006774e-38
-0.089007616 -0.082573339 1.126 1.1351954e-38
-0.086631432 -0.082353331 1.123 1.1905128e-38
-0.084492385 -0.082353331 1.123 1.1629257e-38
-0.082353331 -0.082353331 1.123 1.135267e-38
-0.075936191 -0.082353331 1.123 1.687899e-38
-0.073994286 -0.082573339 1.126 9.1345574e-39
-0.069952376 -0.082866669 1.13 2.8008075e-39
-0.057038095 -0.082866669 1.13 1.5860497e-38
-0.055080004 -0.083160006 1.1340001 1.3552057e-38
-0.052920002 -0.083160006 1.1340001 8.296906e-39
-0.050939046 -0.083453335 1.138 8.2086453e-39
-0.04443619 -0.083453335 1.138 1.4288117e-38
-0.042380001 -0.083673336 1.141 1.5391942e-38
-0.040206671 -0.083673336 1.141 1.5207551e-38
-0.11627334 -0.081500001 1.141 8.6674304e-39
-0.11163238 -0.081285715 1.138 1.2631502e-38
-0.10946476 -0.081285715 1.138 9.2202636e-39
-0.10692 -0.081 1.1340001 7.8373348e-39
-0.10439047 -0.080714285 1.13 7.9295304e-39
-0.1022381 -0.080714285 1.13 8.2975913e-39
-0.09973143 -0.080428578 1.126 1.4566894e-38
-0.09362857 -0.080714285 1.13 1.3006796e-38
-0.091152385 -0.080428578 1.126 1.1716057e-38
-0.089007616 -0.080428578 1.126 1.0891692e-38
-0.086862855 -0.080428578 1.126 1.1444866e-38
-0.084492385 -0.080214284 1.123 1.1353023e-38
-0.082353331 -0.080214284 1.123 1.1445219e-38
-0.080428578 -0.080428578 1.126 1.36518e-38
-0.078283817 -0.080428578 1.126 1.6970843e-38
-0.076139055 -0.080428578 1.126 1.651164e-38
-0.073994286 -0.080428578 1.126 1.1717467e-38
-0.071849525 -0.080428578 1.126 5.1903479e-39
-0.059190478 -0.080714285 1.13 1.6318977e-38
-0.057240006 -0.081 1.1340001 1.6226781e-38
-0.055080004 -0.081 1.1340001 1.5212654e-38
-0.052920002 -0.081 1.1340001 1.1709221e-38
-0.050939046 -0.081285715 1.138 9.2228028e-39
-0.04660381 -0.081285715 1.138 1.0414747e-38
-0.044553336 -0.081500001 1.141 1.4747942e-38
-0.042528573 -0.081785724 1.1450001 1.5206846e-38
-0.040347625 -0.081785724 1.1450001 1.5022455e-38
-0.12322382 -0.079604767 1.1450001 1.6591238e-38
-0.12104286 -0.079604767 1.1450001 1.567037e-38
-0.11627334 -0.079326667 1.141 9.0373045e-39
-0.1138 -0.079118095 1.138 1.0328043e-38
-0.11163238 -0.079118095 1.138 1.1250353e-38
-0.10908 -0.078840002 1.1340001 1.2541092e-38
-0.10692 -0.078840002 1.1340001 1.1340413e-38
-0.10439047 -0.078561902 1.13 9.8652827e-39
-0.091476195 -0.078561902 1.13 1.4016988e-38
-0.089323811 -0.078561902 1.13 1.1812556e-38
-0.086862855 -0.078283817 1.126 1.1351578e-38
-0.084718093 -0.078283817 1.126 1.1904402e-38
-0.080428578 -0.078283817 1.126 1.6506252e-38
-0.078283817 -0.078283817 1.126 1.7428208e-38
-0.076139055 -0.078283817 1.126 1.7519668e-38
-0.073994286 -0.078283817 1.126 1.7796255e-38
-0.071849525 -0.078283817 1.126 1.3469955e-38
-0.061342854 -0.078561902 1.13 1.5312403e-38
-0.059400003 -0.078840002 1.1340001 1.5399172e-38
-0.052920002 -0.078840002 1.1340001 1.5304121e-38
-0.050939046 -0.079118095 1.138 1.2174142e-38
-0.04660381 -0.079118095 1.138 7.931624e-39
-0.044553336 -0.079326667 1.141 1.3371166e-38
-0.042528573 -0.079604767 1.1450001 1.5390514e-38
-0.1138 -0.076950483 1.138 8.7599917e-39
-0.11163238 -0.076950483 1.138 9.8688574e-39
-0.10908 -0.076680005 1.1340001 1.2450335e-38
-0.10692 -0.076680005 1.1340001 1.2722987e-38
-0.10439047 -0.076409526 1.13 1.2630791e-38
-0.089323811 -0.076409526 1.13 1.3008579e-38
-0.086862855 -0.076139055 1.126 1.1810036e-38
-0.084718093 -0.076139055 1.126 1.3560313e-38
-0.082866669 -0.076409526 1.13 1.6049595e-38
-0.080714285 -0.076409526 1.13 1.7886303e-38
-0.076139055 -0.076139055 1.126 1.6685187e-38
-0.073994286 -0.076139055 1.126 1.8805686e-38
-0.07210476 -0.076409526 1.13 1.8162549e-38
-0.063495234 -0.076409526 1.13 1.5674702e-38
-0.061560001 -0.076680005 1.1340001 1.5029332e-38
-0.055080004 -0.076680005 1.1340001 1.4384669e-38
-0.053106666 -0.076950483 1.138 1.5859799e-38
-0.051073335 -0.077153333 1.141 1.4199206e-38
-0.044709526 -0.077423811 1.1450001 1.3374005e-38
-0.042528573 -0.077423811 1.1450001 1.548271e-38
-0.1141 -0.074980006 1.141 7.5636136e-39
-0.11163238 -0.074782856 1.138 8.3055128e-39
-0.10908 -0.074519999 1.1340001 1.0702599e-38
-0.10692 -0.074519999 1.1340001 1.2907022e-38
-0.10439047 -0.074257143 1.13 1.54885e-38
-0.09362857 -0.074257143 1.13 1.2082281e-38
-0.091476195 -0.074257143 1.13 1.6876454e-38
-0.089323811 -0.074257143 1.13 1.6782479e-38
-0.087171428 -0.074257143 1.13 1.5952718e-38
-0.085019045 -0.074257143 1.13 1.6783189e-38
-0.082866669 -0.074257143 1.13 1.7151972e-38
-0.080714285 -0.074257143 1.13 1.5212279e-38
-0.078561902 -0.074257143 1.13 1.0602497e-38
-0.076409526 -0.074257143 1.13 1.1337516e-38
-0.063495234 -0.074257143 1.13 1.5124422e-38
-0.061560001 -0.074519999 1.1340001 1.3003922e-38
-0.055274285 -0.074782856 1.138 1.2636521e-38
-0.053246666 -0.074980006 1.141 1.4388238e-38
-0.051252387 -0.075242862 1.1450001 1.2360316e-38
-0.044709526 -0.075242862 1.1450001 1.2728735e-38
-0.042677142 -0.075505719 1.149 1.539086e-38
-0.11668096 -0.073061906 1.1450001 8.668522e-39
-0.1141 -0.072806664 1.141 7.9309569e-39
-0.11192667 -0.072806664 1.141 7.2002443e-39
-0.10946476 -0.072615236 1.138 9.4129394e-39
-0.10729714 -0.072615236 1.138 1.2999937e-38
-0.10476001 -0.072360002 1.1340001 1.5489219e-38
-0.1022381 -0.07210476 1.13 1.3373408e-38
-0.10008571 -0.07210476 1.13 6.8275185e-39
-0.091800004 -0.072360002 1.1340001 1.5125782e-38
-0.089639999 -0.072360002 1.1340001 1.8068876e-38
-0.087171428 -0.07210476 1.13 1.8437659e-38
-0.085019045 -0.07210476 1.13 1.7703003e-38
-0.082866669 -0.07210476 1.13 1.585909e-38
-0.080714285 -0.07210476 1.13 1.3002808e-38
-0.078561902 -0.07210476 1.13 9.8681568e-39
-0.076409526 -0.07210476 1.13 1.0143265e-38
-0.074257143 -0.07210476 1.13 1.2079374e-38
-0.065647617 -0.07210476 1.13 1.7331699e-38
-0.063720003 -0.072360002 1.1340001 1.4204974e-38
-0.057240006 -0.072360002 1.1340001 9.6949339e-39
-0.055274285 -0.072615236 1.138 1.0888776e-38
-0.053246666 -0.072806664 1.141 1.291708e-38
-0.051073335 -0.072806664 1.141 1.0611845e-38
-0.042677142 -0.07331714 1.149 1.5113206e-38
-0.1141 -0.070633337 1.141 8.2075817e-39
-0.11192667 -0.070633337 1.141 7.1098661e-39
-0.10946476 -0.070447616 1.138 8.124018e-39
-0.10729714 -0.070447616 1.138 1.2264505e-38
-0.10476001 -0.070200004 1.1340001 1.3739635e-38
-0.1026 -0.070200004 1.1340001 1.1992234e-38
-0.10044 -0.070200004 1.1340001 6.0917135e-39
-0.089639999 -0.070200004 1.1340001 1.5951179e-38
-0.087171428 -0.069952376 1.13 1.8993635e-38
-0.085019045 -0.069952376 1.13 1.8253604e-38
-0.082866669 -0.069952376 1.13 1.1892105e-38
-0.080714285 -0.069952376 1.13 1.0788671e-38
-0.078561902 -0.069952376 1.13 1.1249649e-38
-0.076409526 -0.069952376 1.13 1.1708479e-38
-0.074257143 -0.069952376 1.13 1.0970914e-38
-0.069952376 -0.069952376 1.13 1.6591967e-38
-0.0678 -0.069952376 1.13 1.7241296e-38
-0.065880001 -0.070200004 1.1340001 1.5489579e-38
-0.057240006 -0.070200004 1.1340001 9.6949367e-39
-0.055274285 -0.070447616 1.138 1.1899703e-38
-0.053246666 -0.070633337 1.141 1.3928007e-38
-0.051073335 -0.070633337 1.141 1.2175571e-38
-0.12365429 -0.068939999 1.149 1.5206496e-38
-0.1141 -0.068460003 1.141 9.2202538e-39
-0.11192667 -0.068460003 1.141 7.5686736e-39
-0.10975334 -0.068460003 1.141 8.4906299e-39
-0.10729714 -0.068279997 1.138 1.0239466e-38
-0.10512953 -0.068279997 1.138 1.2728748e-38
-0.1026 -0.068039998 1.1340001 9.8753819e-39
-0.087480001 -0.068039998 1.1340001 1.7155539e-38
-0.085320003 -0.068039998 1.1340001 1.6226434e-38
-0.082866669 -0.0678 1.13 1.0879087e-38
-0.080714285 -0.0678 1.13 1.0971265e-38
-0.078561902 -0.0678 1.13 1.2077612e-38
-0.076409526 -0.0678 1.13 1.2261293e-38
-0.074257143 -0.0678 1.13 1.1154945e-38
-0.07210476 -0.0678 1.13 9.8670456e-39
-0.070200004 -0.068039998 1.1340001 1.5951957e-38
-0.068039998 -0.068039998 1.1340001 1.6138574e-38
-0.059400003 -0.068039998 1.1340001 9.9715208e-39
-0.057441905 -0.068279997 1.138 9.6027382e-39
-0.055274285 -0.068279997 1.138 1.2450007e-38
-0.053246666 -0.068460003 1.141 1.4662702e-38
-0.051252387 -0.068700008 1.1450001 1.3004253e-38
-0.12365429 -0.066751435 1.149 1.5113218e-38
-0.11668096 -0.066519052 1.1450001 1.1064166e-38
-0.11450001 -0.066519052 1.1450001 8.9436669e-39
-0.10975334 -0.066286668 1.141 8.9526871e-39
-0.10758 -0.066286668 1.141 1.1895384e-38
-0.10512953 -0.066112377 1.138 1.5306623e-38
-0.1026 -0.065880001 1.1340001 1.3374099e-38
-0.087480001 -0.065880001 1.1340001 1.7153404e-38
-0.082866669 -0.065647617 1.13 1.0049308e-38
-0.080714285 -0.065647617 1.13 9.7759612e-39
-0.078561902 -0.065647617 1.13 1.0974504e-38
-0.076409526 -0.065647617 1.13 1.1615923e-38
-0.074257143 -0.065647617 1.13 1.0509576e-38
-0.072360002 -0.065880001 1.1340001 1.0879072e-38
-0.061777141 -0.066112377 1.138 1.0520381e-38
-0.059609525 -0.066112377 1.138 1.0155196e-38
-0.057441905 -0.066112377 1.138 1.1077152e-38
-0.05542 -0.066286668 1.141 1.3739667e-38
-0.053433336 -0.066519052 1.1450001 1.4385036e-38
-0.12408476 -0.064787619 1.153 1.4929909e-38
-0.11708858 -0.064562857 1.149 1.0972677e-38
-0.11450001 -0.064338103 1.1450001 8.483395e-39
-0.11192667 -0.064113334 1.141 8.1232543e-39
-0.10758 -0.064113334 1.141 1.3092133e-38
-0.10512953 -0.063944757 1.138 1.5028241e-38
-0.10296191 -0.063944757 1.138 1.3281922e-38
-0.10044 -0.063720003 1.1340001 9.2253139e-39
-0.098280005 -0.063720003 1.1340001 2.3340784e-39
-0.096459046 -0.063944757 1.138 2.0574915e-39
-0.093960002 -0.063720003 1.1340001 2.1499982e-39
-0.091800004 -0.063720003 1.1340001 4.2704977e-39
-0.089639999 -0.063720003 1.1340001 1.3093565e-38
-0.087480001 -0.063720003 1.1340001 1.7426759e-38
-0.085320003 -0.063720003 1.1340001 1.6411901e-38
-0.082866669 -0.063495234 1.13 1.1433337e-38
-0.080714285 -0.063495234 1.13 1.0049677e-38
-0.078561902 -0.063495234 1.13 1.0602851e-38
-0.076409526 -0.063495234 1.13 1.0787204e-38
-0.074257143 -0.063495234 1.13 1.1248182e-38
-0.072360002 -0.063720003 1.1340001 1.2352432e-38
-0.061560001 -0.063720003 1.1340001 1.0977413e-38
-0.059609525 -0.063944757 1.138 1.0980631e-38
-0.057441905 -0.063944757 1.138 1.2732348e-38
-0.05542 -0.064113334 1.141 1.4936408e-38
-0.053433336 -0.064338103 1.1450001 1.2908104e-38
-0.11708858 -0.06237429 1.149 1.1064166e-38
-0.11450001 -0.06215715 1.1450001 6.177798e-39
-0.11192667 -0.061940003 1.141 8.3966196e-39
-0.10758 -0.061940003 1.141 1.3552016e-38
-0.10512953 -0.061777141 1.138 1.2169082e-38
-0.096459046 -0.061777141 1.138 4.5287934e-39
-0.094291434 -0.061777141 1.138 6.2869228e-39
-0.092123814 -0.061777141 1.138 1.2925008e-38
-0.089639999 -0.061560001 1.1340001 1.7058327e-38
-0.087480001 -0.061560001 1.1340001 1.7519305e-38
-0.085320003 -0.061560001 1.1340001 1.6872163e-38
-0.083160006 -0.061560001 1.1340001 1.6134598e-38
-0.081 -0.061560001 1.1340001 1.300248e-38
-0.078840002 -0.061560001 1.1340001 9.7756332e-39
-0.076680005 -0.061560001 1.1340001 1.0512435e-38
-0.074519999 -0.061560001 1.1340001 1.4476847e-38
-0.061560001 -0.061560001 1.1340001 1.4663083e-38
-0.059609525 -0.061777141 1.138 1.5306626e-38
-0.057441905 -0.061777141 1.138 1.5951995e-38
-0.053433336 -0.06215715 1.1450001 8.1128497e-39
-0.11708858 -0.060185716 1.149 1.1801015e-38
-0.11450001 -0.059976194 1.1450001 6.3614732e-39
-0.11192667 -0.059766669 1.141 8.9450752e-39
-0.10758 -0.059766669 1.141 1.3277956e-38
-0.10512953 -0.059609525 1.138 9.6823264e-39
-0.094291434 -0.059609525 1.138 1.0149069e-38
-0.092123814 -0.059609525 1.138 1.5773003e-38
-0.089956194 -0.059609525 1.138 1.742569e-38
-0.087788574 -0.059609525 1.138 1.6134951e-38
-0.085320003 -0.059400003 1.1340001 1.6687396e-38
-0.083160006 -0.059400003 1.1340001 1.724057e-38
-0.081 -0.059400003 1.1340001 1.6318989e-38
-0.078840002 -0.059400003 1.1340001 1.1617012e-38
-0.076680005 -0.059400003 1.1340001 1.13404e-38
-0.074519999 -0.059400003 1.1340001 1.6964334e-38
-0.061777141 -0.059609525 1.138 1.632292e-38
-0.057441905 -0.059609525 1.138 1.6591989e-38
-0.05542 -0.059766669 1.141 1.3367622e-38
-0.053433336 -0.059976194 1.1450001 7.9280801e-39
-0.12010762 -0.058400955 1.1570001 1.5850771e-38
-0.11749619 -0.058199048 1.153 1.2538593e-38
-0.1149 -0.057997145 1.149 4.4253776e-39
-0.11231906 -0.057795241 1.1450001 5.6282396e-39
-0.10975334 -0.057593334 1.141 1.0883391e-38
-0.10758 -0.057593334 1.141 1.1156352e-38
-0.10512953 -0.057441905 1.138 7.5607227e-39
-0.10296191 -0.057441905 1.138 7.8366159e-39
-0.096713334 -0.057593334 1.141 1.6594497e-38
-0.094540007 -0.057593334 1.141 1.5861942e-38
-0.092123814 -0.057441905 1.138 1.5769746e-38
-0.089956194 -0.057441905 1.138 1.3925879e-38
-0.087788574 -0.057441905 1.138 1.2450748e-38
-0.085620955 -0.057441905 1.138 1.3005342e-38
-0.081 -0.057240006 1.1340001 1.7240593e-38
-0.078840002 -0.057240006 1.1340001 1.6964006e-38
-0.076680005 -0.057240006 1.1340001 1.7425668e-38
-0.074519999 -0.057240006 1.1340001 1.8532015e-38
-0.063720003 -0.057240006 1.1340001 1.0519951e-38
-0.061777141 -0.057441905 1.138 1.5590711e-38
-0.059609525 -0.057441905 1.138 1.7238785e-38
-0.057441905 -0.057441905 1.138 1.3182177e-38
-0.05542 -0.057593334 1.141 1.1153831e-38
-0.053433336 -0.057795241 1.1450001 8.6645493e-39
-0.11708858 -0.055808574 1.149 1.309212e-38
-0.1149 -0.055808574 1.149 5.347687e-39
-0.1101381 -0.055614289 1.1450001 9.7816322e-39
-0.10758 -0.05542 1.141 1.0325545e-38
-0.10323334 -0.05542 1.141 8.0209609e-39
-0.10106 -0.05542 1.141 1.0233656e-38
-0.096713334 -0.05542 1.141 1.8526983e-38
-0.094540007 -0.05542 1.141 1.7333848e-38
-0.092366666 -0.05542 1.141 1.5121152e-38
-0.089956194 -0.055274285 1.138 1.1905102e-38
-0.087788574 -0.055274285 1.138 1.0798755e-38
-0.085620955 -0.055274285 1.138 1.1168972e-38
-0.078840002 -0.055080004 1.1340001 1.8624586e-38
-0.076680005 -0.055080004 1.1340001 1.8807195e-38
-0.065880001 -0.055080004 1.1340001 1.9685189e-39
-0.063720003 -0.055080004 1.1340001 5.828778e-39
-0.061777141 -0.055274285 1.138 1.2927842e-38
-0.059609525 -0.055274285 1.138 1.6044583e-38
-0.057593334 -0.05542 1.141 1.0697236e-38
-0.055614289 -0.055614289 1.1450001 9.3106474e-39
-0.051252387 -0.055614289 1.1450001 8.7578407e-39
-0.049071435 -0.055614289 1.1450001 1.2076883e-38
-0.1101381 -0.053433336 1.1450001 1.0791143e-38
-0.10758 -0.053246666 1.141 1.1339331e-38
-0.092366666 -0.053246666 1.141 1.3186474e-38
-0.090193339 -0.053246666 1.141 1.0985297e-38
-0.087788574 -0.053106666 1.138 1.1169688e-38
-0.085620955 -0.053106666 1.138 1.1629244e-38
-0.083453335 -0.053106666 1.138 1.1629244e-38
-0.076680005 -0.052920002 1.1340001 1.7611883e-38
-0.074519999 -0.052920002 1.1340001 1.1803559e-38
-0.072360002 -0.052920002 1.1340001 4.2665825e-39
-0.070200004 -0.052920002 1.1340001 4.2665825e-39
-0.068279997 -0.053106666 1.138 5.0974123e-39
-0.066112377 -0.053106666 1.138 4.175456e-39
-0.063944757 -0.053106666 1.138 6.3798415e-39
-0.061777141 -0.053106666 1.138 1.1634992e-38
-0.057593334 -0.053246666 1.141 9.3157089e-39
-0.053620003 -0.053620003 1.149 8.9440551e-39
-0.051431429 -0.053620003 1.149 9.7727214e-39
-0.11450001 -0.051252387 1.1450001 8.8482343e-39
-0.1101381 -0.051252387 1.1450001 1.2167957e-38
-0.10758 -0.051073335 1.141 1.17074e-38
-0.10540666 -0.051073335 1.141 8.8493357e-39
-0.094540007 -0.051073335 1.141 1.494074e-38
-0.090193339 -0.051073335 1.141 1.034173e-38
-0.088020004 -0.051073335 1.141 1.1079295e-38
-0.085620955 -0.050939046 1.138 1.153813e-38
-0.083453335 -0.050939046 1.138 1.0892761e-38
-0.081285715 -0.050939046 1.138 1.1628509e-38
-0.079118095 -0.050939046 1.138 1.5961703e-38
-0.076950483 -0.050939046 1.138 1.5775549e-38
-0.074782856 -0.050939046 1.138 8.9530725e-39
-0.072615236 -0.050939046 1.138 1.6026006e-39
-0.070447616 -0.050939046 1.138 2.985535e-39
-0.068279997 -0.050939046 1.138 4.7297032e-39
-0.066112377 -0.050939046 1.138 3.6233557e-39
-0.063944757 -0.050939046 1.138 5.4611123e-39
-0.06215715 -0.051252387 1.1450001 1.1453828e-38
-0.059976194 -0.051252387 1.1450001 1.4848551e-38
-0.057795241 -0.051252387 1.1450001 1.0146574e-38
-0.055808574 -0.051431429 1.149 8.4819853e-39
-0.044865716 -0.051431429 1.149 1.447071e-38
-0.042825714 -0.051610474 1.153 1.4928806e-38
-0.11570001 -0.049585715 1.1570001 1.1613021e-38
-0.11349619 -0.049585715 1.1570001 1.134039e-38
-0.10795715 -0.049071435 1.1450001 1.2723325e-38
-0.1057762 -0.049071435 1.1450001 9.4964778e-39
-0.10359525 -0.049071435 1.1450001 8.4834049e-39
-0.10106 -0.048900001 1.141 8.4834049e-39
-0.094871432 -0.049071435 1.1450001 1.6045274e-38
-0.092366666 -0.048900001 1.141 1.3187209e-38
-0.090193339 -0.048900001 1.141 1.1076792e-38
-0.088020004 -0.048900001 1.141 1.1353379e-38
-0.085846663 -0.048900001 1.141 1.1445575e-38
-0.083453335 -0.048771426 1.138 1.0892401e-38
-0.081285715 -0.048771426 1.138 1.291566e-38
-0.079118095 -0.048771426 1.138 1.6695681e-38
-0.076950483 -0.048771426 1.138 1.7337097e-38
-0.074782856 -0.048771426 1.138 1.3464881e-38
-0.072615236 -0.048771426 1.138 4.3595208e-39
-0.070633337 -0.048900001 1.141 3.068782e-39
-0.068460003 -0.048900001 1.141 2.3383916e-39
-0.066286668 -0.048900001 1.141 3.0759566e-39
-0.064113334 -0.048900001 1.141 8.3109232e-39
-0.06215715 -0.049071435 1.1450001 1.4303639e-38
-0.057795241 -0.049071435 1.1450001 1.4844575e-38
-0.055808574 -0.049242858 1.149 1.3000275e-38
-0.045021903 -0.049414285 1.153 1.428671e-38
-0.11349619 -0.047381908 1.1570001 1.2075079e-38
-0.11090762 -0.047218092 1.153 1.2720448e-38
-0.10871143 -0.047218092 1.153 1.2171962e-38
-0.1057762 -0.046890479 1.1450001 9.7748751e-39
-0.090509534 -0.046890479 1.1450001 1.144415e-38
-0.088328578 -0.046890479 1.1450001 1.1259758e-38
-0.085846663 -0.046726666 1.141 1.0893464e-38
-0.083673336 -0.046726666 1.141 1.1262247e-38
-0.081500001 -0.046726666 1.141 1.4753481e-38
-0.079326667 -0.046726666 1.141 1.7058372e-38
-0.077153333 -0.046726666 1.141 1.8073195e-38
-0.074980006 -0.046726666 1.141 1.6782456e-38
-0.072806664 -0.046726666 1.141 9.2379831e-39
-0.070633337 -0.046726666 1.141 3.7984409e-39
-0.066286668 -0.046726666 1.141 4.3680757e-39
-0.064113334 -0.046726666 1.141 1.2451808e-38
-0.057795241 -0.046890479 1.1450001 1.6501926e-38
-0.055808574 -0.047054287 1.149 1.5210484e-38
-0.053620003 -0.047054287 1.149 1.318218e-38
-0.11349619 -0.0451781 1.1570001 1.0971968e-38
-0.11090762 -0.045021903 1.153 9.4046423e-39
-0.10871143 -0.045021903 1.153 1.0051494e-38
-0.10614572 -0.044865716 1.149 1.2448581e-38
-0.10359525 -0.044709526 1.1450001 1.3459085e-38
-0.088328578 -0.044709526 1.1450001 1.3097893e-38
-0.085846663 -0.044553336 1.141 1.2548307e-38
-0.083673336 -0.044553336 1.141 1.5314176e-38
-0.081500001 -0.044553336 1.141 1.7149113e-38
-0.079326667 -0.044553336 1.141 1.5489592e-38
-0.077153333 -0.044553336 1.141 1.761001e-38
-0.074980006 -0.044553336 1.141 1.9361727e-38
-0.070633337 -0.044553336 1.141 1.2265296e-38
-0.068460003 -0.044553336 1.141 1.098419e-38
-0.066519052 -0.044709526 1.1450001 1.3750059e-38
-0.064338103 -0.044709526 1.1450001 1.5125481e-38
-0.059976194 -0.044709526 1.1450001 1.4386073e-38
-0.057997145 -0.044865716 1.149 1.5215834e-38
-0.055808574 -0.044865716 1.149 1.5398102e-38
-0.053806666 -0.045021903 1.153 1.2816625e-38
-0.045334287 -0.045334287 1.161 1.4564366e-38
-0.11388857 -0.043122858 1.161 1.0880491e-38
-0.11129239 -0.042974286 1.1570001 8.4834049e-39
-0.10908858 -0.042974286 1.1570001 9.223488e-39
-0.10651524 -0.042825714 1.153 1.2450335e-38
-0.10395715 -0.042677142 1.149 1.4747676e-38
-0.10141429 -0.042528573 1.1450001 1.6407197e-38
-0.099233337 -0.042528573 1.1450001 1.4295002e-38
-0.097391427 -0.042677142 1.149 8.7632638e-39
-0.094871432 -0.042528573 1.1450001 1.0330888e-38
-0.09269049 -0.042528573 1.1450001 1.5493843e-38
-0.088328578 -0.042528573 1.1450001 1.4846721e-38
-0.086147629 -0.042528573 1.1450001 1.3559254e-38
-0.083966672 -0.042528573 1.1450001 1.6417319e-38
-0.081785724 -0.042528573 1.1450001 1.8070346e-38
-0.079604767 -0.042528573 1.1450001 1.3368369e-38
-0.072806664 -0.042380001 1.141 1.9083053e-38
-0.070880957 -0.042528573 1.1450001 1.6778163e-38
-0.068700008 -0.042528573 1.1450001 1.3649294e-38
-0.064338103 -0.042528573 1.1450001 1.5954523e-38
-0.06215715 -0.042528573 1.1450001 1.2082306e-38
-0.060185716 -0.042677142 1.149 1.1164644e-38
-0.057997145 -0.042677142 1.149 1.2731969e-38
-0.056002859 -0.042825714 1.153 1.4663068e-38
-0.053993337 -0.042974286 1.1570001 1.1989395e-38
-0.051789526 -0.042974286 1.1570001 9.0401547e-39
-0.047381908 -0.042974286 1.1570001 1.1797769e-38
-0.045334287 -0.043122858 1.161 1.4563637e-38
-0.11428096 -0.041052382 1.1650001 1.1064529e-38
-0.11167714 -0.040911429 1.161 8.8518342e-39
-0.10946572 -0.040911429 1.161 8.3977084e-39
