# .PCD v0.7 - Point Cloud Data file format
VERSION 0.7
FIELDS x y z rgb
SIZE 4 4 4 4
TYPE F F F F
COUNT 1 1 1 1
WIDTH 482
HEIGHT 1
VIEWPOINT 0 0 0 1 0 0 0
POINTS 482
DATA ascii
-0.062616192 -0.28686953 1.529 1.5395579e-38
-0.056568574 -0.28574383 1.5230001 1.5394502e-38
-0.053667624 -0.28574383 1.5230001 1.5394502e-38
-0.050766669 -0.28574383 1.5230001 1.5025004e-38
-0.065528572 -0.28395712 1.529 1.6223178e-38
-0.062616192 -0.28395712 1.529 1.6039503e-38
-0.056568574 -0.28284287 1.5230001 1.5762556e-38
-0.053667624 -0.28284287 1.5230001 1.5670361e-38
-0.050766669 -0.28284287 1.5230001 1.5485253e-38
-0.096205719 -0.26909718 1.4640001 1.3829344e-38
-0.062616192 -0.28104478 1.529 1.6222816e-38
-0.053667624 -0.27994192 1.5230001 1.57622e-38
-0.099399999 -0.26740003 1.47 1.041915e-38
-0.096205719 -0.26630861 1.4640001 1.401478e-38
-0.067759998 -0.2641257 1.452 1.6408289e-38
-0.061928574 -0.26285237 1.4450001 1.6314308e-38
-0.059176192 -0.26285237 1.4450001 1.6498677e-38
-0.099399999 -0.26460001 1.47 4.8067606e-39
-0.061928574 -0.26010001 1.4450001 1.5211547e-38
-0.059176192 -0.26010001 1.4450001 1.5304099e-38
-0.056423813 -0.26010001 1.4450001 1.6410447e-38
-0.099399999 -0.26180002 1.47 1.6883811e-39
-0.090628572 -0.26073143 1.4640001 1.1434028e-38
-0.061928574 -0.25734761 1.4450001 1.3464162e-38
-0.059176192 -0.25734761 1.4450001 1.2267767e-38
-0.056423813 -0.25734761 1.4450001 1.5218027e-38
-0.051165711 -0.2585943 1.452 1.3740752e-38
-0.061928574 -0.25459525 1.4450001 1.4201727e-38
-0.059176192 -0.25459525 1.4450001 1.567573e-38
-0.056423813 -0.25459525 1.4450001 1.6689882e-38
-0.053671431 -0.25459525 1.4450001 1.4479749e-38
-0.050919048 -0.25459525 1.4450001 9.3167935e-39
-0.081588566 -0.25306284 1.452 1.4842768e-38
-0.061928574 -0.25184286 1.4450001 1.5402784e-38
-0.059176192 -0.25184286 1.4450001 1.6596661e-38
-0.056423813 -0.25184286 1.4450001 1.5951292e-38
-0.053671431 -0.25184286 1.4450001 1.1811108e-38
-0.050919048 -0.25184286 1.4450001 6.7403479e-39
-0.099399999 -0.2534 1.47 2.1109607e-38
-0.06499429 -0.25029716 1.452 1.1716408e-38
-0.061928574 -0.24909049 1.4450001 1.5219842e-38
-0.059176192 -0.24909049 1.4450001 1.5677588e-38
-0.056423813 -0.24909049 1.4450001 1.143659e-38
-0.053671431 -0.24909049 1.4450001 5.5515479e-39
-0.050919048 -0.24909049 1.4450001 4.9983742e-39
-0.048166666 -0.24909049 1.4450001 4.8190304e-39
-0.099399999 -0.25060001 1.47 2.3416971e-38
-0.06499429 -0.24753141 1.452 1.0614013e-38
-0.059176192 -0.24633808 1.4450001 1.4023838e-38
-0.056423813 -0.24633808 1.4450001 9.6906431e-39
-0.053671431 -0.24633808 1.4450001 2.9801372e-39
-0.051165711 -0.24753141 1.452 3.1645285e-39
-0.0484 -0.24753141 1.452 4.6349768e-39
-0.045634285 -0.24753141 1.452 3.8052162e-39
-0.099399999 -0.24779999 1.47 2.341769e-38
-0.06499429 -0.24476571 1.452 1.2821676e-38
-0.062228575 -0.24476571 1.452 1.5403154e-38
-0.059462857 -0.24476571 1.452 1.5769065e-38
-0.056697145 -0.24476571 1.452 1.4386131e-38
-0.05393143 -0.24476571 1.452 9.4180331e-39
-0.051165711 -0.24476571 1.452 5.0848385e-39
-0.0484 -0.24476571 1.452 2.7031944e-39
-0.045634285 -0.24476571 1.452 4.8236939e-39
-0.062228575 -0.242 1.452 1.5675788e-38
-0.059462857 -0.242 1.452 1.6411147e-38
-0.056697145 -0.242 1.452 1.6226756e-38
-0.05393143 -0.242 1.452 1.4020585e-38
-0.051165711 -0.242 1.452 8.7654344e-39
-0.0484 -0.242 1.452 4.5391967e-39
-0.045634285 -0.242 1.452 7.4894568e-39
-0.02649143 -0.244 1.4640001 7.3787879e-39
-0.062485714 -0.24022286 1.4580001 1.1986526e-38
-0.059462857 -0.23923428 1.452 1.2263386e-38
-0.056697145 -0.23923428 1.452 1.5121451e-38
-0.05393143 -0.23923428 1.452 1.4938228e-38
-0.051165711 -0.23923428 1.452 1.5030424e-38
-0.0484 -0.23923428 1.452 1.466485e-38
-0.045634285 -0.23923428 1.452 1.5125829e-38
-0.040102858 -0.23923428 1.452 1.2358906e-38
-0.02649143 -0.24121144 1.4640001 4.252421e-39
-0.091000006 -0.23940001 1.47 1.1720319e-38
-0.088200003 -0.23940001 1.47 1.2820237e-38
-0.076371431 -0.23744573 1.4580001 1.0331633e-38
-0.062485714 -0.23744573 1.4580001 1.0142601e-38
-0.059708573 -0.23744573 1.4580001 9.8652477e-39
-0.056931432 -0.23744573 1.4580001 1.1893552e-38
-0.054154288 -0.23744573 1.4580001 1.5669998e-38
-0.051377144 -0.23744573 1.4580001 1.7329519e-38
-0.048600003 -0.23744573 1.4580001 1.714839e-38
-0.029160002 -0.23744573 1.4580001 9.6866718e-39
-0.02649143 -0.23842287 1.4640001 5.7038453e-40
-0.091433339 -0.23772669 1.4770001 1.1624202e-38
-0.088200003 -0.23660001 1.47 1.1346899e-38
-0.07110858 -0.2356343 1.4640001 1.3832957e-38
-0.065262854 -0.23466858 1.4580001 9.4997778e-39
-0.062485714 -0.23466858 1.4580001 9.4997778e-39
-0.059708573 -0.23466858 1.4580001 1.0418832e-38
-0.056931432 -0.23466858 1.4580001 9.7734626e-39
-0.054154288 -0.23466858 1.4580001 1.041739e-38
-0.051377144 -0.23466858 1.4580001 1.5949128e-38
-0.048600003 -0.23466858 1.4580001 1.5769043e-38
-0.045822859 -0.23466858 1.4580001 1.3003174e-38
-0.034857146 -0.2356343 1.4640001 1.0338511e-38
-0.091433339 -0.23491336 1.4770001 1.1345808e-38
-0.088200003 -0.23380001 1.47 1.0977764e-38
-0.068039998 -0.23189144 1.4580001 1.0979577e-38
-0.065262854 -0.23189144 1.4580001 8.3044436e-39
-0.062485714 -0.23189144 1.4580001 9.0420087e-39
-0.059708573 -0.23189144 1.4580001 1.069468e-38
-0.056931432 -0.23189144 1.4580001 9.9571154e-39
-0.054154288 -0.23189144 1.4580001 9.4071394e-39
-0.051377144 -0.23189144 1.4580001 1.5676442e-38
-0.048600003 -0.23189144 1.4580001 1.4942905e-38
-0.045822859 -0.23189144 1.4580001 1.1439471e-38
-0.094246671 -0.23210001 1.4770001 7.8448878e-39
-0.091433339 -0.23210001 1.4770001 1.1440517e-38
-0.088200003 -0.23100001 1.47 1.2542208e-38
-0.085051432 -0.23005715 1.4640001 1.0882687e-38
-0.056931432 -0.22911429 1.4580001 1.0144391e-38
-0.054154288 -0.22911429 1.4580001 1.1433665e-38
-0.051377144 -0.22911429 1.4580001 1.6227838e-38
-0.048600003 -0.22911429 1.4580001 1.6321145e-38
-0.045822859 -0.22911429 1.4580001 1.4385036e-38
-0.094629526 -0.2302181 1.483 1.0509233e-38
-0.091804765 -0.2302181 1.483 1.2168754e-38
-0.088620007 -0.22928669 1.4770001 1.2908429e-38
-0.0854 -0.2282 1.47 1.2539647e-38
-0.082600005 -0.2282 1.47 9.3211193e-39
-0.059954289 -0.22726859 1.4640001 9.4053583e-39
-0.05716572 -0.22726859 1.4640001 1.1157075e-38
-0.054377146 -0.22726859 1.4640001 1.3732483e-38
-0.051588573 -0.22726859 1.4640001 1.6774938e-38
-0.048800007 -0.22726859 1.4640001 1.6688103e-38
-0.040268574 -0.22633715 1.4580001 1.2544364e-38
-0.03749143 -0.22633715 1.4580001 1.1625307e-38
-0.097848572 -0.22831334 1.4890001 1.7148387e-38
-0.094629526 -0.22739333 1.483 8.7669015e-39
-0.091804765 -0.22739333 1.483 6.7385977e-39
-0.088620007 -0.22647335 1.4770001 9.6822872e-39
-0.0854 -0.2254 1.47 1.2724743e-38
-0.082600005 -0.2254 1.47 1.2817716e-38
-0.062742859 -0.22448 1.4640001 1.392478e-38
-0.059954289 -0.22448 1.4640001 1.4475755e-38
-0.05716572 -0.22448 1.4640001 1.6596255e-38
-0.054377146 -0.22448 1.4640001 1.622751e-38
-0.051588573 -0.22448 1.4640001 1.2539685e-38
-0.048800007 -0.22448 1.4640001 1.2085096e-38
-0.097848572 -0.22547714 1.4890001 2.1758888e-38
-0.088620007 -0.22366001 1.4770001 7.5603079e-39
-0.085806675 -0.22366001 1.4770001 1.0233981e-38
-0.082600005 -0.22260001 1.47 1.4101956e-38
-0.079800002 -0.22260001 1.47 1.6683434e-38
-0.062742859 -0.22169144 1.4640001 1.539991e-38
-0.059954289 -0.22169144 1.4640001 1.5947699e-38
-0.05716572 -0.22169144 1.4640001 1.7054046e-38
-0.054377146 -0.22169144 1.4640001 1.5125138e-38
-0.051588573 -0.22169144 1.4640001 8.3026612e-39
-0.048800007 -0.22169144 1.4640001 5.6418756e-39
-0.046011433 -0.22169144 1.4640001 7.5779839e-39
-0.0266 -0.22260001 1.47 5.9980633e-39
-0.023913335 -0.22366001 1.4770001 1.9182038e-38
-0.082600005 -0.21980001 1.47 9.5872763e-39
-0.079800002 -0.21980001 1.47 1.5487797e-38
-0.065531433 -0.21890287 1.4640001 1.2820237e-38
-0.062742859 -0.21890287 1.4640001 1.5678302e-38
-0.059954289 -0.21890287 1.4640001 1.6136759e-38
-0.05716572 -0.21890287 1.4640001 1.3463086e-38
-0.054377146 -0.21890287 1.4640001 8.127646e-39
-0.051588573 -0.21890287 1.4640001 5.5461684e-39
-0.048800007 -0.21890287 1.4640001 4.4498597e-39
-0.046011433 -0.21890287 1.4640001 4.0810772e-39
-0.0266 -0.21980001 1.47 5.998792e-39
-0.079800002 -0.21700001 1.47 1.5029292e-38
-0.076685719 -0.2161143 1.4640001 1.309791e-38
-0.065531433 -0.2161143 1.4640001 1.107355e-38
-0.062742859 -0.2161143 1.4640001 1.4576983e-38
-0.059954289 -0.2161143 1.4640001 1.485145e-38
-0.05716572 -0.2161143 1.4640001 1.1255821e-38
-0.054377146 -0.2161143 1.4640001 2.9815792e-39
-0.051588573 -0.2161143 1.4640001 2.7971879e-39
-0.048800007 -0.2161143 1.4640001 3.4407398e-39
-0.046011433 -0.2161143 1.4640001 2.5187835e-39
-0.085806675 -0.21522002 1.4770001 8.5774278e-39
-0.074200004 -0.2142 1.47 1.2174129e-38
-0.062742859 -0.21332572 1.4640001 1.4852131e-38
-0.059954289 -0.21332572 1.4640001 1.5953454e-38
-0.05716572 -0.21332572 1.4640001 1.3648563e-38
-0.054377146 -0.21332572 1.4640001 7.116029e-39
-0.051588573 -0.21332572 1.4640001 4.5345514e-39
-0.048800007 -0.21332572 1.4640001 2.6131498e-39
-0.029280001 -0.21332572 1.4640001 8.9465172e-39
-0.0266 -0.2142 1.47 7.3781685e-39
-0.077366672 -0.21240668 1.4770001 1.4110941e-38
-0.071400002 -0.2114 1.47 1.1166101e-38
-0.062742859 -0.21053715 1.4640001 1.5124409e-38
-0.059954289 -0.21053715 1.4640001 1.6597346e-38
-0.05716572 -0.21053715 1.4640001 1.5398803e-38
-0.054377146 -0.21053715 1.4640001 1.107538e-38
-0.051588573 -0.21053715 1.4640001 5.2670549e-39
-0.048800007 -0.21053715 1.4640001 3.2541682e-39
-0.0462 -0.2114 1.47 6.5732108e-39
-0.0266 -0.2114 1.47 7.8390206e-39
-0.02127143 -0.2141324 1.4890001 2.1204998e-38
-0.080180004 -0.20959334 1.4770001 9.6841439e-39
-0.062742859 -0.20774859 1.4640001 1.3556358e-38
-0.059954289 -0.20774859 1.4640001 1.5122886e-38
-0.05716572 -0.20774859 1.4640001 1.6690212e-38
-0.054377146 -0.20774859 1.4640001 1.5307747e-38
-0.051588573 -0.20774859 1.4640001 1.291066e-38
-0.048800007 -0.20774859 1.4640001 1.3099653e-38
-0.0462 -0.2086 1.47 1.5127957e-38
-0.043400001 -0.2086 1.47 1.4386118e-38
-0.02127143 -0.2112962 1.4890001 1.9822058e-38
-0.080180004 -0.20678002 1.4770001 5.4467294e-39
-0.062742859 -0.20496002 1.4640001 1.1434056e-38
-0.059954289 -0.20496002 1.4640001 1.1799198e-38
-0.057399999 -0.20580001 1.47 1.4565067e-38
-0.054377146 -0.20496002 1.4640001 1.7238765e-38
-0.051588573 -0.20496002 1.4640001 1.714657e-38
-0.048800007 -0.20496002 1.4640001 1.5674349e-38
-0.0462 -0.20580001 1.47 1.5766544e-38
-0.043400001 -0.20580001 1.47 1.3742194e-38
-0.026835239 -0.20762001 1.483 3.8707227e-40
-0.074553341 -0.20396669 1.4770001 7.5820028e-39
-0.071740001 -0.20396669 1.4770001 1.4937802e-38
-0.063000001 -0.20300001 1.47 1.0142897e-38
-0.057399999 -0.20300001 1.47 1.0142598e-38
-0.054377146 -0.20217144 1.4640001 1.2355611e-38
-0.051588573 -0.20217144 1.4640001 1.724198e-38
-0.048800007 -0.20217144 1.4640001 1.6781403e-38
-0.0462 -0.20300001 1.47 1.3554555e-38
-0.043400001 -0.20300001 1.47 1.0888458e-38
-0.026835239 -0.20479524 1.483 6.708296e-40
-0.024220953 -0.20659049 1.4960001 1.2656253e-38
-0.083667621 -0.20278764 1.4890001 7.8495765e-39
-0.068926677 -0.20115334 1.4770001 1.438862e-38
-0.066113338 -0.20115334 1.4770001 1.2632934e-38
-0.060200002 -0.20020001 1.47 1.0604283e-38
-0.0546 -0.20020001 1.47 9.6848165e-39
-0.051799998 -0.20020001 1.47 1.6322902e-38
-0.048999999 -0.20020001 1.47 1.5771236e-38
-0.0462 -0.20020001 1.47 1.1806824e-38
-0.043400001 -0.20020001 1.47 9.0510064e-39
-0.0294 -0.20020001 1.47 3.8844512e-39
-0.026835239 -0.20197047 1.483 4.8141889e-40
-0.018435238 -0.20278764 1.4890001 2.2494302e-38
-0.068926677 -0.19834001 1.4770001 1.4572279e-38
-0.060486671 -0.19834001 1.4770001 9.59193e-39
-0.057673335 -0.19834001 1.4770001 9.59193e-39
-0.0546 -0.1974 1.47 1.1064557e-38
-0.051799998 -0.1974 1.47 1.6411904e-38
-0.048999999 -0.1974 1.47 1.5954163e-38
-0.0462 -0.1974 1.47 1.2819511e-38
-0.043400001 -0.1974 1.47 1.015413e-38
-0.032353338 -0.19834001 1.4770001 1.3372329e-38
-0.02410762 -0.19995143 1.4890001 1.3375184e-38
-0.02127143 -0.19995143 1.4890001 1.7977711e-38
-0.060486671 -0.19552667 1.4770001 9.6822984e-39
-0.057673335 -0.19552667 1.4770001 1.1065233e-38
-0.054860003 -0.19552667 1.4770001 1.29031e-38
-0.052046672 -0.19552667 1.4770001 1.7051904e-38
-0.048999999 -0.1946 1.47 1.650659e-38
-0.0462 -0.1946 1.47 1.3925112e-38
-0.035 -0.1946 1.47 1.3006068e-38
-0.02410762 -0.19711524 1.4890001 1.4842736e-38
-0.015672382 -0.1980419 1.4960001 1.7423908e-38
-0.063300006 -0.19271335 1.4770001 1.3740045e-38
-0.060486671 -0.19271335 1.4770001 1.4107689e-38
-0.057673335 -0.19271335 1.4770001 1.6043797e-38
-0.054860003 -0.19271335 1.4770001 1.6042405e-38
-0.052046672 -0.19271335 1.4770001 1.3368732e-38
-0.049233336 -0.19271335 1.4770001 1.4479306e-38
-0.046420004 -0.19271335 1.4770001 1.5770045e-38
-0.043606669 -0.19271335 1.4770001 1.5308087e-38
-0.026835239 -0.1934962 1.483 1.1157066e-38
-0.02410762 -0.19427906 1.4890001 1.3738543e-38
-0.021371428 -0.1951924 1.4960001 1.6225349e-38
-0.018521905 -0.1951924 1.4960001 1.7239501e-38
-0.083330475 -0.19067143 1.483 9.2231349e-39
-0.063300006 -0.18990001 1.4770001 1.4940011e-38
-0.060486671 -0.18990001 1.4770001 1.5303758e-38
-0.057673335 -0.18990001 1.4770001 1.6686693e-38
-0.054860003 -0.18990001 1.4770001 1.5677588e-38
-0.052046672 -0.18990001 1.4770001 9.6848725e-39
-0.049233336 -0.18990001 1.4770001 9.6876864e-39
-0.046420004 -0.18990001 1.4770001 1.319112e-38
-0.043606669 -0.18990001 1.4770001 1.6501583e-38
-0.080831431 -0.18860668 1.4890001 1.2635082e-38
-0.060486671 -0.18708667 1.4770001 1.6136403e-38
-0.057673335 -0.18708667 1.4770001 1.4569077e-38
-0.054860003 -0.18708667 1.4770001 1.0061571e-38
-0.052046672 -0.18708667 1.4770001 6.2815502e-39
-0.049233336 -0.18708667 1.4770001 5.1845353e-39
-0.046420004 -0.18708667 1.4770001 6.3830785e-39
-0.063300006 -0.18427335 1.4770001 1.4392582e-38
-0.060486671 -0.18427335 1.4770001 1.494292e-38
-0.057673335 -0.18427335 1.4770001 1.2545834e-38
-0.054860003 -0.18427335 1.4770001 7.0259451e-39
-0.052046672 -0.18427335 1.4770001 4.7210544e-39
-0.049233336 -0.18427335 1.4770001 1.6933487e-39
-0.046608575 -0.18502191 1.483 2.2465225e-39
-0.060486671 -0.18146002 1.4770001 1.5585743e-38
-0.057673335 -0.18146002 1.4770001 1.3557439e-38
-0.054860003 -0.18146002 1.4770001 7.8535702e-39
-0.052046672 -0.18146002 1.4770001 4.4423319e-39
-0.049433336 -0.18219715 1.483 2.5206038e-39
-0.046608575 -0.18219715 1.483 5.1020815e-39
-0.04378381 -0.18219715 1.483 1.2821997e-38
-0.026835239 -0.18219715 1.483 1.1249613e-38
-0.086910479 -0.18094477 1.4960001 9.9578343e-39
-0.060486671 -0.17864667 1.4770001 1.6322204e-38
-0.057673335 -0.17864667 1.4770001 1.5861226e-38
-0.054860003 -0.17864667 1.4770001 9.3287213e-39
-0.052258097 -0.17937239 1.483 3.9813748e-39
-0.049433336 -0.17937239 1.483 4.8164688e-39
-0.046608575 -0.17937239 1.483 8.5964896e-39
-0.043960955 -0.1800981 1.4890001 1.4476149e-38
-0.093414292 -0.17964287 1.5090001 1.3090345e-38
-0.087317139 -0.17892857 1.503 1.1802823e-38
-0.084060952 -0.17809524 1.4960001 1.2356353e-38
-0.063557141 -0.17654762 1.483 1.5584263e-38
-0.060486671 -0.17583334 1.4770001 1.5768275e-38
-0.057673335 -0.17583334 1.4770001 1.7059014e-38
-0.054860003 -0.17583334 1.4770001 1.457164e-38
-0.052258097 -0.17654762 1.483 1.162138e-38
-0.049433336 -0.17654762 1.483 1.1995118e-38
-0.046608575 -0.17654762 1.483 1.4392204e-38
-0.090539999 -0.17676859 1.5090001 9.4997344e-39
-0.087665714 -0.17676859 1.5090001 1.1435843e-38
-0.084060952 -0.17524572 1.4960001 1.2636549e-38
-0.081211433 -0.17524572 1.4960001 9.0409199e-39
-0.063557141 -0.17372286 1.483 1.3922982e-38
-0.06073238 -0.17372286 1.483 1.3091742e-38
-0.057907619 -0.17372286 1.483 1.4935654e-38
-0.055082858 -0.17372286 1.483 1.6689204e-38
-0.052258097 -0.17372286 1.483 1.6320422e-38
-0.049433336 -0.17372286 1.483 1.4387573e-38
-0.046608575 -0.17372286 1.483 1.4295377e-38
-0.026943812 -0.17442572 1.4890001 5.5417501e-39
-0.024334285 -0.17606571 1.503 1.4392531e-38
-0.090960003 -0.17470096 1.516 1.0420993e-38
-0.087665714 -0.17389429 1.5090001 1.1435145e-38
-0.084454283 -0.17320286 1.503 1.0426388e-38
-0.081211433 -0.1723962 1.4960001 6.0931932e-39
-0.06073238 -0.17089809 1.483 1.0050756e-38
-0.057907619 -0.17089809 1.483 1.0235147e-38
-0.055082858 -0.17089809 1.483 1.2540013e-38
-0.052258097 -0.17089809 1.483 1.7426381e-38
-0.049433336 -0.17089809 1.483 1.6413346e-38
-0.046608575 -0.17089809 1.483 1.3555281e-38
-0.024334285 -0.17320286 1.503 1.3746137e-38
-0.090960003 -0.17181334 1.516 1.1710274e-38
-0.087665714 -0.17102002 1.5090001 1.1618079e-38
-0.084454283 -0.17034 1.503 9.3222179e-39
-0.081211433 -0.16954666 1.4960001 5.5421971e-39
-0.078361914 -0.16954666 1.4960001 1.0422115e-39
-0.06073238 -0.16807334 1.483 9.9589133e-39
-0.057907619 -0.16807334 1.483 9.4057395e-39
-0.055082858 -0.16807334 1.483 1.0604604e-38
-0.052258097 -0.16807334 1.483 1.7150493e-38
-0.049433336 -0.16807334 1.483 1.5769804e-38
-0.046797145 -0.16875334 1.4890001 1.1897587e-38
-0.043960955 -0.16875334 1.4890001 9.1439209e-39
-0.024334285 -0.17034 1.503 1.4755589e-38
-0.021471428 -0.17034 1.503 1.6129904e-38
-0.090960003 -0.16892572 1.516 1.1526622e-38
-0.087665714 -0.16814572 1.5090001 1.1250035e-38
-0.084791437 -0.16814572 1.5090001 1.0241669e-38
-0.081591427 -0.16747715 1.503 9.3197124e-39
-0.078361914 -0.16669716 1.4960001 4.3548054e-39
-0.06073238 -0.16524857 1.483 8.6717716e-39
-0.057907619 -0.16524857 1.483 8.4873803e-39
-0.055082858 -0.16524857 1.483 1.0971267e-38
-0.052258097 -0.16524857 1.483 1.7056179e-38
-0.049433336 -0.16524857 1.483 1.5586096e-38
-0.046797145 -0.16591716 1.4890001 1.1345097e-38
-0.043960955 -0.16591716 1.4890001 9.2354075e-39
-0.024334285 -0.16747715 1.503 1.5032923e-38
-0.021471428 -0.16747715 1.503 1.7052926e-38
-0.090960003 -0.1660381 1.516 1.2816978e-38
-0.088072382 -0.1660381 1.516 1.2171608e-38
-0.084791437 -0.16527143 1.5090001 1.1807878e-38
-0.081591427 -0.16461429 1.503 1.0609334e-38
-0.078361914 -0.16384763 1.4960001 7.5726141e-39
-0.075159051 -0.16308096 1.4890001 5.1755277e-39
-0.06073238 -0.1624238 1.483 8.8528642e-39
-0.057907619 -0.1624238 1.483 1.0143603e-38
-0.055082858 -0.1624238 1.483 1.2076889e-38
-0.052258097 -0.1624238 1.483 1.7516431e-38
-0.049633335 -0.16308096 1.4890001 1.6138198e-38
-0.046797145 -0.16308096 1.4890001 1.2265982e-38
-0.043960955 -0.16308096 1.4890001 9.8782363e-39
-0.024220953 -0.16384763 1.4960001 1.5582821e-38
-0.090960003 -0.16315047 1.516 1.3459833e-38
-0.088072382 -0.16315047 1.516 1.290666e-38
-0.084791437 -0.16239716 1.5090001 1.3370502e-38
-0.081591427 -0.16175143 1.503 1.4384654e-38
-0.078728572 -0.16175143 1.503 1.2821634e-38
-0.060978096 -0.16024476 1.4890001 1.2727958e-38
-0.058141906 -0.16024476 1.4890001 1.4295283e-38
-0.055305716 -0.16024476 1.4890001 1.6133507e-38
-0.052469525 -0.16024476 1.4890001 1.8346202e-38
-0.049633335 -0.16024476 1.4890001 1.7241662e-38
-0.046797145 -0.16024476 1.4890001 1.5766532e-38
-0.043960955 -0.16024476 1.4890001 1.4295695e-38
-0.090960003 -0.16026285 1.516 1.4656562e-38
-0.088072382 -0.16026285 1.516 1.3734605e-38
-0.084791437 -0.15952286 1.5090001 1.4194862e-38
-0.081917144 -0.15952286 1.5090001 1.5393405e-38
-0.078728572 -0.15888858 1.503 1.4383212e-38
-0.075865716 -0.15888858 1.503 1.5120777e-38
-0.060978096 -0.15740858 1.4890001 1.4657981e-38
-0.058141906 -0.15740858 1.4890001 1.6133111e-38
-0.055305716 -0.15740858 1.4890001 1.7148375e-38
-0.052469525 -0.15740858 1.4890001 1.7609353e-38
-0.049633335 -0.15740858 1.4890001 1.7148387e-38
-0.046797145 -0.15740858 1.4890001 1.68718e-38
-0.032922857 -0.15888858 1.503 1.5209395e-38
-0.030059999 -0.15888858 1.503 1.3549874e-38
-0.091380008 -0.15810192 1.5230001 1.4379982e-38
-0.088072382 -0.15737525 1.516 1.3089243e-38
-0.084791437 -0.15664858 1.5090001 1.3458031e-38
-0.078728572 -0.15602571 1.503 1.5118636e-38
-0.075865716 -0.15602571 1.503 1.6317179e-38
-0.07266286 -0.15529905 1.4960001 1.622569e-38
-0.069813333 -0.15529905 1.4960001 1.7147646e-38
-0.060978096 -0.15457238 1.4890001 1.7424961e-38
-0.058141906 -0.15457238 1.4890001 1.7701548e-38
-0.055305716 -0.15457238 1.4890001 1.751752e-38
-0.052469525 -0.15457238 1.4890001 1.7333129e-38
-0.049633335 -0.15457238 1.4890001 1.7332763e-38
-0.047017142 -0.15529905 1.4960001 1.7240567e-38
-0.044167623 -0.15529905 1.4960001 1.7147661e-38
-0.032922857 -0.15602571 1.503 1.4842029e-38
-0.030059999 -0.15602571 1.503 1.2998117e-38
-0.027305715 -0.15664858 1.5090001 1.3733173e-38
-0.091380008 -0.15520096 1.5230001 1.4197396e-38
-0.088072382 -0.15448762 1.516 1.263007e-38
-0.079042859 -0.15377429 1.5090001 1.5394853e-38
-0.075865716 -0.15316285 1.503 1.65012e-38
-0.07300286 -0.15316285 1.503 1.6316809e-38
-0.069813333 -0.15244953 1.4960001 1.7054374e-38
-0.064114287 -0.15244953 1.4960001 1.733205e-38
-0.061264765 -0.15244953 1.4960001 1.7516438e-38
-0.058141906 -0.1517362 1.4890001 1.7793025e-38
-0.055305716 -0.1517362 1.4890001 1.7608637e-38
-0.052469525 -0.1517362 1.4890001 1.7424245e-38
-0.049633335 -0.1517362 1.4890001 1.7332769e-38
-0.047017142 -0.15244953 1.4960001 1.7148377e-38
-0.044167623 -0.15244953 1.4960001 1.6963277e-38
-0.030059999 -0.15316285 1.503 1.3181792e-38
-0.027305715 -0.15377429 1.5090001 1.3456921e-38
-0.024544762 -0.15448762 1.516 1.6314986e-38
-0.088479057 -0.1523 1.5230001 1.1708129e-38
-0.08518476 -0.1516 1.516 1.2537867e-38
-0.076168574 -0.15090001 1.5090001 1.622425e-38
-0.066963814 -0.1496 1.4960001 1.7239851e-38
-0.064114287 -0.1496 1.4960001 1.7147656e-38
-0.061264765 -0.1496 1.4960001 1.7331331e-38
-0.058415242 -0.1496 1.4960001 1.79767e-38
-0.055565715 -0.1496 1.4960001 1.7608274e-38
-0.052716192 -0.1496 1.4960001 1.7331687e-38
-0.049866665 -0.1496 1.4960001 1.7148377e-38
-0.047017142 -0.1496 1.4960001 1.6963986e-38
-0.044167623 -0.1496 1.4960001 1.6871074e-38
-0.041318096 -0.1496 1.4960001 1.6410096e-38
-0.030180002 -0.15090001 1.5090001 1.3089959e-38
-0.027305715 -0.15090001 1.5090001 1.3181416e-38
-0.084791437 -0.14802572 1.5090001 1.1985397e-38
-0.058415242 -0.14675048 1.4960001 1.7885221e-38
-0.055565715 -0.14675048 1.4960001 1.7608284e-38
-0.052716192 -0.14675048 1.4960001 1.7331697e-38
-0.049866665 -0.14675048 1.4960001 1.7148377e-38
-0.047017142 -0.14675048 1.4960001 1.7148377e-38
-0.044167623 -0.14675048 1.4960001 1.6871437e-38
-0.041318096 -0.14675048 1.4960001 1.6502655e-38
-0.030180002 -0.14802572 1.5090001 1.3273987e-38
-0.07300286 -0.1445743 1.503 1.613244e-38
-0.052716192 -0.14390096 1.4960001 1.7423532e-38
-0.049866665 -0.14390096 1.4960001 1.733205e-38
-0.047017142 -0.14390096 1.4960001 1.7424245e-38
-0.044167623 -0.14390096 1.4960001 1.7055463e-38
