# .PCD v0.7 - Point Cloud Data file format
VERSION 0.7
FIELDS x y z rgb
SIZE 4 4 4 4
TYPE F F F F
COUNT 1 1 1 1
WIDTH 757
HEIGHT 1
VIEWPOINT 0 0 0 1 0 0 0
POINTS 757
DATA ascii
0.13181144 -0.25962859 1.3980001 8.9462159e-39
0.10071429 -0.25917143 1.4100001 1.3647101e-38
0.10340001 -0.25917143 1.4100001 1.3554906e-38
0.10608572 -0.25917143 1.4100001 1.3647101e-38
0.11098286 -0.25806859 1.404 1.3094303e-38
0.089588568 -0.25539428 1.404 1.3553464e-38
0.092262857 -0.25539428 1.404 1.3554893e-38
0.094937146 -0.25539428 1.404 1.3462698e-38
0.097611435 -0.25539428 1.404 1.3370512e-38
0.10071429 -0.25648573 1.4100001 1.3554903e-38
0.10340001 -0.25648573 1.4100001 1.3555982e-38
0.10608572 -0.25648573 1.4100001 1.3555982e-38
0.11098286 -0.25539428 1.404 1.2726594e-38
0.13654858 -0.25321144 1.3920001 1.1618081e-38
0.089588568 -0.25272003 1.404 1.3093212e-38
0.092262857 -0.25272003 1.404 1.3002082e-38
0.094937146 -0.25272003 1.404 1.3186474e-38
0.097611435 -0.25272003 1.404 1.2910615e-38
0.10071429 -0.2538 1.4100001 1.2910615e-38
0.10563429 -0.25272003 1.404 1.3095004e-38
0.10830858 -0.25272003 1.404 1.3186846e-38
0.11098286 -0.25272003 1.404 1.2633673e-38
0.13389716 -0.25056002 1.3920001 1.1895034e-38
0.13654858 -0.25056002 1.3920001 1.198723e-38
0.092262857 -0.25004572 1.404 1.2634028e-38
0.094937146 -0.25004572 1.404 1.3002811e-38
0.097611435 -0.25004572 1.404 1.2727303e-38
0.10071429 -0.25111431 1.4100001 1.2911694e-38
0.10296 -0.25004572 1.404 1.2911338e-38
0.10563429 -0.25004572 1.404 1.3003534e-38
0.10830858 -0.25004572 1.404 1.2911338e-38
0.11098286 -0.25004572 1.404 1.2726947e-38
0.11849716 -0.24897717 1.3980001 1.2632243e-38
0.15143143 -0.24203144 1.3590001 2.341769e-38
0.095342867 -0.24842857 1.4100001 1.3463083e-38
0.098028578 -0.24842857 1.4100001 1.3371591e-38
0.10071429 -0.24842857 1.4100001 1.3555982e-38
0.10340001 -0.24842857 1.4100001 1.3463083e-38
0.10830858 -0.24737145 1.404 1.3187928e-38
0.11098286 -0.24737145 1.404 1.3280124e-38
0.12435429 -0.24737145 1.404 1.1989751e-38
0.13605811 -0.24437618 1.3870001 1.1067076e-38
0.086914286 -0.24469715 1.404 1.2632233e-38
0.089971438 -0.24574289 1.4100001 1.2632233e-38
0.12435429 -0.24469715 1.404 9.8728231e-39
0.12702857 -0.24469715 1.404 1.1347953e-38
0.12914859 -0.24365143 1.3980001 1.1806436e-38
0.13181144 -0.24365143 1.3980001 1.1253262e-38
0.13605811 -0.2417343 1.3870001 1.0607883e-38
0.075182855 -0.23064572 1.3380001 9.2220811e-39
0.077731431 -0.23064572 1.3380001 1.189464e-38
0.080280006 -0.23064572 1.3380001 1.3093184e-38
0.085058101 -0.22978382 1.3330001 9.4993967e-39
0.087268576 -0.22892192 1.3280001 1.0790511e-38
0.14517811 -0.23254192 1.3490001 2.3048554e-38
0.080280006 -0.22809716 1.3380001 1.1895022e-38
0.082519054 -0.22724476 1.3330001 9.4111541e-39
0.085058101 -0.22724476 1.3330001 8.1204153e-39
0.087268576 -0.22639239 1.3280001 9.5036931e-39
0.097753339 -0.22724476 1.3330001 1.1806101e-38
0.10029238 -0.22724476 1.3330001 1.2820253e-38
0.10283143 -0.22724476 1.3330001 1.3095007e-38
0.11003429 -0.22639239 1.3280001 1.1805331e-38
0.11256382 -0.22639239 1.3280001 1.3463416e-38
0.11509334 -0.22639239 1.3280001 1.2264873e-38
0.14260858 -0.22997241 1.3490001 1.7247034e-38
0.14517811 -0.22997241 1.3490001 2.3049273e-38
0.14829524 -0.23082477 1.3540001 2.3325856e-38
0.072905719 -0.22639143 1.3430001 9.5926713e-39
0.075182855 -0.22554858 1.3380001 1.1897562e-38
0.080280006 -0.22554858 1.3380001 8.3926512e-39
0.082519054 -0.22470573 1.3330001 6.1896951e-39
0.097753339 -0.22470573 1.3330001 1.3277985e-38
0.10029238 -0.22470573 1.3330001 1.0604312e-38
0.10283143 -0.22470573 1.3330001 8.0249981e-39
0.10750476 -0.22386287 1.3280001 8.0253456e-39
0.11003429 -0.22386287 1.3280001 8.3019325e-39
0.11256382 -0.22386287 1.3280001 1.0513854e-38
0.11509334 -0.22386287 1.3280001 1.3648506e-38
0.13889715 -0.22554858 1.3380001 1.9264771e-40
0.14260858 -0.22740287 1.3490001 1.6972252e-38
0.14517811 -0.22740287 1.3490001 2.2957438e-38
0.14829524 -0.22824574 1.3540001 2.2957438e-38
0.07066191 -0.22483334 1.3490001 7.3857145e-39
0.072905719 -0.22383334 1.3430001 8.7650714e-39
0.075182855 -0.223 1.3380001 1.0608984e-38
0.080280006 -0.223 1.3380001 6.2768586e-39
0.082519054 -0.22216667 1.3330001 4.718888e-39
0.095214292 -0.22216667 1.3330001 1.3649622e-38
0.097753339 -0.22216667 1.3330001 1.3646048e-38
0.10029238 -0.22216667 1.3330001 8.3908967e-39
0.10750476 -0.22133334 1.3280001 8.3011968e-39
0.11003429 -0.22133334 1.3280001 7.4714361e-39
0.11256382 -0.22133334 1.3280001 8.1182125e-39
0.11509334 -0.22133334 1.3280001 1.3004581e-38
0.12015238 -0.22133334 1.3280001 9.8699897e-39
0.1419743 -0.22383334 1.3430001 1.8079694e-38
0.14517811 -0.22483334 1.3490001 2.2957794e-38
0.14829524 -0.22566667 1.3540001 2.2312424e-38
0.07066191 -0.22226383 1.3490001 7.7527174e-39
0.073231436 -0.22226383 1.3490001 8.8561881e-39
0.075463809 -0.22127524 1.3430001 1.0423514e-38
0.077731431 -0.22045144 1.3380001 9.5044217e-39
0.080280006 -0.22045144 1.3380001 5.3556184e-39
0.082519054 -0.21962762 1.3330001 3.7072724e-39
0.095214292 -0.21962762 1.3330001 1.217808e-38
0.097753339 -0.21962762 1.3330001 1.2448195e-38
0.10029238 -0.21962762 1.3330001 7.9306094e-39
0.10750476 -0.21880382 1.3280001 7.8416634e-39
0.11003429 -0.21880382 1.3280001 7.3806853e-39
0.11256382 -0.21880382 1.3280001 7.7494622e-39
0.12060477 -0.21962762 1.3330001 9.2271034e-39
0.13330001 -0.21962762 1.3330001 9.3185956e-39
0.13889715 -0.22045144 1.3380001 7.5918848e-40
0.1419743 -0.22127524 1.3430001 1.7262202e-38
0.14517811 -0.22226383 1.3490001 2.3049989e-38
0.070923813 -0.22050858 1.3540001 7.8459794e-39
0.073231436 -0.2196943 1.3490001 8.5806774e-39
0.075463809 -0.21871716 1.3430001 1.0240199e-38
0.077731431 -0.21790285 1.3380001 9.2289265e-39
0.080280006 -0.21790285 1.3380001 5.9098838e-39
0.082519054 -0.21708858 1.3330001 3.890928e-39
0.085058101 -0.21708858 1.3330001 4.628493e-39
0.095214292 -0.21708858 1.3330001 1.2177364e-38
0.097753339 -0.21708858 1.3330001 1.16206e-38
0.10029238 -0.21708858 1.3330001 7.8405788e-39
0.10283143 -0.21708858 1.3330001 8.1157336e-39
0.10750476 -0.21627429 1.3280001 7.56578e-39
0.11003429 -0.21627429 1.3280001 7.9345625e-39
0.11256382 -0.21627429 1.3280001 8.0267833e-39
0.11509334 -0.21627429 1.3280001 1.1806804e-38
0.11762286 -0.21627429 1.3280001 1.2177373e-38
0.13076097 -0.21708858 1.3330001 9.0434534e-39
0.1338 -0.21790285 1.3380001 9.9617719e-39
0.13634858 -0.21790285 1.3380001 6.5505336e-39
0.13889715 -0.21790285 1.3380001 1.0376013e-39
0.14260858 -0.2196943 1.3490001 1.7171801e-38
0.14517811 -0.2196943 1.3490001 2.2865242e-38
0.070923813 -0.21792954 1.3540001 9.6873781e-39
0.073231436 -0.21712478 1.3490001 1.0421346e-38
0.075800955 -0.21712478 1.3490001 1.1435498e-38
0.078021906 -0.21615906 1.3430001 1.0607539e-38
0.080280006 -0.21535429 1.3380001 9.5011917e-39
0.082828574 -0.21535429 1.3380001 5.2706479e-39
0.085377142 -0.21535429 1.3380001 3.7955178e-39
0.087597147 -0.21454953 1.3330001 4.9951274e-39
0.090136193 -0.21454953 1.3330001 8.8673438e-39
0.092675239 -0.21454953 1.3330001 1.2635824e-38
0.095571436 -0.21535429 1.3380001 1.3465584e-38
0.098119996 -0.21535429 1.3380001 1.327902e-38
0.10283143 -0.21454953 1.3330001 7.6569414e-39
0.10537048 -0.21454953 1.3330001 7.011572e-39
0.10790953 -0.21454953 1.3330001 7.8413075e-39
0.11044858 -0.21454953 1.3330001 1.0607176e-38
0.11298762 -0.21454953 1.3330001 1.1436574e-38
0.11552668 -0.21454953 1.3330001 1.1713161e-38
0.12568286 -0.21454953 1.3330001 9.2281978e-39
0.12822191 -0.21454953 1.3330001 9.9632419e-39
0.13125144 -0.21535429 1.3380001 8.8568943e-39
0.13685809 -0.21615906 1.3430001 6.7356283e-39
0.1394162 -0.21615906 1.3430001 4.5327689e-39
0.14260858 -0.21712478 1.3490001 1.8915241e-38
0.14571621 -0.21792954 1.3540001 2.2865242e-38
0.14884286 -0.21873431 1.3590001 2.185109e-38
0.070923813 -0.21535048 1.3540001 1.0423135e-38
0.073502868 -0.21535048 1.3540001 1.0513892e-38
0.075800955 -0.21455525 1.3490001 1.0329501e-38
0.078021906 -0.21360095 1.3430001 1.0882309e-38
0.080280006 -0.21280573 1.3380001 1.10667e-38
0.090474285 -0.21280573 1.3380001 1.0889531e-38
0.095571436 -0.21280573 1.3380001 1.2359256e-38
0.098119996 -0.21280573 1.3380001 1.2911704e-38
0.10537048 -0.21201049 1.3330001 7.7487615e-39
0.10790953 -0.21201049 1.3330001 8.6689101e-39
0.11044858 -0.21201049 1.3330001 1.2080148e-38
0.11298762 -0.21201049 1.3330001 1.235853e-38
0.11552668 -0.21201049 1.3330001 9.961444e-39
0.12314381 -0.21201049 1.3330001 1.2173773e-38
0.12615429 -0.21280573 1.3380001 1.1067426e-38
0.12870285 -0.21280573 1.3380001 1.0514981e-38
0.1338 -0.21280573 1.3380001 6.7291151e-39
0.13685809 -0.21360095 1.3430001 6.1759413e-39
0.14003906 -0.21455525 1.3490001 7.6591387e-39
0.14313714 -0.21535048 1.3540001 2.0382098e-38
0.14571621 -0.21535048 1.3540001 2.2403914e-38
0.14884286 -0.21614572 1.3590001 2.0652197e-38
0.061099999 -0.21450001 1.365 1.6871447e-38
0.073502868 -0.21277145 1.3540001 8.0221016e-39
0.075800955 -0.21198574 1.3490001 6.915754e-39
0.078021906 -0.21104287 1.3430001 7.6554771e-39
0.080580004 -0.21104287 1.3430001 1.1988672e-38
0.082828574 -0.21025714 1.3380001 1.2081227e-38
0.095571436 -0.21025714 1.3380001 9.4122485e-39
0.098119996 -0.21025714 1.3380001 1.1069236e-38
0.10066857 -0.21025714 1.3380001 1.3005345e-38
0.10790953 -0.20947143 1.3330001 1.1804643e-38
0.11044858 -0.20947143 1.3330001 1.1989035e-38
0.11806572 -0.20947143 1.3330001 4.3490321e-39
0.12060477 -0.20947143 1.3330001 7.852466e-39
0.12360572 -0.21025714 1.3380001 1.1345432e-38
0.13429999 -0.21104287 1.3430001 4.1545389e-39
0.13685809 -0.21104287 1.3430001 3.877952e-39
0.14003906 -0.21198574 1.3490001 9.0420703e-39
0.14313714 -0.21277145 1.3540001 2.0105515e-38
0.14571621 -0.21277145 1.3540001 2.1942582e-38
0.14884286 -0.21355715 1.3590001 2.0559648e-38
0.061099999 -0.2119 1.365 1.7240593e-38
0.076081902 -0.21019238 1.3540001 7.1930444e-39
0.078370482 -0.2094162 1.3490001 7.102641e-39
0.080580004 -0.20848477 1.3430001 1.0237292e-38
0.083138101 -0.20848477 1.3430001 1.2540391e-38
0.085377142 -0.20770858 1.3380001 1.3462347e-38
0.087925717 -0.20770858 1.3380001 1.2175937e-38
0.095571436 -0.20770858 1.3380001 8.4938796e-39
0.098119996 -0.20770858 1.3380001 9.2285607e-39
0.10066857 -0.20770858 1.3380001 1.1072473e-38
0.10321715 -0.20770858 1.3380001 1.3370884e-38
0.10576572 -0.20770858 1.3380001 1.3739667e-38
0.10831429 -0.20770858 1.3380001 1.2084464e-38
0.11341143 -0.20770858 1.3380001 7.3864502e-39
0.11596 -0.20770858 1.3380001 5.3581463e-39
0.11850858 -0.20770858 1.3380001 2.236073e-39
0.12105715 -0.20770858 1.3380001 4.5409637e-39
0.12360572 -0.20770858 1.3380001 9.8724882e-39
0.13125144 -0.20770858 1.3380001 6.73136e-39
0.13685809 -0.20848477 1.3430001 4.3389399e-39
0.14003906 -0.2094162 1.3490001 1.1434843e-38
0.14313714 -0.21019238 1.3540001 2.1115347e-38
0.14571621 -0.21019238 1.3540001 2.1482326e-38
0.14884286 -0.21096858 1.3590001 2.0283783e-38
0.061099999 -0.2093 1.365 1.9176701e-38
0.070923813 -0.20761335 1.3540001 6.2811844e-39
0.076081902 -0.20761335 1.3540001 7.5611206e-39
0.078370482 -0.20684667 1.3490001 6.2750636e-39
0.080940008 -0.20684667 1.3490001 6.920433e-39
0.083509527 -0.20684667 1.3490001 1.0238006e-38
0.085696191 -0.20592667 1.3430001 1.2727288e-38
0.088254295 -0.20592667 1.3430001 1.1807492e-38
0.090812385 -0.20592667 1.3430001 9.7791883e-39
0.093022861 -0.20516001 1.3380001 8.7701161e-39
0.095571436 -0.20516001 1.3380001 8.7701161e-39
0.098486669 -0.20592667 1.3430001 8.9534256e-39
0.10104477 -0.20592667 1.3430001 9.1378168e-39
0.10321715 -0.20516001 1.3380001 1.2173751e-38
0.10576572 -0.20516001 1.3380001 1.3556685e-38
0.10831429 -0.20516001 1.3380001 1.1346529e-38
0.11341143 -0.20516001 1.3380001 3.3406409e-39
0.11596 -0.20516001 1.3380001 3.801619e-39
0.11850858 -0.20516001 1.3380001 3.0647701e-39
0.12406763 -0.20592667 1.3430001 9.0441597e-39
0.13685809 -0.20592667 1.3430001 6.0021088e-39
0.14003906 -0.20684667 1.3490001 1.2726671e-38
0.14313714 -0.20761335 1.3540001 2.1208617e-38
0.14571621 -0.20761335 1.3540001 2.1573803e-38
0.061099999 -0.2067 1.365 2.0374884e-38
0.071185715 -0.20579143 1.3590001 6.098563e-39
0.073502868 -0.2050343 1.3540001 7.4707327e-39
0.076081902 -0.2050343 1.3540001 6.9175589e-39
0.078370482 -0.20427716 1.3490001 5.7236694e-39
0.083509527 -0.20427716 1.3490001 8.6725031e-39
0.098486669 -0.20336857 1.3430001 8.4946082e-39
0.10104477 -0.20336857 1.3430001 8.4946082e-39
0.10321715 -0.20261143 1.3380001 1.0241268e-38
0.10576572 -0.20261143 1.3380001 1.2453963e-38
0.10871905 -0.20336857 1.3430001 9.6002145e-39
0.11127715 -0.20336857 1.3430001 4.8060418e-39
0.11850858 -0.20261143 1.3380001 2.9736534e-39
0.12105715 -0.20261143 1.3380001 3.9878054e-39
0.13746955 -0.20427716 1.3490001 7.0165719e-39
0.14003906 -0.20427716 1.3490001 1.4199633e-38
0.14313714 -0.2050343 1.3540001 2.1390853e-38
0.1462543 -0.20579143 1.3590001 2.1205739e-38
0.078660958 -0.20245525 1.3540001 6.457657e-39
0.080940008 -0.20170763 1.3490001 8.946939e-39
0.098486669 -0.20081049 1.3430001 8.4945956e-39
0.10104477 -0.20081049 1.3430001 9.3243563e-39
0.10360286 -0.20081049 1.3430001 1.1991177e-38
0.10616095 -0.20081049 1.3430001 1.3558503e-38
0.10871905 -0.20081049 1.3430001 1.1900401e-38
0.11127715 -0.20081049 1.3430001 7.198424e-39
0.11383525 -0.20081049 1.3430001 2.696733e-39
0.11639334 -0.20081049 1.3430001 2.3279505e-39
0.11895143 -0.20081049 1.3430001 4.3515502e-39
0.12150953 -0.20081049 1.3430001 8.0393754e-39
0.14055811 -0.20245525 1.3540001 1.3556056e-38
0.14366573 -0.20320286 1.3590001 2.1392647e-38
0.1469 -0.20410001 1.365 2.1481607e-38
0.073502868 -0.1998762 1.3540001 9.5915797e-39
0.081239998 -0.1998762 1.3540001 1.0605018e-38
0.083509527 -0.1991381 1.3490001 1.2261303e-38
0.098486669 -0.19825238 1.3430001 8.3109204e-39
0.10104477 -0.19825238 1.3430001 9.9704418e-39
0.10360286 -0.19825238 1.3430001 1.2542922e-38
0.10616095 -0.19825238 1.3430001 1.2727313e-38
0.10871905 -0.19825238 1.3430001 1.1625272e-38
0.11127715 -0.19825238 1.3430001 8.5828158e-39
0.11383525 -0.19825238 1.3430001 4.537396e-39
0.11639334 -0.19825238 1.3430001 3.2466572e-39
0.11895143 -0.19825238 1.3430001 4.7196167e-39
0.14055811 -0.1998762 1.3540001 1.3187627e-38
0.14366573 -0.2006143 1.3590001 2.0194481e-38
0.068900004 -0.1989 1.365 6.7338809e-39
0.073502868 -0.19729716 1.3540001 9.4071884e-39
0.081239998 -0.19729716 1.3540001 1.2632934e-38
0.083509527 -0.19656859 1.3490001 9.5944818e-39
0.086079046 -0.19656859 1.3490001 7.9349605e-39
0.09592858 -0.19569428 1.3430001 1.0885918e-38
0.098486669 -0.19569428 1.3430001 1.1716739e-38
0.10104477 -0.19569428 1.3430001 1.2546499e-38
0.10360286 -0.19569428 1.3430001 1.134546e-38
0.10616095 -0.19569428 1.3430001 9.2249608e-39
0.10871905 -0.19569428 1.3430001 9.7799521e-39
0.11127715 -0.19569428 1.3430001 1.2177038e-38
0.11383525 -0.19569428 1.3430001 1.153236e-38
0.11639334 -0.19569428 1.3430001 9.7806429e-39
0.11895143 -0.19569428 1.3430001 1.0057608e-38
0.14055811 -0.19729716 1.3540001 1.4017013e-38
0.14366573 -0.19802573 1.3590001 1.9917534e-38
0.071185715 -0.19543715 1.3590001 6.9247462e-39
0.073774293 -0.19543715 1.3590001 8.5803074e-39
0.076362863 -0.19543715 1.3590001 1.0700807e-38
0.078660958 -0.19471811 1.3540001 1.1711013e-38
0.083819054 -0.19471811 1.3540001 7.8485003e-39
0.086079046 -0.19399907 1.3490001 5.2670227e-39
0.09592858 -0.1931362 1.3430001 1.2727303e-38
0.098486669 -0.1931362 1.3430001 1.2544003e-38
0.10104477 -0.1931362 1.3430001 1.1806438e-38
0.10360286 -0.1931362 1.3430001 9.780287e-39
0.10616095 -0.1931362 1.3430001 7.5675918e-39
0.10871905 -0.1931362 1.3430001 8.7643232e-39
0.11127715 -0.1931362 1.3430001 1.1345801e-38
0.11383525 -0.1931362 1.3430001 1.3094298e-38
0.11691334 -0.19399907 1.3490001 1.2541124e-38
0.12976097 -0.19399907 1.3490001 8.7668511e-39
0.14055811 -0.19471811 1.3540001 1.576514e-38
0.1443 -0.1963 1.365 2.0282726e-38
0.073774293 -0.19284858 1.3590001 8.0274868e-39
0.076362863 -0.19284858 1.3590001 1.070116e-38
0.078660958 -0.19213906 1.3540001 1.0606463e-38
0.083819054 -0.19213906 1.3540001 4.0749563e-39
0.086079046 -0.19142953 1.3490001 3.5217825e-39
0.09592858 -0.1905781 1.3430001 1.355882e-38
0.098486669 -0.1905781 1.3430001 1.3094265e-38
0.10104477 -0.1905781 1.3430001 8.7610707e-39
0.10360286 -0.1905781 1.3430001 7.474313e-39
0.10616095 -0.1905781 1.3430001 7.3821174e-39
0.10871905 -0.1905781 1.3430001 7.3806796e-39
0.11127715 -0.1905781 1.3430001 8.8558097e-39
0.11383525 -0.1905781 1.3430001 1.1620221e-38
0.11639334 -0.1905781 1.3430001 1.2542178e-38
0.12719144 -0.19142953 1.3490001 7.8481472e-39
0.13024192 -0.19213906 1.3540001 8.5831787e-39
0.14055811 -0.19213906 1.3540001 1.5766593e-38
0.074100003 -0.1911 1.365 7.199531e-39
0.076362863 -0.19026001 1.3590001 9.9653999e-39
0.078951433 -0.19026001 1.3590001 9.1353085e-39
0.081239998 -0.18956001 1.3540001 5.8162658e-39
0.083819054 -0.18956001 1.3540001 2.6037891e-39
0.086079046 -0.18886 1.3490001 3.617941e-39
0.08864858 -0.18886 1.3490001 3.7079759e-39
0.1014962 -0.18886 1.3490001 7.9316954e-39
0.10360286 -0.18802001 1.3430001 7.5650765e-39
0.10616095 -0.18802001 1.3430001 8.0260547e-39
0.10871905 -0.18802001 1.3430001 7.4735843e-39
0.11127715 -0.18802001 1.3430001 8.303345e-39
0.11383525 -0.18802001 1.3430001 9.5029896e-39
0.11639334 -0.18802001 1.3430001 1.1715685e-38
0.12766287 -0.18956001 1.3540001 7.481157e-39
0.13848858 -0.19026001 1.3590001 1.108285e-38
0.14107715 -0.19026001 1.3590001 1.5859142e-38
0.1443 -0.1911 1.365 1.8993794e-38
0.074100003 -0.1885 1.365 7.7509195e-39
0.076362863 -0.18767144 1.3590001 1.0516788e-38
0.078951433 -0.18767144 1.3590001 1.0240902e-38
0.081239998 -0.18698096 1.3540001 7.1062508e-39
0.086398095 -0.18698096 1.3540001 4.0746032e-39
0.088977151 -0.18698096 1.3540001 2.3290169e-39
0.091218099 -0.18629049 1.3490001 2.6977994e-39
0.093787625 -0.18629049 1.3490001 8.3069702e-39
0.1014962 -0.18629049 1.3490001 7.5636136e-39
0.10360286 -0.18546191 1.3430001 6.9218749e-39
0.10616095 -0.18546191 1.3430001 7.2906574e-39
0.10920477 -0.18629049 1.3490001 7.1977261e-39
0.11177429 -0.18629049 1.3490001 8.3962693e-39
0.11434382 -0.18629049 1.3490001 1.0422432e-38
0.11691334 -0.18629049 1.3490001 1.2266345e-38
0.11948287 -0.18629049 1.3490001 1.1162839e-38
0.12462191 -0.18629049 1.3490001 7.7559516e-39
0.13282095 -0.18698096 1.3540001 7.569024e-39
0.13540001 -0.18698096 1.3540001 5.452102e-39
0.1443 -0.1885 1.365 1.9270354e-38
0.074371435 -0.18658097 1.3700001 8.4859762e-39
0.076700002 -0.1859 1.365 1.0422084e-38
0.081540003 -0.18508287 1.3590001 8.9501634e-39
0.083819054 -0.18440191 1.3540001 3.0655156e-39
0.091556191 -0.18440191 1.3540001 3.2534773e-39
0.094135247 -0.18440191 1.3540001 9.7781318e-39
0.096357152 -0.18372096 1.3490001 1.2083023e-38
0.098926671 -0.18372096 1.3490001 1.1068873e-38
0.1014962 -0.18372096 1.3490001 7.6576351e-39
0.10920477 -0.18372096 1.3490001 7.1977261e-39
0.11177429 -0.18372096 1.3490001 9.3182256e-39
0.11434382 -0.18372096 1.3490001 1.1525896e-38
0.11691334 -0.18372096 1.3490001 1.2447852e-38
0.11948287 -0.18372096 1.3490001 1.1254701e-38
0.12508382 -0.18440191 1.3540001 8.0318196e-39
0.13024192 -0.18440191 1.3540001 9.5947943e-39
0.074371435 -0.18397143 1.3700001 1.0052558e-38
0.076980963 -0.18397143 1.3700001 9.0384059e-39
0.079300001 -0.18329999 1.365 1.0330933e-38
0.081540003 -0.1824943 1.3590001 1.1713867e-38
0.084128574 -0.1824943 1.3590001 8.6761128e-39
0.086398095 -0.18182287 1.3540001 5.8180483e-39
0.088977151 -0.18182287 1.3540001 5.0873328e-39
0.099293344 -0.18182287 1.3540001 1.2634404e-38
0.10187238 -0.18182287 1.3540001 1.0698296e-38
0.10406572 -0.18115143 1.3490001 7.7523488e-39
0.10663525 -0.18115143 1.3490001 7.3835663e-39
0.10920477 -0.18115143 1.3490001 8.4877783e-39
0.11177429 -0.18115143 1.3490001 1.1899017e-38
0.11434382 -0.18115143 1.3490001 1.0884479e-38
0.11691334 -0.18115143 1.3490001 1.0423501e-38
0.11948287 -0.18115143 1.3490001 1.0794807e-38
0.13072287 -0.1824943 1.3590001 8.3951847e-39
0.1443 -0.18329999 1.365 1.8440237e-38
0.076980963 -0.18136193 1.3700001 7.4725278e-39
0.079590484 -0.18136193 1.3700001 8.3905058e-39
0.081540003 -0.17990573 1.3590001 1.124857e-38
0.086717151 -0.17990573 1.3590001 9.9599993e-39
0.089305714 -0.17990573 1.3590001 8.3988225e-39
0.091556191 -0.17924382 1.3540001 1.09803e-38
0.10187238 -0.17924382 1.3540001 1.1529498e-38
0.10406572 -0.17858192 1.3490001 1.0056158e-38
0.10663525 -0.17858192 1.3490001 9.7795709e-39
0.10920477 -0.17858192 1.3490001 1.0424946e-38
0.11177429 -0.17858192 1.3490001 1.0424946e-38
0.11434382 -0.17858192 1.3490001 9.1367154e-39
0.11691334 -0.17858192 1.3490001 8.5835416e-39
0.11948287 -0.17858192 1.3490001 9.3225388e-39
0.1443 -0.1807 1.365 1.8532433e-38
0.079590484 -0.17875239 1.3700001 5.628262e-39
0.081900001 -0.1781 1.365 8.4863266e-39
0.091894291 -0.17731716 1.3590001 1.0607892e-38
0.094135247 -0.17666477 1.3540001 9.2285733e-39
0.10187238 -0.17666477 1.3540001 1.1439834e-38
0.10445144 -0.17666477 1.3540001 1.1991177e-38
0.10703048 -0.17666477 1.3540001 1.2175568e-38
0.10920477 -0.1760124 1.3490001 1.0792672e-38
0.11177429 -0.1760124 1.3490001 7.4736292e-39
0.11434382 -0.1760124 1.3490001 3.9838369e-39
0.11691334 -0.1760124 1.3490001 2.969685e-39
0.11948287 -0.1760124 1.3490001 7.294923e-39
0.12766287 -0.17666477 1.3540001 7.0104398e-39
0.1443 -0.1781 1.365 1.9454022e-38
0.079590484 -0.17614287 1.3700001 6.088852e-39
0.081900001 -0.17549999 1.365 6.7342214e-39
0.091894291 -0.17472859 1.3590001 9.2253265e-39
0.094135247 -0.17408572 1.3540001 7.5733582e-39
0.10187238 -0.17408572 1.3540001 1.0245597e-38
0.10445144 -0.17408572 1.3540001 1.1992632e-38
0.10703048 -0.17408572 1.3540001 1.1992632e-38
0.10960954 -0.17408572 1.3540001 1.0058321e-38
0.11218858 -0.17408572 1.3540001 5.4485399e-39
0.11948287 -0.17344286 1.3490001 4.6266601e-39
0.12205239 -0.17344286 1.3490001 8.5910722e-39
0.12766287 -0.17408572 1.3540001 6.6417007e-39
0.14055811 -0.17408572 1.3540001 1.8900132e-38
0.14366573 -0.17472859 1.3590001 1.8623545e-38
0.094482861 -0.17214 1.3590001 7.6655608e-39
0.096714288 -0.17150667 1.3540001 8.3109302e-39
0.099293344 -0.17150667 1.3540001 8.4938922e-39
0.10187238 -0.17150667 1.3540001 8.8626747e-39
0.10445144 -0.17150667 1.3540001 1.0886637e-38
0.10703048 -0.17150667 1.3540001 1.0425659e-38
0.10960954 -0.17150667 1.3540001 8.3101665e-39
0.11218858 -0.17150667 1.3540001 4.2535588e-39
0.11476763 -0.17150667 1.3540001 2.2382562e-39
0.11734667 -0.17150667 1.3540001 2.3304518e-39
0.11992572 -0.17150667 1.3540001 5.5439697e-39
0.12250476 -0.17150667 1.3540001 9.4161862e-39
0.12508382 -0.17150667 1.3540001 1.0881602e-38
0.1281343 -0.17214 1.3590001 6.3640166e-39
0.094482861 -0.16955143 1.3590001 8.4006049e-39
0.096714288 -0.16892762 1.3540001 8.5849962e-39
0.099293344 -0.16892762 1.3540001 8.2176682e-39
0.10187238 -0.16892762 1.3540001 9.2318201e-39
0.10445144 -0.16892762 1.3540001 1.0519302e-38
0.10703048 -0.16892762 1.3540001 1.0611498e-38
0.10960954 -0.16892762 1.3540001 7.1134562e-39
0.11218858 -0.16892762 1.3540001 3.6100223e-39
0.11476763 -0.16892762 1.3540001 1.9609252e-39
0.11734667 -0.16892762 1.3540001 2.3297077e-39
0.11992572 -0.16892762 1.3540001 5.9127649e-39
0.12250476 -0.16892762 1.3540001 9.6005901e-39
0.12554573 -0.16955143 1.3590001 1.1159977e-38
0.097071432 -0.16696286 1.3590001 8.4920943e-39
0.099660002 -0.16696286 1.3590001 9.5048071e-39
0.10187238 -0.16634859 1.3540001 1.1809698e-38
0.10445144 -0.16634859 1.3540001 1.2451805e-38
0.10703048 -0.16634859 1.3540001 1.2636196e-38
0.10960954 -0.16634859 1.3540001 1.0334921e-38
0.11218858 -0.16634859 1.3540001 6.0939219e-39
0.11476763 -0.16634859 1.3540001 4.353313e-39
0.11734667 -0.16634859 1.3540001 6.6582038e-39
0.12036858 -0.16696286 1.3590001 9.7803024e-39
0.12295716 -0.16696286 1.3590001 1.0794454e-38
0.079590484 -0.16570479 1.3700001 8.3930365e-39
0.081900001 -0.16509999 1.365 1.0882319e-38
0.10224858 -0.16437431 1.3590001 1.1899735e-38
0.10483715 -0.16437431 1.3590001 1.2174489e-38
0.10742572 -0.16437431 1.3590001 1.2266685e-38
0.10960954 -0.16376953 1.3540001 1.1808959e-38
0.11218858 -0.16376953 1.3540001 8.8586992e-39
0.11476763 -0.16376953 1.3540001 6.8336267e-39
0.11778001 -0.16437431 1.3590001 9.1385175e-39
0.12036858 -0.16437431 1.3590001 1.1161069e-38
0.079590484 -0.16309525 1.3700001 1.0606069e-38
0.081900001 -0.16249999 1.365 1.143583e-38
0.10224858 -0.16178572 1.3590001 1.0146542e-38
0.10483715 -0.16178572 1.3590001 8.1193293e-39
0.10742572 -0.16178572 1.3590001 8.3037206e-39
0.11001429 -0.16178572 1.3590001 8.9509201e-39
0.11260287 -0.16178572 1.3590001 1.1532398e-38
0.11519143 -0.16178572 1.3590001 1.18997e-38
0.11778001 -0.16178572 1.3590001 1.1715309e-38
0.12036858 -0.16178572 1.3590001 9.7803024e-39
0.12295716 -0.16178572 1.3590001 8.120781e-39
0.072076187 -0.16118857 1.376 5.9974397e-39
0.081900001 -0.15990001 1.365 9.5029896e-39
0.10224858 -0.15919715 1.3590001 7.934222e-39
0.10483715 -0.15919715 1.3590001 7.2891931e-39
0.10742572 -0.15919715 1.3590001 7.3813887e-39
0.11001429 -0.15919715 1.3590001 8.5799319e-39
0.11260287 -0.15919715 1.3590001 1.2359953e-38
0.11519143 -0.15919715 1.3590001 1.2361051e-38
0.11778001 -0.15919715 1.3590001 1.1254704e-38
0.12036858 -0.15919715 1.3590001 8.8615803e-39
0.1235 -0.15990001 1.365 7.3864502e-39
0.074697144 -0.15856762 1.376 3.977723e-39
0.081900001 -0.15730001 1.365 7.4768311e-39
0.10224858 -0.15660858 1.3590001 7.6550665e-39
0.10483715 -0.15660858 1.3590001 6.6452726e-39
0.10742572 -0.15660858 1.3590001 6.7374682e-39
0.11001429 -0.15660858 1.3590001 6.6449195e-39
0.11260287 -0.15660858 1.3590001 1.0056158e-38
0.11519143 -0.15660858 1.3590001 1.0886272e-38
0.11778001 -0.15660858 1.3590001 9.779924e-39
0.12036858 -0.15660858 1.3590001 8.0318322e-39
0.077318102 -0.15594667 1.376 8.0339454e-39
0.079939052 -0.15594667 1.376 8.9526871e-39
0.081900001 -0.1547 1.365 8.0307308e-39
0.0845 -0.1547 1.365 2.7871112e-39
0.10224858 -0.15402001 1.3590001 7.1040928e-39
0.10483715 -0.15402001 1.3590001 7.3792405e-39
0.10742572 -0.15402001 1.3590001 7.6558274e-39
0.11001429 -0.15402001 1.3590001 6.9211364e-39
0.11260287 -0.15402001 1.3590001 1.0608962e-38
0.11519143 -0.15402001 1.3590001 1.0702624e-38
0.11778001 -0.15402001 1.3590001 9.5962769e-39
0.12036858 -0.15402001 1.3590001 6.8383141e-39
0.12917143 -0.15526667 1.3700001 8.76757e-39
0.077599049 -0.15388286 1.381 9.0452457e-39
0.079939052 -0.15332572 1.376 9.9635922e-39
0.082200006 -0.15265715 1.3700001 1.0516766e-38
0.087419055 -0.15265715 1.3700001 3.7926437e-39
0.089699998 -0.1521 1.365 1.684023e-39
0.092299998 -0.1521 1.365 4.5420876e-39
0.1053 -0.1521 1.365 6.4605338e-39
0.10742572 -0.15143143 1.3590001 6.7371207e-39
0.11001429 -0.15143143 1.3590001 7.6587043e-39
0.11260287 -0.15143143 1.3590001 1.1530921e-38
0.11519143 -0.15143143 1.3590001 1.1990477e-38
0.11778001 -0.15143143 1.3590001 1.1160716e-38
0.12036858 -0.15143143 1.3590001 8.7683084e-39
0.1235 -0.1521 1.365 8.2151347e-39
0.1261 -0.1521 1.365 8.8597656e-39
0.077599049 -0.15125239 1.381 8.8604943e-39
0.079939052 -0.15070477 1.376 9.6880619e-39
0.082200006 -0.15004763 1.3700001 1.0517823e-38
0.090028577 -0.15004763 1.3700001 3.7951492e-39
0.092638105 -0.15004763 1.3700001 7.7595613e-39
0.094900005 -0.1495 1.365 1.1527325e-38
0.097499996 -0.1495 1.365 1.226489e-38
0.1053 -0.1495 1.365 7.4710676e-39
0.10742572 -0.14884286 1.3590001 8.3008283e-39
0.11001429 -0.14884286 1.3590001 9.3139264e-39
0.11260287 -0.14884286 1.3590001 1.1618817e-38
0.11519143 -0.14884286 1.3590001 1.2082987e-38
0.11778001 -0.14884286 1.3590001 1.1806401e-38
0.12036858 -0.14884286 1.3590001 1.0700454e-38
0.12656191 -0.15004763 1.3700001 9.4114918e-39
0.077599049 -0.14862192 1.381 6.6496391e-39
0.079939052 -0.14808382 1.376 8.5777319e-39
0.095247626 -0.14743811 1.3700001 1.0794429e-38
0.097857147 -0.14743811 1.3700001 1.0610038e-38
0.1001 -0.1469 1.365 1.1253968e-38
0.1053 -0.1469 1.365 1.1804968e-38
0.10789999 -0.1469 1.365 1.2265947e-38
0.11001429 -0.1462543 1.3590001 1.1806063e-38
0.11260287 -0.1462543 1.3590001 8.4870202e-39
0.11519143 -0.1462543 1.3590001 8.860392e-39
0.11778001 -0.1462543 1.3590001 1.0980891e-38
0.1235 -0.1469 1.365 1.0606816e-38
0.14221907 -0.14743811 1.3700001 2.0560364e-38
0.074968576 -0.14599143 1.381 2.0383778e-39
0.077599049 -0.14599143 1.381 6.0949855e-39
0.079939052 -0.14546286 1.376 7.1008067e-39
0.097857147 -0.14482857 1.3700001 8.4942299e-39
0.1001 -0.1443 1.365 1.0977381e-38
0.1027 -0.1443 1.365 1.2083729e-38
0.1053 -0.1443 1.365 1.2448934e-38
0.10789999 -0.1443 1.365 1.2448934e-38
0.11001429 -0.14366573 1.3590001 1.0979196e-38
0.11260287 -0.14366573 1.3590001 5.2630668e-39
0.11519143 -0.14366573 1.3590001 4.4400842e-39
0.11778001 -0.14366573 1.3590001 8.1279094e-39
0.1209 -0.1443 1.365 1.1528066e-38
0.1235 -0.1443 1.365 1.060611e-38
0.14022096 -0.14546286 1.376 2.0193046e-38
0.075294293 -0.14398383 1.3870001 6.5689789e-40
0.080229528 -0.14336096 1.381 6.9164547e-39
0.082560003 -0.14284191 1.376 6.3632809e-39
0.093043812 -0.14284191 1.376 9.4104212e-39
0.10046668 -0.14221907 1.3700001 9.6891605e-39
0.1027 -0.1417 1.365 1.1440877e-38
0.1053 -0.1417 1.365 1.1990126e-38
0.10789999 -0.1417 1.365 1.0054018e-38
0.11260287 -0.14107715 1.3590001 3.7962086e-39
0.11519143 -0.14107715 1.3590001 2.7881902e-39
0.11830001 -0.1417 1.365 3.7101465e-39
0.1209 -0.1417 1.365 8.8590593e-39
0.1235 -0.1417 1.365 8.4902768e-39
0.082560003 -0.14022096 1.376 6.3632809e-39
0.1030762 -0.13960953 1.3700001 1.0521452e-38
0.10568572 -0.13960953 1.3700001 1.1347288e-38
0.10789999 -0.1391 1.365 8.7658099e-39
0.1105 -0.1391 1.365 2.8803634e-39
0.1131 -0.1391 1.365 2.6959721e-39
0.1157 -0.1391 1.365 1.5024736e-39
0.11830001 -0.1391 1.365 2.4244299e-39
0.1209 -0.1391 1.365 8.5832067e-39
0.12395239 -0.13960953 1.3700001 8.4910111e-39
0.085490473 -0.1381 1.381 6.4601611e-39
0.087801903 -0.1376 1.376 1.1715312e-38
0.10568572 -0.13700001 1.3700001 1.1255442e-38
0.1105 -0.1365 1.365 2.3286666e-39
0.1131 -0.1365 1.365 1.4067103e-39
0.1157 -0.1365 1.365 1.317016e-39
0.11830001 -0.1365 1.365 5.0970368e-39
0.1209 -0.1365 1.365 9.5033652e-39
0.12395239 -0.13700001 1.3700001 9.3189739e-39
0.075565718 -0.13654858 1.3920001 5.1704466e-39
0.077936195 -0.13605811 1.3870001 8.6738805e-39
0.088120952 -0.13546953 1.381 1.2082306e-38
0.090422854 -0.13497905 1.376 1.1440161e-38
0.10568572 -0.13439049 1.3700001 1.1901165e-38
0.1105 -0.1339 1.365 5.3653672e-39
0.1131 -0.1339 1.365 1.9541289e-39
0.1157 -0.1339 1.365 2.6019492e-39
0.12395239 -0.13439049 1.3700001 1.0698659e-38
0.075565718 -0.13389716 1.3920001 7.4710676e-39
0.077936195 -0.13341619 1.3870001 1.079011e-38
0.090751432 -0.13283905 1.381 1.1900401e-38
0.10568572 -0.13178097 1.3700001 1.3004979e-38
0.10829525 -0.13178097 1.3700001 1.3097174e-38
0.11090478 -0.13178097 1.3700001 9.5984713e-39
0.1135143 -0.13178097 1.3700001 6.4638199e-39
0.12711619 -0.13235809 1.376 1.1158189e-38
0.075891435 -0.13181144 1.3980001 7.746895e-39
0.078217149 -0.13124573 1.3920001 1.0512764e-38
0.085861906 -0.13077429 1.3870001 1.1436574e-38
0.090751432 -0.13020858 1.381 1.1899688e-38
0.093043812 -0.12973714 1.376 1.1899688e-38
0.10876952 -0.12973714 1.376 1.3280484e-38
0.11663239 -0.12973714 1.376 9.5976838e-39
0.11925334 -0.12973714 1.376 1.1718183e-38
0.12187429 -0.12973714 1.376 1.2634026e-38
0.12449524 -0.12973714 1.376 1.2080852e-38
0.12757809 -0.13020858 1.381 1.0882681e-38
0.075891435 -0.12914859 1.3980001 7.1940841e-39
0.078554295 -0.12914859 1.3980001 9.8677574e-39
0.080868572 -0.12859428 1.3920001 1.0513892e-38
0.090751432 -0.12757809 1.381 1.1990454e-38
0.093043812 -0.12711619 1.376 1.2267041e-38
0.10876952 -0.12711619 1.376 1.2635468e-38
0.11139048 -0.12711619 1.376 1.2083741e-38
0.11401143 -0.12711619 1.376 1.1991546e-38
0.11663239 -0.12711619 1.376 1.2175571e-38
0.11925334 -0.12711619 1.376 1.2083376e-38
0.12187429 -0.12711619 1.376 1.189754e-38
0.12494762 -0.12757809 1.381 1.1620953e-38
0.1365 -0.1261 1.365 2.0468524e-38
0.13960953 -0.12656191 1.3700001 1.991535e-38
0.073542856 -0.12702857 1.404 1.2353145e-38
0.075891435 -0.12648572 1.3980001 3.6005972e-39
0.078554295 -0.12648572 1.3980001 8.5791514e-39
0.080868572 -0.12594286 1.3920001 1.0880867e-38
0.085490473 -0.12494762 1.381 1.1344729e-38
0.090751432 -0.12494762 1.381 1.2082997e-38
0.093043812 -0.12449524 1.376 1.2175193e-38
0.10614857 -0.12449524 1.376 1.2819499e-38
0.10876952 -0.12449524 1.376 1.2727303e-38
0.11139048 -0.12449524 1.376 1.2635107e-38
0.11401143 -0.12449524 1.376 1.2727303e-38
0.11705619 -0.12494762 1.381 1.2451076e-38
0.11968667 -0.12494762 1.381 1.2082294e-38
0.13960953 -0.12395239 1.3700001 1.9638761e-38
0.073542856 -0.12435429 1.404 1.3183262e-38
0.075891435 -0.12382286 1.3980001 3.7897122e-39
0.078554295 -0.12382286 1.3980001 6.832168e-39
0.080868572 -0.12329143 1.3920001 1.0238003e-38
0.083520003 -0.12329143 1.3920001 1.1620937e-38
0.086171433 -0.12329143 1.3920001 1.16206e-38
0.088503815 -0.12284859 1.3870001 1.2173773e-38
0.093381904 -0.12231714 1.381 1.2358868e-38
0.095664769 -0.12187429 1.376 1.2358518e-38
0.09828572 -0.12187429 1.376 1.2819496e-38
0.10614857 -0.12187429 1.376 1.3002811e-38
0.10876952 -0.12187429 1.376 1.2910615e-38
0.11139048 -0.12187429 1.376 1.2635458e-38
0.11401143 -0.12187429 1.376 1.2451067e-38
0.11968667 -0.12231714 1.381 1.2081934e-38
0.12231714 -0.12231714 1.381 1.1712795e-38
0.073542856 -0.12168001 1.404 1.3368013e-38
0.076217145 -0.12168001 1.404 4.6130339e-39
0.083880007 -0.12116001 1.3980001 1.2263073e-38
0.086171433 -0.12064 1.3920001 1.152876e-38
0.088503815 -0.12020668 1.3870001 1.2081934e-38
0.096012384 -0.11968667 1.381 1.2358871e-38
0.098642863 -0.11968667 1.381 1.2727653e-38
0.10090667 -0.11925334 1.376 1.2819849e-38
0.10614857 -0.11925334 1.376 1.2910615e-38
0.10876952 -0.11925334 1.376 1.281842e-38
0.11139048 -0.11925334 1.376 1.2359237e-38
0.11401143 -0.11925334 1.376 1.2359237e-38
0.11968667 -0.11968667 1.381 1.1990454e-38
0.12231714 -0.11968667 1.381 1.189754e-38
0.086171433 -0.11798858 1.3920001 1.0790116e-38
0.088503815 -0.11756477 1.3870001 1.1066703e-38
0.091145717 -0.11756477 1.3870001 1.1067073e-38
0.098642863 -0.11705619 1.381 1.1989735e-38
0.10090667 -0.11663239 1.376 1.2265246e-38
0.10352762 -0.11663239 1.376 1.2357442e-38
0.10614857 -0.11663239 1.376 1.2449637e-38
0.10876952 -0.11663239 1.376 1.2541833e-38
0.11139048 -0.11663239 1.376 1.2542183e-38
0.11401143 -0.11663239 1.376 1.2726574e-38
0.11968667 -0.11705619 1.381 1.2174127e-38
0.12231714 -0.11705619 1.381 1.2081199e-38
0.12494762 -0.11705619 1.381 1.1528026e-38
0.13077429 -0.11756477 1.3870001 8.6689073e-39
0.093381904 -0.11442572 1.381 1.1621316e-38
0.10127334 -0.11442572 1.381 1.2080855e-38
0.11705619 -0.11442572 1.381 1.2449637e-38
0.11968667 -0.11442572 1.381 1.217305e-38
0.12231714 -0.11442572 1.381 1.1436564e-38
0.12494762 -0.11442572 1.381 1.1159977e-38
