# .PCD v0.7 - Point Cloud Data file format
VERSION 0.7
FIELDS x y z rgb
SIZE 4 4 4 4
TYPE F F F F
COUNT 1 1 1 1
WIDTH 273
HEIGHT 1
VIEWPOINT 0 0 0 1 0 0 0
POINTS 273
DATA ascii
-0.065260001 -0.39323336 1.7570001 1.5215917e-38
-0.061913334 -0.39323336 1.7570001 1.2450048e-38
-0.058566667 -0.39323336 1.7570001 4.715686e-39
-0.05522 -0.39323336 1.7570001 3.6093385e-39
-0.065260001 -0.38988668 1.7570001 1.6501939e-38
-0.061913334 -0.38988668 1.7570001 1.4289244e-38
-0.058566667 -0.38988668 1.7570001 1.0509635e-38
-0.051873334 -0.38988668 1.7570001 9.5900915e-39
-0.065260001 -0.38654003 1.7570001 1.6315029e-38
-0.061913334 -0.38654003 1.7570001 1.4655508e-38
-0.058566667 -0.38654003 1.7570001 1.3272937e-38
-0.05522 -0.38654003 1.7570001 1.2074393e-38
-0.051873334 -0.38654003 1.7570001 1.2350226e-38
-0.065260001 -0.38319334 1.7570001 1.5485619e-38
-0.061913334 -0.38319334 1.7570001 1.5116836e-38
-0.051873334 -0.38319334 1.7570001 1.456367e-38
-0.059763812 -0.35373715 1.6960001 1.3465935e-38
-0.056533337 -0.35373715 1.6960001 1.3462382e-38
-0.069455236 -0.35050666 1.6960001 7.1098633e-39
-0.066224761 -0.35050666 1.6960001 6.7410808e-39
-0.062994286 -0.35050666 1.6960001 9.3203682e-39
-0.059763812 -0.35050666 1.6960001 1.3653563e-38
-0.056533337 -0.35050666 1.6960001 1.5304828e-38
-0.053302858 -0.35050666 1.6960001 1.2354568e-38
-0.069455236 -0.34727621 1.6960001 2.9761814e-39
-0.066224761 -0.34727621 1.6960001 2.7917901e-39
-0.062994286 -0.34727621 1.6960001 6.5598915e-39
-0.059763812 -0.34727621 1.6960001 1.2644803e-38
-0.056533337 -0.34727621 1.6960001 1.4846406e-38
-0.053302858 -0.34727621 1.6960001 1.0605407e-38
-0.037347618 -0.34911907 1.705 1.1065296e-38
-0.069455236 -0.34404573 1.6960001 2.0585593e-39
-0.066224761 -0.34404573 1.6960001 2.3351462e-39
-0.062994286 -0.34404573 1.6960001 5.8238062e-39
-0.059763812 -0.34404573 1.6960001 1.0617979e-38
-0.056533337 -0.34404573 1.6960001 1.4477568e-38
-0.053302858 -0.34404573 1.6960001 9.9599825e-39
-0.037347618 -0.34587142 1.705 1.2630789e-38
-0.034260001 -0.3474943 1.7130001 9.9571154e-39
-0.096254289 -0.34423146 1.7130001 1.1896814e-38
-0.08606191 -0.3426238 1.705 9.9664887e-39
-0.082814284 -0.3426238 1.705 1.2815918e-38
-0.069455236 -0.34081525 1.6960001 3.3435248e-39
-0.066224761 -0.34081525 1.6960001 3.0669379e-39
-0.062994286 -0.34081525 1.6960001 5.8238188e-39
-0.059763812 -0.34081525 1.6960001 1.0894578e-38
-0.056533337 -0.34081525 1.6960001 1.4385755e-38
-0.053302858 -0.34081525 1.6960001 1.1619886e-38
-0.043611433 -0.34081525 1.6960001 9.4929227e-39
-0.037347618 -0.3426238 1.705 1.3367988e-38
-0.034260001 -0.34423146 1.7130001 1.1339684e-38
-0.024842858 -0.34945619 1.7390001 6.0921367e-39
-0.082814284 -0.33937618 1.705 1.3185423e-38
-0.079146668 -0.33758476 1.6960001 1.3001031e-38
-0.069455236 -0.33758476 1.6960001 1.1533436e-38
-0.066224761 -0.33758476 1.6960001 1.061148e-38
-0.062994286 -0.33758476 1.6960001 1.1806821e-38
-0.059763812 -0.33758476 1.6960001 1.309756e-38
-0.056533337 -0.33758476 1.6960001 1.4108805e-38
-0.053302858 -0.33758476 1.6960001 1.4293197e-38
-0.03752286 -0.34096858 1.7130001 1.005107e-38
-0.024842858 -0.34614381 1.7390001 5.263455e-39
-0.082814284 -0.33612856 1.705 1.327725e-38
-0.066224761 -0.33435431 1.6960001 1.438396e-38
-0.062994286 -0.33435431 1.6960001 1.3925503e-38
-0.059763812 -0.33435431 1.6960001 1.2358177e-38
-0.056533337 -0.33435431 1.6960001 1.2999937e-38
-0.053585716 -0.33612856 1.705 1.4014089e-38
-0.040785715 -0.3377057 1.7130001 5.5349846e-39
-0.03752286 -0.3377057 1.7130001 5.8172846e-39
-0.024842858 -0.34283143 1.7390001 6.4583982e-39
-0.069823809 -0.33288094 1.705 1.4106307e-38
-0.06657619 -0.33288094 1.705 1.5028263e-38
-0.062994286 -0.33112383 1.6960001 1.32812e-38
-0.059763812 -0.33112383 1.6960001 1.1252896e-38
-0.056833334 -0.33288094 1.705 1.0701533e-38
-0.053585716 -0.33288094 1.705 1.0885924e-38
-0.040785715 -0.33444285 1.7130001 4.0652397e-39
-0.03752286 -0.33444285 1.7130001 5.4485371e-39
-0.024842858 -0.33951905 1.7390001 5.0783603e-39
-0.089728571 -0.33118001 1.7130001 1.0699417e-38
-0.069823809 -0.32963336 1.705 1.3094676e-38
-0.06657619 -0.32963336 1.705 1.3832241e-38
-0.063328572 -0.32963336 1.705 1.1073555e-38
-0.060080953 -0.32963336 1.705 9.8750119e-39
-0.056833334 -0.32963336 1.705 9.3250752e-39
-0.053585716 -0.32963336 1.705 9.4172708e-39
-0.050338093 -0.32963336 1.705 1.11636e-38
-0.043842856 -0.32963336 1.705 7.7563047e-39
-0.024728572 -0.33465999 1.7310001 4.6184541e-39
-0.069823809 -0.32638574 1.705 1.4659458e-38
-0.06657619 -0.32638574 1.705 1.5028241e-38
-0.063328572 -0.32638574 1.705 1.2913499e-38
-0.060080953 -0.32638574 1.705 1.1161782e-38
-0.056833334 -0.32638574 1.705 1.0611498e-38
-0.053585716 -0.32638574 1.705 1.1072476e-38
-0.050338093 -0.32638574 1.705 1.2542569e-38
-0.047311429 -0.32791716 1.7130001 1.3095742e-38
-0.024728572 -0.33136284 1.7310001 4.894339e-39
-0.063328572 -0.32313812 1.705 1.3098619e-38
-0.060080953 -0.32313812 1.705 1.1900076e-38
-0.056833334 -0.32313812 1.705 1.1070341e-38
-0.053585716 -0.32313812 1.705 1.2084492e-38
-0.050338093 -0.32313812 1.705 1.4381074e-38
-0.024728572 -0.32806572 1.7310001 6.3704962e-39
-0.066888571 -0.32139143 1.7130001 1.0423867e-38
-0.063625716 -0.32139143 1.7130001 1.1807537e-38
-0.060362857 -0.32139143 1.7130001 1.4296819e-38
-0.057100002 -0.32139143 1.7130001 1.5307329e-38
-0.053837147 -0.32139143 1.7130001 1.3647808e-38
-0.024728572 -0.32476857 1.7310001 3.4248799e-39
-0.021431429 -0.32476857 1.7310001 4.90001e-39
-0.079940006 -0.31812859 1.7130001 1.5580343e-38
-0.066888571 -0.31812859 1.7130001 6.4691658e-39
-0.063625716 -0.31812859 1.7130001 1.033418e-38
-0.060362857 -0.31812859 1.7130001 1.4667374e-38
-0.057100002 -0.31812859 1.7130001 1.567544e-38
-0.053837147 -0.31812859 1.7130001 1.2172006e-38
-0.024728572 -0.32147145 1.7310001 2.183223e-42
-0.021431429 -0.32147145 1.7310001 1.4629556e-42
-0.066888571 -0.31486571 1.7130001 2.6081149e-39
-0.063625716 -0.31486571 1.7130001 6.9258504e-39
-0.060362857 -0.31486571 1.7130001 1.1812219e-38
-0.057100002 -0.31486571 1.7130001 1.3554925e-38
-0.053837147 -0.31486571 1.7130001 8.7607526e-39
-0.024728572 -0.3181743 1.7310001 1.5204032e-38
-0.021530475 -0.31964478 1.7390001 1.3175728e-38
-0.11045429 -0.31487715 1.7310001 2.341769e-38
-0.063625716 -0.31160286 1.7130001 5.8230579e-39
-0.060362857 -0.31160286 1.7130001 1.1170404e-38
-0.057100002 -0.31160286 1.7130001 1.3187237e-38
-0.053837147 -0.31160286 1.7130001 8.7618471e-39
-0.024728572 -0.31487715 1.7310001 2.341769e-38
-0.021431429 -0.31487715 1.7310001 2.341769e-38
-0.11096477 -0.31302002 1.7390001 2.341769e-38
-0.10765238 -0.31302002 1.7390001 2.341769e-38
-0.060362857 -0.30834001 1.7130001 1.3746522e-38
-0.057100002 -0.30834001 1.7130001 1.5304475e-38
-0.053837147 -0.30834001 1.7130001 1.2630801e-38
-0.050574284 -0.30834001 1.7130001 1.1155636e-38
-0.047560003 -0.30996001 1.7220001 1.1432223e-38
-0.024728572 -0.31158003 1.7310001 2.341769e-38
-0.021431429 -0.31158003 1.7310001 2.341769e-38
-0.063960001 -0.30668002 1.7220001 1.1898281e-38
-0.060362857 -0.30507717 1.7130001 1.3926585e-38
-0.057100002 -0.30507717 1.7130001 1.5303396e-38
-0.053837147 -0.30507717 1.7130001 1.4104852e-38
-0.050574284 -0.30507717 1.7130001 1.3364769e-38
-0.024728572 -0.30828288 1.7310001 2.3233299e-38
-0.021431429 -0.30828288 1.7310001 2.3233299e-38
-0.063960001 -0.30340001 1.7220001 1.3833676e-38
-0.060680002 -0.30340001 1.7220001 1.1897568e-38
-0.057100002 -0.30181429 1.7130001 1.2358521e-38
-0.053837147 -0.30181429 1.7130001 1.3557064e-38
-0.050574284 -0.30181429 1.7130001 1.4106294e-38
-0.10765238 -0.30308288 1.7390001 2.341769e-38
-0.063960001 -0.30012003 1.7220001 1.3557452e-38
-0.060680002 -0.30012003 1.7220001 1.0791583e-38
-0.057100002 -0.29855144 1.7130001 9.4161764e-39
-0.053837147 -0.29855144 1.7130001 1.1352285e-38
-0.067240007 -0.29684001 1.7220001 1.5120421e-38
-0.063960001 -0.29684001 1.7220001 1.3006038e-38
-0.060680002 -0.29684001 1.7220001 1.0793343e-38
-0.057100002 -0.29528856 1.7130001 9.9679306e-39
-0.053837147 -0.29528856 1.7130001 1.1535256e-38
-0.097715244 -0.2964581 1.7390001 3.0593793e-39
-0.067240007 -0.29356003 1.7220001 1.5117197e-38
-0.063960001 -0.29356003 1.7220001 1.2177023e-38
-0.060680002 -0.29356003 1.7220001 1.0425306e-38
-0.057400003 -0.29356003 1.7220001 1.0335622e-38
-0.053837147 -0.29202572 1.7130001 1.1902947e-38
-0.097715244 -0.29314572 1.7390001 7.5665283e-39
-0.067240007 -0.29028001 1.7220001 1.374002e-38
-0.063960001 -0.29028001 1.7220001 1.3005717e-38
-0.060680002 -0.29028001 1.7220001 1.2913522e-38
-0.057400003 -0.29028001 1.7220001 1.3281556e-38
-0.054120004 -0.29028001 1.7220001 1.3281556e-38
-0.050840002 -0.29028001 1.7220001 1.3555256e-38
-0.097715244 -0.28983334 1.7390001 8.6671179e-39
-0.077080004 -0.28700003 1.7220001 1.3549903e-38
-0.067240007 -0.28700003 1.7220001 1.1622763e-38
-0.063960001 -0.28700003 1.7220001 1.2546512e-38
-0.060680002 -0.28700003 1.7220001 1.3837251e-38
-0.057400003 -0.28700003 1.7220001 1.5027181e-38
-0.054120004 -0.28700003 1.7220001 1.2906682e-38
-0.050840002 -0.28700003 1.7220001 1.161734e-38
-0.10207333 -0.28948668 1.7570001 1.4290323e-38
-0.070888579 -0.28520286 1.7310001 6.1929671e-39
-0.067240007 -0.28372002 1.7220001 4.4412501e-39
-0.063960001 -0.28372002 1.7220001 9.2296117e-39
-0.060680002 -0.28372002 1.7220001 1.3747198e-38
-0.057400003 -0.28372002 1.7220001 1.4474714e-38
-0.054120004 -0.28372002 1.7220001 9.7727368e-39
-0.050840002 -0.28372002 1.7220001 8.1157336e-39
-0.10207333 -0.28614002 1.7570001 1.8070343e-38
-0.098726667 -0.28614002 1.7570001 5.3581982e-39
-0.067240007 -0.28044003 1.7220001 1.3227809e-39
-0.063960001 -0.28044003 1.7220001 5.7351657e-39
-0.060680002 -0.28044003 1.7220001 1.1635686e-38
-0.057400003 -0.28044003 1.7220001 1.2727701e-38
-0.054120004 -0.28044003 1.7220001 8.3945065e-39
-0.050840002 -0.28044003 1.7220001 7.1044109e-39
-0.098726667 -0.28279334 1.7570001 1.1709983e-38
-0.067240007 -0.27715999 1.7220001 2.6059863e-39
-0.063960001 -0.27715999 1.7220001 7.6644594e-39
-0.060680002 -0.27715999 1.7220001 1.3011806e-38
-0.057400003 -0.27715999 1.7220001 1.4661241e-38
-0.054120004 -0.27715999 1.7220001 9.2216986e-39
-0.10596 -0.2808781 1.766 2.341769e-38
-0.098726667 -0.27944666 1.7570001 1.5665422e-38
-0.094891429 -0.27801526 1.748 1.0133685e-38
-0.067591429 -0.27531141 1.7310001 6.5584846e-39
-0.064294286 -0.27531141 1.7310001 9.5959013e-39
-0.060680002 -0.27388003 1.7220001 1.38369e-38
-0.057400003 -0.27388003 1.7220001 1.5672528e-38
-0.054402858 -0.27531141 1.7310001 1.1800312e-38
-0.087778099 -0.27327144 1.7390001 1.3468481e-38
-0.08446572 -0.27327144 1.7390001 1.4107013e-38
-0.067591429 -0.27201429 1.7310001 1.3373035e-38
-0.064294286 -0.27201429 1.7310001 1.3189385e-38
-0.060997147 -0.27201429 1.7310001 1.2912799e-38
-0.057700001 -0.27201429 1.7310001 1.4015521e-38
-0.054402858 -0.27201429 1.7310001 1.4568695e-38
-0.051105715 -0.27201429 1.7310001 1.4567613e-38
-0.03146762 -0.27327144 1.7390001 2.341769e-38
-0.028155239 -0.27327144 1.7390001 2.3233299e-38
-0.024971429 -0.27468571 1.748 2.3233299e-38
-0.08446572 -0.26995903 1.7390001 1.4474013e-38
-0.080779999 -0.26871714 1.7310001 9.7720361e-39
-0.067591429 -0.26871714 1.7310001 1.6223184e-38
-0.064294286 -0.26871714 1.7310001 1.365144e-38
-0.060997147 -0.26871714 1.7310001 1.0885571e-38
-0.057700001 -0.26871714 1.7310001 1.1990098e-38
-0.054402858 -0.26871714 1.7310001 1.447938e-38
-0.051105715 -0.26871714 1.7310001 1.5120459e-38
-0.024971429 -0.2713562 1.748 2.3233299e-38
-0.067591429 -0.26542002 1.7310001 1.5857989e-38
-0.064294286 -0.26542002 1.7310001 1.3467011e-38
-0.060997147 -0.26542002 1.7310001 1.0332359e-38
-0.057700001 -0.26542002 1.7310001 1.1069236e-38
-0.054402858 -0.26542002 1.7310001 1.3466323e-38
-0.051105715 -0.26542002 1.7310001 1.3188294e-38
-0.08490286 -0.26469713 1.748 1.1619208e-38
-0.08157333 -0.26469713 1.748 8.4845567e-39
-0.064294286 -0.26212287 1.7310001 1.1901518e-38
-0.060997147 -0.26212287 1.7310001 9.5044315e-39
-0.057700001 -0.26212287 1.7310001 1.0516753e-38
-0.054654285 -0.2633343 1.7390001 1.3282622e-38
-0.064591438 -0.26002192 1.7390001 1.4110247e-38
-0.061279051 -0.26002192 1.7390001 1.0975596e-38
-0.057966668 -0.26002192 1.7390001 1.1621691e-38
-0.054654285 -0.26002192 1.7390001 1.4479756e-38
-0.061279051 -0.25670955 1.7390001 1.2541845e-38
-0.057966668 -0.25670955 1.7390001 1.281842e-38
-0.054654285 -0.25670955 1.7390001 1.5215506e-38
-0.05134191 -0.25670955 1.7390001 1.5673247e-38
-0.092504762 -0.25733143 1.766 1.1615918e-38
-0.054654285 -0.25339717 1.7390001 1.5582494e-38
-0.05134191 -0.25339717 1.7390001 1.5488843e-38
-0.092504762 -0.25396764 1.766 1.2074718e-38
-0.089140952 -0.25396764 1.766 1.5578152e-38
-0.038289525 -0.25137904 1.748 1.2074025e-38
-0.092504762 -0.2506038 1.766 1.1614103e-38
-0.089140952 -0.2506038 1.766 1.5394124e-38
-0.085340001 -0.24932666 1.7570001 1.5027159e-38
-0.081993334 -0.24932666 1.7570001 1.5672528e-38
-0.061596192 -0.24804951 1.748 1.6410091e-38
-0.058266666 -0.24804951 1.748 1.585692e-38
-0.089140952 -0.24723999 1.766 1.5301913e-38
-0.085340001 -0.24598002 1.7570001 1.4842768e-38
-0.081993334 -0.24598002 1.7570001 1.5580333e-38
-0.061596192 -0.24472 1.748 1.6318617e-38
-0.058266666 -0.24472 1.748 1.5764721e-38
