# .PCD v0.7 - Point Cloud Data file format
VERSION 0.7
FIELDS x y z rgb
SIZE 4 4 4 4
TYPE F F F F
COUNT 1 1 1 1
WIDTH 1037
HEIGHT 1
VIEWPOINT 0 0 0 1 0 0 0
POINTS 1037
DATA ascii
0.021080954 -0.13647144 1.1650001 1.622426e-38
0.023300001 -0.13647144 1.1650001 1.6039872e-38
0.025519049 -0.13647144 1.1650001 1.5947676e-38
0.027738096 -0.13647144 1.1650001 1.5854749e-38
0.032065712 -0.13600287 1.161 1.5946597e-38
0.047381908 -0.13553429 1.1570001 1.5851888e-38
0.049414285 -0.13506572 1.153 1.5484187e-38
0.060185716 -0.13459715 1.149 1.6221724e-38
-0.0011019048 -0.13333048 1.1570001 1.7053643e-38
0.0011019048 -0.13333048 1.1570001 1.6961813e-38
0.0033171428 -0.13379143 1.161 1.72384e-38
0.0055285715 -0.13379143 1.161 1.72384e-38
0.0077399998 -0.13379143 1.161 1.7330595e-38
0.0099514285 -0.13379143 1.161 1.7238415e-38
0.021080954 -0.13425238 1.1650001 1.797633e-38
0.023300001 -0.13425238 1.1650001 1.8160724e-38
0.025606668 -0.13471334 1.169 1.8068529e-38
0.027738096 -0.13425238 1.1650001 1.8251838e-38
0.02777143 -0.12445715 1.08 1.8620621e-38
0.031797145 -0.12411143 1.077 1.7791226e-38
0.033848573 -0.12411143 1.077 1.7884138e-38
0.047381908 -0.13333048 1.1570001 1.7422456e-38
0.049414285 -0.13286953 1.153 1.6960762e-38
0.055019047 -0.12560952 1.09 1.2630413e-38
0.057095237 -0.12560952 1.09 1.3736761e-38
0.059388574 -0.12607048 1.0940001 1.2355624e-38
-0.0010380952 -0.12353334 1.09 1.6685611e-38
0.0010352382 -0.12319333 1.087 1.6685589e-38
0.003097143 -0.12285335 1.0840001 1.686998e-38
0.021600001 -0.1224 1.08 1.8436955e-38
0.023657143 -0.1224 1.08 1.7975977e-38
0.025714288 -0.1224 1.08 1.8252191e-38
0.031797145 -0.12206001 1.077 1.7882365e-38
0.033848573 -0.12206001 1.077 1.7608271e-38
0.044392385 -0.12285335 1.0840001 1.6135304e-38
0.046457149 -0.12285335 1.0840001 1.5857639e-38
0.055019047 -0.12353334 1.09 9.4075388e-39
0.057095237 -0.12353334 1.09 1.1159256e-38
0.059388574 -0.12398667 1.0940001 1.0422034e-38
0.061640952 -0.12432666 1.097 5.3512744e-39
-0.0052095242 -0.12190286 1.0940001 1.5669608e-38
-0.0031142856 -0.12145714 1.09 1.6407935e-38
-0.0010380952 -0.12145714 1.09 1.5209392e-38
0.0010352382 -0.12112286 1.087 1.1529498e-38
0.003097143 -0.12078858 1.0840001 1.0791933e-38
0.0051619052 -0.12078858 1.0840001 1.3461994e-38
0.019542858 -0.12034287 1.08 1.8345113e-38
0.021600001 -0.12034287 1.08 1.6870718e-38
0.023657143 -0.12034287 1.08 1.4197045e-38
0.025714288 -0.12034287 1.08 1.5761853e-38
0.029828573 -0.12034287 1.08 1.825364e-38
0.031885713 -0.12034287 1.08 1.3643859e-38
0.03394286 -0.12034287 1.08 1.162064e-38
0.04000286 -0.12000857 1.077 1.6966106e-38
0.04217143 -0.12034287 1.08 1.6137437e-38
0.044392385 -0.12078858 1.0840001 1.2541808e-38
0.046457149 -0.12078858 1.0840001 1.235996e-38
0.048790477 -0.12145714 1.09 1.4296068e-38
0.052942857 -0.12145714 1.09 1.4015887e-38
0.055019047 -0.12145714 1.09 1.318718e-38
0.057304766 -0.12190286 1.0940001 1.0882289e-38
0.059388574 -0.12190286 1.0940001 6.8321778e-39
0.069999047 -0.12223714 1.097 1.2349108e-38
-0.013581905 -0.12014762 1.097 8.7614211e-39
-0.011460953 -0.11981906 1.0940001 9.0412604e-39
-0.0052095242 -0.11981906 1.0940001 1.6499395e-38
-0.0031142856 -0.11938096 1.09 1.6503371e-38
-0.0010380952 -0.11938096 1.09 1.2446763e-38
0.0010380952 -0.11938096 1.09 8.1268795e-39
0.0031057145 -0.11905239 1.087 6.8361407e-39
0.0051619052 -0.11872382 1.0840001 1.1621278e-38
0.0072266674 -0.11872382 1.0840001 1.5770081e-38
0.0092914291 -0.11872382 1.0840001 1.650445e-38
0.019542858 -0.11828572 1.08 1.68718e-38
0.021600001 -0.11828572 1.08 1.502932e-38
0.023657143 -0.11828572 1.08 1.1986864e-38
0.025714288 -0.11828572 1.08 1.3824991e-38
0.02777143 -0.11828572 1.08 1.7973794e-38
0.029828573 -0.11828572 1.08 1.843875e-38
0.031885713 -0.11828572 1.08 1.4105556e-38
0.036000002 -0.11828572 1.08 1.1254016e-38
0.040114287 -0.11828572 1.08 1.6871072e-38
0.04217143 -0.11828572 1.08 1.5032907e-38
0.044392385 -0.11872382 1.0840001 1.1437278e-38
0.046457149 -0.11872382 1.0840001 1.0062274e-38
0.048790477 -0.11938096 1.09 1.1537405e-38
0.050866667 -0.11938096 1.09 1.5030026e-38
0.05313715 -0.11981906 1.0940001 1.5859787e-38
0.055220958 -0.11981906 1.0940001 1.3924774e-38
-0.013581905 -0.11805809 1.097 8.0249448e-39
-0.011492381 -0.11805809 1.097 8.3062261e-39
-0.0010380952 -0.11730476 1.09 8.0267399e-39
0.0010380952 -0.11730476 1.09 4.5413463e-39
0.0031057145 -0.1169819 1.087 3.7115856e-39
0.0051761903 -0.1169819 1.087 7.3903808e-39
0.0072466666 -0.1169819 1.087 1.1446989e-38
0.0092914291 -0.11665906 1.0840001 1.5581793e-38
0.011356192 -0.11665906 1.0840001 1.8163271e-38
0.013420953 -0.11665906 1.0840001 1.8439126e-38
0.015428572 -0.11622858 1.08 1.8531322e-38
0.021680001 -0.11665906 1.0840001 1.1250015e-38
0.023744764 -0.11665906 1.0840001 1.0420254e-38
0.02777143 -0.11622858 1.08 1.4013739e-38
0.029828573 -0.11622858 1.08 1.6318614e-38
0.031885713 -0.11622858 1.08 1.87157e-38
0.040114287 -0.11622858 1.08 1.4200661e-38
0.044515237 -0.1169819 1.087 1.1165748e-38
0.046585716 -0.1169819 1.087 1.0061944e-38
0.048790477 -0.11730476 1.09 9.6931612e-39
0.051053338 -0.11773524 1.0940001 1.3648857e-38
0.055220958 -0.11773524 1.0940001 1.346306e-38
-0.018181903 -0.11871714 1.123 1.2073276e-38
-0.015928572 -0.11787143 1.115 8.5770354e-39
-0.013718096 -0.11713143 1.108 8.2082529e-39
-0.011576191 -0.11681429 1.105 7.4782633e-39
-0.0052095242 -0.11565144 1.0940001 1.245182e-38
0.0010419048 -0.11565144 1.0940001 3.1649012e-39
0.0031142856 -0.11522858 1.09 3.4414881e-39
0.0051761903 -0.11491142 1.087 4.1757839e-39
0.0072466666 -0.11491142 1.087 5.7431097e-39
0.0093171429 -0.11491142 1.087 1.3096083e-38
0.011387618 -0.11491142 1.087 1.8351234e-38
0.013420953 -0.1145943 1.0840001 1.9819925e-38
0.015485716 -0.1145943 1.0840001 1.8252599e-38
0.017550478 -0.1145943 1.0840001 1.4477598e-38
0.021680001 -0.1145943 1.0840001 1.1063829e-38
0.023744764 -0.1145943 1.0840001 1.1432611e-38
0.029828573 -0.11417143 1.08 1.3737111e-38
0.031885713 -0.11417143 1.08 1.8715675e-38
0.03394286 -0.11417143 1.08 1.9176338e-38
0.036133334 -0.1145943 1.0840001 1.8438773e-38
0.040114287 -0.11417143 1.08 1.1255435e-38
0.044515237 -0.11491142 1.087 1.0341745e-38
0.046714287 -0.11522858 1.09 9.7871491e-39
0.048790477 -0.11522858 1.09 8.7729972e-39
0.051053338 -0.11565144 1.0940001 1.1530908e-38
0.05313715 -0.11565144 1.0940001 1.4573364e-38
0.055220958 -0.11565144 1.0940001 1.2084095e-38
0.057461902 -0.11596857 1.097 4.3396616e-39
-0.018117143 -0.11616287 1.1190001 1.2533882e-38
-0.015928572 -0.11574762 1.115 1.0234418e-38
-0.013767621 -0.1154362 1.1120001 9.4968533e-39
-0.01160762 -0.11502095 1.108 7.6619483e-39
-0.0094371429 -0.1142943 1.1010001 9.5058609e-39
-0.0031342856 -0.11387905 1.097 8.9569779e-39
-0.0010447619 -0.11387905 1.097 5.4535439e-39
0.0010419048 -0.11356763 1.0940001 3.2567508e-39
0.0031142856 -0.11315238 1.09 4.1787071e-39
0.0051904763 -0.11315238 1.09 4.5435197e-39
0.0072666667 -0.11315238 1.09 3.1605852e-39
0.0093171429 -0.11284095 1.087 7.2939169e-39
0.011387618 -0.11284095 1.087 1.503835e-38
0.013420953 -0.11252954 1.0840001 1.834693e-38
0.015485716 -0.11252954 1.0840001 1.2722997e-38
0.017550478 -0.11252954 1.0840001 9.8674533e-39
0.01961524 -0.11252954 1.0840001 1.1065997e-38
0.021680001 -0.11252954 1.0840001 1.180212e-38
0.023744764 -0.11252954 1.0840001 1.1709924e-38
0.029828573 -0.11211429 1.08 1.0234797e-38
0.031885713 -0.11211429 1.08 1.5489948e-38
0.034068573 -0.11252954 1.0840001 1.7056557e-38
0.040262863 -0.11252954 1.0840001 1.1716013e-38
0.042327624 -0.11252954 1.0840001 1.0064808e-38
0.044638097 -0.11315238 1.09 1.0341395e-38
0.046714287 -0.11315238 1.09 9.6031236e-39
0.048969526 -0.11356763 1.0940001 8.7733629e-39
0.051053338 -0.11356763 1.0940001 1.1897552e-38
0.053282857 -0.11387905 1.097 1.4755617e-38
0.059551429 -0.11387905 1.097 1.2226721e-39
-0.018117143 -0.11403143 1.1190001 1.2718273e-38
-0.015928572 -0.11362381 1.115 1.1063441e-38
-0.013767621 -0.1133181 1.1120001 9.8648974e-39
-0.01160762 -0.11291048 1.108 7.4771843e-39
-0.0094714286 -0.11260476 1.105 1.0335249e-38
-0.0052428572 -0.11219715 1.1010001 1.1624202e-38
-0.0031342856 -0.11178952 1.097 8.5878857e-39
-0.0010447619 -0.11178952 1.097 5.268843e-39
0.0010419048 -0.11148382 1.0940001 2.9801372e-39
0.0031257146 -0.11148382 1.0940001 3.9020935e-39
0.0051904763 -0.11107619 1.09 3.2570969e-39
0.0072666667 -0.11107619 1.09 2.1507493e-39
0.0093428576 -0.11107619 1.09 1.7844625e-39
0.011419049 -0.11107619 1.09 1.1096221e-38
0.013458095 -0.11077047 1.087 1.6693558e-38
0.015528572 -0.11077047 1.087 1.0977429e-38
0.017599048 -0.11077047 1.087 9.4979323e-39
0.01961524 -0.11046477 1.0840001 1.1434041e-38
0.021680001 -0.11046477 1.0840001 1.2261306e-38
0.023744764 -0.11046477 1.0840001 1.2076914e-38
0.025880953 -0.11077047 1.087 1.2169457e-38
0.02993905 -0.11046477 1.0840001 9.6848221e-39
0.034068573 -0.11046477 1.0840001 1.539993e-38
0.036133334 -0.11046477 1.0840001 1.539993e-38
0.038198099 -0.11046477 1.0840001 1.2824922e-38
0.040262863 -0.11046477 1.0840001 1.11654e-38
0.046885718 -0.11148382 1.0940001 9.7882211e-39
0.048969526 -0.11148382 1.0940001 9.2350473e-39
0.051053338 -0.11148382 1.0940001 1.2266338e-38
0.053282857 -0.11178952 1.097 1.5032206e-38
-0.018117143 -0.11190001 1.1190001 1.2718273e-38
-0.015928572 -0.1115 1.115 1.0603541e-38
-0.01160762 -0.11080001 1.108 9.5022357e-39
-0.0073666666 -0.1105 1.105 1.3830774e-38
-0.0052428572 -0.11010001 1.1010001 1.5213708e-38
-0.0031457145 -0.11010001 1.1010001 1.3191518e-38
-0.0010447619 -0.10969999 1.097 8.3051499e-39
0.0010419048 -0.10940001 1.0940001 2.4283956e-39
0.0031257146 -0.10940001 1.0940001 2.4283956e-39
0.0052095242 -0.10940001 1.0940001 2.2443869e-39
0.0072666667 -0.109 1.09 2.0599956e-39
0.011419049 -0.109 1.09 1.5594385e-38
0.013458095 -0.1087 1.087 1.797959e-38
0.015528572 -0.1087 1.087 1.3830786e-38
0.017599048 -0.1087 1.087 9.7745669e-39
0.01961524 -0.10840001 1.0840001 1.0512132e-38
0.021680001 -0.10840001 1.0840001 1.1617025e-38
0.025880953 -0.1087 1.087 1.1432611e-38
0.027874289 -0.10840001 1.0840001 1.0418459e-38
0.02993905 -0.10840001 1.0840001 1.1156375e-38
0.032092378 -0.1087 1.087 1.6964699e-38
0.03416286 -0.1087 1.087 1.7978148e-38
0.040262863 -0.10840001 1.0840001 1.1163247e-38
0.042444762 -0.1087 1.087 9.5137894e-39
0.044801909 -0.10940001 1.0940001 9.7903763e-39
0.048969526 -0.10940001 1.0940001 1.227355e-38
0.05119333 -0.10969999 1.097 1.4109521e-38
-0.018117143 -0.10976858 1.1190001 1.2534252e-38
-0.005261905 -0.10839524 1.105 1.5672869e-38
-0.0031457145 -0.10800286 1.1010001 1.3836194e-38
-0.0010485714 -0.10800286 1.1010001 1.0793738e-38
0.0010447619 -0.10761047 1.097 2.7050315e-39
0.0031257146 -0.1073162 1.0940001 1.3220971e-39
0.0072933342 -0.1073162 1.0940001 3.9067501e-39
0.0093428576 -0.10692381 1.09 1.2173083e-38
0.011419049 -0.10692381 1.09 1.7243842e-38
0.013495238 -0.10692381 1.09 1.8899378e-38
0.015571428 -0.10692381 1.09 1.6871074e-38
0.017599048 -0.10662952 1.087 1.2357489e-38
0.019669523 -0.10662952 1.087 1.0421381e-38
0.021739999 -0.10662952 1.087 1.0420627e-38
0.023810476 -0.10662952 1.087 1.0605018e-38
0.025880953 -0.10662952 1.087 1.1065261e-38
0.027951429 -0.10662952 1.087 1.1618435e-38
0.030021906 -0.10662952 1.087 1.3365868e-38
0.032092378 -0.10662952 1.087 1.7883454e-38
0.03416286 -0.10662952 1.087 1.9174155e-38
0.036233336 -0.10662952 1.087 1.8713177e-38
0.040374286 -0.10662952 1.087 1.2545818e-38
0.042444762 -0.10662952 1.087 9.6063536e-39
0.044801909 -0.1073162 1.0940001 9.3297667e-39
0.046885718 -0.1073162 1.0940001 1.171642e-38
0.048969526 -0.1073162 1.0940001 1.3560333e-38
0.05119333 -0.10761047 1.097 1.4202067e-38
0.053282857 -0.10761047 1.097 1.309572e-38
0.05557429 -0.10800286 1.1010001 1.3463764e-38
0.057880953 -0.10839524 1.105 1.3648155e-38
-0.018117143 -0.10763714 1.1190001 1.2626445e-38
-0.0031571428 -0.10629047 1.105 1.2999622e-38
-0.0010485714 -0.10590572 1.1010001 1.6226469e-38
0.0010447619 -0.10552095 1.097 1.1718238e-38
0.0031257146 -0.10523239 1.0940001 6.1865001e-39
0.0052095242 -0.10523239 1.0940001 6.8390526e-39
0.0093771433 -0.10523239 1.0940001 1.6414072e-38
0.011419049 -0.10484762 1.09 1.6137485e-38
0.013495238 -0.10484762 1.09 1.7611138e-38
0.015571428 -0.10484762 1.09 1.8440899e-38
0.01764762 -0.10484762 1.09 1.6871463e-38
0.019669523 -0.10455905 1.087 1.3736811e-38
0.021739999 -0.10455905 1.087 1.0512482e-38
0.023810476 -0.10455905 1.087 1.0051504e-38
0.025880953 -0.10455905 1.087 1.1986138e-38
0.027951429 -0.10455905 1.087 1.6872507e-38
0.032092378 -0.10455905 1.087 1.6779605e-38
0.03416286 -0.10455905 1.087 1.5678604e-38
0.036233336 -0.10455905 1.087 1.6231778e-38
0.038303811 -0.10455905 1.087 1.6691372e-38
0.040374286 -0.10455905 1.087 1.6691372e-38
0.042561907 -0.10484762 1.09 1.4114216e-38
0.044801909 -0.10523239 1.0940001 1.2639086e-38
0.047014289 -0.10552095 1.097 1.4110623e-38
0.049103811 -0.10552095 1.097 1.438721e-38
0.053282857 -0.10552095 1.097 7.6543855e-39
0.055776194 -0.10629047 1.105 8.7593135e-39
-0.018052381 -0.10512857 1.115 1.336401e-38
-0.015928572 -0.10512857 1.115 9.4057367e-39
-0.0094971433 -0.10446857 1.108 1.0971974e-38
-0.0073866672 -0.10446857 1.108 1.0048912e-38
-0.005261905 -0.10418572 1.105 9.1269554e-39
-0.0031571428 -0.10418572 1.105 1.354733e-38
-0.0010485714 -0.10380858 1.1010001 1.7511742e-38
0.0010447619 -0.10343143 1.097 1.5675791e-38
0.0031342856 -0.10343143 1.097 1.1803574e-38
0.0052095242 -0.10314858 1.0940001 1.1530938e-38
0.0072933342 -0.10314858 1.0940001 1.6417306e-38
0.013544763 -0.10314858 1.0940001 1.4294629e-38
0.015628573 -0.10314858 1.0940001 1.6968302e-38
0.01764762 -0.10277143 1.09 1.880719e-38
0.01972381 -0.10277143 1.09 1.6041321e-38
0.0218 -0.10277143 1.09 1.327725e-38
0.023876192 -0.10277143 1.09 1.1986511e-38
0.02595238 -0.10277143 1.09 1.3183609e-38
0.028028572 -0.10277143 1.09 1.8254369e-38
0.032092378 -0.10248857 1.087 1.3554553e-38
0.036233336 -0.10248857 1.087 1.1813247e-38
0.038409524 -0.10277143 1.09 1.6596983e-38
0.040485717 -0.10277143 1.09 1.7979918e-38
0.042561907 -0.10277143 1.09 1.6874318e-38
0.044924762 -0.10343143 1.097 1.5767971e-38
0.049103811 -0.10343143 1.097 1.2451092e-38
0.05119333 -0.10343143 1.097 1.2258391e-38
0.053477146 -0.10380858 1.1010001 8.6627612e-39
0.055776194 -0.10418572 1.105 8.574855e-39
-0.018117143 -0.10337429 1.1190001 1.3824967e-38
-0.015985716 -0.10337429 1.1190001 9.5915671e-39
-0.0094971433 -0.1023581 1.108 1.0052548e-38
-0.0073866672 -0.1023581 1.108 9.8620205e-39
-0.0052761906 -0.1023581 1.108 8.479086e-39
-0.0031571428 -0.10208096 1.105 9.5850833e-39
-0.0010485714 -0.10171143 1.1010001 1.4840234e-38
0.0010447619 -0.1013419 1.097 1.5948049e-38
0.0031342856 -0.1013419 1.097 1.7884157e-38
0.0052238097 -0.1013419 1.097 1.6505166e-38
0.0072933342 -0.10106477 1.0940001 1.5951992e-38
0.015628573 -0.10106477 1.0940001 1.3562484e-38
0.01764762 -0.10069524 1.09 1.6689908e-38
0.01972381 -0.10069524 1.09 1.853382e-38
0.0218 -0.10069524 1.09 1.8438047e-38
0.023876192 -0.10069524 1.09 1.7700482e-38
0.02595238 -0.10069524 1.09 1.7240946e-38
0.028028572 -0.10069524 1.09 1.7333141e-38
0.030021906 -0.1004181 1.087 1.3746497e-38
0.032092378 -0.1004181 1.087 8.3991504e-39
0.03416286 -0.1004181 1.087 4.820094e-39
0.036233336 -0.1004181 1.087 3.9903333e-39
0.038409524 -0.10069524 1.09 1.0153341e-38
0.042561907 -0.10069524 1.09 1.7149816e-38
0.044924762 -0.1013419 1.097 1.7149816e-38
0.047185715 -0.10171143 1.1010001 1.5951604e-38
0.04928286 -0.10171143 1.1010001 9.3135186e-39
0.053671427 -0.10208096 1.105 8.4816322e-39
0.055927619 -0.1023581 1.108 9.0344276e-39
-0.018181903 -0.10160477 1.123 1.419268e-38
-0.015985716 -0.10124286 1.1190001 1.060428e-38
-0.0074133342 -0.10060953 1.1120001 9.4006794e-39
-0.0052761906 -0.10024762 1.108 9.492875e-39
-0.0031571428 -0.099976189 1.105 9.1269554e-39
-0.0010485714 -0.099614292 1.1010001 1.1800629e-38
0.0010485714 -0.099614292 1.1010001 1.5669279e-38
0.0031457145 -0.099614292 1.1010001 1.9264908e-38
0.0052238097 -0.09925238 1.097 1.6966517e-38
0.0072933342 -0.098980956 1.0940001 1.3924061e-38
0.017712383 -0.098980956 1.0940001 1.3742897e-38
0.019796191 -0.098980956 1.0940001 1.6877548e-38
0.0218 -0.098619051 1.09 1.9359284e-38
0.023876192 -0.098619051 1.09 1.9635871e-38
0.02595238 -0.098619051 1.09 1.7705161e-38
0.028028572 -0.098619051 1.09 1.3371966e-38
0.030104762 -0.098619051 1.09 9.4205078e-39
0.032180954 -0.098619051 1.09 6.2858564e-39
0.034257144 -0.098619051 1.09 3.7202358e-39
0.036333334 -0.098619051 1.09 2.6138883e-39
0.038409524 -0.098619051 1.09 5.186661e-39
0.040485717 -0.098619051 1.09 9.8886382e-39
0.047185715 -0.099614292 1.1010001 1.465908e-38
0.04928286 -0.099614292 1.1010001 8.8507552e-39
0.051566668 -0.099976189 1.105 8.6670955e-39
0.053671427 -0.099976189 1.105 8.5748998e-39
0.055927619 -0.10024762 1.108 8.8500364e-39
-0.020320952 -0.099465713 1.123 1.3638792e-38
-0.018181903 -0.099465713 1.123 1.4560748e-38
-0.015985716 -0.099111438 1.1190001 1.1065621e-38
-0.0074133342 -0.098491438 1.1120001 9.5876014e-39
-0.0052761906 -0.098137148 1.108 9.1266233e-39
-0.0031571428 -0.09787143 1.105 8.7592883e-39
-0.001052381 -0.09787143 1.105 8.9436795e-39
0.0010485714 -0.097517148 1.1010001 1.2443867e-38
0.0031457145 -0.097517148 1.1010001 1.8344387e-38
0.0052238097 -0.097162858 1.097 1.6598068e-38
0.0072933342 -0.096897155 1.0940001 1.2449264e-38
0.0093771433 -0.096897155 1.0940001 1.0432519e-38
0.011460953 -0.096897155 1.0940001 1.1354475e-38
0.021880003 -0.096897155 1.0940001 1.7703331e-38
0.02595238 -0.096542858 1.09 1.6693135e-38
0.028028572 -0.096542858 1.09 8.395528e-39
0.030104762 -0.096542858 1.09 3.9031852e-39
0.032180954 -0.096542858 1.09 5.0095327e-39
0.040485717 -0.096542858 1.09 6.1111859e-39
0.047185715 -0.097517148 1.1010001 1.3647037e-38
0.04928286 -0.097517148 1.1010001 8.5762773e-39
0.051566668 -0.09787143 1.105 8.4830797e-39
0.053671427 -0.09787143 1.105 8.2986885e-39
0.055927619 -0.098137148 1.108 9.9560168e-39
-0.018181903 -0.097326666 1.123 1.4468188e-38
-0.015985716 -0.096980006 1.1190001 1.1617706e-38
-0.0074133342 -0.096373342 1.1120001 9.403957e-39
-0.0052761906 -0.096026666 1.108 8.3898051e-39
-0.0031571428 -0.095766664 1.105 7.9331023e-39
-0.001052381 -0.095766664 1.105 8.2096892e-39
0.0010485714 -0.09542001 1.1010001 1.1156365e-38
0.0031457145 -0.09542001 1.1010001 1.7333472e-38
0.0052238097 -0.095073335 1.097 1.5032582e-38
0.007313333 -0.095073335 1.097 1.1621344e-38
0.0094028572 -0.095073335 1.097 1.0340676e-38
0.011460953 -0.094813339 1.0940001 1.1262632e-38
0.013544763 -0.094813339 1.0940001 1.1354831e-38
0.015628573 -0.094813339 1.0940001 1.1631418e-38
0.021880003 -0.094813339 1.0940001 1.4667387e-38
0.028028572 -0.094466671 1.09 6.096803e-39
0.030104762 -0.094466671 1.09 1.6973382e-39
0.032180954 -0.094466671 1.09 3.9100333e-39
0.038409524 -0.094466671 1.09 2.3398125e-39
0.040634289 -0.094813339 1.0940001 4.9212901e-39
0.045088574 -0.09542001 1.1010001 1.3652166e-38
0.04928286 -0.09542001 1.1010001 8.6667395e-39
0.051566668 -0.095766664 1.105 8.0238616e-39
0.053817146 -0.096026666 1.108 8.9458179e-39
0.058038097 -0.096026666 1.108 1.4009423e-38
-0.016042858 -0.095187619 1.123 1.2354186e-38
-0.0074333334 -0.094509527 1.115 1.1707047e-38
-0.0052761906 -0.093916193 1.108 8.0192219e-39
-0.0031657144 -0.093916193 1.108 7.6554617e-39
-0.001052381 -0.093661904 1.105 1.10667e-38
0.001052381 -0.093661904 1.105 1.2997458e-38
0.0031457145 -0.093322858 1.1010001 1.8068218e-38
0.0052238097 -0.092983812 1.097 1.6414409e-38
0.007313333 -0.092983812 1.097 1.3279758e-38
0.0094028572 -0.092983812 1.097 1.153777e-38
0.011492381 -0.092983812 1.097 1.153777e-38
0.013581905 -0.092983812 1.097 1.0986411e-38
0.015628573 -0.092729531 1.0940001 1.0986411e-38
0.019796191 -0.092729531 1.0940001 1.3012907e-38
0.021880003 -0.092729531 1.0940001 1.696758e-38
0.023963811 -0.092729531 1.0940001 1.8534906e-38
0.02595238 -0.092390478 1.09 1.5864482e-38
0.028028572 -0.092390478 1.09 7.5668758e-39
0.030104762 -0.092390478 1.09 1.4207569e-39
0.032180954 -0.092390478 1.09 2.7114957e-39
0.036333334 -0.092390478 1.09 2.9801597e-39
0.038409524 -0.092390478 1.09 6.2898164e-39
0.040634289 -0.092729531 1.0940001 1.2005945e-38
0.042718098 -0.092729531 1.0940001 1.6688851e-38
0.04928286 -0.093322858 1.1010001 8.9429761e-39
0.051566668 -0.093661904 1.105 8.1171405e-39
0.053817146 -0.093916193 1.108 1.1251792e-38
0.058038097 -0.093916193 1.108 1.1340085e-38
0.060365722 -0.094255246 1.1120001 1.1800633e-38
-0.0074333334 -0.092385709 1.115 1.2536455e-38
-0.0052952385 -0.09213715 1.1120001 8.1110644e-39
-0.0031657144 -0.091805719 1.108 8.0224295e-39
-0.001052381 -0.091557145 1.105 1.3554167e-38
0.001052381 -0.091557145 1.105 1.6129216e-38
0.0031571428 -0.091557145 1.105 1.7788737e-38
0.0052428572 -0.091225713 1.1010001 1.5955217e-38
0.0073400005 -0.091225713 1.1010001 1.4480086e-38
0.0094028572 -0.090894289 1.097 1.190514e-38
0.013581905 -0.090894289 1.097 1.015843e-38
0.015628573 -0.090645723 1.0940001 1.0435017e-38
0.017712383 -0.090645723 1.0940001 1.1720742e-38
0.019796191 -0.090645723 1.0940001 1.4486611e-38
0.021880003 -0.090645723 1.0940001 1.7794119e-38
0.023963811 -0.090645723 1.0940001 1.8439489e-38
0.026047621 -0.090645723 1.0940001 1.6140366e-38
0.028131431 -0.090645723 1.0940001 1.1346193e-38
0.030104762 -0.090314284 1.09 2.8926794e-39
0.032180954 -0.090314284 1.09 1.8785275e-39
0.034257144 -0.090314284 1.09 1.6040201e-39
0.036466669 -0.090645723 1.0940001 1.7884114e-39
0.038550481 -0.090645723 1.0940001 8.1283466e-39
0.040634289 -0.090645723 1.0940001 1.4121063e-38
0.045088574 -0.091225713 1.1010001 1.6779605e-38
0.047185715 -0.091225713 1.1010001 1.5673635e-38
0.049461905 -0.091557145 1.105 1.0879463e-38
0.051706668 -0.091805719 1.108 9.8638212e-39
0.053817146 -0.091805719 1.108 1.2998473e-38
0.055927619 -0.091805719 1.108 1.3369808e-38
0.058247626 -0.09213715 1.1120001 7.7458748e-39
0.060365722 -0.09213715 1.1120001 8.7602678e-39
-0.0074333334 -0.090261906 1.115 1.216911e-38
-0.0052952385 -0.090019055 1.1120001 1.2076914e-38
-0.0031657144 -0.089695238 1.108 1.364312e-38
-0.0010552381 -0.089695238 1.108 1.7976315e-38
0.001052381 -0.089452386 1.105 1.5857664e-38
0.0031571428 -0.089452386 1.105 1.2630817e-38
0.0052428572 -0.089128576 1.1010001 1.3650313e-38
0.0073400005 -0.089128576 1.1010001 1.6692769e-38
0.0094028572 -0.088804767 1.097 1.5312043e-38
0.013581905 -0.088804767 1.097 1.162995e-38
0.015671428 -0.088804767 1.097 1.2920689e-38
0.017712383 -0.088561907 1.0940001 1.5954891e-38
0.021880003 -0.088561907 1.0940001 1.7886671e-38
0.023963811 -0.088561907 1.0940001 1.6780324e-38
0.026047621 -0.088561907 1.0940001 1.6689226e-38
0.028131431 -0.088561907 1.0940001 1.7611183e-38
0.030215241 -0.088561907 1.0940001 1.2367577e-38
0.032299049 -0.088561907 1.0940001 6.19047e-39
0.034382861 -0.088561907 1.0940001 4.9144182e-39
0.036466669 -0.088561907 1.0940001 9.5241997e-39
0.038550481 -0.088561907 1.0940001 1.5219822e-38
0.040745717 -0.088804767 1.097 1.6233974e-38
0.042835239 -0.088804767 1.097 1.5585365e-38
0.045088574 -0.089128576 1.1010001 1.420243e-38
0.047357146 -0.089452386 1.105 1.5213373e-38
0.049461905 -0.089452386 1.105 1.5028982e-38
0.051706668 -0.089695238 1.108 1.5120771e-38
0.053817146 -0.089695238 1.108 1.4475402e-38
0.056129526 -0.090019055 1.1120001 1.1531994e-38
0.058247626 -0.090019055 1.1120001 3.9719525e-39
0.060528573 -0.090261906 1.115 5.3556058e-39
0.062652387 -0.090261906 1.115 1.0426365e-38
-0.0074600005 -0.088454291 1.1190001 1.1341141e-38
-0.0053095235 -0.088138096 1.115 1.4291402e-38
-0.0031771432 -0.087900959 1.1120001 1.5393433e-38
-0.0010552381 -0.087584764 1.108 1.7237346e-38
0.001052381 -0.087347619 1.105 1.4112771e-38
0.0031571428 -0.087347619 1.105 7.7512726e-39
0.0052428572 -0.087031431 1.1010001 9.8731566e-39
0.0073400005 -0.087031431 1.1010001 1.5128308e-38
0.0094371429 -0.087031431 1.1010001 1.7519321e-38
0.011492381 -0.086715236 1.097 1.4937843e-38
0.015671428 -0.086715236 1.097 1.4853223e-38
0.017712383 -0.086478107 1.0940001 1.7978158e-38
0.019796191 -0.086478107 1.0940001 1.8070353e-38
0.021880003 -0.086478107 1.0940001 1.6780324e-38
0.023963811 -0.086478107 1.0940001 1.5028607e-38
0.026047621 -0.086478107 1.0940001 1.6042017e-38
0.028131431 -0.086478107 1.0940001 1.8531299e-38
0.030215241 -0.086478107 1.0940001 1.7336041e-38
0.032299049 -0.086478107 1.0940001 1.143552e-38
0.034382861 -0.086478107 1.0940001 8.2223275e-39
0.036466669 -0.086478107 1.0940001 1.3846261e-38
0.03865619 -0.086715236 1.097 1.7152706e-38
0.040745717 -0.086715236 1.097 1.5493185e-38
0.045252379 -0.087347619 1.105 1.2361767e-38
0.047357146 -0.087347619 1.105 1.3926219e-38
0.04959619 -0.087584764 1.108 1.5401349e-38
0.051706668 -0.087584764 1.108 1.6133509e-38
0.053817146 -0.087584764 1.108 1.3275445e-38
0.056129526 -0.087900959 1.1120001 1.0333078e-38
0.058247626 -0.087900959 1.1120001 3.9715797e-39
0.060528573 -0.088138096 1.115 5.9980857e-39
0.062877148 -0.088454291 1.1190001 1.1161041e-38
0.065415241 -0.089007616 1.126 1.3823537e-38
0.067560002 -0.089007616 1.126 1.3823537e-38
-0.0074600005 -0.086322866 1.1190001 1.0421328e-38
-0.0053095235 -0.086014286 1.115 1.4570131e-38
-0.0031771432 -0.085782863 1.1120001 1.4935695e-38
-0.0010552381 -0.085474283 1.108 1.2538608e-38
0.0010552381 -0.085474283 1.108 6.2851627e-39
0.0031571428 -0.08524286 1.105 4.2568589e-39
0.005261905 -0.08524286 1.105 4.1707743e-39
0.0073666666 -0.08524286 1.105 8.0429908e-39
0.011492381 -0.084625714 1.097 1.6693876e-38
0.013581905 -0.084625714 1.097 1.7704435e-38
0.015671428 -0.084625714 1.097 1.8165413e-38
0.017760953 -0.084625714 1.097 1.7333154e-38
0.019850476 -0.084625714 1.097 1.3460938e-38
0.02194 -0.084625714 1.097 1.0145142e-38
0.028208571 -0.084625714 1.097 1.6410103e-38
0.030298095 -0.084625714 1.097 1.7147696e-38
0.032387618 -0.084625714 1.097 1.7977457e-38
0.034477144 -0.084625714 1.097 1.7520754e-38
0.036566667 -0.084625714 1.097 1.7889537e-38
0.03865619 -0.084625714 1.097 1.5770863e-38
0.042835239 -0.084625714 1.097 1.0800568e-38
0.045252379 -0.08524286 1.105 1.033959e-38
0.047357146 -0.08524286 1.105 1.2270288e-38
0.04959619 -0.085474283 1.108 1.4206396e-38
0.051706668 -0.085474283 1.108 1.4755241e-38
0.054011434 -0.085782863 1.1120001 1.0053264e-38
0.056129526 -0.085782863 1.1120001 4.9018401e-39
0.058404762 -0.086014286 1.115 2.5969494e-39
0.060528573 -0.086014286 1.115 7.5632815e-39
0.062877148 -0.086322866 1.1190001 1.1712085e-38
-0.0074600005 -0.084191434 1.1190001 8.6746555e-39
-0.0053095235 -0.083890475 1.115 1.3376633e-38
-0.0031771432 -0.083664767 1.1120001 1.3835128e-38
-0.0010590478 -0.083664767 1.1120001 8.4877811e-39
0.0010552381 -0.083363816 1.108 4.0803485e-39
0.0031657144 -0.083363816 1.108 4.1725441e-39
0.005261905 -0.083138093 1.105 1.4189254e-39
0.0073666666 -0.083138093 1.105 1.4189254e-39
0.0094714286 -0.083138093 1.105 1.0335587e-38
0.015671428 -0.082536191 1.097 1.8347659e-38
0.019850476 -0.082536191 1.097 1.0605734e-38
0.02194 -0.082536191 1.097 1.097128e-38
0.023963811 -0.082310483 1.0940001 1.1155671e-38
0.030298095 -0.082536191 1.097 1.6775992e-38
0.032387618 -0.082536191 1.097 1.9910644e-38
0.034477144 -0.082536191 1.097 1.9636956e-38
0.03865619 -0.082536191 1.097 1.3471728e-38
0.040745717 -0.082536191 1.097 1.1166837e-38
0.04299143 -0.082837142 1.1010001 9.9747606e-39
0.045252379 -0.083138093 1.105 9.6981737e-39
0.047357146 -0.083138093 1.105 1.0707263e-38
0.04959619 -0.083363816 1.108 1.3196545e-38
0.051706668 -0.083363816 1.108 1.3744705e-38
0.054011434 -0.083664767 1.1120001 8.0285756e-39
0.056129526 -0.083664767 1.1120001 1.1333127e-39
0.058404762 -0.083890475 1.115 1.5020953e-39
0.06074572 -0.084191434 1.1190001 8.1164524e-39
0.06310191 -0.084492385 1.123 1.1896473e-38
-0.0074600005 -0.082060009 1.1190001 8.5817564e-39
-0.0053285714 -0.082060009 1.1190001 1.2822755e-38
-0.0031857144 -0.081766672 1.115 1.2363931e-38
-0.0010590478 -0.081546672 1.1120001 7.2009757e-39
0.0010552381 -0.081253335 1.108 2.7042636e-39
0.0031657144 -0.081253335 1.108 3.7184155e-39
0.0052761906 -0.081253335 1.108 4.1772511e-39
0.0073666666 -0.081033334 1.105 2.7943167e-39
0.0094714286 -0.081033334 1.105 5.1831158e-39
0.011576191 -0.081033334 1.105 1.1913397e-38
0.017760953 -0.080446668 1.097 1.1067076e-38
0.02194 -0.080446668 1.097 1.1618097e-38
0.024029525 -0.080446668 1.097 1.1894684e-38
0.026119046 -0.080446668 1.097 1.1800687e-38
0.028208571 -0.080446668 1.097 1.0970927e-38
0.030298095 -0.080446668 1.097 1.1246445e-38
0.032387618 -0.080446668 1.097 1.7976726e-38
0.034477144 -0.080446668 1.097 1.7981022e-38
0.036566667 -0.080446668 1.097 1.4477588e-38
0.038797144 -0.080740005 1.1010001 1.1537427e-38
0.040894289 -0.080740005 1.1010001 1.1168644e-38
0.045252379 -0.081033334 1.105 1.006624e-38
0.047485713 -0.081253335 1.108 1.1165745e-38
0.04959619 -0.081253335 1.108 1.337844e-38
0.051893339 -0.081546672 1.1120001 1.4020203e-38
0.056129526 -0.081546672 1.1120001 2.7874615e-39
0.058404762 -0.081766672 1.115 3.8016134e-39
0.06074572 -0.082060009 1.1190001 9.1280988e-39
0.06310191 -0.082353331 1.123 1.2447142e-38
-0.0074866666 -0.080214284 1.123 8.3969896e-39
-0.0053285714 -0.079928577 1.1190001 1.282238e-38
-0.0031857144 -0.079642855 1.115 1.2272098e-38
-0.0010590478 -0.079428576 1.1120001 8.5842731e-39
0.0010552381 -0.079142861 1.108 2.4273264e-39
0.0052761906 -0.079142861 1.108 4.9126427e-39
0.0073866672 -0.079142861 1.108 3.8062952e-39
0.0094714286 -0.078928567 1.105 3.4385692e-39
0.011576191 -0.078928567 1.105 1.0445437e-38
0.013680952 -0.078928567 1.105 1.4758176e-38
0.015785715 -0.078928567 1.105 1.3283045e-38
0.019850476 -0.078357145 1.097 1.0699715e-38
0.02194 -0.078357145 1.097 1.2076909e-38
0.024029525 -0.078357145 1.097 1.2169104e-38
0.026119046 -0.078357145 1.097 1.1801041e-38
0.028208571 -0.078357145 1.097 1.1063476e-38
0.030408574 -0.07864286 1.1010001 9.7788226e-39
0.032505713 -0.07864286 1.1010001 1.7062277e-38
0.034602862 -0.07864286 1.1010001 1.6787183e-38
0.036700003 -0.07864286 1.1010001 1.3007162e-38
0.040894289 -0.07864286 1.1010001 1.0619421e-38
0.04314762 -0.078928567 1.105 1.1079307e-38
0.045375239 -0.079142861 1.108 1.0341742e-38
0.047485713 -0.079142861 1.108 1.107355e-38
0.04959619 -0.079142861 1.108 1.3562832e-38
0.051893339 -0.079428576 1.1120001 1.420568e-38
0.054011434 -0.079428576 1.1120001 9.1349204e-39
0.056129526 -0.079428576 1.1120001 6.1868308e-39
0.058404762 -0.079642855 1.115 6.9243958e-39
0.06074572 -0.079928577 1.1190001 1.0875822e-38
0.06310191 -0.080214284 1.123 1.2996322e-38
-0.0053285714 -0.077797145 1.1190001 1.4108803e-38
-0.0031857144 -0.077519052 1.115 1.4108815e-38
-0.0010619047 -0.077519052 1.115 1.4108815e-38
0.0010590478 -0.077310488 1.1120001 8.6811673e-39
0.0031657144 -0.07703238 1.108 5.1777334e-39
0.0073866672 -0.07703238 1.108 1.417866e-39
0.0094971433 -0.07703238 1.108 5.2778001e-39
0.011576191 -0.076823808 1.105 1.2469059e-38
0.015785715 -0.076823808 1.105 1.4755292e-38
0.022020001 -0.076545723 1.1010001 1.1157103e-38
0.024117144 -0.076545723 1.1010001 1.1525886e-38
0.026214287 -0.076545723 1.1010001 1.1341141e-38
0.02831143 -0.076545723 1.1010001 1.0880163e-38
0.030408574 -0.076545723 1.1010001 1.2171974e-38
0.032505713 -0.076545723 1.1010001 1.8533473e-38
0.034602862 -0.076545723 1.1010001 1.8441294e-38
0.036700003 -0.076545723 1.1010001 1.5952012e-38
0.038797144 -0.076545723 1.1010001 1.2089169e-38
0.041042857 -0.076823808 1.105 1.1259408e-38
0.04314762 -0.076823808 1.105 1.043467e-38
0.045375239 -0.07703238 1.108 1.0250278e-38
0.047485713 -0.07703238 1.108 1.2637651e-38
0.049775243 -0.077310488 1.1120001 1.4389368e-38
0.051893339 -0.077310488 1.1120001 1.5399169e-38
0.054011434 -0.077310488 1.1120001 1.4385017e-38
0.056280952 -0.077519052 1.115 1.1435523e-38
0.058614291 -0.077797145 1.1190001 9.4072193e-39
0.06074572 -0.077797145 1.1190001 1.1062364e-38
0.06310191 -0.078075238 1.123 1.2445299e-38
-0.0053285714 -0.07566572 1.1190001 1.438214e-38
-0.0031857144 -0.075395241 1.115 1.4382843e-38
-0.0010619047 -0.075395241 1.115 1.5489191e-38
0.0010590478 -0.075192392 1.1120001 1.181114e-38
0.0031657144 -0.074921906 1.108 5.9106195e-39
0.0052761906 -0.074921906 1.108 1.1415818e-39
0.0073866672 -0.074921906 1.108 2.0635381e-39
0.0094971433 -0.074921906 1.108 7.6691538e-39
0.011576191 -0.074719049 1.105 1.4307239e-38
0.013680952 -0.074719049 1.105 1.8165063e-38
0.015785715 -0.074719049 1.105 1.7519693e-38
0.017890476 -0.074719049 1.105 1.2730237e-38
0.019995239 -0.074719049 1.105 9.7799773e-39
0.022020001 -0.074448578 1.1010001 1.060393e-38
0.024117144 -0.074448578 1.1010001 1.0972712e-38
0.026214287 -0.074448578 1.1010001 1.1157103e-38
0.02831143 -0.074448578 1.1010001 1.207906e-38
0.030408574 -0.074448578 1.1010001 1.5574625e-38
0.032505713 -0.074448578 1.1010001 1.9631233e-38
0.034728572 -0.074719049 1.105 1.8901521e-38
0.036833331 -0.074719049 1.105 1.7610782e-38
0.041042857 -0.074719049 1.105 1.1074666e-38
0.04314762 -0.074719049 1.105 1.070872e-38
0.045375239 -0.074921906 1.108 1.1630676e-38
0.047485713 -0.074921906 1.108 1.3926582e-38
0.049775243 -0.075192392 1.1120001 1.3557799e-38
0.051893339 -0.075192392 1.1120001 1.4842719e-38
0.054157145 -0.075395241 1.115 1.5856871e-38
0.056280952 -0.075395241 1.115 1.3921916e-38
0.058614291 -0.07566572 1.1190001 1.023409e-38
-0.0053285714 -0.073534288 1.1190001 1.0420254e-38
-0.0031857144 -0.073271424 1.115 1.1800954e-38
-0.0010619047 -0.073271424 1.115 1.6134148e-38
0.0010590478 -0.073074289 1.1120001 1.4109206e-38
0.0031771432 -0.073074289 1.1120001 1.1158946e-38
0.0052952385 -0.073074289 1.1120001 8.9584128e-39
0.0094971433 -0.072811432 1.108 1.521839e-38
0.01160762 -0.072811432 1.108 1.6509129e-38
0.013718096 -0.072811432 1.108 1.7243807e-38
0.015828572 -0.072811432 1.108 1.8257959e-38
0.017890476 -0.07261429 1.105 1.6964034e-38
0.019995239 -0.07261429 1.105 1.4198165e-38
0.024117144 -0.072351426 1.1010001 1.0419217e-38
0.026214287 -0.072351426 1.1010001 1.2075858e-38
0.02831143 -0.072351426 1.1010001 1.8529552e-38
0.030408574 -0.072351426 1.1010001 1.8622804e-38
0.034728572 -0.07261429 1.105 1.6967862e-38
0.038938098 -0.07261429 1.105 1.7427861e-38
0.041042857 -0.07261429 1.105 1.5030774e-38
0.043264762 -0.072811432 1.108 1.494143e-38
0.045375239 -0.072811432 1.108 1.5955582e-38
0.047657147 -0.073074289 1.1120001 1.4938223e-38
0.049775243 -0.073074289 1.1120001 9.3142894e-39
0.054157145 -0.073271424 1.115 1.4199873e-38
0.056482859 -0.073534288 1.1190001 1.4105931e-38
0.058614291 -0.073534288 1.1190001 1.1063476e-38
-0.011838095 -0.07210476 1.13 1.0603185e-38
-0.0074866666 -0.071658097 1.123 1.0146551e-38
-0.0053285714 -0.071402863 1.1190001 7.8416606e-39
-0.0031971431 -0.071402863 1.1190001 9.0325737e-39
-0.0010619047 -0.071147621 1.115 1.3826746e-38
0.0010619047 -0.071147621 1.115 1.6041311e-38
0.0031771432 -0.070956193 1.1120001 1.4197398e-38
0.0074133342 -0.070956193 1.1120001 1.6414419e-38
0.00953143 -0.070956193 1.1120001 1.6508416e-38
0.011649525 -0.070956193 1.1120001 1.494109e-38
0.013718096 -0.070700951 1.108 1.4938916e-38
0.015828572 -0.070700951 1.108 1.6506242e-38
0.017890476 -0.070509523 1.105 1.8990868e-38
0.019995239 -0.070509523 1.105 1.6685977e-38
0.0221 -0.070509523 1.105 1.4565114e-38
0.024117144 -0.070254289 1.1010001 1.3366571e-38
0.026214287 -0.070254289 1.1010001 1.5024303e-38
0.02831143 -0.070254289 1.1010001 1.972628e-38
0.030408574 -0.070254289 1.1010001 1.8257268e-38
0.032623809 -0.070509523 1.105 1.1619183e-38
0.034728572 -0.070509523 1.105 1.1806374e-38
0.038938098 -0.070509523 1.105 1.8806461e-38
0.041154288 -0.070700951 1.108 1.8253287e-38
0.043264762 -0.070700951 1.108 1.6319738e-38
0.045375239 -0.070700951 1.108 1.6504129e-38
0.047657147 -0.070956193 1.1120001 1.5304828e-38
0.049909521 -0.071147621 1.115 8.6667423e-39
0.052220006 -0.071402863 1.1190001 7.1958133e-39
-0.011838095 -0.069952376 1.13 1.0420942e-38
-0.0074866666 -0.06951905 1.123 7.8427424e-39
-0.0053285714 -0.069271438 1.1190001 8.1193293e-39
-0.0031971431 -0.069271438 1.1190001 8.6649445e-39
-0.0010619047 -0.06902381 1.115 9.4025095e-39
0.0031857144 -0.06902381 1.115 1.6687043e-38
0.0074333334 -0.06902381 1.115 1.7057639e-38
0.00953143 -0.068838097 1.1120001 1.4849627e-38
0.011649525 -0.068838097 1.1120001 1.2452541e-38
0.013718096 -0.068590477 1.108 1.1443071e-38
0.015828572 -0.068590477 1.108 1.2272831e-38
0.017939048 -0.068590477 1.108 1.5953078e-38
0.019995239 -0.068404764 1.105 1.8534556e-38
0.0221 -0.068404764 1.105 1.8899025e-38
0.024204763 -0.068404764 1.105 1.8714634e-38
0.026309524 -0.068404764 1.105 1.8254732e-38
0.028414287 -0.068404764 1.105 1.5949841e-38
0.03051905 -0.068404764 1.105 1.1257263e-38
0.032623809 -0.068404764 1.105 7.2006548e-39
0.034728572 -0.068404764 1.105 6.1972579e-39
0.036833331 -0.068404764 1.105 8.2255617e-39
0.038938098 -0.068404764 1.105 1.5031073e-38
0.041154288 -0.068590477 1.108 1.8718898e-38
0.045375239 -0.068590477 1.108 1.4104134e-38
0.050088573 -0.069271438 1.1190001 8.6677989e-39
0.052220006 -0.069271438 1.1190001 8.7596386e-39
0.054545715 -0.06951905 1.123 1.1617703e-38
-0.011838095 -0.0678 1.13 1.0788659e-38
-0.0096257143 -0.067379996 1.123 5.1647251e-39
-0.0074866666 -0.067379996 1.123 8.2089956e-39
-0.0053285714 -0.067139998 1.1190001 9.2231475e-39
-0.0010657144 -0.067139998 1.1190001 8.2043194e-39
0.0010619047 -0.0669 1.115 9.496091e-39
0.0074333334 -0.0669 1.115 1.5951659e-38
0.00953143 -0.066720009 1.1120001 1.264232e-38
0.011649525 -0.066720009 1.1120001 1.1259386e-38
0.013718096 -0.066480003 1.108 9.9747732e-39
0.017939048 -0.066480003 1.108 1.346955e-38
0.020049524 -0.066480003 1.108 1.641981e-38
0.0221 -0.066299997 1.105 1.9268173e-38
0.024204763 -0.066299997 1.105 1.9452565e-38
0.026309524 -0.066299997 1.105 1.7796275e-38
0.028414287 -0.066299997 1.105 1.1619167e-38
0.03051905 -0.066299997 1.105 8.3138071e-39
0.032623809 -0.066299997 1.105 6.7464814e-39
0.034822859 -0.066480003 1.108 3.4447181e-39
0.036933336 -0.066480003 1.108 2.0617837e-39
0.03904381 -0.066480003 1.108 9.7842106e-39
0.041154288 -0.066480003 1.108 1.6791078e-38
0.045375239 -0.066480003 1.108 1.1431567e-38
0.050088573 -0.067139998 1.1190001 9.495389e-39
0.052220006 -0.067139998 1.1190001 9.4035633e-39
0.054545715 -0.067379996 1.123 1.2261628e-38
-0.011838095 -0.065647617 1.13 1.1158526e-38
-0.009651429 -0.065415241 1.126 5.0736141e-39
-0.0074866666 -0.065240949 1.123 7.4746633e-39
-0.0053285714 -0.065008573 1.1190001 8.6732065e-39
-0.0031971431 -0.065008573 1.1190001 9.4014361e-39
-0.0010657144 -0.065008573 1.1190001 8.940458e-39
0.0010619047 -0.06477619 1.115 8.2990136e-39
0.0074333334 -0.06477619 1.115 1.3925853e-38
0.00953143 -0.064601913 1.1120001 1.1628884e-38
0.011649525 -0.064601913 1.1120001 1.1536688e-38
0.013718096 -0.064369529 1.108 1.1079686e-38
0.020049524 -0.064369529 1.108 1.3012191e-38
0.022160001 -0.064369529 1.108 1.7151621e-38
0.024204763 -0.064195238 1.105 1.7796991e-38
0.026309524 -0.064195238 1.105 1.6142445e-38
0.028414287 -0.064195238 1.105 8.4902082e-39
0.03051905 -0.064195238 1.105 4.0868631e-39
0.032623809 -0.064195238 1.105 5.1010151e-39
0.034822859 -0.064369529 1.108 5.3754384e-39
0.036933336 -0.064369529 1.108 3.5315258e-39
0.043264762 -0.064369529 1.108 1.6503737e-38
0.045375239 -0.064369529 1.108 9.8656513e-39
0.047785714 -0.06477619 1.115 8.2093515e-39
0.050088573 -0.065008573 1.1190001 8.3937428e-39
0.052406665 -0.065240949 1.123 9.4950583e-39
-0.0096857138 -0.063495234 1.13 6.8253283e-39
-0.0075066672 -0.063270479 1.126 8.1167873e-39
-0.0053476193 -0.06310191 1.123 9.2231349e-39
-0.0032085713 -0.06310191 1.123 9.6765783e-39
-0.0010657144 -0.062877148 1.1190001 9.3077957e-39
0.0010657144 -0.062877148 1.1190001 7.6558274e-39
0.0031857144 -0.062652387 1.115 1.4386108e-38
0.0074333334 -0.062652387 1.115 1.3558888e-38
0.0095571429 -0.062652387 1.115 1.0616893e-38
0.011680952 -0.062652387 1.115 1.1170067e-38
0.013767621 -0.062483817 1.1120001 1.1447387e-38
0.015828572 -0.062259048 1.108 1.1539582e-38
0.017939048 -0.062259048 1.108 1.0252076e-38
0.020049524 -0.062259048 1.108 1.1174032e-38
0.022160001 -0.062259048 1.108 1.4577362e-38
0.024270477 -0.062259048 1.108 1.5868101e-38
0.026380952 -0.062259048 1.108 1.2186364e-38
0.028491428 -0.062259048 1.108 5.8248656e-39
0.030601904 -0.062259048 1.108 2.9844687e-39
0.032712381 -0.062259048 1.108 4.4595987e-39
0.034822859 -0.062259048 1.108 4.9155322e-39
0.041154288 -0.062259048 1.108 1.2559472e-38
0.043420956 -0.062483817 1.1120001 1.530811e-38
0.045539051 -0.062483817 1.1120001 9.0388067e-39
0.047785714 -0.062652387 1.115 8.7603673e-39
0.050088573 -0.062877148 1.1190001 8.9447585e-39
0.052406665 -0.06310191 1.123 9.2184714e-39
-0.011880001 -0.061560001 1.1340001 1.2077239e-38
-0.0096857138 -0.061342854 1.13 1.0786501e-38
-0.0075333333 -0.061342854 1.13 1.1433315e-38
-0.0053476193 -0.06096286 1.123 1.2355271e-38
-0.0032085713 -0.06096286 1.123 1.0599999e-38
-0.0010695239 -0.06096286 1.123 8.5716951e-39
0.0010657144 -0.06074572 1.1190001 1.0048605e-38
0.0031971431 -0.06074572 1.1190001 1.6963277e-38
0.0053095235 -0.060528573 1.115 1.7057271e-38
0.011680952 -0.060528573 1.115 1.1719294e-38
0.015885716 -0.060365722 1.1120001 1.1171528e-38
0.01800381 -0.060365722 1.1120001 1.1906553e-38
0.020121906 -0.060365722 1.1120001 1.3750465e-38
0.022240004 -0.060365722 1.1120001 1.7428564e-38
0.024270477 -0.060148574 1.108 1.8534912e-38
0.026380952 -0.060148574 1.108 1.549927e-38
0.028491428 -0.060148574 1.108 7.1094681e-39
0.030601904 -0.060148574 1.108 1.422189e-39
0.032712381 -0.060148574 1.108 2.3441453e-39
0.034948573 -0.060365722 1.1120001 4.1783301e-39
0.036933336 -0.060148574 1.108 4.5471126e-39
0.03904381 -0.060148574 1.108 9.7839303e-39
0.04130286 -0.060365722 1.1120001 1.6606407e-38
0.045539051 -0.060365722 1.1120001 1.3277603e-38
0.047957145 -0.06074572 1.1190001 8.210139e-39
0.050088573 -0.06074572 1.1190001 8.3945303e-39
-0.014040001 -0.059400003 1.1340001 1.400685e-38
-0.011880001 -0.059400003 1.1340001 1.3547678e-38
-0.0075333333 -0.059190478 1.13 1.2443854e-38
-0.0053619049 -0.058980957 1.126 1.2720441e-38
-0.003217143 -0.058980957 1.126 1.1708479e-38
-0.0010695239 -0.058823813 1.123 1.106311e-38
0.0010657144 -0.058614291 1.1190001 1.2717987e-38
0.0053285714 -0.058614291 1.1190001 1.7240558e-38
0.011680952 -0.058404762 1.115 1.2270303e-38
0.022240004 -0.058247626 1.1120001 1.8254738e-38
0.024358097 -0.058247626 1.1120001 1.8992303e-38
0.028491428 -0.058038097 1.108 1.1162874e-38
0.030601904 -0.058038097 1.108 1.5140539e-39
0.03283048 -0.058247626 1.1120001 8.6868454e-40
0.034948573 -0.058247626 1.1120001 2.3404879e-39
0.04130286 -0.058247626 1.1120001 1.7978536e-38
0.043420956 -0.058247626 1.1120001 1.8162536e-38
0.045539051 -0.058247626 1.1120001 1.5304472e-38
0.050267622 -0.058823813 1.123 1.180394e-38
-0.0097200004 -0.057240006 1.1340001 1.2533878e-38
-0.0075333333 -0.057038095 1.13 1.1615888e-38
-0.0053809523 -0.057038095 1.13 1.263004e-38
-0.003217143 -0.056836192 1.126 1.3182883e-38
-0.0010695239 -0.056684762 1.123 1.5211187e-38
0.0010695239 -0.056684762 1.123 1.5578916e-38
0.0031971431 -0.056482859 1.1190001 1.4841351e-38
0.0053285714 -0.056482859 1.1190001 1.3833233e-38
0.0074333334 -0.056280952 1.115 1.4386407e-38
0.011680952 -0.056280952 1.115 1.5034024e-38
0.020121906 -0.056129526 1.1120001 1.835052e-38
0.022240004 -0.056129526 1.1120001 1.7886303e-38
0.024358097 -0.056129526 1.1120001 1.6779955e-38
0.026476193 -0.056129526 1.1120001 1.6873633e-38
0.028594287 -0.056129526 1.1120001 1.7887785e-38
0.030712385 -0.056129526 1.1120001 1.2827815e-38
0.03283048 -0.056129526 1.1120001 6.8350995e-39
0.034948573 -0.056129526 1.1120001 8.4056594e-39
0.037066668 -0.056129526 1.1120001 1.5043745e-38
0.04130286 -0.056129526 1.1120001 1.4846733e-38
0.043538094 -0.056280952 1.115 1.5953399e-38
0.045661904 -0.056280952 1.115 1.6875355e-38
0.050267622 -0.056684762 1.123 1.5213701e-38
0.056684762 -0.056684762 1.123 6.4615484e-39
-0.0053809523 -0.054885715 1.13 1.0512408e-38
-0.0032285713 -0.054885715 1.13 1.3274723e-38
-0.001072381 -0.05469143 1.126 1.6132788e-38
0.0010695239 -0.054545715 1.123 1.585909e-38
0.0031971431 -0.05435143 1.1190001 1.1341504e-38
0.0053285714 -0.05435143 1.1190001 8.4931032e-39
0.0074333334 -0.054157145 1.115 9.6916464e-39
0.0095571429 -0.054157145 1.115 1.5583194e-38
0.013767621 -0.054011434 1.1120001 1.567722e-38
0.020121906 -0.054011434 1.1120001 1.7150905e-38
0.022240004 -0.054011434 1.1120001 1.5949481e-38
0.024358097 -0.054011434 1.1120001 1.511972e-38
0.026476193 -0.054011434 1.1120001 1.6778873e-38
0.028594287 -0.054011434 1.1120001 1.8807177e-38
0.030712385 -0.054011434 1.1120001 1.7795937e-38
0.03283048 -0.054011434 1.1120001 1.3554938e-38
0.034948573 -0.054011434 1.1120001 1.2087729e-38
0.04130286 -0.054011434 1.1120001 1.2818076e-38
0.043538094 -0.054157145 1.115 1.2729811e-38
0.045661904 -0.054157145 1.115 1.4850311e-38
0.050267622 -0.054545715 1.123 1.5764739e-38
0.056684762 -0.054545715 1.123 3.7028597e-39
0.058980957 -0.05469143 1.126 8.4048368e-39
-0.0010761905 -0.052733332 1.13 1.5029673e-38
0.001072381 -0.052546669 1.126 1.3649947e-38
0.0032085713 -0.052406665 1.123 8.026014e-39
0.0053285714 -0.052220006 1.1190001 4.4494814e-39
0.0074600005 -0.052220006 1.1190001 3.9885032e-39
0.0095914295 -0.052220006 1.1190001 9.0484504e-39
0.013767621 -0.051893339 1.1120001 1.7518264e-38
0.015885716 -0.051893339 1.1120001 1.8809003e-38
0.01800381 -0.051893339 1.1120001 1.8347624e-38
0.020121906 -0.051893339 1.1120001 1.2908082e-38
0.022240004 -0.051893339 1.1120001 1.005186e-38
0.024358097 -0.051893339 1.1120001 9.7752731e-39
0.026476193 -0.051893339 1.1120001 1.2445681e-38
0.028594287 -0.051893339 1.1120001 1.7147658e-38
0.030712385 -0.051893339 1.1120001 1.834623e-38
0.03283048 -0.051893339 1.1120001 1.9360382e-38
0.034948573 -0.051893339 1.1120001 1.8257609e-38
0.037066668 -0.051893339 1.1120001 1.6413696e-38
0.039184768 -0.051893339 1.1120001 1.3837979e-38
0.04130286 -0.051893339 1.1120001 1.1809675e-38
0.043538094 -0.052033335 1.115 1.1075357e-38
0.045661904 -0.052033335 1.115 1.1720727e-38
0.048128571 -0.052406665 1.123 1.3925153e-38
0.050267622 -0.052406665 1.123 1.3648566e-38
-0.0010761905 -0.050580952 1.13 1.3098619e-38
0.001072381 -0.050401904 1.126 1.0522181e-38
0.0032085713 -0.050267622 1.123 5.9123991e-39
0.0053476193 -0.050267622 1.123 2.7971781e-39
0.0074866666 -0.050267622 1.123 2.3362e-39
0.0095914295 -0.050088573 1.1190001 4.9086392e-39
0.011722858 -0.050088573 1.1190001 1.1546725e-38
0.013804762 -0.049909521 1.115 1.7427145e-38
0.015928572 -0.049909521 1.115 1.7888123e-38
0.018052381 -0.049909521 1.115 1.6595198e-38
0.020176189 -0.049909521 1.115 1.0879069e-38
0.022300001 -0.049909521 1.115 1.0879072e-38
0.024358097 -0.049775243 1.1120001 1.134005e-38
0.026476193 -0.049775243 1.1120001 1.1432939e-38
0.028594287 -0.049775243 1.1120001 1.373783e-38
0.030712385 -0.049775243 1.1120001 1.7974901e-38
0.032919046 -0.049909521 1.115 2.0832966e-38
0.03504286 -0.049909521 1.115 1.8809726e-38
0.037166666 -0.049909521 1.115 1.4476531e-38
0.039290477 -0.049909521 1.115 1.1629247e-38
0.041414287 -0.049909521 1.115 1.1444856e-38
0.043694288 -0.050088573 1.1190001 1.052542e-38
0.04582572 -0.050088573 1.1190001 1.0617616e-38
0.048128571 -0.050267622 1.123 1.2272115e-38
0.050401904 -0.050401904 1.126 1.1995528e-38
0.052546669 -0.050401904 1.126 8.2194254e-39
0.058980957 -0.050401904 1.126 1.1252902e-38
0.001072381 -0.048257146 1.126 1.1993348e-38
0.0032085713 -0.048128571 1.123 6.2772188e-39
0.0074866666 -0.048128571 1.123 2.891571e-39
0.0096257143 -0.048128571 1.123 2.7961089e-39
0.013804762 -0.047785714 1.115 1.4848506e-38
0.022300001 -0.047785714 1.115 1.1433337e-38
0.02442381 -0.047785714 1.115 1.1986511e-38
0.026547618 -0.047785714 1.115 1.1616652e-38
0.028671429 -0.047785714 1.115 1.0786891e-38
0.030795237 -0.047785714 1.115 1.4656546e-38
0.032919046 -0.047785714 1.115 2.0003893e-38
0.03504286 -0.047785714 1.115 1.8165763e-38
0.041414287 -0.047785714 1.115 1.1171881e-38
0.043694288 -0.047957145 1.1190001 1.0984972e-38
0.048128571 -0.048128571 1.123 1.291568e-38
