# .PCD v0.7 - Point Cloud Data file format
VERSION 0.7
FIELDS x y z rgb
SIZE 4 4 4 4
TYPE F F F F
COUNT 1 1 1 1
WIDTH 136
HEIGHT 1
VIEWPOINT 0 0 0 1 0 0 0
POINTS 136
DATA ascii
-0.05377429 -0.45059144 1.9470001 1.428706e-38
-0.05377429 -0.44688287 1.9470001 1.4658374e-38
-0.081171431 -0.42389527 1.8940001 8.1207712e-39
-0.081171431 -0.42028761 1.8940001 9.775608e-39
-0.052006669 -0.41784671 1.8830001 5.0016042e-39
-0.048420005 -0.41784671 1.8830001 1.1252148e-38
-0.081171431 -0.41668001 1.8940001 1.0511356e-38
-0.055593338 -0.41426003 1.8830001 3.2484425e-39
-0.052006669 -0.41426003 1.8830001 6.2908982e-39
-0.048420005 -0.41426003 1.8830001 1.2355624e-38
-0.044833336 -0.41426003 1.8830001 1.2908798e-38
-0.10030953 -0.41765237 1.9150001 9.1266233e-39
-0.081171431 -0.41307238 1.8940001 1.1436902e-38
-0.055593338 -0.41067335 1.8830001 1.1807489e-38
-0.052006669 -0.41067335 1.8830001 1.3098228e-38
-0.048420005 -0.41067335 1.8830001 1.3002435e-38
-0.044833336 -0.41067335 1.8830001 1.3186827e-38
-0.055593338 -0.4070867 1.8830001 1.3920834e-38
-0.052006669 -0.4070867 1.8830001 1.3275464e-38
-0.048420005 -0.4070867 1.8830001 1.2171971e-38
-0.044833336 -0.4070867 1.8830001 1.2079776e-38
-0.019841904 -0.40946478 1.8940001 7.7501712e-39
-0.10030953 -0.41035718 1.9150001 1.6685226e-38
-0.055593338 -0.40350002 1.8830001 1.4015534e-38
-0.052006669 -0.40350002 1.8830001 1.1434056e-38
-0.048420005 -0.40350002 1.8830001 1.0056879e-38
-0.070720002 -0.40074667 1.904 1.0232646e-38
-0.052310478 -0.39864191 1.8940001 1.2634041e-38
-0.052310478 -0.39503428 1.8940001 1.3370852e-38
-0.044833336 -0.39274004 1.8830001 1.3369814e-38
-0.059525717 -0.39142668 1.8940001 7.3785497e-39
-0.055918094 -0.39142668 1.8940001 6.4634107e-39
-0.052310478 -0.39142668 1.8940001 1.0243432e-38
-0.048702858 -0.39142668 1.8940001 1.3093224e-38
-0.027357142 -0.39576668 1.9150001 1.161664e-38
-0.063466668 -0.38986668 1.904 9.9657726e-39
-0.059840001 -0.38986668 1.904 4.8028174e-39
-0.055918094 -0.38781905 1.8940001 2.6055365e-39
-0.052310478 -0.38781905 1.8940001 6.7543399e-39
-0.048702858 -0.38781905 1.8940001 1.2542221e-38
-0.045095239 -0.38781905 1.8940001 1.2634417e-38
-0.093548574 -0.39070287 1.9260001 2.341769e-38
-0.055918094 -0.38421142 1.8940001 2.8811047e-39
-0.052310478 -0.38421142 1.8940001 6.2001474e-39
-0.048702858 -0.38421142 1.8940001 1.2081227e-38
-0.030826665 -0.38624001 1.904 1.2631495e-38
-0.093548574 -0.3870343 1.9260001 2.341769e-38
-0.055918094 -0.38060382 1.8940001 4.5352156e-39
-0.052310478 -0.38060382 1.8940001 7.7620626e-39
-0.097721912 -0.38535622 1.9360001 2.341769e-38
-0.093548574 -0.38336575 1.9260001 2.341769e-38
-0.059525717 -0.37699619 1.8940001 1.2081966e-38
-0.052586667 -0.37898666 1.904 1.3191146e-38
-0.097721912 -0.38166857 1.9360001 2.341769e-38
-0.093548574 -0.37969717 1.9260001 2.341769e-38
-0.056213334 -0.37536001 1.904 1.4475796e-38
-0.052586667 -0.37536001 1.904 1.3738231e-38
-0.10198572 -0.38012859 1.9470001 2.3233299e-38
-0.097721912 -0.37798098 1.9360001 2.341769e-38
-0.093548574 -0.3760286 1.9260001 2.341769e-38
-0.089880005 -0.3760286 1.9260001 7.0068679e-39
-0.059840001 -0.37173334 1.904 1.3370534e-38
-0.056213334 -0.37173334 1.904 1.3464175e-38
-0.052586667 -0.37173334 1.904 1.1804653e-38
-0.10198572 -0.37642002 1.9470001 2.3233299e-38
-0.097721912 -0.37429336 1.9360001 2.341769e-38
-0.093548574 -0.37236002 1.9260001 2.341769e-38
-0.089880005 -0.37236002 1.9260001 9.219563e-39
-0.086211428 -0.37236002 1.9260001 1.6706519e-39
-0.059840001 -0.36810669 1.904 1.3647795e-38
-0.056213334 -0.36810669 1.904 1.2636582e-38
-0.052586667 -0.36810669 1.904 1.0884865e-38
-0.10198572 -0.37271145 1.9470001 2.3233299e-38
-0.097721912 -0.37060574 1.9360001 2.341769e-38
-0.093548574 -0.36869147 1.9260001 2.341769e-38
-0.097721912 -0.36691809 1.9360001 2.341769e-38
-0.097721912 -0.3632305 1.9360001 2.341769e-38
-0.097721912 -0.35954288 1.9360001 2.341769e-38
-0.093548574 -0.35768574 1.9260001 2.341769e-38
-0.060185716 -0.35564288 1.9150001 4.2518114e-39
-0.056538098 -0.35564288 1.9150001 9.5211224e-40
-0.05289048 -0.35564288 1.9150001 6.5760457e-39
-0.060185716 -0.35199523 1.9150001 5.8151588e-39
-0.056538098 -0.35199523 1.9150001 4.0778402e-39
-0.05289048 -0.35199523 1.9150001 8.1344479e-39
-0.063833334 -0.34834763 1.9150001 1.2636549e-38
-0.060185716 -0.34834763 1.9150001 7.6579854e-39
-0.056538098 -0.34834763 1.9150001 7.660519e-39
-0.05289048 -0.34834763 1.9150001 1.144054e-38
-0.063833334 -0.34470001 1.9150001 1.0974908e-38
-0.060185716 -0.34470001 1.9150001 1.3003212e-38
-0.056538098 -0.34470001 1.9150001 1.3097893e-38
-0.05289048 -0.34470001 1.9150001 1.3097893e-38
-0.038520001 -0.34668002 1.9260001 1.2355644e-38
-0.060185716 -0.34105238 1.9150001 1.4110212e-38
-0.056538098 -0.34105238 1.9150001 1.5305916e-38
-0.05289048 -0.34105238 1.9150001 1.3462004e-38
-0.083442859 -0.33933431 1.9470001 5.3473465e-39
-0.023969525 -0.33741716 1.9360001 2.3509514e-38
-0.083442859 -0.33562574 1.9470001 9.3117586e-39
-0.079283811 -0.33372954 1.9360001 9.958207e-39
-0.075596198 -0.33372954 1.9360001 1.4936771e-38
-0.064200006 -0.33200574 1.9260001 1.0695772e-38
-0.06053143 -0.33200574 1.9260001 1.6043119e-38
-0.023969525 -0.33372954 1.9360001 2.3508451e-38
-0.020397143 -0.33562574 1.9470001 2.341769e-38
-0.064200006 -0.32833716 1.9260001 1.3091757e-38
-0.06053143 -0.32833716 1.9260001 1.6226408e-38
-0.056862861 -0.32833716 1.9260001 1.6410106e-38
-0.053194288 -0.32833716 1.9260001 1.5119367e-38
-0.023969525 -0.33004192 1.9360001 2.3507016e-38
-0.020397143 -0.33191717 1.9470001 2.341769e-38
-0.016885715 -0.33583814 1.9700001 2.3233299e-38
-0.064200006 -0.32466859 1.9260001 1.5672528e-38
-0.06053143 -0.32466859 1.9260001 1.6041311e-38
-0.056862861 -0.32466859 1.9260001 1.6039889e-38
-0.053194288 -0.32466859 1.9260001 1.5763302e-38
-0.023969525 -0.3263543 1.9360001 2.3507374e-38
-0.020397143 -0.3282086 1.9470001 2.341769e-38
-0.016885715 -0.33208573 1.9700001 2.3233299e-38
-0.076025717 -0.32450002 1.9470001 1.5209004e-38
-0.064200006 -0.32100001 1.9260001 1.6040225e-38
-0.06053143 -0.32100001 1.9260001 1.6132421e-38
-0.056862861 -0.32100001 1.9260001 1.594732e-38
-0.053194288 -0.32100001 1.9260001 1.6131711e-38
-0.024105716 -0.32450002 1.9470001 2.3507374e-38
-0.020522859 -0.3265 1.9590001 2.341769e-38
-0.079734296 -0.32079145 1.9470001 1.1797075e-38
-0.076025717 -0.32079145 1.9470001 1.5208313e-38
-0.064200006 -0.31733146 1.9260001 1.5763638e-38
-0.06053143 -0.31733146 1.9260001 1.6409007e-38
-0.027657144 -0.31897905 1.9360001 1.4747373e-38
-0.064200006 -0.31366286 1.9260001 1.5855831e-38
-0.06053143 -0.31366286 1.9260001 1.6224613e-38
-0.031344764 -0.31529146 1.9360001 1.2719019e-38
-0.027657144 -0.31529146 1.9360001 1.5209057e-38
