# .PCD v0.7 - Point Cloud Data file format
VERSION 0.7
FIELDS x y z rgb
SIZE 4 4 4 4
TYPE F F F F
COUNT 1 1 1 1
WIDTH 1024
HEIGHT 1
VIEWPOINT 0 0 0 1 0 0 0
POINTS 1024
DATA ascii
-0.017550478 -0.12491811 1.0840001 1.3648528e-38
-0.015528572 -0.12526381 1.087 1.3740373e-38
-0.013458095 -0.12526381 1.087 1.3832569e-38
-0.011387618 -0.12526381 1.087 1.3832935e-38
-0.0093171429 -0.12526381 1.087 1.392513e-38
-0.0072666667 -0.12560952 1.09 1.4109519e-38
-0.0010380952 -0.12560952 1.09 1.4017323e-38
0.0010380952 -0.12560952 1.09 1.4016973e-38
0.0031142856 -0.12560952 1.09 1.4016973e-38
0.0051904763 -0.12560952 1.09 1.4017326e-38
0.0072666667 -0.12560952 1.09 1.4017326e-38
0.0093428576 -0.12560952 1.09 1.4017326e-38
0.011419049 -0.12560952 1.09 1.392513e-38
0.013458095 -0.12526381 1.087 1.3925127e-38
0.015528572 -0.12526381 1.087 1.3740736e-38
0.017599048 -0.12526381 1.087 1.3464512e-38
0.019669523 -0.12526381 1.087 1.3280121e-38
0.021739999 -0.12526381 1.087 1.3371238e-38
0.023810476 -0.12526381 1.087 1.3371238e-38
0.025880953 -0.12526381 1.087 1.3279748e-38
0.02777143 -0.12445715 1.08 1.3371944e-38
0.029828573 -0.12445715 1.08 1.281842e-38
0.041898098 -0.12365048 1.0730001 1.0328429e-38
-0.02777143 -0.1224 1.08 1.2725145e-38
-0.025809526 -0.12285335 1.0840001 1.3093928e-38
-0.023744764 -0.12285335 1.0840001 1.2910613e-38
-0.021680001 -0.12285335 1.0840001 1.3002808e-38
-0.019669523 -0.12319333 1.087 1.3370512e-38
-0.017599048 -0.12319333 1.087 1.3554903e-38
-0.015528572 -0.12319333 1.087 1.3463789e-38
-0.013458095 -0.12319333 1.087 1.364818e-38
-0.011419049 -0.12353334 1.09 1.3648543e-38
-0.0093428576 -0.12353334 1.09 1.3832935e-38
-0.0072666667 -0.12353334 1.09 1.3832935e-38
-0.0031142856 -0.12353334 1.09 1.392549e-38
-0.0010380952 -0.12353334 1.09 1.3833295e-38
0.0010380952 -0.12353334 1.09 1.3924774e-38
0.0031142856 -0.12353334 1.09 1.3924774e-38
0.0051904763 -0.12353334 1.09 1.392513e-38
0.0072666667 -0.12353334 1.09 1.3832935e-38
0.011419049 -0.12353334 1.09 1.4108082e-38
0.013495238 -0.12353334 1.09 1.3648543e-38
0.015571428 -0.12353334 1.09 1.3648543e-38
0.01764762 -0.12353334 1.09 1.3464512e-38
0.01972381 -0.12353334 1.09 1.3372317e-38
0.021739999 -0.12319333 1.087 1.3188281e-38
0.029828573 -0.1224 1.08 1.2818064e-38
0.031797145 -0.12206001 1.077 1.2541477e-38
0.033848573 -0.12206001 1.077 1.226417e-38
-0.033628572 -0.11922857 1.0700001 1.1896461e-38
-0.031679049 -0.11956286 1.0730001 1.2171252e-38
-0.029635239 -0.11956286 1.0730001 1.2632231e-38
-0.02777143 -0.12034287 1.08 1.2632949e-38
-0.025809526 -0.12078858 1.0840001 1.3186123e-38
-0.023744764 -0.12078858 1.0840001 1.3094278e-38
-0.021680001 -0.12078858 1.0840001 1.3094278e-38
-0.019669523 -0.12112286 1.087 1.3002455e-38
-0.017599048 -0.12112286 1.087 1.3279042e-38
-0.015571428 -0.12145714 1.09 1.3371594e-38
-0.013495238 -0.12145714 1.09 1.3555985e-38
-0.011419049 -0.12145714 1.09 1.3740373e-38
-0.0052095242 -0.12190286 1.0940001 1.4200275e-38
-0.0031257146 -0.12190286 1.0940001 1.4200278e-38
-0.0010419048 -0.12190286 1.0940001 1.4108082e-38
0.0051904763 -0.12145714 1.09 1.410808e-38
0.0072666667 -0.12145714 1.09 1.3831493e-38
0.01972381 -0.12145714 1.09 1.3096083e-38
0.021739999 -0.12112286 1.087 1.3187202e-38
0.029828573 -0.12034287 1.08 1.3001722e-38
0.031797145 -0.12000857 1.077 1.2540744e-38
0.033848573 -0.12000857 1.077 1.226417e-38
-0.037599046 -0.1168619 1.067 1.1523715e-38
-0.035566669 -0.1168619 1.067 1.0881933e-38
-0.033628572 -0.11719048 1.0700001 1.1988281e-38
-0.031679049 -0.11751906 1.0730001 1.2263448e-38
-0.029635239 -0.11751906 1.0730001 1.2540035e-38
-0.02777143 -0.11828572 1.08 1.2357086e-38
-0.025809526 -0.11872382 1.0840001 1.2541477e-38
-0.023744764 -0.11872382 1.0840001 1.2632947e-38
-0.021739999 -0.11905239 1.087 1.2725142e-38
-0.019669523 -0.11905239 1.087 1.3093212e-38
-0.017599048 -0.11905239 1.087 1.3461994e-38
-0.015571428 -0.11938096 1.09 1.3187202e-38
-0.0072666667 -0.11938096 1.09 1.3923325e-38
-0.0052095242 -0.11981906 1.0940001 1.3923325e-38
-0.0010419048 -0.11981906 1.0940001 1.3739297e-38
0.0010419048 -0.11981906 1.0940001 1.3555985e-38
0.0031257146 -0.11981906 1.0940001 1.364818e-38
0.0052095242 -0.11981906 1.0940001 1.374002e-38
0.0072933342 -0.11981906 1.0940001 1.3555629e-38
0.0093428576 -0.11938096 1.09 1.3555985e-38
0.01972381 -0.11938096 1.09 1.3002455e-38
0.021739999 -0.11905239 1.087 1.3186126e-38
0.023810476 -0.11905239 1.087 1.3001735e-38
0.031885713 -0.11828572 1.08 1.2631508e-38
0.04000286 -0.11795714 1.077 1.161735e-38
0.041898098 -0.11751906 1.0730001 1.1892492e-38
-0.037599046 -0.11482953 1.067 1.1986511e-38
-0.035566669 -0.11482953 1.067 1.1803179e-38
-0.031679049 -0.11547524 1.0730001 1.207906e-38
-0.029745713 -0.11590572 1.077 1.2171255e-38
-0.027874289 -0.11665906 1.0840001 1.2079069e-38
-0.025880953 -0.1169819 1.087 1.2447852e-38
-0.023810476 -0.1169819 1.087 1.2448561e-38
-0.021739999 -0.1169819 1.087 1.2540757e-38
-0.01972381 -0.11730476 1.09 1.2448934e-38
-0.01764762 -0.11730476 1.09 1.2817716e-38
-0.015571428 -0.11730476 1.09 1.3002455e-38
-0.0072666667 -0.11730476 1.09 1.3555985e-38
-0.0010419048 -0.11773524 1.0940001 1.3647104e-38
0.0010419048 -0.11773524 1.0940001 1.3463436e-38
0.0031257146 -0.11773524 1.0940001 1.3647827e-38
0.0052095242 -0.11773524 1.0940001 1.3648178e-38
0.0072933342 -0.11773524 1.0940001 1.3463786e-38
0.011419049 -0.11730476 1.09 1.3463789e-38
0.01972381 -0.11730476 1.09 1.2817713e-38
0.0218 -0.11730476 1.09 1.2724795e-38
0.023810476 -0.1169819 1.087 1.2724795e-38
0.025880953 -0.1169819 1.087 1.2447855e-38
0.031885713 -0.11622858 1.08 1.2264157e-38
0.041898098 -0.11547524 1.0730001 1.2263101e-38
0.043819048 -0.11515238 1.0700001 1.0880166e-38
-0.029828573 -0.11417143 1.08 1.2263451e-38
-0.027951429 -0.11491142 1.087 1.1895384e-38
-0.025880953 -0.11491142 1.087 1.2264167e-38
-0.023810476 -0.11491142 1.087 1.2080852e-38
-0.0218 -0.11522858 1.09 1.2449634e-38
-0.01972381 -0.11522858 1.09 1.2449281e-38
-0.0093428576 -0.11522858 1.09 1.3371591e-38
-0.0072933342 -0.11565144 1.0940001 1.3371238e-38
-0.0010419048 -0.11565144 1.0940001 1.3371594e-38
0.0010419048 -0.11565144 1.0940001 1.3370884e-38
0.0031257146 -0.11565144 1.0940001 1.346308e-38
0.0052095242 -0.11565144 1.0940001 1.3463789e-38
0.0072933342 -0.11565144 1.0940001 1.3279398e-38
0.0093771433 -0.11565144 1.0940001 1.3279398e-38
0.011419049 -0.11522858 1.09 1.3279398e-38
0.0218 -0.11522858 1.09 1.2725145e-38
0.023876192 -0.11522858 1.09 1.2725145e-38
0.025880953 -0.11491142 1.087 1.2539685e-38
0.033848573 -0.11385429 1.077 1.3001016e-38
0.043819048 -0.11311429 1.0700001 9.1338217e-39
-0.031885713 -0.11211429 1.08 1.3829698e-38
-0.029828573 -0.11211429 1.08 1.4014089e-38
-0.027951429 -0.11284095 1.087 1.346271e-38
-0.023876192 -0.11315238 1.09 1.3002082e-38
-0.0218 -0.11315238 1.09 1.3002082e-38
-0.013495238 -0.11315238 1.09 1.2726947e-38
-0.011419049 -0.11315238 1.09 1.27273e-38
-0.0093771433 -0.11356763 1.0940001 1.2911692e-38
0.0031257146 -0.11356763 1.0940001 1.3186493e-38
0.0052095242 -0.11356763 1.0940001 1.3187202e-38
0.011460953 -0.11356763 1.0940001 1.3279398e-38
0.013495238 -0.11315238 1.09 1.3554903e-38
0.015571428 -0.11315238 1.09 1.3554903e-38
0.01764762 -0.11315238 1.09 1.3279748e-38
0.023876192 -0.11315238 1.09 1.3648531e-38
0.033848573 -0.11180286 1.077 1.3002102e-38
0.043819048 -0.11107619 1.0700001 8.1214621e-39
-0.034266666 -0.1047581 1.028 9.4057395e-39
-0.032308571 -0.1047581 1.028 1.2816978e-38
-0.02993905 -0.11046477 1.0840001 1.3279398e-38
-0.01764762 -0.11107619 1.09 1.3095007e-38
-0.015571428 -0.11107619 1.09 1.2911338e-38
-0.013544763 -0.11148382 1.0940001 1.2911338e-38
-0.011460953 -0.11148382 1.0940001 1.2912055e-38
0.013544763 -0.11148382 1.0940001 1.4015168e-38
0.015628573 -0.11148382 1.0940001 1.4015168e-38
0.017712383 -0.11148382 1.0940001 1.3648178e-38
0.019796191 -0.11148382 1.0940001 1.3832569e-38
0.0218 -0.11107619 1.09 1.3648543e-38
0.023876192 -0.11107619 1.09 1.3740739e-38
0.027895236 -0.10292381 1.01 1.3004979e-38
0.029819047 -0.10292381 1.01 1.2083023e-38
0.031742856 -0.10292381 1.01 1.1345432e-38
-0.036330476 -0.1031 1.031 6.3640194e-39
-0.034266666 -0.1028 1.028 6.8260737e-39
-0.032308571 -0.1028 1.028 8.4855951e-39
-0.030261908 -0.10250001 1.0250001 8.0260491e-39
-0.01972381 -0.109 1.09 1.3002808e-38
-0.017712383 -0.10940001 1.0940001 1.3279395e-38
-0.015628573 -0.10940001 1.0940001 1.309573e-38
-0.011460953 -0.10940001 1.0940001 1.3372319e-38
-0.0093771433 -0.10940001 1.0940001 1.3925493e-38
-0.0052095242 -0.10940001 1.0940001 1.4661957e-38
-0.0031257146 -0.10940001 1.0940001 1.4569793e-38
-0.0010419048 -0.10940001 1.0940001 1.4661989e-38
0.017712383 -0.10940001 1.0940001 1.3096086e-38
0.019796191 -0.10940001 1.0940001 1.3833651e-38
0.022058096 -0.10070001 1.0070001 1.1806773e-38
0.027895236 -0.101 1.01 1.1806063e-38
0.029819047 -0.101 1.01 6.7353032e-39
0.031742856 -0.101 1.01 7.2899218e-39
0.033766668 -0.10129999 1.013 1.0793356e-38
0.035907622 -0.1019 1.0190001 1.0148684e-38
0.037848573 -0.1019 1.0190001 3.9715769e-39
-0.032308571 -0.10084191 1.028 7.7476349e-39
-0.030261908 -0.10054763 1.0250001 5.908774e-39
-0.01972381 -0.10692381 1.09 1.1252883e-38
-0.017712383 -0.1073162 1.0940001 1.2635818e-38
-0.011460953 -0.1073162 1.0940001 1.2082294e-38
-0.0094028572 -0.10761047 1.097 1.2174489e-38
-0.0052095242 -0.1073162 1.0940001 1.3742894e-38
-0.0031342856 -0.10761047 1.097 1.3557802e-38
0.0086571425 -0.099076189 1.01 1.162566e-38
0.010612381 -0.09937048 1.013 1.015053e-38
0.022058096 -0.098781914 1.0070001 9.8732043e-39
0.024047619 -0.099076189 1.01 1.0977394e-38
0.025971429 -0.099076189 1.01 1.2083741e-38
0.027895236 -0.099076189 1.01 1.2266322e-38
0.029819047 -0.099076189 1.01 9.0394751e-39
0.031837143 -0.09937048 1.013 8.9440579e-39
0.033766668 -0.09937048 1.013 1.1248949e-38
0.035907622 -0.099959053 1.0190001 1.0056128e-38
0.038071431 -0.10054763 1.0250001 3.7868255e-39
0.040140949 -0.10084191 1.028 5.7149155e-40
-0.032308571 -0.098883808 1.028 8.3015724e-39
-0.030350477 -0.098883808 1.028 8.6699737e-39
-0.019796191 -0.10523239 1.0940001 7.1981311e-39
-0.017712383 -0.10523239 1.0940001 1.2637673e-38
-0.004838095 -0.097729526 1.016 1.4388264e-38
0.0028942856 -0.097440958 1.013 1.2730142e-38
0.0048238095 -0.097440958 1.013 1.3371976e-38
0.0086571425 -0.097152382 1.01 1.1995499e-38
0.010612381 -0.097440958 1.013 9.5062168e-39
0.027895236 -0.097152382 1.01 1.2083373e-38
0.031837143 -0.097440958 1.013 1.3186827e-38
0.033766668 -0.097440958 1.013 1.0052175e-38
0.035907622 -0.098018102 1.0190001 6.924351e-39
0.038071431 -0.098595247 1.0250001 3.697504e-39
0.040140949 -0.098883808 1.028 7.5810387e-40
-0.032308571 -0.096925713 1.028 6.4626764e-39
-0.030350477 -0.096925713 1.028 9.4979351e-39
-0.028309526 -0.096642859 1.0250001 1.2724782e-38
-0.020440001 -0.096360005 1.0220001 2.5101642e-39
-0.018493334 -0.096360005 1.0220001 6.1885908e-39
-0.016498096 -0.096077144 1.0190001 1.0982764e-38
-0.004838095 -0.095794283 1.016 1.4200998e-38
0.00096476189 -0.095511429 1.013 8.2100423e-39
0.0028942856 -0.095511429 1.013 1.0883716e-38
0.0048238095 -0.095511429 1.013 1.3738919e-38
0.0067533334 -0.095511429 1.013 1.4753071e-38
0.0086828573 -0.095511429 1.013 1.2549405e-38
0.010612381 -0.095511429 1.013 9.7835366e-39
0.02999619 -0.095794283 1.016 1.3190439e-38
0.031931426 -0.095794283 1.016 1.3371616e-38
0.033866666 -0.095794283 1.016 7.3789e-39
0.036119051 -0.096642859 1.0250001 5.2659087e-39
0.038182855 -0.096925713 1.028 3.5141917e-39
0.044185713 -0.097208567 1.031 1.475455e-38
-0.032402854 -0.095244765 1.031 5.3588624e-39
-0.030350477 -0.094967619 1.028 8.8547209e-39
-0.02839238 -0.094967619 1.028 1.1251807e-38
-0.026357146 -0.094690487 1.0250001 1.0239788e-38
-0.024404764 -0.094690487 1.0250001 5.7222023e-39
-0.022452382 -0.094690487 1.0250001 2.144976e-39
-0.020440001 -0.09441334 1.0220001 2.3293672e-39
-0.018493334 -0.09441334 1.0220001 3.7983764e-39
-0.016498096 -0.094136193 1.0190001 5.5500934e-39
-0.014557144 -0.094136193 1.0190001 1.0239801e-38
-0.01064381 -0.093859047 1.016 1.3741442e-38
-0.004838095 -0.093859047 1.016 1.0883047e-38
-0.0028942856 -0.093581907 1.013 8.5796012e-39
-0.00096476189 -0.093581907 1.013 7.8420361e-39
0.00096761907 -0.093859047 1.016 8.1171937e-39
0.0028942856 -0.093581907 1.013 8.1171937e-39
0.0048238095 -0.093581907 1.013 9.7791393e-39
0.0067533334 -0.093581907 1.013 1.2545008e-38
0.0086828573 -0.093581907 1.013 1.318903e-38
0.010612381 -0.093581907 1.013 1.401879e-38
0.012541905 -0.093581907 1.013 1.3467396e-38
0.014471428 -0.093581907 1.013 1.3467396e-38
0.016449524 -0.093859047 1.016 1.2086613e-38
0.024119047 -0.093581907 1.013 7.760283e-39
0.026048571 -0.093581907 1.013 7.1149136e-39
0.028060952 -0.093859047 1.016 9.4133051e-39
0.02999619 -0.093859047 1.016 1.1810391e-38
0.031931426 -0.093859047 1.016 1.1990454e-38
0.033966668 -0.094136193 1.0190001 5.8133469e-39
0.044185713 -0.095244765 1.031 1.5215163e-38
-0.032402854 -0.093280949 1.031 5.2670045e-39
-0.030350477 -0.093009517 1.028 7.3824873e-39
-0.022452382 -0.092738099 1.0250001 3.0647673e-39
-0.020500001 -0.092738099 1.0250001 3.8023323e-39
-0.018547621 -0.092738099 1.0250001 2.9736506e-39
-0.016546667 -0.092466667 1.0220001 1.9594987e-39
-0.014557144 -0.092195243 1.0190001 6.6492033e-39
-0.012616191 -0.092195243 1.0190001 1.2273137e-38
-0.010675238 -0.092195243 1.0190001 1.4201727e-38
-0.0087085711 -0.091923811 1.016 1.4109531e-38
-0.0029028573 -0.091923811 1.016 8.3915876e-39
-0.00096761907 -0.091923811 1.016 9.2213482e-39
0.0029028573 -0.091923811 1.016 8.3008465e-39
0.004838095 -0.091923811 1.016 7.9338212e-39
0.0067733335 -0.091923811 1.016 9.1323644e-39
0.0087085711 -0.091923811 1.016 1.2815533e-38
0.01064381 -0.091923811 1.016 1.5765793e-38
0.012579048 -0.091923811 1.016 1.4939302e-38
0.014514286 -0.091923811 1.016 1.3187585e-38
0.02032 -0.091923811 1.016 8.0372202e-39
0.022255238 -0.091923811 1.016 8.1294158e-39
0.031931426 -0.091923811 1.016 1.0795884e-38
0.03622476 -0.093009517 1.028 1.0386186e-39
-0.032497145 -0.091582857 1.034 5.2673828e-39
-0.030439047 -0.091317147 1.031 7.5665255e-39
-0.02839238 -0.091051422 1.028 1.0055807e-38
-0.020559998 -0.091051422 1.028 3.2513291e-39
-0.018547621 -0.090785727 1.0250001 3.801619e-39
-0.016595239 -0.090785727 1.0250001 2.7874671e-39
-0.0146 -0.090520002 1.0220001 3.9838369e-39
-0.012653334 -0.090520002 1.0220001 7.948249e-39
-0.0087085711 -0.089988574 1.016 1.1990827e-38
0.0029028573 -0.089988574 1.016 8.8540175e-39
0.004838095 -0.089988574 1.016 8.3944813e-39
0.0067733335 -0.089988574 1.016 7.3803293e-39
0.012579048 -0.089988574 1.016 1.3835105e-38
0.022255238 -0.089988574 1.016 8.3138071e-39
0.024261907 -0.090254292 1.0190001 7.8517598e-39
0.026202857 -0.090254292 1.0190001 7.5751729e-39
0.030173335 -0.090520002 1.0220001 1.1902612e-38
0.032214291 -0.090785727 1.0250001 1.1440161e-38
0.034166671 -0.090785727 1.0250001 5.2630542e-39
-0.034466669 -0.089613333 1.034 3.4252429e-39
-0.032497145 -0.089613333 1.034 4.900373e-39
-0.030439047 -0.08935333 1.031 7.3832034e-39
-0.028475238 -0.08935333 1.031 9.964681e-39
-0.026434286 -0.089093328 1.028 8.3076806e-39
-0.020559998 -0.089093328 1.028 3.158765e-39
-0.018547621 -0.08883334 1.0250001 4.353711e-39
-0.016595239 -0.08883334 1.0250001 3.4317547e-39
-0.012653334 -0.088573337 1.0220001 6.0211455e-39
-0.0087085711 -0.088053331 1.016 1.0797338e-38
0.0029028573 -0.088053331 1.016 8.9462131e-39
0.004838095 -0.088053331 1.016 8.7618218e-39
0.0067733335 -0.088053331 1.016 7.7476699e-39
0.0087085711 -0.088053331 1.016 6.7392381e-39
0.01064381 -0.088053331 1.016 1.3469519e-38
0.012616191 -0.088313334 1.0190001 1.3193348e-38
0.014514286 -0.088053331 1.016 1.0058697e-38
0.016449524 -0.088053331 1.016 7.6695167e-39
0.018384762 -0.088053331 1.016 8.1304948e-39
0.02032 -0.088053331 1.016 8.6808016e-39
0.022255238 -0.088053331 1.016 8.4042147e-39
0.024261907 -0.088313334 1.0190001 7.6684475e-39
0.026202857 -0.088313334 1.0190001 7.5762519e-39
0.028226668 -0.088573337 1.0220001 9.5055134e-39
0.030173335 -0.088573337 1.0220001 1.1810404e-38
0.032214291 -0.08883334 1.0250001 1.190114e-38
0.034166671 -0.08883334 1.0250001 7.7523362e-39
0.036330476 -0.08935333 1.031 4.6231177e-39
-0.03052762 -0.08764381 1.034 9.0405541e-39
-0.028558096 -0.08764381 1.034 1.1253249e-38
-0.018547621 -0.08688096 1.0250001 2.0542405e-39
-0.016595239 -0.08688096 1.0250001 1.7776536e-39
-0.0146 -0.086626671 1.0220001 1.9627385e-39
-0.012653334 -0.086626671 1.0220001 7.310085e-39
-0.0087085711 -0.086118095 1.016 1.2822007e-38
-0.0067733335 -0.086118095 1.016 1.0884129e-38
-0.00096761907 -0.086118095 1.016 8.0278567e-39
0.00096761907 -0.086118095 1.016 8.5788725e-39
0.0029028573 -0.086118095 1.016 8.3944813e-39
0.0048523811 -0.086372383 1.0190001 8.1182503e-39
0.0067933337 -0.086372383 1.0190001 8.0260547e-39
0.0087342858 -0.086372383 1.0190001 8.0278918e-39
0.010675238 -0.086372383 1.0190001 1.4020608e-38
0.014557144 -0.086372383 1.0190001 1.2359975e-38
0.016498096 -0.086372383 1.0190001 8.4052993e-39
0.018439047 -0.086372383 1.0190001 7.9443211e-39
0.020380002 -0.086372383 1.0190001 7.7606585e-39
0.022320952 -0.086372383 1.0190001 7.6684629e-39
0.024261907 -0.086372383 1.0190001 8.5871696e-39
0.026280001 -0.086626671 1.0220001 1.00623e-38
0.028226668 -0.086626671 1.0220001 1.1531256e-38
0.030173335 -0.086626671 1.0220001 1.143906e-38
0.032214291 -0.08688096 1.0250001 1.1805697e-38
0.034266666 -0.087135233 1.028 1.2082284e-38
0.036330476 -0.087389529 1.031 9.7806555e-39
-0.03052762 -0.085674286 1.034 1.0052558e-38
-0.028558096 -0.085674286 1.034 1.0052558e-38
-0.018547621 -0.08492858 1.0250001 1.0421961e-39
-0.016595239 -0.08492858 1.0250001 1.5953699e-39
-0.0146 -0.084680006 1.0220001 4.3533579e-39
-0.012653334 -0.084680006 1.0220001 9.8850957e-39
-0.010675238 -0.084431432 1.0190001 1.3189723e-38
-0.0087342858 -0.084431432 1.0190001 1.3374114e-38
-0.0067933337 -0.084431432 1.0190001 1.1899017e-38
-0.004838095 -0.084182858 1.016 8.4877783e-39
-0.0029028573 -0.084182858 1.016 6.646367e-39
-0.00096761907 -0.084182858 1.016 7.2917364e-39
0.00097047625 -0.084431432 1.0190001 8.3933924e-39
0.0029114287 -0.084431432 1.0190001 8.3933924e-39
0.0048523811 -0.084431432 1.0190001 7.3842572e-39
0.0067933337 -0.084431432 1.0190001 8.7671916e-39
0.024261907 -0.084431432 1.0190001 8.5868039e-39
0.026280001 -0.084680006 1.0220001 1.0707303e-38
0.028226668 -0.084680006 1.0220001 1.2360316e-38
0.030261908 -0.08492858 1.0250001 9.778838e-39
0.032214291 -0.08492858 1.0250001 1.0420203e-38
0.034266666 -0.085177138 1.028 1.2171919e-38
0.036330476 -0.085425712 1.031 1.2079795e-38
-0.026588572 -0.08370477 1.034 6.7346222e-39
-0.024547618 -0.083461903 1.031 1.2174164e-38
-0.022518095 -0.083219044 1.028 1.0056902e-38
-0.020559998 -0.083219044 1.028 5.3549248e-39
-0.018547621 -0.0829762 1.0250001 2.7888936e-39
-0.016595239 -0.0829762 1.0250001 7.2142839e-39
-0.0146 -0.082733333 1.0220001 1.1716398e-38
-0.012653334 -0.082733333 1.0220001 1.3099332e-38
-0.010675238 -0.082490481 1.0190001 1.2821644e-38
-0.0087342858 -0.082490481 1.0190001 1.3006035e-38
-0.0048523811 -0.082490481 1.0190001 1.2451104e-38
-0.0029114287 -0.082490481 1.0190001 1.0056176e-38
-0.00097047625 -0.082490481 1.0190001 7.3825027e-39
0.00097047625 -0.082490481 1.0190001 6.6460139e-39
0.0029114287 -0.082490481 1.0190001 7.7523615e-39
0.0048523811 -0.082490481 1.0190001 1.0147593e-38
0.0067933337 -0.082490481 1.0190001 1.4296396e-38
0.0087342858 -0.082490481 1.0190001 1.4477948e-38
0.010675238 -0.082490481 1.0190001 1.1251101e-38
0.022320952 -0.082490481 1.0190001 9.4151226e-39
0.024333334 -0.082733333 1.0220001 1.0610789e-38
0.026280001 -0.082733333 1.0220001 1.1624941e-38
0.028226668 -0.082733333 1.0220001 1.0976662e-38
0.030261908 -0.0829762 1.0250001 6.2746852e-39
0.032308571 -0.083219044 1.028 5.999906e-39
0.034266666 -0.083219044 1.028 9.9643181e-39
0.036330476 -0.083461903 1.031 1.0791215e-38
0.038554288 -0.084028579 1.0380001 8.5785194e-39
0.040531434 -0.084028579 1.0380001 6.1889734e-39
-0.024547618 -0.081498094 1.031 1.2080467e-38
-0.018601904 -0.081260949 1.028 7.1098465e-39
-0.016595239 -0.081023812 1.0250001 1.125865e-38
-0.014642859 -0.081023812 1.0250001 1.2913146e-38
-0.012653334 -0.080786668 1.0220001 1.1898994e-38
-0.010706667 -0.080786668 1.0220001 1.1071379e-38
-0.0087342858 -0.080549523 1.0190001 1.1440161e-38
-0.0067933337 -0.080549523 1.0190001 1.3281203e-38
-0.0048523811 -0.080549523 1.0190001 1.355779e-38
-0.00097047625 -0.080549523 1.0190001 8.2111746e-39
0.00097047625 -0.080549523 1.0190001 6.554156e-39
0.0029114287 -0.080549523 1.0190001 8.3980686e-39
0.0048666671 -0.080786668 1.0220001 1.272335e-38
0.0087342858 -0.080549523 1.0190001 1.3651806e-38
0.010675238 -0.080549523 1.0190001 8.1200678e-39
0.012616191 -0.080549523 1.0190001 8.1225257e-39
0.018439047 -0.080549523 1.0190001 1.4475067e-38
0.020380002 -0.080549523 1.0190001 1.245326e-38
0.022320952 -0.080549523 1.0190001 1.1900086e-38
0.024333334 -0.080786668 1.0220001 1.2268859e-38
0.026280001 -0.080786668 1.0220001 1.0424946e-38
0.028226668 -0.080786668 1.0220001 9.4071786e-39
0.030261908 -0.081023812 1.0250001 6.9178966e-39
0.032308571 -0.081260949 1.028 5.3559561e-39
0.034366667 -0.081498094 1.031 8.7671944e-39
0.036330476 -0.081498094 1.031 1.005581e-38
0.038554288 -0.082051434 1.0380001 7.6587239e-39
-0.032717142 -0.08030571 1.041 3.0486117e-39
-0.024619048 -0.079765722 1.034 8.3015822e-39
-0.018601904 -0.079302855 1.028 1.2360679e-38
-0.016595239 -0.07907144 1.0250001 1.2729461e-38
-0.014642859 -0.07907144 1.0250001 1.1348334e-38
-0.012690477 -0.07907144 1.0250001 9.8732043e-39
-0.010706667 -0.078840002 1.0220001 8.6800659e-39
-0.0087600006 -0.078840002 1.0220001 8.403479e-39
-0.0068133334 -0.078840002 1.0220001 1.0704382e-38
-0.0048666671 -0.078840002 1.0220001 1.264049e-38
-0.0029114287 -0.078608572 1.0190001 1.3372695e-38
-0.00097047625 -0.078608572 1.0190001 1.2819521e-38
0.00097047625 -0.078608572 1.0190001 1.3004606e-38
0.0029114287 -0.078608572 1.0190001 1.4295345e-38
0.0067933337 -0.078608572 1.0190001 1.1712795e-38
0.0087342858 -0.078608572 1.0190001 7.7574089e-39
0.010675238 -0.078608572 1.0190001 4.7149531e-39
0.012653334 -0.078840002 1.0220001 3.893086e-39
0.016498096 -0.078608572 1.0190001 9.6888004e-39
0.018493334 -0.078840002 1.0220001 1.3007843e-38
0.020440001 -0.078840002 1.0220001 1.3557439e-38
0.022386668 -0.078840002 1.0220001 1.3188657e-38
0.024333334 -0.078840002 1.0220001 1.2083373e-38
0.026357146 -0.07907144 1.0250001 7.3813957e-39
0.028309526 -0.07907144 1.0250001 7.0101077e-39
0.030350477 -0.079302855 1.028 7.4710858e-39
0.032402854 -0.079534285 1.031 6.8268178e-39
0.034366667 -0.079534285 1.031 8.025361e-39
0.036436193 -0.079765722 1.034 8.6732261e-39
0.038554288 -0.080074295 1.0380001 6.8293135e-39
-0.032717142 -0.078322858 1.041 3.4155669e-39
-0.024619048 -0.077796191 1.034 5.7236919e-39
-0.022518095 -0.07734476 1.028 8.3937428e-39
-0.018601904 -0.07734476 1.028 1.3373048e-38
-0.016595239 -0.077119052 1.0250001 1.2543287e-38
-0.010738096 -0.077119052 1.0250001 7.9443057e-39
-0.0087600006 -0.076893337 1.0220001 7.8521101e-39
-0.0068133334 -0.076893337 1.0220001 8.771886e-39
-0.0048666671 -0.076893337 1.0220001 1.015482e-38
-0.0029200001 -0.076893337 1.0220001 1.3004253e-38
-0.00097333337 -0.076893337 1.0220001 1.3557427e-38
0.00097333337 -0.076893337 1.0220001 1.4107746e-38
0.0029200001 -0.076893337 1.0220001 1.4568724e-38
0.0067933337 -0.076667622 1.0190001 8.4888377e-39
0.0087342858 -0.076667622 1.0190001 4.9061659e-39
0.010675238 -0.076667622 1.0190001 4.1686009e-39
0.012653334 -0.076893337 1.0220001 2.884692e-39
0.014557144 -0.076667622 1.0190001 1.9627357e-39
0.016498096 -0.076667622 1.0190001 4.9968846e-39
0.018493334 -0.076893337 1.0220001 1.0436427e-38
0.022386668 -0.076893337 1.0220001 1.2729133e-38
0.024404764 -0.077119052 1.0250001 1.0333464e-38
0.026357146 -0.077119052 1.0250001 6.5534427e-39
0.02839238 -0.07734476 1.028 7.286326e-39
0.030350477 -0.07734476 1.028 7.6551085e-39
0.032497145 -0.077796191 1.034 7.1937773e-39
0.034466669 -0.077796191 1.034 9.1298855e-39
0.036577147 -0.07809715 1.0380001 8.5820997e-39
0.038665712 -0.078322858 1.041 6.5537958e-39
-0.032717142 -0.076339997 1.041 2.7713157e-39
-0.024619048 -0.075826667 1.034 5.7204577e-39
-0.022583811 -0.075606667 1.031 4.9872086e-39
-0.020559998 -0.075386666 1.028 1.0518946e-38
-0.018601904 -0.075386666 1.028 1.2084092e-38
-0.016595239 -0.075166672 1.0250001 1.0240179e-38
-0.014642859 -0.075166672 1.0250001 8.4027783e-39
-0.0087857144 -0.075166672 1.0250001 8.2205395e-39
-0.006833334 -0.075166672 1.0250001 8.5878829e-39
-0.0048809526 -0.075166672 1.0250001 8.5878829e-39
-0.0029200001 -0.074946672 1.0220001 1.0518924e-38
-0.00097333337 -0.074946672 1.0220001 1.3469184e-38
0.00097333337 -0.074946672 1.0220001 1.4386128e-38
0.0029200001 -0.074946672 1.0220001 1.2357824e-38
0.0048666671 -0.074946672 1.0220001 8.1265292e-39
0.0068133334 -0.074946672 1.0220001 5.176269e-39
0.0087600006 -0.074946672 1.0220001 2.8847172e-39
0.010706667 -0.074946672 1.0220001 3.6222823e-39
0.0146 -0.074946672 1.0220001 3.7112185e-39
0.016546667 -0.074946672 1.0220001 3.9856418e-39
0.022386668 -0.074946672 1.0220001 1.0793019e-38
0.024404764 -0.075166672 1.0250001 1.0238356e-38
0.026357146 -0.075166672 1.0250001 7.2880959e-39
0.02839238 -0.075386666 1.028 7.5632786e-39
0.030350477 -0.075386666 1.028 7.471083e-39
0.032497145 -0.075826667 1.034 6.5523567e-39
0.034466669 -0.075826667 1.034 9.4104212e-39
0.036577147 -0.076120012 1.0380001 1.0331996e-38
-0.032717142 -0.074357137 1.041 3.8794317e-39
-0.030734286 -0.074357137 1.041 5.167637e-39
-0.026691431 -0.074142866 1.0380001 6.1796407e-39
-0.024714287 -0.074142866 1.0380001 6.2718364e-39
-0.022649525 -0.073857144 1.034 4.8957038e-39
-0.020559998 -0.073428571 1.028 1.0796224e-38
-0.018601904 -0.073428571 1.028 1.1716057e-38
-0.016643809 -0.073428571 1.028 9.595558e-39
-0.014685715 -0.073428571 1.028 7.4829772e-39
-0.012690477 -0.073214293 1.0250001 8.036151e-39
-0.0029285718 -0.073214293 1.0250001 8.5882206e-39
-0.00097619055 -0.073214293 1.0250001 1.1999459e-38
0.00097619055 -0.073214293 1.0250001 1.3744021e-38
0.0029200001 -0.073000006 1.0220001 1.0885956e-38
0.0048666671 -0.073000006 1.0220001 4.8164688e-39
0.0068133334 -0.073000006 1.0220001 3.52573e-39
0.0087600006 -0.073000006 1.0220001 3.8967055e-39
0.010706667 -0.073000006 1.0220001 4.2654881e-39
0.012653334 -0.073000006 1.0220001 4.7246515e-39
0.020440001 -0.073000006 1.0220001 1.0151616e-38
0.022386668 -0.073000006 1.0220001 1.0428203e-38
0.024404764 -0.073214293 1.0250001 8.948011e-39
0.026357146 -0.073214293 1.0250001 7.1040984e-39
0.02839238 -0.073428571 1.028 7.3806796e-39
0.030439047 -0.073642857 1.031 7.0118971e-39
0.032497145 -0.073857144 1.034 6.0009948e-39
0.034600001 -0.074142866 1.0380001 9.3200375e-39
0.036577147 -0.074142866 1.0380001 1.0148684e-38
0.038665712 -0.074357137 1.041 8.3969672e-39
-0.032811429 -0.072582863 1.044 7.286717e-39
-0.026768571 -0.072374292 1.041 5.9952747e-39
-0.024714287 -0.07216572 1.0380001 5.8108835e-39
-0.022649525 -0.07188762 1.034 5.9077104e-39
-0.020620001 -0.071679048 1.031 1.1531644e-38
-0.018601904 -0.071470477 1.028 1.2451805e-38
-0.016643809 -0.071470477 1.028 1.0976675e-38
-0.012727619 -0.071470477 1.028 8.3095107e-39
-0.010738096 -0.071261905 1.0250001 7.9439554e-39
0.0029285718 -0.071261905 1.0250001 1.015087e-38
0.0048809526 -0.071261905 1.0250001 4.7246515e-39
0.0068133334 -0.071053334 1.0220001 2.9729346e-39
0.0087600006 -0.071053334 1.0220001 2.6099464e-39
0.010706667 -0.071053334 1.0220001 2.9787289e-39
0.012690477 -0.071261905 1.0250001 3.7123017e-39
0.0146 -0.071053334 1.0220001 2.7903454e-39
0.016546667 -0.071053334 1.0220001 3.5268272e-39
0.018493334 -0.071053334 1.0220001 8.2288043e-39
0.020500001 -0.071261905 1.0250001 1.2728392e-38
0.022452382 -0.071261905 1.0250001 1.2820588e-38
0.024404764 -0.071261905 1.0250001 1.0330965e-38
0.026357146 -0.071261905 1.0250001 6.3665529e-39
0.02839238 -0.071470477 1.028 6.0013507e-39
0.030439047 -0.071679048 1.031 6.8311114e-39
0.032497145 -0.07188762 1.034 7.9338815e-39
0.034600001 -0.07216572 1.0380001 1.0146577e-38
0.036577147 -0.07216572 1.0380001 9.8713616e-39
0.038665712 -0.072374292 1.041 8.3040358e-39
-0.034899998 -0.070797145 1.0470001 1.1895051e-38
-0.032811429 -0.070594288 1.044 7.654052e-39
-0.030734286 -0.070391431 1.041 8.7618092e-39
-0.024714287 -0.070188574 1.0380001 6.916117e-39
-0.022649525 -0.069918096 1.034 8.4827294e-39
-0.020620001 -0.069715239 1.031 1.2631533e-38
-0.01865619 -0.069715239 1.031 1.3095354e-38
-0.016643809 -0.069512382 1.028 1.2173398e-38
-0.010769524 -0.069512382 1.028 7.6684503e-39
-0.0087857144 -0.069309533 1.0250001 7.7606459e-39
-0.006833334 -0.069309533 1.0250001 7.7606305e-39
-0.0048809526 -0.069309533 1.0250001 7.8528261e-39
-0.0029285718 -0.069309533 1.0250001 8.2205395e-39
0.00097619055 -0.069309533 1.0250001 1.2824904e-38
0.0029285718 -0.069309533 1.0250001 1.1718556e-38
0.0048809526 -0.069309533 1.0250001 6.0139834e-39
0.006833334 -0.069309533 1.0250001 3.1559189e-39
0.0087857144 -0.069309533 1.0250001 1.5968497e-39
0.010738096 -0.069309533 1.0250001 1.9656322e-39
0.012690477 -0.069309533 1.0250001 2.0570865e-39
0.020500001 -0.069309533 1.0250001 1.291243e-38
0.022452382 -0.069309533 1.0250001 1.2635843e-38
0.024476191 -0.069512382 1.028 1.1530584e-38
0.026434286 -0.069512382 1.028 7.9349548e-39
0.02839238 -0.069512382 1.028 6.0016983e-39
0.03052762 -0.069918096 1.034 7.1080458e-39
0.032497145 -0.069918096 1.034 1.0143305e-38
0.036577147 -0.070188574 1.0380001 7.7490404e-39
0.038777143 -0.070594288 1.044 6.7348884e-39
0.040765714 -0.070594288 1.044 9.6834152e-39
0.042877145 -0.070797145 1.0470001 1.7427848e-38
0.045000002 -0.071000002 1.0500001 1.7793406e-38
-0.026845716 -0.068605714 1.044 8.4855699e-39
-0.024785714 -0.068408571 1.041 1.0513874e-38
-0.022737145 -0.068211436 1.0380001 1.1986861e-38
-0.020680001 -0.067948572 1.034 1.2171252e-38
-0.01865619 -0.06775143 1.031 1.1530161e-38
-0.016692381 -0.06775143 1.031 1.2267726e-38
-0.014685715 -0.067554288 1.028 1.0794464e-38
-0.0088114282 -0.067554288 1.028 8.1265544e-39
-0.0068533332 -0.067554288 1.028 8.403479e-39
-0.0048952377 -0.067554288 1.028 1.0339587e-38
-0.002937143 -0.067554288 1.028 1.245396e-38
-0.00097619055 -0.067357145 1.0250001 1.3191525e-38
0.00097619055 -0.067357145 1.0250001 1.3375904e-38
0.0029285718 -0.067357145 1.0250001 1.4113469e-38
0.0048809526 -0.067357145 1.0250001 1.2270679e-38
0.006833334 -0.067357145 1.0250001 9.1360274e-39
0.0087857144 -0.067357145 1.0250001 1.9638637e-39
0.010738096 -0.067357145 1.0250001 1.3184943e-39
0.012690477 -0.067357145 1.0250001 2.8825466e-39
0.014685715 -0.067554288 1.028 6.8469587e-39
0.016643809 -0.067554288 1.028 1.1901496e-38
0.022452382 -0.067357145 1.0250001 1.1071019e-38
0.024476191 -0.067554288 1.028 1.1715685e-38
0.026434286 -0.067554288 1.028 1.1900076e-38
0.028475238 -0.06775143 1.031 1.1068492e-38
0.03052762 -0.067948572 1.034 1.1068492e-38
0.032497145 -0.067948572 1.034 1.0609655e-38
0.034600001 -0.068211436 1.0380001 5.8154825e-39
0.036577147 -0.068211436 1.0380001 3.9791229e-39
0.038777143 -0.068605714 1.044 4.1635142e-39
0.040765714 -0.068605714 1.044 9.0394975e-39
0.042877145 -0.068802863 1.0470001 1.74293e-38
0.045000002 -0.069000006 1.0500001 1.806999e-38
-0.026845716 -0.066617146 1.044 8.3962693e-39
-0.024785714 -0.066425718 1.041 1.1069943e-38
-0.022737145 -0.066234291 1.0380001 1.199083e-38
-0.020680001 -0.065979049 1.034 9.3171564e-39
-0.018710475 -0.065979049 1.034 8.3047449e-39
-0.016692381 -0.065787621 1.031 1.0056462e-38
-0.014728571 -0.065787621 1.031 1.2174845e-38
-0.012727619 -0.065596186 1.028 1.1621672e-38
-0.00097904762 -0.065596186 1.028 1.2360698e-38
0.00097904762 -0.065596186 1.028 1.1992234e-38
0.0029285718 -0.065404765 1.0250001 1.3651755e-38
0.0048809526 -0.065404765 1.0250001 1.4020573e-38
0.006833334 -0.065404765 1.0250001 1.1992269e-38
0.0087857144 -0.065404765 1.0250001 7.1170814e-39
0.010738096 -0.065404765 1.0250001 2.9682781e-39
0.012727619 -0.065596186 1.028 4.3519033e-39
0.014685715 -0.065596186 1.028 9.7914455e-39
0.022518095 -0.065596186 1.028 9.41511e-39
0.024476191 -0.065596186 1.028 1.1163227e-38
0.026511429 -0.065787621 1.031 1.2085183e-38
0.028475238 -0.065787621 1.031 1.226489e-38
0.03052762 -0.065979049 1.034 1.1527325e-38
0.032622863 -0.066234291 1.0380001 1.0333817e-38
0.034600001 -0.066234291 1.0380001 4.1567095e-39
0.036682859 -0.066425718 1.041 1.6788845e-39
0.038777143 -0.066617146 1.044 3.7071883e-39
0.040765714 -0.066617146 1.044 8.9462159e-39
0.042877145 -0.066808574 1.0470001 1.7243823e-38
0.045000002 -0.067000002 1.0500001 1.7978151e-38
0.047000002 -0.067000002 1.0500001 1.7332781e-38
-0.026922857 -0.064814284 1.0470001 8.8565384e-39
-0.024785714 -0.064442858 1.041 1.1161429e-38
-0.022737145 -0.064257152 1.0380001 1.0239826e-38
-0.020680001 -0.064009525 1.034 5.3534576e-39
-0.018710475 -0.064009525 1.034 2.0506153e-39
-0.016692381 -0.063823812 1.031 3.5257454e-39
-0.014728571 -0.063823812 1.031 8.5831759e-39
-0.012727619 -0.063638091 1.028 1.2547588e-38
0.00097904762 -0.063638091 1.028 7.9377687e-39
0.002937143 -0.063638091 1.028 8.9519206e-39
0.0048952377 -0.063638091 1.028 1.180641e-38
0.0068533332 -0.063638091 1.028 1.4572279e-38
0.0088114282 -0.063638091 1.028 1.3466695e-38
0.010769524 -0.063638091 1.028 1.0977413e-38
0.014685715 -0.063638091 1.028 1.3745758e-38
0.016643809 -0.063638091 1.028 1.2269572e-38
0.022518095 -0.063638091 1.028 7.8510409e-39
0.024476191 -0.063638091 1.028 8.7704664e-39
0.026511429 -0.063823812 1.031 1.0153401e-38
0.028475238 -0.063823812 1.031 1.1530555e-38
0.03052762 -0.064009525 1.034 1.0700794e-38
0.034600001 -0.064257152 1.0380001 3.4219933e-39
0.036682859 -0.064442858 1.041 1.1279402e-39
0.038777143 -0.064628571 1.044 3.156244e-39
0.040882859 -0.064814284 1.0470001 9.7777716e-39
0.042877145 -0.064814284 1.0470001 1.6692444e-38
0.045171428 -0.065247618 1.054 1.7793391e-38
0.047179051 -0.065247618 1.054 1.7332413e-38
-0.024857143 -0.062640004 1.044 9.5029868e-39
-0.022802858 -0.062459998 1.041 8.3980742e-39
-0.020760002 -0.062280003 1.0380001 4.6180534e-39
-0.018710475 -0.062040005 1.034 1.3173635e-39
-0.016740954 -0.062040005 1.034 1.2251679e-39
-0.014728571 -0.061860003 1.031 6.6481243e-39
-0.012727619 -0.06168 1.028 1.0428145e-38
-0.010769524 -0.06168 1.028 1.364637e-38
0.00097904762 -0.06168 1.028 7.1969974e-39
0.002937143 -0.06168 1.028 7.3813887e-39
0.0048952377 -0.06168 1.028 1.0235472e-38
0.0068533332 -0.06168 1.028 1.3001341e-38
0.0088114282 -0.06168 1.028 1.4845647e-38
0.010769524 -0.06168 1.028 1.4661256e-38
0.012727619 -0.06168 1.028 1.300572e-38
0.014728571 -0.061860003 1.031 1.2821329e-38
0.020559998 -0.06168 1.028 8.3116491e-39
0.022518095 -0.06168 1.028 8.3116491e-39
0.024547618 -0.061860003 1.031 7.8510213e-39
0.026511429 -0.061860003 1.031 9.0495645e-39
0.028558096 -0.062040005 1.034 1.0521458e-38
0.03052762 -0.062040005 1.034 9.41511e-39
0.034600001 -0.062280003 1.0380001 2.4114693e-39
0.036682859 -0.062459998 1.041 8.5099034e-40
0.038777143 -0.062640004 1.044 3.8012505e-39
-0.024928572 -0.060825717 1.0470001 8.5824528e-39
-0.022868572 -0.060651429 1.044 7.5697274e-39
-0.020819999 -0.060477141 1.041 4.5272716e-39
-0.01878286 -0.060302865 1.0380001 2.0531461e-39
-0.016740954 -0.060070477 1.034 2.2375373e-39
-0.014728571 -0.059896193 1.031 3.0626163e-39
-0.012764761 -0.059896193 1.031 4.7221376e-39
-0.010800953 -0.059896193 1.031 1.1620538e-38
-0.0088114282 -0.059721906 1.028 1.5031776e-38
-0.0068533332 -0.059721906 1.028 1.4014818e-38
-0.0048952377 -0.059721906 1.028 8.7596666e-39
-0.002937143 -0.059721906 1.028 7.4728809e-39
0.00097904762 -0.059721906 1.028 8.2097369e-39
0.002937143 -0.059721906 1.028 7.93315e-39
0.0048952377 -0.059721906 1.028 8.3011912e-39
0.0068533332 -0.059721906 1.028 9.0387562e-39
0.0088114282 -0.059721906 1.028 1.143511e-38
0.010769524 -0.059721906 1.028 1.5491717e-38
0.012727619 -0.059721906 1.028 1.4110966e-38
0.014728571 -0.059896193 1.031 1.0791924e-38
0.01865619 -0.059896193 1.031 8.3109428e-39
0.020620001 -0.059896193 1.031 8.5885891e-39
0.022583811 -0.059896193 1.031 8.4041979e-39
0.024547618 -0.059896193 1.031 8.126539e-39
0.026588572 -0.060070477 1.034 8.5875171e-39
0.028558096 -0.060070477 1.034 1.0335622e-38
0.030645715 -0.060302865 1.0380001 8.7682958e-39
0.036682859 -0.060477141 1.041 1.0364914e-39
0.038777143 -0.060651429 1.044 6.0150554e-39
-0.024928572 -0.058831431 1.0470001 8.3991406e-39
-0.022868572 -0.058662858 1.044 5.6376129e-39
-0.020819999 -0.058494285 1.041 3.9780916e-39
-0.01878286 -0.058325719 1.0380001 3.6154299e-39
-0.016805716 -0.058325719 1.0380001 3.8920168e-39
-0.014771429 -0.058100954 1.034 1.9613064e-39
-0.012764761 -0.057932384 1.031 1.5925239e-39
-0.010800953 -0.057932384 1.031 7.847043e-39
-0.008837143 -0.057932384 1.031 1.2825607e-38
-0.0068733334 -0.057932384 1.031 1.3185439e-38
-0.0049095238 -0.057932384 1.031 7.8380929e-39
-0.0029457142 -0.057932384 1.031 7.4714361e-39
-0.00097904762 -0.057763807 1.028 8.5777837e-39
0.00097904762 -0.057763807 1.028 8.9454942e-39
0.002937143 -0.057763807 1.028 8.8532986e-39
0.0048952377 -0.057763807 1.028 8.0260491e-39
0.0068533332 -0.057763807 1.028 7.288484e-39
0.0088114282 -0.057763807 1.028 8.7661028e-39
0.010769524 -0.057763807 1.028 1.4390036e-38
0.012727619 -0.057763807 1.028 1.3560333e-38
0.014728571 -0.057932384 1.031 9.5959209e-39
0.01865619 -0.057932384 1.031 7.8535576e-39
0.020620001 -0.057932384 1.031 8.4960404e-39
0.022583811 -0.057932384 1.031 8.3116491e-39
0.024619048 -0.058100954 1.034 8.4031259e-39
0.026588572 -0.058100954 1.034 9.1406909e-39
0.028668575 -0.058325719 1.0380001 9.8771643e-39
0.034600001 -0.058325719 1.0380001 6.6769349e-40
0.036682859 -0.058494285 1.041 1.7718452e-39
-0.024928572 -0.056837145 1.0470001 1.0241959e-38
-0.022934286 -0.056837145 1.0470001 8.5842577e-39
-0.020819999 -0.056511428 1.041 4.4354544e-39
-0.01878286 -0.056348577 1.0380001 2.1435565e-39
-0.016805716 -0.056348577 1.0380001 2.7889259e-39
-0.014771429 -0.05613143 1.034 1.8684017e-39
-0.012801905 -0.05613143 1.034 1.6840104e-39
-0.010832381 -0.05613143 1.034 7.6619511e-39
-0.008837143 -0.055968571 1.031 1.2824906e-38
-0.0068733334 -0.055968571 1.031 1.2909912e-38
-0.0009819048 -0.055968571 1.031 7.752702e-39
0.0009819048 -0.055968571 1.031 8.7618218e-39
0.0029457142 -0.055968571 1.031 8.8540175e-39
0.0049095238 -0.055968571 1.031 8.118623e-39
0.0068733334 -0.055968571 1.031 6.7356886e-39
0.008837143 -0.055968571 1.031 8.2133172e-39
0.010800953 -0.055968571 1.031 1.3837251e-38
0.012764761 -0.055968571 1.031 1.3101483e-38
0.014728571 -0.055968571 1.031 9.0448757e-39
0.016692381 -0.055968571 1.031 6.6575326e-39
0.018710475 -0.05613143 1.034 7.3950976e-39
0.020680001 -0.05613143 1.034 8.0365013e-39
0.022649525 -0.05613143 1.034 7.8521101e-39
0.024619048 -0.05613143 1.034 8.5871668e-39
0.026691431 -0.056348577 1.0380001 1.0154493e-38
0.034600001 -0.056348577 1.0380001 3.5149876e-39
0.036682859 -0.056511428 1.041 3.338843e-39
0.038777143 -0.056674287 1.044 7.3954507e-39
-0.025000002 -0.055000003 1.0500001 1.0698283e-38
-0.022934286 -0.05484286 1.0470001 8.9537759e-39
-0.020879999 -0.054685716 1.044 5.8191245e-39
-0.018837143 -0.054528572 1.041 1.2248456e-39
-0.016854286 -0.054528572 1.041 1.6858237e-39
-0.014828573 -0.054371431 1.0380001 1.132975e-39
-0.012801905 -0.054161906 1.034 1.5939532e-39
-0.010832381 -0.054161906 1.034 7.6619511e-39
-0.0088628577 -0.054161906 1.034 1.2363928e-38
-0.0068733334 -0.054004762 1.031 1.2359259e-38
-0.0049095238 -0.054004762 1.031 7.2884994e-39
-0.0029457142 -0.054004762 1.031 7.3792349e-39
-0.0009819048 -0.054004762 1.031 8.3011912e-39
0.0009819048 -0.054004762 1.031 8.7618218e-39
0.0029457142 -0.054004762 1.031 8.6696262e-39
0.0049095238 -0.054004762 1.031 8.0260547e-39
0.0068733334 -0.054004762 1.031 7.7494678e-39
0.008837143 -0.054004762 1.031 9.5008288e-39
0.010800953 -0.054004762 1.031 1.4018415e-38
0.012764761 -0.054004762 1.031 1.3009648e-38
0.014771429 -0.054161906 1.034 1.0059388e-38
0.016740954 -0.054161906 1.034 7.8532073e-39
0.020680001 -0.054161906 1.034 7.7606207e-39
0.022649525 -0.054161906 1.034 7.5762294e-39
0.024714287 -0.054371431 1.0380001 8.5868067e-39
0.030645715 -0.054371431 1.0380001 1.2176278e-38
0.032717142 -0.054528572 1.041 1.088664e-38
0.034700003 -0.054528572 1.041 7.7519887e-39
0.036682859 -0.054528572 1.041 5.3627987e-39
0.038777143 -0.054685716 1.044 8.3130588e-39
-0.022934286 -0.052848574 1.0470001 8.5814089e-39
-0.020879999 -0.052697144 1.044 9.6877564e-39
-0.018837143 -0.052545715 1.041 4.9036702e-39
-0.016854286 -0.052545715 1.041 2.5065838e-39
-0.014871428 -0.052545715 1.041 2.7881902e-39
-0.01285143 -0.052394293 1.0380001 7.7667542e-39
-0.010874286 -0.052394293 1.0380001 1.2637253e-38
-0.0088628577 -0.052192383 1.034 1.37436e-38
-0.0068933335 -0.052192383 1.034 1.3372673e-38
-0.0049238093 -0.052192383 1.034 1.1344369e-38
-0.0029542858 -0.052192383 1.034 8.6746611e-39
-0.00098476198 -0.052192383 1.034 6.9229441e-39
0.00098476198 -0.052192383 1.034 7.1977457e-39
0.0029542858 -0.052192383 1.034 7.1055501e-39
0.0068733334 -0.052040953 1.031 1.1806423e-38
0.008837143 -0.052040953 1.031 1.3096809e-38
0.010800953 -0.052040953 1.031 1.3465591e-38
0.012764761 -0.052040953 1.031 1.2823449e-38
0.014771429 -0.052192383 1.034 1.2823449e-38
0.020760002 -0.052394293 1.0380001 8.3119994e-39
0.022737145 -0.052394293 1.0380001 9.3261514e-39
0.028668575 -0.052394293 1.0380001 1.0053965e-38
0.030734286 -0.052545715 1.041 1.0514943e-38
0.032717142 -0.052545715 1.041 1.0700441e-38
0.036682859 -0.052545715 1.041 8.583529e-39
0.03888857 -0.052848574 1.0470001 9.5054853e-39
0.040882859 -0.052848574 1.0470001 1.2448928e-38
-0.023000002 -0.051000003 1.0500001 9.0394625e-39
-0.020940002 -0.050854288 1.0470001 1.1252158e-38
-0.018837143 -0.050562855 1.041 8.3102044e-39
-0.014871428 -0.050562855 1.041 4.7196167e-39
-0.01285143 -0.050417144 1.0380001 1.0251354e-38
-0.010874286 -0.050417144 1.0380001 1.2637638e-38
-0.0088971434 -0.050417144 1.0380001 1.2268856e-38
-0.0068933335 -0.050222859 1.034 1.3004616e-38
-0.0049238093 -0.050222859 1.034 1.2728029e-38
0.00098476198 -0.050222859 1.034 6.5530448e-39
0.0068733334 -0.050077144 1.031 1.3006421e-38
0.008837143 -0.050077144 1.031 1.3467765e-38
0.010800953 -0.050077144 1.031 1.1716048e-38
0.012764761 -0.050077144 1.031 1.1624874e-38
0.014771429 -0.050222859 1.034 1.3100004e-38
0.016740954 -0.050222859 1.034 1.309791e-38
0.018710475 -0.050222859 1.034 1.0977411e-38
0.028668575 -0.050417144 1.0380001 8.2983003e-39
0.030734286 -0.050562855 1.041 8.9436697e-39
0.032717142 -0.050562855 1.041 1.1157441e-38
0.034700003 -0.050562855 1.041 1.1157441e-38
0.036788572 -0.050708573 1.044 9.3192668e-39
0.03888857 -0.050854288 1.0470001 1.0241223e-38
0.040882859 -0.050854288 1.0470001 1.2816634e-38
-0.035133332 -0.049186666 1.054 1.5303746e-38
-0.023000002 -0.049000002 1.0500001 5.6286152e-39
-0.020940002 -0.048860002 1.0470001 1.143694e-38
-0.01889143 -0.048720002 1.044 1.1713164e-38
-0.014914286 -0.048720002 1.044 1.1347606e-38
-0.012888571 -0.048579998 1.041 1.2361758e-38
-0.010905715 -0.048579998 1.041 1.0334924e-38
-0.0088971434 -0.048440006 1.0380001 9.0441849e-39
-0.0069200005 -0.048440006 1.0380001 1.0334189e-38
-0.0049428577 -0.048440006 1.0380001 1.3192254e-38
-0.0029542858 -0.048253331 1.034 1.3188313e-38
0.00098476198 -0.048253331 1.034 1.0701115e-38
0.008837143 -0.048113335 1.031 1.0061221e-38
0.010832381 -0.048253331 1.034 5.0826567e-39
0.012801905 -0.048253331 1.034 5.3638945e-39
0.014771429 -0.048253331 1.034 9.973676e-39
0.016805716 -0.048440006 1.0380001 1.3281916e-38
0.01878286 -0.048440006 1.0380001 1.3374112e-38
0.024714287 -0.048440006 1.0380001 1.1713852e-38
0.026691431 -0.048440006 1.0380001 7.0118747e-39
0.028751429 -0.048579998 1.041 5.8151644e-39
0.030734286 -0.048579998 1.041 5.90736e-39
0.032811429 -0.048720002 1.044 7.9338534e-39
0.0348 -0.048720002 1.044 9.8699617e-39
0.036788572 -0.048720002 1.044 9.04304e-39
0.039000005 -0.049000002 1.0500001 1.0886953e-38
0.041156191 -0.049186666 1.054 1.281736e-38
-0.027102858 -0.047179051 1.054 3.9723308e-39
-0.023000002 -0.047000002 1.0500001 6.0884667e-39
-0.020940002 -0.046865717 1.0470001 1.0052879e-38
-0.01889143 -0.046731427 1.044 1.2263804e-38
-0.012925714 -0.046731427 1.044 1.1438006e-38
-0.010905715 -0.046597145 1.041 9.0470505e-39
-0.0089228572 -0.046597145 1.041 8.0328986e-39
-0.0069400002 -0.046597145 1.041 8.3105575e-39
-0.0049428577 -0.04646286 1.0380001 1.0799839e-38
-0.0029657145 -0.04646286 1.0380001 1.3557074e-38
-0.00098476198 -0.046283811 1.034 1.30039e-38
0.0049095238 -0.046149526 1.031 1.3192247e-38
0.0068733334 -0.046149526 1.031 1.1071747e-38
0.008837143 -0.046149526 1.031 7.3922109e-39
0.014828573 -0.04646286 1.0380001 5.1902862e-39
0.022737145 -0.04646286 1.0380001 1.1987981e-38
0.024785714 -0.046597145 1.041 8.8586866e-39
0.026768571 -0.046597145 1.041 6.1850133e-39
0.028751429 -0.046597145 1.041 6.6431272e-39
0.030734286 -0.046597145 1.041 6.458736e-39
0.032811429 -0.046731427 1.044 6.7360263e-39
0.039000005 -0.047000002 1.0500001 1.1255012e-38
0.041156191 -0.047179051 1.054 1.318542e-38
-0.029193334 -0.045300003 1.057 2.8631092e-39
-0.027102858 -0.045171428 1.054 3.6982551e-39
-0.025095237 -0.045171428 1.054 5.0811895e-39
-0.023000002 -0.045000002 1.0500001 5.7204352e-39
-0.020940002 -0.044871431 1.0470001 6.4580003e-39
-0.01889143 -0.044742856 1.044 9.8674183e-39
-0.016902858 -0.044742856 1.044 1.3647439e-38
-0.010937143 -0.044742856 1.044 8.3102198e-39
-0.0089228572 -0.044614285 1.041 8.494611e-39
-0.0049428577 -0.044485722 1.0380001 8.6797184e-39
-0.00098857156 -0.044485722 1.0380001 1.3285131e-38
0.00098476198 -0.044314288 1.034 1.411026e-38
0.0029542858 -0.044314288 1.034 1.3372695e-38
0.0049238093 -0.044314288 1.034 1.0521458e-38
0.0068933335 -0.044314288 1.034 5.8194804e-39
0.010874286 -0.044485722 1.0380001 2.7010322e-39
0.01285143 -0.044485722 1.0380001 3.6190425e-39
0.01878286 -0.044485722 1.0380001 1.1812509e-38
0.020760002 -0.044485722 1.0380001 1.3279418e-38
0.022802858 -0.044614285 1.041 8.5774404e-39
0.026768571 -0.044614285 1.041 6.3690669e-39
0.028751429 -0.044614285 1.041 7.0115468e-39
0.030822858 -0.044742856 1.044 6.6427643e-39
0.032905716 -0.044871431 1.0470001 6.8286199e-39
0.036894288 -0.044871431 1.0470001 8.9497682e-39
0.039148569 -0.045171428 1.054 1.143905e-38
-0.031206667 -0.043286666 1.057 9.7799366e-39
-0.023000002 -0.043000001 1.0500001 5.5367727e-39
-0.020940002 -0.042877145 1.0470001 5.9055552e-39
-0.018945716 -0.042877145 1.0470001 7.7505216e-39
-0.016951431 -0.042877145 1.0470001 1.2544694e-38
-0.014914286 -0.042754289 1.044 1.116359e-38
-0.010937143 -0.042754289 1.044 7.7595543e-39
-0.0089228572 -0.042631429 1.041 8.2205325e-39
-0.0069400002 -0.042631429 1.041 8.0361482e-39
-0.0049428577 -0.042508572 1.0380001 7.9439526e-39
-0.0029657145 -0.042508572 1.0380001 8.3127057e-39
-0.00098857156 -0.042508572 1.0380001 1.1631748e-38
0.00098857156 -0.042508572 1.0380001 1.3192282e-38
0.0029657145 -0.042508572 1.0380001 1.1993739e-38
0.0049238093 -0.042344764 1.034 7.9453721e-39
0.0068933335 -0.042344764 1.034 4.2575469e-39
0.0088971434 -0.042508572 1.0380001 2.334042e-39
0.010874286 -0.042508572 1.0380001 3.4403895e-39
0.01285143 -0.042508572 1.0380001 4.4473514e-39
0.014828573 -0.042508572 1.0380001 2.8800257e-39
0.016805716 -0.042508572 1.0380001 1.7801017e-39
0.018837143 -0.042631429 1.041 8.3259914e-39
0.020819999 -0.042631429 1.041 1.2912465e-38
0.026768571 -0.042631429 1.041 6.4616002e-39
0.028834287 -0.042754289 1.044 6.275767e-39
0.030911429 -0.042877145 1.0470001 7.0133321e-39
0.032905716 -0.042877145 1.0470001 8.5785222e-39
0.035000004 -0.043000001 1.0500001 9.5004785e-39
0.037 -0.043000001 1.0500001 8.8568691e-39
-0.023087619 -0.041156191 1.054 4.7088421e-39
-0.021000002 -0.041000001 1.0500001 5.2620159e-39
-0.018945716 -0.040882859 1.0470001 7.9338534e-39
-0.016951431 -0.040882859 1.0470001 1.2635831e-38
