# .PCD v0.7 - Point Cloud Data file format
VERSION 0.7
FIELDS x y z rgb
SIZE 4 4 4 4
TYPE F F F F
COUNT 1 1 1 1
WIDTH 293
HEIGHT 1
VIEWPOINT 0 0 0 1 0 0 0
POINTS 293
DATA ascii
0.056382857 -0.42201716 1.794 7.4581448e-39
0.063569531 -0.42436957 1.8040001 9.1212661e-39
0.067005716 -0.42436957 1.8040001 9.3056574e-39
0.070441909 -0.42436957 1.8040001 9.6733511e-39
0.073878102 -0.42436957 1.8040001 9.949938e-39
0.056382857 -0.41859999 1.794 1.7606864e-38
0.060133334 -0.42093337 1.8040001 1.7422473e-38
0.063569531 -0.42093337 1.8040001 1.7883804e-38
0.067005716 -0.42093337 1.8040001 1.8252587e-38
0.070441909 -0.42093337 1.8040001 1.825294e-38
0.073878102 -0.42093337 1.8040001 1.8160744e-38
0.077314295 -0.42093337 1.8040001 1.7791959e-38
0.059799999 -0.41518286 1.794 1.7517179e-38
0.063569531 -0.41749719 1.8040001 1.7701571e-38
0.067005716 -0.41749719 1.8040001 1.834694e-38
0.070441909 -0.41749719 1.8040001 1.8532047e-38
0.073878102 -0.41749719 1.8040001 1.8347656e-38
0.077314295 -0.41749719 1.8040001 1.8439126e-38
0.059799999 -0.41176572 1.794 1.68718e-38
0.063569531 -0.41406098 1.8040001 1.7055838e-38
0.067005716 -0.41406098 1.8040001 1.7793403e-38
0.070441909 -0.41406098 1.8040001 1.7793757e-38
0.073878102 -0.41406098 1.8040001 1.751717e-38
0.077314295 -0.41406098 1.8040001 1.7701914e-38
0.063569531 -0.4106248 1.8040001 1.6872519e-38
0.067005716 -0.4106248 1.8040001 1.7149106e-38
0.070441909 -0.4106248 1.8040001 1.6965078e-38
0.073878102 -0.4106248 1.8040001 1.7057273e-38
0.077314295 -0.4106248 1.8040001 1.7333494e-38
0.063217141 -0.40493143 1.794 1.6595567e-38
0.061279051 -0.38258001 1.7390001 1.641297e-38
0.064591438 -0.38258001 1.7390001 1.7611513e-38
0.067903809 -0.38258001 1.7390001 1.7057624e-38
0.071216188 -0.38258001 1.7390001 1.1249299e-38
0.074528575 -0.38258001 1.7390001 1.0052548e-38
0.077840954 -0.38258001 1.7390001 1.0697917e-38
0.081153341 -0.38258001 1.7390001 1.4473988e-38
0.061279051 -0.37926763 1.7390001 1.3744643e-38
0.064591438 -0.37926763 1.7390001 1.5680751e-38
0.067903809 -0.37926763 1.7390001 1.5491681e-38
0.071216188 -0.37926763 1.7390001 1.0328726e-38
0.074528575 -0.37926763 1.7390001 9.2267657e-39
0.077840954 -0.37926763 1.7390001 8.6735919e-39
0.08407715 -0.37752286 1.7310001 1.6505188e-38
0.09726572 -0.37752286 1.7310001 9.513086e-39
0.10155047 -0.38123047 1.748 1.1810767e-38
0.038289525 -0.37790096 1.748 9.965725e-39
0.061279051 -0.37595525 1.7390001 1.1901496e-38
0.064591438 -0.37595525 1.7390001 1.5036147e-38
0.067903809 -0.37595525 1.7390001 1.364819e-38
0.071216188 -0.37595525 1.7390001 1.0144756e-38
0.074528575 -0.37595525 1.7390001 1.0145807e-38
0.077840954 -0.37595525 1.7390001 9.961416e-39
0.080779999 -0.37422574 1.7310001 1.042099e-38
0.08407715 -0.37422574 1.7310001 1.6413706e-38
0.09726572 -0.37422574 1.7310001 1.0708385e-38
0.10102762 -0.37595525 1.7390001 1.1994439e-38
0.031793337 -0.37650001 1.7570001 1.1246785e-38
0.061279051 -0.37264287 1.7390001 1.5956658e-38
0.064591438 -0.37264287 1.7390001 1.7063006e-38
0.070888579 -0.37092859 1.7310001 1.1988653e-38
0.074185714 -0.37092859 1.7310001 1.1528735e-38
0.080779999 -0.37092859 1.7310001 1.447726e-38
0.08407715 -0.37092859 1.7310001 1.6228977e-38
0.028754288 -0.37718859 1.7760001 1.8715421e-38
0.031956192 -0.37506476 1.766 9.9568366e-39
0.048526671 -0.37315333 1.7570001 1.3837623e-38
0.05134191 -0.3693305 1.7390001 1.1809319e-38
0.064591438 -0.3693305 1.7390001 1.6230747e-38
0.070888579 -0.36763144 1.7310001 1.4112768e-38
0.074185714 -0.36763144 1.7310001 1.3094323e-38
0.077482857 -0.36763144 1.7310001 1.5307018e-38
0.080779999 -0.36763144 1.7310001 1.6413696e-38
0.08407715 -0.36763144 1.7310001 1.401661e-38
0.091090478 -0.3693305 1.7390001 1.558751e-38
0.10155047 -0.37124193 1.748 1.2082294e-38
0.031956192 -0.37170097 1.766 9.5876841e-39
0.035320003 -0.37170097 1.766 7.4717122e-39
0.05160762 -0.36791238 1.748 1.576983e-38
0.054937143 -0.36791238 1.748 1.5770863e-38
0.064591438 -0.36601812 1.7390001 1.2363941e-38
0.067903809 -0.36601812 1.7390001 1.3928387e-38
0.070888579 -0.36433432 1.7310001 1.6878647e-38
0.074185714 -0.36433432 1.7310001 1.7704808e-38
0.077482857 -0.36433432 1.7310001 1.5676504e-38
0.080779999 -0.36433432 1.7310001 1.0246701e-38
0.08407715 -0.36433432 1.7310001 5.452528e-39
0.087374285 -0.36433432 1.7310001 6.7471918e-39
0.05160762 -0.36458287 1.748 1.6781737e-38
0.054937143 -0.36458287 1.748 1.6691384e-38
0.067903809 -0.36270571 1.7390001 1.2273172e-38
0.071216188 -0.36270571 1.7390001 1.6329779e-38
0.074528575 -0.36270571 1.7390001 1.7247448e-38
0.077840954 -0.36270571 1.7390001 1.2268884e-38
0.081153341 -0.36270571 1.7390001 7.0295269e-39
0.08446572 -0.36270571 1.7390001 3.8026798e-39
0.087778099 -0.36270571 1.7390001 2.2479196e-39
0.05160762 -0.36125335 1.748 1.5858355e-38
0.057966668 -0.35939333 1.7390001 1.3465584e-38
0.067903809 -0.35939333 1.7390001 1.2732723e-38
0.071216188 -0.35939333 1.7390001 1.6051766e-38
0.074528575 -0.35939333 1.7390001 1.6510574e-38
0.077840954 -0.35939333 1.7390001 1.0794444e-38
0.081153341 -0.35939333 1.7390001 5.2835636e-39
0.08446572 -0.35939333 1.7390001 3.1630641e-39
0.087778099 -0.35939333 1.7390001 4.7282417e-39
0.032137144 -0.36365718 1.7760001 1.2723035e-38
0.051873334 -0.35976666 1.7570001 1.5581064e-38
0.05522 -0.35976666 1.7570001 1.6230015e-38
0.071584761 -0.35792381 1.748 1.5958138e-38
0.074914292 -0.35792381 1.748 1.5959555e-38
0.078243807 -0.35792381 1.748 1.2087339e-38
0.08157333 -0.35792381 1.748 6.5703816e-39
0.08490286 -0.35792381 1.748 3.4357302e-39
0.088232383 -0.35792381 1.748 6.012889e-39
0.091561906 -0.35792381 1.748 1.1821214e-38
0.032137144 -0.36027431 1.7760001 1.5303794e-38
0.068255238 -0.35459429 1.748 1.558504e-38
0.071584761 -0.35459429 1.748 1.5400648e-38
0.074914292 -0.35459429 1.748 1.6138536e-38
0.078243807 -0.35459429 1.748 1.6783905e-38
0.08157333 -0.35459429 1.748 1.4297898e-38
0.08490286 -0.35459429 1.748 1.236179e-38
0.088232383 -0.35459429 1.748 1.2730951e-38
0.091561906 -0.35459429 1.748 1.402169e-38
0.058266666 -0.35126477 1.748 1.4205258e-38
0.068255238 -0.35126477 1.748 1.7518617e-38
0.075300001 -0.35307336 1.7570001 1.3737114e-38
0.078646667 -0.35307336 1.7570001 1.5765418e-38
0.081993334 -0.35307336 1.7570001 1.7517167e-38
0.085340001 -0.35307336 1.7570001 1.724058e-38
0.091561906 -0.35126477 1.748 1.2730578e-38
0.075300001 -0.34972668 1.7570001 9.3185605e-39
0.078646667 -0.34972668 1.7570001 1.0517104e-38
0.081993334 -0.34972668 1.7570001 1.4293913e-38
0.085340001 -0.34972668 1.7570001 1.687539e-38
0.091561906 -0.34793523 1.748 1.1992272e-38
0.028900001 -0.35190001 1.7850001 2.2310642e-38
0.075300001 -0.34638 1.7570001 8.5824402e-39
0.078646667 -0.34638 1.7570001 9.7809834e-39
0.081993334 -0.34638 1.7570001 1.1715679e-38
0.085340001 -0.34638 1.7570001 1.54957e-38
0.088686667 -0.34638 1.7570001 1.4484443e-38
0.028900001 -0.34850001 1.7850001 2.2403551e-38
0.075300001 -0.34303334 1.7570001 9.0427345e-39
0.078646667 -0.34303334 1.7570001 1.1900799e-38
0.081993334 -0.34303334 1.7570001 1.3464187e-38
0.085340001 -0.34303334 1.7570001 1.6691034e-38
0.088686667 -0.34303334 1.7570001 1.540387e-38
0.092033334 -0.34303334 1.7570001 1.2361414e-38
0.028900001 -0.34510002 1.7850001 2.2496462e-38
0.05522 -0.33968669 1.7570001 8.3116337e-39
0.075300001 -0.33968669 1.7570001 1.1616652e-38
0.078646667 -0.33968669 1.7570001 1.4659108e-38
0.081993334 -0.33968669 1.7570001 1.6870356e-38
0.085340001 -0.33968669 1.7570001 1.6962551e-38
0.088686667 -0.33968669 1.7570001 1.5496419e-38
0.065594286 -0.33806285 1.766 1.448298e-38
0.07904952 -0.33806285 1.766 1.595416e-38
0.085340001 -0.33634001 1.7570001 9.6906431e-39
0.088686667 -0.33634001 1.7570001 1.2456487e-38
0.032299999 -0.33830002 1.7850001 2.3141103e-38
0.082413338 -0.33469906 1.766 8.4110348e-39
0.085340001 -0.33299333 1.7570001 5.2763834e-39
0.088686667 -0.33299333 1.7570001 1.0063344e-38
0.092033334 -0.33299333 1.7570001 1.3751169e-38
0.095380001 -0.33299333 1.7570001 1.5121162e-38
0.068606667 -0.32964668 1.7570001 1.2824553e-38
0.082413338 -0.33133525 1.766 1.5132986e-39
0.085340001 -0.32964668 1.7570001 1.2367118e-39
0.088686667 -0.32964668 1.7570001 8.4960277e-39
0.092033334 -0.32964668 1.7570001 1.1907266e-38
0.095380001 -0.32964668 1.7570001 1.3462695e-38
0.098726667 -0.32964668 1.7570001 7.3777832e-39
0.035700001 -0.33149999 1.7850001 1.8718269e-38
0.082413338 -0.32797143 1.766 1.6958626e-39
0.085340001 -0.32630002 1.7570001 2.341232e-39
0.088686667 -0.32630002 1.7570001 9.3236304e-39
0.092033334 -0.32630002 1.7570001 1.2366086e-38
0.095380001 -0.32630002 1.7570001 1.2910991e-38
0.098726667 -0.32630002 1.7570001 8.4856007e-39
0.035700001 -0.3281 1.7850001 2.0836944e-38
0.082413338 -0.32460764 1.766 9.7885714e-39
0.085777141 -0.32460764 1.766 9.9729627e-39
0.088686667 -0.32295334 1.7570001 1.3652857e-38
0.092033334 -0.32295334 1.7570001 1.5127987e-38
0.095380001 -0.32295334 1.7570001 1.5031125e-38
0.098726667 -0.32295334 1.7570001 1.1712082e-38
0.10207333 -0.32295334 1.7570001 1.0146186e-38
0.039099999 -0.32470003 1.7850001 1.0508169e-38
0.082413338 -0.32124379 1.766 1.4479033e-38
0.085777141 -0.32124379 1.766 1.475562e-38
0.089140952 -0.32124379 1.766 1.4389718e-38
0.092504762 -0.32124379 1.766 1.4297523e-38
0.095868573 -0.32124379 1.766 1.4570519e-38
0.082413338 -0.31788 1.766 1.5953441e-38
0.085777141 -0.31788 1.766 1.576905e-38
0.089140952 -0.31788 1.766 1.3561042e-38
0.092504762 -0.31788 1.766 1.1901521e-38
0.095868573 -0.31788 1.766 1.2454316e-38
0.082413338 -0.31451619 1.766 1.558574e-38
0.085777141 -0.31451619 1.766 1.5216958e-38
0.089140952 -0.31451619 1.766 1.2273184e-38
0.092504762 -0.31451619 1.766 1.0521467e-38
0.095868573 -0.31451619 1.766 1.033924e-38
0.099232383 -0.31451619 1.766 9.4172834e-39
0.10317715 -0.31629717 1.7760001 6.9286404e-39
0.039297145 -0.31608573 1.794 1.1616649e-38
0.082413338 -0.31115237 1.766 1.549352e-38
0.085777141 -0.31115237 1.766 1.549352e-38
0.089140952 -0.31115237 1.766 1.28242e-38
0.092504762 -0.31115237 1.766 1.1072483e-38
0.095868573 -0.31115237 1.766 1.1442357e-38
0.099232383 -0.31115237 1.766 1.0889183e-38
0.039297145 -0.31266856 1.794 1.2906672e-38
0.07904952 -0.30778858 1.766 1.4386459e-38
0.082413338 -0.30778858 1.766 1.6412232e-38
0.085777141 -0.30778858 1.766 1.6412232e-38
0.089140952 -0.30778858 1.766 1.4112062e-38
0.092504762 -0.30778858 1.766 1.2544736e-38
0.095868573 -0.30778858 1.766 1.2086638e-38
0.099232383 -0.30778858 1.766 1.1256877e-38
0.07904952 -0.30442476 1.766 1.5586434e-38
0.082413338 -0.30442476 1.766 1.4850664e-38
0.085777141 -0.30442476 1.766 1.494286e-38
0.089140952 -0.30442476 1.766 1.5402065e-38
0.092504762 -0.30442476 1.766 1.3926935e-38
0.095868573 -0.30442476 1.766 1.2175234e-38
0.099232383 -0.30442476 1.766 1.0331321e-38
0.07904952 -0.30106097 1.766 1.2728029e-38
0.082413338 -0.30106097 1.766 1.079837e-38
0.085777141 -0.30106097 1.766 1.3011065e-38
0.089140952 -0.30106097 1.766 1.5493204e-38
0.092504762 -0.30106097 1.766 1.411027e-38
0.095868573 -0.30106097 1.766 1.1621666e-38
0.082413338 -0.29769713 1.766 1.5107581e-39
0.085777141 -0.29769713 1.766 3.6312576e-39
0.089140952 -0.29769713 1.766 1.181112e-38
0.092504762 -0.29769713 1.766 1.0428186e-38
0.095868573 -0.29769713 1.766 9.1320085e-39
0.099794298 -0.29938287 1.7760001 9.4085953e-39
0.1037 -0.30090001 1.7850001 1.087834e-38
0.082413338 -0.29433334 1.766 1.2330291e-39
0.085777141 -0.29433334 1.766 4.0910937e-39
0.089140952 -0.29433334 1.766 1.1534203e-38
0.093028575 -0.296 1.7760001 1.0059072e-38
0.096411437 -0.296 1.7760001 7.5657225e-39
0.099794298 -0.296 1.7760001 9.5018307e-39
0.046131428 -0.29558286 1.794 1.0605086e-38
0.082413338 -0.29096952 1.766 4.2708382e-39
0.085777141 -0.29096952 1.766 9.2494022e-39
0.089645721 -0.29261714 1.7760001 1.3652534e-38
0.093028575 -0.29261714 1.7760001 1.2638382e-38
0.096411437 -0.29261714 1.7760001 1.208118e-38
0.099794298 -0.29261714 1.7760001 1.2173375e-38
0.10317715 -0.29261714 1.7760001 1.3918641e-38
0.046131428 -0.29216573 1.794 1.281377e-38
0.086262859 -0.28923431 1.7760001 1.3840828e-38
0.089645721 -0.28923431 1.7760001 1.6873971e-38
0.093028575 -0.28923431 1.7760001 1.5767623e-38
0.096411437 -0.28923431 1.7760001 1.3095004e-38
0.099794298 -0.28923431 1.7760001 1.3279395e-38
0.10317715 -0.28923431 1.7760001 1.4471454e-38
0.10656001 -0.28923431 1.7760001 1.5024628e-38
0.086262859 -0.28585145 1.7760001 1.6970097e-38
0.089645721 -0.28585145 1.7760001 1.7334576e-38
0.093028575 -0.28585145 1.7760001 1.6689207e-38
0.096411437 -0.28585145 1.7760001 1.604239e-38
0.099794298 -0.28585145 1.7760001 1.4475064e-38
0.10656001 -0.28585145 1.7760001 1.4471815e-38
0.086262859 -0.28246859 1.7760001 1.7979217e-38
0.089645721 -0.28246859 1.7760001 1.7057271e-38
0.093028575 -0.28246859 1.7760001 1.6596292e-38
0.096411437 -0.28246859 1.7760001 1.6042753e-38
0.1003 -0.28389999 1.7850001 1.4014449e-38
0.046620004 -0.28490001 1.8130001 1.3459133e-38
0.086262859 -0.27908573 1.7760001 1.7701561e-38
0.089645721 -0.27908573 1.7760001 1.6780684e-38
0.093028575 -0.27908573 1.7760001 1.6319705e-38
0.096411437 -0.27908573 1.7760001 1.6227124e-38
0.1003 -0.28050002 1.7850001 1.3830038e-38
0.1037 -0.28050002 1.7850001 1.3643123e-38
0.046620004 -0.28144667 1.8130001 1.2996319e-38
0.049300004 -0.27710003 1.7850001 1.5855099e-38
0.052700002 -0.27710003 1.7850001 1.8067794e-38
0.086262859 -0.27570289 1.7760001 1.7518249e-38
0.089645721 -0.27570289 1.7760001 1.6872153e-38
0.096900001 -0.27710003 1.7850001 1.6503711e-38
0.1003 -0.27710003 1.7850001 1.3830038e-38
0.1037 -0.27710003 1.7850001 1.3919347e-38
0.04954857 -0.27508003 1.794 1.5028569e-38
0.052700002 -0.2737 1.7850001 1.6227112e-38
0.096900001 -0.2737 1.7850001 1.6226403e-38
