# .PCD v0.7 - Point Cloud Data file format
VERSION 0.7
FIELDS x y z rgb
SIZE 4 4 4 4
TYPE F F F F
COUNT 1 1 1 1
WIDTH 232
HEIGHT 1
VIEWPOINT 0 0 0 1 0 0 0
POINTS 232
DATA ascii
0.067591429 -0.40060288 1.7310001 1.3185439e-38
0.070888579 -0.40060288 1.7310001 1.3093244e-38
0.074185714 -0.40060288 1.7310001 1.3276915e-38
0.067591429 -0.39730573 1.7310001 1.2445e-38
0.070888579 -0.39730573 1.7310001 1.2352805e-38
0.074185714 -0.39730573 1.7310001 1.2629019e-38
0.064294286 -0.39400858 1.7310001 1.2722997e-38
0.067591429 -0.39400858 1.7310001 1.2813395e-38
0.070888579 -0.39400858 1.7310001 1.3182177e-38
0.074185714 -0.39400858 1.7310001 1.3916508e-38
0.064294286 -0.39071143 1.7310001 1.7148365e-38
0.067591429 -0.39071143 1.7310001 1.7701183e-38
0.070888579 -0.39071143 1.7310001 1.8623139e-38
0.064294286 -0.38741428 1.7310001 1.788594e-38
0.067591429 -0.38741428 1.7310001 1.7887019e-38
0.064294286 -0.38411716 1.7310001 1.7517157e-38
0.068103813 -0.35635716 1.6630001 1.2174139e-38
0.071271434 -0.35635716 1.6630001 1.1813217e-38
0.074439049 -0.35635716 1.6630001 1.5040064e-38
0.077606671 -0.35635716 1.6630001 1.761259e-38
0.080774285 -0.35635716 1.6630001 1.7889177e-38
0.068103813 -0.35318956 1.6630001 8.3998692e-39
0.071271434 -0.35318956 1.6630001 5.2824566e-39
0.074439049 -0.35318956 1.6630001 8.6014993e-39
0.077606671 -0.35318956 1.6630001 1.6413671e-38
0.080774285 -0.35318956 1.6630001 1.8626366e-38
0.083941914 -0.35318956 1.6630001 1.8346577e-38
0.068103813 -0.3500219 1.6630001 5.457916e-39
0.071271434 -0.3500219 1.6630001 3.7205833e-39
0.074439049 -0.3500219 1.6630001 2.9830183e-39
0.077606671 -0.3500219 1.6630001 1.1902883e-38
0.080774285 -0.3500219 1.6630001 1.660486e-38
0.083941914 -0.3500219 1.6630001 1.724234e-38
0.03376 -0.3520686 1.6880001 9.1259577e-39
0.049334288 -0.3485229 1.6710001 1.0702609e-38
0.052517146 -0.3485229 1.6710001 9.6048836e-39
0.064936198 -0.3468543 1.6630001 4.9155322e-39
0.068103813 -0.3468543 1.6630001 3.6247934e-39
0.071271434 -0.3468543 1.6630001 3.5368955e-39
0.074439049 -0.3468543 1.6630001 2.5227436e-39
0.077606671 -0.3468543 1.6630001 7.6705551e-39
0.080774285 -0.3468543 1.6630001 1.4032054e-38
0.083941914 -0.3468543 1.6630001 1.4297876e-38
0.03376 -0.34885335 1.6880001 9.3122238e-39
0.052517146 -0.34534001 1.6710001 1.2546872e-38
0.064936198 -0.3436867 1.6630001 1.1262282e-38
0.068103813 -0.3436867 1.6630001 6.5603049e-39
0.071271434 -0.3436867 1.6630001 4.7311283e-39
0.074439049 -0.3436867 1.6630001 7.5891929e-39
0.077606671 -0.3436867 1.6630001 1.3285181e-38
0.080774285 -0.3436867 1.6630001 1.6880811e-38
0.068103813 -0.34051907 1.6630001 1.0427114e-38
0.071271434 -0.34051907 1.6630001 7.7617095e-39
0.074439049 -0.34051907 1.6630001 1.1726122e-38
0.077606671 -0.34051907 1.6630001 1.6689207e-38
0.080774285 -0.34051907 1.6630001 1.7334576e-38
0.043405719 -0.34242287 1.6880001 8.3962637e-39
0.068103813 -0.33735144 1.6630001 1.6598862e-38
0.071271434 -0.33735144 1.6630001 1.623469e-38
0.074439049 -0.33735144 1.6630001 1.6419081e-38
0.077606671 -0.33735144 1.6630001 1.457627e-38
0.080774285 -0.33735144 1.6630001 1.3193336e-38
0.084345713 -0.33897433 1.6710001 1.4665942e-38
0.06843143 -0.33579144 1.6710001 1.8898657e-38
0.071614295 -0.33579144 1.6710001 1.8350533e-38
0.074797146 -0.33579144 1.6710001 1.6414425e-38
0.077606671 -0.33418384 1.6630001 1.2554453e-38
0.084345713 -0.33579144 1.6710001 1.2180973e-38
0.087528579 -0.33579144 1.6710001 1.540782e-38
0.049600001 -0.33440003 1.6800001 1.0714105e-38
0.052800003 -0.33440003 1.6800001 1.3004588e-38
0.06843143 -0.33260858 1.6710001 1.6599532e-38
0.071614295 -0.33260858 1.6710001 1.687899e-38
0.074797146 -0.33260858 1.6710001 1.3467752e-38
0.077980004 -0.33260858 1.6710001 1.0896386e-38
0.081162862 -0.33260858 1.6710001 1.0527604e-38
0.084345713 -0.33260858 1.6710001 1.1905834e-38
0.049600001 -0.3312 1.6800001 9.6099059e-39
0.052800003 -0.3312 1.6800001 1.2083391e-38
0.06843143 -0.32942575 1.6710001 1.6693861e-38
0.071614295 -0.32942575 1.6710001 1.6236145e-38
0.074797146 -0.32942575 1.6710001 1.3193689e-38
0.077980004 -0.32942575 1.6710001 1.0621222e-38
0.081162862 -0.32942575 1.6710001 1.0529026e-38
0.049836192 -0.32956192 1.6880001 1.3564964e-38
0.052800003 -0.32800001 1.6800001 1.5399897e-38
0.06843143 -0.32624286 1.6710001 1.6875791e-38
0.071614295 -0.32624286 1.6710001 1.632653e-38
0.074797146 -0.32624286 1.6710001 1.5773356e-38
0.077980004 -0.32624286 1.6710001 1.4670959e-38
0.081162862 -0.32624286 1.6710001 1.3749002e-38
0.049836192 -0.3263467 1.6880001 1.5124752e-38
0.052800003 -0.32480001 1.6800001 1.7149091e-38
0.056000002 -0.32480001 1.6800001 1.5028591e-38
0.06843143 -0.32306001 1.6710001 1.5124762e-38
0.071614295 -0.32306001 1.6710001 1.5311983e-38
0.074797146 -0.32306001 1.6710001 1.6602722e-38
0.077980004 -0.32306001 1.6710001 1.6417656e-38
0.081162862 -0.32306001 1.6710001 1.5772287e-38
0.049836192 -0.32313144 1.6880001 1.4386469e-38
0.052800003 -0.32160002 1.6800001 1.5218691e-38
0.056000002 -0.32160002 1.6800001 1.5771865e-38
0.06843143 -0.31987718 1.6710001 8.7668889e-39
0.071614295 -0.31987718 1.6710001 6.9362522e-39
0.074797146 -0.31987718 1.6710001 1.0808469e-38
0.077980004 -0.31987718 1.6710001 1.5772993e-38
0.081162862 -0.31987718 1.6710001 1.6787145e-38
0.084799998 -0.32160002 1.6800001 1.6415476e-38
0.049836192 -0.31991622 1.6880001 1.2544354e-38
0.052800003 -0.3184 1.6800001 1.1626338e-38
0.056000002 -0.3184 1.6800001 1.4392207e-38
0.06843143 -0.31669429 1.6710001 6.0070989e-39
0.071614295 -0.31669429 1.6710001 1.4221442e-39
0.074797146 -0.31669429 1.6710001 4.5567956e-39
0.077980004 -0.31669429 1.6710001 1.4571579e-38
0.081162862 -0.31669429 1.6710001 1.6323296e-38
0.084799998 -0.3184 1.6800001 1.5949103e-38
0.049836192 -0.31670097 1.6880001 1.2359947e-38
0.053051431 -0.31670097 1.6880001 1.1441969e-38
0.071614295 -0.31351143 1.6710001 1.8824483e-39
0.074797146 -0.31351143 1.6710001 3.449774e-39
0.077980004 -0.31351143 1.6710001 1.3100739e-38
0.081162862 -0.31351143 1.6710001 1.4852456e-38
0.084799998 -0.31520003 1.6800001 1.4476471e-38
0.088 -0.31520003 1.6800001 9.2213202e-39
0.049836192 -0.31348571 1.6880001 1.2819859e-38
0.053051431 -0.31348571 1.6880001 1.1810023e-38
0.071614295 -0.3103286 1.6710001 3.4446901e-39
0.075200006 -0.31200001 1.6800001 6.210559e-39
0.078400001 -0.31200001 1.6800001 1.4479014e-38
0.081600003 -0.31200001 1.6800001 1.5585362e-38
0.084799998 -0.31200001 1.6800001 1.4291765e-38
0.088 -0.31200001 1.6800001 9.4053962e-39
0.049836192 -0.31027049 1.6880001 1.5583212e-38
0.053051431 -0.31027049 1.6880001 1.5400222e-38
0.056000002 -0.30880001 1.6800001 1.6229983e-38
0.071614295 -0.30714574 1.6710001 1.09853e-38
0.075200006 -0.30880001 1.6800001 1.4857516e-38
0.078400001 -0.30880001 1.6800001 1.6692444e-38
0.081600003 -0.30880001 1.6800001 1.7153422e-38
0.088 -0.30880001 1.6800001 1.3462745e-38
0.091200002 -0.30880001 1.6800001 1.3282257e-38
0.053051431 -0.30705526 1.6880001 1.5951626e-38
0.056000002 -0.30559999 1.6800001 1.5121866e-38
0.059200004 -0.30559999 1.6800001 1.3832193e-38
0.072000004 -0.30559999 1.6800001 1.4665239e-38
0.075200006 -0.30559999 1.6800001 1.6509151e-38
0.078400001 -0.30559999 1.6800001 1.6324377e-38
0.081600003 -0.30559999 1.6800001 1.5679008e-38
0.056266669 -0.30384001 1.6880001 1.2908833e-38
0.059200004 -0.30240002 1.6800001 1.1342551e-38
0.072000004 -0.30240002 1.6800001 1.7522205e-38
0.078773335 -0.30384001 1.6880001 1.2550122e-38
0.081988573 -0.30384001 1.6880001 1.2273535e-38
0.08841905 -0.30384001 1.6880001 1.6327233e-38
0.056266669 -0.30062476 1.6880001 1.2084827e-38
0.059200004 -0.2992 1.6800001 1.0605339e-38
0.078773335 -0.30062476 1.6880001 1.0160594e-38
0.081988573 -0.30062476 1.6880001 1.0437181e-38
0.078773335 -0.29740953 1.6880001 1.1447742e-38
0.081988573 -0.29740953 1.6880001 1.1447742e-38
0.040785715 -0.29855144 1.7130001 1.1896108e-38
0.059481904 -0.29419431 1.6880001 1.1710983e-38
0.075558104 -0.29419431 1.6880001 1.4667712e-38
0.078773335 -0.29419431 1.6880001 1.2091317e-38
0.081988573 -0.29419431 1.6880001 1.2275708e-38
0.041000001 -0.29684001 1.7220001 1.1159271e-38
0.075558104 -0.29097906 1.6880001 1.6788531e-38
0.078773335 -0.29097906 1.6880001 1.6232189e-38
0.085607626 -0.2923581 1.6960001 1.5400646e-38
0.082377143 -0.28912762 1.6960001 1.7426422e-38
0.085607626 -0.28912762 1.6960001 1.5033646e-38
0.082377143 -0.28589717 1.6960001 1.3558891e-38
0.085607626 -0.28589717 1.6960001 1.079158e-38
0.0888381 -0.28589717 1.6960001 8.0257113e-39
0.082377143 -0.28266668 1.6960001 1.3376658e-38
0.085607626 -0.28266668 1.6960001 1.0331636e-38
0.0888381 -0.28266668 1.6960001 8.8565062e-39
0.092557147 -0.28416666 1.705 1.0144361e-38
0.11583143 -0.28550002 1.7130001 1.3089596e-38
0.037720002 -0.28372002 1.7220001 1.751717e-38
0.079146668 -0.2794362 1.6960001 1.5679724e-38
0.082377143 -0.2794362 1.6960001 1.5587528e-38
0.085607626 -0.2794362 1.6960001 1.1805003e-38
0.0888381 -0.2794362 1.6960001 1.0145482e-38
0.11583143 -0.28223714 1.7130001 1.3181792e-38
0.037720002 -0.28044003 1.7220001 1.7701561e-38
0.079146668 -0.27620572 1.6960001 1.696722e-38
0.082377143 -0.27620572 1.6960001 1.6782829e-38
0.079146668 -0.27297527 1.6960001 1.4760636e-38
0.082377143 -0.27297527 1.6960001 1.4945027e-38
0.08606191 -0.27442384 1.705 1.5863406e-38
0.079146668 -0.26974478 1.6960001 1.135661e-38
0.082377143 -0.26974478 1.6960001 1.2278567e-38
0.08606191 -0.27117619 1.705 1.5036172e-38
0.079146668 -0.2665143 1.6960001 1.0528657e-38
0.082377143 -0.2665143 1.6960001 1.1174027e-38
0.08606191 -0.26792857 1.705 1.365538e-38
0.089309521 -0.26792857 1.705 1.3102207e-38
0.060362857 -0.26592287 1.7130001 1.134723e-38
0.066224761 -0.26328385 1.6960001 9.0441162e-39
0.075916193 -0.26328385 1.6960001 1.2454704e-38
0.079146668 -0.26328385 1.6960001 1.0435723e-38
0.08606191 -0.26468095 1.705 1.4391519e-38
0.089309521 -0.26468095 1.705 1.3930541e-38
0.092557147 -0.26468095 1.705 8.2266309e-39
0.060362857 -0.26266 1.7130001 1.4013736e-38
0.082814284 -0.26143333 1.705 1.4854977e-38
0.057400003 -0.26076004 1.7220001 1.7147643e-38
0.060362857 -0.25939715 1.7130001 1.6131699e-38
0.082814284 -0.25818571 1.705 1.6691337e-38
0.057400003 -0.25748 1.7220001 1.8990835e-38
0.060680002 -0.25748 1.7220001 1.8345839e-38
0.063625716 -0.2561343 1.7130001 1.8806817e-38
0.082814284 -0.2549381 1.705 1.8257956e-38
0.054402858 -0.2555286 1.7310001 1.6686285e-38
0.057400003 -0.25420004 1.7220001 1.8622393e-38
0.060680002 -0.25420004 1.7220001 1.8161808e-38
0.063625716 -0.25287145 1.7130001 1.8622786e-38
0.082814284 -0.25169048 1.705 1.8349432e-38
0.054402858 -0.25223145 1.7310001 1.1613047e-38
0.057400003 -0.25092 1.7220001 1.8435523e-38
0.060680002 -0.25092 1.7220001 1.8346199e-38
0.063625716 -0.24960859 1.7130001 1.8807177e-38
0.066888571 -0.24960859 1.7130001 1.8624211e-38
0.086465716 -0.24960859 1.7130001 1.807141e-38
0.089728571 -0.24960859 1.7130001 1.7887019e-38
0.054402858 -0.2489343 1.7310001 1.1246351e-38
0.057700001 -0.2489343 1.7310001 1.8714197e-38
0.060680002 -0.24764003 1.7220001 1.8807167e-38
0.063960001 -0.24764003 1.7220001 1.8807167e-38
0.066888571 -0.24634571 1.7130001 1.8623495e-38
