# .PCD v0.7 - Point Cloud Data file format
VERSION 0.7
FIELDS x y z rgb
SIZE 4 4 4 4
TYPE F F F F
COUNT 1 1 1 1
WIDTH 255
HEIGHT 1
VIEWPOINT 0 0 0 1 0 0 0
POINTS 255
DATA ascii
0.12149333 -0.46240002 1.904 8.6649725e-39
0.12512 -0.46240002 1.904 8.5723607e-39
0.12874667 -0.46240002 1.904 7.6504044e-39
0.13237333 -0.46240002 1.904 7.1851453e-39
0.11786667 -0.45877334 1.904 1.4473648e-38
0.12085524 -0.4563638 1.8940001 1.3920474e-38
0.12446286 -0.4563638 1.8940001 1.4381401e-38
0.12807047 -0.4563638 1.8940001 1.5395553e-38
0.13091335 -0.45371339 1.8830001 1.2722271e-38
0.067093328 -0.45514667 1.904 1.6040595e-38
0.089366674 -0.45777619 1.9150001 1.7240583e-38
0.093014285 -0.45777619 1.9150001 1.68718e-38
0.095601909 -0.4527562 1.8940001 1.6226431e-38
0.099209525 -0.4527562 1.8940001 1.5765453e-38
0.10336 -0.45514667 1.904 1.5764727e-38
0.10698667 -0.45514667 1.904 1.4842771e-38
0.11003239 -0.4527562 1.8940001 1.484385e-38
0.11364 -0.4527562 1.8940001 1.4936045e-38
0.11724762 -0.4527562 1.8940001 1.4565843e-38
0.12015335 -0.45012668 1.8830001 1.4473648e-38
0.12374 -0.45012668 1.8830001 1.4013345e-38
0.12732667 -0.45012668 1.8830001 1.4382127e-38
0.073956192 -0.4491486 1.8940001 1.5857283e-38
0.077563807 -0.4491486 1.8940001 1.6133869e-38
0.082071431 -0.45412859 1.9150001 1.6318614e-38
0.085226662 -0.45152 1.904 1.641081e-38
0.098109528 -0.4441686 1.8730001 1.5487418e-38
0.10580667 -0.44654003 1.8830001 1.4289594e-38
0.10939334 -0.44654003 1.8830001 1.4199925e-38
0.11298 -0.44654003 1.8830001 1.4660903e-38
0.11656668 -0.44654003 1.8830001 1.4475796e-38
0.1266505 -0.4441686 1.8730001 9.8667303e-39
0.073136196 -0.44060099 1.8730001 1.512148e-38
0.08070001 -0.44295338 1.8830001 1.5950197e-38
0.10524477 -0.44060099 1.8730001 1.4844931e-38
0.1266505 -0.44060099 1.8730001 7.1970045e-39
0.1302181 -0.44060099 1.8730001 7.5614486e-39
0.069940001 -0.43936667 1.8830001 9.4990492e-39
0.11238001 -0.43703336 1.8730001 1.1530202e-38
0.11594763 -0.43703336 1.8730001 1.061147e-38
0.086473338 -0.42883715 1.853 1.5492093e-38
0.090002865 -0.42883715 1.853 9.8681596e-39
0.093532376 -0.42883715 1.853 8.6720883e-39
0.097585715 -0.43115145 1.863 1.0976979e-38
0.10113429 -0.43115145 1.863 1.539666e-38
0.10468286 -0.43115145 1.863 1.6226421e-38
0.10823143 -0.43115145 1.863 1.3652509e-38
0.11178 -0.43115145 1.863 1.0149075e-38
0.11532857 -0.43115145 1.863 8.956643e-39
0.11887714 -0.43115145 1.863 9.8785993e-39
0.12242571 -0.43115145 1.863 8.8619334e-39
0.12597428 -0.43115145 1.863 6.0038689e-39
0.12952286 -0.43115145 1.863 8.2122284e-39
0.072745718 -0.42760286 1.863 1.324569e-39
0.076294288 -0.42760286 1.863 3.813851e-39
0.079842858 -0.42760286 1.863 1.3651389e-38
0.082943812 -0.4253076 1.853 1.448115e-38
0.086473338 -0.4253076 1.853 1.3464117e-38
0.090002865 -0.4253076 1.853 9.2231181e-39
0.093532376 -0.4253076 1.853 8.1200524e-39
0.097585715 -0.42760286 1.863 8.4888349e-39
0.10113429 -0.42760286 1.863 1.3924745e-38
0.10468286 -0.42760286 1.863 1.5676462e-38
0.10823143 -0.42760286 1.863 1.3652847e-38
0.11178 -0.42760286 1.863 1.0241608e-38
0.11532857 -0.42760286 1.863 9.9682838e-39
0.11887714 -0.42760286 1.863 1.0798044e-38
0.12242571 -0.42760286 1.863 9.3221857e-39
0.12597428 -0.42760286 1.863 5.0811867e-39
0.12952286 -0.42760286 1.863 5.3610134e-39
0.13307144 -0.42760286 1.863 8.8644473e-39
0.06243334 -0.42633051 1.8730001 1.254472e-38
0.066000953 -0.42633051 1.8730001 8.7744195e-39
0.069197141 -0.42405429 1.863 4.8100074e-39
0.072745718 -0.42405429 1.863 1.5103797e-39
0.075884759 -0.42177808 1.853 3.9996617e-39
0.079414286 -0.42177808 1.853 1.3188997e-38
0.082943812 -0.42177808 1.853 1.4571932e-38
0.086473338 -0.42177808 1.853 1.1896483e-38
0.090002865 -0.42177808 1.853 9.1306142e-39
0.093532376 -0.42177808 1.853 8.8572194e-39
0.097585715 -0.42405429 1.863 1.0240154e-38
0.10113429 -0.42405429 1.863 1.3920811e-38
0.10468286 -0.42405429 1.863 1.5580333e-38
0.10823143 -0.42405429 1.863 1.2639802e-38
0.11178 -0.42405429 1.863 1.0058324e-38
0.11532857 -0.42405429 1.863 1.1253628e-38
0.11887714 -0.42405429 1.863 1.1714606e-38
0.12242571 -0.42405429 1.863 1.0057583e-38
0.06243334 -0.42276287 1.8730001 1.429392e-38
0.066000953 -0.42276287 1.8730001 1.1717871e-38
0.069197141 -0.4205057 1.863 8.7676106e-39
0.072745718 -0.4205057 1.863 7.6698698e-39
0.075884759 -0.41824856 1.853 1.2371847e-38
0.079414286 -0.41824856 1.853 1.5771191e-38
0.082943812 -0.41824856 1.853 1.6232169e-38
0.086473338 -0.41824856 1.853 1.4753844e-38
0.090002865 -0.41824856 1.853 1.1619193e-38
0.093532376 -0.41824856 1.853 1.171277e-38
0.097585715 -0.4205057 1.863 1.5124008e-38
0.10113429 -0.4205057 1.863 1.4940011e-38
0.10468286 -0.4205057 1.863 1.4571228e-38
0.10823143 -0.4205057 1.863 1.3651803e-38
0.11178 -0.4205057 1.863 1.2729846e-38
0.11532857 -0.4205057 1.863 1.2728382e-38
0.11887714 -0.4205057 1.863 1.0976665e-38
0.12242571 -0.4205057 1.863 1.0056494e-38
0.075884759 -0.41471905 1.853 1.4849627e-38
0.079414286 -0.41471905 1.853 1.5678289e-38
0.082943812 -0.41471905 1.853 1.5309507e-38
0.086473338 -0.41471905 1.853 1.5677949e-38
0.090002865 -0.41471905 1.853 1.4940384e-38
0.093532376 -0.41471905 1.853 1.3280497e-38
0.097585715 -0.41695717 1.863 1.4386844e-38
0.10113429 -0.41695717 1.863 1.3283727e-38
0.10468286 -0.41695717 1.863 1.2269575e-38
0.10823143 -0.41695717 1.863 1.3284806e-38
0.11178 -0.41695717 1.863 1.3561392e-38
0.11532857 -0.41695717 1.863 1.3555276e-38
0.11887714 -0.41695717 1.863 9.498668e-39
0.12242571 -0.41695717 1.863 9.7759584e-39
0.12597428 -0.41695717 1.863 1.1066697e-38
0.12952286 -0.41695717 1.863 1.1526274e-38
0.055593338 -0.41784671 1.8830001 1.0146201e-38
0.059180003 -0.41784671 1.8830001 1.0145109e-38
0.062766671 -0.41784671 1.8830001 8.5777837e-39
0.075884759 -0.41118956 1.853 1.3742929e-38
0.079414286 -0.41118956 1.853 1.2457563e-38
0.082943812 -0.41118956 1.853 1.2180976e-38
0.086473338 -0.41118956 1.853 1.4020573e-38
0.090002865 -0.41118956 1.853 1.6694246e-38
0.093532376 -0.41118956 1.853 1.586268e-38
0.097585715 -0.41340858 1.863 1.0791921e-38
0.10113429 -0.41340858 1.863 4.44845e-39
0.10468286 -0.41340858 1.863 3.6186893e-39
0.10823143 -0.41340858 1.863 9.0452681e-39
0.11178 -0.41340858 1.863 1.2548702e-38
0.11532857 -0.41340858 1.863 1.3279363e-38
0.11887714 -0.41340858 1.863 6.7334731e-39
0.12242571 -0.41340858 1.863 8.5774306e-39
0.12597428 -0.41340858 1.863 1.0513539e-38
0.12952286 -0.41340858 1.863 1.0787633e-38
0.072745718 -0.40985999 1.863 1.4851072e-38
0.075884759 -0.40766001 1.853 1.2453985e-38
0.079414286 -0.40766001 1.853 1.0158083e-38
0.082943812 -0.40766001 1.853 1.0342474e-38
0.086473338 -0.40766001 1.853 1.2365014e-38
0.090002865 -0.40766001 1.853 1.5776253e-38
0.093532376 -0.40766001 1.853 1.4210024e-38
0.097585715 -0.40985999 1.863 6.4655911e-39
0.10113429 -0.40985999 1.863 1.2334397e-39
0.10468286 -0.40985999 1.863 1.6022222e-39
0.10823143 -0.40985999 1.863 8.218715e-39
0.11178 -0.40985999 1.863 1.1814345e-38
0.11532857 -0.40985999 1.863 1.1342934e-38
0.11887714 -0.40985999 1.863 8.3004779e-39
0.12242571 -0.40985999 1.863 9.0383933e-39
0.12597428 -0.40985999 1.863 9.6837627e-39
0.12952286 -0.40985999 1.863 1.0140466e-38
0.072745718 -0.40631145 1.863 1.4942529e-38
0.076294288 -0.40631145 1.863 1.2822029e-38
0.079414286 -0.40413049 1.853 1.1353392e-38
0.082943812 -0.40413049 1.853 1.1353392e-38
0.086473338 -0.40413049 1.853 1.3007881e-38
0.090002865 -0.40413049 1.853 1.6142532e-38
0.093532376 -0.40413049 1.853 1.5128362e-38
0.097585715 -0.40631145 1.863 7.8449074e-39
0.10113429 -0.40631145 1.863 3.1663081e-39
0.10468286 -0.40631145 1.863 4.7336339e-39
0.10823143 -0.40631145 1.863 1.1071031e-38
0.11178 -0.40631145 1.863 1.3468118e-38
0.11951525 -0.40849239 1.8730001 1.0144008e-38
0.12308287 -0.40849239 1.8730001 8.7654022e-39
0.1266505 -0.40849239 1.8730001 7.6590546e-39
0.1302181 -0.40849239 1.8730001 7.9303039e-39
0.052310478 -0.40946478 1.8940001 9.1309393e-39
0.055918094 -0.40946478 1.8940001 1.1620221e-38
0.059525717 -0.40946478 1.8940001 1.1526252e-38
0.066000953 -0.40492478 1.8730001 1.1064201e-38
0.069568574 -0.40492478 1.8730001 1.5489592e-38
0.072745718 -0.40276286 1.863 1.4942862e-38
0.076294288 -0.40276286 1.863 1.3652124e-38
0.079842858 -0.40276286 1.863 1.2365027e-38
0.082943812 -0.40060097 1.853 1.2457222e-38
0.086473338 -0.40060097 1.853 1.4755992e-38
0.090002865 -0.40060097 1.853 1.586234e-38
0.093532376 -0.40060097 1.853 1.5404917e-38
0.097585715 -0.40276286 1.863 1.0426353e-38
0.10113429 -0.40276286 1.863 8.4953117e-39
0.10468286 -0.40276286 1.863 9.417268e-39
0.10823143 -0.40276286 1.863 1.3464165e-38
0.11178 -0.40276286 1.863 1.4017338e-38
0.11594763 -0.40492478 1.8730001 1.3555276e-38
0.11951525 -0.40492478 1.8730001 1.0697211e-38
0.12308287 -0.40492478 1.8730001 8.5817312e-39
0.1266505 -0.40492478 1.8730001 6.0002535e-39
0.1302181 -0.40492478 1.8730001 7.5633165e-39
0.13378572 -0.40492478 1.8730001 6.6413602e-39
0.052310478 -0.40585718 1.8940001 1.0052561e-38
0.055918094 -0.40585718 1.8940001 1.2541843e-38
0.059525717 -0.40585718 1.8940001 1.3001013e-38
0.066000953 -0.40135714 1.8730001 1.3650323e-38
0.069568574 -0.40135714 1.8730001 1.1529824e-38
0.072745718 -0.3992143 1.863 1.2550763e-38
0.076294288 -0.3992143 1.863 1.4210285e-38
0.079842858 -0.3992143 1.863 1.5126923e-38
0.082943812 -0.39707145 1.853 1.6048879e-38
0.086473338 -0.39707145 1.853 1.5124778e-38
0.090002865 -0.39707145 1.853 1.1897931e-38
0.093532376 -0.39707145 1.853 1.1256499e-38
0.097585715 -0.3992143 1.863 1.4206759e-38
0.10113429 -0.3992143 1.863 1.448298e-38
0.10468286 -0.3992143 1.863 1.448298e-38
0.10823143 -0.3992143 1.863 1.3190825e-38
0.11594763 -0.40135714 1.8730001 1.2360328e-38
0.11951525 -0.40135714 1.8730001 1.0608611e-38
0.12308287 -0.40135714 1.8730001 6.2783006e-39
0.1266505 -0.40135714 1.8730001 1.8529103e-39
0.1302181 -0.40135714 1.8730001 7.1019852e-39
0.052310478 -0.40224952 1.8940001 9.8685169e-39
0.055918094 -0.40224952 1.8940001 1.0974864e-38
0.059525717 -0.40224952 1.8940001 1.1989748e-38
0.066000953 -0.39778957 1.8730001 1.2457566e-38
0.069568574 -0.39778957 1.8730001 6.1882629e-39
0.072745718 -0.39566571 1.863 5.0015411e-39
0.076294288 -0.39566571 1.863 1.0533279e-38
0.079842858 -0.39566571 1.863 1.6228601e-38
0.082943812 -0.39354193 1.853 1.6597384e-38
0.086473338 -0.39354193 1.853 1.5306626e-38
0.090002865 -0.39354193 1.853 1.014367e-38
0.093532376 -0.39354193 1.853 1.0054321e-38
0.097585715 -0.39566571 1.863 1.4664102e-38
0.10113429 -0.39566571 1.863 1.5677576e-38
0.11238001 -0.39778957 1.8730001 9.6002397e-39
0.11951525 -0.39778957 1.8730001 9.2296397e-39
0.12308287 -0.39778957 1.8730001 6.9207707e-39
0.055918094 -0.39864191 1.8940001 9.2253013e-39
0.059525717 -0.39864191 1.8940001 1.0883776e-38
0.073136196 -0.39422193 1.8730001 1.2327363e-39
0.079842858 -0.39211717 1.863 1.3743616e-38
0.086473338 -0.39001238 1.853 1.22663e-38
0.11298 -0.39632669 1.8830001 1.0060492e-38
0.11656668 -0.39632669 1.8830001 1.1717124e-38
0.12015335 -0.39632669 1.8830001 9.2278419e-39
0.12374 -0.39632669 1.8830001 5.541439e-39
0.12732667 -0.39632669 1.8830001 1.0189682e-40
0.062766671 -0.39274004 1.8830001 1.2361051e-38
0.066353336 -0.39274004 1.8830001 1.0339237e-38
0.069940001 -0.39274004 1.8830001 5.3606729e-39
0.098633341 -0.39274004 1.8830001 1.3374828e-38
0.087406673 -0.38708669 1.8730001 1.4753481e-38
0.083839051 -0.38351908 1.8730001 1.6229658e-38
0.087406673 -0.38351908 1.8730001 1.6045299e-38
0.12874667 -0.3536 1.904 1.4102672e-38
0.096106671 -0.32095999 1.904 1.7148384e-38
