# .PCD v0.7 - Point Cloud Data file format
VERSION 0.7
FIELDS x y z rgb
SIZE 4 4 4 4
TYPE F F F F
COUNT 1 1 1 1
WIDTH 336
HEIGHT 1
VIEWPOINT 0 0 0 1 0 0 0
POINTS 336
DATA ascii
0.16524857 -0.29518762 1.483 6.1843099e-39
0.16807334 -0.29518762 1.483 4.2482016e-39
0.16524857 -0.28671333 1.483 1.2355647e-38
0.15085429 -0.2704505 1.427 1.1344729e-38
0.15421811 -0.2688581 1.4330001 9.5033526e-39
0.095417142 -0.26965716 1.452 7.8427424e-39
0.10552666 -0.26724288 1.439 6.0982253e-39
0.10826762 -0.26724288 1.439 5.6372472e-39
0.11054572 -0.2661286 1.4330001 8.3984091e-39
0.11327524 -0.2661286 1.4330001 1.1440865e-38
0.11551905 -0.26501429 1.427 1.2451079e-38
0.13127334 -0.26390004 1.4210001 9.8688728e-39
0.15421811 -0.2661286 1.4330001 9.3185927e-39
0.15694763 -0.2661286 1.4330001 1.0148353e-38
0.16034572 -0.26724288 1.439 9.5033497e-39
0.09303429 -0.26799428 1.4580001 2.6834361e-39
0.095417142 -0.26689142 1.452 7.1062662e-39
0.10552666 -0.2645019 1.439 4.350474e-39
0.10826762 -0.2645019 1.439 4.2582784e-39
0.11054572 -0.26339906 1.4330001 5.0844391e-39
0.11327524 -0.26339906 1.4330001 8.4034818e-39
0.11551905 -0.2622962 1.427 1.2082281e-38
0.13127334 -0.26119336 1.4210001 7.472525e-39
0.13398002 -0.26119336 1.4210001 9.7774157e-39
0.13998191 -0.2622962 1.427 1.2266672e-38
0.092651434 -0.2641257 1.452 2.7745654e-39
0.095417142 -0.2641257 1.452 6.1857392e-39
0.11327524 -0.26066953 1.4330001 6.933018e-39
0.11551905 -0.25957811 1.427 1.0240915e-38
0.12044667 -0.25848669 1.4210001 9.3167879e-39
0.13127334 -0.25848669 1.4210001 7.4732284e-39
0.13398002 -0.25848669 1.4210001 9.317141e-39
0.1372638 -0.25957811 1.427 1.0056874e-38
0.13998191 -0.25957811 1.427 1.1347613e-38
0.1427 -0.25957811 1.427 9.5065769e-39
0.15421811 -0.26066953 1.4330001 8.3062387e-39
0.15694763 -0.26066953 1.4330001 9.5047819e-39
0.092651434 -0.26136002 1.452 4.5223741e-39
0.095417142 -0.26136002 1.452 7.6569162e-39
0.11327524 -0.25793999 1.4330001 7.6673587e-39
0.11600477 -0.25793999 1.4330001 1.0977744e-38
0.11823715 -0.25685999 1.427 1.0977744e-38
0.13127334 -0.25578004 1.4210001 7.5647206e-39
0.13454573 -0.25685999 1.427 9.7774157e-39
0.1372638 -0.25685999 1.427 1.152911e-38
0.13998191 -0.25685999 1.427 1.2358871e-38
0.15421811 -0.25793999 1.4330001 9.5044091e-39
0.15694763 -0.25793999 1.4330001 1.0518561e-38
0.09303429 -0.25966287 1.4580001 5.6290271e-39
0.095417142 -0.2585943 1.452 8.0242568e-39
0.12856668 -0.25307336 1.4210001 7.8402131e-39
0.13454573 -0.2541419 1.427 1.0791568e-38
0.1372638 -0.2541419 1.427 1.1988656e-38
0.13998191 -0.2541419 1.427 1.2357439e-38
0.09303429 -0.25688571 1.4580001 5.8112926e-39
0.11374953 -0.2535381 1.439 1.1623158e-38
0.13182762 -0.25142381 1.427 1.0699722e-38
0.13454573 -0.25142381 1.427 1.1898266e-38
0.1372638 -0.25142381 1.427 1.106993e-38
0.13998191 -0.25142381 1.427 1.0608952e-38
0.14210002 -0.25036669 1.4210001 1.1346899e-38
0.13182762 -0.24870573 1.427 1.162419e-38
0.13454573 -0.24870573 1.427 1.0056864e-38
0.1372638 -0.24870573 1.427 7.9403274e-39
0.13998191 -0.24870573 1.427 7.9403274e-39
0.090257145 -0.25133145 1.4580001 1.5952766e-38
0.10826762 -0.2480562 1.439 1.2633673e-38
0.13182762 -0.24598764 1.427 9.5973334e-39
0.13454573 -0.24598764 1.427 6.5548776e-39
0.1372638 -0.24598764 1.427 4.3515502e-39
0.13998191 -0.24598764 1.427 3.6139852e-39
0.0854 -0.25060001 1.47 2.341769e-38
0.087840006 -0.24957716 1.4640001 2.1389386e-38
0.090257145 -0.2485543 1.4580001 1.669141e-38
0.10596667 -0.24633808 1.4450001 9.5930244e-39
0.13182762 -0.24326953 1.427 6.8390119e-39
0.13454573 -0.24326953 1.427 4.3497299e-39
0.1372638 -0.24326953 1.427 3.8001813e-39
0.13998191 -0.24326953 1.427 3.4313988e-39
0.1427 -0.24326953 1.427 3.6154103e-39
0.15085429 -0.24326953 1.427 7.3807077e-39
0.1548638 -0.24531522 1.439 6.6413097e-39
0.15760475 -0.24531522 1.439 6.9178966e-39
0.10596667 -0.24358572 1.4450001 9.6848697e-39
0.10871905 -0.24358572 1.4450001 1.1713174e-38
0.11649048 -0.24257429 1.439 7.9425036e-39
0.13182762 -0.24055144 1.427 5.9174214e-39
0.13454573 -0.24055144 1.427 3.8891175e-39
0.1372638 -0.24055144 1.427 3.06514e-39
0.13998191 -0.24055144 1.427 2.7885531e-39
0.1427 -0.24055144 1.427 5.2695464e-39
0.1548638 -0.24257429 1.439 6.5494925e-39
0.15826191 -0.24358572 1.4450001 6.918275e-39
0.10596667 -0.24083334 1.4450001 1.0878731e-38
0.13454573 -0.23783334 1.427 3.5214546e-39
0.1372638 -0.23783334 1.427 2.4211775e-39
0.13998191 -0.23783334 1.427 3.3431338e-39
0.1427 -0.23783334 1.427 7.0176705e-39
0.15550953 -0.24083334 1.4450001 7.6533163e-39
0.15826191 -0.24083334 1.4450001 7.8377075e-39
0.10596667 -0.23808096 1.4450001 1.0607179e-38
0.10826762 -0.23709239 1.439 9.9618098e-39
0.13454573 -0.23511524 1.427 7.4757998e-39
0.1372638 -0.23511524 1.427 6.0095918e-39
0.13998191 -0.23511524 1.427 8.3144825e-39
0.15550953 -0.23808096 1.4450001 9.5930244e-39
0.095811434 -0.23744573 1.4580001 4.6191071e-39
0.10596667 -0.23532858 1.4450001 9.3218354e-39
0.10826762 -0.23435143 1.439 8.0310965e-39
0.11327524 -0.2333743 1.4330001 1.0427807e-38
0.1372638 -0.23239715 1.427 7.9407156e-39
0.15148857 -0.2333743 1.4330001 1.0424195e-38
0.15550953 -0.23532858 1.4450001 1.0881605e-38
0.10871905 -0.23257619 1.4450001 3.2423286e-39
0.11100857 -0.23161046 1.439 3.5218022e-39
0.11649048 -0.23161046 1.439 1.1253277e-38
0.14541811 -0.22967905 1.427 8.2154752e-39
0.15550953 -0.23257619 1.4450001 9.5037029e-39
0.098588578 -0.23189144 1.4580001 7.9435182e-39
0.10648 -0.23093715 1.452 2.5105145e-39
0.10871905 -0.22982381 1.4450001 2.6027101e-39
0.11147143 -0.22982381 1.4450001 2.6034136e-39
0.11374953 -0.22886953 1.439 6.7522169e-39
0.11923143 -0.22886953 1.439 1.1161452e-38
0.12910953 -0.22696096 1.427 7.4703642e-39
0.096205719 -0.23005715 1.4640001 2.5933719e-39
0.098588578 -0.22911429 1.4580001 7.9407184e-39
0.10136572 -0.22911429 1.4580001 8.8590719e-39
0.10371429 -0.22817142 1.452 6.5541812e-39
0.10648 -0.22817142 1.452 3.5225112e-39
0.11649048 -0.22612856 1.439 9.962886e-39
0.12146382 -0.22518572 1.4330001 9.0390968e-39
0.15000476 -0.22707143 1.4450001 8.5835543e-39
0.15275714 -0.22707143 1.4450001 9.6899018e-39
0.098994292 -0.22726859 1.4640001 7.9406834e-39
0.10136572 -0.22633715 1.4580001 8.9519766e-39
0.10414286 -0.22633715 1.4580001 7.7534334e-39
0.10648 -0.22540572 1.452 3.7069193e-39
0.14664096 -0.22338763 1.439 8.12546e-39
0.098994292 -0.22448 1.4640001 8.1225663e-39
0.10178287 -0.22448 1.4640001 9.6866298e-39
0.10414286 -0.22356001 1.4580001 1.0239804e-38
0.10648 -0.22264001 1.452 7.6623364e-39
0.10871905 -0.22156666 1.4450001 4.8964675e-39
0.13349049 -0.22156666 1.4450001 9.5030148e-39
0.13624287 -0.22156666 1.4450001 1.1254732e-38
0.13899525 -0.22156666 1.4450001 1.1347956e-38
0.098994292 -0.22169144 1.4640001 7.565787e-39
0.10178287 -0.22169144 1.4640001 8.7592729e-39
0.10414286 -0.22078286 1.4580001 9.9578161e-39
0.13349049 -0.21881428 1.4450001 1.1345473e-38
0.13624287 -0.21881428 1.4450001 1.0423517e-38
0.13899525 -0.21881428 1.4450001 1.0425258e-38
0.15626286 -0.21987428 1.452 8.1153482e-39
0.15902856 -0.21987428 1.452 7.5621744e-39
0.10414286 -0.21800572 1.4580001 7.840569e-39
0.13073811 -0.21606191 1.4450001 1.1897903e-38
0.13349049 -0.21606191 1.4450001 8.7676316e-39
0.13624287 -0.21606191 1.4450001 5.4485889e-39
0.13899525 -0.21606191 1.4450001 4.0749535e-39
0.15275714 -0.21606191 1.4450001 6.2750159e-39
0.15690859 -0.21800572 1.4580001 5.5392936e-39
0.10414286 -0.21522857 1.4580001 5.3573756e-39
0.12798572 -0.21330953 1.4450001 1.3187938e-38
0.13349049 -0.21330953 1.4450001 7.7555957e-39
0.13624287 -0.21330953 1.4450001 4.9897268e-39
0.15349714 -0.21434285 1.452 7.0079216e-39
0.10414286 -0.21245143 1.4580001 4.9868359e-39
0.12248096 -0.21055715 1.4450001 8.9519738e-39
0.12523334 -0.21055715 1.4450001 1.1256865e-38
0.12798572 -0.21055715 1.4450001 1.1624202e-38
0.10178287 -0.21053715 1.4640001 6.3643501e-39
0.10457144 -0.21053715 1.4640001 6.4565457e-39
0.10692 -0.20967428 1.4580001 7.3792349e-39
0.13413715 -0.20881143 1.452 1.5017674e-39
0.10457144 -0.20774859 1.4640001 8.854365e-39
0.10692 -0.20689714 1.4580001 9.7759766e-39
0.13413715 -0.20604572 1.452 5.6415856e-39
0.13690285 -0.20604572 1.452 3.0601079e-39
0.15690859 -0.20689714 1.4580001 7.6587239e-39
0.10457144 -0.20496002 1.4640001 9.777766e-39
0.10736001 -0.20496002 1.4640001 1.0607527e-38
0.13137142 -0.20328 1.452 1.2173395e-38
0.13413715 -0.20328 1.452 9.7838995e-39
0.13690285 -0.20328 1.452 6.6492481e-39
0.15755428 -0.20496002 1.4640001 7.6608721e-39
0.10457144 -0.20217144 1.4640001 9.8714162e-39
0.10736001 -0.20217144 1.4640001 7.4761305e-39
0.10969715 -0.20134287 1.4580001 4.5258703e-39
0.12860571 -0.20051429 1.452 7.8423669e-39
0.13137142 -0.20051429 1.452 1.051604e-38
0.13413715 -0.20051429 1.452 1.1436597e-38
0.13690285 -0.20051429 1.452 1.2450748e-38
0.17219999 -0.20300001 1.47 1.8716101e-38
0.10736001 -0.19938287 1.4640001 6.3726486e-39
0.12860571 -0.19774857 1.452 6.7352724e-39
0.13137142 -0.19774857 1.452 7.7494243e-39
0.13413715 -0.19774857 1.452 1.1432608e-38
0.13690285 -0.19774857 1.452 1.392189e-38
0.13966858 -0.19774857 1.452 1.2359975e-38
0.15690859 -0.19856572 1.4580001 5.7301589e-39
0.10736001 -0.1965943 1.4640001 6.2811816e-39
0.11014858 -0.1965943 1.4640001 3.7918996e-39
0.12860571 -0.19498287 1.452 6.553077e-39
0.13137142 -0.19498287 1.452 6.2764901e-39
0.13413715 -0.19498287 1.452 7.7494622e-39
0.13690285 -0.19498287 1.452 1.2451439e-38
0.13966858 -0.19498287 1.452 1.1806789e-38
0.1078 -0.1946 1.47 6.2811872e-39
0.11293714 -0.19380572 1.4640001 1.1322562e-39
0.12080572 -0.19301143 1.4580001 9.5973306e-39
0.12358286 -0.19301143 1.4580001 7.9324087e-39
0.12860571 -0.19221714 1.452 7.2873952e-39
0.13137142 -0.19221714 1.452 7.3795908e-39
0.13413715 -0.19221714 1.452 7.1073228e-39
0.13690285 -0.19221714 1.452 1.1440517e-38
0.13966858 -0.19221714 1.452 1.1162871e-38
0.1078 -0.1918 1.47 7.1095158e-39
0.1106 -0.1918 1.47 4.3436469e-39
0.11802858 -0.19023429 1.4580001 1.0978445e-38
0.12080572 -0.19023429 1.4580001 1.1162836e-38
0.13137142 -0.18945143 1.452 8.8572643e-39
0.13413715 -0.18945143 1.452 9.5941259e-39
0.13690285 -0.18945143 1.452 1.2267799e-38
0.13966858 -0.18945143 1.452 1.1531293e-38
0.097454287 -0.19067143 1.483 1.3279796e-38
0.11572572 -0.18822858 1.4640001 9.4158387e-39
0.12409143 -0.18822858 1.4640001 1.0792649e-38
0.12636001 -0.18745714 1.4580001 7.8423893e-39
0.13137142 -0.18668571 1.452 1.023875e-38
0.13413715 -0.18668571 1.452 1.1711363e-38
0.13690285 -0.18668571 1.452 1.1526972e-38
0.15413144 -0.18745714 1.4580001 9.2249454e-39
0.097454287 -0.18784666 1.483 1.3463108e-38
0.12636001 -0.18468 1.4580001 1.1437315e-38
0.13137142 -0.18392 1.452 1.1898253e-38
0.13413715 -0.18392 1.452 8.6754094e-39
0.13690285 -0.18392 1.452 5.7251492e-39
0.15073143 -0.18392 1.452 6.6445692e-39
0.15413144 -0.18468 1.4580001 6.3679823e-39
0.097454287 -0.18502191 1.483 1.3005011e-38
0.11851429 -0.18265145 1.4640001 7.8488507e-39
0.14302287 -0.18190286 1.4580001 1.0341713e-38
0.14857715 -0.18190286 1.4580001 7.2881491e-39
0.15197715 -0.18265145 1.4640001 5.9065963e-39
0.15476573 -0.18265145 1.4640001 5.998792e-39
0.097848572 -0.1829343 1.4890001 1.346419e-38
0.10027905 -0.18219715 1.483 2.3085187e-39
0.1246 -0.1806 1.47 9.5959083e-39
0.12966858 -0.17986287 1.4640001 1.125541e-38
0.13245715 -0.17986287 1.4640001 6.1846504e-39
0.14024572 -0.17912571 1.4580001 4.9000451e-39
0.14857715 -0.17912571 1.4580001 6.5491113e-39
0.15197715 -0.17986287 1.4640001 4.8038767e-39
0.15476573 -0.17986287 1.4640001 5.3570505e-39
0.1582 -0.1806 1.47 4.8081927e-39
0.097848572 -0.1800981 1.4890001 1.3649331e-38
0.12966858 -0.1770743 1.4640001 9.6920724e-39
0.13245715 -0.1770743 1.4640001 4.6213128e-39
0.13524573 -0.1770743 1.4640001 1.8691107e-39
0.14024572 -0.17634858 1.4580001 3.5228587e-39
0.14580001 -0.17634858 1.4580001 9.4101003e-39
0.14857715 -0.17634858 1.4580001 6.0910577e-39
0.15476573 -0.1770743 1.4640001 6.4608099e-39
0.11675334 -0.17583334 1.4770001 8.9508696e-39
0.12688001 -0.17428572 1.4640001 1.1995155e-38
0.12966858 -0.17428572 1.4640001 1.2086247e-38
0.13245715 -0.17428572 1.4640001 7.1998785e-39
0.13524573 -0.17428572 1.4640001 1.3177657e-39
0.13803428 -0.17428572 1.4640001 1.0411788e-39
0.15539999 -0.175 1.47 8.8575698e-39
0.12688001 -0.17149715 1.4640001 1.245396e-38
0.12966858 -0.17149715 1.4640001 1.236213e-38
0.13245715 -0.17149715 1.4640001 9.0430877e-39
0.13524573 -0.17149715 1.4640001 5.1802319e-39
0.13803428 -0.17149715 1.4640001 4.4426668e-39
0.14918858 -0.17149715 1.4640001 9.4075542e-39
0.15197715 -0.17149715 1.4640001 8.3015317e-39
0.15539999 -0.17219999 1.47 9.1312924e-39
0.12688001 -0.16870858 1.4640001 1.2913502e-38
0.12966858 -0.16870858 1.4640001 1.263725e-38
0.13245715 -0.16870858 1.4640001 1.2176272e-38
0.13524573 -0.16870858 1.4640001 1.0888082e-38
0.13803428 -0.16870858 1.4640001 1.0242713e-38
0.147 -0.16940001 1.47 1.1990802e-38
0.15614 -0.17020668 1.4770001 9.8692386e-39
0.12688001 -0.16592002 1.4640001 1.2911694e-38
0.12966858 -0.16592002 1.4640001 1.2728014e-38
0.13245715 -0.16592002 1.4640001 1.2543622e-38
0.13524573 -0.16592002 1.4640001 1.2083376e-38
0.15051335 -0.16739334 1.4770001 1.1438712e-38
0.15332668 -0.16739334 1.4770001 1.1712069e-38
0.15614 -0.16739334 1.4770001 9.5915699e-39
0.10592858 -0.16524857 1.483 1.0608897e-38
0.1246 -0.1638 1.47 1.2174492e-38
0.12688001 -0.16313143 1.4640001 1.2543275e-38
0.12966858 -0.16313143 1.4640001 1.2543622e-38
0.13245715 -0.16313143 1.4640001 1.2451427e-38
0.13524573 -0.16313143 1.4640001 1.2175924e-38
0.15051335 -0.16458002 1.4770001 1.152947e-38
0.1567743 -0.16524857 1.483 8.9472795e-39
0.15959905 -0.16524857 1.483 5.5454173e-39
0.16591716 -0.16591716 1.4890001 2.0562888e-38
0.1246 -0.161 1.47 1.2267764e-38
0.1274 -0.161 1.47 1.235996e-38
0.12966858 -0.16034287 1.4640001 1.2543622e-38
0.13245715 -0.16034287 1.4640001 1.2543622e-38
0.13579999 -0.161 1.47 1.2359963e-38
0.13859999 -0.161 1.47 1.2267767e-38
0.1567743 -0.1624238 1.483 9.0387492e-39
0.16024476 -0.16308096 1.4890001 6.1889888e-39
0.1246 -0.1582 1.47 1.263547e-38
0.1274 -0.1582 1.47 1.263547e-38
0.1302 -0.1582 1.47 1.2543975e-38
0.133 -0.1582 1.47 1.2543975e-38
0.13579999 -0.1582 1.47 1.263547e-38
0.13859999 -0.1582 1.47 1.2358884e-38
0.16024476 -0.16024476 1.4890001 6.9265567e-39
0.1246 -0.15539999 1.47 1.2175571e-38
0.1274 -0.15539999 1.47 1.2175571e-38
0.1302 -0.15539999 1.47 1.2451067e-38
0.133 -0.15539999 1.47 1.2543262e-38
0.13579999 -0.15539999 1.47 1.2450716e-38
0.13859999 -0.15539999 1.47 1.2450716e-38
0.11112667 -0.15332668 1.4770001 1.106635e-38
0.11956668 -0.15332668 1.4770001 1.1620227e-38
0.1246 -0.15259999 1.47 1.1436208e-38
0.1274 -0.15259999 1.47 1.1436208e-38
0.1302 -0.15259999 1.47 1.1803912e-38
0.133 -0.15259999 1.47 1.2541477e-38
0.13579999 -0.15259999 1.47 1.2451064e-38
0.1498 -0.15259999 1.47 1.1528379e-38
0.1274 -0.1498 1.47 1.1895382e-38
0.1302 -0.1498 1.47 1.1803186e-38
0.133 -0.1498 1.47 1.2632947e-38
0.13579999 -0.1498 1.47 1.2175568e-38
