# .PCD v0.7 - Point Cloud Data file format
VERSION 0.7
FIELDS x y z rgb
SIZE 4 4 4 4
TYPE F F F F
COUNT 1 1 1 1
WIDTH 353
HEIGHT 1
VIEWPOINT 0 0 0 1 0 0 0
POINTS 353
DATA ascii
-0.077884771 -0.30125239 1.5430001 2.1663805e-38
-0.074605711 -0.29110858 1.536 1.2165099e-38
-0.088200003 -0.273 1.47 1.4654401e-38
-0.096599996 -0.27019998 1.47 1.3550912e-38
-0.093800001 -0.27019998 1.47 1.2725135e-38
-0.091000006 -0.27019998 1.47 1.2725135e-38
-0.088200003 -0.27019998 1.47 1.3736761e-38
-0.072031431 -0.2725895 1.483 1.143046e-38
-0.099399999 -0.26740003 1.47 1.3925127e-38
-0.096599996 -0.26740003 1.47 1.1251454e-38
-0.093800001 -0.26740003 1.47 7.2063553e-39
-0.091000006 -0.26740003 1.47 8.773681e-39
-0.088200003 -0.26740003 1.47 1.207906e-38
-0.0854 -0.26740003 1.47 1.3001016e-38
-0.099399999 -0.26460001 1.47 1.2629745e-38
-0.096599996 -0.26460001 1.47 1.3275114e-38
-0.093800001 -0.26460001 1.47 1.2542178e-38
-0.091000006 -0.26460001 1.47 1.3371938e-38
-0.088200003 -0.26460001 1.47 1.346271e-38
-0.0854 -0.26460001 1.47 1.1618798e-38
-0.099399999 -0.26180002 1.47 1.2994151e-38
-0.096599996 -0.26180002 1.47 1.4653672e-38
-0.093800001 -0.26180002 1.47 1.493207e-38
-0.091000006 -0.26180002 1.47 1.5300852e-38
-0.088200003 -0.26180002 1.47 1.3371238e-38
-0.0854 -0.26180002 1.47 1.0052195e-38
-0.099399999 -0.259 1.47 8.8489658e-39
-0.096599996 -0.259 1.47 1.2905573e-38
-0.093800001 -0.259 1.47 1.4104101e-38
-0.091000006 -0.259 1.47 1.4104101e-38
-0.088200003 -0.259 1.47 1.1898956e-38
-0.12852667 -0.25846571 1.483 4.1617541e-39
-0.1257019 -0.25846571 1.483 2.7788197e-39
-0.099399999 -0.25620002 1.47 8.5734159e-39
-0.096599996 -0.25620002 1.47 1.290661e-38
-0.093800001 -0.25620002 1.47 1.2448558e-38
-0.091000006 -0.25620002 1.47 1.2448558e-38
-0.088200003 -0.25620002 1.47 9.505135e-39
-0.077366672 -0.25742 1.4770001 1.1619521e-38
-0.074553341 -0.25742 1.4770001 1.1803912e-38
-0.12904668 -0.25667524 1.4890001 6.0953737e-39
-0.1257019 -0.25564095 1.483 3.0529179e-39
-0.12238 -0.25460669 1.4770001 2.2321451e-39
-0.09706001 -0.25460669 1.4770001 1.3643842e-38
-0.094246671 -0.25460669 1.4770001 1.4198102e-38
-0.091433339 -0.25460669 1.4770001 1.4474689e-38
-0.088620007 -0.25460669 1.4770001 1.2267035e-38
-0.077680953 -0.25564095 1.483 1.2354555e-38
-0.074856192 -0.25564095 1.483 1.2446751e-38
-0.12904668 -0.25383905 1.4890001 8.6743051e-39
-0.1257019 -0.2528162 1.483 4.2489149e-39
-0.12287714 -0.2528162 1.483 4.9889813e-39
-0.11675334 -0.25179335 1.4770001 1.3368344e-38
-0.11394001 -0.25179335 1.4770001 1.3644931e-38
-0.099873342 -0.25179335 1.4770001 1.050704e-38
-0.09706001 -0.25179335 1.4770001 1.4102669e-38
-0.094246671 -0.25179335 1.4770001 1.4749836e-38
-0.091433339 -0.25179335 1.4770001 1.4842032e-38
-0.088620007 -0.25179335 1.4770001 1.3188644e-38
-0.069206662 -0.2528162 1.483 1.1247135e-38
-0.12904668 -0.25100288 1.4890001 8.7607526e-39
-0.12621048 -0.25100288 1.4890001 1.0789057e-38
-0.11722762 -0.24999142 1.483 1.2541104e-38
-0.11440286 -0.24999142 1.483 1.2264517e-38
-0.11112667 -0.24898002 1.4770001 1.2724426e-38
-0.10831334 -0.24898002 1.4770001 1.3001013e-38
-0.099873342 -0.24898002 1.4770001 1.2815183e-38
-0.09706001 -0.24898002 1.4770001 1.2354205e-38
-0.094246671 -0.24898002 1.4770001 1.1342914e-38
-0.091433339 -0.24898002 1.4770001 1.1342914e-38
-0.088620007 -0.24898002 1.4770001 1.2726922e-38
-0.082993336 -0.24898002 1.4770001 1.3922934e-38
-0.080180004 -0.24898002 1.4770001 1.0511696e-38
-0.072031431 -0.24999142 1.483 8.7567898e-39
-0.06948667 -0.25100288 1.4890001 1.1614854e-38
-0.12904668 -0.24816668 1.4890001 9.770178e-39
-0.12621048 -0.24816668 1.4890001 1.3273612e-38
-0.12287714 -0.24716666 1.483 1.3183234e-38
-0.10875333 -0.24716666 1.483 1.3921527e-38
-0.10592858 -0.24716666 1.483 1.465513e-38
-0.10268667 -0.24616668 1.4770001 1.5208303e-38
-0.099873342 -0.24616668 1.4770001 1.3463786e-38
-0.09706001 -0.24616668 1.4770001 9.0383961e-39
-0.094246671 -0.24616668 1.4770001 7.4768213e-39
-0.091433339 -0.24616668 1.4770001 7.4768213e-39
-0.088620007 -0.24616668 1.4770001 1.1342173e-38
-0.085806675 -0.24616668 1.4770001 1.4661216e-38
-0.083330475 -0.24716666 1.483 1.4473998e-38
-0.080505721 -0.24716666 1.483 9.2188469e-39
-0.077680953 -0.24716666 1.483 7.6529155e-39
-0.074856192 -0.24716666 1.483 7.5607199e-39
-0.07232286 -0.24816668 1.4890001 8.4808741e-39
-0.1233743 -0.24533048 1.4890001 1.1895022e-38
-0.11722762 -0.24434192 1.483 8.9516081e-39
-0.10310381 -0.24434192 1.483 1.3829698e-38
-0.099873342 -0.24335335 1.4770001 1.1162476e-38
-0.09706001 -0.24335335 1.4770001 6.4604988e-39
-0.094246671 -0.24335335 1.4770001 4.3519033e-39
-0.091804765 -0.24434192 1.483 3.429947e-39
-0.088979997 -0.24434192 1.483 7.658679e-39
-0.086155243 -0.24434192 1.483 1.2268461e-38
-0.080505721 -0.24434192 1.483 8.6656605e-39
-0.077995241 -0.24533048 1.4890001 7.6525904e-39
-0.12621048 -0.2424943 1.4890001 1.1804907e-38
-0.11770191 -0.2424943 1.4890001 8.4920621e-39
-0.097454287 -0.24151714 1.483 5.0826188e-39
-0.094629526 -0.24151714 1.483 3.8934489e-39
-0.091804765 -0.24151714 1.483 2.6949057e-39
-0.086155243 -0.24151714 1.483 1.0156929e-38
-0.083330475 -0.24151714 1.483 1.1894331e-38
-0.080831431 -0.2424943 1.4890001 8.1143098e-39
-0.077995241 -0.2424943 1.4890001 7.7443923e-39
-0.075159051 -0.2424943 1.4890001 8.2975661e-39
-0.1268038 -0.24078476 1.4960001 1.2446032e-38
-0.11440286 -0.23869239 1.483 9.2289139e-39
-0.1115781 -0.23869239 1.483 9.9632391e-39
-0.10027905 -0.23869239 1.483 9.7824478e-39
-0.097454287 -0.23869239 1.483 4.988275e-39
-0.094629526 -0.23869239 1.483 2.0549439e-39
-0.091804765 -0.23869239 1.483 1.5017702e-39
-0.088979997 -0.23869239 1.483 7.2931405e-39
-0.086503811 -0.2396581 1.4890001 1.2456096e-38
-0.083667621 -0.2396581 1.4890001 1.3830386e-38
-0.078361914 -0.24078476 1.4960001 9.5879377e-39
-0.067277141 -0.24191143 1.503 8.3911938e-39
-0.1336543 -0.24000286 1.5090001 6.6305674e-39
-0.12395429 -0.23793525 1.4960001 1.2449252e-38
-0.11486572 -0.2368219 1.4890001 9.3193088e-39
-0.11202953 -0.2368219 1.4890001 9.9632419e-39
-0.10875333 -0.23586762 1.483 1.2729111e-38
-0.10027905 -0.23586762 1.483 1.1256849e-38
-0.097454287 -0.23586762 1.483 6.2782852e-39
-0.094629526 -0.23586762 1.483 2.3311273e-39
-0.092176192 -0.2368219 1.4890001 3.0686923e-39
-0.089340009 -0.2368219 1.4890001 8.5824654e-39
-0.12739713 -0.23618571 1.503 9.7741311e-39
-0.12110476 -0.23508573 1.4960001 1.20822e-38
-0.10919334 -0.23398572 1.4890001 1.4660502e-38
-0.10592858 -0.23304287 1.483 1.4106607e-38
-0.10310381 -0.23304287 1.483 1.235489e-38
-0.097454287 -0.23304287 1.483 1.2726594e-38
-0.094629526 -0.23304287 1.483 1.1808915e-38
-0.092176192 -0.23398572 1.4890001 1.1716719e-38
-0.12110476 -0.23223619 1.4960001 9.1341202e-39
-0.10635714 -0.23114954 1.4890001 1.1708823e-38
-0.10352096 -0.23114954 1.4890001 1.1155649e-38
-0.097454287 -0.2302181 1.483 1.3737114e-38
-0.092176192 -0.23114954 1.4890001 1.4934575e-38
-0.089340009 -0.23114954 1.4890001 1.3373401e-38
-0.10352096 -0.22831334 1.4890001 8.5734495e-39
-0.10027905 -0.22739333 1.483 8.9418845e-39
-0.092176192 -0.22831334 1.4890001 1.4842019e-38
-0.089340009 -0.22831334 1.4890001 1.2913101e-38
-0.07300286 -0.23046 1.503 5.2677262e-39
-0.058922861 -0.23138 1.5090001 2.1108471e-38
-0.056048572 -0.23138 1.5090001 2.1387566e-38
-0.10400762 -0.22653715 1.4960001 8.3897869e-39
-0.10068477 -0.22547714 1.4890001 8.1138796e-39
-0.097848572 -0.22547714 1.4890001 1.18939e-38
-0.095012389 -0.22547714 1.4890001 1.2907366e-38
-0.092176192 -0.22547714 1.4890001 1.4105909e-38
-0.059469528 -0.23062572 1.5230001 1.9083777e-38
-0.056568574 -0.23062572 1.5230001 1.8900104e-38
-0.11594572 -0.22473429 1.503 1.273054e-38
-0.11308286 -0.22473429 1.503 1.3829316e-38
-0.10068477 -0.22264096 1.4890001 8.9397139e-39
-0.097848572 -0.22264096 1.4890001 1.2350952e-38
-0.095012389 -0.22264096 1.4890001 1.3919707e-38
-0.092176192 -0.22264096 1.4890001 1.5210446e-38
-0.089340009 -0.22264096 1.4890001 1.2451767e-38
-0.064671434 -0.22563143 1.5090001 1.3465203e-38
-0.061797142 -0.22563143 1.5090001 1.5856213e-38
-0.056308571 -0.2266781 1.516 1.9452577e-38
-0.11594572 -0.22187142 1.503 1.282166e-38
-0.11308286 -0.22187142 1.503 1.3922597e-38
-0.097848572 -0.21980478 1.4890001 1.3272908e-38
-0.095012389 -0.21980478 1.4890001 1.4562565e-38
-0.092176192 -0.21980478 1.4890001 1.4931348e-38
-0.089340009 -0.21980478 1.4890001 1.2727663e-38
-0.077995241 -0.21980478 1.4890001 1.3272195e-38
-0.064671434 -0.22275715 1.5090001 1.3739985e-38
-0.061797142 -0.22275715 1.5090001 1.6317192e-38
-0.11594572 -0.21900856 1.503 1.2357086e-38
-0.10970667 -0.21798857 1.4960001 1.3739262e-38
-0.097848572 -0.21696858 1.4890001 1.456548e-38
-0.095012389 -0.21696858 1.4890001 1.3000994e-38
-0.092176192 -0.21696858 1.4890001 1.2079037e-38
-0.089340009 -0.21696858 1.4890001 1.3002811e-38
-0.070140004 -0.21900856 1.503 9.4968379e-39
-0.067277141 -0.21900856 1.503 8.3004457e-39
-0.061797142 -0.21988288 1.5090001 1.6224633e-38
-0.11640857 -0.21700858 1.5090001 1.0514968e-38
-0.11308286 -0.21614571 1.503 1.1893927e-38
-0.10735714 -0.21614571 1.503 1.4932442e-38
-0.098308578 -0.21513906 1.4960001 1.1618091e-38
-0.095459051 -0.21513906 1.4960001 1.0055425e-38
-0.092609525 -0.21513906 1.4960001 9.4100555e-39
-0.070140004 -0.21614571 1.503 9.5883105e-39
-0.067277141 -0.21614571 1.503 7.6546966e-39
-0.064671434 -0.21700858 1.5090001 1.3923999e-38
-0.061797142 -0.21700858 1.5090001 1.6316831e-38
-0.11353429 -0.21413429 1.5090001 9.5951824e-39
-0.1011581 -0.21228953 1.4960001 1.2724812e-38
-0.098308578 -0.21228953 1.4960001 8.1150301e-39
-0.095459051 -0.21228953 1.4960001 5.2698968e-39
-0.092609525 -0.21228953 1.4960001 4.1635492e-39
-0.089759998 -0.21228953 1.4960001 8.9479703e-39
-0.070140004 -0.21328285 1.503 9.4049982e-39
-0.067545719 -0.21413429 1.5090001 8.4833782e-39
-0.064671434 -0.21413429 1.5090001 1.456829e-38
-0.10400762 -0.20943999 1.4960001 1.4111677e-38
-0.1011581 -0.20943999 1.4960001 1.1255795e-38
-0.098308578 -0.20943999 1.4960001 5.5396663e-39
-0.095459051 -0.20943999 1.4960001 1.6865117e-39
-0.092609525 -0.20943999 1.4960001 1.6865117e-39
-0.089759998 -0.20943999 1.4960001 5.4538873e-39
-0.083667621 -0.20846 1.4890001 1.226276e-38
-0.07300286 -0.21042001 1.503 1.0509538e-38
-0.070420004 -0.21126001 1.5090001 9.2187993e-39
-0.067545719 -0.21126001 1.5090001 8.7581602e-39
-0.09876857 -0.20755714 1.503 5.9988172e-39
-0.095459051 -0.20659049 1.4960001 1.8712715e-39
-0.092609525 -0.20659049 1.4960001 1.6868803e-39
-0.089759998 -0.20659049 1.4960001 7.0165691e-39
-0.075865716 -0.20755714 1.503 1.1341457e-38
-0.07300286 -0.20755714 1.503 1.0973026e-38
-0.11022 -0.20469429 1.503 9.3229144e-39
-0.09876857 -0.20469429 1.503 7.4728557e-39
-0.095905714 -0.20469429 1.503 3.5250167e-39
-0.092609525 -0.20374095 1.4960001 3.3406255e-39
-0.089759998 -0.20374095 1.4960001 7.5690268e-39
-0.081211433 -0.20374095 1.4960001 1.0327327e-38
-0.075865716 -0.20469429 1.503 1.1062757e-38
-0.073294282 -0.20551144 1.5090001 1.0972674e-38
-0.067545719 -0.20551144 1.5090001 8.9447221e-39
-0.11066001 -0.20263715 1.5090001 1.3648881e-38
-0.09876857 -0.20183143 1.503 1.3646363e-38
-0.095905714 -0.20183143 1.503 1.1991886e-38
-0.093042858 -0.20183143 1.503 1.1254321e-38
-0.079042859 -0.20263715 1.5090001 1.2909536e-38
-0.076168574 -0.20263715 1.5090001 9.9592762e-39
-0.070420004 -0.20263715 1.5090001 6.0881486e-39
-0.13779525 -0.20161621 1.5230001 2.3326213e-38
-0.10735714 -0.19896857 1.503 1.4013723e-38
-0.10449429 -0.19896857 1.503 1.1063463e-38
-0.10163143 -0.19896857 1.503 1.1708084e-38
-0.09876857 -0.19896857 1.503 1.3736388e-38
-0.095905714 -0.19896857 1.503 1.520902e-38
-0.093042858 -0.19896857 1.503 1.5024628e-38
-0.090180002 -0.19896857 1.503 1.3095377e-38
-0.073634289 -0.20068952 1.516 5.3544525e-39
-0.13779525 -0.19871525 1.5230001 2.3233302e-38
-0.11928286 -0.19688857 1.5090001 1.8640759e-39
-0.10491143 -0.19688857 1.5090001 8.2036132e-39
-0.10203715 -0.19688857 1.5090001 8.3894366e-39
-0.099162862 -0.19688857 1.5090001 1.1616284e-38
-0.095905714 -0.1961057 1.503 1.4103032e-38
-0.093042858 -0.1961057 1.503 1.5393771e-38
-0.090180002 -0.1961057 1.503 1.2910613e-38
-0.081591427 -0.1961057 1.503 1.2635824e-38
-0.06527143 -0.19871525 1.5230001 1.4015835e-38
-0.062370483 -0.19871525 1.5230001 1.769903e-38
-0.11694857 -0.19491428 1.516 6.5702723e-39
-0.099162862 -0.1940143 1.5090001 1.0142897e-38
-0.096288577 -0.1940143 1.5090001 1.2261653e-38
-0.093414292 -0.1940143 1.5090001 1.4658739e-38
-0.090539999 -0.1940143 1.5090001 1.2267417e-38
-0.087317139 -0.19324285 1.503 9.5015477e-39
-0.084454283 -0.19324285 1.503 9.5036903e-39
-0.081917144 -0.1940143 1.5090001 1.1900777e-38
-0.099162862 -0.19114001 1.5090001 1.0142226e-38
-0.096288577 -0.19114001 1.5090001 1.2998852e-38
-0.093414292 -0.19114001 1.5090001 1.5027156e-38
-0.11353429 -0.18826571 1.5090001 1.2815546e-38
-0.099162862 -0.18826571 1.5090001 1.1064517e-38
-0.096288577 -0.18826571 1.5090001 1.3825382e-38
-0.093414292 -0.18826571 1.5090001 1.511612e-38
-0.10203715 -0.18539144 1.5090001 1.1524066e-38
-0.099162862 -0.18539144 1.5090001 1.4566521e-38
-0.096288577 -0.18539144 1.5090001 1.290847e-38
-0.093414292 -0.18539144 1.5090001 1.1802122e-38
-0.090539999 -0.18539144 1.5090001 1.2819846e-38
-0.073974289 -0.18421049 1.5230001 1.1617002e-38
-0.12038954 -0.17840858 1.5230001 1.0145107e-38
-0.11748858 -0.17840858 1.5230001 9.7763241e-39
-0.099622861 -0.17758857 1.516 6.7367802e-39
-0.096735239 -0.17758857 1.516 1.2287734e-39
-0.093847618 -0.17758857 1.516 1.0443821e-39
-0.076521903 -0.17758857 1.516 1.1617256e-38
-0.12377618 -0.17619905 1.529 1.0420528e-38
-0.12038954 -0.17550763 1.5230001 1.1342198e-38
-0.11406095 -0.17470096 1.516 9.7813562e-39
-0.099622861 -0.17470096 1.516 6.9218595e-39
-0.096735239 -0.17470096 1.516 1.1366002e-39
-0.093847618 -0.17470096 1.516 5.8342641e-40
-0.13019428 -0.17408 1.536 9.0341151e-39
-0.12726857 -0.17408 1.536 6.3639129e-39
-0.12434285 -0.17408 1.536 1.0881483e-38
-0.12038954 -0.17260668 1.5230001 1.263006e-38
-0.10251047 -0.17181334 1.516 1.3375566e-38
-0.093847618 -0.17181334 1.516 1.7765466e-39
-0.090960003 -0.17181334 1.516 6.555951e-39
-0.12434285 -0.17115429 1.536 1.3642044e-38
-0.12086381 -0.17037429 1.529 1.4013345e-38
-0.11748858 -0.16970572 1.5230001 1.4289932e-38
-0.090960003 -0.16892572 1.516 1.1435505e-38
-0.068440951 -0.17037429 1.529 1.2257662e-38
-0.065828577 -0.17115429 1.536 1.5484509e-38
-0.06290286 -0.17115429 1.536 1.5945856e-38
-0.12434285 -0.16822857 1.536 1.4010434e-38
-0.12086381 -0.16746192 1.529 1.4195584e-38
-0.11795143 -0.16746192 1.529 1.4564366e-38
-0.11458763 -0.16680478 1.5230001 1.4013713e-38
-0.10251047 -0.1660381 1.516 1.6407563e-38
-0.099622861 -0.1660381 1.516 1.6315367e-38
-0.090960003 -0.1660381 1.516 1.4014086e-38
-0.068440951 -0.16746192 1.529 1.2072884e-38
-0.065828577 -0.16822857 1.536 1.5760709e-38
-0.12784858 -0.1660562 1.5430001 1.115134e-38
-0.12490954 -0.1660562 1.5430001 1.3732817e-38
-0.12086381 -0.16454953 1.529 1.3734237e-38
-0.11503904 -0.16454953 1.529 1.4564363e-38
-0.10251047 -0.16315047 1.516 1.6131326e-38
-0.099622861 -0.16315047 1.516 1.6407913e-38
-0.096735239 -0.16315047 1.516 1.5855831e-38
-0.093847618 -0.16315047 1.516 1.5579244e-38
-0.071073338 -0.16390382 1.5230001 1.2166551e-38
-0.068440951 -0.16454953 1.529 1.2257291e-38
-0.066128574 -0.1660562 1.5430001 1.5760725e-38
-0.12490954 -0.16311716 1.5430001 1.3456921e-38
-0.12141714 -0.16237715 1.536 1.3458016e-38
-0.099622861 -0.16026285 1.516 1.4932417e-38
-0.096735239 -0.16026285 1.516 1.456366e-38
-0.093847618 -0.16026285 1.516 1.4379269e-38
-0.08518476 -0.16026285 1.516 1.6129897e-38
-0.071353339 -0.16163716 1.529 1.1704501e-38
-0.068754286 -0.16237715 1.536 1.2255836e-38
-0.12490954 -0.16017811 1.5430001 1.2903069e-38
-0.12141714 -0.15945143 1.536 1.3272911e-38
-0.11795143 -0.15872477 1.529 1.4379259e-38
-0.11503904 -0.15872477 1.529 1.4471452e-38
-0.11168668 -0.15810192 1.5230001 1.5485604e-38
-0.099622861 -0.15737525 1.516 1.0783624e-38
-0.096735239 -0.15737525 1.516 9.9560364e-39
-0.073974289 -0.15810192 1.5230001 1.2994889e-38
-0.071353339 -0.15872477 1.529 1.0966586e-38
-0.068754286 -0.15945143 1.536 1.1702672e-38
-0.11795143 -0.1558124 1.529 1.4654761e-38
-0.11503904 -0.1558124 1.529 1.4471815e-38
-0.11168668 -0.15520096 1.5230001 1.520938e-38
-0.10878572 -0.15520096 1.5230001 1.5485979e-38
-0.1053981 -0.15448762 1.516 1.4932805e-38
-0.080090478 -0.1558124 1.529 1.4009397e-38
