# .PCD v0.7 - Point Cloud Data file format
VERSION 0.7
FIELDS x y z rgb
SIZE 4 4 4 4
TYPE F F F F
COUNT 1 1 1 1
WIDTH 770
HEIGHT 1
VIEWPOINT 0 0 0 1 0 0 0
POINTS 770
DATA ascii
-0.046428572 -0.18928571 1.25 1.5392695e-38
-0.04404762 -0.18928571 1.25 1.5669282e-38
-0.041666668 -0.18928571 1.25 1.5761127e-38
-0.032142855 -0.18928571 1.25 1.5392329e-38
-0.029880956 -0.19004287 1.2550001 1.5484525e-38
-0.020383811 -0.19064859 1.2590001 1.5485944e-38
-0.051190477 -0.18690476 1.25 1.6500144e-38
-0.048809525 -0.18690476 1.25 1.53016e-38
-0.046428572 -0.18690476 1.25 1.4566912e-38
-0.04404762 -0.18690476 1.25 1.5396673e-38
-0.041666668 -0.18690476 1.25 1.6224263e-38
-0.032142855 -0.18690476 1.25 1.520902e-38
-0.0060619046 -0.19034381 1.273 1.1710627e-38
-0.060714286 -0.18452381 1.25 1.4845647e-38
-0.058333334 -0.18452381 1.25 1.2540757e-38
-0.053571429 -0.18452381 1.25 1.5490623e-38
-0.051190477 -0.18452381 1.25 1.5674336e-38
-0.048809525 -0.18452381 1.25 1.4291402e-38
-0.046428572 -0.18452381 1.25 1.1992985e-38
-0.04404762 -0.18452381 1.25 1.3560311e-38
-0.041666668 -0.18452381 1.25 1.493749e-38
-0.03227143 -0.18526192 1.2550001 1.3920063e-38
-0.027687619 -0.18659049 1.2640001 1.3829698e-38
-0.0060619046 -0.18791905 1.273 1.2538887e-38
-0.070743814 -0.18345429 1.2590001 1.2076896e-38
-0.068128571 -0.18287145 1.2550001 1.3828613e-38
-0.065738104 -0.18287145 1.2550001 1.4382843e-38
-0.060714286 -0.18214285 1.25 1.1254707e-38
-0.058333334 -0.18214285 1.25 6.4605338e-39
-0.051190477 -0.18214285 1.25 1.3462004e-38
-0.048809525 -0.18214285 1.25 1.5398112e-38
-0.046428572 -0.18214285 1.25 1.5674667e-38
-0.04404762 -0.18214285 1.25 1.6320036e-38
-0.041666668 -0.18214285 1.25 1.5488513e-38
-0.039285716 -0.18214285 1.25 1.2261666e-38
-0.03690476 -0.18214285 1.25 8.9437076e-39
-0.034523807 -0.18214285 1.25 8.3905338e-39
-0.03227143 -0.18287145 1.2550001 1.0783626e-38
-0.029880956 -0.18287145 1.2550001 1.4655843e-38
-0.020464763 -0.18418287 1.2640001 1.115817e-38
-0.089199059 -0.18450764 1.2830001 9.3110454e-39
-0.073432386 -0.18177524 1.2640001 8.3062261e-39
-0.070743814 -0.1810562 1.2590001 1.2077249e-38
-0.068128571 -0.18048097 1.2550001 1.5027509e-38
-0.060957149 -0.18048097 1.2550001 7.3929172e-39
-0.058566671 -0.18048097 1.2550001 4.3504614e-39
-0.051395241 -0.18048097 1.2550001 1.1896075e-38
-0.048809525 -0.1797619 1.25 1.5952683e-38
-0.046428572 -0.1797619 1.25 1.6778886e-38
-0.044223815 -0.18048097 1.2550001 1.668669e-38
-0.041833337 -0.18048097 1.2550001 1.4844929e-38
-0.03944286 -0.18048097 1.2550001 9.6819733e-39
-0.037052382 -0.18048097 1.2550001 9.3113677e-39
-0.034661908 -0.18048097 1.2550001 9.3113677e-39
-0.03227143 -0.18048097 1.2550001 9.9542035e-39
-0.020464763 -0.18177524 1.2640001 1.0326636e-38
-0.089199059 -0.18206383 1.2830001 1.2444612e-38
-0.078804761 -0.18064477 1.273 8.3008437e-39
-0.076080002 -0.17993525 1.268 7.5683261e-39
-0.073432386 -0.17936763 1.2640001 7.7527174e-39
-0.070743814 -0.1786581 1.2590001 1.1432586e-38
-0.068345711 -0.1786581 1.2590001 1.5304802e-38
-0.065738104 -0.17809048 1.2550001 1.4016578e-38
-0.055952381 -0.17738095 1.25 5.2760274e-39
-0.053571429 -0.17738095 1.25 4.1696799e-39
-0.049004767 -0.17809048 1.2550001 1.1536688e-38
-0.046614289 -0.17809048 1.2550001 1.4474373e-38
-0.034661908 -0.17809048 1.2550001 1.0142226e-38
-0.032374285 -0.1786581 1.2590001 9.3117432e-39
-0.029976193 -0.1786581 1.2590001 8.3897869e-39
-0.020464763 -0.17936763 1.2640001 1.0143658e-38
-0.018114286 -0.17993525 1.268 8.1247341e-39
-0.015699048 -0.17993525 1.268 8.1247341e-39
-0.086417146 -0.17892002 1.2780001 4.2420682e-39
-0.081229523 -0.17821999 1.273 8.3008465e-39
-0.078804761 -0.17821999 1.273 8.0242596e-39
-0.076080002 -0.17751999 1.268 7.1998939e-39
-0.073432386 -0.17696001 1.2640001 7.7530677e-39
-0.071024768 -0.17696001 1.2640001 1.0327693e-38
-0.068345711 -0.17626001 1.2590001 1.4568692e-38
-0.065738104 -0.17570001 1.2550001 1.0795183e-38
-0.063347623 -0.17570001 1.2550001 5.0790539e-39
-0.060957149 -0.17570001 1.2550001 2.3326e-39
-0.058566671 -0.17570001 1.2550001 3.9921214e-39
-0.051395241 -0.17570001 1.2550001 3.4353098e-39
-0.049004767 -0.17570001 1.2550001 9.3358301e-39
-0.046614289 -0.17570001 1.2550001 1.3373424e-38
-0.044223815 -0.17570001 1.2550001 1.2543663e-38
-0.041833337 -0.17570001 1.2550001 9.589049e-39
-0.034661908 -0.17570001 1.2550001 1.0232623e-38
-0.032374285 -0.17626001 1.2590001 9.0369542e-39
-0.029976193 -0.17626001 1.2590001 8.3915848e-39
-0.025280001 -0.17696001 1.2640001 1.5487023e-38
-0.022944763 -0.17751999 1.268 1.2636552e-38
-0.020529523 -0.17751999 1.268 9.2253139e-39
-0.018114286 -0.17751999 1.268 8.2161912e-39
-0.015760953 -0.17821999 1.273 8.4005825e-39
-0.086755246 -0.17717621 1.2830001 6.1757297e-39
-0.079114296 -0.17648572 1.2780001 9.406485e-39
-0.076080002 -0.17510477 1.268 8.3977084e-39
-0.073432386 -0.1745524 1.2640001 8.766491e-39
-0.071024768 -0.1745524 1.2640001 1.1063122e-38
-0.068345711 -0.17386191 1.2590001 1.5027535e-38
-0.065947622 -0.17386191 1.2590001 1.3923325e-38
-0.061151426 -0.17386191 1.2590001 4.3544369e-39
-0.058753334 -0.17386191 1.2590001 3.7090675e-39
-0.056176193 -0.17330955 1.2550001 3.6208403e-39
-0.053785719 -0.17330955 1.2550001 2.3301015e-39
-0.05155905 -0.17386191 1.2590001 5.4571593e-39
-0.049004767 -0.17330955 1.2550001 1.135768e-38
-0.046614289 -0.17330955 1.2550001 1.4385402e-38
-0.044364765 -0.17386191 1.2590001 1.4108815e-38
-0.037052382 -0.17330955 1.2550001 8.8522126e-39
-0.034661908 -0.17330955 1.2550001 8.9444082e-39
-0.032374285 -0.17386191 1.2590001 1.0047509e-38
-0.025280001 -0.1745524 1.2640001 1.5764339e-38
-0.022944763 -0.17510477 1.268 1.4383948e-38
-0.018185714 -0.17579524 1.273 1.0515674e-38
-0.013388573 -0.17648572 1.2780001 1.1065596e-38
-0.084311433 -0.17473239 1.2830001 8.4787736e-39
-0.081548579 -0.17405143 1.2780001 9.8673917e-39
-0.079114296 -0.17405143 1.2780001 1.032837e-38
-0.076080002 -0.17268953 1.268 9.0405541e-39
-0.073664762 -0.17268953 1.268 1.0054706e-38
-0.071024768 -0.17214477 1.2640001 1.2353849e-38
-0.068617143 -0.17214477 1.2640001 1.4382153e-38
-0.066209525 -0.17214477 1.2640001 1.3556332e-38
-0.05155905 -0.17146382 1.2590001 8.0328888e-39
-0.049160954 -0.17146382 1.2590001 1.3011453e-38
-0.046762858 -0.17146382 1.2590001 1.5857989e-38
-0.039568573 -0.17146382 1.2590001 9.0384311e-39
-0.037170477 -0.17146382 1.2590001 8.5748816e-39
-0.034772381 -0.17146382 1.2590001 8.9436641e-39
-0.032374285 -0.17146382 1.2590001 1.0783626e-38
-0.029976193 -0.17146382 1.2590001 1.493243e-38
-0.025280001 -0.17214477 1.2640001 1.4565092e-38
-0.022944763 -0.17268953 1.268 1.420026e-38
-0.087093338 -0.17296001 1.2880001 1.2537925e-38
-0.084311433 -0.17228858 1.2830001 5.8998393e-39
-0.081548579 -0.17161715 1.2780001 6.6419768e-39
-0.079114296 -0.17161715 1.2780001 1.0698584e-38
-0.076080002 -0.17027427 1.268 1.069792e-38
-0.073664762 -0.17027427 1.268 1.1804268e-38
-0.071024768 -0.16973716 1.2640001 1.2079413e-38
-0.068617143 -0.16973716 1.2640001 1.0604283e-38
-0.066209525 -0.16973716 1.2640001 1.1801015e-38
-0.061394289 -0.16973716 1.2640001 1.2820973e-38
-0.058986671 -0.16973716 1.2640001 8.1189958e-39
-0.05657905 -0.16973716 1.2640001 6.1954376e-39
-0.054171428 -0.16973716 1.2640001 1.015985e-38
-0.05155905 -0.16906573 1.2590001 1.3927278e-38
-0.049160954 -0.16906573 1.2590001 1.4388257e-38
-0.046762858 -0.16906573 1.2590001 1.4661941e-38
-0.044364765 -0.16906573 1.2590001 1.5307311e-38
-0.034772381 -0.16906573 1.2590001 1.198612e-38
-0.032374285 -0.16906573 1.2590001 1.2907038e-38
-0.03009524 -0.16973716 1.2640001 1.4843146e-38
-0.027687619 -0.16973716 1.2640001 1.1345104e-38
-0.025280001 -0.16973716 1.2640001 7.4728879e-39
-0.022944763 -0.17027427 1.268 1.0054353e-38
-0.020529523 -0.17027427 1.268 1.4018765e-38
-0.087093338 -0.17050667 1.2880001 1.3280502e-38
-0.084311433 -0.16984478 1.2830001 3.3233741e-39
-0.08186762 -0.16984478 1.2830001 3.5076855e-39
-0.079114296 -0.16918287 1.2780001 9.408196e-39
-0.07638 -0.16852096 1.273 1.1524791e-38
-0.073664762 -0.16785905 1.268 1.2354552e-38
-0.07124953 -0.16785905 1.268 1.1345085e-38
-0.068834282 -0.16785905 1.268 8.1182377e-39
-0.066209525 -0.16732953 1.2640001 1.0505924e-38
-0.063801907 -0.16732953 1.2640001 1.5484488e-38
-0.049356192 -0.16732953 1.2640001 1.3465228e-38
-0.046948571 -0.16732953 1.2640001 1.254506e-38
-0.044540953 -0.16732953 1.2640001 1.3190429e-38
-0.042133335 -0.16732953 1.2640001 1.5672894e-38
-0.039568573 -0.16666763 1.2590001 1.5857285e-38
-0.037170477 -0.16666763 1.2590001 1.4749856e-38
-0.034910478 -0.16732953 1.2640001 1.4934247e-38
-0.03250286 -0.16732953 1.2640001 1.4017326e-38
-0.03009524 -0.16732953 1.2640001 1.2081218e-38
-0.027775237 -0.16785905 1.268 8.1268795e-39
-0.025359999 -0.16785905 1.268 3.7936849e-39
-0.022944763 -0.16785905 1.268 7.3842446e-39
-0.020610476 -0.16852096 1.273 1.3192569e-38
-0.08186762 -0.16740096 1.2830001 8.4445609e-40
-0.079423815 -0.16740096 1.2830001 4.9010624e-39
-0.076680005 -0.16674858 1.2780001 1.0052516e-38
-0.073664762 -0.16544381 1.268 1.1066668e-38
-0.066419043 -0.16544381 1.268 7.742635e-39
-0.063801907 -0.16492191 1.2640001 1.0877286e-38
-0.061394289 -0.16492191 1.2640001 1.2446397e-38
-0.03009524 -0.16492191 1.2640001 7.2895686e-39
-0.027775237 -0.16544381 1.268 2.515206e-39
-0.010911428 -0.1660962 1.273 5.1636335e-39
-0.0060857143 -0.16674858 1.2780001 1.6778526e-38
-0.089824766 -0.1661143 1.2920001 1.945076e-38
-0.079423815 -0.16495715 1.2830001 2.3181638e-39
-0.076680005 -0.1643143 1.2780001 7.7476545e-39
-0.073955238 -0.16367142 1.273 1.0144741e-38
-0.07124953 -0.16302858 1.268 1.0322648e-38
-0.06400381 -0.16302858 1.268 8.5745061e-39
-0.06158857 -0.16302858 1.268 1.1337492e-38
-0.058986671 -0.1625143 1.2640001 1.6961426e-38
-0.05657905 -0.1625143 1.2640001 1.6134967e-38
-0.049356192 -0.1625143 1.2640001 1.006119e-38
-0.046948571 -0.1625143 1.2640001 1.0154833e-38
-0.044540953 -0.1625143 1.2640001 9.8782461e-39
-0.03009524 -0.1625143 1.2640001 4.8067578e-39
-0.027775237 -0.16302858 1.268 2.8832599e-39
-0.022944763 -0.16302858 1.268 4.1689344e-39
-0.090172388 -0.16428667 1.2970001 1.9911735e-38
-0.079423815 -0.16251335 1.2830001 1.859041e-39
-0.076680005 -0.16188002 1.2780001 5.814105e-39
-0.074245721 -0.16188002 1.2780001 9.2253433e-39
-0.071530476 -0.16124667 1.273 9.9560336e-39
-0.059173334 -0.16061333 1.268 1.4106593e-38
-0.056758095 -0.16061333 1.268 1.502932e-38
-0.054171428 -0.16010667 1.2640001 1.2816625e-38
-0.049356192 -0.16010667 1.2640001 1.0429259e-38
-0.046948571 -0.16010667 1.2640001 1.0522524e-38
-0.044540953 -0.16010667 1.2640001 1.0430328e-38
-0.042133335 -0.16010667 1.2640001 1.116359e-38
-0.03009524 -0.16010667 1.2640001 4.7149153e-39
-0.027775237 -0.16061333 1.268 1.6908432e-39
-0.025359999 -0.16061333 1.268 1.5064519e-39
-0.023035238 -0.16124667 1.273 5.454288e-39
-0.015760953 -0.16124667 1.273 1.014367e-38
-0.013388573 -0.16188002 1.2780001 7.4699522e-39
-0.07698001 -0.16006954 1.2830001 4.8038767e-39
-0.074245721 -0.15944573 1.2780001 9.1370713e-39
-0.071530476 -0.15882191 1.273 1.0234444e-38
-0.056758095 -0.15819809 1.268 1.4478667e-38
-0.054171428 -0.15769906 1.2640001 1.3003537e-38
-0.05176381 -0.15769906 1.2640001 1.0245231e-38
-0.049356192 -0.15769906 1.2640001 1.0429622e-38
-0.046948571 -0.15769906 1.2640001 1.098171e-38
-0.044540953 -0.15769906 1.2640001 1.0520732e-38
-0.042133335 -0.15769906 1.2640001 1.0887719e-38
-0.03250286 -0.15769906 1.2640001 9.7853442e-39
-0.030190477 -0.15819809 1.268 4.1614108e-39
-0.027884761 -0.15882191 1.273 1.8719722e-39
-0.025459999 -0.15882191 1.273 1.8719722e-39
-0.07698001 -0.15762573 1.2830001 8.2068432e-39
-0.074245721 -0.15701143 1.2780001 1.3277603e-38
-0.071811438 -0.15701143 1.2780001 1.2723685e-38
-0.069377147 -0.15701143 1.2780001 8.2982947e-39
-0.066419043 -0.15578286 1.268 7.7462154e-39
-0.06400381 -0.15578286 1.268 1.0051106e-38
-0.054342858 -0.15578286 1.268 1.5305175e-38
-0.051927619 -0.15578286 1.268 1.2361414e-38
-0.049512379 -0.15578286 1.268 1.097848e-38
-0.044540953 -0.15529144 1.2640001 1.0152682e-38
-0.042133335 -0.15529144 1.2640001 1.2083038e-38
-0.034910478 -0.15529144 1.2640001 1.5674311e-38
-0.032605715 -0.15578286 1.268 1.3741124e-38
-0.030190477 -0.15578286 1.268 1.0145495e-38
-0.027884761 -0.15639713 1.273 7.5747525e-39
-0.074536197 -0.15518191 1.2830001 1.4101227e-38
-0.072092384 -0.15518191 1.2830001 1.2722987e-38
-0.069377147 -0.15457715 1.2780001 8.6663794e-39
-0.066680953 -0.15397239 1.273 8.0224141e-39
-0.064256191 -0.15397239 1.273 1.1525848e-38
-0.049512379 -0.15336761 1.268 1.2267048e-38
-0.037318096 -0.15288381 1.2640001 1.521154e-38
-0.035020951 -0.15336761 1.268 1.5303736e-38
-0.032605715 -0.15336761 1.268 1.5397021e-38
-0.027884761 -0.15397239 1.273 1.1157469e-38
-0.023216194 -0.15518191 1.2830001 1.2726221e-38
-0.074826673 -0.15333335 1.2880001 1.0879072e-38
-0.072092384 -0.15273811 1.2830001 1.0880163e-38
-0.069377147 -0.15214287 1.2780001 1.2263098e-38
-0.066680953 -0.15154761 1.273 1.309246e-38
-0.06158857 -0.15095238 1.268 1.4107013e-38
-0.059173334 -0.15095238 1.268 1.0511384e-38
-0.051927619 -0.15095238 1.268 1.1990126e-38
-0.049512379 -0.15095238 1.268 1.4940386e-38
-0.047097143 -0.15095238 1.268 1.5307326e-38
-0.044540953 -0.15047619 1.2640001 1.5768304e-38
-0.042133335 -0.15047619 1.2640001 1.5304477e-38
-0.039725717 -0.15047619 1.2640001 1.2907391e-38
-0.037318096 -0.15047619 1.2640001 1.0231942e-38
-0.035020951 -0.15095238 1.268 9.7709641e-39
-0.027884761 -0.15154761 1.273 1.5212282e-38
-0.023216194 -0.15273811 1.2830001 1.2728019e-38
-0.0184 -0.15333335 1.2880001 9.6862893e-39
-0.074826673 -0.15088001 1.2880001 8.4848692e-39
-0.072092384 -0.1502943 1.2830001 9.3156991e-39
-0.069648571 -0.1502943 1.2830001 1.2358155e-38
-0.066680953 -0.14912285 1.273 1.4748401e-38
-0.061831426 -0.14912285 1.273 1.2820225e-38
-0.059406664 -0.14912285 1.273 6.9197043e-39
-0.056758095 -0.14853714 1.268 2.4236858e-39
-0.049512379 -0.14853714 1.268 1.558534e-38
-0.047097143 -0.14853714 1.268 1.6411175e-38
-0.044681903 -0.14853714 1.268 1.631898e-38
-0.042266667 -0.14853714 1.268 1.557998e-38
-0.039851431 -0.14853714 1.268 1.050922e-38
-0.037436187 -0.14853714 1.268 1.0138257e-38
-0.032605715 -0.14853714 1.268 1.0507013e-38
-0.030190477 -0.14853714 1.268 1.4655816e-38
-0.023216194 -0.1502943 1.2830001 1.2084092e-38
-0.020772383 -0.1502943 1.2830001 9.4104184e-39
-0.0184 -0.15088001 1.2880001 8.5849766e-39
-0.015946668 -0.15088001 1.2880001 9.230346e-39
-0.077520005 -0.14888762 1.2920001 9.7763269e-39
-0.074826673 -0.14842667 1.2880001 8.5777837e-39
-0.072092384 -0.14785048 1.2830001 8.1218348e-39
-0.069648571 -0.14785048 1.2830001 1.0795508e-38
-0.066942863 -0.1472743 1.2780001 1.2540404e-38
-0.064256191 -0.1466981 1.273 1.2263817e-38
-0.061831426 -0.1466981 1.273 8.1239984e-39
-0.056981906 -0.1466981 1.273 3.8967055e-39
-0.054342858 -0.1461219 1.268 3.4357274e-39
-0.047097143 -0.1461219 1.268 1.4199209e-38
-0.044681903 -0.1461219 1.268 1.4014818e-38
-0.035020951 -0.1461219 1.268 9.6805257e-39
-0.032734282 -0.1466981 1.273 9.7716255e-39
-0.030309524 -0.1466981 1.273 1.1799929e-38
-0.023216194 -0.14785048 1.2830001 1.1992234e-38
-0.020772383 -0.14785048 1.2830001 9.7795387e-39
-0.0184 -0.14842667 1.2880001 9.2285635e-39
-0.080290474 -0.14699334 1.2970001 1.0043138e-38
-0.077520005 -0.14642666 1.2920001 9.2231531e-39
-0.075059049 -0.14642666 1.2920001 8.3933924e-39
-0.072373338 -0.14597335 1.2880001 7.5701058e-39
-0.069648571 -0.14540668 1.2830001 1.0059388e-38
-0.066942863 -0.14484002 1.2780001 1.0977764e-38
-0.06450858 -0.14484002 1.2780001 1.0701177e-38
-0.062074292 -0.14484002 1.2780001 5.0898215e-39
-0.059406664 -0.14427333 1.273 4.1678652e-39
-0.054557141 -0.14427333 1.273 4.3569382e-39
-0.035159048 -0.14427333 1.273 9.7719927e-39
-0.025660003 -0.14540668 1.2830001 1.3830038e-38
-0.023306668 -0.14597335 1.2880001 1.1162133e-38
-0.020853335 -0.14597335 1.2880001 9.6870025e-39
-0.0184 -0.14597335 1.2880001 9.3189585e-39
-0.080290474 -0.14452286 1.2970001 1.0048605e-38
-0.077820003 -0.14452286 1.2970001 9.5015323e-39
-0.075059049 -0.14396572 1.2920001 8.2107934e-39
-0.072373338 -0.14352001 1.2880001 8.3051597e-39
-0.069920003 -0.14352001 1.2880001 1.125542e-38
-0.067204766 -0.14296286 1.2830001 1.2911692e-38
-0.06450858 -0.14240573 1.2780001 1.3003887e-38
-0.059640005 -0.14240573 1.2780001 4.7145874e-39
-0.051927619 -0.14129142 1.268 4.7217579e-39
-0.049512379 -0.14129142 1.268 9.423735e-39
-0.047282856 -0.14184856 1.273 1.4384316e-38
-0.044681903 -0.14129142 1.268 1.4384316e-38
-0.042266667 -0.14129142 1.268 1.1339359e-38
-0.039851431 -0.14129142 1.268 8.850077e-39
-0.037436187 -0.14129142 1.268 8.7603701e-39
-0.027884761 -0.14184856 1.273 1.5211162e-38
-0.0184 -0.14352001 1.2880001 1.0239466e-38
-0.0012352382 -0.14452286 1.2970001 1.7144424e-38
-0.077820003 -0.14205238 1.2970001 9.5018434e-39
-0.075059049 -0.14150476 1.2920001 9.1330608e-39
-0.0725981 -0.14150476 1.2920001 9.6834124e-39
-0.069920003 -0.14106667 1.2880001 1.2449281e-38
-0.067204766 -0.14051905 1.2830001 1.3553446e-38
-0.064760961 -0.14051905 1.2830001 1.3830033e-38
-0.056981906 -0.13942382 1.273 1.3223731e-39
-0.054557141 -0.13942382 1.273 1.59896e-39
-0.052132379 -0.13942382 1.273 6.4666421e-39
-0.049707618 -0.13942382 1.273 1.2182771e-38
-0.047282856 -0.13942382 1.273 1.5395588e-38
-0.042433333 -0.13942382 1.273 1.3368742e-38
-0.040008571 -0.13942382 1.273 9.1277429e-39
-0.037583809 -0.13942382 1.273 8.8517978e-39
-0.032734282 -0.13942382 1.273 1.1336816e-38
-0.030309524 -0.13942382 1.273 1.5024641e-38
-0.0184 -0.14106667 1.2880001 1.0700451e-38
-0.0012352382 -0.14205238 1.2970001 1.6130623e-38
-0.077820003 -0.1395819 1.2970001 6.2750131e-39
-0.0725981 -0.13904381 1.2920001 1.2354895e-38
-0.069920003 -0.13861334 1.2880001 1.3000265e-38
-0.062074292 -0.13753715 1.2780001 1.3095392e-38
-0.059640005 -0.13753715 1.2780001 1.1989044e-38
-0.054771435 -0.13753715 1.2780001 9.5069048e-39
-0.052132379 -0.13699904 1.273 1.1899e-38
-0.049707618 -0.13699904 1.273 1.4757064e-38
-0.047282856 -0.13699904 1.273 1.5674311e-38
-0.045034289 -0.13753715 1.2780001 1.5858702e-38
-0.042433333 -0.13699904 1.273 1.5488869e-38
-0.040008571 -0.13699904 1.273 1.3829347e-38
-0.037583809 -0.13699904 1.273 1.272509e-38
-0.035159048 -0.13699904 1.273 1.337046e-38
-0.032862861 -0.13753715 1.2780001 1.4013022e-38
-0.030428573 -0.13753715 1.2780001 1.364424e-38
-0.025760002 -0.13861334 1.2880001 1.0881605e-38
-0.023306668 -0.13861334 1.2880001 1.3094631e-38
-0.020853335 -0.13861334 1.2880001 1.4846348e-38
-0.018457144 -0.13904381 1.2920001 1.3277578e-38
-0.069920003 -0.13616002 1.2880001 1.1707753e-38
-0.059873335 -0.13563144 1.2830001 1.4563644e-38
-0.05742953 -0.13563144 1.2830001 1.2632587e-38
-0.052337147 -0.13510287 1.2780001 1.4108803e-38
-0.049902864 -0.13510287 1.2780001 1.4016607e-38
-0.047468573 -0.13510287 1.2780001 1.3464512e-38
-0.045034289 -0.13510287 1.2780001 1.392549e-38
-0.040165719 -0.13510287 1.2780001 1.5121513e-38
-0.037731431 -0.13510287 1.2780001 1.4105213e-38
-0.030428573 -0.13510287 1.2780001 9.8681666e-39
-0.027994288 -0.13510287 1.2780001 7.5693771e-39
-0.025760002 -0.13616002 1.2880001 7.2927902e-39
-0.023306668 -0.13616002 1.2880001 1.2261981e-38
-0.020918095 -0.13658285 1.2920001 1.502785e-38
-0.011074286 -0.13658285 1.2920001 1.0606717e-38
-0.083080001 -0.13516 1.302 1.2724079e-38
-0.080290474 -0.13464095 1.2970001 3.1357332e-39
-0.069920003 -0.13370667 1.2880001 9.495431e-39
-0.067204766 -0.13318764 1.2830001 9.1255527e-39
-0.054771435 -0.13266858 1.2780001 1.5856569e-38
-0.052337147 -0.13266858 1.2780001 1.3556711e-38
-0.047468573 -0.13266858 1.2780001 1.153201e-38
-0.045034289 -0.13266858 1.2780001 1.1716401e-38
-0.042600002 -0.13266858 1.2780001 1.3097139e-38
-0.032862861 -0.13266858 1.2780001 1.2452862e-38
-0.030547623 -0.13318764 1.2830001 6.8289282e-39
-0.028103812 -0.13318764 1.2830001 2.8811019e-39
-0.025760002 -0.13370667 1.2880001 2.604515e-39
-0.023379048 -0.13412191 1.2920001 8.8554216e-39
-0.011117143 -0.13464095 1.2970001 1.1527992e-38
-0.00868 -0.13516 1.302 1.3826445e-38
-0.083080001 -0.13268001 1.302 1.3277253e-38
-0.080290474 -0.13217048 1.2970001 4.6108633e-39
-0.077520005 -0.13166095 1.2920001 4.7785679e-40
-0.069920003 -0.13125335 1.2880001 8.8561629e-39
-0.067466669 -0.13125335 1.2880001 8.1132028e-39
-0.064760961 -0.13074382 1.2830001 7.560029e-39
-0.054985717 -0.13074382 1.2830001 1.5304109e-38
-0.052541912 -0.13074382 1.2830001 1.3188288e-38
-0.049902864 -0.1302343 1.2780001 1.125218e-38
-0.047468573 -0.1302343 1.2780001 9.9700788e-39
-0.045034289 -0.1302343 1.2780001 9.8778832e-39
-0.042600002 -0.1302343 1.2780001 1.0888423e-38
-0.040165719 -0.1302343 1.2780001 1.411527e-38
-0.037731431 -0.1302343 1.2780001 1.5032945e-38
-0.035297148 -0.1302343 1.2780001 1.3373424e-38
-0.032991432 -0.13074382 1.2830001 8.4048985e-39
-0.025760002 -0.13125335 1.2880001 2.4226447e-39
-0.023379048 -0.13166095 1.2920001 6.0978371e-39
-0.011117143 -0.13217048 1.2970001 1.2629989e-38
-0.00868 -0.13268001 1.302 1.4102672e-38
-0.0062238099 -0.13318951 1.307 1.5762193e-38
-0.083080001 -0.1302 1.302 1.4013736e-38
-0.080290474 -0.12970001 1.2970001 6.3614985e-39
-0.077820003 -0.12970001 1.2970001 1.2168988e-39
-0.075059049 -0.1292 1.2920001 2.2310507e-39
-0.0725981 -0.1292 1.2920001 8.6728282e-39
-0.070137143 -0.1292 1.2920001 9.5947845e-39
-0.067466669 -0.1288 1.2880001 8.9422572e-39
-0.065013342 -0.1288 1.2880001 8.0203009e-39
-0.049902864 -0.12780002 1.2780001 1.1345079e-38
-0.047468573 -0.12780002 1.2780001 1.0338145e-38
-0.045210481 -0.12830001 1.2830001 1.024595e-38
-0.042766668 -0.12830001 1.2830001 1.0980278e-38
-0.040322863 -0.12830001 1.2830001 1.282419e-38
-0.03787905 -0.12830001 1.2830001 1.429679e-38
-0.013587619 -0.12970001 1.2970001 7.1008235e-39
-0.01116 -0.1302 1.302 1.1618409e-38
-0.00868 -0.1302 1.302 1.3642404e-38
-0.0062238099 -0.13069999 1.307 1.4840947e-38
-0.083080001 -0.12772 1.302 1.4566191e-38
-0.080290474 -0.12722953 1.2970001 7.0983446e-39
-0.070137143 -0.12673905 1.2920001 9.6848319e-39
-0.067466669 -0.12634668 1.2880001 8.9418845e-39
-0.065013342 -0.12634668 1.2880001 7.9277326e-39
-0.062317148 -0.12585621 1.2830001 7.8373166e-39
-0.047654286 -0.12585621 1.2830001 1.0522534e-38
-0.045210481 -0.12585621 1.2830001 1.0430338e-38
-0.042766668 -0.12585621 1.2830001 1.0613297e-38
-0.01364 -0.12772 1.302 8.3897154e-39
-0.01116 -0.12772 1.302 1.1893149e-38
-0.0087133329 -0.12821047 1.307 1.290665e-38
-0.0062238099 -0.12821047 1.307 1.4566171e-38
-0.080600001 -0.12524 1.302 8.0192219e-39
-0.070408568 -0.12475906 1.2970001 1.2080467e-38
-0.067676194 -0.1242781 1.2920001 1.0048958e-38
-0.065013342 -0.12389334 1.2880001 7.4674803e-39
-0.06256 -0.12389334 1.2880001 9.1273519e-39
-0.059873335 -0.12341239 1.2830001 1.4935677e-38
-0.047654286 -0.12341239 1.2830001 1.0889158e-38
-0.045210481 -0.12341239 1.2830001 1.0796963e-38
-0.042766668 -0.12341239 1.2830001 1.2450748e-38
-0.040322863 -0.12341239 1.2830001 1.494003e-38
-0.03787905 -0.12341239 1.2830001 1.5766857e-38
-0.028103812 -0.12341239 1.2830001 6.7471568e-39
-0.016058095 -0.12475906 1.2970001 1.2077955e-38
-0.072879046 -0.12228857 1.2970001 1.2354555e-38
-0.070408568 -0.12228857 1.2970001 1.2538946e-38
-0.067676194 -0.12181715 1.2920001 1.1802826e-38
-0.065013342 -0.12144001 1.2880001 1.02355e-38
-0.060106672 -0.12144001 1.2880001 1.5671462e-38
-0.050098099 -0.12096858 1.2830001 1.300389e-38
-0.047840003 -0.12144001 1.2880001 1.1992619e-38
-0.045386672 -0.12144001 1.2880001 1.1992619e-38
-0.042933334 -0.12144001 1.2880001 1.4474717e-38
-0.040480006 -0.12144001 1.2880001 1.502789e-38
-0.038026668 -0.12144001 1.2880001 1.5669622e-38
-0.035573337 -0.12144001 1.2880001 1.6683774e-38
-0.032991432 -0.12096858 1.2830001 1.5216592e-38
-0.030547623 -0.12096858 1.2830001 1.1436571e-38
-0.02099905 -0.12228857 1.2970001 9.9635922e-39
-0.018528571 -0.12228857 1.2970001 1.1709539e-38
-0.013692382 -0.12323143 1.307 1.0231114e-38
-0.070408568 -0.1198181 1.2970001 1.1250356e-38
-0.067676194 -0.11935619 1.2920001 1.1985419e-38
-0.065013342 -0.11898667 1.2880001 1.4382506e-38
-0.05742953 -0.11852477 1.2830001 9.3178949e-39
-0.054985717 -0.11852477 1.2830001 7.8427648e-39
-0.052541912 -0.11852477 1.2830001 9.8710659e-39
-0.03066667 -0.11898667 1.2880001 1.5121162e-38
-0.023469524 -0.1198181 1.2970001 1.1807845e-38
-0.02108 -0.12028001 1.302 9.5029546e-39
-0.0062238099 -0.12074191 1.307 1.5393758e-38
-0.067676194 -0.11689524 1.2920001 1.1800309e-38
-0.065013342 -0.11653334 1.2880001 1.5395939e-38
-0.055200007 -0.11653334 1.2880001 3.6136124e-39
-0.042933334 -0.11653334 1.2880001 1.6040592e-38
-0.028213335 -0.11653334 1.2880001 1.631792e-38
-0.00868 -0.1178 1.302 1.5208657e-38
-0.080909528 -0.11576286 1.307 1.1151696e-38
-0.0682 -0.11532 1.302 1.1063829e-38
-0.065215245 -0.11443429 1.2920001 1.4567263e-38
-0.06256 -0.11408001 1.2880001 1.3188606e-38
-0.047840003 -0.11408001 1.2880001 1.3831818e-38
-0.045386672 -0.11408001 1.2880001 1.4477187e-38
-0.043066666 -0.11443429 1.2920001 1.4013314e-38
-0.040480006 -0.11408001 1.2880001 9.8645106e-39
-0.038026668 -0.11408001 1.2880001 9.4968435e-39
-0.035573337 -0.11408001 1.2880001 9.4968435e-39
-0.028213335 -0.11408001 1.2880001 1.4476143e-38
-0.023469524 -0.11487714 1.2970001 9.137084e-39
-0.080909528 -0.11327334 1.307 1.1704867e-38
-0.065215245 -0.11197334 1.2920001 1.2638707e-38
-0.062754288 -0.11197334 1.2920001 9.8764609e-39
-0.060106672 -0.11162667 1.2880001 4.9900925e-39
-0.057653334 -0.11162667 1.2880001 2.6995819e-39
-0.050293338 -0.11162667 1.2880001 3.4432608e-39
-0.047840003 -0.11162667 1.2880001 1.1440517e-38
-0.045386672 -0.11162667 1.2880001 1.2915647e-38
-0.043066666 -0.11197334 1.2920001 1.1341119e-38
-0.040605716 -0.11197334 1.2920001 9.3128152e-39
-0.038144764 -0.11197334 1.2920001 1.0232971e-38
-0.028213335 -0.11162667 1.2880001 1.3465254e-38
-0.023469524 -0.11240667 1.2970001 8.1268795e-39
-0.02099905 -0.11240667 1.2970001 8.2190751e-39
-0.013692382 -0.11327334 1.307 1.0692458e-38
-0.065215245 -0.10951239 1.2920001 1.5028591e-38
-0.062754288 -0.10951239 1.2920001 1.3465572e-38
-0.060293335 -0.10951239 1.2920001 8.7635945e-39
-0.057832383 -0.10951239 1.2920001 3.2513291e-39
-0.055200007 -0.10917334 1.2880001 2.3293728e-39
-0.047988571 -0.10951239 1.2920001 1.3833986e-38
-0.045527618 -0.10951239 1.2920001 1.4755942e-38
-0.040605716 -0.10951239 1.2920001 8.9429635e-39
-0.038144764 -0.10951239 1.2920001 8.8522126e-39
-0.03066667 -0.10917334 1.2880001 1.4934626e-38
-0.028213335 -0.10917334 1.2880001 1.4844578e-38
-0.023560001 -0.11036 1.302 1.1438359e-38
-0.013692382 -0.11078382 1.307 1.0323701e-38
-0.065215245 -0.10705143 1.2920001 1.5116834e-38
-0.062754288 -0.10705143 1.2920001 1.346485e-38
-0.05537143 -0.10705143 1.2920001 2.8785781e-39
-0.052910481 -0.10705143 1.2920001 5.0883894e-39
-0.045527618 -0.10705143 1.2920001 1.5672882e-38
-0.043066666 -0.10705143 1.2920001 1.4382881e-38
-0.033222858 -0.10705143 1.2920001 1.2534292e-38
-0.028300954 -0.10705143 1.2920001 1.5212238e-38
-0.01612 -0.10788 1.302 9.0358654e-39
-0.013744762 -0.10870858 1.312 1.0321523e-38
-0.065467626 -0.10499524 1.2970001 1.0601756e-38
-0.062997147 -0.10499524 1.2970001 1.1893561e-38
-0.047988571 -0.10459048 1.2920001 1.5028944e-38
-0.045527618 -0.10459048 1.2920001 1.4936749e-38
-0.043066666 -0.10459048 1.2920001 1.5304475e-38
-0.033222858 -0.10459048 1.2920001 1.4844197e-38
-0.030761907 -0.10459048 1.2920001 1.0603198e-38
-0.026040001 -0.1054 1.302 1.3832845e-38
-0.023560001 -0.1054 1.302 1.4197396e-38
-0.02108 -0.1054 1.302 1.263007e-38
-0.016181905 -0.10580476 1.307 6.3628928e-39
-0.065720007 -0.10292 1.302 8.1153636e-39
-0.062997147 -0.10252476 1.2970001 1.059776e-38
-0.047988571 -0.10212953 1.2920001 1.3555982e-38
-0.045527618 -0.10212953 1.2920001 1.3371591e-38
-0.043066666 -0.10212953 1.2920001 1.475273e-38
-0.040605716 -0.10212953 1.2920001 1.5121513e-38
-0.038144764 -0.10212953 1.2920001 1.4565465e-38
-0.033351429 -0.10252476 1.2970001 1.4018771e-38
-0.030880954 -0.10252476 1.2970001 6.1821421e-39
-0.026040001 -0.10292 1.302 9.8778089e-39
-0.023650477 -0.10331524 1.307 1.3920824e-38
-0.021160953 -0.10331524 1.307 1.2445694e-38
-0.018671431 -0.10331524 1.307 9.3145948e-39
-0.013744762 -0.10371048 1.312 9.2151881e-39
-0.07068 -0.10044 1.302 9.4139805e-39
-0.062997147 -0.10005429 1.2970001 7.9273794e-39
-0.060293335 -0.099668577 1.2920001 1.1154226e-38
-0.057832383 -0.099668577 1.2920001 1.2998845e-38
-0.05537143 -0.099668577 1.2920001 1.6317888e-38
-0.047988571 -0.099668577 1.2920001 1.1162858e-38
-0.045527618 -0.099668577 1.2920001 1.0794076e-38
-0.043066666 -0.099668577 1.2920001 1.217484e-38
-0.040605716 -0.099668577 1.2920001 1.4940709e-38
-0.038144764 -0.099668577 1.2920001 1.5858001e-38
-0.035683811 -0.099668577 1.2920001 1.3921893e-38
-0.028410478 -0.10005429 1.2970001 1.9627329e-39
-0.026040001 -0.10044 1.302 4.175428e-39
-0.023650477 -0.10082572 1.307 1.0699359e-38
-0.018742858 -0.10121143 1.312 8.6649445e-39
-0.070951432 -0.098336197 1.307 7.1162406e-39
-0.062997147 -0.097583815 1.2970001 7.6529155e-39
-0.060526669 -0.097583815 1.2970001 8.2060893e-39
-0.058056194 -0.097583815 1.2970001 1.1525135e-38
-0.055585716 -0.097583815 1.2970001 1.6042721e-38
-0.053115241 -0.097583815 1.2970001 1.4109541e-38
-0.043066666 -0.097207621 1.2920001 1.0612189e-38
-0.04076286 -0.097583815 1.2970001 1.4023427e-38
-0.038292382 -0.097583815 1.2970001 1.4847847e-38
-0.026140001 -0.098336197 1.307 2.8875605e-39
-0.018742858 -0.098712385 1.312 8.4786965e-39
-0.011288572 -0.099088572 1.317 1.5389077e-38
-0.0682 -0.095480002 1.302 9.589049e-39
-0.063239999 -0.095480002 1.302 7.1004956e-39
-0.04076286 -0.095113337 1.2970001 1.3100762e-38
-0.038292382 -0.095113337 1.2970001 1.4111339e-38
-0.021160953 -0.095846668 1.307 1.1436577e-38
-0.018742858 -0.096213333 1.312 1.004821e-38
-0.011288572 -0.096580006 1.317 1.5390556e-38
-0.078720003 -0.093714289 1.312 1.3644918e-38
-0.070951432 -0.093357146 1.307 9.2252116e-39
-0.068461902 -0.093357146 1.307 1.0418485e-38
-0.065720007 -0.093000002 1.302 7.7448113e-39
-0.063239999 -0.093000002 1.302 6.6408599e-39
-0.060526669 -0.092642859 1.2970001 8.11599e-39
-0.058056194 -0.092642859 1.2970001 1.1246756e-38
-0.055585716 -0.092642859 1.2970001 1.5764341e-38
-0.050449528 -0.092285715 1.2920001 1.0699375e-38
-0.043233335 -0.092642859 1.2970001 1.0150858e-38
-0.04076286 -0.092642859 1.2970001 1.3562096e-38
-0.038292382 -0.092642859 1.2970001 1.4020936e-38
-0.030880954 -0.092642859 1.2970001 1.2201512e-39
-0.028410478 -0.092642859 1.2970001 3.7054017e-39
-0.021160953 -0.093357146 1.307 1.3183256e-38
-0.018742858 -0.093714289 1.312 1.0050012e-38
-0.011288572 -0.094071425 1.317 1.5024247e-38
-0.068461902 -0.090867624 1.307 1.2814479e-38
-0.06597238 -0.090867624 1.307 1.069398e-38
-0.063239999 -0.090520002 1.302 9.7723094e-39
-0.060760003 -0.090520002 1.302 1.2906961e-38
-0.058279999 -0.090520002 1.302 1.4011938e-38
-0.055800002 -0.090520002 1.302 1.650122e-38
-0.050644763 -0.090172388 1.2970001 1.3001732e-38
-0.04570381 -0.090172388 1.2970001 1.0334905e-38
-0.043233335 -0.090172388 1.2970001 1.1714603e-38
-0.04076286 -0.090172388 1.2970001 1.5125841e-38
-0.038292382 -0.090172388 1.2970001 1.6044894e-38
-0.031000003 -0.090520002 1.302 6.0939556e-39
-0.026140001 -0.090867624 1.307 1.310293e-38
-0.021160953 -0.090867624 1.307 1.4749834e-38
-0.068461902 -0.088378102 1.307 1.3735354e-38
-0.06597238 -0.088378102 1.307 1.1153876e-38
-0.063482858 -0.088378102 1.307 1.1334972e-38
-0.060993332 -0.088378102 1.307 1.4930601e-38
-0.053115241 -0.087701909 1.2970001 1.5948399e-38
-0.04570381 -0.087701909 1.2970001 1.2173048e-38
-0.043400001 -0.088040002 1.302 1.3740726e-38
-0.04076286 -0.087701909 1.2970001 1.576903e-38
-0.038292382 -0.087701909 1.2970001 1.6777784e-38
-0.035821907 -0.087701909 1.2970001 1.7146567e-38
-0.033351429 -0.087701909 1.2970001 1.4571588e-38
-0.031000003 -0.088040002 1.302 1.0975959e-38
-0.028520001 -0.088040002 1.302 1.1068129e-38
-0.026140001 -0.088378102 1.307 1.4479368e-38
-0.023650477 -0.088378102 1.307 1.5670714e-38
-0.021241905 -0.088716187 1.312 1.4748757e-38
-0.074283808 -0.086874284 1.322 1.0320866e-38
-0.071765721 -0.086874284 1.322 1.38243e-38
-0.068985716 -0.086545713 1.317 1.4103035e-38
-0.066224761 -0.086217143 1.312 1.4564013e-38
-0.063725717 -0.086217143 1.312 1.456365e-38
-0.060993332 -0.085888579 1.307 1.5577802e-38
-0.053319998 -0.085560001 1.302 1.6132771e-38
-0.050644763 -0.085231431 1.2970001 1.6132771e-38
-0.043400001 -0.085560001 1.302 1.5673607e-38
-0.040920004 -0.085560001 1.302 1.6226781e-38
-0.03844 -0.085560001 1.302 1.6317159e-38
-0.035960004 -0.085560001 1.302 1.6409355e-38
-0.013797143 -0.086545713 1.317 1.3454779e-38
-0.011288572 -0.086545713 1.317 1.5022105e-38
-0.074620955 -0.084739052 1.3280001 1.0412261e-38
-0.072091438 -0.084739052 1.3280001 1.317813e-38
-0.068985716 -0.08403714 1.317 1.4286332e-38
-0.066224761 -0.083718091 1.312 1.5208288e-38
-0.063725717 -0.083718091 1.312 1.4564373e-38
-0.060993332 -0.08339905 1.307 1.5209743e-38
-0.058279999 -0.083080001 1.302 1.4935657e-38
-0.048359998 -0.083080001 1.302 1.6592314e-38
-0.045880005 -0.083080001 1.302 1.6592314e-38
-0.043400001 -0.083080001 1.302 1.6408291e-38
-0.040920004 -0.083080001 1.302 1.6592683e-38
-0.03844 -0.083080001 1.302 1.6317162e-38
-0.026140001 -0.08339905 1.307 1.5301938e-38
-0.011245715 -0.083718091 1.312 1.5206836e-38
-0.074620955 -0.082209527 1.3280001 9.0336527e-39
-0.072091438 -0.082209527 1.3280001 9.955609e-39
-0.069247618 -0.081838094 1.322 1.1614103e-38
-0.066477142 -0.081528574 1.317 1.4656559e-38
-0.063725717 -0.081219047 1.312 1.4380348e-38
-0.060993332 -0.080909528 1.307 1.4841326e-38
-0.05850381 -0.080909528 1.307 1.4843108e-38
-0.055800002 -0.080600001 1.302 1.5765065e-38
-0.053319998 -0.080600001 1.302 1.5763988e-38
-0.045880005 -0.080600001 1.302 1.6776705e-38
-0.043400001 -0.080600001 1.302 1.6684159e-38
-0.040920004 -0.080600001 1.302 1.6776355e-38
-0.03844 -0.080600001 1.302 1.6500472e-38
-0.035960004 -0.080600001 1.302 1.6223885e-38
-0.03348 -0.080600001 1.302 1.6132408e-38
-0.031000003 -0.080600001 1.302 1.6132408e-38
-0.028520001 -0.080600001 1.302 1.5670714e-38
-0.026140001 -0.080909528 1.307 1.5025344e-38
-0.023650477 -0.080909528 1.307 1.4933143e-38
-0.011382857 -0.082209527 1.3280001 1.5390509e-38
-0.072091438 -0.079680003 1.3280001 7.9287499e-39
-0.069247618 -0.079319999 1.322 1.1152382e-38
-0.066477142 -0.079020001 1.317 1.4932403e-38
-0.063968569 -0.079020001 1.317 1.4288875e-38
-0.06122667 -0.078720003 1.312 1.4565462e-38
-0.056014288 -0.078420006 1.307 1.5672516e-38
-0.053524762 -0.078420006 1.307 1.5947661e-38
-0.045880005 -0.078120001 1.302 1.659303e-38
-0.041077144 -0.078420006 1.307 1.6592683e-38
-0.038587622 -0.078420006 1.307 1.659267e-38
-0.036098097 -0.078420006 1.307 1.6316083e-38
-0.033608571 -0.078420006 1.307 1.6039859e-38
-0.031119047 -0.078420006 1.307 1.6039859e-38
-0.028629525 -0.078420006 1.307 1.5670721e-38
-0.026240001 -0.078720003 1.312 1.5025351e-38
-0.023740953 -0.078720003 1.312 1.5024976e-38
-0.01624381 -0.078720003 1.312 1.2903044e-38
-0.069247618 -0.076801904 1.322 9.8648974e-39
-0.066477142 -0.076511435 1.317 1.4382483e-38
-0.063968569 -0.076511435 1.317 1.4656574e-38
-0.06122667 -0.076220959 1.312 1.4840966e-38
-0.05850381 -0.075930484 1.307 1.5210096e-38
-0.050840002 -0.07564 1.302 1.6500474e-38
-0.048359998 -0.07564 1.302 1.6408276e-38
-0.045880005 -0.07564 1.302 1.696145e-38
-0.041077144 -0.075930484 1.307 1.6777061e-38
-0.038587622 -0.075930484 1.307 1.659303e-38
-0.028629525 -0.075930484 1.307 1.5854396e-38
-0.026240001 -0.076220959 1.312 1.5301222e-38
-0.018742858 -0.076220959 1.312 1.3734603e-38
-0.016305715 -0.076511435 1.317 1.2259473e-38
-0.06122667 -0.073721908 1.312 1.4378543e-38
-0.058727618 -0.073721908 1.312 1.465584e-38
-0.05103524 -0.073440954 1.307 1.6316083e-38
-0.048545718 -0.073440954 1.307 1.6224611e-38
-0.046056192 -0.073440954 1.307 1.6593393e-38
-0.04356667 -0.073440954 1.307 1.6501197e-38
-0.041077144 -0.073440954 1.307 1.6224611e-38
-0.038587622 -0.073440954 1.307 1.6040572e-38
-0.036098097 -0.073440954 1.307 1.6040572e-38
-0.028629525 -0.073440954 1.307 1.5854749e-38
-0.018742858 -0.073721908 1.312 1.3550927e-38
-0.056014288 -0.070951432 1.307 1.4379246e-38
-0.046056192 -0.070951432 1.307 1.4933875e-38
-0.04356667 -0.070951432 1.307 1.4934225e-38
