# .PCD v0.7 - Point Cloud Data file format
VERSION 0.7
FIELDS x y z rgb
SIZE 4 4 4 4
TYPE F F F F
COUNT 1 1 1 1
WIDTH 341
HEIGHT 1
VIEWPOINT 0 0 0 1 0 0 0
POINTS 341
DATA ascii
-0.0076619047 -0.33252668 1.6090001 8.572023e-39
-0.0045971428 -0.33252668 1.6090001 7.3763566e-39
-0.0015323811 -0.33252668 1.6090001 6.546596e-39
-0.010726667 -0.32946193 1.6090001 9.6769286e-39
-0.0076619047 -0.32946193 1.6090001 9.4925373e-39
-0.0045971428 -0.32946193 1.6090001 9.1266233e-39
-0.0015323811 -0.32946193 1.6090001 8.942232e-39
0.022242859 -0.31881428 1.557 2.6750774e-39
-0.038666669 -0.32944003 1.6240001 1.2164413e-38
-0.013791429 -0.32639715 1.6090001 1.3641331e-38
-0.010726667 -0.32639715 1.6090001 1.3181079e-38
-0.0076619047 -0.32639715 1.6090001 1.3181079e-38
-0.0045971428 -0.32639715 1.6090001 1.2996687e-38
-0.013791429 -0.3233324 1.6090001 1.3641331e-38
-0.010726667 -0.3233324 1.6090001 1.3456586e-38
-0.0076619047 -0.3233324 1.6090001 1.3364391e-38
-0.013791429 -0.32026762 1.6090001 1.3179281e-38
-0.010726667 -0.32026762 1.6090001 1.2903413e-38
-0.0076619047 -0.32026762 1.6090001 1.2811217e-38
-0.013791429 -0.31720287 1.6090001 1.3363659e-38
-0.0073476196 -0.28949618 1.5430001 9.5948293e-39
-0.016164763 -0.28655714 1.5430001 8.3076708e-39
-0.013225715 -0.28655714 1.5430001 8.6764533e-39
-0.010286667 -0.28655714 1.5430001 8.5839046e-39
-0.0073476196 -0.28655714 1.5430001 8.3073177e-39
-0.061070483 -0.28747812 1.5640001 2.341769e-38
-0.057831433 -0.28619143 1.557 2.0743313e-38
-0.016164763 -0.28361809 1.5430001 8.8594125e-39
-0.013225715 -0.28361809 1.5430001 8.7672168e-39
-0.010286667 -0.28361809 1.5430001 8.8597656e-39
-0.0073476196 -0.28361809 1.5430001 8.9519612e-39
-0.0044085714 -0.28361809 1.5430001 1.1712397e-38
-0.057831433 -0.28322572 1.557 2.1571279e-38
-0.019103812 -0.28067905 1.5430001 1.1526942e-38
-0.016164763 -0.28067905 1.5430001 9.9635922e-39
-0.013225715 -0.28067905 1.5430001 9.1338315e-39
-0.010286667 -0.28067905 1.5430001 8.7675602e-39
-0.0073476196 -0.28067905 1.5430001 9.7817121e-39
-0.0044085714 -0.28067905 1.5430001 1.2815886e-38
-0.057831433 -0.28026 1.557 2.2309204e-38
-0.054865714 -0.28026 1.557 1.3807961e-39
-0.019103812 -0.27774 1.5430001 1.3279333e-38
-0.016164763 -0.27774 1.5430001 1.2817341e-38
-0.013225715 -0.27774 1.5430001 1.2264167e-38
-0.010286667 -0.27774 1.5430001 1.2081553e-38
-0.0073476196 -0.27774 1.5430001 1.2450335e-38
-0.0044085714 -0.27774 1.5430001 1.1157103e-38
0.010333333 -0.27900001 1.5500001 1.0697535e-38
-0.057831433 -0.27729428 1.557 2.3139671e-38
-0.054865714 -0.27729428 1.557 1.8424805e-39
-0.019103812 -0.27480096 1.5430001 1.1251771e-38
-0.016164763 -0.27480096 1.5430001 1.401154e-38
-0.013225715 -0.27480096 1.5430001 1.4103736e-38
-0.010286667 -0.27480096 1.5430001 1.3644587e-38
-0.0073476196 -0.27480096 1.5430001 1.2169457e-38
-0.0044085714 -0.27480096 1.5430001 9.590128e-39
-0.0014695239 -0.27480096 1.5430001 7.9306066e-39
-0.061070483 -0.27556193 1.5640001 2.341769e-38
-0.058091432 -0.27556193 1.5640001 2.3325494e-38
-0.051900003 -0.27432859 1.557 9.4346623e-41
-0.045761906 -0.27309522 1.5500001 8.578134e-39
-0.016238095 -0.27309522 1.5500001 1.1156663e-38
-0.013225715 -0.27186191 1.5430001 1.4567902e-38
-0.010286667 -0.27186191 1.5430001 1.401118e-38
-0.0073809526 -0.27309522 1.5500001 8.9404201e-39
-0.061070483 -0.27258289 1.5640001 2.341769e-38
-0.054865714 -0.27136284 1.557 3.9644121e-39
-0.051900003 -0.27136284 1.557 2.1523944e-42
-0.019190477 -0.27014288 1.5500001 1.9576938e-39
-0.016238095 -0.27014288 1.5500001 6.9221636e-39
-0.013285715 -0.27014288 1.5500001 1.3007075e-38
-0.010333333 -0.27014288 1.5500001 1.1985435e-38
-0.0073809526 -0.27014288 1.5500001 7.928827e-39
-0.0044285716 -0.27014288 1.5500001 7.1919402e-39
-0.061070483 -0.26960382 1.5640001 2.341769e-38
-0.058091432 -0.26960382 1.5640001 2.341769e-38
-0.054865714 -0.26839715 1.557 8.2976067e-39
-0.051900003 -0.26839715 1.557 1.2060584e-39
-0.048714288 -0.26719049 1.5500001 8.028528e-39
-0.042616192 -0.26598382 1.5430001 7.6579756e-39
-0.019190477 -0.26719049 1.5500001 2.0506406e-39
-0.016238095 -0.26719049 1.5500001 7.472525e-39
-0.013285715 -0.26719049 1.5500001 1.3096458e-38
-0.010333333 -0.26719049 1.5500001 1.3276133e-38
-0.0073809526 -0.26719049 1.5500001 8.1131776e-39
-0.0044285716 -0.26719049 1.5500001 7.0072182e-39
0.007414286 -0.26839715 1.557 1.1708823e-38
-0.055112384 -0.26662478 1.5640001 1.1708845e-38
-0.052133337 -0.26662478 1.5640001 2.7701499e-39
-0.048714288 -0.26423809 1.5500001 7.5643226e-39
-0.019190477 -0.26423809 1.5500001 3.6186445e-39
-0.016238095 -0.26423809 1.5500001 1.0970914e-38
-0.013285715 -0.26423809 1.5500001 1.3644587e-38
-0.010333333 -0.26423809 1.5500001 1.3184669e-38
-0.0073809526 -0.26423809 1.5500001 9.4968435e-39
-0.0044285716 -0.26423809 1.5500001 7.9295276e-39
0.007414286 -0.26543143 1.557 1.2720801e-38
0.010426668 -0.26662478 1.5640001 1.1798845e-38
-0.03690476 -0.26128572 1.5500001 1.1063438e-38
-0.019190477 -0.26128572 1.5500001 1.2269144e-38
-0.016238095 -0.26128572 1.5500001 1.3001729e-38
-0.013285715 -0.26128572 1.5500001 1.1618795e-38
-0.010333333 -0.26128572 1.5500001 1.2355972e-38
-0.0073809526 -0.26128572 1.5500001 1.2909145e-38
-0.0044285716 -0.26128572 1.5500001 1.2262347e-38
-0.0014761905 -0.26128572 1.5500001 1.1893564e-38
0.007414286 -0.26246572 1.557 8.5784353e-39
0.028445713 -0.26499429 1.572 5.9894537e-39
-0.046175241 -0.26066667 1.5640001 5.4469985e-39
-0.040037144 -0.2595 1.557 1.2077262e-38
-0.030860003 -0.25716668 1.5430001 9.1287504e-39
-0.016311429 -0.2595 1.557 1.2817711e-38
-0.013345715 -0.2595 1.557 9.5908636e-39
-0.01038 -0.2595 1.557 1.0605339e-38
-0.007414286 -0.2595 1.557 1.2172665e-38
0.007414286 -0.2595 1.557 2.8738095e-39
0.025451429 -0.26199999 1.572 7.1821997e-39
0.028445713 -0.26199999 1.572 7.4587866e-39
-0.043002855 -0.25653428 1.557 8.4959731e-39
-0.040037144 -0.25653428 1.557 1.087799e-38
-0.03690476 -0.25538096 1.5500001 7.374556e-39
-0.016311429 -0.25653428 1.557 1.0146927e-38
-0.013345715 -0.25653428 1.557 9.132775e-39
-0.01038 -0.25653428 1.557 9.1349049e-39
-0.007414286 -0.25653428 1.557 9.87247e-39
0.0074476195 -0.25768763 1.5640001 2.2313786e-39
0.028445713 -0.2590057 1.572 7.8325914e-39
-0.043002855 -0.25356859 1.557 7.2981488e-39
-0.040037144 -0.25356859 1.557 8.8526008e-39
-0.037071429 -0.25356859 1.557 6.8242969e-39
-0.019277144 -0.25356859 1.557 1.0237678e-38
-0.016311429 -0.25356859 1.557 8.4917216e-39
-0.013345715 -0.25356859 1.557 8.6761128e-39
-0.01038 -0.25356859 1.557 8.5842549e-39
-0.007414286 -0.25356859 1.557 8.7686462e-39
-0.0044485712 -0.25356859 1.557 1.0057583e-38
0.0044685719 -0.25470859 1.5640001 2.7773722e-39
0.0074476195 -0.25470859 1.5640001 2.1394969e-39
-0.031000003 -0.24947619 1.5500001 7.1915842e-39
-0.028047619 -0.24947619 1.5500001 8.4787203e-39
-0.019363809 -0.25172952 1.5640001 1.1893577e-38
-0.016311429 -0.25060284 1.557 9.5026463e-39
-0.013345715 -0.25060284 1.557 9.1338638e-39
-0.01038 -0.25060284 1.557 9.4111541e-39
-0.007414286 -0.25060284 1.557 1.0148719e-38
-0.0044485712 -0.25060284 1.557 1.1804233e-38
-0.0014828572 -0.25060284 1.557 1.2541798e-38
0.0014828572 -0.25060284 1.557 1.0147265e-38
0.0074476195 -0.25172952 1.5640001 4.3461202e-39
0.028445713 -0.25301713 1.572 8.753145e-39
-0.016311429 -0.24763715 1.557 1.1159274e-38
-0.013345715 -0.24763715 1.557 9.6841439e-39
-0.01038 -0.24763715 1.557 1.0146551e-38
-0.007414286 -0.24763715 1.557 1.1252899e-38
-0.049405713 -0.24702857 1.572 7.1894893e-39
-0.046411429 -0.24702857 1.572 7.7462154e-39
-0.013345715 -0.24467142 1.557 1.2724076e-38
-0.01038 -0.24467142 1.557 1.2908089e-38
-0.052866668 -0.24620762 1.5860001 1.6409037e-38
-0.049625717 -0.24512096 1.5790001 7.7426477e-39
-0.016384764 -0.2427924 1.5640001 1.327578e-38
-0.013405715 -0.2427924 1.5640001 1.4289932e-38
-0.010426668 -0.2427924 1.5640001 1.4102341e-38
-0.0074476195 -0.2427924 1.5640001 1.179745e-38
0.028300956 -0.2427924 1.5640001 1.7141923e-38
-0.055887621 -0.24318667 1.5860001 1.8621745e-38
-0.052866668 -0.24318667 1.5860001 1.5855503e-38
-0.049625717 -0.24211335 1.5790001 6.0827662e-39
-0.016384764 -0.23981334 1.5640001 9.9617229e-39
-0.013405715 -0.23981334 1.5640001 1.3465157e-38
-0.010426668 -0.23981334 1.5640001 1.3458026e-38
-0.0074476195 -0.23981334 1.5640001 8.6638529e-39
-0.0044685719 -0.23981334 1.5640001 6.9161016e-39
0.0014895239 -0.23981334 1.5640001 7.3756126e-39
-0.052866668 -0.24016573 1.5860001 1.5669682e-38
-0.049845714 -0.24016573 1.5860001 6.4501194e-39
-0.0466181 -0.23910573 1.5790001 6.1813517e-39
-0.04361048 -0.23910573 1.5790001 8.2096556e-39
-0.034434289 -0.23804571 1.572 9.7791855e-39
-0.019363809 -0.2368343 1.5640001 1.6836153e-39
-0.016384764 -0.2368343 1.5640001 5.2680611e-39
-0.013405715 -0.2368343 1.5640001 1.1260777e-38
-0.010426668 -0.2368343 1.5640001 1.1711366e-38
-0.0074476195 -0.2368343 1.5640001 7.2859757e-39
-0.049845714 -0.23714477 1.5860001 6.8196025e-39
-0.0466181 -0.23609811 1.5790001 6.9175015e-39
-0.04361048 -0.23609811 1.5790001 9.4067835e-39
-0.053133339 -0.23530479 1.5940001 1.7514671e-38
-0.046824764 -0.23412383 1.5860001 6.8252764e-39
-0.04361048 -0.23309049 1.5790001 9.3145584e-39
-0.040602859 -0.23309049 1.5790001 9.9585349e-39
-0.03128 -0.23087621 1.5640001 1.2721905e-38
-0.056416195 -0.23328859 1.6010001 1.9082698e-38
-0.046824764 -0.23110287 1.5860001 5.1707689e-39
-0.04361048 -0.23008287 1.5790001 8.0288264e-39
-0.040602859 -0.23008287 1.5790001 1.0418794e-38
-0.013474287 -0.22906286 1.572 1.171063e-38
-0.01048 -0.22906286 1.572 1.2354902e-38
-0.056416195 -0.23023905 1.6010001 1.8067116e-38
-0.043803811 -0.22808191 1.5860001 5.8172692e-39
-0.040602859 -0.22707525 1.5790001 1.1243876e-38
-0.037595239 -0.22707525 1.5790001 1.1612658e-38
-0.013474287 -0.22606857 1.572 9.4079045e-39
-0.01048 -0.22606857 1.572 1.0513153e-38
-0.0074857143 -0.22606857 1.572 1.2541457e-38
-0.056416195 -0.22718953 1.6010001 1.7515387e-38
-0.043803811 -0.22506095 1.5860001 5.0757819e-39
-0.040602859 -0.22406763 1.5790001 1.0139309e-38
-0.037595239 -0.22406763 1.5790001 1.0600288e-38
-0.019549526 -0.22406763 1.5790001 1.2538578e-38
-0.016468571 -0.22307429 1.572 1.1068129e-38
-0.013474287 -0.22307429 1.572 9.5008036e-39
-0.01048 -0.22307429 1.572 9.3193018e-39
-0.0074857143 -0.22307429 1.572 1.0056867e-38
-0.0044914284 -0.22307429 1.572 1.198793e-38
0.025321906 -0.22193907 1.5640001 1.7051485e-38
-0.056169529 -0.22316 1.5940001 1.7330633e-38
-0.013474287 -0.22008 1.572 8.3991504e-39
-0.01048 -0.22008 1.572 8.4005853e-39
-0.0074857143 -0.22008 1.572 9.1381503e-39
-0.0044914284 -0.22008 1.572 1.0333466e-38
-0.031580005 -0.2180524 1.5790001 6.7291894e-39
-0.013534287 -0.2180524 1.5790001 9.7780967e-39
-0.01048 -0.21708572 1.572 1.0054731e-38
-0.0074857143 -0.21708572 1.572 1.1714253e-38
-0.0044914284 -0.21708572 1.572 1.2725483e-38
-0.050097149 -0.21708763 1.5940001 1.225952e-38
-0.037761904 -0.21599811 1.5860001 1.1705936e-38
-0.013534287 -0.21504477 1.5790001 1.0791558e-38
-0.0074857143 -0.21409144 1.572 1.189794e-38
-0.050097149 -0.21405144 1.5940001 1.2535378e-38
-0.016541906 -0.21203716 1.5790001 1.2355644e-38
-0.013534287 -0.21203716 1.5790001 1.4015165e-38
-0.010526667 -0.21203716 1.5790001 1.3644225e-38
-0.0075190482 -0.21203716 1.5790001 1.0509573e-38
0.025451429 -0.21109715 1.572 1.5945541e-38
-0.019549526 -0.20902954 1.5790001 5.9119773e-39
-0.016541906 -0.20902954 1.5790001 1.2166914e-38
-0.013534287 -0.20902954 1.5790001 1.5301565e-38
-0.010526667 -0.20902954 1.5790001 1.4654086e-38
-0.0075190482 -0.20902954 1.5790001 8.9379566e-39
-0.004511429 -0.20902954 1.5790001 7.9266045e-39
0.013594287 -0.2099562 1.5860001 5.8151028e-39
-0.019549526 -0.20602192 1.5790001 2.1435396e-39
-0.016541906 -0.20602192 1.5790001 8.4851901e-39
-0.013534287 -0.20602192 1.5790001 1.2357407e-38
-0.010526667 -0.20602192 1.5790001 1.2536422e-38
-0.0075190482 -0.20602192 1.5790001 7.8344453e-39
-0.004511429 -0.20602192 1.5790001 6.1796057e-39
0.013594287 -0.20693524 1.5860001 7.286326e-39
-0.04361048 -0.20301428 1.5790001 9.0337396e-39
-0.028445713 -0.20211428 1.572 9.5962769e-39
-0.019549526 -0.20301428 1.5790001 1.1325743e-39
-0.016541906 -0.20301428 1.5790001 4.8985555e-39
-0.013534287 -0.20301428 1.5790001 1.0245902e-38
-0.010526667 -0.20301428 1.5790001 1.1341157e-38
-0.0075190482 -0.20301428 1.5790001 6.823571e-39
-0.004511429 -0.20301428 1.5790001 6.7305444e-39
0.010573333 -0.2039143 1.5860001 6.9189532e-39
0.013594287 -0.2039143 1.5860001 8.0216952e-39
-0.040782858 -0.20089334 1.5860001 8.7614561e-39
-0.019549526 -0.20000668 1.5790001 5.4560481e-39
-0.016541906 -0.20000668 1.5790001 9.407194e-39
-0.013534287 -0.20000668 1.5790001 1.4201367e-38
-0.010526667 -0.20000668 1.5790001 1.4475042e-38
-0.0075190482 -0.20000668 1.5790001 8.4823259e-39
-0.004511429 -0.20000668 1.5790001 7.7465194e-39
-0.0015038096 -0.20000668 1.5790001 1.0604584e-38
0.010573333 -0.20089334 1.5860001 8.9440075e-39
0.013662858 -0.20190668 1.5940001 9.4032102e-39
0.023085715 -0.20469333 1.6160001 1.4009407e-38
-0.040782858 -0.19787239 1.5860001 1.0693932e-38
-0.037761904 -0.19787239 1.5860001 1.032515e-38
-0.019549526 -0.19699906 1.5790001 8.5780948e-39
-0.016541906 -0.19699906 1.5790001 1.2628618e-38
-0.013534287 -0.19699906 1.5790001 1.5394487e-38
-0.010526667 -0.19699906 1.5790001 1.4840973e-38
-0.0075190482 -0.19699906 1.5790001 9.8624087e-39
-0.004511429 -0.19699906 1.5790001 9.6750873e-39
0.0075190482 -0.19699906 1.5790001 1.3272546e-38
0.013662858 -0.19887048 1.5940001 1.0873968e-38
0.01677238 -0.19974381 1.6010001 1.3732033e-38
0.019821906 -0.19974381 1.6010001 1.4470385e-38
0.023085715 -0.20161524 1.6160001 1.3917211e-38
-0.04726762 -0.19669428 1.6010001 1.2626485e-38
-0.044024762 -0.19583429 1.5940001 1.0690377e-38
-0.040988572 -0.19583429 1.5940001 1.1152762e-38
-0.037761904 -0.19485143 1.5860001 1.2720088e-38
-0.034740951 -0.19485143 1.5860001 1.2813353e-38
-0.031720001 -0.19485143 1.5860001 1.4011896e-38
-0.019549526 -0.19399144 1.5790001 1.3738193e-38
-0.016541906 -0.19399144 1.5790001 1.4473975e-38
-0.013534287 -0.19399144 1.5790001 1.5119345e-38
-0.010526667 -0.19399144 1.5790001 1.4841301e-38
-0.0075190482 -0.19399144 1.5790001 1.3919344e-38
-0.0045314287 -0.19485143 1.5860001 1.4103032e-38
0.013662858 -0.19583429 1.5940001 9.7694521e-39
0.01677238 -0.19669428 1.6010001 1.2904104e-38
0.019920954 -0.19767715 1.6090001 1.4562581e-38
0.0232 -0.19952001 1.6240001 1.437819e-38
-0.04726762 -0.19364478 1.6010001 1.2718681e-38
-0.044024762 -0.19279811 1.5940001 1.0598181e-38
-0.040988572 -0.19279811 1.5940001 1.1336062e-38
-0.037761904 -0.19183049 1.5860001 1.327217e-38
-0.034740951 -0.19183049 1.5860001 1.2997035e-38
-0.028572382 -0.19098383 1.5790001 1.3826072e-38
-0.019636191 -0.19183049 1.5860001 1.5209004e-38
-0.016615238 -0.19183049 1.5860001 1.4841316e-38
-0.013594287 -0.19183049 1.5860001 1.4933512e-38
-0.010573333 -0.19183049 1.5860001 1.484095e-38
-0.0075523811 -0.19183049 1.5860001 1.4748755e-38
-0.0045314287 -0.19183049 1.5860001 1.4747678e-38
0.0045314287 -0.19183049 1.5860001 1.4010111e-38
0.010626667 -0.19279811 1.5940001 1.0874743e-38
0.013722857 -0.19364478 1.6010001 8.9406878e-39
0.016856192 -0.1946124 1.6090001 1.3089484e-38
0.02000762 -0.19545905 1.6160001 1.4562947e-38
0.0232 -0.19642667 1.6240001 1.4655142e-38
-0.04726762 -0.19059525 1.6010001 1.2719056e-38
-0.044218097 -0.19059525 1.6010001 1.0137579e-38
-0.028699048 -0.18880953 1.5860001 1.3733524e-38
-0.019636191 -0.18880953 1.5860001 1.484094e-38
-0.013594287 -0.18880953 1.5860001 1.4748036e-38
-0.010573333 -0.18880953 1.5860001 1.4840587e-38
-0.0075523811 -0.18880953 1.5860001 1.4748392e-38
-0.0045314287 -0.18880953 1.5860001 1.4563282e-38
-0.0015104762 -0.18880953 1.5860001 1.4286695e-38
0.010626667 -0.18976192 1.5940001 1.0690718e-38
0.013722857 -0.19059525 1.6010001 8.8478588e-39
0.016856192 -0.19154763 1.6090001 1.2535684e-38
0.02000762 -0.19238095 1.6160001 1.4471454e-38
-0.04750381 -0.18848287 1.6090001 1.3456249e-38
-0.044218097 -0.18754572 1.6010001 1.0321597e-38
-0.028699048 -0.18578857 1.5860001 1.3549493e-38
-0.025678096 -0.18578857 1.5860001 1.4379253e-38
-0.013662858 -0.18672572 1.5940001 1.4932433e-38
-0.010626667 -0.18672572 1.5940001 1.4840231e-38
0.010673334 -0.18754572 1.6010001 1.0597437e-38
0.013722857 -0.18754572 1.6010001 9.3091284e-39
-0.044218097 -0.18449619 1.6010001 1.0230481e-38
-0.041168571 -0.18449619 1.6010001 1.0690342e-38
