# .PCD v0.7 - Point Cloud Data file format
VERSION 0.7
FIELDS x y z rgb
SIZE 4 4 4 4
TYPE F F F F
COUNT 1 1 1 1
WIDTH 981
HEIGHT 1
VIEWPOINT 0 0 0 1 0 0 0
POINTS 981
DATA ascii
-0.067885719 0.085714288 0.72000003 8.1204433e-39
-0.06679143 0.086071432 0.72300005 1.9161916e-40
-0.065595239 0.086309522 0.72500002 9.4072949e-40
-0.064391434 0.086547628 0.72700006 1.1451031e-38
-0.063093334 0.086666673 0.72800004 1.4018443e-38
-0.061876193 0.086904764 0.73000002 1.3188682e-38
-0.060568571 0.08702381 0.73100001 1.2728424e-38
-0.059176192 0.08702381 0.73100001 1.2544033e-38
-0.05794191 0.087261908 0.73300004 1.2175969e-38
-0.05654572 0.087261908 0.73300004 1.2268165e-38
-0.055224765 0.087380953 0.73400003 1.1991581e-38
-0.053973336 0.087619051 0.73600006 1.0332059e-38
-0.052714288 0.08785715 0.73800004 9.594479e-39
-0.051378097 0.087976187 0.73900002 8.856914e-39
-0.050105717 0.088214293 0.74100006 9.6827244e-39
-0.048891429 0.088571429 0.74400002 9.5905287e-39
-0.047474284 0.088571429 0.74400002 9.5908664e-39
-0.1179781 0.088658094 0.73300004 1.0882674e-38
-0.11626381 0.088416189 0.73100001 9.3182578e-39
-0.11487143 0.088416189 0.73100001 8.4884972e-39
-0.11332382 0.088295236 0.73000002 7.5647696e-39
-0.11162667 0.088053338 0.72800004 6.4584221e-39
-0.11008858 0.087932393 0.72700006 4.1567221e-39
-0.10870381 0.087932393 0.72700006 3.6957439e-39
-0.10731905 0.087932393 0.72700006 4.6181052e-39
-0.10520572 0.087327629 0.72200006 7.8449523e-39
-0.10383049 0.087327629 0.72200006 5.4475127e-39
-0.10217144 0.087085716 0.72000003 5.1709259e-39
-0.1008 0.087085716 0.72000003 7.0158936e-39
-0.099290483 0.086964764 0.71900004 2.8670903e-39
-0.097920962 0.086964764 0.71900004 9.7237502e-41
-0.096282855 0.086722851 0.71700001 5.7211709e-39
-0.094784766 0.086601906 0.71600002 5.6300893e-39
-0.093420953 0.086601906 0.71600002 7.5661976e-39
-0.092057146 0.086601906 0.71600002 1.2170199e-38
-0.09069334 0.086601906 0.71600002 1.4382894e-38
-0.089329526 0.086601906 0.71600002 9.8706903e-39
-0.087965719 0.086601906 0.71600002 1.9418662e-39
-0.086601906 0.086601906 0.71600002 8.487428e-39
-0.085238092 0.086601906 0.71600002 1.4019166e-38
-0.083874285 0.086601906 0.71600002 1.1710274e-38
-0.082625717 0.086722851 0.71700001 2.9516895e-39
-0.081600003 0.087085716 0.72000003 7.8392167e-39
-0.080228575 0.087085716 0.72000003 1.0144107e-38
-0.078857146 0.087085716 0.72000003 7.5639176e-39
-0.07748571 0.087085716 0.72000003 8.1170914e-39
-0.076114289 0.087085716 0.72000003 4.6216855e-39
-0.074639052 0.086964764 0.71900004 1.0823629e-41
-0.073269531 0.086964764 0.71900004 4.2497277e-39
-0.071900003 0.086964764 0.71900004 6.9234009e-39
-0.070628576 0.087085716 0.72000003 2.5943528e-39
-0.06925714 0.087085716 0.72000003 7.1119274e-39
-0.068074286 0.087327629 0.72200006 6.6481999e-39
-0.06679143 0.087448575 0.72300005 8.6740375e-42
-0.065595239 0.08769048 0.72500002 7.5566982e-40
-0.064479999 0.088053338 0.72800004 1.0897189e-38
-0.063093334 0.088053338 0.72800004 1.3834051e-38
-0.061876193 0.088295236 0.73000002 1.2912095e-38
-0.060568571 0.088416189 0.73100001 1.2636229e-38
-0.0593381 0.088658094 0.73300004 1.2451837e-38
-0.05794191 0.088658094 0.73300004 1.2176688e-38
-0.056622859 0.088779047 0.73400003 1.2176688e-38
-0.055375241 0.08902096 0.73600006 1.2083776e-38
-0.054120004 0.089262858 0.73800004 1.0332059e-38
-0.052785717 0.089383811 0.73900002 9.9614664e-39
-0.051517144 0.089625724 0.74100006 9.1317058e-39
-0.050105717 0.089625724 0.74100006 9.3153838e-39
-0.048760001 0.089746676 0.74200004 9.2231881e-39
-0.04734667 0.089746676 0.74200004 9.3149984e-39
-0.1257543 0.09165144 0.74600005 1.0879075e-38
-0.12366667 0.091159999 0.74200004 1.0512087e-38
-0.12225334 0.091159999 0.74200004 1.0604283e-38
-0.12084001 0.091159999 0.74200004 1.0054359e-38
-0.1179781 0.090054289 0.73300004 1.0515337e-38
-0.11658191 0.090054289 0.73300004 1.0791215e-38
-0.11518572 0.090054289 0.73300004 1.088341e-38
-0.11378953 0.090054289 0.73300004 1.1066375e-38
-0.11208667 0.089808576 0.73100001 9.3146579e-39
-0.11024 0.089440003 0.72800004 7.2899386e-39
-0.10885334 0.089440003 0.72800004 3.4177221e-39
-0.10731905 0.089317143 0.72700006 4.7254867e-40
-0.10593429 0.089317143 0.72700006 4.8057433e-39
-0.10397429 0.088825718 0.72300005 5.2649095e-39
-0.10245524 0.088702865 0.72200006 5.910279e-39
-0.1008 0.088457145 0.72000003 8.1186623e-39
-0.099428572 0.088457145 0.72000003 2.4947289e-39
-0.098057151 0.088457145 0.72000003 3.5873241e-42
-0.096282855 0.088088572 0.71700001 6.0884961e-39
-0.094917141 0.088088572 0.71700001 5.7190255e-39
-0.093420953 0.087965719 0.71600002 6.7331775e-39
-0.092057146 0.087965719 0.71600002 1.1893226e-38
-0.09069334 0.087965719 0.71600002 1.2262009e-38
-0.089329526 0.087965719 0.71600002 7.2946049e-39
-0.087965719 0.087965719 0.71600002 4.3443447e-39
-0.086601906 0.087965719 0.71600002 7.9389331e-39
-0.085238092 0.087965719 0.71600002 1.2087736e-38
-0.083874285 0.087965719 0.71600002 8.308059e-39
-0.082625717 0.088088572 0.71700001 1.0452285e-41
-0.081600003 0.088457145 0.72000003 9.5865476e-39
-0.080228575 0.088457145 0.72000003 7.4660482e-39
-0.078857146 0.088457145 0.72000003 9.2839947e-40
-0.07748571 0.088457145 0.72000003 6.5523287e-39
-0.076114289 0.088457145 0.72000003 4.0724942e-39
-0.074742861 0.088457145 0.72000003 2.5973642e-39
-0.073269531 0.088334292 0.71900004 7.0155615e-39
-0.071900003 0.088334292 0.71900004 6.2779965e-39
-0.070628576 0.088457145 0.72000003 1.9156311e-40
-0.06925714 0.088457145 0.72000003 7.1062311e-39
-0.068074286 0.088702865 0.72200006 6.7418515e-39
-0.06679143 0.088825718 0.72300005 4.7135476e-39
-0.065776192 0.089317143 0.72700006 7.2953644e-39
-0.064479999 0.089440003 0.72800004 1.2366124e-38
-0.063093334 0.089440003 0.72800004 1.3281601e-38
-0.061876193 0.089685716 0.73000002 1.2820623e-38
-0.060568571 0.089808576 0.73100001 1.2452559e-38
-0.0593381 0.090054289 0.73300004 1.2360363e-38
-0.05794191 0.090054289 0.73300004 1.2084137e-38
-0.056622859 0.090177149 0.73400003 1.2084137e-38
-0.055375241 0.090422861 0.73600006 1.1991581e-38
-0.054120004 0.090668574 0.73800004 1.0608646e-38
-0.052785717 0.090791427 0.73900002 1.0606476e-38
-0.051517144 0.091037147 0.74100006 9.5923238e-39
-0.050173335 0.091159999 0.74200004 9.315381e-39
-0.048760001 0.091159999 0.74200004 8.8544028e-39
-0.04734667 0.091159999 0.74200004 9.1298981e-39
-0.1257543 0.093072385 0.74600005 1.0787242e-38
-0.12433334 0.093072385 0.74600005 1.0144744e-38
-0.12208858 0.092448577 0.74100006 1.0329135e-38
-0.11986287 0.09182477 0.73600006 1.0329148e-38
-0.11813905 0.091575243 0.73400003 1.069793e-38
-0.11658191 0.091450475 0.73300004 1.0791207e-38
-0.11518572 0.091450475 0.73300004 1.1620968e-38
-0.11378953 0.091450475 0.73300004 1.1988679e-38
-0.11208667 0.091200955 0.73100001 1.2726244e-38
-0.11054286 0.091076195 0.73000002 1.2911004e-38
-0.10885334 0.090826668 0.72800004 1.2911004e-38
-0.10731905 0.090701908 0.72700006 1.1436962e-38
-0.10593429 0.090701908 0.72700006 1.0330615e-38
-0.10426191 0.090452388 0.72500002 9.8717974e-39
-0.10245524 0.090078101 0.72200006 1.0332776e-38
-0.10108001 0.090078101 0.72200006 8.7672757e-39
-0.099704772 0.090078101 0.72200006 2.5901685e-39
-0.098329529 0.090078101 0.72200006 1.5803326e-39
-0.096685715 0.089828581 0.72000003 7.6652441e-39
-0.095181912 0.089703813 0.71900004 6.7335278e-39
-0.093551435 0.089454286 0.71700001 9.5442438e-41
-0.092185713 0.089454286 0.71700001 1.3007637e-39
-0.09082 0.089454286 0.71700001 4.5276009e-39
-0.089329526 0.089329526 0.71600002 2.6894757e-39
-0.087965719 0.089329526 0.71600002 3.7958233e-39
-0.086601906 0.089329526 0.71600002 8.4896182e-39
-0.085238092 0.089329526 0.71600002 1.1900857e-38
-0.083991431 0.089454286 0.71700001 9.1352987e-39
-0.082856201 0.089703813 0.71900004 7.2110819e-42
-0.081600003 0.089828581 0.72000003 2.5615736e-42
-0.080228575 0.089828581 0.72000003 4.0637655e-44
-0.078857146 0.089828581 0.72000003 3.8815967e-43
-0.077700958 0.090078101 0.72200006 7.2838429e-39
-0.076114289 0.089828581 0.72000003 7.4747474e-39
-0.074742861 0.089828581 0.72000003 8.1201168e-39
-0.073371425 0.089828581 0.72000003 9.8721701e-39
-0.072000004 0.089828581 0.72000003 9.5955832e-39
-0.070628576 0.089828581 0.72000003 1.088483e-38
-0.06925714 0.089828581 0.72000003 1.2913134e-38
-0.068074286 0.090078101 0.72200006 1.3648957e-38
-0.06679143 0.090202861 0.72300005 1.3648957e-38
-0.065776192 0.090701908 0.72700006 1.3374515e-38
-0.064479999 0.090826668 0.72800004 1.3374515e-38
-0.063093334 0.090826668 0.72800004 1.3097207e-38
-0.061876193 0.091076195 0.73000002 1.2728424e-38
-0.060568571 0.091200955 0.73100001 1.2635878e-38
-0.0593381 0.091450475 0.73300004 1.2451487e-38
-0.05794191 0.091450475 0.73300004 1.1991941e-38
-0.056622859 0.091575243 0.73400003 1.1899745e-38
-0.055525716 0.092074282 0.73800004 1.1990862e-38
-0.054193333 0.09219905 0.73900002 1.0884514e-38
-0.052928574 0.092448577 0.74100006 1.0882707e-38
-0.051586669 0.092573337 0.74200004 9.6841635e-39
-0.050173335 0.092573337 0.74200004 8.9465985e-39
-0.048891429 0.092822857 0.74400002 8.9465985e-39
-0.047474284 0.092822857 0.74400002 9.4983303e-39
-0.1257543 0.094493344 0.74600005 1.0879437e-38
-0.12433334 0.094493344 0.74600005 1.0236586e-38
-0.12208858 0.093860008 0.74100006 1.0236586e-38
-0.11986287 0.093226671 0.73600006 1.0329148e-38
-0.11813905 0.092973337 0.73400003 1.069793e-38
-0.11674096 0.092973337 0.73400003 1.0514621e-38
-0.11534286 0.092973337 0.73400003 1.1252186e-38
-0.11378953 0.092846669 0.73300004 1.1621672e-38
-0.11208667 0.092593335 0.73100001 1.1713867e-38
-0.11069429 0.092593335 0.73100001 1.2267352e-38
-0.10915238 0.092466667 0.73000002 1.3097113e-38
-0.10746667 0.09221334 0.72800004 1.346449e-38
-0.10593429 0.092086673 0.72700006 1.2726925e-38
-0.10426191 0.091833338 0.72500002 1.2083741e-38
-0.10259715 0.091580003 0.72300005 1.2268133e-38
-0.10122 0.091580003 0.72300005 1.0612609e-38
-0.099842861 0.091580003 0.72300005 7.1091753e-39
-0.098329529 0.091453344 0.72200006 8.3019353e-39
-0.096954294 0.091453344 0.72200006 1.0422435e-38
-0.095314287 0.091200002 0.72000003 9.7767122e-39
-0.093942866 0.091200002 0.72000003 3.7839963e-39
-0.09257143 0.091200002 0.72000003 3.3218971e-39
-0.091073342 0.091073342 0.71900004 6.087766e-39
-0.089703813 0.091073342 0.71900004 4.1599535e-39
-0.088088572 0.09082 0.71700001 6.4648442e-39
-0.086722851 0.09082 0.71700001 1.1893627e-38
-0.085595243 0.091073342 0.71900004 1.2815584e-38
-0.084225714 0.091073342 0.71900004 9.7828457e-39
-0.082971431 0.091200002 0.72000003 1.8540216e-39
-0.081826672 0.091453344 0.72200006 1.300838e-39
-0.080451436 0.091453344 0.72200006 3.79012e-39
-0.079076193 0.091453344 0.72200006 6.7335278e-39
-0.077700958 0.091453344 0.72200006 8.669636e-39
-0.076325722 0.091453344 0.72200006 1.2352115e-38
-0.074950479 0.091453344 0.72200006 1.2352115e-38
-0.073575243 0.091453344 0.72200006 1.2356787e-38
-0.072000004 0.091200002 0.72000003 1.2448983e-38
-0.070628576 0.091200002 0.72000003 1.3648178e-38
-0.069449529 0.091453344 0.72200006 1.4109156e-38
-0.068074286 0.091453344 0.72200006 1.4570182e-38
-0.06679143 0.091580003 0.72300005 1.4293595e-38
-0.065776192 0.092086673 0.72700006 1.3558188e-38
-0.064479999 0.09221334 0.72800004 1.3189405e-38
-0.063093334 0.09221334 0.72800004 1.2821341e-38
-0.061876193 0.092466667 0.73000002 1.2729146e-38
-0.060734287 0.092846669 0.73300004 1.2452559e-38
-0.0593381 0.092846669 0.73300004 1.2360363e-38
-0.058020953 0.092973337 0.73400003 1.2083774e-38
-0.056777146 0.093226671 0.73600006 1.1991578e-38
-0.055525716 0.093480006 0.73800004 1.2083055e-38
-0.054193333 0.093606666 0.73900002 1.1253294e-38
-0.052928574 0.093860008 0.74100006 1.0883428e-38
-0.051586669 0.093986668 0.74200004 9.1317114e-39
-0.050308574 0.094240002 0.74400002 8.8551091e-39
-0.048891429 0.094240002 0.74400002 9.2238916e-39
-0.047474284 0.094240002 0.74400002 9.4986806e-39
-0.12717524 0.095914289 0.74600005 1.0879437e-38
-0.1257543 0.095914289 0.74600005 1.0879437e-38
-0.124 0.095657147 0.74400002 1.0604283e-38
-0.12225334 0.095400006 0.74200004 1.0604283e-38
-0.12018858 0.094885714 0.73800004 1.0420627e-38
-0.11846096 0.09462858 0.73600006 1.0697214e-38
-0.11674096 0.094371431 0.73400003 1.0973798e-38
-0.11534286 0.094371431 0.73400003 1.1250385e-38
-0.11378953 0.094242856 0.73300004 1.115887e-38
-0.11239334 0.094242856 0.73300004 1.0236914e-38
-0.11069429 0.093985714 0.73100001 1.0147105e-38
-0.10915238 0.093857147 0.73000002 1.134563e-38
-0.10746667 0.093600005 0.72800004 1.2267632e-38
-0.10608001 0.093600005 0.72800004 1.2820806e-38
-0.10454953 0.09347143 0.72700006 1.2267376e-38
-0.10288095 0.093214288 0.72500002 1.2728354e-38
-0.10122 0.092957146 0.72300005 1.2820956e-38
-0.099842861 0.092957146 0.72300005 1.3927304e-38
-0.098465718 0.092957146 0.72300005 1.410884e-38
-0.096954294 0.092828579 0.72200006 1.5215188e-38
-0.095579058 0.092828579 0.72200006 1.512262e-38
-0.094203815 0.092828579 0.72200006 1.512262e-38
-0.092828579 0.092828579 0.72200006 1.4938591e-38
-0.091200002 0.09257143 0.72000003 1.4938591e-38
-0.089828581 0.09257143 0.72000003 1.4846393e-38
-0.088457145 0.09257143 0.72000003 1.4938589e-38
-0.087085716 0.09257143 0.72000003 1.5123346e-38
-0.085714288 0.09257143 0.72000003 1.5768715e-38
-0.08434286 0.09257143 0.72000003 1.5308465e-38
-0.082971431 0.09257143 0.72000003 1.521627e-38
-0.081826672 0.092828579 0.72200006 1.5124787e-38
-0.080451436 0.092828579 0.72200006 1.549357e-38
-0.079076193 0.092828579 0.72200006 1.5676169e-38
-0.077808574 0.092957146 0.72300005 1.6137147e-38
-0.076325722 0.092828579 0.72200006 1.4938981e-38
-0.074950479 0.092828579 0.72200006 1.4478003e-38
-0.073575243 0.092828579 0.72200006 1.2635532e-38
-0.072200008 0.092828579 0.72200006 1.2082358e-38
-0.070824765 0.092828579 0.72200006 1.2361016e-38
-0.069449529 0.092828579 0.72200006 1.2821994e-38
-0.068168573 0.092957146 0.72300005 1.3742209e-38
-0.066976197 0.093214288 0.72500002 1.3650013e-38
-0.065776192 0.09347143 0.72700006 1.300573e-38
-0.064479999 0.093600005 0.72800004 1.2821339e-38
-0.063266665 0.093857147 0.73000002 1.2821341e-38
-0.06196095 0.093985714 0.73100001 1.2729146e-38
-0.060734287 0.094242856 0.73300004 1.2636229e-38
-0.0593381 0.094242856 0.73300004 1.2544033e-38
-0.058020953 0.094371431 0.73400003 1.2268162e-38
-0.056777146 0.09462858 0.73600006 1.189938e-38
-0.055525716 0.094885714 0.73800004 1.2450401e-38
-0.054193333 0.095014282 0.73900002 1.162064e-38
-0.052928574 0.095271438 0.74100006 1.0699037e-38
-0.051586669 0.095400006 0.74200004 8.7629289e-39
-0.050308574 0.095657147 0.74400002 8.9473047e-39
-0.048891429 0.095657147 0.74400002 9.2238916e-39
-0.047474284 0.095657147 0.74400002 9.4983303e-39
-0.1257543 0.097335242 0.74600005 1.0879437e-38
-0.124 0.097074285 0.74400002 1.0696125e-38
-0.12225334 0.096813336 0.74200004 1.060393e-38
-0.12035143 0.096421905 0.73900002 1.0328431e-38
-0.11878286 0.09629143 0.73800004 1.0881605e-38
-0.11705906 0.096030481 0.73600006 1.1341507e-38
-0.11534286 0.095769532 0.73400003 1.1249312e-38
-0.11394477 0.095769532 0.73400003 1.1434705e-38
-0.11239334 0.09563905 0.73300004 1.0328357e-38
-0.11099715 0.09563905 0.73300004 1.0605206e-38
-0.10915238 0.095247619 0.73000002 1.1527148e-38
-0.10746667 0.09498667 0.72800004 1.1896695e-38
-0.10608001 0.09498667 0.72800004 1.2081086e-38
-0.10454953 0.094856195 0.72700006 1.1160619e-38
-0.10288095 0.094595239 0.72500002 1.1805989e-38
-0.1015 0.094595239 0.72500002 1.1531258e-38
-0.10011905 0.094595239 0.72500002 1.2361019e-38
-0.098465718 0.094334297 0.72300005 1.2636903e-38
-0.096954294 0.094203815 0.72200006 1.3558859e-38
-0.095579058 0.094203815 0.72200006 1.3650701e-38
-0.094203815 0.094203815 0.72200006 1.4296071e-38
-0.092828579 0.094203815 0.72200006 1.4847131e-38
-0.091200002 0.093942866 0.72000003 1.466274e-38
-0.089828581 0.093942866 0.72000003 1.4663109e-38
-0.088457145 0.093942866 0.72000003 1.4755304e-38
-0.087085716 0.093942866 0.72000003 1.48475e-38
-0.085714288 0.093942866 0.72000003 1.5031891e-38
-0.08434286 0.093942866 0.72000003 1.5400325e-38
-0.082971431 0.093942866 0.72000003 1.5215934e-38
-0.081826672 0.094203815 0.72200006 1.4848576e-38
-0.080451436 0.094203815 0.72200006 1.4571989e-38
-0.079076193 0.094203815 0.72200006 1.3837276e-38
-0.077808574 0.094334297 0.72300005 1.3191906e-38
-0.076431431 0.094334297 0.72300005 1.2361452e-38
-0.074950479 0.094203815 0.72200006 1.1531691e-38
-0.073575243 0.094203815 0.72200006 1.0701918e-38
-0.072300009 0.094334297 0.72300005 9.2267881e-39
-0.070922859 0.094334297 0.72300005 6.9297068e-39
-0.069545716 0.094334297 0.72300005 1.0340945e-38
-0.068357147 0.094595239 0.72500002 1.3005733e-38
-0.067160957 0.094856195 0.72700006 1.3190124e-38
-0.065776192 0.094856195 0.72700006 1.3005733e-38
-0.064479999 0.09498667 0.72800004 1.2913537e-38
-0.063266665 0.095247619 0.73000002 1.2821341e-38
-0.06196095 0.095378101 0.73100001 1.2729146e-38
-0.060734287 0.09563905 0.73300004 1.2544752e-38
-0.059419051 0.095769532 0.73400003 1.2452556e-38
-0.058020953 0.095769532 0.73400003 1.2360358e-38
-0.056777146 0.096030481 0.73600006 1.189938e-38
-0.055600952 0.096421905 0.73900002 1.2083058e-38
-0.054340001 0.096682861 0.74100006 1.1345493e-38
-0.052999999 0.096813336 0.74200004 1.0423533e-38
-0.051725715 0.097074285 0.74400002 9.040599e-39
-0.050443813 0.097335242 0.74600005 9.2253265e-39
-0.049022861 0.097335242 0.74600005 8.9487396e-39
-0.047665719 0.097465716 0.74700004 9.4061347e-39
-0.046242859 0.097465716 0.74700004 1.0512482e-38
-0.1257543 0.098756194 0.74600005 1.0879437e-38
-0.124 0.09849143 0.74400002 1.0696125e-38
-0.12225334 0.098226674 0.74200004 1.060393e-38
-0.12067715 0.098094292 0.74100006 1.0420627e-38
-0.11894382 0.097829521 0.73900002 1.0973801e-38
-0.11705906 0.09743239 0.73600006 1.1617378e-38
-0.11565715 0.09743239 0.73600006 1.1248596e-38
-0.11394477 0.097167619 0.73400003 1.1433606e-38
-0.11254667 0.097167619 0.73400003 1.0050672e-38
-0.11099715 0.097035244 0.73300004 1.0235712e-38
-0.1093019 0.096770473 0.73100001 1.0235712e-38
-0.1077619 0.096638098 0.73000002 1.0330417e-38
-0.10608001 0.096373342 0.72800004 9.9616402e-39
-0.10454953 0.09624096 0.72700006 8.4911961e-39
-0.10316477 0.09624096 0.72700006 8.3068076e-39
-0.10178001 0.09624096 0.72700006 8.3086181e-39
-0.10011905 0.095976189 0.72500002 8.4008137e-39
-0.098465718 0.09571144 0.72300005 7.848363e-39
-0.097088575 0.09571144 0.72300005 7.2029936e-39
-0.095579058 0.095579058 0.72200006 4.0762988e-39
-0.094203815 0.095579058 0.72200006 3.8919075e-39
-0.092828579 0.095579058 0.72200006 5.9142839e-39
-0.091453344 0.095579058 0.72200006 7.0206314e-39
-0.089828581 0.095314287 0.72000003 8.1233818e-39
-0.088457145 0.095314287 0.72000003 8.4921644e-39
-0.087085716 0.095314287 0.72000003 7.1124739e-39
-0.085714288 0.095314287 0.72000003 6.2827133e-39
-0.08434286 0.095314287 0.72000003 5.7310094e-39
-0.083201908 0.095579058 0.72200006 4.9934444e-39
-0.081826672 0.095579058 0.72200006 2.4184155e-39
-0.08056286 0.09571144 0.72300005 2.0572042e-40
-0.079185717 0.09571144 0.72300005 6.6512491e-40
-0.078023814 0.095976189 0.72500002 1.3104943e-39
-0.076642863 0.095976189 0.72500002 1.1307946e-39
-0.075261906 0.095976189 0.72500002 8.5420772e-40
-0.073880956 0.095976189 0.72500002 8.5277279e-40
-0.072499998 0.095976189 0.72500002 1.7610118e-41
-0.071119048 0.095976189 0.72500002 2.8985578e-40
-0.069738097 0.095976189 0.72500002 1.0431369e-38
-0.068545721 0.09624096 0.72700006 1.3558551e-38
-0.067253336 0.096373342 0.72800004 1.3189768e-38
-0.065866672 0.096373342 0.72800004 1.2913537e-38
-0.064657144 0.096638098 0.73000002 1.2821341e-38
-0.063266665 0.096638098 0.73000002 1.2821341e-38
-0.062130481 0.097035244 0.73300004 1.263695e-38
-0.060734287 0.097035244 0.73300004 1.2544752e-38
-0.059419051 0.097167619 0.73400003 1.236036e-38
-0.058179051 0.09743239 0.73600006 1.2268162e-38
-0.056931432 0.097697146 0.73800004 1.189938e-38
-0.055600952 0.097829521 0.73900002 1.2083058e-38
-0.054340001 0.098094292 0.74100006 1.1345493e-38
-0.052999999 0.098226674 0.74200004 1.0331343e-38
-0.051725715 0.09849143 0.74400002 9.3171915e-39
-0.050443813 0.098756194 0.74600005 8.7636421e-39
-0.049022861 0.098756194 0.74600005 8.7636421e-39
-0.047665719 0.098888576 0.74700004 9.3157369e-39
-0.046242859 0.098888576 0.74700004 1.0329889e-38
-0.1257543 0.10017715 0.74600005 1.0971633e-38
-0.124 0.099908568 0.74400002 1.0696125e-38
-0.12225334 0.099640004 0.74200004 1.0511734e-38
-0.12067715 0.099505723 0.74100006 1.0236236e-38
-0.11894382 0.099237144 0.73900002 1.0881605e-38
-0.11737715 0.099102862 0.73800004 1.152518e-38
-0.11565715 0.098834291 0.73600006 1.1340788e-38
-0.11425525 0.098834291 0.73600006 1.189207e-38
-0.11254667 0.09856572 0.73400003 1.041694e-38
-0.11099715 0.098431431 0.73300004 1.0786366e-38
-0.1093019 0.098162852 0.73100001 1.1155143e-38
-0.1077619 0.09802857 0.73000002 1.0330417e-38
-0.10637143 0.09802857 0.73000002 9.5928633e-39
-0.10469334 0.097759999 0.72800004 8.5823141e-39
-0.10316477 0.097625725 0.72700006 8.7667026e-39
-0.10178001 0.097625725 0.72700006 8.7682019e-39
-0.10011905 0.097357146 0.72500002 8.3994194e-39
-0.098738097 0.097357146 0.72500002 7.940944e-39
-0.097088575 0.097088575 0.72300005 7.1111833e-39
-0.09571144 0.097088575 0.72300005 2.8817086e-39
-0.094334297 0.097088575 0.72300005 2.1441436e-39
-0.092957146 0.097088575 0.72300005 1.0391063e-39
-0.091453344 0.096954294 0.72200006 3.9893664e-39
-0.090078101 0.096954294 0.72200006 6.4685493e-39
-0.088702865 0.096954294 0.72200006 6.284158e-39
-0.087327629 0.096954294 0.72200006 4.2627065e-39
-0.085952386 0.096954294 0.72200006 2.6031852e-39
-0.084577151 0.096954294 0.72200006 1.5937486e-39
-0.083201908 0.096954294 0.72200006 2.3901948e-41
-0.081940003 0.097088575 0.72300005 8.4855348e-40
-0.08056286 0.097088575 0.72300005 1.6992145e-41
-0.079185717 0.097088575 0.72300005 3.8315003e-40
-0.078023814 0.097357146 0.72500002 3.0568233e-39
-0.076642863 0.097357146 0.72500002 4.6241518e-39
-0.075261906 0.097357146 0.72500002 3.7943911e-39
-0.073880956 0.097357146 0.72500002 2.6920065e-39
-0.072700009 0.097625725 0.72700006 1.5812252e-41
-0.071315244 0.097625725 0.72700006 4.7747283e-40
-0.069930486 0.097625725 0.72700006 1.1356549e-38
-0.068545721 0.097625725 0.72700006 1.4019529e-38
-0.067253336 0.097759999 0.72800004 1.3189768e-38
-0.065866672 0.097759999 0.72800004 1.3005733e-38
-0.064657144 0.09802857 0.73000002 1.2913537e-38
-0.063266665 0.09802857 0.73000002 1.2729506e-38
-0.062130481 0.098431431 0.73300004 1.263731e-38
-0.060734287 0.098431431 0.73300004 1.2361442e-38
-0.059419051 0.09856572 0.73400003 1.2177051e-38
-0.058179051 0.098834291 0.73600006 1.1992297e-38
-0.056931432 0.099102862 0.73800004 1.1807906e-38
-0.055600952 0.099237144 0.73900002 1.2175253e-38
-0.054340001 0.099505723 0.74100006 1.1529884e-38
-0.052999999 0.099640004 0.74200004 1.0239145e-38
-0.051725715 0.099908568 0.74400002 8.487428e-39
-0.050443813 0.10017715 0.74600005 8.7629134e-39
-0.049022861 0.10017715 0.74600005 8.9473047e-39
-0.047665719 0.10031143 0.74700004 9.3157369e-39
-0.046242859 0.10031143 0.74700004 1.0237693e-38
-0.044819999 0.10031143 0.74700004 1.0880882e-38
-0.12541714 0.10132572 0.74400002 1.0879437e-38
-0.124 0.10132572 0.74400002 1.0696122e-38
-0.12225334 0.10105333 0.74200004 1.0511731e-38
-0.12067715 0.10091715 0.74100006 1.0236589e-38
-0.11926573 0.10091715 0.74100006 1.0789763e-38
-0.11753619 0.10064476 0.73900002 1.1525533e-38
-0.11597143 0.10050857 0.73800004 1.1248946e-38
-0.11425525 0.1002362 0.73600006 1.1433253e-38
-0.11254667 0.099963814 0.73400003 9.6815361e-39
-0.11114857 0.099963814 0.73400003 1.0603054e-38
-0.10960096 0.099827625 0.73300004 1.1801579e-38
-0.10790952 0.099555232 0.73100001 1.0792464e-38
-0.10637143 0.099419042 0.73000002 9.409551e-39
-0.10469334 0.099146672 0.72800004 8.1245716e-39
-0.10330667 0.099146672 0.72800004 8.9543196e-39
-0.10178001 0.099010482 0.72700006 9.2288368e-39
-0.10039525 0.099010482 0.72700006 8.5834674e-39
-0.098738097 0.098738097 0.72500002 8.3090231e-39
-0.097357146 0.098738097 0.72500002 7.8480449e-39
-0.09571144 0.098465718 0.72300005 2.9732471e-39
-0.094334297 0.098465718 0.72300005 2.6044645e-39
-0.092957146 0.098465718 0.72300005 2.6971983e-39
-0.091580003 0.098465718 0.72300005 5.2786759e-39
-0.090078101 0.098329529 0.72200006 4.53499e-39
-0.088702865 0.098329529 0.72200006 3.3364468e-39
-0.087327629 0.098329529 0.72200006 2.2376663e-39
-0.085952386 0.098329529 0.72200006 3.5284051e-39
-0.084577151 0.098329529 0.72200006 5.7338807e-39
-0.083201908 0.098329529 0.72200006 2.0460555e-39
-0.081940003 0.098465718 0.72300005 8.5139812e-40
-0.08056286 0.098465718 0.72300005 1.3123763e-39
-0.079185717 0.098465718 0.72300005 2.5080062e-39
-0.078023814 0.098738097 0.72500002 5.1816794e-39
-0.076642863 0.098738097 0.72500002 6.0981973e-39
-0.075469524 0.099010482 0.72700006 5.4528279e-39
-0.074084766 0.099010482 0.72700006 3.6150544e-39
-0.072700009 0.099010482 0.72700006 1.1162043e-40
-0.071315244 0.099010482 0.72700006 7.6166177e-40
-0.069930486 0.099010482 0.72700006 1.0903181e-38
-0.068545721 0.099010482 0.72700006 1.4112077e-38
-0.067253336 0.099146672 0.72800004 1.300573e-38
-0.066047616 0.099419042 0.73000002 1.2913537e-38
-0.064657144 0.099419042 0.73000002 1.2913537e-38
-0.063353337 0.099555232 0.73100001 1.2728793e-38
-0.062130481 0.099827625 0.73300004 1.2728793e-38
-0.060817145 0.099963814 0.73400003 1.2452559e-38
-0.059419051 0.099963814 0.73400003 1.2360363e-38
-0.058179051 0.1002362 0.73600006 1.2175969e-38
-0.057008572 0.10064476 0.73900002 1.1991578e-38
-0.055751432 0.10091715 0.74100006 1.2175253e-38
-0.054413334 0.10105333 0.74200004 1.1622079e-38
-0.053142861 0.10132572 0.74400002 1.0238066e-38
-0.051864766 0.10159811 0.74600005 8.486349e-39
-0.050443813 0.10159811 0.74600005 8.6714493e-39
-0.049022861 0.10159811 0.74600005 9.0402318e-39
-0.047665719 0.10173429 0.74700004 9.3157369e-39
-0.046242859 0.10173429 0.74700004 1.0145498e-38
-0.044819999 0.10173429 0.74700004 1.0788687e-38
-0.12541714 0.10274286 0.74400002 1.0879437e-38
-0.124 0.10274286 0.74400002 1.0879435e-38
-0.12225334 0.10246667 0.74200004 1.0326261e-38
-0.12067715 0.10232858 0.74100006 1.0143305e-38
-0.11926573 0.10232858 0.74100006 1.0973065e-38
-0.11753619 0.10205238 0.73900002 1.1341495e-38
-0.11597143 0.10191429 0.73800004 1.1157103e-38
-0.11456572 0.10191429 0.73800004 1.1250316e-38
-0.11254667 0.1013619 0.73400003 1.0973729e-38
-0.11114857 0.1013619 0.73400003 1.1616903e-38
-0.10960096 0.10122381 0.73300004 1.2354468e-38
-0.10790952 0.10094762 0.73100001 1.1435749e-38
-0.10637143 0.10080953 0.73000002 8.9464667e-39
-0.10498095 0.10080953 0.73000002 6.3750336e-39
-0.10330667 0.10053334 0.72800004 8.3111222e-39
-0.10192001 0.10053334 0.72800004 8.6770895e-39
-0.10039525 0.10039525 0.72700006 8.4926983e-39
-0.098738097 0.10011905 0.72500002 8.4015718e-39
-0.097357146 0.10011905 0.72500002 7.3874199e-39
-0.09571144 0.099842861 0.72300005 4.3507739e-39
-0.094334297 0.099842861 0.72300005 3.9819914e-39
-0.092957146 0.099842861 0.72300005 5.364022e-39
-0.091580003 0.099842861 0.72300005 5.9171958e-39
-0.090078101 0.099704772 0.72200006 1.2267513e-39
-0.088702865 0.099704772 0.72200006 7.6577318e-40
-0.087327629 0.099704772 0.72200006 1.317512e-39
-0.085952386 0.099704772 0.72200006 4.3599678e-39
-0.084577151 0.099704772 0.72200006 8.3099479e-39
-0.083317153 0.099842861 0.72300005 3.054797e-39
-0.081940003 0.099842861 0.72300005 8.5208475e-40
-0.08056286 0.099842861 0.72300005 1.8662367e-39
-0.079185717 0.099842861 0.72300005 3.7954673e-39
-0.078023814 0.10011905 0.72500002 5.2705974e-39
-0.076854289 0.10039525 0.72700006 4.9021932e-39
-0.075469524 0.10039525 0.72700006 4.4412151e-39
-0.074084766 0.10039525 0.72700006 2.1449662e-39
-0.072700009 0.10039525 0.72700006 5.7764045e-40
-0.071315244 0.10039525 0.72700006 1.8684017e-39
-0.069930486 0.10039525 0.72700006 1.0719182e-38
-0.068545721 0.10039525 0.72700006 1.3928412e-38
-0.067253336 0.10053334 0.72800004 1.291426e-38
-0.066047616 0.10080953 0.73000002 1.2821702e-38
-0.064657144 0.10080953 0.73000002 1.2821702e-38
-0.063353337 0.10094762 0.73100001 1.2728793e-38
-0.062130481 0.10122381 0.73300004 1.2728793e-38
-0.060817145 0.1013619 0.73400003 1.2452559e-38
-0.059580956 0.1016381 0.73600006 1.2452559e-38
-0.058337145 0.10191429 0.73800004 1.2176688e-38
-0.057008572 0.10205238 0.73900002 1.1807906e-38
-0.055751432 0.10232858 0.74100006 1.2175253e-38
-0.054413334 0.10246667 0.74200004 1.1437688e-38
-0.052999999 0.10246667 0.74200004 1.0238422e-38
-0.051864766 0.10301905 0.74600005 8.6710962e-39
-0.050443813 0.10301905 0.74600005 9.0377025e-39
-0.049088575 0.10315715 0.74700004 9.5908763e-39
-0.047665719 0.10315715 0.74700004 9.4993897e-39
-0.046366669 0.10343333 0.74900001 1.032915e-38
-0.124 0.10416 0.74400002 1.0879791e-38
-0.12225334 0.10388 0.74200004 9.8656386e-39
-0.12067715 0.10374001 0.74100006 9.5894245e-39
-0.11926573 0.10374001 0.74100006 1.0787968e-38
-0.11753619 0.10346 0.73900002 1.106633e-38
-0.11612858 0.10346 0.73900002 1.0881939e-38
-0.11456572 0.10332 0.73800004 1.1066305e-38
-0.11254667 0.10276 0.73400003 1.0881914e-38
-0.11114857 0.10276 0.73400003 1.124961e-38
-0.10960096 0.10262001 0.73300004 1.2540349e-38
-0.10790952 0.10234 0.73100001 1.1805626e-38
-0.10637143 0.1022 0.73000002 8.7631699e-39
-0.10498095 0.1022 0.73000002 7.8487063e-39
-0.10330667 0.10192001 0.72800004 8.4018759e-39
-0.10192001 0.10192001 0.72800004 8.493029e-39
-0.10039525 0.10178001 0.72700006 8.9540071e-39
-0.099010482 0.10178001 0.72700006 7.5739621e-39
-0.097625725 0.10178001 0.72700006 5.7300496e-39
-0.09624096 0.10178001 0.72700006 1.4088304e-39
-0.094595239 0.1015 0.72500002 1.777613e-39
-0.093214288 0.1015 0.72500002 3.0659808e-39
-0.091833338 0.1015 0.72500002 6.0162409e-39
-0.090452388 0.1015 0.72500002 3.4351164e-39
-0.088825718 0.10122 0.72300005 1.7755951e-39
-0.087448575 0.10122 0.72300005 1.9611018e-39
-0.086071432 0.10122 0.72300005 5.1879488e-39
-0.084694296 0.10122 0.72300005 7.4809061e-39
-0.083317153 0.10122 0.72300005 2.1335596e-39
-0.082166664 0.1015 0.72500002 6.623083e-40
-0.080785714 0.1015 0.72500002 6.623083e-40
-0.079404764 0.1015 0.72500002 5.7289706e-40
-0.078023814 0.1015 0.72500002 3.1543747e-39
-0.076854289 0.10178001 0.72700006 4.5319786e-39
-0.075469524 0.10178001 0.72700006 3.7944136e-39
-0.074186668 0.10192001 0.72800004 8.5493359e-40
-0.072800003 0.10192001 0.72800004 4.8615107e-40
-0.071413331 0.10192001 0.72800004 2.142895e-39
-0.070026673 0.10192001 0.72800004 1.0809284e-38
-0.068640009 0.10192001 0.72800004 1.3927333e-38
-0.067438096 0.1022 0.73000002 1.3097572e-38
-0.066047616 0.1022 0.73000002 1.3097928e-38
-0.064657144 0.1022 0.73000002 1.2913537e-38
-0.063353337 0.10234 0.73100001 1.2728793e-38
-0.062215243 0.10276 0.73400003 1.2636597e-38
-0.060982861 0.10304001 0.73600006 1.2452559e-38
-0.059580956 0.10304001 0.73600006 1.2452559e-38
-0.058337145 0.10332 0.73800004 1.1991941e-38
-0.057008572 0.10346 0.73900002 1.1715354e-38
-0.055751432 0.10374001 0.74100006 1.1990865e-38
-0.054413334 0.10388 0.74200004 1.1345495e-38
-0.052999999 0.10388 0.74200004 9.9622049e-39
-0.051864766 0.10444001 0.74600005 8.948053e-39
-0.050443813 0.10444001 0.74600005 9.040229e-39
-0.049088575 0.10458001 0.74700004 9.1324246e-39
-0.047665719 0.10458001 0.74700004 9.4068409e-39
-0.046242859 0.10458001 0.74700004 1.0328797e-38
-0.124 0.10557714 0.74400002 1.0879791e-38
-0.12225334 0.10529334 0.74200004 1.005003e-38
-0.12084001 0.10529334 0.74200004 9.6801754e-39
-0.11926573 0.10515144 0.74100006 1.0602132e-38
-0.11753619 0.10486761 0.73900002 1.1249296e-38
-0.11612858 0.10486761 0.73900002 1.1064905e-38
-0.11456572 0.10472572 0.73800004 1.0145807e-38
-0.11285334 0.10444191 0.73600006 9.961416e-39
-0.11114857 0.1041581 0.73400003 1.0329815e-38
-0.10960096 0.10401619 0.73300004 1.1620553e-38
-0.10790952 0.10373238 0.73100001 1.1253553e-38
-0.10637143 0.10359048 0.73000002 9.1330538e-39
-0.10498095 0.10359048 0.73000002 8.76713e-39
-0.10330667 0.10330667 0.72800004 9.0437168e-39
-0.10192001 0.10330667 0.72800004 8.6770951e-39
-0.10053334 0.10330667 0.72800004 8.8614864e-39
-0.099146672 0.10330667 0.72800004 6.9293635e-39
-0.097625725 0.10316477 0.72700006 5.0854509e-39
-0.09624096 0.10316477 0.72700006 1.1326345e-39
-0.094856195 0.10316477 0.72700006 1.4092214e-39
-0.09347143 0.10316477 0.72700006 1.04163e-39
-0.092086673 0.10316477 0.72700006 4.5450639e-39
-0.090452388 0.10288095 0.72500002 6.195928e-39
-0.08907143 0.10288095 0.72500002 4.5364067e-39
-0.08769048 0.10288095 0.72500002 5.3643751e-39
-0.086309522 0.10288095 0.72500002 6.5629183e-39
-0.084928572 0.10288095 0.72500002 5.0899504e-39
-0.083547622 0.10288095 0.72500002 4.8016893e-40
-0.082166664 0.10288095 0.72500002 4.7788902e-40
-0.080785714 0.10288095 0.72500002 8.4667154e-40
-0.079404764 0.10288095 0.72500002 5.7291667e-40
-0.078239053 0.10316477 0.72700006 2.6934162e-39
-0.076854289 0.10316477 0.72700006 3.9795307e-39
-0.07557334 0.10330667 0.72800004 3.4263569e-39
-0.074186668 0.10330667 0.72800004 6.680214e-40
-0.072800003 0.10330667 0.72800004 2.2353471e-39
-0.071413331 0.10330667 0.72800004 9.3186236e-39
-0.070026673 0.10330667 0.72800004 1.3744014e-38
-0.068640009 0.10330667 0.72800004 1.3834777e-38
-0.067438096 0.10359048 0.73000002 1.3373799e-38
-0.066047616 0.10359048 0.73000002 1.3097209e-38
-0.064745717 0.10373238 0.73100001 1.3005014e-38
-0.063526668 0.10401619 0.73300004 1.2820623e-38
-0.062215243 0.1041581 0.73400003 1.2636231e-38
-0.060982861 0.10444191 0.73600006 1.2452559e-38
-0.059580956 0.10444191 0.73600006 1.2360363e-38
-0.058337145 0.10472572 0.73800004 1.1899748e-38
-0.057008572 0.10486761 0.73900002 1.1807552e-38
-0.055751432 0.10515144 0.74100006 1.1898666e-38
-0.054413334 0.10529334 0.74200004 1.1529884e-38
-0.052999999 0.10529334 0.74200004 1.0146959e-38
-0.051864766 0.10586096 0.74600005 8.9484159e-39
-0.050511431 0.10600287 0.74700004 9.5937531e-39
-0.049219999 0.10628667 0.74900001 9.3171662e-39
-0.047793336 0.10628667 0.74900001 9.406485e-39
-0.046366669 0.10628667 0.74900001 1.0328441e-38
-0.12433334 0.10728192 0.74600005 1.097163e-38
-0.12258286 0.10699429 0.74400002 1.0695043e-38
-0.12116572 0.10699429 0.74400002 1.0048973e-38
-0.11942668 0.10670667 0.74200004 9.9567777e-39
-0.11785429 0.10656286 0.74100006 1.0511384e-38
-0.11612858 0.10627524 0.73900002 1.2078709e-38
-0.11456572 0.10613143 0.73800004 1.1895384e-38
-0.11285334 0.10584382 0.73600006 1.1342211e-38
-0.11145144 0.10584382 0.73600006 1.0975555e-38
-0.10975048 0.1055562 0.73400003 1.1159947e-38
-0.10820477 0.10541239 0.73300004 1.051744e-38
-0.10651714 0.10512476 0.73100001 9.3188968e-39
-0.10498095 0.10498095 0.73000002 8.2143962e-39
-0.10359048 0.10498095 0.73000002 8.9519612e-39
-0.1022 0.10498095 0.73000002 9.0444848e-39
-0.10053334 0.10469334 0.72800004 9.6898542e-39
-0.099146672 0.10469334 0.72800004 9.1374161e-39
-0.097759999 0.10469334 0.72800004 9.1374161e-39
-0.096373342 0.10469334 0.72800004 7.9421631e-39
-0.094856195 0.10454953 0.72700006 7.5733806e-39
-0.09347143 0.10454953 0.72700006 6.9302337e-39
-0.092086673 0.10454953 0.72700006 7.1146249e-39
-0.090452388 0.10426191 0.72500002 6.7472941e-39
-0.08907143 0.10426191 0.72500002 6.4707073e-39
-0.08769048 0.10426191 0.72500002 7.0220734e-39
-0.086309522 0.10426191 0.72500002 7.6674428e-39
-0.084928572 0.10426191 0.72500002 7.0206594e-39
-0.083547622 0.10426191 0.72500002 4.5313774e-39
-0.082393341 0.10454953 0.72700006 2.788193e-39
-0.081008576 0.10454953 0.72700006 3.6179537e-39
-0.079623811 0.10454953 0.72700006 5.4521496e-39
-0.078239053 0.10454953 0.72700006 6.3741059e-39
-0.076960005 0.10469334 0.72800004 7.7562893e-39
-0.07557334 0.10469334 0.72800004 7.2031155e-39
-0.074186668 0.10469334 0.72800004 7.0205445e-39
-0.072800003 0.10469334 0.72800004 1.070837e-38
-0.071413331 0.10469334 0.72800004 1.1809364e-38
-0.070026673 0.10469334 0.72800004 1.3192299e-38
-0.068640009 0.10469334 0.72800004 1.3465992e-38
-0.067438096 0.10498095 0.73000002 1.3189405e-38
-0.066047616 0.10498095 0.73000002 1.3097928e-38
-0.064745717 0.10512476 0.73100001 1.2821341e-38
-0.063526668 0.10541239 0.73300004 1.2821341e-38
-0.062384766 0.10584382 0.73600006 1.263695e-38
-0.061148573 0.10613143 0.73800004 1.2728424e-38
-0.05974286 0.10613143 0.73800004 1.2359642e-38
-0.058337145 0.10613143 0.73800004 1.1991228e-38
-0.057008572 0.10627524 0.73900002 1.1899032e-38
-0.055751432 0.10656286 0.74100006 1.1899019e-38
-0.054413334 0.10670667 0.74200004 1.1806824e-38
-0.052999999 0.10670667 0.74200004 1.0791612e-38
-0.051864766 0.10728192 0.74600005 9.408678e-39
-0.050646666 0.10771333 0.74900001 9.1324274e-39
-0.049219999 0.10771333 0.74900001 9.3168187e-39
-0.047793336 0.10771333 0.74900001 9.6827216e-39
-0.046428576 0.10785715 0.75000006 1.0328091e-38
-0.12116572 0.10841143 0.74400002 1.0325913e-38
-0.11942668 0.10812001 0.74200004 1.0141522e-38
-0.11785429 0.10797429 0.74100006 9.7727368e-39
-0.11644286 0.10797429 0.74100006 1.1155671e-38
-0.11472096 0.10768285 0.73900002 1.1896461e-38
-0.11316001 0.10753715 0.73800004 1.1712069e-38
-0.11145144 0.10724572 0.73600006 1.1620246e-38
-0.10975048 0.10695428 0.73400003 1.1896833e-38
-0.10820477 0.10680858 0.73300004 1.1163212e-38
-0.10651714 0.10651714 0.73100001 9.2271034e-39
-0.10498095 0.10637143 0.73000002 7.8456137e-39
-0.10359048 0.10637143 0.73000002 8.6753743e-39
-0.1022 0.10637143 0.73000002 8.5838794e-39
-0.10053334 0.10608001 0.72800004 9.0448575e-39
-0.099146672 0.10608001 0.72800004 9.3207283e-39
-0.097759999 0.10608001 0.72800004 1.033488e-38
-0.096373342 0.10608001 0.72800004 1.0058334e-38
-0.09498667 0.10608001 0.72800004 1.0058334e-38
-0.09347143 0.10593429 0.72700006 9.4158905e-39
-0.092086673 0.10593429 0.72700006 8.9549124e-39
-0.090701908 0.10593429 0.72700006 8.6790583e-39
-0.08907143 0.10564286 0.72500002 8.6790583e-39
-0.08769048 0.10564286 0.72500002 8.5872158e-39
-0.086309522 0.10564286 0.72500002 8.5872158e-39
-0.084928572 0.10564286 0.72500002 9.0471248e-39
-0.083547622 0.10564286 0.72500002 7.4797991e-39
-0.082393341 0.10593429 0.72700006 6.0986205e-39
-0.081008576 0.10593429 0.72700006 6.6517943e-39
-0.079623811 0.10593429 0.72700006 8.1222286e-39
-0.078239053 0.10593429 0.72700006 9.2285761e-39
-0.076960005 0.10608001 0.72800004 9.3214822e-39
-0.07557334 0.10608001 0.72800004 8.7683084e-39
-0.074186668 0.10608001 0.72800004 8.4924502e-39
-0.072800003 0.10608001 0.72800004 1.208808e-38
-0.071413331 0.10608001 0.72800004 1.2546562e-38
-0.070219047 0.10637143 0.73000002 1.3099736e-38
-0.068828575 0.10637143 0.73000002 1.3098288e-38
-0.067438096 0.10637143 0.73000002 1.3006093e-38
-0.066138096 0.10651714 0.73100001 1.2913544e-38
-0.064922862 0.10680858 0.73300004 1.2821348e-38
-0.063526668 0.10680858 0.73300004 1.2728793e-38
-0.062384766 0.10724572 0.73600006 1.2636597e-38
-0.061148573 0.10753715 0.73800004 1.2452206e-38
-0.05974286 0.10753715 0.73800004 1.236001e-38
-0.058337145 0.10753715 0.73800004 1.1991944e-38
-0.057008572 0.10768285 0.73900002 1.1807552e-38
-0.055751432 0.10797429 0.74100006 1.1806834e-38
-0.054413334 0.10812001 0.74200004 1.1622442e-38
-0.052999999 0.10812001 0.74200004 1.0884161e-38
-0.051864766 0.10870286 0.74600005 9.0402486e-39
-0.050646666 0.10914 0.74900001 9.040229e-39
-0.049285717 0.10928572 0.75000006 9.3168159e-39
-0.047857147 0.10928572 0.75000006 9.7756234e-39
-0.046428576 0.10928572 0.75000006 1.0328797e-38
-0.045000002 0.10928572 0.75000006 1.042063e-38
-0.12149144 0.11012381 0.74600005 1.0050052e-38
-0.11974857 0.10982857 0.74400002 9.9578567e-39
-0.11785429 0.10938572 0.74100006 9.497582e-39
-0.11644286 0.10938572 0.74100006 8.760017e-39
-0.11472096 0.10909048 0.73900002 9.0395003e-39
-0.11331333 0.10909048 0.73900002 1.1436587e-38
-0.11145144 0.10864763 0.73600006 1.208089e-38
-0.10975048 0.10835239 0.73400003 1.2726259e-38
-0.10820477 0.10820477 0.73300004 1.226778e-38
-0.10651714 0.10790952 0.73100001 1.1530214e-38
-0.10498095 0.1077619 0.73000002 1.1070313e-38
-0.10359048 0.1077619 0.73000002 1.0885921e-38
-0.1022 0.1077619 0.73000002 9.6881039e-39
-0.10053334 0.10746667 0.72800004 9.3193214e-39
-0.099146672 0.10746667 0.72800004 9.0452387e-39
-0.097759999 0.10746667 0.72800004 1.0151586e-38
-0.096373342 0.10746667 0.72800004 8.9548577e-39
-0.09498667 0.10746667 0.72800004 8.5860752e-39
-0.093600005 0.10746667 0.72800004 8.5861102e-39
-0.092086673 0.10731905 0.72700006 8.4939146e-39
-0.090701908 0.10731905 0.72700006 8.4013728e-39
-0.08907143 0.10702381 0.72500002 8.4935685e-39
-0.08769048 0.10702381 0.72500002 8.4017386e-39
-0.086309522 0.10702381 0.72500002 9.3236949e-39
-0.084928572 0.10702381 0.72500002 9.5991972e-39
-0.083547622 0.10702381 0.72500002 9.5991972e-39
-0.082393341 0.10731905 0.72700006 8.1244356e-39
-0.081008576 0.10731905 0.72700006 7.2024793e-39
-0.079623811 0.10731905 0.72700006 7.3857594e-39
-0.078239053 0.10731905 0.72700006 8.21552e-39
-0.076960005 0.10746667 0.72800004 8.9516361e-39
-0.07557334 0.10746667 0.72800004 9.6892012e-39
-0.074390478 0.1077619 0.73000002 9.6899509e-39
-0.072999999 0.1077619 0.73000002 1.2179233e-38
-0.071609527 0.1077619 0.73000002 1.3097938e-38
-0.070219047 0.1077619 0.73000002 1.3097938e-38
-0.068828575 0.1077619 0.73000002 1.3006449e-38
-0.067530476 0.10790952 0.73100001 1.2914253e-38
-0.066319048 0.10820477 0.73300004 1.2913537e-38
-0.064922862 0.10820477 0.73300004 1.2821341e-38
-0.063613333 0.10835239 0.73400003 1.2729146e-38
-0.062384766 0.10864763 0.73600006 1.2544755e-38
-0.061148573 0.10894287 0.73800004 1.236001e-38
-0.05974286 0.10894287 0.73800004 1.236001e-38
-0.058337145 0.10894287 0.73800004 1.2175972e-38
-0.057008572 0.10909048 0.73900002 1.1991581e-38
-0.055751432 0.10938572 0.74100006 1.1990865e-38
-0.054413334 0.10953334 0.74200004 1.1714278e-38
-0.052999999 0.10953334 0.74200004 1.079124e-38
-0.051934287 0.11027143 0.74700004 8.7629359e-39
-0.050714288 0.11071429 0.75000006 8.9487565e-39
-0.049417142 0.11100953 0.75200003 9.317539e-39
-0.047984764 0.11100953 0.75200003 9.5908763e-39
-0.046552382 0.11100953 0.75200003 1.0236246e-38
-0.045120001 0.11100953 0.75200003 1.042063e-38
-0.11974857 0.11124572 0.74400002 9.7734654e-39
-0.11785429 0.11079714 0.74100006 9.4986708e-39
-0.11644286 0.11079714 0.74100006 8.5767145e-39
-0.11503144 0.11079714 0.74100006 7.4732284e-39
-0.11331333 0.11049809 0.73900002 1.0976662e-38
-0.11175429 0.11034857 0.73800004 1.1712458e-38
-0.10975048 0.10975048 0.73400003 1.2265631e-38
-0.10835239 0.10975048 0.73400003 1.2082322e-38
-0.10680858 0.10960096 0.73300004 1.2358909e-38
-0.10512476 0.1093019 0.73100001 1.2451455e-38
-0.10373238 0.1093019 0.73100001 1.2082672e-38
-0.1022 0.10915238 0.73000002 1.1530217e-38
-0.10080953 0.10915238 0.73000002 1.1530217e-38
-0.099419042 0.10915238 0.73000002 1.0979196e-38
-0.097759999 0.10885334 0.72800004 1.0794805e-38
-0.096373342 0.10885334 0.72800004 9.9675803e-39
-0.09498667 0.10885334 0.72800004 9.4144065e-39
-0.093600005 0.10885334 0.72800004 8.8612524e-39
-0.092086673 0.10870381 0.72700006 8.8612524e-39
-0.090701908 0.10870381 0.72700006 8.6765178e-39
-0.08907143 0.10840476 0.72500002 8.7687134e-39
-0.08769048 0.10840476 0.72500002 8.7690736e-39
-0.086309522 0.10840476 0.72500002 9.9676167e-39
-0.084928572 0.10840476 0.72500002 1.0704089e-38
-0.083547622 0.10840476 0.72500002 1.0519698e-38
-0.082393341 0.10870381 0.72700006 1.0243827e-38
-0.081008576 0.10870381 0.72700006 8.676501e-39
-0.079623811 0.10870381 0.72700006 8.8580056e-39
-0.07834667 0.10885334 0.72800004 9.4111793e-39
-0.076960005 0.10885334 0.72800004 9.505526e-39
-0.07578095 0.10915238 0.73000002 1.00587e-38
-0.074390478 0.10915238 0.73000002 1.2083774e-38
-0.072999999 0.10915238 0.73000002 1.2913534e-38
-0.071707621 0.1093019 0.73100001 1.3373443e-38
-0.070315242 0.1093019 0.73100001 1.3189052e-38
-0.068922862 0.1093019 0.73100001 1.2730585e-38
-0.067530476 0.1093019 0.73100001 1.2730585e-38
-0.066319048 0.10960096 0.73300004 1.2821702e-38
-0.064922862 0.10960096 0.73300004 1.2729506e-38
-0.063613333 0.10975048 0.73400003 1.2729146e-38
-0.062384766 0.11004953 0.73600006 1.263695e-38
-0.061148573 0.11034857 0.73800004 1.236001e-38
-0.05974286 0.11034857 0.73800004 1.2267815e-38
-0.058416191 0.11049809 0.73900002 1.2084137e-38
-0.057008572 0.11049809 0.73900002 1.180755e-38
-0.055751432 0.11079714 0.74100006 1.208306e-38
-0.054413334 0.11094667 0.74200004 1.1529887e-38
-0.052999999 0.11094667 0.74200004 1.0423533e-38
-0.051934287 0.11169429 0.74700004 8.9484033e-39
-0.050714288 0.11214286 0.75000006 9.50121e-39
-0.049417142 0.1124419 0.75200003 9.3168187e-39
-0.047984764 0.1124419 0.75200003 9.4986806e-39
-0.046676192 0.11274095 0.75400001 1.0236246e-38
-0.04524 0.11274095 0.75400001 1.0603579e-38
-0.11926573 0.11220858 0.74100006 9.5905161e-39
-0.11785429 0.11220858 0.74100006 1.0050055e-38
-0.11644286 0.11220858 0.74100006 1.1617381e-38
-0.11503144 0.11220858 0.74100006 1.1341848e-38
-0.11331333 0.11190572 0.73900002 1.1341848e-38
-0.11190572 0.11190572 0.73900002 1.1161069e-38
-0.11004953 0.11145144 0.73600006 1.2083025e-38
-0.10835239 0.11114857 0.73400003 1.2174878e-38
-0.10680858 0.11099715 0.73300004 1.2451465e-38
-0.10512476 0.11069429 0.73100001 1.2819171e-38
-0.10373238 0.11069429 0.73100001 1.3095758e-38
-0.1022 0.11054286 0.73000002 1.3096118e-38
-0.10080953 0.11054286 0.73000002 1.3557096e-38
-0.099419042 0.11054286 0.73000002 1.3373421e-38
-0.097759999 0.11024 0.72800004 1.3465616e-38
-0.096373342 0.11024 0.72800004 1.3374147e-38
-0.09498667 0.11024 0.72800004 1.3374147e-38
-0.093600005 0.11024 0.72800004 1.3282317e-38
-0.09221334 0.11024 0.72800004 1.3374512e-38
-0.090701908 0.11008858 0.72700006 1.355819e-38
-0.089317143 0.11008858 0.72700006 1.3465995e-38
-0.087932393 0.11008858 0.72700006 1.355819e-38
-0.086547628 0.11008858 0.72700006 1.3926973e-38
-0.085162863 0.11008858 0.72700006 1.3651097e-38
-0.083778106 0.11008858 0.72700006 1.3466705e-38
-0.082506672 0.11024 0.72800004 1.3558901e-38
-0.081119999 0.11024 0.72800004 1.3558901e-38
-0.079733342 0.11024 0.72800004 1.365038e-38
-0.07834667 0.11024 0.72800004 1.3834772e-38
-0.07717143 0.11054286 0.73000002 1.3927323e-38
-0.07578095 0.11054286 0.73000002 1.3927323e-38
-0.07449238 0.11069429 0.73100001 1.3558906e-38
-0.073099993 0.11069429 0.73100001 1.328232e-38
-0.071707621 0.11069429 0.73100001 1.2914976e-38
-0.070507623 0.11099715 0.73300004 1.2822781e-38
-0.069111429 0.11099715 0.73300004 1.2913544e-38
-0.067715243 0.11099715 0.73300004 1.2821348e-38
-0.066319048 0.11099715 0.73300004 1.2914253e-38
-0.065011427 0.11114857 0.73400003 1.2729862e-38
-0.063613333 0.11114857 0.73400003 1.2729143e-38
-0.062384766 0.11145144 0.73600006 1.2636947e-38
-0.061148573 0.11175429 0.73800004 1.2175982e-38
-0.05974286 0.11175429 0.73800004 1.2175982e-38
-0.058416191 0.11190572 0.73900002 1.1991588e-38
-0.057008572 0.11190572 0.73900002 1.1807197e-38
-0.055751432 0.11220858 0.74100006 1.208306e-38
-0.054413334 0.11236 0.74200004 1.1529887e-38
-0.052999999 0.11236 0.74200004 1.0883423e-38
-0.051934287 0.11311714 0.74700004 9.4082927e-39
-0.050714288 0.11357144 0.75000006 9.6848852e-39
-0.04954857 0.11417715 0.75400001 9.6848852e-39
-0.048112381 0.11417715 0.75400001 9.2231909e-39
-0.046861906 0.11463144 0.75700003 1.0237343e-38
-0.045420002 0.11463144 0.75700003 1.1065627e-38
-0.12198 0.11484667 0.74900001 9.8678191e-39
-0.12023143 0.11454 0.74700004 9.130254e-39
-0.11801334 0.11377334 0.74200004 1.0048605e-38
-0.11644286 0.11362001 0.74100006 1.1708126e-38
-0.11503144 0.11362001 0.74100006 1.1986138e-38
-0.11362001 0.11362001 0.74100006 1.1709551e-38
-0.11190572 0.11331333 0.73900002 1.1252912e-38
-0.11004953 0.11285334 0.73600006 1.2174868e-38
-0.10835239 0.11254667 0.73400003 1.1991563e-38
-0.10680858 0.11239334 0.73300004 1.2083758e-38
-0.10541239 0.11239334 0.73300004 1.2268152e-38
-0.10373238 0.11208667 0.73100001 1.2360348e-38
-0.10234 0.11208667 0.73100001 1.2912448e-38
-0.10094762 0.11208667 0.73100001 1.3189035e-38
