# .PCD v0.7 - Point Cloud Data file format
VERSION 0.7
FIELDS x y z rgb
SIZE 4 4 4 4
TYPE F F F F
COUNT 1 1 1 1
WIDTH 993
HEIGHT 1
VIEWPOINT 0 0 0 1 0 0 0
POINTS 993
DATA ascii
-0.11888572 0.068828575 0.73000002 8.3012318e-39
-0.11765619 0.068922862 0.73100001 8.8544056e-39
-0.11658191 0.069111429 0.73300004 9.0380584e-39
-0.11518572 0.069111429 0.73300004 1.0328797e-38
-0.18888761 0.068872385 0.71600002 6.8250003e-39
-0.18752381 0.068872385 0.71600002 4.8910249e-39
-0.18564001 0.068680003 0.71400005 5.8129812e-39
-0.18428002 0.068680003 0.71400005 6.181398e-39
-0.18292001 0.068680003 0.71400005 6.7345718e-39
-0.18130574 0.068583816 0.71300006 6.8263778e-39
-0.17944287 0.068391435 0.71100003 7.5639429e-39
-0.1778381 0.06829524 0.71000004 7.8412724e-39
-0.17648572 0.06829524 0.71000004 8.5788375e-39
-0.17464 0.068102859 0.708 9.410759e-39
-0.17329141 0.068102859 0.708 9.6873458e-39
-0.1717 0.068006672 0.70700002 9.3207283e-39
-0.17035334 0.068006672 0.70700002 9.412924e-39
-0.16876763 0.067910478 0.70600003 9.5051196e-39
-0.16742286 0.067910478 0.70600003 9.6895108e-39
-0.16607809 0.067910478 0.70600003 9.7813463e-39
-0.16426668 0.067718096 0.70400006 1.0057933e-38
-0.16269428 0.067621902 0.70300001 1.0149773e-38
-0.16135524 0.067621902 0.70300001 1.0149773e-38
-0.16001619 0.067621902 0.70300001 1.0242322e-38
-0.15867715 0.067621902 0.70300001 1.0611104e-38
-0.1573381 0.067621902 0.70300001 1.0794429e-38
-0.15599905 0.067621902 0.70300001 1.0517842e-38
-0.15466 0.067621902 0.70300001 1.0242322e-38
-0.15332095 0.067621902 0.70300001 1.0611104e-38
-0.15198191 0.067621902 0.70300001 1.097989e-38
-0.15064286 0.067621902 0.70300001 1.0887694e-38
-0.14930381 0.067621902 0.70300001 1.033812e-38
-0.14796476 0.067621902 0.70300001 1.033812e-38
-0.1468343 0.067718096 0.70400006 1.0522158e-38
-0.14549334 0.067718096 0.70400006 1.0153376e-38
-0.14415239 0.067718096 0.70400006 1.0428155e-38
-0.14281143 0.067718096 0.70400006 1.0335959e-38
-0.14187238 0.067910478 0.70600003 9.0484729e-39
-0.14052762 0.067910478 0.70600003 8.9562772e-39
-0.13937999 0.068006672 0.70700002 9.5069301e-39
-0.13803333 0.068006672 0.70700002 9.4147344e-39
-0.13688 0.068102859 0.708 9.230346e-39
-0.13553143 0.068102859 0.708 8.9537591e-39
-0.13418286 0.068102859 0.708 8.1268697e-39
-0.13320953 0.06829524 0.71000004 8.5878478e-39
-0.13204286 0.068391435 0.71100003 9.4129394e-39
-0.1310562 0.068583816 0.71300006 9.3207437e-39
-0.12988001 0.068680003 0.71400005 9.1363651e-39
-0.12888001 0.068872385 0.71600002 9.1363651e-39
-0.12769428 0.068968572 0.71700001 9.0441695e-39
-0.12668097 0.069160953 0.71900004 8.8597782e-39
-0.12531143 0.069160953 0.71900004 8.5842731e-39
-0.12411429 0.06925714 0.72000003 8.6764687e-39
-0.12308381 0.069449529 0.72200006 9.136012e-39
-0.12221428 0.069738097 0.72500002 9.5047945e-39
-0.12116668 0.069930486 0.72700006 8.7661659e-39
-0.11994667 0.070026673 0.72800004 8.2129921e-39
-0.11904857 0.070315242 0.73100001 9.4068409e-39
-0.11765619 0.070315242 0.73100001 9.0380584e-39
-0.11658191 0.070507623 0.73300004 8.5777837e-39
-0.11518572 0.070507623 0.73300004 9.8685225e-39
-0.18915144 0.070334285 0.71700001 8.1157364e-39
-0.18778571 0.070334285 0.71700001 5.7233191e-39
-0.18641999 0.070334285 0.71700001 6.3686885e-39
-0.18505429 0.070334285 0.71700001 7.195903e-39
-0.18292001 0.07004001 0.71400005 8.1178593e-39
-0.18130574 0.069941908 0.71300006 7.7494271e-39
-0.17994764 0.069941908 0.71300006 6.7352752e-39
-0.17808858 0.069745712 0.71100003 7.4728374e-39
-0.17648572 0.069647625 0.71000004 7.6572287e-39
-0.17513335 0.069647625 0.71000004 8.6746358e-39
-0.17329141 0.069451429 0.708 9.4122009e-39
-0.17194286 0.069451429 0.708 9.2288858e-39
-0.17035334 0.069353335 0.70700002 9.2288858e-39
-0.16900666 0.069353335 0.70700002 9.4125736e-39
-0.16742286 0.06925524 0.70600003 9.6891605e-39
-0.16607809 0.06925524 0.70600003 9.9650187e-39
-0.16426668 0.069059052 0.70400006 1.0057214e-38
-0.16292572 0.069059052 0.70400006 1.0149773e-38
-0.16158478 0.069059052 0.70400006 1.0057577e-38
-0.16001619 0.068960957 0.70300001 9.6902297e-39
-0.15867715 0.068960957 0.70300001 1.0059012e-38
-0.1573381 0.068960957 0.70300001 1.0058309e-38
-0.15599905 0.068960957 0.70300001 9.7817219e-39
-0.15466 0.068960957 0.70300001 9.5980313e-39
-0.15332095 0.068960957 0.70300001 9.5980313e-39
-0.15198191 0.068960957 0.70300001 9.5983942e-39
-0.15064286 0.068960957 0.70300001 9.5061986e-39
-0.14930381 0.068960957 0.70300001 8.7715202e-39
-0.14817525 0.069059052 0.70400006 8.6793246e-39
-0.1468343 0.069059052 0.70400006 8.5867758e-39
-0.14549334 0.069059052 0.70400006 8.0336021e-39
-0.14415239 0.069059052 0.70400006 8.954094e-39
-0.14281143 0.069059052 0.70400006 9.1384853e-39
-0.14187238 0.06925524 0.70600003 9.2303404e-39
-0.14052762 0.06925524 0.70600003 9.322536e-39
-0.13937999 0.069353335 0.70700002 8.9559143e-39
-0.13803333 0.069353335 0.70700002 9.0481099e-39
-0.13688 0.069451429 0.708 9.5065769e-39
-0.13553143 0.069451429 0.708 1.0059751e-38
-0.13456191 0.069647625 0.71000004 1.0427798e-38
-0.13339715 0.069745712 0.71100003 1.079658e-38
-0.1324143 0.069941908 0.71300006 1.1071029e-38
-0.1310562 0.069941908 0.71300006 1.0794442e-38
-0.13024381 0.070236191 0.71600002 1.0885568e-38
-0.12888001 0.070236191 0.71600002 1.0885568e-38
-0.12769428 0.070334285 0.71700001 1.1162511e-38
-0.12668097 0.070530482 0.71900004 1.1254707e-38
-0.12548572 0.070628576 0.72000003 1.1346912e-38
-0.12411429 0.070628576 0.72000003 1.1439108e-38
-0.12308381 0.070824765 0.72200006 1.1714606e-38
-0.12221428 0.071119048 0.72500002 1.0977041e-38
-0.12116668 0.071315244 0.72700006 1.0239848e-38
-0.11994667 0.071413331 0.72800004 9.1335008e-39
-0.11888572 0.071609527 0.73000002 9.3167879e-39
-0.11765619 0.071707621 0.73100001 8.5792228e-39
-0.11658191 0.07190381 0.73300004 8.6699793e-39
-0.11518572 0.07190381 0.73300004 9.5919356e-39
-0.18967906 0.071900003 0.71900004 8.3923233e-39
-0.18830952 0.071900003 0.71900004 5.7243981e-39
-0.18641999 0.071699999 0.71700001 6.000985e-39
-0.18505429 0.071699999 0.71700001 7.1040409e-39
-0.18292001 0.071400002 0.71400005 8.0259972e-39
-0.18156001 0.071400002 0.71400005 7.8430703e-39
-0.17994764 0.071300007 0.71300006 7.7508747e-39
-0.17808858 0.071100004 0.71100003 7.8412724e-39
-0.17673428 0.071100004 0.71100003 8.1178593e-39
-0.17513335 0.071000002 0.71000004 8.6721275e-39
-0.17378096 0.071000002 0.71000004 9.5018882e-39
-0.17194286 0.070800006 0.708 9.0445072e-39
-0.17059429 0.070800006 0.708 9.2288984e-39
-0.16900666 0.070699997 0.70700002 9.3203808e-39
-0.16766 0.070699997 0.70700002 9.5047721e-39
-0.16607809 0.070600003 0.70600003 9.6888004e-39
-0.16473334 0.070600003 0.70600003 9.5966048e-39
-0.16292572 0.070400007 0.70400006 9.7813562e-39
-0.16158478 0.070400007 0.70400006 9.5969649e-39
-0.16001619 0.070299998 0.70300001 8.58568e-39
-0.15867715 0.070299998 0.70300001 8.6778757e-39
-0.1573381 0.070299998 0.70300001 8.5849738e-39
-0.15599905 0.070299998 0.70300001 9.3225388e-39
-0.15488 0.070400007 0.70400006 9.6898794e-39
-0.15353906 0.070400007 0.70400006 9.5976838e-39
-0.15219811 0.070400007 0.70400006 9.4140184e-39
-0.15085715 0.070400007 0.70400006 9.3218227e-39
-0.14951621 0.070400007 0.70400006 8.4009581e-39
-0.14817525 0.070400007 0.70400006 8.4931537e-39
-0.1468343 0.070400007 0.70400006 8.5856996e-39
-0.14549334 0.070400007 0.70400006 8.8622865e-39
-0.14415239 0.070400007 0.70400006 9.2296299e-39
-0.14281143 0.070400007 0.70400006 9.6906081e-39
-0.14187238 0.070600003 0.70600003 1.0059037e-38
-0.14072667 0.070699997 0.70700002 1.0335624e-38
-0.13937999 0.070699997 0.70700002 1.0429259e-38
-0.13822857 0.070800006 0.708 1.0521455e-38
-0.13688 0.070800006 0.708 1.1256146e-38
-0.13553143 0.070800006 0.708 1.116395e-38
-0.13456191 0.071000002 0.71000004 1.0887716e-38
-0.13339715 0.071100004 0.71100003 1.1164303e-38
-0.1324143 0.071300007 0.71300006 1.180789e-38
-0.1310562 0.071300007 0.71300006 1.180789e-38
-0.13024381 0.071599998 0.71600002 1.2082682e-38
-0.12906 0.071699999 0.71700001 1.2267073e-38
-0.12769428 0.071699999 0.71700001 1.2267429e-38
-0.12668097 0.071900003 0.71900004 1.245182e-38
-0.12548572 0.072000004 0.72000003 1.2268149e-38
-0.12411429 0.072000004 0.72000003 1.2175954e-38
-0.12308381 0.072200008 0.72200006 1.189937e-38
-0.12187715 0.072300009 0.72300005 1.0977413e-38
-0.12116668 0.072700009 0.72700006 1.1067814e-38
-0.11994667 0.072800003 0.72800004 9.316097e-39
-0.11888572 0.072999999 0.73000002 9.3164376e-39
-0.11765619 0.073099993 0.73100001 8.7632638e-39
-0.11658191 0.073300004 0.73300004 8.9458502e-39
-0.11518572 0.073300004 0.73300004 9.8678065e-39
-0.11378953 0.073300004 0.73300004 1.0880514e-38
-0.18994285 0.073371425 0.72000003 8.7600268e-39
-0.18857144 0.073371425 0.72000003 5.2648647e-39
-0.18694001 0.073269531 0.71900004 3.4209521e-39
-0.18557049 0.073269531 0.71900004 4.1602576e-39
-0.18343239 0.072963811 0.71600002 5.543192e-39
-0.18156001 0.072760001 0.71400005 7.1062017e-39
-0.17994764 0.072658099 0.71300006 7.290593e-39
-0.17858954 0.072658099 0.71300006 7.3806796e-39
-0.17673428 0.072454289 0.71100003 8.3026359e-39
-0.17538001 0.072454289 0.71100003 7.8448878e-39
-0.17378096 0.07235238 0.71000004 8.3980616e-39
-0.17194286 0.072148569 0.708 8.3065918e-39
-0.17059429 0.072148569 0.708 8.6753743e-39
-0.16900666 0.072046667 0.70700002 8.5828256e-39
-0.16766 0.072046667 0.70700002 8.7672168e-39
-0.16631334 0.072046667 0.70700002 9.0445072e-39
-0.16473334 0.071944758 0.70600003 9.0445072e-39
-0.16338858 0.071944758 0.70600003 9.3214626e-39
-0.16158478 0.071740955 0.70400006 9.229267e-39
-0.16024382 0.071740955 0.70400006 9.4136652e-39
-0.15890287 0.071740955 0.70400006 1.0335622e-38
-0.15756191 0.071740955 0.70400006 1.0611836e-38
-0.15622096 0.071740955 0.70400006 1.0888423e-38
-0.15488 0.071740955 0.70400006 1.1440517e-38
-0.15353906 0.071740955 0.70400006 1.1532713e-38
-0.15219811 0.071740955 0.70400006 1.1901142e-38
-0.15085715 0.071740955 0.70400006 1.1901142e-38
-0.14951621 0.071740955 0.70400006 1.1993e-38
-0.14817525 0.071740955 0.70400006 1.2177392e-38
-0.1468343 0.071740955 0.70400006 1.2913502e-38
-0.14549334 0.071740955 0.70400006 1.3466676e-38
-0.14415239 0.071740955 0.70400006 1.3741831e-38
-0.14321715 0.071944758 0.70600003 1.3834026e-38
-0.14187238 0.071944758 0.70600003 1.3834755e-38
-0.14072667 0.072046667 0.70700002 1.3834755e-38
-0.13937999 0.072046667 0.70700002 1.365144e-38
-0.13822857 0.072148569 0.708 1.3835831e-38
-0.13688 0.072148569 0.708 1.4018793e-38
-0.1359143 0.07235238 0.71000004 1.3742206e-38
-0.13456191 0.07235238 0.71000004 1.3373774e-38
-0.13339715 0.072454289 0.71100003 1.346597e-38
-0.1324143 0.072658099 0.71300006 1.3097916e-38
-0.13124 0.072760001 0.71400005 1.2913524e-38
-0.13042572 0.073065713 0.71700001 1.2912448e-38
-0.12906 0.073065713 0.71700001 1.2820253e-38
-0.12805048 0.073269531 0.71900004 1.2360351e-38
-0.12668097 0.073269531 0.71900004 1.2452546e-38
-0.12548572 0.073371425 0.72000003 1.2084111e-38
-0.12445905 0.073575243 0.72200006 1.189972e-38
-0.12308381 0.073575243 0.72200006 1.1990486e-38
-0.12187715 0.073677152 0.72300005 1.0976334e-38
-0.12116668 0.074084766 0.72700006 1.0607542e-38
-0.11994667 0.074186668 0.72800004 9.2246077e-39
-0.11888572 0.074390478 0.73000002 8.6721527e-39
-0.11765619 0.07449238 0.73100001 8.5799571e-39
-0.11658191 0.074696198 0.73300004 9.0380584e-39
-0.11518572 0.074696198 0.73300004 9.7756234e-39
-0.11378953 0.074696198 0.73300004 1.0328782e-38
-0.19047049 0.074950479 0.72200006 9.0366137e-39
-0.18857144 0.074742861 0.72000003 5.725124e-39
-0.18694001 0.074639052 0.71900004 3.973407e-39
-0.18557049 0.074639052 0.71900004 4.1595681e-39
-0.18368857 0.074431427 0.71700001 6.0034807e-39
-0.18156001 0.07412 0.71400005 7.288484e-39
-0.18020001 0.07412 0.71400005 7.5650709e-39
-0.17858954 0.074016191 0.71300006 8.3951847e-39
-0.17723145 0.074016191 0.71300006 8.4873803e-39
-0.17587335 0.074016191 0.71300006 8.1204181e-39
-0.17402571 0.073808573 0.71100003 8.5813963e-39
-0.17242858 0.073704764 0.71000004 8.3977183e-39
-0.17059429 0.073497139 0.708 8.7665008e-39
-0.16924572 0.073497139 0.708 8.7665008e-39
-0.16766 0.073393337 0.70700002 9.2274789e-39
-0.16631334 0.073393337 0.70700002 9.3196774e-39
-0.16473334 0.073289528 0.70600003 9.5962642e-39
-0.16338858 0.073289528 0.70600003 1.070153e-38
-0.16204382 0.073289528 0.70600003 1.0793726e-38
-0.16069905 0.073289528 0.70600003 1.0795884e-38
-0.15890287 0.073081911 0.70400006 1.1072471e-38
-0.15756191 0.073081911 0.70400006 1.1531654e-38
-0.15666476 0.073289528 0.70600003 1.1900436e-38
-0.15532002 0.073289528 0.70600003 1.2177023e-38
-0.15397525 0.073289528 0.70600003 1.2822392e-38
-0.15263048 0.073289528 0.70600003 1.2731644e-38
-0.15128572 0.073289528 0.70600003 1.2731644e-38
-0.14994095 0.073289528 0.70600003 1.3557802e-38
-0.14859618 0.073289528 0.70600003 1.3649998e-38
-0.14725144 0.073289528 0.70600003 1.3925859e-38
-0.14590667 0.073289528 0.70600003 1.3925859e-38
-0.14456192 0.073289528 0.70600003 1.4294641e-38
-0.14321715 0.073289528 0.70600003 1.411025e-38
-0.14187238 0.073289528 0.70600003 1.411026e-38
-0.14072667 0.073393337 0.70700002 1.4018064e-38
-0.13957714 0.073497139 0.708 1.4110979e-38
-0.13822857 0.073497139 0.708 1.4110979e-38
-0.13688 0.073497139 0.708 1.4110273e-38
-0.1359143 0.073704764 0.71000004 1.374149e-38
-0.13475142 0.073808573 0.71100003 1.3557096e-38
-0.13377239 0.074016191 0.71300006 1.34649e-38
-0.13260001 0.07412 0.71400005 1.3005364e-38
-0.13124 0.07412 0.71400005 1.2728777e-38
-0.13042572 0.074431427 0.71700001 1.2452906e-38
-0.12906 0.074431427 0.71700001 1.2452906e-38
-0.12805048 0.074639052 0.71900004 1.2084124e-38
-0.12668097 0.074639052 0.71900004 1.2084124e-38
-0.12548572 0.074742861 0.72000003 1.1991563e-38
-0.12445905 0.074950479 0.72200006 1.1899367e-38
-0.12308381 0.074950479 0.72200006 1.2082682e-38
-0.12187715 0.075054288 0.72300005 1.106853e-38
-0.12116668 0.075469524 0.72700006 1.0331674e-38
-0.11994667 0.07557334 0.72800004 8.7643484e-39
-0.11904857 0.075884759 0.73100001 8.3962861e-39
-0.1179781 0.076092385 0.73300004 8.3962861e-39
-0.11658191 0.076092385 0.73300004 9.1306044e-39
-0.11518572 0.076092385 0.73300004 9.4071912e-39
-0.11378953 0.076092385 0.73300004 1.0050405e-38
-0.18857144 0.076114289 0.72000003 7.1037677e-39
-0.18694001 0.076008573 0.71900004 6.8271808e-39
-0.18557049 0.076008573 0.71900004 7.4718243e-39
-0.18368857 0.075797141 0.71700001 9.7767151e-39
-0.18206859 0.075691432 0.71600002 1.078941e-38
-0.18020001 0.075480007 0.71400005 1.1158192e-38
-0.17884001 0.075480007 0.71400005 1.1159271e-38
-0.17723145 0.07537429 0.71300006 1.1804641e-38
-0.17587335 0.07537429 0.71300006 1.18043e-38
-0.17402571 0.075162858 0.71100003 1.2449669e-38
-0.17242858 0.075057149 0.71000004 1.2358906e-38
-0.17059429 0.074845709 0.708 1.2727688e-38
-0.16924572 0.074845709 0.708 1.2635846e-38
-0.16789715 0.074845709 0.708 1.2912433e-38
-0.16631334 0.074740008 0.70700002 1.291172e-38
-0.16496667 0.074740008 0.70700002 1.3188306e-38
-0.16362001 0.074740008 0.70700002 1.318903e-38
-0.16227333 0.074740008 0.70700002 1.3650008e-38
-0.16092667 0.074740008 0.70700002 1.3282655e-38
-0.15935428 0.074634291 0.70600003 1.3467046e-38
-0.15800953 0.074634291 0.70600003 1.3742209e-38
-0.15688667 0.074740008 0.70700002 1.4203187e-38
-0.15532002 0.074634291 0.70600003 1.3926948e-38
-0.15397525 0.074634291 0.70600003 1.3926948e-38
-0.15263048 0.074634291 0.70600003 1.3743285e-38
-0.15128572 0.074634291 0.70600003 1.365109e-38
-0.14994095 0.074634291 0.70600003 1.3467402e-38
-0.14859618 0.074634291 0.70600003 1.3467402e-38
-0.14725144 0.074634291 0.70600003 1.3558503e-38
-0.14590667 0.074634291 0.70600003 1.2636547e-38
-0.14456192 0.074634291 0.70600003 1.208519e-38
-0.14342 0.074740008 0.70700002 1.1992995e-38
-0.14207333 0.074740008 0.70700002 1.1900805e-38
-0.14092572 0.074845709 0.708 1.1716413e-38
-0.13957714 0.074845709 0.708 1.171606e-38
-0.13861905 0.075057149 0.71000004 1.171606e-38
-0.13726667 0.075057149 0.71000004 1.1531319e-38
-0.13610572 0.075162858 0.71100003 1.1346927e-38
-0.13475142 0.075162858 0.71100003 1.208449e-38
-0.13377239 0.07537429 0.71300006 1.1992294e-38
-0.13260001 0.075480007 0.71400005 1.3096821e-38
-0.13124 0.075480007 0.71400005 1.3373408e-38
-0.13042572 0.075797141 0.71700001 1.3096834e-38
-0.12906 0.075797141 0.71700001 1.2728051e-38
-0.12805048 0.076008573 0.71900004 1.2268155e-38
-0.12668097 0.076008573 0.71900004 1.2083764e-38
-0.12548572 0.076114289 0.72000003 1.1991563e-38
-0.12445905 0.076325722 0.72200006 1.1899367e-38
-0.12325429 0.076431431 0.72300005 1.2082682e-38
-0.12187715 0.076431431 0.72300005 1.0976334e-38
-0.12116668 0.076854289 0.72700006 1.0699019e-38
-0.11978191 0.076854289 0.72700006 8.8551063e-39
-0.11904857 0.077277139 0.73100001 8.6721527e-39
-0.1179781 0.077488579 0.73300004 8.9487396e-39
-0.11658191 0.077488579 0.73300004 9.1306072e-39
-0.11644286 0.078334294 0.74100006 9.4993897e-39
-0.11518667 0.078440003 0.74200004 9.8671002e-39
-0.11377334 0.078440003 0.74200004 1.1065643e-38
-0.1907343 0.077808574 0.72300005 9.9600119e-39
-0.18909526 0.077700958 0.72200006 8.945497e-39
-0.18720001 0.07748571 0.72000003 8.0235407e-39
-0.18582858 0.07748571 0.72000003 8.8514867e-39
-0.18368857 0.077162862 0.71700001 1.0418812e-38
-0.18206859 0.077055238 0.71600002 1.0789057e-38
-0.18020001 0.076840006 0.71400005 1.1065643e-38
-0.17884001 0.076840006 0.71400005 1.0883763e-38
-0.17723145 0.07673239 0.71300006 1.1436937e-38
-0.17587335 0.07673239 0.71300006 1.1345104e-38
-0.17451525 0.07673239 0.71300006 1.1990474e-38
-0.17267144 0.076517142 0.71100003 1.1992266e-38
-0.17107619 0.076409526 0.71000004 1.2084462e-38
-0.16924572 0.076194286 0.708 1.2636549e-38
-0.16789715 0.076194286 0.708 1.2728745e-38
-0.16654858 0.076194286 0.708 1.2912405e-38
-0.16496667 0.076086663 0.70700002 1.30046e-38
-0.16362001 0.076086663 0.70700002 1.2913843e-38
-0.16227333 0.076086663 0.70700002 1.3006038e-38
-0.16092667 0.076086663 0.70700002 1.3190424e-38
-0.15958001 0.076086663 0.70700002 1.3282619e-38
-0.15823333 0.076086663 0.70700002 1.309895e-38
-0.15688667 0.076086663 0.70700002 1.309895e-38
-0.15554 0.076086663 0.70700002 1.2914926e-38
-0.15419333 0.076086663 0.70700002 1.282273e-38
-0.15284666 0.076086663 0.70700002 1.2913852e-38
-0.1515 0.076086663 0.70700002 1.2637265e-38
-0.15015334 0.076086663 0.70700002 1.1809294e-38
-0.14880668 0.076086663 0.70700002 1.190149e-38
-0.14725144 0.075979047 0.70600003 1.1718183e-38
-0.14590667 0.075979047 0.70600003 1.1533792e-38
-0.14456192 0.075979047 0.70600003 1.1350127e-38
-0.14342 0.076086663 0.70700002 1.1257931e-38
-0.14207333 0.076086663 0.70700002 1.1348341e-38
-0.14092572 0.076194286 0.708 1.0979559e-38
-0.13957714 0.076194286 0.708 1.0242725e-38
-0.13861905 0.076409526 0.71000004 1.0427117e-38
-0.13726667 0.076409526 0.71000004 1.0334604e-38
-0.13610572 0.076517142 0.71100003 1.0242409e-38
-0.13513048 0.07673239 0.71300006 1.0610115e-38
-0.13377239 0.07673239 0.71300006 1.0149137e-38
-0.13260001 0.076840006 0.71400005 1.0884144e-38
-0.13160762 0.077055238 0.71600002 1.2359274e-38
-0.13042572 0.077162862 0.71700001 1.3464528e-38
-0.12906 0.077162862 0.71700001 1.3095745e-38
-0.12805048 0.077378094 0.71900004 1.2268515e-38
-0.12668097 0.077378094 0.71900004 1.2084124e-38
-0.12548572 0.07748571 0.72000003 1.1991565e-38
-0.12445905 0.077700958 0.72200006 1.1807174e-38
-0.12325429 0.077808574 0.72300005 1.2082682e-38
-0.12221428 0.078023814 0.72500002 1.1345117e-38
-0.12116668 0.078239053 0.72700006 1.0791933e-38
-0.11978191 0.078239053 0.72700006 8.7636295e-39
-0.1193743 0.078884766 0.73300004 8.8551091e-39
-0.11846096 0.079207622 0.73600006 9.131696e-39
-0.11753619 0.079530478 0.73900002 9.3149984e-39
-0.11644286 0.079745725 0.74100006 9.3149984e-39
-0.11518667 0.079853341 0.74200004 9.8656611e-39
-0.11377334 0.079853341 0.74200004 1.11564e-38
-0.19264287 0.079404764 0.72500002 1.0788333e-38
-0.1907343 0.079185717 0.72300005 1.0603942e-38
-0.18935715 0.079185717 0.72300005 9.2220839e-39
-0.18720001 0.078857146 0.72000003 7.9313451e-39
-0.18582858 0.078857146 0.72000003 8.5756257e-39
-0.18420096 0.078747623 0.71900004 1.0142951e-38
-0.18232284 0.078528576 0.71700001 1.1341495e-38
-0.18070477 0.078419052 0.71600002 1.1249299e-38
-0.17884001 0.078200005 0.71400005 1.1432258e-38
-0.17748001 0.078200005 0.71400005 1.1340062e-38
-0.17612001 0.078200005 0.71400005 1.1340769e-38
-0.17451525 0.078090489 0.71300006 1.1156377e-38
-0.17315716 0.078090489 0.71300006 1.1342548e-38
-0.17131715 0.077871427 0.71100003 1.1434744e-38
-0.16972381 0.077761903 0.71000004 1.1711687e-38
-0.16837144 0.077761903 0.71000004 1.1711687e-38
-0.16654858 0.077542856 0.708 1.2080457e-38
-0.16496667 0.077433333 0.70700002 1.2910217e-38
-0.16362001 0.077433333 0.70700002 1.2359898e-38
-0.16227333 0.077433333 0.70700002 1.189892e-38
-0.16092667 0.077433333 0.70700002 1.0703256e-38
-0.15958001 0.077433333 0.70700002 1.0242278e-38
-0.15823333 0.077433333 0.70700002 9.7830699e-39
-0.15688667 0.077433333 0.70700002 9.2298962e-39
-0.15554 0.077433333 0.70700002 8.8621968e-39
-0.15419333 0.077433333 0.70700002 8.8621968e-39
-0.15284666 0.077433333 0.70700002 8.3104832e-39
-0.1515 0.077433333 0.70700002 7.3885269e-39
-0.15015334 0.077433333 0.70700002 6.4691014e-39
-0.14880668 0.077433333 0.70700002 6.1925145e-39
-0.14746 0.077433333 0.70700002 4.1688966e-39
-0.14611334 0.077433333 0.70700002 2.8781577e-39
-0.14476667 0.077433333 0.70700002 1.5009812e-39
-0.14342 0.077433333 0.70700002 1.5931769e-39
-0.14207333 0.077433333 0.70700002 1.4995939e-39
-0.14092572 0.077542856 0.708 1.5917896e-39
-0.13957714 0.077542856 0.708 1.1311898e-39
-0.13881429 0.077871427 0.71100003 1.7765592e-39
-0.13746001 0.077871427 0.71100003 2.8772553e-39
-0.13648859 0.078090489 0.71300006 2.4162772e-39
-0.13513048 0.078090489 0.71300006 1.2206164e-39
-0.13396001 0.078200005 0.71400005 2.1352986e-41
-0.13260001 0.078200005 0.71400005 6.6060993e-40
-0.13160762 0.078419052 0.71600002 5.9157608e-39
-0.13042572 0.078528576 0.71700001 1.0239508e-38
-0.12906 0.078528576 0.71700001 1.272879e-38
-0.12805048 0.078747623 0.71900004 1.2728051e-38
-0.12668097 0.078747623 0.71900004 1.2267073e-38
-0.12548572 0.078857146 0.72000003 1.2083758e-38
-0.12445905 0.079076193 0.72200006 1.1807171e-38
-0.12325429 0.079185717 0.72300005 1.1990489e-38
-0.12221428 0.079404764 0.72500002 1.1529511e-38
-0.12116668 0.079623811 0.72700006 1.0975606e-38
-0.11994667 0.079733342 0.72800004 8.7629106e-39
-0.11953715 0.080390476 0.73400003 8.7629134e-39
-0.11878286 0.08082857 0.73800004 9.131696e-39
-0.11753619 0.080938093 0.73900002 9.3146453e-39
-0.11644286 0.081157148 0.74100006 9.130254e-39
-0.11518667 0.081266664 0.74200004 9.4983177e-39
-0.11377334 0.081266664 0.74200004 1.0881252e-38
-0.11236 0.081266664 0.74200004 1.1340769e-38
-0.19264287 0.080785714 0.72500002 1.0420627e-38
-0.1907343 0.08056286 0.72300005 1.0512823e-38
-0.18935715 0.08056286 0.72300005 9.4061249e-39
-0.18772002 0.080451436 0.72200006 8.115386e-39
-0.18634477 0.080451436 0.72200006 8.667471e-39
-0.18420096 0.080117144 0.71900004 9.3128404e-39
-0.18232284 0.079894282 0.71700001 1.0233349e-38
-0.18070477 0.079782858 0.71600002 9.9567623e-39
-0.17884001 0.079560004 0.71400005 1.0047859e-38
-0.17748001 0.079560004 0.71400005 1.0324446e-38
-0.17612001 0.079560004 0.71400005 1.0968721e-38
-0.17451525 0.079448573 0.71300006 1.1060917e-38
-0.17315716 0.079448573 0.71300006 1.1153817e-38
-0.17131715 0.079225719 0.71100003 1.1153817e-38
-0.16996287 0.079225719 0.71100003 1.1338899e-38
-0.16837144 0.079114296 0.71000004 1.1154508e-38
-0.16654858 0.078891426 0.708 1.0880757e-38
-0.16520001 0.078891426 0.708 1.272467e-38
-0.16385144 0.078891426 0.708 1.2267292e-38
-0.16250286 0.078891426 0.708 1.1806314e-38
-0.16115429 0.078891426 0.708 1.1254569e-38
-0.15958001 0.078780003 0.70700002 1.0517004e-38
-0.15823333 0.078780003 0.70700002 9.7837426e-39
-0.15710858 0.078891426 0.708 9.1383732e-39
-0.15554 0.078780003 0.70700002 8.8628933e-39
-0.15419333 0.078780003 0.70700002 8.5863064e-39
-0.15284666 0.078780003 0.70700002 8.1264171e-39
-0.1515 0.078780003 0.70700002 5.3605482e-39
-0.15015334 0.078780003 0.70700002 4.7184284e-39
-0.14880668 0.078780003 0.70700002 4.1652546e-39
-0.14746 0.078780003 0.70700002 3.3387337e-39
-0.14611334 0.078780003 0.70700002 2.1401975e-39
-0.14476667 0.078780003 0.70700002 1.0388891e-39
-0.14362286 0.078891426 0.708 1.4076702e-39
-0.14227429 0.078891426 0.708 1.0393375e-39
-0.14132382 0.079114296 0.71000004 1.0393375e-39
-0.14016858 0.079225719 0.71100003 8.535365e-40
-0.13920477 0.079448573 0.71300006 1.4989059e-39
-0.13784668 0.079448573 0.71300006 1.4064566e-39
-0.13648859 0.079448573 0.71300006 9.4547849e-40
-0.13532001 0.079560004 0.71400005 1.0355063e-39
-0.13396001 0.079560004 0.71400005 1.8833451e-41
-0.13297144 0.079782858 0.71600002 6.5983641e-40
-0.13179143 0.079894282 0.71700001 3.7944878e-39
-0.13042572 0.079894282 0.71700001 9.4100877e-39
-0.12906 0.079894282 0.71700001 1.2821326e-38
-0.12805048 0.080117144 0.71900004 1.2820253e-38
-0.12685715 0.080228575 0.72000003 1.2359274e-38
-0.12548572 0.080228575 0.72000003 1.2083761e-38
-0.12445905 0.080451436 0.72200006 1.1807174e-38
-0.12359525 0.080785714 0.72500002 1.1622786e-38
-0.12255144 0.081008576 0.72700006 1.1438394e-38
-0.12133334 0.081119999 0.72800004 1.0883423e-38
-0.12027619 0.081342861 0.73000002 8.9473145e-39
-0.11986287 0.082011431 0.73600006 9.0395003e-39
-0.11878286 0.082234286 0.73800004 9.3160872e-39
-0.11785429 0.082568578 0.74100006 9.0394975e-39
-0.11660001 0.082680002 0.74200004 8.7629106e-39
-0.11518667 0.082680002 0.74200004 9.3142796e-39
-0.11377334 0.082680002 0.74200004 1.078941e-38
-0.11236 0.082680002 0.74200004 1.1340413e-38
-0.19264287 0.082166664 0.72500002 1.0328431e-38
-0.19126192 0.082166664 0.72500002 1.0605018e-38
-0.18935715 0.081940003 0.72300005 1.0234446e-38
-0.18772002 0.081826672 0.72200006 8.1139469e-39
-0.18634477 0.081826672 0.72200006 6.5430675e-39
-0.18496954 0.081826672 0.72200006 3.1318292e-39
-0.18283144 0.081486672 0.71900004 3.9543073e-39
-0.18095714 0.081259996 0.71700001 4.8762566e-39
-0.17934094 0.081146665 0.71600002 5.7978332e-39
-0.17797714 0.081146665 0.71600002 6.627584e-39
-0.17612001 0.080920003 0.71400005 7.2754519e-39
-0.17476001 0.080920003 0.71400005 8.2895913e-39
-0.17315716 0.080806673 0.71300006 7.7403691e-39
-0.17179905 0.080806673 0.71300006 9.0311066e-39
-0.17044096 0.080806673 0.71300006 9.4013002e-39
-0.16860858 0.080580004 0.71100003 1.004666e-38
-0.16701905 0.080466673 0.71000004 9.5903522e-39
-0.16566667 0.080466673 0.71000004 1.1803025e-38
-0.16385144 0.080239996 0.708 1.1531453e-38
-0.16250286 0.080239996 0.708 1.1347065e-38
-0.16115429 0.080239996 0.708 9.9663037e-39
-0.15980572 0.080239996 0.708 9.5975268e-39
-0.15845715 0.080239996 0.708 9.2305436e-39
-0.15710858 0.080239996 0.708 8.4007955e-39
-0.15576001 0.080239996 0.708 7.6657528e-39
-0.15441144 0.080239996 0.708 7.6657528e-39
-0.15306287 0.080239996 0.708 6.469739e-39
-0.15171428 0.080239996 0.708 4.2570775e-39
-0.15036571 0.080239996 0.708 2.4225199e-39
-0.14901714 0.080239996 0.708 2.3303257e-39
-0.14766857 0.080239996 0.708 1.9590377e-39
-0.14632 0.080239996 0.708 1.5902608e-39
-0.14497143 0.080239996 0.708 1.2229188e-39
-0.14402857 0.080466673 0.71000004 1.9604782e-39
-0.1426762 0.080466673 0.71000004 1.5917952e-39
-0.14152285 0.080580004 0.71100003 1.4995996e-39
-0.14056288 0.080806673 0.71300006 1.0393753e-39
-0.13920477 0.080806673 0.71300006 1.6847447e-39
-0.13784668 0.080806673 0.71300006 3.0620123e-39
-0.13668001 0.080920003 0.71400005 2.3244473e-39
-0.13532001 0.080920003 0.71400005 1.8656173e-39
-0.13396001 0.080920003 0.71400005 2.1704712e-41
-0.13297144 0.081146665 0.71600002 6.6131338e-40
-0.13179143 0.081259996 0.71700001 3.4271823e-39
-0.13078953 0.081486672 0.71900004 8.4888895e-39
-0.12942 0.081486672 0.71900004 1.2822084e-38
-0.12805048 0.081486672 0.71900004 1.3188313e-38
-0.12685715 0.081600003 0.72000003 1.2358553e-38
-0.12548572 0.081600003 0.72000003 1.1991565e-38
-0.12463143 0.081940003 0.72300005 1.1714978e-38
-0.12359525 0.082166664 0.72500002 1.153059e-38
-0.12255144 0.082393341 0.72700006 1.1622786e-38
-0.12166666 0.082733333 0.73000002 1.106782e-38
-0.12044095 0.082846664 0.73100001 9.1317114e-39
-0.11986287 0.08341334 0.73600006 8.8558378e-39
-0.11878286 0.083640002 0.73800004 9.1324246e-39
-0.11785429 0.083980009 0.74100006 9.5915853e-39
-0.11660001 0.08409334 0.74200004 9.0384115e-39
-0.11518667 0.08409334 0.74200004 9.2217336e-39
-0.11408 0.084320001 0.74400002 1.0696864e-38
-0.11266286 0.084320001 0.74400002 1.1248573e-38
-0.19264287 0.083547622 0.72500002 1.0420627e-38
-0.19126192 0.083547622 0.72500002 1.078941e-38
-0.18988095 0.083547622 0.72500002 1.0511028e-38
-0.18798001 0.083317153 0.72300005 6.3622243e-39
-0.18660288 0.083317153 0.72300005 7.6414249e-39
-0.18496954 0.083201908 0.72200006 4.1379909e-39
-0.18308572 0.082971431 0.72000003 5.6041177e-39
-0.1814619 0.082856201 0.71900004 6.8026538e-39
-0.17959143 0.082625717 0.71700001 6.9873898e-39
-0.17797714 0.082510479 0.71600002 8.3703159e-39
-0.17661333 0.082510479 0.71600002 7.5480886e-39
-0.17476001 0.082280003 0.71400005 9.2075973e-39
-0.1734 0.082280003 0.71400005 8.6605178e-39
-0.17179905 0.082164772 0.71300006 1.0043434e-38
-0.17044096 0.082164772 0.71300006 1.0136702e-38
-0.16908287 0.082164772 0.71300006 1.1058644e-38
-0.16701905 0.08181905 0.71000004 1.0235353e-38
-0.16566667 0.08181905 0.71000004 1.2632425e-38
-0.1643143 0.08181905 0.71000004 1.1715511e-38
-0.16296192 0.08181905 0.71000004 1.1438924e-38
-0.16160953 0.08181905 0.71000004 1.0148899e-38
-0.15980572 0.081588566 0.708 1.0333287e-38
-0.15845715 0.081588566 0.708 9.5982583e-39
-0.15710858 0.081588566 0.708 8.676302e-39
-0.15576001 0.081588566 0.708 8.1231422e-39
-0.15441144 0.081588566 0.708 8.4919247e-39
-0.15306287 0.081588566 0.708 6.9292962e-39
-0.15171428 0.081588566 0.708 4.9931964e-39
-0.15036571 0.081588566 0.708 4.0752394e-39
-0.14901714 0.081588566 0.708 3.7986525e-39
-0.14766857 0.081588566 0.708 2.2349197e-39
-0.14632 0.081588566 0.708 2.0505285e-39
-0.14497143 0.081588566 0.708 1.4980904e-39
-0.14402857 0.08181905 0.71000004 1.8668729e-39
-0.14287715 0.081934288 0.71100003 1.6818454e-39
-0.14152285 0.081934288 0.71100003 1.5896498e-39
-0.14056288 0.082164772 0.71300006 9.4646501e-40
-0.13920477 0.082164772 0.71300006 1.68403e-39
-0.13804002 0.082280003 0.71400005 2.2340523e-39
-0.13668001 0.082280003 0.71400005 1.9574654e-39
-0.13532001 0.082280003 0.71400005 2.8754504e-39
-0.13433523 0.082510479 0.71600002 7.5495095e-40
-0.13297144 0.082510479 0.71600002 7.5206988e-40
-0.13179143 0.082625717 0.71700001 3.8867213e-39
-0.13078953 0.082856201 0.71900004 8.304466e-39
-0.12942 0.082856201 0.71900004 1.2361074e-38
-0.12822857 0.082971431 0.72000003 1.3003925e-38
-0.12685715 0.082971431 0.72000003 1.2450751e-38
-0.12548572 0.082971431 0.72000003 1.1899373e-38
-0.12463143 0.083317153 0.72300005 1.1899373e-38
-0.12359525 0.083547622 0.72500002 1.1438394e-38
-0.12255144 0.083778106 0.72700006 1.153059e-38
-0.12166666 0.084123813 0.73000002 1.1160012e-38
-0.12044095 0.084239051 0.73100001 9.1317086e-39
-0.11986287 0.084815241 0.73600006 8.8551091e-39
-0.11878286 0.085045718 0.73800004 9.2238916e-39
-0.11753619 0.085160956 0.73900002 9.5908763e-39
-0.11660001 0.08550667 0.74200004 9.1298981e-39
-0.11518667 0.08550667 0.74200004 9.1302414e-39
-0.11408 0.085737146 0.74400002 1.042098e-38
-0.11266286 0.085737146 0.74400002 1.0880514e-38
-0.19344001 0.085280009 0.72800004 1.0695419e-38
-0.19178954 0.085162863 0.72700006 1.1156397e-38
-0.19040477 0.085162863 0.72700006 1.0878731e-38
-0.1885 0.084928572 0.72500002 5.7157759e-39
-0.18711905 0.084928572 0.72500002 4.6897172e-39
-0.18522573 0.084694296 0.72300005 3.7677665e-39
-0.1835943 0.084577151 0.72200006 5.1456576e-39
-0.1814619 0.084225714 0.71900004 7.3583486e-39
-0.18009239 0.084225714 0.71900004 7.7339414e-39
-0.17822573 0.083991431 0.71700001 8.2871152e-39
-0.17661333 0.083874285 0.71600002 8.2914087e-39
-0.17524953 0.083874285 0.71600002 9.213365e-39
-0.1734 0.083640002 0.71400005 8.9382201e-39
-0.17204002 0.083640002 0.71400005 1.0136763e-38
-0.17044096 0.083522864 0.71300006 1.0137467e-38
-0.16908287 0.083522864 0.71300006 1.1059423e-38
-0.16725428 0.083288573 0.71100003 1.0051067e-38
-0.16566667 0.083171427 0.71000004 1.1987175e-38
-0.1643143 0.083171427 0.71000004 1.1530809e-38
-0.16296192 0.083171427 0.71000004 1.1346417e-38
-0.16160953 0.083171427 0.71000004 1.0703203e-38
-0.16025715 0.083171427 0.71000004 1.0611008e-38
-0.15890476 0.083171427 0.71000004 9.9653228e-39
-0.15755239 0.083171427 0.71000004 9.7809316e-39
-0.15576001 0.082937144 0.708 9.5976193e-39
-0.15441144 0.082937144 0.708 9.8742062e-39
-0.15306287 0.082937144 0.708 8.3097966e-39
-0.15171428 0.082937144 0.708 8.0332097e-39
-0.15036571 0.082937144 0.708 6.9294027e-39
-0.14901714 0.082937144 0.708 7.0215983e-39
-0.14766857 0.082937144 0.708 7.0205095e-39
-0.14673334 0.083171427 0.71000004 6.8361183e-39
-0.14538096 0.083171427 0.71000004 6.4673483e-39
-0.14402857 0.083171427 0.71000004 6.4673483e-39
-0.14287715 0.083288573 0.71100003 4.718916e-39
-0.14152285 0.083288573 0.71100003 4.4423291e-39
-0.14056288 0.083522864 0.71300006 2.1435887e-39
-0.13920477 0.083522864 0.71300006 2.3279799e-39
-0.13804002 0.083640002 0.71400005 9.4584143e-40
-0.13668001 0.083640002 0.71400005 7.6145017e-40
-0.13532001 0.083640002 0.71400005 9.4402955e-40
-0.13433523 0.083874285 0.71600002 1.883205e-41
-0.13297144 0.083874285 0.71600002 6.5952392e-40
-0.13179143 0.083991431 0.71700001 4.1629579e-39
-0.13078953 0.084225714 0.71900004 7.7520139e-39
-0.12942 0.084225714 0.71900004 1.1532035e-38
-0.12822857 0.08434286 0.72000003 1.2912083e-38
-0.12685715 0.08434286 0.72000003 1.2451104e-38
-0.12583429 0.084577151 0.72200006 1.2267073e-38
-0.1249762 0.084928572 0.72500002 1.2174878e-38
-0.1239362 0.085162863 0.72700006 1.2082669e-38
-0.12272 0.085280009 0.72800004 1.1713887e-38
-0.12133334 0.085280009 0.72800004 1.1527716e-38
-0.12077048 0.085865714 0.73300004 1.0236977e-38
-0.11986287 0.08621715 0.73600006 9.2238916e-39
-0.11878286 0.086451426 0.73800004 8.8551091e-39
-0.11753619 0.086568572 0.73900002 9.1295478e-39
-0.11644286 0.086802863 0.74100006 8.8529609e-39
-0.11518667 0.086920008 0.74200004 8.7618092e-39
-0.11408 0.087154284 0.74400002 1.0329135e-38
-0.11266286 0.087154284 0.74400002 1.1064179e-38
-0.19482668 0.086666673 0.72800004 1.0602497e-38
-0.19344001 0.086666673 0.72800004 1.0694696e-38
-0.19205333 0.086666673 0.72800004 1.124787e-38
-0.19040477 0.086547628 0.72700006 1.1154955e-38
-0.1885 0.086309522 0.72500002 5.8998042e-39
-0.18711905 0.086309522 0.72500002 5.3365033e-39
-0.1857381 0.086309522 0.72500002 5.5208917e-39
-0.1835943 0.085952386 0.72200006 6.7119128e-39
-0.18171428 0.085714288 0.72000003 7.7260647e-39
-0.18009239 0.085595243 0.71900004 9.0275515e-39
-0.17822573 0.085357144 0.71700001 1.0410486e-38
-0.17686 0.085357144 0.71700001 9.309588e-39
-0.17524953 0.085238092 0.71600002 1.0231544e-38
-0.17388572 0.085238092 0.71600002 1.0599588e-38
-0.17204002 0.085000008 0.71400005 1.0599588e-38
-0.17068 0.085000008 0.71400005 1.1614088e-38
-0.16908287 0.084880956 0.71300006 1.1521892e-38
-0.16725428 0.084642857 0.71100003 1.1525495e-38
-0.16590001 0.084642857 0.71100003 1.226306e-38
-0.16454571 0.084642857 0.71100003 1.2081906e-38
-0.16319144 0.084642857 0.71100003 1.1897514e-38
-0.16183715 0.084642857 0.71100003 1.1437981e-38
-0.16025715 0.084523819 0.71000004 1.1345785e-38
-0.15890476 0.084523819 0.71000004 1.0978798e-38
-0.15755239 0.084523819 0.71000004 1.0886602e-38
-0.15620001 0.084523819 0.71000004 1.0702587e-38
-0.15484762 0.084523819 0.71000004 1.0702587e-38
-0.15349525 0.084523819 0.71000004 1.0334896e-38
-0.15214287 0.084523819 0.71000004 1.0058309e-38
-0.15079048 0.084523819 0.71000004 9.4140282e-39
-0.1494381 0.084523819 0.71000004 9.2296369e-39
-0.14808571 0.084523819 0.71000004 9.1374469e-39
-0.14673334 0.084523819 0.71000004 8.86086e-39
-0.14538096 0.084523819 0.71000004 8.2180087e-39
-0.14423144 0.084642857 0.71100003 8.3102044e-39
-0.14287715 0.084642857 0.71100003 8.310217e-39
-0.14192097 0.084880956 0.71300006 7.9414345e-39
-0.14056288 0.084880956 0.71300006 7.0220089e-39
-0.13920477 0.084880956 0.71300006 6.8376176e-39
-0.13804002 0.085000008 0.71400005 4.812981e-39
-0.13668001 0.085000008 0.71400005 1.6783296e-39
-0.13532001 0.085000008 0.71400005 7.5638588e-40
-0.13433523 0.085238092 0.71600002 1.8460706e-41
-0.13315715 0.085357144 0.71700001 6.6167632e-40
-0.13179143 0.085357144 0.71700001 5.1792622e-39
-0.13078953 0.085595243 0.71900004 1.0513188e-38
-0.12942 0.085595243 0.71900004 1.2541492e-38
-0.12822857 0.085714288 0.72000003 1.2728051e-38
-0.12720953 0.085952386 0.72200006 1.2359269e-38
-0.12583429 0.085952386 0.72200006 1.1899373e-38
-0.1249762 0.086309522 0.72500002 1.2083764e-38
-0.12359525 0.086309522 0.72500002 1.2174868e-38
-0.12255144 0.086547628 0.72700006 1.1621694e-38
-0.12133334 0.086666673 0.72800004 1.180394e-38
-0.12044095 0.08702381 0.73100001 1.0236614e-38
-0.11953715 0.087380953 0.73400003 9.6848669e-39
-0.11878286 0.08785715 0.73800004 8.670715e-39
-0.11753619 0.087976187 0.73900002 8.6707178e-39
-0.11644286 0.088214293 0.74100006 8.5785222e-39
-0.11503144 0.088214293 0.74100006 8.6689101e-39
-0.11408 0.088571429 0.74400002 1.0236236e-38
-0.11266286 0.088571429 0.74400002 1.0971983e-38
-0.1931743 0.087932393 0.72700006 1.0694693e-38
-0.19178954 0.087932393 0.72700006 1.1063476e-38
-0.19040477 0.087932393 0.72700006 1.1063476e-38
-0.1885 0.08769048 0.72500002 7.0990635e-39
-0.18711905 0.08769048 0.72500002 6.6355126e-39
-0.1857381 0.08769048 0.72500002 8.6638164e-39
-0.1835943 0.087327629 0.72200006 8.2039663e-39
-0.18221906 0.087327629 0.72200006 5.7146843e-39
-0.18009239 0.086964764 0.71900004 5.4420407e-39
-0.17872287 0.086964764 0.71900004 9.4064528e-39
-0.17686 0.086722851 0.71700001 1.0324857e-38
-0.17549428 0.086722851 0.71700001 1.2906334e-38
-0.17388572 0.086601906 0.71600002 1.3091076e-38
-0.17204002 0.086360008 0.71400005 1.3091076e-38
-0.17068 0.086360008 0.71400005 1.3001029e-38
-0.16908287 0.086239055 0.71300006 1.3369811e-38
-0.16772477 0.086239055 0.71300006 1.2818795e-38
-0.16636668 0.086239055 0.71300006 1.3003187e-38
-0.16454571 0.085997149 0.71100003 1.291172e-38
-0.16319144 0.085997149 0.71100003 1.3003915e-38
-0.16183715 0.085997149 0.71100003 1.3095755e-38
-0.16048285 0.085997149 0.71100003 1.3556733e-38
-0.15912858 0.085997149 0.71100003 1.3373408e-38
-0.15755239 0.085876197 0.71000004 1.3465604e-38
-0.15620001 0.085876197 0.71000004 1.3190111e-38
-0.15484762 0.085876197 0.71000004 1.3466698e-38
-0.15349525 0.085876197 0.71000004 1.3466693e-38
-0.15214287 0.085876197 0.71000004 1.374328e-38
-0.15079048 0.085876197 0.71000004 1.3834399e-38
-0.1494381 0.085876197 0.71000004 1.3834399e-38
-0.14808571 0.085876197 0.71000004 1.365109e-38
-0.14694001 0.085997149 0.71100003 1.365109e-38
-0.14558572 0.085997149 0.71100003 1.3743282e-38
-0.14423144 0.085997149 0.71100003 1.3743282e-38
-0.14327906 0.086239055 0.71300006 1.3835475e-38
-0.14192097 0.086239055 0.71300006 1.3927671e-38
-0.14056288 0.086239055 0.71300006 1.3651084e-38
-0.13920477 0.086239055 0.71300006 1.3927671e-38
-0.13804002 0.086360008 0.71400005 1.3835475e-38
-0.13706286 0.086601906 0.71600002 1.0793019e-38
-0.13569905 0.086601906 0.71600002 9.4126115e-39
-0.13433523 0.086601906 0.71600002 7.1077207e-39
-0.13315715 0.086722851 0.71700001 1.0975637e-38
-0.13179143 0.086722851 0.71700001 1.3464919e-38
-0.13078953 0.086964764 0.71900004 1.2819871e-38
-0.12942 0.086964764 0.71900004 1.2358893e-38
-0.12822857 0.087085716 0.72000003 1.2268503e-38
-0.12720953 0.087327629 0.72200006 1.2268503e-38
-0.12600857 0.087448575 0.72300005 1.2083758e-38
-0.1249762 0.08769048 0.72500002 1.1807171e-38
-0.12359525 0.08769048 0.72500002 1.1990474e-38
-0.12255144 0.087932393 0.72700006 1.1621691e-38
-0.12133334 0.088053338 0.72800004 1.1712104e-38
-0.12044095 0.088416189 0.73100001 9.1306268e-39
-0.11953715 0.088779047 0.73400003 8.2101152e-39
-0.11878286 0.089262858 0.73800004 8.5788977e-39
-0.11753619 0.089383811 0.73900002 9.0377025e-39
-0.11644286 0.089625724 0.74100006 9.0377025e-39
-0.11503144 0.089625724 0.74100006 9.130254e-39
-0.11408 0.089988567 0.74400002 1.0328797e-38
-0.11266286 0.089988567 0.74400002 1.0971983e-38
-0.19423714 0.089808576 0.73100001 1.0602497e-38
-0.19178954 0.089317143 0.72700006 1.1063476e-38
-0.19040477 0.089317143 0.72700006 1.1156024e-38
-0.18902001 0.089317143 0.72700006 7.3760035e-39
-0.18763524 0.089317143 0.72700006 5.9004951e-39
-0.1857381 0.08907143 0.72500002 8.7585596e-39
-0.1835943 0.088702865 0.72200006 8.0242596e-39
-0.18171428 0.088457145 0.72000003 9.5435432e-41
-0.18009239 0.088334292 0.71900004 1.0761972e-42
-0.17872287 0.088334292 0.71900004 7.9302563e-39
-0.17686 0.088088572 0.71700001 8.7629106e-39
-0.17549428 0.088088572 0.71700001 1.1620975e-38
-0.17388572 0.087965719 0.71600002 1.2082322e-38
-0.17204002 0.087719999 0.71400005 1.1805735e-38
-0.17068 0.087719999 0.71400005 1.1623133e-38
-0.16908287 0.087597147 0.71300006 1.189972e-38
-0.16772477 0.087597147 0.71300006 1.1991916e-38
-0.16636668 0.087597147 0.71300006 1.2176307e-38
-0.16500859 0.087597147 0.71300006 1.2175957e-38
-0.16365048 0.087597147 0.71300006 1.2268152e-38
-0.16183715 0.087351426 0.71100003 1.2635856e-38
-0.16048285 0.087351426 0.71100003 1.3096834e-38
-0.15912858 0.087351426 0.71100003 1.3005345e-38
-0.1577743 0.087351426 0.71100003 1.3005345e-38
-0.15620001 0.087228574 0.71000004 1.2914241e-38
-0.15484762 0.087228574 0.71000004 1.3098632e-38
-0.15349525 0.087228574 0.71000004 1.3098632e-38
-0.15214287 0.087228574 0.71000004 1.3375219e-38
-0.15079048 0.087228574 0.71000004 1.3558888e-38
-0.1494381 0.087228574 0.71000004 1.3466693e-38
-0.14829428 0.087351426 0.71100003 1.3466695e-38
-0.14694001 0.087351426 0.71100003 1.3466695e-38
-0.14558572 0.087351426 0.71100003 1.3466695e-38
-0.14463715 0.087597147 0.71300006 1.3558891e-38
-0.14327906 0.087597147 0.71300006 1.365109e-38
-0.14192097 0.087597147 0.71300006 1.3835481e-38
-0.14056288 0.087597147 0.71300006 1.4018793e-38
-0.13940001 0.087719999 0.71400005 1.429538e-38
-0.13804002 0.087719999 0.71400005 1.4845327e-38
-0.13706286 0.087965719 0.71600002 1.2356044e-38
-0.13588856 0.088088572 0.71700001 1.2078391e-38
-0.13452287 0.088088572 0.71700001 1.0879848e-38
-0.13352858 0.088334292 0.71900004 1.1806085e-38
-0.13215905 0.088334292 0.71900004 1.2174868e-38
-0.13078953 0.088334292 0.71900004 1.1437653e-38
-0.1296 0.088457145 0.72000003 1.2267414e-38
-0.12822857 0.088457145 0.72000003 1.1808256e-38
-0.12720953 0.088702865 0.72200006 1.1900452e-38
-0.12600857 0.088825718 0.72300005 1.1899733e-38
-0.1249762 0.08907143 0.72500002 1.1715341e-38
-0.1239362 0.089317143 0.72700006 1.1990477e-38
-0.12255144 0.089317143 0.72700006 1.1990477e-38
-0.12133334 0.089440003 0.72800004 1.1805732e-38
-0.12044095 0.089808576 0.73100001 8.855472e-39
-0.11953715 0.090177149 0.73400003 8.2093893e-39
-0.11878286 0.090668574 0.73800004 8.8547588e-39
-0.11753619 0.090791427 0.73900002 9.3146453e-39
-0.11660001 0.091159999 0.74200004 9.130254e-39
-0.11518667 0.091159999 0.74200004 9.2217308e-39
-0.11408 0.09140572 0.74400002 1.0328078e-38
-0.11266286 0.09140572 0.74400002 1.0788318e-38
-0.19423714 0.091200955 0.73100001 1.0419185e-38
-0.19284476 0.091200955 0.73100001 1.0695772e-38
-0.19066668 0.090826668 0.72800004 1.0787968e-38
-0.18928002 0.090826668 0.72800004 8.7596638e-39
-0.18763524 0.090701908 0.72700006 7.4696313e-39
-0.1857381 0.090452388 0.72500002 8.3915876e-39
-0.18384859 0.090202861 0.72300005 6.9200672e-39
-0.18171428 0.089828581 0.72000003 3.7417752e-40
-0.18009239 0.089703813 0.71900004 9.5516707e-41
-0.17872287 0.089703813 0.71900004 6.6414064e-39
-0.17686 0.089454286 0.71700001 9.4979323e-39
-0.17549428 0.089454286 0.71700001 1.207941e-38
-0.17412858 0.089454286 0.71700001 1.2357812e-38
-0.17252192 0.089329526 0.71600002 1.2542203e-38
-0.17068 0.089080006 0.71400005 1.263512e-38
-0.16932 0.089080006 0.71400005 1.2727316e-38
-0.16796002 0.089080006 0.71400005 1.2820237e-38
-0.1666 0.089080006 0.71400005 1.2820237e-38
-0.16500859 0.088955246 0.71300006 1.2912083e-38
-0.16365048 0.088955246 0.71300006 1.3004278e-38
-0.16229239 0.088955246 0.71300006 1.2912799e-38
-0.16048285 0.088705719 0.71100003 1.2544016e-38
-0.15912858 0.088705719 0.71100003 1.3003903e-38
-0.1577743 0.088705719 0.71100003 1.3557076e-38
-0.15642001 0.088705719 0.71100003 1.3741112e-38
-0.15506572 0.088705719 0.71100003 1.3648916e-38
-0.15371142 0.088705719 0.71100003 1.3374853e-38
-0.15235715 0.088705719 0.71100003 1.3467049e-38
-0.15100287 0.088705719 0.71100003 1.3466693e-38
-0.14964858 0.088705719 0.71100003 1.3374497e-38
-0.14829428 0.088705719 0.71100003 1.33745e-38
-0.14694001 0.088705719 0.71100003 1.33745e-38
-0.14558572 0.088705719 0.71100003 1.3558891e-38
-0.14463715 0.088955246 0.71300006 1.3835478e-38
-0.14327906 0.088955246 0.71300006 1.4203187e-38
-0.14192097 0.088955246 0.71300006 1.4295383e-38
-0.14056288 0.088955246 0.71300006 1.4203535e-38
-0.13940001 0.089080006 0.71400005 1.3004991e-38
-0.13804002 0.089080006 0.71400005 1.3096796e-38
-0.13706286 0.089329526 0.71600002 1.1437275e-38
-0.13588856 0.089454286 0.71700001 1.0514646e-38
-0.13452287 0.089454286 0.71700001 5.5360818e-39
-0.13352858 0.089703813 0.71900004 2.782358e-39
-0.13215905 0.089703813 0.71900004 4.4418793e-39
-0.13097143 0.089828581 0.72000003 7.7516482e-39
-0.1296 0.089828581 0.72000003 1.2177038e-38
-0.12858477 0.090078101 0.72200006 1.2452909e-38
-0.12738572 0.090202861 0.72300005 1.1899735e-38
-0.12635714 0.090452388 0.72500002 1.1991568e-38
-0.12532096 0.090701908 0.72700006 1.1899373e-38
-0.1239362 0.090701908 0.72700006 1.2082672e-38
-0.12255144 0.090701908 0.72700006 1.2082672e-38
-0.12133334 0.090826668 0.72800004 1.1897575e-38
-0.12044095 0.091200955 0.73100001 9.7770752e-39
-0.11953715 0.091575243 0.73400003 8.30375e-39
-0.11878286 0.092074282 0.73800004 8.4881412e-39
-0.11753619 0.09219905 0.73900002 9.3146453e-39
-0.11691429 0.092822857 0.74400002 8.7614715e-39
-0.11580762 0.093072385 0.74600005 8.7607653e-39
-0.11438668 0.093072385 0.74600005 9.7749172e-39
-0.11296572 0.093072385 0.74600005 1.0696476e-38
-0.19423714 0.092593335 0.73100001 1.0234794e-38
-0.19284476 0.092593335 0.73100001 1.0419185e-38
-0.19119048 0.092466667 0.73000002 1.0328782e-38
-0.18980001 0.092466667 0.73000002 8.8536517e-39
-0.18763524 0.092086673 0.72700006 7.4707327e-39
-0.18625049 0.092086673 0.72700006 7.8395152e-39
-0.18435715 0.091833338 0.72500002 6.54984e-39
-0.18221906 0.091453344 0.72200006 3.5073842e-39
-0.18034285 0.091200002 0.72000003 6.4569339e-39
-0.17872287 0.091073342 0.71900004 9.1306072e-39
-0.17735334 0.091073342 0.71900004 9.9592608e-39
-0.17549428 0.09082 0.71700001 9.7748695e-39
-0.17412858 0.09082 0.71700001 1.0145444e-38
-0.17252192 0.09069334 0.71600002 1.2634726e-38
-0.17068 0.090440005 0.71400005 1.2544369e-38
-0.16932 0.090440005 0.71400005 1.2544369e-38
-0.16796002 0.090440005 0.71400005 1.2912423e-38
-0.1666 0.090440005 0.71400005 1.2912423e-38
-0.16500859 0.090313345 0.71300006 1.3005332e-38
-0.16365048 0.090313345 0.71300006 1.3650701e-38
-0.16229239 0.090313345 0.71300006 1.374115e-38
-0.16048285 0.090060003 0.71100003 1.0790889e-38
-0.15912858 0.090060003 0.71100003 8.4916095e-39
-0.1577743 0.090060003 0.71100003 1.1995043e-38
-0.15642001 0.090060003 0.71100003 1.438396e-38
-0.15506572 0.090060003 0.71100003 1.438396e-38
-0.15371142 0.090060003 0.71100003 1.3834405e-38
-0.15235715 0.090060003 0.71100003 1.3650013e-38
-0.15100287 0.090060003 0.71100003 1.3650361e-38
-0.14964858 0.090060003 0.71100003 1.3742556e-38
-0.14871144 0.090313345 0.71300006 1.3467402e-38
-0.14694001 0.090060003 0.71100003 1.3743989e-38
-0.14558572 0.090060003 0.71100003 1.3926617e-38
-0.14463715 0.090313345 0.71300006 1.3281248e-38
