# .PCD v0.7 - Point Cloud Data file format
VERSION 0.7
FIELDS x y z rgba
SIZE 4 4 4 4
TYPE F F F U
COUNT 1 1 1 1
WIDTH 1082
HEIGHT 1
VIEWPOINT 0 0 0 1 0 0 0
POINTS 1082
DATA ascii
-0.050528575 0.055519048 0.65500003 14525504
-0.049280953 0.055519048 0.65500003 14525765
-0.048033334 0.055519048 0.65500003 14525765
-0.046785716 0.055519048 0.65500003 14525506
-0.045538098 0.055519048 0.65500003 14459713
-0.044290476 0.055519048 0.65500003 14590270
-0.043174285 0.055688571 0.65700001 13932340
-0.041795239 0.055519048 0.65500003 13013306
-0.040547621 0.055519048 0.65500003 16769418
-0.039419997 0.055688571 0.65700001 16447478
-0.036948573 0.053908575 0.63600004 16776700
-0.035737146 0.053908575 0.63600004 16711422
-0.034634285 0.054078095 0.63800001 16514043
-0.033523809 0.054247621 0.64000005 16448250
-0.032203808 0.054078095 0.63800001 16448250
-0.030988572 0.054078095 0.63800001 16448250
-0.029773334 0.054078095 0.63800001 16448250
-0.028558096 0.054078095 0.63800001 16448250
-0.027342858 0.054078095 0.63800001 16448250
-0.026086668 0.053993333 0.63700002 16448250
-0.024873333 0.053993333 0.63700002 16448250
-0.02366 0.053993333 0.63700002 16448250
-0.02241143 0.053908575 0.63600004 16448250
-0.021200001 0.053908575 0.63600004 16448250
-0.019988572 0.053908575 0.63600004 16448250
-0.018777143 0.053908575 0.63600004 16448250
-0.017538097 0.053823814 0.63500005 16448250
-0.016328571 0.053823814 0.63500005 16448250
-0.015119049 0.053823814 0.63500005 16711422
-0.014413333 0.055773336 0.65800005 16711422
-0.013080001 0.05543429 0.65400004 15066597
-0.011834286 0.05543429 0.65400004 13740693
-0.010588572 0.05543429 0.65400004 13280142
-0.0093428576 0.05543429 0.65400004 14788685
-0.0080847619 0.055349529 0.65300006 15051857
-0.0068304762 0.05526476 0.65200001 14985553
-0.0055885715 0.05526476 0.65200001 15117139
-0.0043466669 0.05526476 0.65200001 15182675
-0.0031047619 0.05526476 0.65200001 15051089
-0.0018628573 0.05526476 0.65200001 14920784
-0.00061904767 0.05509524 0.65000004 14789198
0.00061904767 0.05509524 0.65000004 14394690
0.0018571429 0.05509524 0.65000004 14394690
0.0030952382 0.05509524 0.65000004 14525245
0.0043333336 0.05509524 0.65000004 14591038
0.0055714287 0.05509524 0.65000004 14591299
0.0068095243 0.05509524 0.65000004 14525506
0.0080476198 0.05509524 0.65000004 14525508
0.0092857154 0.05509524 0.65000004 14328129
0.01052381 0.05509524 0.65000004 13866790
0.011761905 0.05509524 0.65000004 13866790
0.013 0.05509524 0.65000004 14063917
0.014216191 0.055010479 0.64900005 13998124
0.015452381 0.055010479 0.64900005 13800486
0.016714286 0.05509524 0.65000004 13800486
0.017952381 0.05509524 0.65000004 13866277
0.019190477 0.05509524 0.65000004 14261035
0.020428572 0.05509524 0.65000004 12948793
0.021666668 0.05509524 0.65000004 12685621
0.022904763 0.05509524 0.65000004 12162412
-0.075250484 0.056593336 0.65300006 11961440
-0.073893331 0.056506667 0.65200001 13406533
-0.072651431 0.056506667 0.65200001 14590807
-0.071409523 0.056506667 0.65200001 14261823
-0.070275247 0.056593336 0.65300006 14130237
-0.069137141 0.056680001 0.65400004 14064962
-0.067891434 0.056680001 0.65400004 13999169
-0.066645719 0.056680001 0.65400004 14064454
-0.065400004 0.056680001 0.65400004 14064454
-0.06415429 0.056680001 0.65400004 14195790
-0.062908575 0.056680001 0.65400004 14458962
-0.06166286 0.056680001 0.65400004 14327877
-0.060324769 0.056593336 0.65300006 13801533
-0.059080955 0.056593336 0.65300006 14327877
-0.05819143 0.056939997 0.65700001 14393670
-0.05676667 0.05676667 0.65500003 14459463
-0.055519048 0.05676667 0.65500003 14525256
-0.054188572 0.056680001 0.65400004 14590790
-0.052942861 0.056680001 0.65400004 14919755
-0.051618099 0.056593336 0.65300006 14854210
-0.050374292 0.056593336 0.65300006 14985796
-0.049130481 0.056593336 0.65300006 14853977
-0.047886673 0.056593336 0.65300006 14656598
-0.046714287 0.056680001 0.65400004 14657353
-0.045468576 0.056680001 0.65400004 14591560
-0.044290476 0.05676667 0.65500003 14131252
-0.043042861 0.05676667 0.65500003 13210150
-0.041731432 0.056680001 0.65400004 13477493
-0.040485717 0.056680001 0.65400004 16775367
-0.03816 0.055120002 0.63600004 16711422
-0.036948573 0.055120002 0.63600004 16645629
-0.035737146 0.055120002 0.63600004 16514043
-0.03458 0.055206668 0.63700002 16448250
-0.033419047 0.055293337 0.63800001 16448250
-0.032203808 0.055293337 0.63800001 16448250
-0.03094 0.055206668 0.63700002 16448250
-0.029726667 0.055206668 0.63700002 16448250
-0.028513335 0.055206668 0.63700002 16448250
-0.0273 0.055206668 0.63700002 16448250
-0.026045715 0.055120002 0.63600004 16448250
-0.024834288 0.055120002 0.63600004 16448250
-0.023622857 0.055120002 0.63600004 16448250
-0.02241143 0.055120002 0.63600004 16448250
-0.021200001 0.055120002 0.63600004 16448250
-0.019988572 0.055120002 0.63600004 16448250
-0.018777143 0.055120002 0.63600004 16448250
-0.017538097 0.055033337 0.63500005 16448250
-0.016328571 0.055033337 0.63500005 16448250
-0.015095239 0.054946665 0.634 16579836
-0.013887619 0.054946665 0.634 16711422
-0.013080001 0.056680001 0.65400004 16579836
-0.011816191 0.056593336 0.65300006 15256269
-0.010572381 0.056593336 0.65300006 12098205
-0.0093142856 0.056506667 0.65200001 14129471
-0.0080476198 0.056333333 0.65000004 14721608
-0.0068095243 0.056333333 0.65000004 14523716
-0.0055714287 0.056333333 0.65000004 14523716
-0.0043333336 0.056333333 0.65000004 14458155
-0.0030952382 0.056333333 0.65000004 14392362
-0.0018542858 0.056246672 0.64900005 14327080
-0.00061809528 0.056246672 0.64900005 14392873
0.00061809528 0.056246672 0.64900005 14195496
0.0018542858 0.056246672 0.64900005 14195496
0.0030904766 0.056246672 0.64900005 14260769
0.0043333336 0.056333333 0.65000004 14326562
0.0055714287 0.056333333 0.65000004 13996080
0.0067990478 0.056246672 0.64900005 13930287
0.0080228569 0.056159999 0.648 13931561
0.0092571434 0.056159999 0.648 14194733
0.010491428 0.056159999 0.648 13866272
0.011725714 0.056159999 0.648 13800479
0.01296 0.056159999 0.648 13734936
0.014194285 0.056159999 0.648 13866522
0.015428572 0.056159999 0.648 13931561
0.016662857 0.056159999 0.648 13865768
0.017897142 0.056159999 0.648 14062625
0.019160954 0.056246672 0.64900005 14786348
0.020428572 0.056333333 0.65000004 13211942
0.021666668 0.056333333 0.65000004 12619805
0.022904763 0.056333333 0.65000004 12096369
-0.074904762 0.057571433 0.65000004 11961683
-0.073666669 0.057571433 0.65000004 13406011
-0.072428577 0.057571433 0.65000004 14458699
-0.071190484 0.057571433 0.65000004 14196543
-0.070167623 0.057748571 0.65200001 14064957
-0.068925716 0.057748571 0.65200001 14196802
-0.067683809 0.057748571 0.65200001 14065216
-0.066543818 0.057837147 0.65300006 13999164
-0.065200001 0.057748571 0.65200001 14064957
-0.063958094 0.057748571 0.65200001 13999169
-0.062716186 0.057748571 0.65200001 13999169
-0.06147429 0.057748571 0.65200001 14131270
-0.060232379 0.057748571 0.65200001 14197063
-0.058990479 0.057748571 0.65200001 14394181
-0.057748571 0.057748571 0.65200001 14394181
-0.056680001 0.057925716 0.65400004 14525002
-0.05543429 0.057925716 0.65400004 14590795
-0.054188572 0.057925716 0.65400004 14459212
-0.05286191 0.057837147 0.65300006 14459212
-0.051539049 0.057748571 0.65200001 14786627
-0.050297141 0.057748571 0.65200001 15115592
-0.049055237 0.057748571 0.65200001 14853972
-0.047813334 0.057748571 0.65200001 14722386
-0.04657143 0.057748571 0.65200001 14657101
-0.045399051 0.057837147 0.65300006 14393929
-0.04415524 0.057837147 0.65300006 13408297
-0.042977147 0.057925716 0.65400004 14000434
-0.041731432 0.057925716 0.65400004 14073020
-0.039371431 0.05633143 0.63600004 16774902
-0.03816 0.05633143 0.63600004 16711422
-0.036948573 0.05633143 0.63600004 16514043
-0.035737146 0.05633143 0.63600004 16448250
-0.03458 0.056420002 0.63700002 16448250
-0.033419047 0.056508571 0.63800001 16448250
-0.032153334 0.056420002 0.63700002 16448250
-0.03094 0.056420002 0.63700002 16448250
-0.029680001 0.05633143 0.63600004 16448250
-0.028468573 0.05633143 0.63600004 16448250
-0.027257143 0.05633143 0.63600004 16448250
-0.026045715 0.05633143 0.63600004 16448250
-0.024834288 0.05633143 0.63600004 16448250
-0.023622857 0.05633143 0.63600004 16448250
-0.02241143 0.05633143 0.63600004 16448250
-0.021200001 0.05633143 0.63600004 16448250
-0.019957144 0.056242861 0.63500005 16448250
-0.01874762 0.056242861 0.63500005 16448250
-0.017538097 0.056242861 0.63500005 16448250
-0.016328571 0.056242861 0.63500005 16448250
-0.015095239 0.056154288 0.634 16514043
-0.013887619 0.056154288 0.634 16711422
-0.01268 0.056154288 0.634 16711422
-0.011761905 0.057571433 0.65000004 15849699
-0.01052381 0.057571433 0.65000004 11309982
-0.0092857154 0.057571433 0.65000004 13799432
-0.0080352379 0.057482861 0.64900005 14983706
-0.0067990478 0.057482861 0.64900005 14589241
-0.0055542854 0.057394285 0.648 14260276
-0.0043200003 0.057394285 0.648 14325799
-0.0030904766 0.057482861 0.64900005 14128420
-0.0018542858 0.057482861 0.64900005 14193952
-0.00061809528 0.057482861 0.64900005 14193952
0.00061809528 0.057482861 0.64900005 14128409
0.0018514285 0.057394285 0.648 14325788
0.0030857143 0.057394285 0.648 14325792
0.0043266667 0.057482861 0.64900005 14062620
0.0055542854 0.057394285 0.648 14258720
0.0067885718 0.057394285 0.648 14258720
0.0080104759 0.057305716 0.64700001 14193184
0.0092428569 0.057305716 0.64700001 14258977
0.010475239 0.057305716 0.64700001 14062625
0.011707619 0.057305716 0.64700001 13931039
0.01294 0.057305716 0.64700001 13931034
0.014172382 0.057305716 0.64700001 14128413
0.015404763 0.057305716 0.64700001 14062629
0.016637143 0.057305716 0.64700001 13931043
0.017869525 0.057305716 0.64700001 14062368
0.019101905 0.057305716 0.64700001 14851884
0.020365715 0.057394285 0.648 13409326
0.021600001 0.057394285 0.648 12685603
0.022834286 0.057394285 0.648 12096621
-0.076025717 0.058719054 0.64900005 11763291
-0.074789532 0.058719054 0.64900005 12158049
-0.073553339 0.058719054 0.64900005 13865264
-0.072317146 0.058719054 0.64900005 14654780
-0.071190484 0.058809526 0.65000004 14260267
-0.069952384 0.058809526 0.65000004 13997095
-0.068714283 0.058809526 0.65000004 14064430
-0.067476198 0.058809526 0.65000004 14196016
-0.066238098 0.058809526 0.65000004 14195764
-0.064999998 0.058809526 0.65000004 14261557
-0.063761905 0.058809526 0.65000004 14130235
-0.062523812 0.058809526 0.65000004 14196028
-0.061285719 0.058809526 0.65000004 14328388
-0.060047623 0.058809526 0.65000004 14459974
-0.058809526 0.058809526 0.65000004 14459461
-0.057571433 0.058809526 0.65000004 14393668
-0.056333333 0.058809526 0.65000004 14525256
-0.05509524 0.058809526 0.65000004 14722635
-0.053857144 0.058809526 0.65000004 14524503
-0.052780952 0.058990479 0.65200001 14392917
-0.051539049 0.058990479 0.65200001 14589260
-0.050297141 0.058990479 0.65200001 14655053
-0.049055237 0.058990479 0.65200001 14524229
-0.047813334 0.058990479 0.65200001 14590022
-0.04657143 0.058990479 0.65200001 14261573
-0.045329522 0.058990479 0.65200001 13669436
-0.044087619 0.058990479 0.65200001 13078560
-0.042977147 0.059171431 0.65400004 16434003
-0.041731432 0.059171431 0.65400004 15390449
-0.039371431 0.057542857 0.63600004 16774655
-0.03816 0.057542857 0.63600004 16711422
-0.036948573 0.057542857 0.63600004 16448250
-0.035737146 0.057542857 0.63600004 16448250
-0.034525715 0.057542857 0.63600004 16448250
-0.033366665 0.057633337 0.63700002 16448250
-0.032102857 0.057542857 0.63600004 16448250
-0.03089143 0.057542857 0.63600004 16448250
-0.029680001 0.057542857 0.63600004 16448250
-0.028468573 0.057542857 0.63600004 16448250
-0.027257143 0.057542857 0.63600004 16448250
-0.026004763 0.057452384 0.63500005 16448250
-0.02479524 0.057452384 0.63500005 16448250
-0.023585714 0.057452384 0.63500005 16448250
-0.022376193 0.057452384 0.63500005 16448250
-0.021166669 0.057452384 0.63500005 16448250
-0.019957144 0.057452384 0.63500005 16448250
-0.01874762 0.057452384 0.63500005 16448250
-0.017538097 0.057452384 0.63500005 16448250
-0.016328571 0.057452384 0.63500005 16448250
-0.015095239 0.057361905 0.634 16448250
-0.013887619 0.057361905 0.634 16711422
-0.01268 0.057361905 0.634 16711422
-0.011761905 0.058809526 0.65000004 16378348
-0.01050762 0.058719054 0.64900005 10654357
-0.0092714289 0.058719054 0.64900005 13535744
-0.0080228569 0.05862857 0.648 15048960
-0.0067885718 0.05862857 0.648 14458155
-0.0055542854 0.05862857 0.648 13931811
-0.0043200003 0.05862857 0.648 14128427
-0.0030857143 0.05862857 0.648 14062634
-0.0018514285 0.05862857 0.648 14193956
-0.00061714282 0.05862857 0.648 14193956
0.00061714282 0.05862857 0.648 14193952
0.0018514285 0.05862857 0.648 14457124
0.0030857143 0.05862857 0.648 14326294
0.0043200003 0.05862857 0.648 14063122
0.0055542854 0.05862857 0.648 14193186
0.0067885718 0.05862857 0.648 14324772
0.0080104759 0.058538094 0.64700001 14258979
0.0092428569 0.058538094 0.64700001 14324772
0.010475239 0.058538094 0.64700001 14193956
0.011689524 0.058447622 0.64600003 14062370
0.012920001 0.058447622 0.64600003 14127909
0.014150477 0.058447622 0.64600003 14456874
0.015380953 0.058447622 0.64600003 14128163
0.016611429 0.058447622 0.64600003 13930784
0.017841905 0.058447622 0.64600003 14324252
0.019101905 0.058538094 0.64700001 14850596
0.020240003 0.05826667 0.64400005 13408538
0.021433335 0.05817619 0.64300001 13013780
0.022658095 0.05817619 0.64300001 12162421
-0.075908571 0.059862856 0.648 12024648
-0.074674278 0.059862856 0.648 12748371
-0.07344 0.059862856 0.648 14389550
-0.072205715 0.059862856 0.648 14652722
-0.071080953 0.059955239 0.64900005 14390047
-0.069844767 0.059955239 0.64900005 14258461
-0.068608582 0.059955239 0.64900005 13932065
-0.067372382 0.059955239 0.64900005 13866272
-0.066136196 0.059955239 0.64900005 13734171
-0.064999998 0.060047623 0.65000004 14063136
-0.063761905 0.060047623 0.65000004 14063145
-0.062523812 0.060047623 0.65000004 14260524
-0.061285719 0.060047623 0.65000004 14392634
-0.060047623 0.060047623 0.65000004 14392634
-0.058809526 0.060047623 0.65000004 14195764
-0.057571433 0.060047623 0.65000004 14129971
-0.056246672 0.059955239 0.64900005 14327614
-0.055010479 0.059955239 0.64900005 14459200
-0.053857144 0.060047623 0.65000004 14195780
-0.052619051 0.060047623 0.65000004 14064194
-0.051380955 0.060047623 0.65000004 14326589
-0.050142858 0.060047623 0.65000004 14523968
-0.048904765 0.060047623 0.65000004 14523709
-0.047666669 0.060047623 0.65000004 14457916
-0.046428576 0.060047623 0.65000004 14261057
-0.045190476 0.060047623 0.65000004 12747818
-0.043952383 0.060047623 0.65000004 12156416
-0.041531429 0.058384765 0.63200003 16763706
-0.04032762 0.058384765 0.63200003 16577276
-0.039247617 0.058569524 0.634 16775935
-0.038040001 0.058569524 0.634 16711422
-0.036890481 0.058661908 0.63500005 16448250
-0.035680957 0.058661908 0.63500005 16448250
-0.03447143 0.058661908 0.63500005 16448250
-0.033314288 0.058754291 0.63600004 16448250
-0.032052383 0.058661908 0.63500005 16448250
-0.030842859 0.058661908 0.63500005 16448250
-0.029633334 0.058661908 0.63500005 16448250
-0.028423812 0.058661908 0.63500005 16448250
-0.027214289 0.058661908 0.63500005 16448250
-0.025963809 0.058569524 0.634 16448250
-0.024756189 0.058569524 0.634 16448250
-0.023548571 0.058569524 0.634 16448250
-0.022340951 0.058569524 0.634 16448250
-0.021133333 0.058569524 0.634 16448250
-0.019925715 0.058569524 0.634 16448250
-0.018718094 0.058569524 0.634 16448250
-0.017510476 0.058569524 0.634 16448250
-0.016302858 0.058569524 0.634 16448250
-0.01504762 0.058384765 0.63200003 16448250
-0.013843809 0.058384765 0.63200003 16711422
-0.01264 0.058384765 0.63200003 16711422
-0.01143619 0.058384765 0.63200003 16443635
-0.010491428 0.059862856 0.648 10851230
-0.0092571434 0.059862856 0.648 13074176
-0.0080228569 0.059862856 0.648 15113739
-0.0067885718 0.059862856 0.648 14523948
-0.0055457144 0.05977048 0.64700001 13931811
-0.0043133334 0.05977048 0.64700001 14128672
-0.0030809524 0.05977048 0.64700001 14260258
-0.0018485714 0.05977048 0.64700001 14259495
-0.00061619049 0.05977048 0.64700001 14193702
0.00061619049 0.05977048 0.64700001 14325540
0.0018485714 0.05977048 0.64700001 14325540
0.0030809524 0.05977048 0.64700001 14325276
0.0043133334 0.05977048 0.64700001 14193690
0.0055457144 0.05977048 0.64700001 14259231
0.0067780954 0.05977048 0.64700001 14259231
0.0079980958 0.059678096 0.64600003 14324763
0.0092285722 0.059678096 0.64600003 14456349
0.010459048 0.059678096 0.64600003 14390567
0.011689524 0.059678096 0.64600003 14193188
0.012880001 0.059493337 0.64400005 14259231
0.014106668 0.059493337 0.64400005 14522403
0.015333335 0.059493337 0.64400005 14456853
0.016559999 0.059493337 0.64400005 14391060
0.017786669 0.059493337 0.64400005 14389275
0.019013334 0.059493337 0.64400005 14849826
0.020177143 0.059308574 0.64200002 13407002
0.021400001 0.059308574 0.64200002 13209623
0.022658095 0.059400953 0.64300001 12425591
-0.075908571 0.061097141 0.648 12091213
-0.074674278 0.061097141 0.648 12814936
-0.07344 0.061097141 0.648 14192655
-0.072205715 0.061097141 0.648 14390034
-0.070971422 0.061097141 0.648 14324504
-0.06962952 0.061002858 0.64700001 14192918
-0.068397142 0.061002858 0.64700001 14259231
-0.067164764 0.061002858 0.64700001 14390817
-0.066034287 0.061097141 0.648 14193184
-0.064900003 0.061191436 0.64900005 14390563
-0.063663818 0.061191436 0.64900005 14259495
-0.062427621 0.061191436 0.64900005 14259495
-0.061191436 0.061191436 0.64900005 14457896
-0.059955239 0.061191436 0.64900005 14523689
-0.058719054 0.061191436 0.64900005 14326319
-0.057482861 0.061191436 0.64900005 14260526
-0.056246672 0.061191436 0.64900005 14588469
-0.055010479 0.061191436 0.64900005 14917434
-0.05377429 0.061191436 0.64900005 14457396
-0.052538101 0.061191436 0.64900005 13799466
-0.051301908 0.061191436 0.64900005 14061843
-0.050065719 0.061191436 0.64900005 14193429
-0.048829526 0.061191436 0.64900005 13864214
-0.047593337 0.061191436 0.64900005 13601042
-0.046357144 0.061191436 0.64900005 13534738
-0.045120955 0.061191436 0.64900005 12153088
-0.043884765 0.061191436 0.64900005 10971648
-0.041531429 0.059588574 0.63200003 16761414
-0.04032762 0.059588574 0.63200003 16577533
-0.039247617 0.059777141 0.634 16775935
-0.038040001 0.059777141 0.634 16711422
-0.036832381 0.059777141 0.634 16448250
-0.035624765 0.059777141 0.634 16448250
-0.034417141 0.059777141 0.634 16448250
-0.033209521 0.059777141 0.634 16448250
-0.032001905 0.059777141 0.634 16448250
-0.030794285 0.059777141 0.634 16448250
-0.029586667 0.059777141 0.634 16448250
-0.028289525 0.059588574 0.63200003 16448250
-0.027085714 0.059588574 0.63200003 16448250
-0.025881905 0.059588574 0.63200003 16448250
-0.024678096 0.059588574 0.63200003 16448250
-0.023474285 0.059588574 0.63200003 16448250
-0.022270476 0.059588574 0.63200003 16448250
-0.021066668 0.059588574 0.63200003 16448250
-0.019862859 0.059588574 0.63200003 16448250
-0.018659048 0.059588574 0.63200003 16448250
-0.017455239 0.059588574 0.63200003 16448250
-0.01625143 0.059588574 0.63200003 16448250
-0.015023811 0.059494291 0.63100004 16514043
-0.013821905 0.059494291 0.63100004 16711422
-0.01264 0.059588574 0.63200003 16711422
-0.01143619 0.059588574 0.63200003 16378094
-0.010475239 0.061002858 0.64700001 11048861
-0.0092428569 0.061002858 0.64700001 13534464
-0.0080104759 0.061002858 0.64700001 15047696
-0.0067780954 0.061002858 0.64700001 14720034
-0.005537143 0.060908575 0.64600003 14654241
-0.004306667 0.060908575 0.64600003 14653478
-0.0030761904 0.060908575 0.64600003 15114029
-0.0018485714 0.061002858 0.64700001 14522669
-0.00061619049 0.061002858 0.64700001 14325290
0.00061619049 0.061002858 0.64700001 14390563
0.0018485714 0.061002858 0.64700001 14324770
0.0030809524 0.061002858 0.64700001 14390799
0.0043133334 0.061002858 0.64700001 14325006
0.005537143 0.060908575 0.64600003 14389786
0.0067676194 0.060908575 0.64600003 14389786
0.0079733338 0.060720004 0.64400005 14455568
0.0092000002 0.060720004 0.64400005 15113498
0.010426668 0.060720004 0.64400005 14521129
0.011635238 0.060625713 0.64300001 14192164
0.01286 0.060625713 0.64300001 14325004
0.014084762 0.060625713 0.64300001 14325004
0.015309525 0.060625713 0.64300001 14390799
0.016534286 0.060625713 0.64300001 14522385
0.017759047 0.060625713 0.64300001 14455568
0.018983809 0.060625713 0.64300001 14587154
0.020177143 0.06053143 0.64200002 13341209
0.021400001 0.06053143 0.64200002 13012244
-0.075791426 0.062235236 0.64700001 12025157
-0.074559048 0.062235236 0.64700001 12814673
-0.07332667 0.062235236 0.64700001 13732106
-0.072094291 0.062235236 0.64700001 14521622
-0.070861906 0.062235236 0.64700001 14653467
-0.069521904 0.062139049 0.64600003 14324502
-0.068291426 0.062139049 0.64600003 14323739
-0.067060955 0.062139049 0.64600003 14389532
-0.065830477 0.062139049 0.64600003 14323743
-0.064599998 0.062139049 0.64600003 14652708
-0.063467614 0.062235236 0.64700001 14325038
-0.062235236 0.062235236 0.64700001 14325038
-0.061097141 0.062331427 0.648 14522678
-0.059955239 0.062427621 0.64900005 14391092
-0.058719054 0.062427621 0.64900005 14391335
-0.057482861 0.062427621 0.64900005 14259749
-0.056159999 0.062331427 0.648 14916128
-0.054925714 0.062331427 0.648 14981921
-0.053691428 0.062331427 0.648 14785280
-0.052457143 0.062331427 0.648 14127360
-0.051222857 0.062331427 0.648 13799168
-0.049988572 0.062331427 0.648 13930752
-0.048754286 0.062331427 0.648 13798656
-0.04752 0.062331427 0.648 13535488
-0.046285711 0.062331427 0.648 13403648
-0.045051429 0.062331427 0.648 12877312
-0.04381714 0.062331427 0.648 10970624
-0.041531429 0.060792383 0.63200003 16365632
-0.04032762 0.060792383 0.63200003 16051432
-0.039123811 0.060792383 0.63200003 16776440
-0.037920002 0.060792383 0.63200003 16711422
-0.036716193 0.060792383 0.63200003 16448250
-0.035512384 0.060792383 0.63200003 16448250
-0.034308571 0.060792383 0.63200003 16448250
-0.033104762 0.060792383 0.63200003 16448250
-0.031900954 0.060792383 0.63200003 16514043
-0.030648574 0.060696192 0.63100004 16448250
-0.029446669 0.060696192 0.63100004 16448250
-0.028244764 0.060696192 0.63100004 16448250
-0.027042858 0.060696192 0.63100004 16448250
-0.025840953 0.060696192 0.63100004 16448250
-0.024678096 0.060792383 0.63200003 16448250
-0.023437144 0.060696192 0.63100004 16448250
-0.022235239 0.060696192 0.63100004 16448250
-0.021033334 0.060696192 0.63100004 16448250
-0.01983143 0.060696192 0.63100004 16448250
-0.018629525 0.060696192 0.63100004 16448250
-0.01742762 0.060696192 0.63100004 16448250
-0.01625143 0.060792383 0.63200003 16448250
-0.015023811 0.060696192 0.63100004 16514043
-0.013821905 0.060696192 0.63100004 16711422
-0.01264 0.060792383 0.63200003 16711422
-0.01143619 0.060792383 0.63200003 16378096
-0.010459048 0.062139049 0.64600003 11377828
-0.0092285722 0.062139049 0.64600003 13665792
-0.0079980958 0.062139049 0.64600003 15047439
-0.0067676194 0.062139049 0.64600003 14981151
-0.005537143 0.062139049 0.64600003 15046944
-0.004306667 0.062139049 0.64600003 14849824
-0.0030761904 0.062139049 0.64600003 14849824
-0.0018457143 0.062139049 0.64600003 14719021
-0.0006152381 0.062139049 0.64600003 14390056
0.0006152381 0.062139049 0.64600003 14390047
0.0018457143 0.062139049 0.64600003 14324254
0.0030761904 0.062139049 0.64600003 14324224
0.004306667 0.062139049 0.64600003 14455809
0.0055200006 0.061946671 0.64400005 14389514
0.006746667 0.061946671 0.64400005 14257928
0.0079609528 0.061850477 0.64300001 14716934
0.0091857146 0.061850477 0.64300001 14980106
0.010410476 0.061850477 0.64300001 14651661
0.011617143 0.061754286 0.64200002 14454282
0.01284 0.061754286 0.64200002 14456340
0.014062857 0.061754286 0.64200002 14390547
0.015285715 0.061754286 0.64200002 14061321
0.016534286 0.061850477 0.64300001 14324493
0.017731428 0.061754286 0.64200002 14455579
0.018954286 0.061754286 0.64200002 14521372
0.020145716 0.061658099 0.64100003 13275664
0.021366667 0.061658099 0.64100003 13012492
0.02258762 0.061658099 0.64100003 12096117
-0.075791426 0.063467614 0.64700001 12156491
-0.073982857 0.062977143 0.64200002 13011800
-0.072760001 0.062977143 0.64200002 13863190
-0.071760006 0.063173339 0.64400005 14521120
-0.070533335 0.063173339 0.64400005 14324224
-0.069306672 0.063173339 0.64400005 14324224
-0.068080008 0.063173339 0.64400005 14192398
-0.066853337 0.063173339 0.64400005 14060812
-0.065626673 0.063173339 0.64400005 14126101
-0.064599998 0.063369527 0.64600003 14191894
-0.063369527 0.063369527 0.64600003 13928733
-0.062139049 0.063369527 0.64600003 13599768
-0.060908575 0.063369527 0.64600003 13665291
-0.059678096 0.063369527 0.64600003 13336326
-0.05862857 0.063565716 0.648 13336064
-0.057394285 0.063565716 0.648 13599232
-0.056073334 0.063467614 0.64700001 14059008
-0.054840952 0.063467614 0.64700001 14256384
-0.053608574 0.063467614 0.64700001 14322176
-0.052376192 0.063467614 0.64700001 15703808
-0.05114381 0.063467614 0.64700001 15777280
-0.049911428 0.063467614 0.64700001 16698368
-0.04867905 0.063467614 0.64700001 15979784
-0.04752 0.063565716 0.648 16111370
-0.046214286 0.063467614 0.64700001 16250112
-0.044981908 0.063467614 0.64700001 16776704
-0.042870477 0.06219238 0.634 15855616
-0.041531429 0.061996192 0.63200003 14408192
-0.040263813 0.061898097 0.63100004 15460056
-0.039061908 0.061898097 0.63100004 16776944
-0.037860002 0.061898097 0.63100004 16711422
-0.036716193 0.061996192 0.63200003 16448250
-0.035456195 0.061898097 0.63100004 16448250
-0.034254286 0.061898097 0.63100004 16448250
-0.033052381 0.061898097 0.63100004 16448250
-0.031850476 0.061898097 0.63100004 16448250
-0.0306 0.061800007 0.63000005 16448250
-0.029400002 0.061800007 0.63000005 16448250
-0.028200002 0.061800007 0.63000005 16448250
-0.027000003 0.061800007 0.63000005 16448250
-0.025840953 0.061898097 0.63100004 16448250
-0.02463905 0.061898097 0.63100004 16448250
-0.023400001 0.061800007 0.63000005 16448250
-0.022200001 0.061800007 0.63000005 16448250
-0.021000002 0.061800007 0.63000005 16448250
-0.0198 0.061800007 0.63000005 16448250
-0.018600002 0.061800007 0.63000005 16448250
-0.017400002 0.061800007 0.63000005 16448250
-0.016225714 0.061898097 0.63100004 16448250
-0.015023811 0.061898097 0.63100004 16579836
-0.013821905 0.061898097 0.63100004 16711422
-0.01264 0.061996192 0.63200003 16316664
-0.01143619 0.061996192 0.63200003 16574707
-0.010426668 0.063173339 0.64400005 11903404
-0.0092000002 0.063173339 0.64400005 13665536
-0.0079733338 0.063173339 0.64400005 14981380
-0.006746667 0.063173339 0.64400005 14915358
-0.0055200006 0.063173339 0.64400005 15244323
-0.0042933337 0.063173339 0.64400005 14718490
-0.0030666669 0.063173339 0.64400005 14652697
-0.0018400002 0.063173339 0.64400005 14587415
-0.00061333337 0.063173339 0.64400005 14192657
0.00061333337 0.063173339 0.64400005 14192155
0.0018400002 0.063173339 0.64400005 13928983
0.0030666669 0.063173339 0.64400005 14323968
0.0042933337 0.063173339 0.64400005 14521344
0.0055114287 0.063075244 0.64300001 14323968
0.0067361905 0.063075244 0.64300001 14192384
0.0079485718 0.062977143 0.64200002 14454273
0.0091714282 0.062977143 0.64200002 14454273
0.010394286 0.062977143 0.64200002 14322944
0.011599048 0.062879048 0.64100003 14257152
0.01282 0.062879048 0.64100003 14127360
0.014062857 0.062977143 0.64200002 14456324
0.015285715 0.062977143 0.64200002 14126873
0.016508572 0.062977143 0.64200002 14061080
0.017731428 0.062977143 0.64200002 14257932
0.018954286 0.062977143 0.64200002 14455311
0.020145716 0.062879048 0.64100003 12881160
0.021366667 0.062879048 0.64100003 12946953
0.02258762 0.062879048 0.64100003 12161912
-0.074971437 0.064000003 0.64000005 12221748
-0.073752381 0.064000003 0.64000005 13274436
-0.072760001 0.064200006 0.64200002 13928470
-0.071648575 0.064300001 0.64300001 13796884
-0.070423812 0.064300001 0.64300001 13862400
-0.069199048 0.064300001 0.64300001 13928192
-0.067974284 0.064300001 0.64300001 13994508
-0.066749521 0.064300001 0.64300001 13862922
-0.065626673 0.064400002 0.64400005 13928960
-0.064400002 0.064400002 0.64400005 13665792
-0.063173339 0.064400002 0.64400005 13532928
-0.061946671 0.064400002 0.64400005 13664512
-0.060908575 0.064599998 0.64600003 13532928
-0.059678096 0.064599998 0.64600003 13401344
-0.058447622 0.064599998 0.64600003 13336320
-0.057217143 0.064599998 0.64600003 13928448
-0.055986669 0.064599998 0.64600003 14192384
-0.054756194 0.064599998 0.64600003 15442432
-0.053525716 0.064599998 0.64600003 15841280
-0.052295242 0.064599998 0.64600003 15907072
-0.051064763 0.064599998 0.64600003 16178718
-0.049834289 0.064599998 0.64600003 16771369
-0.04860381 0.064599998 0.64600003 16380750
-0.047373332 0.064599998 0.64600003 16777054
-0.046142858 0.064599998 0.64600003 16580471
-0.044703808 0.064300001 0.64300001 16580471
-0.042735238 0.063199997 0.63200003 16580449
-0.041531429 0.063199997 0.63200003 12897321
-0.040263813 0.063100003 0.63100004 14406311
-0.039061908 0.063100003 0.63100004 16777173
-0.037860002 0.063100003 0.63100004 16711422
-0.036600005 0.063000008 0.63000005 16448250
-0.035400003 0.063000008 0.63000005 16448250
-0.034145713 0.062899999 0.62900001 16514043
-0.032947619 0.062899999 0.62900001 16448250
-0.031749524 0.062899999 0.62900001 16448250
-0.030551426 0.062899999 0.62900001 16448250
-0.029306667 0.062800005 0.62800002 16448250
-0.028110476 0.062800005 0.62800002 16448250
-0.026957143 0.062899999 0.62900001 16448250
-0.025759049 0.062899999 0.62900001 16448250
-0.024560953 0.062899999 0.62900001 16448250
-0.023362856 0.062899999 0.62900001 16448250
-0.022164762 0.062899999 0.62900001 16448250
-0.020966666 0.062899999 0.62900001 16448250
-0.019768571 0.062899999 0.62900001 16448250
-0.018570477 0.062899999 0.62900001 16448250
-0.017372381 0.062899999 0.62900001 16448250
-0.016200002 0.063000008 0.63000005 16448250
-0.015023811 0.063100003 0.63100004 16645629
-0.013821905 0.063100003 0.63100004 16711422
-0.012620001 0.063100003 0.63100004 16250871
-0.011418096 0.063100003 0.63100004 16312301
-0.010378095 0.064099997 0.64100003 10983068
-0.0091714282 0.064200006 0.64200002 13467648
-0.0079485718 0.064200006 0.64200002 14915074
-0.0067361905 0.064300001 0.64300001 14717977
-0.0055114287 0.064300001 0.64300001 14586391
-0.0042866664 0.064300001 0.64300001 14651661
-0.0030619048 0.064300001 0.64300001 14717454
-0.0018371429 0.064300001 0.64300001 14455329
-0.00061238097 0.064300001 0.64300001 14323743
0.00061238097 0.064300001 0.64300001 14126101
0.0018371429 0.064300001 0.64300001 14060308
0.0030619048 0.064300001 0.64300001 14061056
0.00428 0.064200006 0.64200002 14126848
0.0055028573 0.064200006 0.64200002 14191878
0.0067257145 0.064200006 0.64200002 14060292
0.0079485718 0.064200006 0.64200002 14059270
0.0091714282 0.064200006 0.64200002 13993477
0.010378095 0.064099997 0.64100003 14059520
0.011599048 0.064099997 0.64100003 14125312
0.01282 0.064099997 0.64100003 13863681
0.014062857 0.064200006 0.64200002 13929474
0.015285715 0.064200006 0.64200002 14126866
0.016482858 0.064099997 0.64100003 14126866
0.017703811 0.064099997 0.64100003 14192137
0.018924762 0.064099997 0.64100003 14455309
0.020145716 0.064099997 0.64100003 12880384
0.021333335 0.064000003 0.64000005 13143552
0.022552382 0.064000003 0.64000005 12555385
-0.074971437 0.065219052 0.64000005 12155168
-0.073752381 0.065219052 0.64000005 13339442
-0.072533339 0.065219052 0.64000005 13599496
-0.071537144 0.065422855 0.64200002 13270531
-0.070314288 0.065422855 0.64200002 13268992
-0.069091432 0.065422855 0.64200002 13137408
-0.067868568 0.065422855 0.64200002 13071616
-0.066749521 0.065524764 0.64300001 12874240
-0.065422855 0.065422855 0.64200002 13005824
-0.064200006 0.065422855 0.64200002 13729536
-0.063075244 0.065524764 0.64300001 14457600
-0.061850477 0.065524764 0.64300001 16299779
-0.060720004 0.065626673 0.64400005 16046336
-0.059493337 0.065626673 0.64400005 16243712
-0.05826667 0.065626673 0.64400005 16383744
-0.057040006 0.065626673 0.64400005 16514816
-0.055813335 0.065626673 0.64400005 16449298
-0.054586671 0.065626673 0.64400005 16645909
-0.053360004 0.065626673 0.64400005 16514874
-0.052133337 0.065626673 0.64400005 16645948
-0.050906669 0.065626673 0.64400005 16514922
-0.049680006 0.065626673 0.64400005 16514922
-0.048453335 0.065626673 0.64400005 16580469
-0.047226671 0.065626673 0.64400005 16514932
-0.046000004 0.065626673 0.64400005 16580471
-0.044147622 0.064709529 0.63500005 16580471
-0.042735238 0.06440381 0.63200003 16449356
-0.041465715 0.064301908 0.63100004 12304909
-0.040263813 0.064301908 0.63100004 12762293
-0.039061908 0.064301908 0.63100004 16776694
-0.037800003 0.064200006 0.63000005 16711422
-0.036600005 0.064200006 0.63000005 16579836
-0.035343811 0.064098097 0.62900001 16514043
-0.034145713 0.064098097 0.62900001 16448250
-0.032947619 0.064098097 0.62900001 16448250
-0.031749524 0.064098097 0.62900001 16448250
-0.030502856 0.063996188 0.62800002 16448250
-0.029306667 0.063996188 0.62800002 16448250
-0.028110476 0.063996188 0.62800002 16448250
-0.026957143 0.064098097 0.62900001 16448250
-0.025759049 0.064098097 0.62900001 16448250
-0.024560953 0.064098097 0.62900001 16448250
-0.023362856 0.064098097 0.62900001 16448250
-0.022164762 0.064098097 0.62900001 16448250
-0.020933334 0.063996188 0.62800002 16448250
-0.019737143 0.063996188 0.62800002 16448250
-0.018540952 0.063996188 0.62800002 16448250
-0.017344762 0.063996188 0.62800002 16448250
-0.016174285 0.064098097 0.62900001 16448250
-0.01497619 0.064098097 0.62900001 16645629
-0.013800002 0.064200006 0.63000005 16711422
-0.012620001 0.064301908 0.63100004 16250871
-0.011418096 0.064301908 0.63100004 16310756
-0.010329524 0.065015234 0.63800001 10718351
-0.0091571435 0.065320954 0.64100003 13336064
-0.0079485718 0.065422855 0.64200002 14849283
-0.0067257145 0.065422855 0.64200002 14453792
-0.0055028573 0.065422855 0.64200002 14059034
-0.00428 0.065422855 0.64200002 14190336
-0.0030619048 0.065524764 0.64300001 14387712
-0.0018342858 0.065422855 0.64200002 14125835
-0.00061142858 0.065422855 0.64200002 13994249
0.00061142858 0.065422855 0.64200002 13730307
0.0018342858 0.065422855 0.64200002 13664514
0.003057143 0.065422855 0.64200002 13796352
0.0042733336 0.065320954 0.64100003 13796352
0.0054942858 0.065320954 0.64100003 13730560
0.0067152386 0.065320954 0.64100003 13730560
0.0079361908 0.065320954 0.64100003 13467648
0.0091571435 0.065320954 0.64100003 13336064
0.010378095 0.065320954 0.64100003 13532928
0.011580953 0.065219052 0.64000005 13467136
0.012800001 0.065219052 0.64000005 13336320
0.014019049 0.065219052 0.64000005 13467904
0.015238097 0.065219052 0.64000005 13534208
0.016457144 0.065219052 0.64000005 13731584
0.017620953 0.065015234 0.63800001 13863168
0.018836191 0.065015234 0.63800001 14521088
0.020114286 0.065219052 0.64000005 12814091
0.021266667 0.065015234 0.63800001 12814091
0.022446666 0.06491334 0.63700002 12424564
0.02366 0.06491334 0.63700002 12753529
-0.075833336 0.066126674 0.63700002 10778974
-0.074620001 0.066126674 0.63700002 12022016
-0.073521905 0.066230476 0.63800001 13008896
-0.072533339 0.066438094 0.64000005 13138944
-0.07131429 0.066438094 0.64000005 13007360
-0.070204765 0.06654191 0.64100003 13005824
-0.068983816 0.06654191 0.64100003 13071616
-0.067762859 0.06654191 0.64100003 12744704
-0.066645719 0.066645719 0.64200002 13600000
-0.065320954 0.06654191 0.64100003 14129152
-0.064099997 0.06654191 0.64100003 14523904
-0.062879048 0.06654191 0.64100003 15977472
-0.061658099 0.06654191 0.64100003 16174848
-0.060437147 0.06654191 0.64100003 16247296
-0.059400953 0.066749521 0.64300001 16776972
-0.05817619 0.066749521 0.64300001 16514922
-0.056951426 0.066749521 0.64300001 16383848
-0.055726666 0.066749521 0.64300001 16514895
-0.054501906 0.066749521 0.64300001 16514895
-0.053277142 0.066749521 0.64300001 16514889
-0.052052379 0.066749521 0.64300001 16580426
-0.050827619 0.066749521 0.64300001 16514901
-0.049602855 0.066749521 0.64300001 16645975
-0.048378095 0.066749521 0.64300001 16514930
-0.047080003 0.066645719 0.64200002 16449393
-0.045785714 0.06654191 0.64100003 16514924
-0.044147622 0.065919049 0.63500005 16711535
-0.042735238 0.065607622 0.63200003 16580477
-0.041465715 0.065503813 0.63100004 12567104
-0.040200002 0.065400004 0.63000005 13155215
-0.039000005 0.065400004 0.63000005 16776400
-0.037800003 0.065400004 0.63000005 16711674
-0.036541905 0.065296195 0.62900001 16711674
-0.035343811 0.065296195 0.62900001 16579836
-0.034091428 0.065192387 0.62800002 16448250
-0.032895237 0.065192387 0.62800002 16448250
-0.031699046 0.065192387 0.62800002 16448250
-0.030502856 0.065192387 0.62800002 16448250
-0.029306667 0.065192387 0.62800002 16448250
-0.028110476 0.065192387 0.62800002 16448250
-0.026957143 0.065296195 0.62900001 16448250
-0.025759049 0.065296195 0.62900001 16448250
-0.024521906 0.065192387 0.62800002 16448250
-0.023325715 0.065192387 0.62800002 16448250
-0.022129524 0.065192387 0.62800002 16448250
-0.020933334 0.065192387 0.62800002 16448250
-0.019737143 0.065192387 0.62800002 16448250
-0.018540952 0.065192387 0.62800002 16448250
-0.017344762 0.065192387 0.62800002 16448250
-0.016174285 0.065296195 0.62900001 16448250
-0.01497619 0.065296195 0.62900001 16711422
-0.013800002 0.065400004 0.63000005 16711422
-0.012620001 0.065503813 0.63100004 15592941
-0.011418096 0.065503813 0.63100004 15980240
-0.010313334 0.066126674 0.63700002 11045765
-0.009114285 0.066230476 0.63800001 13533952
-0.0079238098 0.066438094 0.64000005 14652416
-0.0067047621 0.066438094 0.64000005 14453526
-0.0054942858 0.06654191 0.64100003 14321940
-0.0042733336 0.06654191 0.64100003 13992960
-0.0030523811 0.06654191 0.64100003 14256131
-0.0018314286 0.06654191 0.64100003 14125099
-0.00060952385 0.066438094 0.64000005 13730341
0.00060952385 0.066438094 0.64000005 13335552
0.0018285714 0.066438094 0.64000005 13532928
0.0030476192 0.066438094 0.64000005 13533440
0.0042533334 0.066230476 0.63800001 13730816
0.0054685716 0.066230476 0.63800001 13533194
0.0066838097 0.066230476 0.63800001 13335815
0.0079238098 0.066438094 0.64000005 13401610
0.009142857 0.066438094 0.64000005 13993747
0.010361905 0.066438094 0.64000005 13863197
0.011544761 0.066230476 0.63800001 13797404
0.01276 0.066230476 0.63800001 13664828
0.013975237 0.066230476 0.63800001 13730621
0.015190477 0.066230476 0.63800001 13862982
0.016405715 0.066230476 0.63800001 14126154
0.017620953 0.066230476 0.63800001 14323301
0.018806668 0.066126674 0.63700002 14323301
0.020019999 0.066126674 0.63700002 12748552
0.021233333 0.066126674 0.63700002 13143310
0.02241143 0.066022858 0.63600004 12555635
0.023585714 0.065919049 0.63500005 12753014
0.02479524 0.065919049 0.63500005 12425080
-0.07571429 0.067234285 0.63600004 10187609
-0.074502863 0.067234285 0.63600004 11363584
-0.073521905 0.067445718 0.63800001 12284672
-0.07230667 0.067445718 0.63800001 13600512
-0.071091428 0.067445718 0.63800001 15771659
-0.070095241 0.06765715 0.64000005 15980032
-0.068876199 0.06765715 0.64000005 16374784
-0.067762859 0.067762859 0.64100003 16383755
-0.06654191 0.067762859 0.64100003 16580366
-0.065320954 0.067762859 0.64100003 16383779
-0.064099997 0.067762859 0.64100003 16580390
-0.062780954 0.06765715 0.64000005 16514906
-0.061561912 0.06765715 0.64000005 16514906
-0.060342859 0.06765715 0.64000005 16514897
-0.059123814 0.06765715 0.64000005 16580434
-0.057904765 0.06765715 0.64000005 16449383
-0.056685716 0.06765715 0.64000005 16449383
-0.055553336 0.067762859 0.64100003 16580451
-0.054332383 0.067762859 0.64100003 16514914
-0.05311143 0.067762859 0.64100003 16514901
-0.051890481 0.067762859 0.64100003 16449364
-0.050669525 0.067762859 0.64100003 16449344
-0.049448572 0.067762859 0.64100003 16711492
-0.048227623 0.067762859 0.64100003 16449335
-0.047006667 0.067762859 0.64100003 14213909
-0.045714289 0.06765715 0.64000005 15464529
-0.044217143 0.067234285 0.63600004 16645987
-0.042870477 0.06702286 0.634 16514937
-0.041465715 0.066705719 0.63100004 12568381
-0.040200002 0.06660001 0.63000005 12762293
-0.039000005 0.06660001 0.63000005 15130841
-0.037800003 0.06660001 0.63000005 16579034
-0.036541905 0.066494286 0.62900001 16777186
-0.035287622 0.06638857 0.62800002 16711422
-0.034037143 0.066282853 0.62700003 16514043
-0.032842856 0.066282853 0.62700003 16448250
-0.031648573 0.066282853 0.62700003 16448250
-0.030454287 0.066282853 0.62700003 16448250
-0.02926 0.066282853 0.62700003 16448250
-0.028065715 0.066282853 0.62700003 16448250
-0.026914285 0.06638857 0.62800002 16448250
-0.025718097 0.06638857 0.62800002 16448250
-0.024521906 0.06638857 0.62800002 16448250
-0.023325715 0.06638857 0.62800002 16448250
-0.022094287 0.066282853 0.62700003 16448250
-0.020900002 0.066282853 0.62700003 16448250
-0.019705717 0.066282853 0.62700003 16448250
-0.018511429 0.066282853 0.62700003 16448250
-0.017344762 0.06638857 0.62800002 16448250
-0.016148573 0.06638857 0.62800002 16514043
-0.01497619 0.066494286 0.62900001 16711422
-0.013800002 0.06660001 0.63000005 16711422
-0.012620001 0.066705719 0.63100004 14277081
-0.011490476 0.067128576 0.63500005 15713401
-0.010297143 0.067234285 0.63600004 12226372
-0.0091000004 0.067340001 0.63700002 13862409
-0.0078990478 0.067445718 0.63800001 14322960
-0.0067047621 0.06765715 0.64000005 14979363
-0.0054857144 0.06765715 0.64000005 16757059
-0.0042666672 0.06765715 0.64000005 15839602
-0.0030476192 0.06765715 0.64000005 15773809
-0.0018228572 0.067445718 0.63800001 15905413
-0.00060666667 0.067340001 0.63700002 15642241
0.00060666667 0.067340001 0.63700002 15639125
0.00182 0.067340001 0.63700002 16428641
0.0030333335 0.067340001 0.63700002 15971699
0.0042466666 0.067340001 0.63700002 16037492
0.0054600001 0.067340001 0.63700002 15775342
0.0066733337 0.067340001 0.63700002 14459482
0.0078866668 0.067340001 0.63700002 15246193
0.0091000004 0.067340001 0.63700002 16761488
0.010313334 0.067340001 0.63700002 16108649
0.011526668 0.067340001 0.63700002 16437614
0.012740001 0.067340001 0.63700002 16105129
0.013953334 0.067340001 0.63700002 15841957
0.015166666 0.067340001 0.63700002 16105650
0.016380001 0.067340001 0.63700002 16631994
0.017565714 0.067234285 0.63600004 16107430
0.01874762 0.067128576 0.63500005 13607296
0.019957144 0.067128576 0.63500005 12682240
0.021166669 0.067128576 0.63500005 13340160
0.02241143 0.067234285 0.63600004 12489585
0.023585714 0.067128576 0.63500005 12884343
0.02479524 0.067128576 0.63500005 12426359
-0.07704667 0.068553336 0.63700002 11701100
-0.07571429 0.06844572 0.63600004 9793103
-0.074502863 0.06844572 0.63600004 11299328
-0.073291428 0.06844572 0.63600004 14325788
-0.072080001 0.06844572 0.63600004 15842304
-0.070979998 0.068553336 0.63700002 15842304
-0.069876194 0.068660952 0.63800001 16047616
-0.068660952 0.068660952 0.63800001 16774912
-0.067445718 0.068660952 0.63800001 16580440
-0.066230476 0.068660952 0.63800001 16449366
-0.065015234 0.068660952 0.63800001 16449342
-0.0638 0.068660952 0.63800001 16580416
-0.062584765 0.068660952 0.63800001 16580438
-0.061369527 0.068660952 0.63800001 16449364
-0.060154289 0.068660952 0.63800001 16514887
-0.058939047 0.068660952 0.63800001 16645961
-0.057904765 0.068876199 0.64000005 16514924
-0.056685716 0.068876199 0.64000005 16514924
-0.055466671 0.068876199 0.64000005 16514930
-0.054247621 0.068876199 0.64000005 16711541
-0.053028576 0.068876199 0.64000005 16646061
-0.051809527 0.068876199 0.64000005 15988643
-0.050590478 0.068876199 0.64000005 16314959
-0.049217142 0.068660952 0.63800001 16776024
-0.048001904 0.068660952 0.63800001 15595352
-0.046786666 0.068660952 0.63800001 12503081
-0.045571432 0.068660952 0.63800001 13231872
-0.044217143 0.06844572 0.63600004 16449307
-0.042938098 0.068338096 0.63500005 16514946
-0.041531429 0.06801524 0.63200003 12699976
-0.040263813 0.067907616 0.63100004 13154475
-0.039061908 0.067907616 0.63100004 14930886
-0.037800003 0.0678 0.63000005 15459529
-0.036541905 0.067692384 0.62900001 16776417
-0.035287622 0.067584768 0.62800002 16711420
-0.034037143 0.067477144 0.62700003 16579834
-0.032842856 0.067477144 0.62700003 16579834
-0.031648573 0.067477144 0.62700003 16514041
-0.030454287 0.067477144 0.62700003 16448250
-0.02926 0.067477144 0.62700003 16448250
-0.028065715 0.067477144 0.62700003 16448250
-0.026914285 0.067584768 0.62800002 16448250
-0.025718097 0.067584768 0.62800002 16448250
-0.024521906 0.067584768 0.62800002 16448250
-0.023325715 0.067584768 0.62800002 16448250
-0.022094287 0.067477144 0.62700003 16448250
-0.020900002 0.067477144 0.62700003 16448250
-0.019705717 0.067477144 0.62700003 16448250
-0.018511429 0.067477144 0.62700003 16448250
-0.017344762 0.067584768 0.62800002 16514043
-0.016148573 0.067584768 0.62800002 16645629
-0.01497619 0.067692384 0.62900001 16711422
-0.013821905 0.067907616 0.63100004 16645629
-0.01264 0.06801524 0.63200003 11513775
-0.011490476 0.068338096 0.63500005 13931330
-0.010297143 0.06844572 0.63600004 13799744
-0.0090857148 0.06844572 0.63600004 14321690
-0.0078866668 0.068553336 0.63700002 14255897
-0.0066838097 0.068660952 0.63800001 15307826
-0.0054685716 0.068660952 0.63800001 16758356
-0.0042466666 0.068553336 0.63700002 16172948
-0.0030333335 0.068553336 0.63700002 16172948
-0.00182 0.068553336 0.63700002 16172955
-0.00060571433 0.06844572 0.63600004 14988681
0.00060571433 0.06844572 0.63600004 15506498
0.0018171429 0.06844572 0.63600004 16756822
0.0030285716 0.06844572 0.63600004 16107144
0.0042400002 0.06844572 0.63600004 16041351
0.0054514292 0.06844572 0.63600004 15909515
0.0066628573 0.06844572 0.63600004 13606760
0.0078742858 0.06844572 0.63600004 14917706
0.0090857148 0.06844572 0.63600004 15575636
0.010297143 0.06844572 0.63600004 15770965
0.011508572 0.06844572 0.63600004 16759916
0.012720001 0.06844572 0.63600004 16105874
0.01393143 0.06844572 0.63600004 15776909
0.015166666 0.068553336 0.63700002 16040340
0.016380001 0.068553336 0.63700002 16303512
0.017538097 0.068338096 0.63500005 16106149
0.018718094 0.068230473 0.634 13342843
0.019925715 0.068230473 0.634 12813568
0.021166669 0.068338096 0.63500005 13471494
0.02241143 0.06844572 0.63600004 12357999
0.023585714 0.068338096 0.63500005 12884343
0.02479524 0.068338096 0.63500005 12426872
-0.076925717 0.069657147 0.63600004 11569766
-0.07571429 0.069657147 0.63600004 14662037
-0.074502863 0.069657147 0.63600004 16383744
-0.073176198 0.069547623 0.63500005 16776960
-0.07196667 0.069547623 0.63500005 16449329
-0.070868574 0.069657147 0.63600004 16580403
-0.06976667 0.06976667 0.63700002 16514906
-0.068553336 0.06976667 0.63700002 16383832
-0.067340001 0.06976667 0.63700002 16383789
-0.066126674 0.06976667 0.63700002 15594529
-0.06491334 0.06976667 0.63700002 16449281
-0.063699998 0.06976667 0.63700002 16776967
-0.062584765 0.069876194 0.63800001 16514899
-0.061273336 0.06976667 0.63700002 16514899
-0.060060002 0.06976667 0.63700002 16449342
-0.058846667 0.06976667 0.63700002 16645953
-0.057723809 0.069876194 0.63800001 16449333
-0.056508571 0.069876194 0.63800001 14674458
-0.055293337 0.069876194 0.63800001 15002410
-0.054078095 0.069876194 0.63800001 16383807
-0.052862857 0.069876194 0.63800001 15202120
-0.051647618 0.069876194 0.63800001 6517504
-0.050432384 0.069876194 0.63800001 10452407
-0.049217142 0.069876194 0.63800001 16636927
-0.048001904 0.069876194 0.63800001 15198520
-0.046786666 0.069876194 0.63800001 12501007
-0.045428574 0.069657147 0.63600004 15333972
-0.044217143 0.069657147 0.63600004 16383844
-0.043005716 0.069657147 0.63600004 16514926
-0.041662857 0.0694381 0.634 15331676
-0.04032762 0.069219045 0.63200003 13486786
-0.039061908 0.069109522 0.63100004 13092028
-0.037800003 0.069000006 0.63000005 14603968
-0.036600005 0.069000006 0.63000005 16183000
-0.035287622 0.068780951 0.62800002 16447732
-0.034091428 0.068780951 0.62800002 16579318
-0.032842856 0.068671428 0.62700003 16579834
-0.031648573 0.068671428 0.62700003 16514041
-0.030357143 0.068452381 0.625 16514043
-0.029166667 0.068452381 0.625 16448250
-0.027976191 0.068452381 0.625 16448250
-0.02687143 0.068671428 0.62700003 16448250
