# .PCD v0.7 - Point Cloud Data file format
VERSION 0.7
FIELDS x y z rgb
SIZE 4 4 4 4
TYPE F F F F
COUNT 1 1 1 1
WIDTH 1004
HEIGHT 1
VIEWPOINT 0 0 0 1 0 0 0
POINTS 1004
DATA ascii
-0.065013342 -0.19013335 1.2880001 1.4748041e-38
-0.06256 -0.19013335 1.2880001 1.4656209e-38
-0.060293335 -0.19072382 1.2920001 1.4748404e-38
-0.057832383 -0.19072382 1.2920001 1.4748757e-38
-0.05537143 -0.19072382 1.2920001 1.4748757e-38
-0.052910481 -0.19072382 1.2920001 1.4748414e-38
-0.050449528 -0.19072382 1.2920001 1.484061e-38
-0.048174284 -0.19146191 1.2970001 1.4933156e-38
-0.04570381 -0.19146191 1.2970001 1.484096e-38
-0.043066666 -0.19072382 1.2920001 1.4748417e-38
-0.040605716 -0.19072382 1.2920001 1.4656221e-38
-0.038026668 -0.19013335 1.2880001 1.4564013e-38
-0.035573337 -0.19013335 1.2880001 1.4564013e-38
-0.033119999 -0.19013335 1.2880001 1.4471099e-38
-0.030547623 -0.18939525 1.2830001 1.4102316e-38
-0.028103812 -0.18939525 1.2830001 1.4102316e-38
-0.025760002 -0.19013335 1.2880001 1.3917925e-38
-0.023306668 -0.19013335 1.2880001 1.3364391e-38
-0.020772383 -0.18939525 1.2830001 1.3364391e-38
-0.018257145 -0.18865715 1.2780001 1.3087428e-38
-0.015760953 -0.18791905 1.273 1.3087428e-38
-0.013336191 -0.18791905 1.273 1.2993823e-38
-0.010911428 -0.18791905 1.273 1.179528e-38
-0.0084866667 -0.18791905 1.273 9.4964652e-39
-0.090928569 -0.18549427 1.273 8.5738026e-39
-0.088156193 -0.18476571 1.268 1.2169432e-38
-0.085740954 -0.18476571 1.268 1.3363306e-38
-0.083325714 -0.18476571 1.268 1.3824284e-38
-0.081229523 -0.18549427 1.273 1.3548407e-38
-0.079114296 -0.18622287 1.2780001 1.3732798e-38
-0.076680005 -0.18622287 1.2780001 1.373281e-38
-0.074245721 -0.18622287 1.2780001 1.3825006e-38
-0.072092384 -0.18695144 1.2830001 1.373282e-38
-0.069648571 -0.18695144 1.2830001 1.4193798e-38
-0.067466669 -0.18768001 1.2880001 1.4102322e-38
-0.065013342 -0.18768001 1.2880001 1.4286713e-38
-0.06256 -0.18768001 1.2880001 1.4378909e-38
-0.060293335 -0.18826286 1.2920001 1.4471104e-38
-0.057832383 -0.18826286 1.2920001 1.4378893e-38
-0.05537143 -0.18826286 1.2920001 1.465548e-38
-0.052910481 -0.18826286 1.2920001 1.4655142e-38
-0.050449528 -0.18826286 1.2920001 1.4470751e-38
-0.048174284 -0.18899144 1.2970001 1.45633e-38
-0.04570381 -0.18899144 1.2970001 1.4655495e-38
-0.043066666 -0.18826286 1.2920001 1.456331e-38
-0.040605716 -0.18826286 1.2920001 1.4378918e-38
-0.038144764 -0.18826286 1.2920001 1.4286707e-38
-0.035683811 -0.18826286 1.2920001 1.4286707e-38
-0.033119999 -0.18768001 1.2880001 1.4194865e-38
-0.030547623 -0.18695144 1.2830001 1.4102669e-38
-0.028103812 -0.18695144 1.2830001 1.4102322e-38
-0.025760002 -0.18768001 1.2880001 1.4010126e-38
-0.023306668 -0.18768001 1.2880001 1.42867e-38
-0.020772383 -0.18695144 1.2830001 1.4655483e-38
-0.018257145 -0.18622287 1.2780001 1.4655477e-38
-0.015302857 -0.18010285 1.2360001 1.4747673e-38
-0.012854287 -0.17879145 1.2270001 1.3732467e-38
-0.010517144 -0.17879145 1.2270001 1.1150989e-38
-0.0081800008 -0.17879145 1.2270001 9.4971938e-39
-0.0058857147 -0.18010285 1.2360001 1.8347974e-38
-0.088156193 -0.18235047 1.268 1.1526239e-38
-0.085740954 -0.18235047 1.268 1.3638817e-38
-0.083325714 -0.18235047 1.268 1.4191991e-38
-0.081229523 -0.18306953 1.273 1.3825354e-38
-0.079114296 -0.18378858 1.2780001 1.410194e-38
-0.076680005 -0.18378858 1.2780001 1.3825729e-38
-0.074245721 -0.18378858 1.2780001 1.401012e-38
-0.072092384 -0.18450764 1.2830001 1.4194517e-38
-0.069920003 -0.18522668 1.2880001 1.4286713e-38
-0.067466669 -0.18522668 1.2880001 1.4287063e-38
-0.065013342 -0.18522668 1.2880001 1.4471454e-38
-0.06256 -0.18522668 1.2880001 1.4563294e-38
-0.060293335 -0.18580191 1.2920001 1.4563294e-38
-0.057832383 -0.18580191 1.2920001 1.4563284e-38
-0.05537143 -0.18580191 1.2920001 1.4747676e-38
-0.052910481 -0.18580191 1.2920001 1.456365e-38
-0.047091432 -0.1734343 1.2060001 1.4471454e-38
-0.044794288 -0.1734343 1.2060001 1.465513e-38
-0.04570381 -0.18652095 1.2970001 1.4747325e-38
-0.043233335 -0.18652095 1.2970001 1.4655127e-38
-0.040605716 -0.18580191 1.2920001 1.4562931e-38
-0.038144764 -0.18580191 1.2920001 1.4470736e-38
-0.035683811 -0.18580191 1.2920001 1.4655127e-38
-0.033119999 -0.18522668 1.2880001 1.4562934e-38
-0.03066667 -0.18522668 1.2880001 1.4378543e-38
-0.028213335 -0.18522668 1.2880001 1.4286713e-38
-0.025760002 -0.18522668 1.2880001 1.4471104e-38
-0.023306668 -0.18522668 1.2880001 1.465513e-38
-0.020772383 -0.18450764 1.2830001 1.4747325e-38
-0.018328572 -0.18450764 1.2830001 1.5024263e-38
-0.015253334 -0.17717335 1.2320001 1.4839871e-38
-0.012854287 -0.17645431 1.2270001 1.3457312e-38
-0.010517144 -0.17645431 1.2270001 9.4007046e-39
-0.0081800008 -0.17645431 1.2270001 8.3865247e-39
-0.0058666673 -0.17717335 1.2320001 1.862024e-38
-0.088285714 -0.17539428 1.2360001 6.3643823e-39
-0.085931435 -0.17539428 1.2360001 7.3785343e-39
-0.08330667 -0.17482668 1.2320001 9.3103489e-39
-0.080960013 -0.17482668 1.2320001 1.0232305e-38
-0.078613341 -0.17482668 1.2320001 1.1520851e-38
-0.076266676 -0.17482668 1.2320001 1.4471111e-38
-0.073920004 -0.17482668 1.2320001 1.4563294e-38
-0.071282864 -0.17411715 1.2270001 1.4471099e-38
-0.068720959 -0.17354953 1.223 1.4563307e-38
-0.065902859 -0.1722724 1.2140001 1.5485263e-38
-0.063590482 -0.1722724 1.2140001 1.5117534e-38
-0.065013342 -0.18277335 1.2880001 1.5301926e-38
-0.06256 -0.18277335 1.2880001 1.5394124e-38
-0.056466665 -0.17170477 1.21 1.5947298e-38
-0.053982858 -0.17113715 1.2060001 1.6315364e-38
-0.051685717 -0.17113715 1.2060001 1.6130973e-38
-0.049388576 -0.17113715 1.2060001 1.6038777e-38
-0.047091432 -0.17113715 1.2060001 1.6223169e-38
-0.044794288 -0.17113715 1.2060001 1.6407563e-38
-0.042638097 -0.17170477 1.21 1.6407563e-38
-0.040333334 -0.17170477 1.21 1.5856184e-38
-0.038028572 -0.17170477 1.21 1.594838e-38
-0.038144764 -0.18334097 1.2920001 1.5855831e-38
-0.035683811 -0.18334097 1.2920001 1.6040222e-38
-0.033222858 -0.18334097 1.2920001 1.6132402e-38
-0.03066667 -0.18277335 1.2880001 1.5026055e-38
-0.028213335 -0.18277335 1.2880001 1.5209736e-38
-0.025760002 -0.18277335 1.2880001 1.5762909e-38
-0.023306668 -0.18277335 1.2880001 1.373607e-38
-0.019800952 -0.17354953 1.223 1.0048245e-38
-0.017471429 -0.17354953 1.223 1.0879778e-38
-0.015191429 -0.17411715 1.2270001 1.2078321e-38
-0.012854287 -0.17411715 1.2270001 1.2076837e-38
-0.010517144 -0.17411715 1.2270001 8.4812076e-39
-0.0081800008 -0.17411715 1.2270001 7.1937773e-39
-0.0058666673 -0.17482668 1.2320001 1.6597732e-38
-0.088285714 -0.17304002 1.2360001 5.9948992e-39
-0.085931435 -0.17304002 1.2360001 6.2714861e-39
-0.08330667 -0.17248002 1.2320001 7.1065548e-39
-0.080960013 -0.17248002 1.2320001 8.4894893e-39
-0.078613341 -0.17248002 1.2320001 1.0326964e-38
-0.076266676 -0.17248002 1.2320001 1.3646007e-38
-0.073620006 -0.17178002 1.2270001 1.4103751e-38
-0.07105048 -0.17122 1.223 1.4195947e-38
-0.068496197 -0.17066 1.2190001 1.4105909e-38
-0.065902859 -0.16996002 1.2140001 1.4198105e-38
-0.063590482 -0.16996002 1.2140001 1.3644215e-38
-0.061278097 -0.16996002 1.2140001 1.3275432e-38
-0.05896572 -0.16996002 1.2140001 1.3645281e-38
-0.056466665 -0.16940001 1.21 1.5673585e-38
-0.053982858 -0.16884001 1.2060001 1.6225352e-38
-0.051685717 -0.16884001 1.2060001 1.5672178e-38
-0.049388576 -0.16884001 1.2060001 1.6223506e-38
-0.047091432 -0.16884001 1.2060001 1.6868876e-38
-0.044794288 -0.16884001 1.2060001 1.7054021e-38
-0.042638097 -0.16940001 1.21 1.6408652e-38
-0.040333334 -0.16940001 1.21 1.5029304e-38
-0.038028572 -0.16940001 1.21 1.4660522e-38
-0.035723813 -0.16940001 1.21 1.4751291e-38
-0.033419047 -0.16940001 1.21 1.5857639e-38
-0.031114288 -0.16940001 1.21 1.6041674e-38
-0.028809523 -0.16940001 1.21 1.3828979e-38
-0.026592383 -0.16996002 1.2140001 1.4011893e-38
-0.024380002 -0.17066 1.2190001 1.5026045e-38
-0.022058096 -0.17066 1.2190001 1.2083025e-38
-0.019736191 -0.17066 1.2190001 8.5795914e-39
-0.017471429 -0.17122 1.223 8.4863238e-39
-0.015191429 -0.17178002 1.2270001 1.0053649e-38
-0.012854287 -0.17178002 1.2270001 1.0603541e-38
-0.010517144 -0.17178002 1.2270001 7.7454769e-39
-0.0081800008 -0.17178002 1.2270001 6.7353257e-39
-0.0058857147 -0.17304002 1.2360001 1.6600258e-38
-0.088285714 -0.17068571 1.2360001 6.6406735e-39
-0.085931435 -0.17068571 1.2360001 1.4777183e-39
-0.08330667 -0.17013335 1.2320001 4.1570752e-39
-0.080960013 -0.17013335 1.2320001 1.0334182e-38
-0.078294292 -0.16944288 1.2270001 1.2447098e-38
-0.075957149 -0.16944288 1.2270001 1.2539294e-38
-0.073620006 -0.16944288 1.2270001 1.1711334e-38
-0.07105048 -0.16889048 1.223 1.115816e-38
-0.068496197 -0.16833812 1.2190001 1.2446751e-38
-0.065902859 -0.16764763 1.2140001 1.4290663e-38
-0.063590482 -0.16764763 1.2140001 1.391971e-38
-0.061278097 -0.16764763 1.2140001 1.0600667e-38
-0.05896572 -0.16764763 1.2140001 1.2997025e-38
-0.056466665 -0.16709524 1.21 1.6869241e-38
-0.053982858 -0.16654286 1.2060001 1.5950194e-38
-0.051685717 -0.16654286 1.2060001 1.2354565e-38
-0.049388576 -0.16654286 1.2060001 1.1252495e-38
-0.047091432 -0.16654286 1.2060001 1.2912017e-38
-0.04494286 -0.16709524 1.21 1.5303396e-38
-0.042638097 -0.16709524 1.21 1.6501939e-38
-0.040333334 -0.16709524 1.21 1.5396998e-38
-0.038028572 -0.16709524 1.21 1.3553085e-38
-0.035723813 -0.16709524 1.21 1.4935316e-38
-0.033419047 -0.16709524 1.21 1.6226055e-38
-0.031114288 -0.16709524 1.21 1.5580317e-38
-0.028809523 -0.16709524 1.21 9.4032102e-39
-0.026592383 -0.16764763 1.2140001 9.2195223e-39
-0.024380002 -0.16833812 1.2190001 1.2815152e-38
-0.022058096 -0.16833812 1.2190001 1.373642e-38
-0.019736191 -0.16833812 1.2190001 1.438179e-38
-0.017471429 -0.16889048 1.223 1.2540391e-38
-0.015191429 -0.16944288 1.2270001 1.02355e-38
-0.012854287 -0.16944288 1.2270001 8.5774334e-39
-0.010517144 -0.16944288 1.2270001 6.5491295e-39
-0.0081800008 -0.16944288 1.2270001 6.9197169e-39
-0.0058857147 -0.17068571 1.2360001 1.7061236e-38
-0.088285714 -0.16833144 1.2360001 1.0048996e-38
-0.085653335 -0.16778667 1.2320001 2.2123672e-39
-0.08330667 -0.16778667 1.2320001 5.9929836e-39
-0.080960013 -0.16778667 1.2320001 1.3276424e-38
-0.078294292 -0.16710572 1.2270001 1.2816625e-38
-0.075957149 -0.16710572 1.2270001 1.1341495e-38
-0.073620006 -0.16710572 1.2270001 9.044154e-39
-0.07105048 -0.16656096 1.223 8.4909803e-39
-0.068496197 -0.16601621 1.2190001 1.1434391e-38
-0.065902859 -0.16533525 1.2140001 1.3370499e-38
-0.063590482 -0.16533525 1.2140001 1.4748757e-38
-0.061278097 -0.16533525 1.2140001 1.4103388e-38
-0.05896572 -0.16533525 1.2140001 1.3642802e-38
-0.056653336 -0.16533525 1.2140001 1.622428e-38
-0.054340959 -0.16533525 1.2140001 1.4847449e-38
-0.051857144 -0.16479047 1.21 9.223516e-39
-0.049552381 -0.16479047 1.21 7.2038218e-39
-0.047247618 -0.16479047 1.21 8.4945606e-39
-0.04494286 -0.16479047 1.21 1.3830033e-38
-0.042638097 -0.16479047 1.21 1.5766141e-38
-0.04046667 -0.16533525 1.2140001 1.6226771e-38
-0.038028572 -0.16479047 1.21 1.5581402e-38
-0.035723813 -0.16479047 1.21 1.502933e-38
-0.033419047 -0.16479047 1.21 1.4660547e-38
-0.031114288 -0.16479047 1.21 1.355131e-38
-0.028809523 -0.16479047 1.21 8.8493329e-39
-0.026592383 -0.16533525 1.2140001 7.654321e-39
-0.024380002 -0.16601621 1.2190001 9.406038e-39
-0.022058096 -0.16601621 1.2190001 1.3823196e-38
-0.019736191 -0.16601621 1.2190001 1.6128086e-38
-0.017471429 -0.16656096 1.223 1.3828275e-38
-0.015191429 -0.16710572 1.2270001 9.2184938e-39
-0.012854287 -0.16710572 1.2270001 7.1080388e-39
-0.010517144 -0.16710572 1.2270001 6.0938869e-39
-0.0081800008 -0.16710572 1.2270001 7.4707327e-39
-0.0058857147 -0.16833144 1.2360001 1.6782491e-38
-0.088285714 -0.16597714 1.2360001 1.041961e-38
-0.085653335 -0.16544002 1.2320001 6.46873e-40
-0.08330667 -0.16544002 1.2320001 2.0354477e-39
-0.080960013 -0.16544002 1.2320001 1.0240853e-38
-0.078294292 -0.16476859 1.2270001 1.0881608e-38
-0.075957149 -0.16476859 1.2270001 9.5908692e-39
-0.073620006 -0.16476859 1.2270001 8.1236677e-39
-0.07105048 -0.16423143 1.223 8.5846459e-39
-0.068496197 -0.16369429 1.2190001 9.3193214e-39
-0.066174291 -0.16369429 1.2190001 1.0794452e-38
-0.063590482 -0.16302286 1.2140001 1.3645294e-38
-0.061278097 -0.16302286 1.2140001 1.6779945e-38
-0.05896572 -0.16302286 1.2140001 1.5948762e-38
-0.056653336 -0.16302286 1.2140001 1.2537524e-38
-0.054340959 -0.16302286 1.2140001 7.8470934e-39
-0.052028574 -0.16302286 1.2140001 6.5563546e-39
-0.049716193 -0.16302286 1.2140001 5.3678756e-39
-0.047403816 -0.16302286 1.2140001 4.999093e-39
-0.045091432 -0.16302286 1.2140001 8.4941878e-39
-0.042779051 -0.16302286 1.2140001 1.1352252e-38
-0.04046667 -0.16302286 1.2140001 1.6042365e-38
-0.038028572 -0.16248572 1.21 1.7333104e-38
-0.035723813 -0.16248572 1.21 1.5763658e-38
-0.033419047 -0.16248572 1.21 1.0785094e-38
-0.031114288 -0.16248572 1.21 8.6649725e-39
-0.028809523 -0.16248572 1.21 9.033755e-39
-0.026592383 -0.16302286 1.2140001 8.3897897e-39
-0.024380002 -0.16369429 1.2190001 7.6522247e-39
-0.022058096 -0.16369429 1.2190001 1.0598141e-38
-0.019736191 -0.16369429 1.2190001 1.4931335e-38
-0.017471429 -0.16423143 1.223 1.3276511e-38
-0.015191429 -0.16476859 1.2270001 8.7589254e-39
-0.012854287 -0.16476859 1.2270001 7.2002344e-39
-0.010560001 -0.16544002 1.2320001 6.7392563e-39
-0.0082133338 -0.16544002 1.2320001 8.7607554e-39
-0.0058857147 -0.16597714 1.2360001 1.6228601e-38
-0.088285714 -0.16362287 1.2360001 1.3091805e-38
-0.085931435 -0.16362287 1.2360001 1.4751553e-39
-0.08330667 -0.16309334 1.2320001 1.1109943e-39
-0.080960013 -0.16309334 1.2320001 1.0422747e-38
-0.078294292 -0.16243143 1.2270001 1.0146561e-38
-0.075957149 -0.16243143 1.2270001 8.7636267e-39
-0.073620006 -0.16243143 1.2270001 7.8481472e-39
-0.07105048 -0.16190191 1.223 8.6779079e-39
-0.068496197 -0.16137239 1.2190001 8.0346965e-39
-0.066174291 -0.16137239 1.2190001 8.2190877e-39
-0.063852385 -0.16137239 1.2190001 1.1897903e-38
-0.061530478 -0.16137239 1.2190001 1.595451e-38
-0.059208576 -0.16137239 1.2190001 1.503115e-38
-0.056653336 -0.16071048 1.2140001 8.3008689e-39
-0.054340959 -0.16071048 1.2140001 4.722125e-39
-0.052028574 -0.16071048 1.2140001 5.0909075e-39
-0.049716193 -0.16071048 1.2140001 4.7264662e-39
-0.047403816 -0.16071048 1.2140001 3.8967055e-39
-0.045091432 -0.16071048 1.2140001 3.0694336e-39
-0.042779051 -0.16071048 1.2140001 5.0977374e-39
-0.04046667 -0.16071048 1.2140001 1.3921512e-38
-0.038028572 -0.16018096 1.21 1.6779577e-38
-0.035723813 -0.16018096 1.21 1.5670373e-38
-0.033419047 -0.16018096 1.21 9.493266e-39
-0.031114288 -0.16018096 1.21 7.9302563e-39
-0.028809523 -0.16018096 1.21 9.2209951e-39
-0.026592383 -0.16071048 1.2140001 9.035878e-39
-0.024380002 -0.16137239 1.2190001 7.8373348e-39
-0.022058096 -0.16137239 1.2190001 8.2986338e-39
-0.019736191 -0.16137239 1.2190001 1.3738176e-38
-0.017471429 -0.16190191 1.223 1.2356382e-38
-0.015191429 -0.16243143 1.2270001 8.3919701e-39
-0.012854287 -0.16243143 1.2270001 7.2920741e-39
-0.010560001 -0.16309334 1.2320001 6.9232916e-39
-0.0082133338 -0.16309334 1.2320001 1.0325911e-38
-0.0058666673 -0.16309334 1.2320001 1.6226431e-38
-0.0035457143 -0.16428477 1.2410001 1.6593784e-38
-0.088285714 -0.16126858 1.2360001 1.3459868e-38
-0.085931435 -0.16126858 1.2360001 3.1339578e-39
-0.08330667 -0.16074668 1.2320001 3.8746785e-39
-0.080960013 -0.16074668 1.2320001 1.1803503e-38
-0.078613341 -0.16074668 1.2320001 1.0974877e-38
-0.075957149 -0.16009429 1.2270001 9.6841383e-39
-0.073620006 -0.16009429 1.2270001 8.5835669e-39
-0.07105048 -0.15957239 1.223 9.2289363e-39
-0.068720959 -0.15957239 1.223 8.4027657e-39
-0.066174291 -0.15905049 1.2190001 8.4949614e-39
-0.063852385 -0.15905049 1.2190001 1.1069577e-38
-0.061530478 -0.15905049 1.2190001 1.5126185e-38
-0.059208576 -0.15905049 1.2190001 1.4204594e-38
-0.056653336 -0.15839811 1.2140001 6.2757698e-39
-0.054340959 -0.15839811 1.2140001 1.1394616e-39
-0.052028574 -0.15839811 1.2140001 2.9833742e-39
-0.049716193 -0.15839811 1.2140001 4.7271753e-39
-0.047403816 -0.15839811 1.2140001 4.6349796e-39
-0.045091432 -0.15839811 1.2140001 4.1725792e-39
-0.042779051 -0.15839811 1.2140001 3.9881879e-39
-0.04046667 -0.15839811 1.2140001 1.2358472e-38
-0.038028572 -0.15787619 1.21 1.5308732e-38
-0.035723813 -0.15787619 1.21 1.4381774e-38
-0.033419047 -0.15787619 1.21 8.2968626e-39
-0.031217147 -0.15839811 1.2140001 7.6554743e-39
-0.028904764 -0.15839811 1.2140001 8.6696262e-39
-0.026592383 -0.15839811 1.2140001 9.0344557e-39
-0.024380002 -0.15905049 1.2190001 8.4812819e-39
-0.022058096 -0.15905049 1.2190001 9.6773139e-39
-0.019736191 -0.15905049 1.2190001 1.5393443e-38
-0.017471429 -0.15957239 1.223 1.3922597e-38
-0.015141904 -0.15957239 1.223 9.6815977e-39
-0.012906668 -0.16074668 1.2320001 7.5668758e-39
-0.010560001 -0.16074668 1.2320001 6.3683326e-39
-0.0082133338 -0.16074668 1.2320001 1.0418812e-38
-0.0059095239 -0.16192096 1.2410001 1.5858355e-38
-0.0035457143 -0.16192096 1.2410001 1.6039166e-38
-0.088928573 -0.16007142 1.245 1.3552064e-38
-0.08627905 -0.15955715 1.2410001 5.6232398e-39
-0.083577149 -0.1589143 1.2360001 5.16293e-39
-0.080960013 -0.15840001 1.2320001 1.1801015e-38
-0.078613341 -0.15840001 1.2320001 1.2082284e-38
-0.075957149 -0.15775716 1.2270001 1.0791545e-38
-0.073620006 -0.15775716 1.2270001 8.4920775e-39
-0.071282864 -0.15775716 1.2270001 8.9530556e-39
-0.068720959 -0.15724286 1.223 8.3102016e-39
-0.066391431 -0.15724286 1.223 8.4945928e-39
-0.063852385 -0.15672858 1.2190001 1.0977041e-38
-0.061530478 -0.15672858 1.2190001 1.4849257e-38
-0.059208576 -0.15672858 1.2190001 1.346956e-38
-0.056886673 -0.15672858 1.2190001 7.2924525e-39
-0.054564763 -0.15672858 1.2190001 1.1380393e-39
-0.052028574 -0.15608573 1.2140001 2.5209738e-39
-0.049716193 -0.15608573 1.2140001 4.4513044e-39
-0.047403816 -0.15608573 1.2140001 4.0825219e-39
-0.045091432 -0.15608573 1.2140001 2.6109988e-39
-0.042779051 -0.15608573 1.2140001 4.0861289e-39
-0.04046667 -0.15608573 1.2140001 1.2264868e-38
-0.038154289 -0.15608573 1.2140001 1.5307323e-38
-0.035841908 -0.15608573 1.2140001 1.3278694e-38
-0.033529524 -0.15608573 1.2140001 7.8391523e-39
-0.031217147 -0.15608573 1.2140001 8.4819825e-39
-0.028904764 -0.15608573 1.2140001 8.8507651e-39
-0.026592383 -0.15608573 1.2140001 8.482686e-39
-0.024380002 -0.15672858 1.2190001 9.4968379e-39
-0.022058096 -0.15672858 1.2190001 1.2992397e-38
-0.019736191 -0.15672858 1.2190001 1.5297287e-38
-0.017471429 -0.15724286 1.223 1.3555246e-38
-0.015141904 -0.15724286 1.223 1.0789377e-38
-0.012906668 -0.15840001 1.2320001 8.6725031e-39
-0.010560001 -0.15840001 1.2320001 6.7363948e-39
-0.0082400003 -0.1589143 1.2360001 1.0878693e-38
-0.0059095239 -0.15955715 1.2410001 1.6133844e-38
-0.0035457143 -0.15955715 1.2410001 1.6131361e-38
-0.091299996 -0.1577 1.245 1.696329e-38
-0.088928573 -0.1577 1.245 1.3828654e-38
-0.08627905 -0.15719333 1.2410001 7.6515464e-39
-0.083577149 -0.15656 1.2360001 8.0238911e-39
-0.080960013 -0.15605335 1.2320001 9.4990211e-39
-0.078613341 -0.15605335 1.2320001 1.1713077e-38
-0.075957149 -0.15542001 1.2270001 1.2635033e-38
-0.073620006 -0.15542001 1.2270001 1.0884114e-38
-0.071282864 -0.15542001 1.2270001 9.5933748e-39
-0.068720959 -0.15491334 1.223 9.3196774e-39
-0.066391431 -0.15491334 1.223 1.1716764e-38
-0.063852385 -0.15440668 1.2190001 1.401518e-38
-0.061530478 -0.15440668 1.2190001 1.5674702e-38
-0.059208576 -0.15440668 1.2190001 1.4663055e-38
-0.056886673 -0.15440668 1.2190001 1.3833295e-38
-0.054564763 -0.15440668 1.2190001 8.5893472e-39
-0.052028574 -0.15377335 1.2140001 4.5327395e-39
-0.049716193 -0.15377335 1.2140001 1.6915634e-39
-0.047403816 -0.15377335 1.2140001 2.0603459e-39
-0.045091432 -0.15377335 1.2140001 6.4688253e-39
-0.042779051 -0.15377335 1.2140001 1.1908367e-38
-0.04046667 -0.15377335 1.2140001 1.5767585e-38
-0.038154289 -0.15377335 1.2140001 1.6689542e-38
-0.035841908 -0.15377335 1.2140001 1.6133156e-38
-0.033529524 -0.15377335 1.2140001 1.2906309e-38
-0.031217147 -0.15377335 1.2140001 8.9451565e-39
-0.028904764 -0.15377335 1.2140001 7.3778308e-39
-0.026592383 -0.15377335 1.2140001 9.2199161e-39
-0.024380002 -0.15440668 1.2190001 1.4106284e-38
-0.022058096 -0.15440668 1.2190001 1.3737136e-38
-0.019736191 -0.15440668 1.2190001 1.0233702e-38
-0.017471429 -0.15491334 1.223 1.1434731e-38
-0.015191429 -0.15542001 1.2270001 1.3094253e-38
-0.012906668 -0.15605335 1.2320001 1.0973428e-38
-0.010594286 -0.15656 1.2360001 6.1792554e-39
-0.0082400003 -0.15656 1.2360001 1.0051456e-38
-0.0058857147 -0.15656 1.2360001 1.5951977e-38
-0.0035314288 -0.15656 1.2360001 1.6315387e-38
-0.091299996 -0.15532857 1.245 1.6686352e-38
-0.088928573 -0.15532857 1.245 1.4012679e-38
-0.086557142 -0.15532857 1.245 8.6653326e-39
-0.083577149 -0.15420572 1.2360001 8.303345e-39
-0.080960013 -0.15370668 1.2320001 7.0126062e-39
-0.078613341 -0.15370668 1.2320001 8.2993373e-39
-0.076266676 -0.15370668 1.2320001 1.1710576e-38
-0.073620006 -0.15308286 1.2270001 1.2908442e-38
-0.071282864 -0.15308286 1.2270001 1.1156725e-38
-0.068720959 -0.15258382 1.223 1.0790852e-38
-0.066391431 -0.15258382 1.223 1.355672e-38
-0.063852385 -0.15208477 1.2190001 1.5394872e-38
-0.061530478 -0.15208477 1.2190001 1.438072e-38
-0.059208576 -0.15208477 1.2190001 1.456543e-38
-0.056886673 -0.15208477 1.2190001 1.5948364e-38
-0.054564763 -0.15208477 1.2190001 1.328267e-38
-0.05224286 -0.15208477 1.2190001 7.4743452e-39
-0.049716193 -0.15146096 1.2140001 2.240389e-39
-0.047403816 -0.15146096 1.2140001 3.7155191e-39
-0.045091432 -0.15146096 1.2140001 1.1159268e-38
-0.042779051 -0.15146096 1.2140001 1.5215876e-38
-0.04046667 -0.15146096 1.2140001 1.6226421e-38
-0.038154289 -0.15146096 1.2140001 1.5673247e-38
-0.035841908 -0.15146096 1.2140001 1.6133153e-38
-0.033529524 -0.15146096 1.2140001 1.4842415e-38
-0.031217147 -0.15146096 1.2140001 1.3091782e-38
-0.028904764 -0.15146096 1.2140001 1.0325913e-38
-0.026592383 -0.15146096 1.2140001 1.0141169e-38
-0.024380002 -0.15208477 1.2190001 1.4197777e-38
-0.022130478 -0.15258382 1.223 1.217666e-38
-0.019865716 -0.15308286 1.2270001 5.1697922e-39
-0.017528573 -0.15308286 1.2270001 7.5671869e-39
-0.015191429 -0.15308286 1.2270001 1.2176968e-38
-0.012906668 -0.15370668 1.2320001 1.2263804e-38
-0.010594286 -0.15420572 1.2360001 6.9164575e-39
-0.0082400003 -0.15420572 1.2360001 1.078398e-38
-0.0058857147 -0.15420572 1.2360001 1.6131326e-38
-0.091666669 -0.15357143 1.25 1.6500163e-38
-0.089285716 -0.15357143 1.25 1.4381815e-38
-0.086557142 -0.15295714 1.245 8.5734901e-39
-0.083915241 -0.15246572 1.2410001 5.3567072e-39
-0.081551433 -0.15246572 1.2410001 3.3284033e-39
-0.078868575 -0.15185143 1.2360001 3.2405237e-39
-0.076266676 -0.15136001 1.2320001 6.4673708e-39
-0.073920004 -0.15136001 1.2320001 1.1249652e-38
-0.071282864 -0.15074573 1.2270001 1.4199912e-38
-0.068720959 -0.15025429 1.223 1.4566884e-38
-0.066391431 -0.15025429 1.223 1.4566884e-38
-0.064061902 -0.15025429 1.223 1.1891827e-38
-0.061732382 -0.15025429 1.223 8.3883926e-39
-0.059208576 -0.14976287 1.2190001 9.4950555e-39
-0.056886673 -0.14976287 1.2190001 1.5118989e-38
-0.054564763 -0.14976287 1.2190001 1.5120827e-38
-0.05224286 -0.14976287 1.2190001 1.4383262e-38
-0.049920954 -0.14976287 1.2190001 1.3007455e-38
-0.047599051 -0.14976287 1.2190001 1.3652824e-38
-0.045277145 -0.14976287 1.2190001 1.4754541e-38
-0.042779051 -0.14914858 1.2140001 1.4662345e-38
-0.04046667 -0.14914858 1.2140001 1.2635856e-38
-0.038154289 -0.14914858 1.2140001 1.1621704e-38
-0.035841908 -0.14914858 1.2140001 1.2911694e-38
-0.03366762 -0.14976287 1.2190001 1.5032194e-38
-0.031345718 -0.14976287 1.2190001 1.5764018e-38
-0.029023811 -0.14976287 1.2190001 1.5671822e-38
-0.026701907 -0.14976287 1.2190001 1.4106985e-38
-0.024460001 -0.15025429 1.223 1.1525508e-38
-0.022202859 -0.15074573 1.2270001 6.7417997e-39
-0.019946668 -0.15136001 1.2320001 3.2383657e-39
-0.017600002 -0.15136001 1.2320001 4.8971682e-39
-0.015253334 -0.15136001 1.2320001 9.1381672e-39
-0.012948572 -0.15185143 1.2360001 1.041951e-38
-0.010594286 -0.15185143 1.2360001 5.8097288e-39
-0.0082400003 -0.15185143 1.2360001 9.4972037e-39
-0.0058857147 -0.15185143 1.2360001 1.4383572e-38
-0.092033342 -0.15179525 1.2550001 1.6868226e-38
-0.08964286 -0.15179525 1.2550001 1.5118667e-38
-0.086904764 -0.15119047 1.25 9.1259506e-39
-0.083915241 -0.15010192 1.2410001 4.3454167e-39
-0.081551433 -0.15010192 1.2410001 3.1468735e-39
-0.078868575 -0.14949715 1.2360001 1.1315177e-39
-0.076266676 -0.14901336 1.2320001 1.3159089e-39
-0.073920004 -0.14901336 1.2320001 9.1312924e-39
-0.071282864 -0.14840858 1.2270001 1.4570835e-38
-0.068945721 -0.14840858 1.2270001 1.5119367e-38
-0.066608571 -0.14840858 1.2270001 1.3459846e-38
-0.064271435 -0.14840858 1.2270001 9.8703176e-39
-0.061934292 -0.14840858 1.2270001 7.4732312e-39
-0.059402857 -0.14792477 1.223 8.5755767e-39
-0.057073336 -0.14792477 1.223 1.2263402e-38
-0.054743811 -0.14792477 1.223 1.5301938e-38
-0.052414287 -0.14792477 1.223 1.6223895e-38
-0.050084762 -0.14792477 1.223 1.5672163e-38
-0.047599051 -0.14744097 1.2190001 1.6594119e-38
-0.045277145 -0.14744097 1.2190001 1.5493182e-38
-0.042955242 -0.14744097 1.2190001 1.30039e-38
-0.040633336 -0.14744097 1.2190001 1.0981727e-38
-0.038311433 -0.14744097 1.2190001 9.8753791e-39
-0.035989527 -0.14744097 1.2190001 1.116393e-38
-0.03366762 -0.14744097 1.2190001 1.2731256e-38
-0.031345718 -0.14744097 1.2190001 1.5856201e-38
-0.029023811 -0.14744097 1.2190001 1.6685961e-38
-0.026701907 -0.14744097 1.2190001 1.438396e-38
-0.024540002 -0.14840858 1.2270001 8.0224617e-39
-0.022293337 -0.14901336 1.2320001 4.8085529e-39
-0.019946668 -0.14901336 1.2320001 3.4256184e-39
-0.017600002 -0.14901336 1.2320001 4.8074487e-39
-0.015253334 -0.14901336 1.2320001 7.8499044e-39
-0.012948572 -0.14949715 1.2360001 8.6689073e-39
-0.010594286 -0.14949715 1.2360001 7.1015816e-39
-0.0082400003 -0.14949715 1.2360001 9.5872539e-39
-0.0058857147 -0.14949715 1.2360001 1.4197035e-38
-0.092033342 -0.14940478 1.2550001 1.7515387e-38
-0.08964286 -0.14940478 1.2550001 1.6132102e-38
-0.086904764 -0.14880952 1.25 1.0323778e-38
-0.083915241 -0.1477381 1.2410001 5.2641613e-39
-0.081551433 -0.1477381 1.2410001 3.7890312e-39
-0.078868575 -0.14714286 1.2360001 1.2233728e-39
-0.076514289 -0.14714286 1.2360001 9.4678591e-40
-0.073920004 -0.14666668 1.2320001 5.2634326e-39
-0.071282864 -0.14607145 1.2270001 1.1993714e-38
-0.068945721 -0.14607145 1.2270001 1.3275457e-38
-0.066608571 -0.14607145 1.2270001 9.0344585e-39
-0.064271435 -0.14607145 1.2270001 8.3919351e-39
-0.061934292 -0.14607145 1.2270001 9.2216958e-39
-0.059597149 -0.14607145 1.2270001 9.5883455e-39
-0.057260003 -0.14607145 1.2270001 8.7585848e-39
-0.054922864 -0.14607145 1.2270001 9.9567371e-39
-0.052414287 -0.14559524 1.223 1.5488475e-38
-0.050084762 -0.14559524 1.223 1.6317908e-38
-0.047755238 -0.14559524 1.223 1.5949125e-38
-0.045425717 -0.14559524 1.223 1.3834364e-38
-0.042955242 -0.14511906 1.2190001 1.180606e-38
-0.040633336 -0.14511906 1.2190001 1.0430003e-38
-0.038311433 -0.14511906 1.2190001 1.0337808e-38
-0.035989527 -0.14511906 1.2190001 1.0151969e-38
-0.03366762 -0.14511906 1.2190001 9.9675775e-39
-0.031448569 -0.14559524 1.223 1.401513e-38
-0.029119048 -0.14559524 1.223 1.5859043e-38
-0.026789526 -0.14559524 1.223 1.337302e-38
-0.024540002 -0.14607145 1.2270001 5.905174e-39
-0.022293337 -0.14666668 1.2320001 1.5936127e-39
-0.019946668 -0.14666668 1.2320001 1.501417e-39
-0.017657144 -0.14714286 1.2360001 5.1751774e-39
-0.015302857 -0.14714286 1.2360001 8.9551982e-39
-0.012948572 -0.14714286 1.2360001 9.6812726e-39
-0.010594286 -0.14714286 1.2360001 7.9295556e-39
-0.0082400003 -0.14714286 1.2360001 1.0140075e-38
-0.0058857147 -0.14714286 1.2360001 1.4196682e-38
-0.092326671 -0.14748287 1.2590001 1.6778173e-38
-0.089928575 -0.14748287 1.2590001 1.6593431e-38
-0.086904764 -0.14642857 1.25 1.1430476e-38
-0.084523812 -0.14642857 1.25 7.1977261e-39
-0.081814282 -0.14584285 1.245 4.8006397e-39
-0.079187624 -0.14537428 1.2410001 2.2310507e-39
-0.076514289 -0.14478858 1.2360001 2.0466595e-39
-0.073920004 -0.14432001 1.2320001 3.6103628e-39
-0.071573339 -0.14432001 1.2320001 1.0340644e-38
-0.068945721 -0.14373431 1.2270001 1.2263483e-38
-0.066608571 -0.14373431 1.2270001 8.6678536e-39
-0.064271435 -0.14373431 1.2270001 8.0231526e-39
-0.061934292 -0.14373431 1.2270001 9.406087e-39
-0.059597149 -0.14373431 1.2270001 1.0141154e-38
-0.057260003 -0.14373431 1.2270001 8.7582191e-39
-0.054922864 -0.14373431 1.2270001 8.3004191e-39
-0.052585717 -0.14373431 1.2270001 1.4661918e-38
-0.050248574 -0.14373431 1.2270001 1.5766897e-38
-0.047755238 -0.14326571 1.223 1.4844941e-38
-0.045425717 -0.14326571 1.223 1.1716761e-38
-0.042955242 -0.14279716 1.2190001 1.0794805e-38
-0.040633336 -0.14279716 1.2190001 1.043e-38
-0.038311433 -0.14279716 1.2190001 1.0522196e-38
-0.035989527 -0.14279716 1.2190001 9.9693754e-39
-0.033778097 -0.14326571 1.223 9.324006e-39
-0.031448569 -0.14326571 1.223 1.2174127e-38
-0.029119048 -0.14326571 1.223 1.4939995e-38
-0.026789526 -0.14326571 1.223 1.1256149e-38
-0.024540002 -0.14373431 1.2270001 5.0790413e-39
-0.022293337 -0.14432001 1.2320001 9.5038864e-40
-0.019946668 -0.14432001 1.2320001 9.5038864e-40
-0.017657144 -0.14478858 1.2360001 5.2670199e-39
-0.015302857 -0.14478858 1.2360001 9.231432e-39
-0.012948572 -0.14478858 1.2360001 1.1247857e-38
-0.010594286 -0.14478858 1.2360001 1.0141509e-38
-0.0082400003 -0.14478858 1.2360001 1.0876914e-38
-0.0058857147 -0.14478858 1.2360001 1.4472543e-38
-0.092986666 -0.1461219 1.268 1.6131349e-38
-0.090285718 -0.14566095 1.2640001 1.6039168e-38
-0.086904764 -0.14404762 1.25 1.2074756e-38
-0.084523812 -0.14404762 1.25 7.8398529e-39
-0.081814282 -0.14347143 1.245 7.9320486e-39
-0.079187624 -0.14301048 1.2410001 4.8067985e-39
-0.076514289 -0.14243428 1.2360001 2.686299e-39
-0.073920004 -0.14197333 1.2320001 5.1744613e-39
-0.071573339 -0.14197333 1.2320001 1.1996938e-38
-0.068945721 -0.14139715 1.2270001 1.3647092e-38
-0.066608571 -0.14139715 1.2270001 9.5904839e-39
-0.064271435 -0.14139715 1.2270001 8.4837804e-39
-0.061934292 -0.14139715 1.2270001 8.9447585e-39
-0.059597149 -0.14139715 1.2270001 9.3117586e-39
-0.057260003 -0.14139715 1.2270001 8.6663892e-39
-0.054922864 -0.14139715 1.2270001 8.5748998e-39
-0.052585717 -0.14139715 1.2270001 1.4106638e-38
-0.050248574 -0.14139715 1.2270001 1.5490648e-38
-0.047755238 -0.1409362 1.223 1.4845279e-38
-0.045425717 -0.1409362 1.223 1.1901168e-38
-0.043096192 -0.1409362 1.223 1.0702624e-38
-0.040766668 -0.1409362 1.223 1.0062297e-38
-0.038437143 -0.1409362 1.223 1.0154493e-38
-0.036107622 -0.1409362 1.223 1.0521117e-38
-0.033778097 -0.1409362 1.223 1.0705508e-38
-0.031448569 -0.1409362 1.223 1.4107348e-38
-0.029119048 -0.1409362 1.223 1.6320043e-38
-0.026877144 -0.14139715 1.2270001 1.4017676e-38
-0.024640001 -0.14197333 1.2320001 7.2873952e-39
-0.022293337 -0.14197333 1.2320001 1.3184649e-39
-0.020011429 -0.14243428 1.2360001 2.2404212e-39
-0.017657144 -0.14243428 1.2360001 7.844204e-39
-0.015302857 -0.14243428 1.2360001 1.0702268e-38
-0.013000953 -0.14301048 1.2410001 1.1525142e-38
-0.010594286 -0.14243428 1.2360001 1.1248555e-38
-0.0082400003 -0.14243428 1.2360001 1.2165845e-38
-0.0058857147 -0.14243428 1.2360001 1.5023909e-38
-0.095401898 -0.14370666 1.268 1.5393067e-38
-0.092986666 -0.14370666 1.268 1.5946241e-38
-0.090285718 -0.14325333 1.2640001 1.5577837e-38
-0.087252386 -0.14223334 1.2550001 1.1982207e-38
-0.084523812 -0.14166667 1.25 8.4819825e-39
-0.08214286 -0.14166667 1.25 8.8507651e-39
-0.079761907 -0.14166667 1.25 6.738913e-39
-0.076823808 -0.14064667 1.2410001 4.987196e-39
-0.074160002 -0.14008002 1.2360001 7.4739599e-39
-0.071573339 -0.13962668 1.2320001 1.2913502e-38
-0.069226667 -0.13962668 1.2320001 1.4292105e-38
-0.066880003 -0.13962668 1.2320001 1.1802823e-38
-0.064271435 -0.13906002 1.2270001 8.8544028e-39
-0.061934292 -0.13906002 1.2270001 8.301229e-39
-0.059597149 -0.13906002 1.2270001 8.6681324e-39
-0.057260003 -0.13906002 1.2270001 9.0369149e-39
-0.054922864 -0.13906002 1.2270001 9.7723864e-39
-0.052585717 -0.13906002 1.2270001 1.5119733e-38
-0.050248574 -0.13906002 1.2270001 1.6135292e-38
-0.047911432 -0.13906002 1.2270001 1.5397727e-38
-0.045574289 -0.13906002 1.2270001 1.2637661e-38
-0.043096192 -0.13860667 1.223 1.0978139e-38
-0.040766668 -0.13860667 1.223 9.9697355e-39
-0.038437143 -0.13860667 1.223 9.600953e-39
-0.036107622 -0.13860667 1.223 1.0336723e-38
-0.033778097 -0.13860667 1.223 1.1535266e-38
-0.031551428 -0.13906002 1.2270001 1.4935326e-38
-0.029214289 -0.13906002 1.2270001 1.54885e-38
-0.026877144 -0.13906002 1.2270001 1.3833998e-38
-0.02472 -0.14008002 1.2360001 9.8695861e-39
-0.022365715 -0.14008002 1.2360001 5.089481e-39
-0.020011429 -0.14008002 1.2360001 6.0114373e-39
-0.017728573 -0.14064667 1.2410001 9.962886e-39
-0.015364763 -0.14064667 1.2410001 9.962886e-39
-0.013042857 -0.1411 1.245 1.106414e-38
-0.010637144 -0.14064667 1.2410001 1.1617314e-38
-0.0082733333 -0.14064667 1.2410001 1.2534267e-38
-0.095401898 -0.14129142 1.268 1.5485266e-38
-0.092986666 -0.14129142 1.268 1.6130635e-38
-0.090285718 -0.14084572 1.2640001 1.5761868e-38
-0.087530479 -0.14028858 1.2590001 1.2258434e-38
-0.084861912 -0.13984287 1.2550001 8.3905086e-39
-0.08214286 -0.13928571 1.25 7.9295304e-39
-0.079761907 -0.13928571 1.25 7.9342066e-39
-0.076823808 -0.13828287 1.2410001 1.0700075e-38
-0.074460007 -0.13828287 1.2410001 1.1804268e-38
-0.071805716 -0.13772571 1.2360001 1.217305e-38
-0.069226667 -0.13728002 1.2320001 1.3463737e-38
-0.066880003 -0.13728002 1.2320001 1.4293498e-38
-0.064533345 -0.13728002 1.2320001 1.2724091e-38
-0.061934292 -0.13672288 1.2270001 9.7738312e-39
-0.059597149 -0.13672288 1.2270001 9.497547e-39
-0.057260003 -0.13672288 1.2270001 1.2724394e-38
-0.054922864 -0.13672288 1.2270001 1.4473995e-38
-0.052585717 -0.13672288 1.2270001 1.6133516e-38
-0.050248574 -0.13672288 1.2270001 1.5307323e-38
-0.047911432 -0.13672288 1.2270001 1.5215128e-38
-0.045574289 -0.13672288 1.2270001 1.4293948e-38
-0.043096192 -0.13627714 1.223 1.3648578e-38
-0.040766668 -0.13627714 1.223 1.1533467e-38
-0.038437143 -0.13627714 1.223 1.0980293e-38
-0.036107622 -0.13627714 1.223 1.2913149e-38
-0.033778097 -0.13627714 1.223 1.4849257e-38
-0.031551428 -0.13672288 1.2270001 1.4843494e-38
-0.029214289 -0.13672288 1.2270001 1.1985429e-38
-0.026877144 -0.13672288 1.2270001 1.2448555e-38
-0.02472 -0.13772571 1.2360001 1.4569055e-38
-0.022365715 -0.13772571 1.2360001 1.3558101e-38
-0.020092381 -0.13828287 1.2410001 1.1714188e-38
-0.017728573 -0.13828287 1.2410001 1.1253981e-38
-0.015364763 -0.13828287 1.2410001 7.934938e-39
-0.013042857 -0.13872856 1.245 8.7614267e-39
-0.010671428 -0.13872856 1.245 1.1066317e-38
-0.095401898 -0.1388762 1.268 1.5024641e-38
-0.092986666 -0.1388762 1.268 1.5485619e-38
-0.090285718 -0.13843809 1.2640001 1.566966e-38
-0.087530479 -0.13789047 1.2590001 1.2350617e-38
-0.084861912 -0.13745239 1.2550001 8.7585694e-39
-0.08214286 -0.13690476 1.25 7.7444175e-39
-0.079442859 -0.13635714 1.245 8.9458179e-39
-0.076823808 -0.13591906 1.2410001 1.2633643e-38
-0.074460007 -0.13591906 1.2410001 1.2634028e-38
-0.071805716 -0.13537145 1.2360001 1.0882312e-38
-0.069451429 -0.13537145 1.2360001 1.115852e-38
-0.066880003 -0.13493334 1.2320001 1.3371215e-38
-0.064533345 -0.13493334 1.2320001 1.4659102e-38
-0.06218667 -0.13493334 1.2320001 1.216982e-38
-0.059840005 -0.13493334 1.2320001 1.1063476e-38
-0.057260003 -0.13438572 1.2270001 1.5027888e-38
-0.054922864 -0.13438572 1.2270001 1.5674339e-38
-0.052585717 -0.13438572 1.2270001 1.3738231e-38
-0.050248574 -0.13438572 1.2270001 1.2265947e-38
-0.047911432 -0.13438572 1.2270001 1.2911316e-38
-0.045574289 -0.13438572 1.2270001 1.5122582e-38
-0.04323715 -0.13438572 1.2270001 1.5306973e-38
-0.040900003 -0.13438572 1.2270001 1.3832944e-38
-0.038437143 -0.13394763 1.223 1.3279771e-38
-0.036107622 -0.13394763 1.223 1.4569793e-38
-0.033888575 -0.13438572 1.2270001 1.5030772e-38
-0.031551428 -0.13438572 1.2270001 1.4106638e-38
-0.029214289 -0.13438572 1.2270001 9.773443e-39
-0.026986668 -0.13493334 1.2320001 1.1339655e-38
-0.02472 -0.13537145 1.2360001 1.4843089e-38
-0.022365715 -0.13537145 1.2360001 1.5670724e-38
-0.020092381 -0.13591906 1.2410001 1.3826811e-38
-0.017728573 -0.13591906 1.2410001 1.1804641e-38
-0.015364763 -0.13591906 1.2410001 7.3792503e-39
-0.013042857 -0.13635714 1.245 8.0252769e-39
-0.010671428 -0.13635714 1.245 1.0883341e-38
-0.0082999999 -0.13635714 1.245 1.2441703e-38
-0.095401898 -0.13646095 1.268 1.4287063e-38
-0.092986666 -0.13646095 1.268 1.4655846e-38
-0.090285718 -0.13603048 1.2640001 1.4655856e-38
-0.087878101 -0.13603048 1.2640001 1.2258769e-38
-0.084861912 -0.13506192 1.2550001 8.6670955e-39
-0.08214286 -0.13452381 1.25 3.6885314e-39
-0.079442859 -0.13398571 1.245 5.9041483e-39
-0.076823808 -0.13355523 1.2410001 1.1896864e-38
-0.074460007 -0.13355523 1.2410001 1.1529107e-38
-0.072096191 -0.13355523 1.2410001 9.5008036e-39
-0.069451429 -0.13301714 1.2360001 8.9512606e-39
-0.066880003 -0.13258669 1.2320001 1.0241999e-38
-0.064533345 -0.13258669 1.2320001 1.2724782e-38
-0.06218667 -0.13258669 1.2320001 1.4845282e-38
-0.059840005 -0.13258669 1.2320001 1.5671812e-38
-0.057493336 -0.13258669 1.2320001 1.6040595e-38
-0.054922864 -0.13204859 1.2270001 1.3095758e-38
-0.052585717 -0.13204859 1.2270001 8.7625631e-39
-0.050248574 -0.13204859 1.2270001 5.4582383e-39
-0.047911432 -0.13204859 1.2270001 5.0894558e-39
-0.045574289 -0.13204859 1.2270001 9.8745986e-39
-0.04323715 -0.13204859 1.2270001 1.4115598e-38
-0.040900003 -0.13204859 1.2270001 1.5582494e-38
-0.03856286 -0.13204859 1.2270001 1.6320059e-38
-0.036225718 -0.13204859 1.2270001 1.5488513e-38
-0.033888575 -0.13204859 1.2270001 1.1892883e-38
-0.031551428 -0.13204859 1.2270001 8.7593135e-39
-0.029333336 -0.13258669 1.2320001 7.9295528e-39
-0.026986668 -0.13258669 1.2320001 8.4823511e-39
-0.02472 -0.13301714 1.2360001 1.1340416e-38
-0.022365715 -0.13301714 1.2360001 1.2906297e-38
-0.020092381 -0.13355523 1.2410001 1.345947e-38
-0.017728573 -0.13355523 1.2410001 1.1804613e-38
-0.015364763 -0.13355523 1.2410001 7.8402004e-39
-0.013042857 -0.13398571 1.245 8.5777837e-39
-0.010671428 -0.13398571 1.245 1.0882674e-38
-0.0082999999 -0.13398571 1.245 1.2442056e-38
-0.0059285713 -0.13398571 1.245 1.2718643e-38
-0.089285716 -0.13214286 1.25 1.45633e-38
-0.086904764 -0.13214286 1.25 1.2903778e-38
-0.084523812 -0.13214286 1.25 1.0140055e-38
-0.081814282 -0.1316143 1.245 4.7005128e-39
-0.079442859 -0.1316143 1.245 5.9958759e-39
-0.076823808 -0.13119143 1.2410001 1.2080787e-38
-0.074460007 -0.13119143 1.2410001 1.0700441e-38
-0.071805716 -0.13066287 1.2360001 9.2253111e-39
-0.069451429 -0.13066287 1.2360001 7.9417722e-39
-0.066880003 -0.13024001 1.2320001 8.2183591e-39
-0.064533345 -0.13024001 1.2320001 1.1344369e-38
-0.06218667 -0.13024001 1.2320001 1.4755607e-38
-0.059840005 -0.13024001 1.2320001 1.6410109e-38
-0.057493336 -0.13024001 1.2320001 1.511937e-38
-0.055146672 -0.13024001 1.2320001 9.6938451e-39
-0.052800007 -0.13024001 1.2320001 5.3606505e-39
-0.050453339 -0.13024001 1.2320001 1.8766637e-39
-0.047911432 -0.12971143 1.2270001 1.8766637e-39
-0.045574289 -0.12971143 1.2270001 6.1032167e-39
-0.04323715 -0.12971143 1.2270001 9.7910419e-39
-0.040900003 -0.12971143 1.2270001 1.6132415e-38
-0.03856286 -0.12971143 1.2270001 1.6962176e-38
-0.036225718 -0.12971143 1.2270001 1.5855481e-38
-0.033888575 -0.12971143 1.2270001 9.1251995e-39
-0.031551428 -0.12971143 1.2270001 9.2180986e-39
-0.029333336 -0.13024001 1.2320001 9.6790768e-39
-0.026986668 -0.13024001 1.2320001 8.3912092e-39
-0.02472 -0.13066287 1.2360001 9.8663393e-39
-0.022365715 -0.13066287 1.2360001 1.1616649e-38
-0.020092381 -0.13119143 1.2410001 1.2907388e-38
-0.017728573 -0.13119143 1.2410001 9.962886e-39
-0.015414285 -0.1316143 1.245 7.0126258e-39
-0.013042857 -0.1316143 1.245 8.4855699e-39
-0.010671428 -0.1316143 1.245 1.0974852e-38
-0.0082999999 -0.1316143 1.245 1.2625724e-38
-0.0059285713 -0.1316143 1.245 1.2902311e-38
-0.086904764 -0.1297619 1.25 1.3641338e-38
-0.084523812 -0.1297619 1.25 1.0141522e-38
-0.081814282 -0.12924285 1.245 3.8722193e-39
-0.079442859 -0.12924285 1.245 5.5363943e-39
-0.076823808 -0.12882763 1.2410001 1.1436915e-38
-0.074460007 -0.12882763 1.2410001 1.116034e-38
-0.071805716 -0.12830856 1.2360001 9.6852103e-39
-0.069451429 -0.12830856 1.2360001 8.0346965e-39
-0.066880003 -0.12789334 1.2320001 8.2190877e-39
-0.064533345 -0.12789334 1.2320001 1.0056158e-38
-0.06218667 -0.12789334 1.2320001 1.33752e-38
-0.059840005 -0.12789334 1.2320001 1.4018055e-38
-0.057493336 -0.12789334 1.2320001 1.0975599e-38
-0.055146672 -0.12789334 1.2320001 4.630658e-39
-0.052800007 -0.12789334 1.2320001 4.0774843e-39
-0.050453339 -0.12789334 1.2320001 4.359106e-39
-0.047911432 -0.12737429 1.2270001 4.6356929e-39
-0.045574289 -0.12737429 1.2270001 4.816494e-39
-0.043413337 -0.12789334 1.2320001 4.9086897e-39
-0.040900003 -0.12737429 1.2270001 1.3187527e-38
-0.03856286 -0.12737429 1.2270001 1.4754853e-38
-0.036225718 -0.12737429 1.2270001 1.3921502e-38
-0.034026671 -0.12789334 1.2320001 8.9429383e-39
-0.031680003 -0.12789334 1.2320001 8.6689101e-39
-0.029333336 -0.12789334 1.2320001 9.1298883e-39
-0.026986668 -0.12789334 1.2320001 8.6681745e-39
-0.02482 -0.12882763 1.2410001 1.0143305e-38
-0.022456191 -0.12882763 1.2410001 1.2540015e-38
-0.020157143 -0.12924285 1.245 1.3369776e-38
-0.017785713 -0.12924285 1.245 1.1342581e-38
-0.015414285 -0.12924285 1.245 8.4845161e-39
-0.013042857 -0.12924285 1.245 9.0383961e-39
-0.010671428 -0.12924285 1.245 1.0697917e-38
-0.0082999999 -0.12924285 1.245 1.2719348e-38
-0.0059285713 -0.12924285 1.245 1.3272522e-38
-0.003557143 -0.12924285 1.245 1.345404e-38
-0.086904764 -0.12738095 1.25 1.3917562e-38
-0.084523812 -0.12738095 1.25 1.1157081e-38
-0.081814282 -0.12687142 1.245 6.2707125e-39
-0.079442859 -0.12687142 1.245 7.3763314e-39
-0.076823808 -0.12646382 1.2410001 1.2354895e-38
-0.074460007 -0.12646382 1.2410001 1.1528404e-38
-0.071805716 -0.1259543 1.2360001 9.776687e-39
-0.069451429 -0.1259543 1.2360001 8.4931537e-39
-0.067097142 -0.1259543 1.2360001 8.5853493e-39
-0.064742863 -0.1259543 1.2360001 8.9526927e-39
-0.06218667 -0.12554666 1.2320001 1.2548322e-38
-0.059840005 -0.12554666 1.2320001 1.2732007e-38
-0.057493336 -0.12554666 1.2320001 1.0427117e-38
-0.055146672 -0.12554666 1.2320001 2.3354811e-39
-0.052800007 -0.12554666 1.2320001 2.5198724e-39
-0.050453339 -0.12554666 1.2320001 5.0934313e-39
-0.047911432 -0.12503716 1.2270001 5.2778225e-39
-0.045574289 -0.12503716 1.2270001 1.6007999e-39
-0.043413337 -0.12554666 1.2320001 2.0617781e-39
-0.041066669 -0.12554666 1.2320001 1.0978823e-38
-0.03856286 -0.12503716 1.2270001 1.3652496e-38
-0.036225718 -0.12503716 1.2270001 1.3001013e-38
-0.034026671 -0.12554666 1.2320001 8.7600142e-39
-0.031680003 -0.12554666 1.2320001 8.9436824e-39
-0.029333336 -0.12554666 1.2320001 8.9436824e-39
-0.026986668 -0.12554666 1.2320001 8.3919351e-39
-0.02482 -0.12646382 1.2410001 1.1710978e-38
-0.022456191 -0.12646382 1.2410001 1.300029e-38
-0.020157143 -0.12687142 1.245 1.3461268e-38
-0.017857142 -0.12738095 1.25 1.1435861e-38
-0.015414285 -0.12687142 1.245 8.5777963e-39
-0.013042857 -0.12687142 1.245 9.2209699e-39
-0.010671428 -0.12687142 1.245 1.0419513e-38
-0.0082999999 -0.12687142 1.245 1.3177814e-38
-0.0059761908 -0.1278905 1.2550001 1.3730987e-38
-0.086904764 -0.125 1.25 1.4009748e-38
-0.084523812 -0.125 1.25 1.1524063e-38
-0.081814282 -0.12450001 1.245 9.4035633e-39
-0.079442859 -0.12450001 1.245 9.4979351e-39
-0.077071428 -0.12450001 1.245 1.1618435e-38
-0.074460007 -0.12410001 1.2410001 1.1344719e-38
-0.072096191 -0.12410001 1.2410001 1.0975936e-38
-0.069732383 -0.12410001 1.2410001 1.0334177e-38
-0.067097142 -0.1236 1.2360001 9.8731987e-39
-0.064742863 -0.1236 1.2360001 1.1161419e-38
-0.062388573 -0.1236 1.2360001 1.4296071e-38
-0.060034286 -0.1236 1.2360001 1.484638e-38
-0.057680003 -0.1236 1.2360001 1.4477598e-38
-0.055146672 -0.12320001 1.2320001 9.3258206e-39
-0.052800007 -0.12320001 1.2320001 4.8082348e-39
-0.050453339 -0.12320001 1.2320001 1.5079008e-39
-0.047911432 -0.12270001 1.2270001 2.1532703e-39
-0.045574289 -0.12270001 1.2270001 4.9083141e-39
-0.043413337 -0.12320001 1.2320001 9.4259e-39
-0.041066669 -0.12320001 1.2320001 1.5123658e-38
-0.038720001 -0.12320001 1.2320001 1.6414397e-38
-0.03637334 -0.12320001 1.2320001 1.5950172e-38
-0.034026671 -0.12320001 1.2320001 1.0326238e-38
-0.031680003 -0.12320001 1.2320001 7.7473196e-39
-0.029333336 -0.12320001 1.2320001 8.0239065e-39
-0.026986668 -0.12320001 1.2320001 9.5879798e-39
-0.02482 -0.12410001 1.2410001 1.3828979e-38
-0.022456191 -0.12410001 1.2410001 1.3644925e-38
-0.020157143 -0.12450001 1.245 1.3460534e-38
-0.017857142 -0.125 1.25 1.2632952e-38
-0.015414285 -0.12450001 1.245 1.0604648e-38
-0.013042857 -0.12450001 1.245 9.4957589e-39
-0.010714286 -0.125 1.25 9.8645414e-39
-0.0083333328 -0.125 1.25 1.2718256e-38
-0.0059523811 -0.125 1.25 1.3363626e-38
-0.084185712 -0.12212857 1.245 1.2350942e-38
-0.081814282 -0.12212857 1.245 1.0691421e-38
-0.079442859 -0.12212857 1.245 9.8656358e-39
-0.077071428 -0.12212857 1.245 9.9578315e-39
-0.074699998 -0.12212857 1.245 9.5947845e-39
-0.072096191 -0.12173619 1.2410001 1.1530893e-38
-0.069732383 -0.12173619 1.2410001 1.1253968e-38
-0.067368567 -0.12173619 1.2410001 1.079299e-38
-0.065004766 -0.12173619 1.2410001 1.3091429e-38
-0.062388573 -0.12124572 1.2360001 1.5027537e-38
-0.060034286 -0.12124572 1.2360001 1.5304084e-38
-0.057680003 -0.12124572 1.2360001 1.5857257e-38
-0.055146672 -0.12085334 1.2320001 1.2824569e-38
-0.052800007 -0.12085334 1.2320001 7.2006352e-39
-0.050453339 -0.12085334 1.2320001 1.1394462e-39
-0.047911432 -0.12036287 1.2270001 1.5082287e-39
-0.045574289 -0.12036287 1.2270001 7.5730023e-39
-0.043413337 -0.12085334 1.2320001 1.2735958e-38
-0.041066669 -0.12085334 1.2320001 1.61328e-38
-0.038720001 -0.12085334 1.2320001 1.6501583e-38
-0.03637334 -0.12085334 1.2320001 1.585908e-38
-0.034026671 -0.12085334 1.2320001 1.2355647e-38
-0.031680003 -0.12085334 1.2320001 9.4986708e-39
-0.029333336 -0.12085334 1.2320001 9.7752577e-39
-0.027074287 -0.12124572 1.2360001 1.2166589e-38
-0.02482 -0.12173619 1.2410001 1.3641719e-38
-0.022456191 -0.12173619 1.2410001 1.2447101e-38
-0.020157143 -0.12212857 1.245 1.2170514e-38
-0.017857142 -0.12261905 1.25 1.2724429e-38
-0.01547619 -0.12261905 1.25 1.1249299e-38
-0.013095238 -0.12261905 1.25 1.0046412e-38
-0.010714286 -0.12261905 1.25 1.0322999e-38
-0.0083333328 -0.12261905 1.25 1.2164376e-38
-0.0059523811 -0.12261905 1.25 1.3086333e-38
-0.0035714286 -0.12261905 1.25 1.2901578e-38
-0.081814282 -0.11975715 1.245 1.0230806e-38
-0.079442859 -0.11975715 1.245 7.1037424e-39
-0.077071428 -0.11975715 1.245 4.0612866e-39
-0.074699998 -0.11975715 1.245 4.7117035e-39
-0.072096191 -0.11937238 1.2410001 1.0981006e-38
-0.069732383 -0.11937238 1.2410001 1.2909877e-38
-0.067368567 -0.11937238 1.2410001 1.4753789e-38
-0.065004766 -0.11937238 1.2410001 1.4750572e-38
-0.062388573 -0.11889143 1.2360001 1.1892508e-38
-0.060034286 -0.11889143 1.2360001 1.2537818e-38
-0.057680003 -0.11889143 1.2360001 1.4842709e-38
-0.055146672 -0.11850668 1.2320001 1.4292869e-38
-0.052800007 -0.11850668 1.2320001 1.4385064e-38
-0.050453339 -0.11850668 1.2320001 1.2087669e-38
-0.04810667 -0.11850668 1.2320001 1.14423e-38
-0.045760002 -0.11850668 1.2320001 1.3834742e-38
-0.043413337 -0.11850668 1.2320001 1.5217677e-38
-0.041066669 -0.11850668 1.2320001 1.39248e-38
-0.038720001 -0.11850668 1.2320001 1.327943e-38
-0.03637334 -0.11850668 1.2320001 1.4753449e-38
-0.034026671 -0.11850668 1.2320001 1.6044188e-38
-0.031680003 -0.11850668 1.2320001 1.5582103e-38
-0.029333336 -0.11850668 1.2320001 1.4199168e-38
-0.027074287 -0.11889143 1.2360001 1.4015168e-38
-0.02482 -0.11937238 1.2410001 1.060393e-38
-0.022528572 -0.11975715 1.245 6.1857546e-39
-0.020238096 -0.1202381 1.25 5.7247765e-39
-0.017857142 -0.1202381 1.25 9.2238538e-39
-0.01547619 -0.1202381 1.25 9.9614188e-39
-0.013095238 -0.1202381 1.25 1.0504872e-38
-0.010714286 -0.1202381 1.25 1.0689263e-38
-0.0083333328 -0.1202381 1.25 1.2256572e-38
-0.0059523811 -0.1202381 1.25 1.2994137e-38
