# .PCD v0.7 - Point Cloud Data file format
VERSION 0.7
FIELDS x y z rgb
SIZE 4 4 4 4
TYPE F F F F
COUNT 1 1 1 1
WIDTH 1055
HEIGHT 1
VIEWPOINT 0 0 0 1 0 0 0
POINTS 1055
DATA ascii
0.053785719 -0.20199525 1.2550001 1.1624553e-38
0.056176193 -0.20199525 1.2550001 1.1624553e-38
0.058566671 -0.20199525 1.2550001 1.1532007e-38
0.060957149 -0.20199525 1.2550001 1.1439811e-38
0.063347623 -0.20199525 1.2550001 1.1439095e-38
0.065738104 -0.20199525 1.2550001 1.1070313e-38
0.068128571 -0.20199525 1.2550001 1.0610413e-38
0.070519052 -0.20199525 1.2550001 1.0333826e-38
0.072909534 -0.20199525 1.2550001 1.0333464e-38
0.075300008 -0.20199525 1.2550001 1.0333464e-38
0.077690482 -0.20199525 1.2550001 1.0239473e-38
0.080336191 -0.20263906 1.2590001 9.8706903e-39
0.017600002 -0.19594668 1.2320001 2.1850727e-38
0.019946668 -0.19594668 1.2320001 1.7525479e-38
0.022619048 -0.19880952 1.25 1.6511327e-38
0.025 -0.19880952 1.25 1.2458694e-38
0.027380953 -0.19880952 1.25 9.416238e-39
0.029761905 -0.19880952 1.25 1.1066741e-38
0.032142855 -0.19880952 1.25 1.1066741e-38
0.034661908 -0.19960478 1.2550001 1.1434776e-38
0.049160954 -0.20024095 1.2590001 1.2266322e-38
0.05155905 -0.20024095 1.2590001 1.2635105e-38
0.053785719 -0.19960478 1.2550001 1.2819499e-38
0.056176193 -0.19960478 1.2550001 1.300389e-38
0.058566671 -0.19960478 1.2550001 1.3188281e-38
0.060957149 -0.19960478 1.2550001 1.300389e-38
0.063347623 -0.19960478 1.2550001 1.2911694e-38
0.065738104 -0.19960478 1.2550001 1.2819499e-38
0.068128571 -0.19960478 1.2550001 1.2542912e-38
0.070519052 -0.19960478 1.2550001 1.2266325e-38
0.072909534 -0.19960478 1.2550001 1.1989382e-38
0.075300008 -0.19960478 1.2550001 1.1528404e-38
0.077690482 -0.19960478 1.2550001 1.1434776e-38
0.080336191 -0.20024095 1.2590001 1.1158189e-38
0.082471438 -0.19960478 1.2550001 1.1065273e-38
0.084861912 -0.19960478 1.2550001 1.0973078e-38
0.086904764 -0.19880952 1.25 1.0788331e-38
0.089285716 -0.19880952 1.25 1.0142961e-38
0.091666669 -0.19880952 1.25 9.04091e-39
0.094047621 -0.19880952 1.25 8.8565188e-39
0.096428573 -0.19880952 1.25 1.2720466e-38
0.098098099 -0.1973781 1.2410001 1.5855118e-38
0.012948572 -0.19422857 1.2360001 1.9544404e-38
0.015253334 -0.19360001 1.2320001 1.2723109e-38
0.017600002 -0.19360001 1.2320001 8.7586969e-39
0.019946668 -0.19360001 1.2320001 7.939624e-39
0.022293337 -0.19360001 1.2320001 9.0459715e-39
0.024900001 -0.19564286 1.245 9.9653873e-39
0.027380953 -0.19642857 1.25 1.0610757e-38
0.029761905 -0.19642857 1.25 1.1621672e-38
0.032142855 -0.19642857 1.25 1.1990454e-38
0.034661908 -0.19721429 1.2550001 1.2541477e-38
0.037052382 -0.19721429 1.2550001 1.3186846e-38
0.03944286 -0.19721429 1.2550001 1.3462707e-38
0.042133335 -0.19862857 1.2640001 1.383149e-38
0.044540953 -0.19862857 1.2640001 1.4015874e-38
0.046762858 -0.19784287 1.2590001 1.4015874e-38
0.049160954 -0.19784287 1.2590001 1.374002e-38
0.05155905 -0.19784287 1.2590001 1.374002e-38
0.053957146 -0.19784287 1.2590001 1.3923691e-38
0.056355242 -0.19784287 1.2590001 1.3923691e-38
0.058753334 -0.19784287 1.2590001 1.3648543e-38
0.061151426 -0.19784287 1.2590001 1.3740739e-38
0.063549526 -0.19784287 1.2590001 1.4016234e-38
0.065947622 -0.19784287 1.2590001 1.3831843e-38
0.068345711 -0.19784287 1.2590001 1.3648531e-38
0.070743814 -0.19784287 1.2590001 1.3464139e-38
0.07314191 -0.19784287 1.2590001 1.3279398e-38
0.075539999 -0.19784287 1.2590001 1.3095007e-38
0.077938102 -0.19784287 1.2590001 1.2817711e-38
0.080336191 -0.19784287 1.2590001 1.2633319e-38
0.082471438 -0.19721429 1.2550001 1.2632243e-38
0.084861912 -0.19721429 1.2550001 1.2447852e-38
0.086904764 -0.19642857 1.25 1.198723e-38
0.089285716 -0.19642857 1.25 1.1710643e-38
0.091666669 -0.19642857 1.25 1.0513539e-38
0.094047621 -0.19642857 1.25 9.3149956e-39
0.096428573 -0.19642857 1.25 8.2097018e-39
0.098098099 -0.1950143 1.2410001 6.181398e-39
0.10046192 -0.1950143 1.2410001 1.1894231e-38
0.010594286 -0.1918743 1.2360001 2.2310273e-38
0.012948572 -0.1918743 1.2360001 1.4658036e-38
0.015253334 -0.19125335 1.2320001 1.4280246e-38
0.017600002 -0.19125335 1.2320001 1.1053399e-38
0.019946668 -0.19125335 1.2320001 9.1327497e-39
0.022293337 -0.19125335 1.2320001 1.0515684e-38
0.024900001 -0.19327143 1.245 1.2170524e-38
0.027380953 -0.19404761 1.25 1.2631502e-38
0.029761905 -0.19404761 1.25 1.309248e-38
0.032142855 -0.19404761 1.25 1.3184676e-38
0.034661908 -0.19482383 1.2550001 1.3093565e-38
0.037052382 -0.19482383 1.2550001 1.3277956e-38
0.03944286 -0.19482383 1.2550001 1.3370152e-38
0.042133335 -0.19622096 1.2640001 1.3554543e-38
0.044540953 -0.19622096 1.2640001 1.3462707e-38
0.046762858 -0.19544476 1.2590001 1.3647099e-38
0.049160954 -0.19544476 1.2590001 1.3739294e-38
0.05176381 -0.19622096 1.2640001 1.383149e-38
0.053957146 -0.19544476 1.2590001 1.3648178e-38
0.056355242 -0.19544476 1.2590001 1.3648178e-38
0.058753334 -0.19544476 1.2590001 1.364818e-38
0.061151426 -0.19544476 1.2590001 1.3555985e-38
0.063549526 -0.19544476 1.2590001 1.3463786e-38
0.065947622 -0.19544476 1.2590001 1.3463786e-38
0.068617143 -0.19622096 1.2640001 1.3463789e-38
0.071024768 -0.19622096 1.2640001 1.3279398e-38
0.07314191 -0.19544476 1.2590001 1.2910259e-38
0.075539999 -0.19544476 1.2590001 1.2818064e-38
0.077938102 -0.19544476 1.2590001 1.2724795e-38
0.080336191 -0.19544476 1.2590001 1.2724795e-38
0.082734287 -0.19544476 1.2590001 1.2448928e-38
0.084861912 -0.19482383 1.2550001 1.2080146e-38
0.086904764 -0.19404761 1.25 1.2079779e-38
0.089285716 -0.19404761 1.25 1.1803192e-38
0.091666669 -0.19404761 1.25 1.1893589e-38
0.093671434 -0.19327143 1.245 1.1432611e-38
0.096042857 -0.19327143 1.245 9.04091e-39
0.098098099 -0.19265048 1.2410001 7.3813887e-39
0.10046192 -0.19265048 1.2410001 8.8567598e-39
0.0082400003 -0.18952 1.2360001 2.166527e-38
0.010594286 -0.18952 1.2360001 2.0007155e-38
0.012948572 -0.18952 1.2360001 1.27237e-38
0.015253334 -0.18890668 1.2320001 1.0698306e-38
0.017600002 -0.18890668 1.2320001 1.0513914e-38
0.019946668 -0.18890668 1.2320001 1.1619148e-38
0.022293337 -0.18890668 1.2320001 1.2172322e-38
0.025 -0.19166666 1.25 1.2355647e-38
0.027380953 -0.19166666 1.25 1.2540038e-38
0.029761905 -0.19166666 1.25 1.2632233e-38
0.03227143 -0.19243336 1.2550001 1.3001016e-38
0.034661908 -0.19243336 1.2550001 1.3001732e-38
0.037052382 -0.19243336 1.2550001 1.3093928e-38
0.039568573 -0.19304667 1.2590001 1.3277956e-38
0.042133335 -0.19381334 1.2640001 1.3462347e-38
0.044540953 -0.19381334 1.2640001 1.3370517e-38
0.046948571 -0.19381334 1.2640001 1.3462713e-38
0.049356192 -0.19381334 1.2640001 1.3739647e-38
0.05176381 -0.19381334 1.2640001 1.3739647e-38
0.054171428 -0.19381334 1.2640001 1.3739294e-38
0.05657905 -0.19381334 1.2640001 1.383149e-38
0.058986671 -0.19381334 1.2640001 1.3922606e-38
0.061394289 -0.19381334 1.2640001 1.3738215e-38
0.063801907 -0.19381334 1.2640001 1.3279398e-38
0.066209525 -0.19381334 1.2640001 1.3279398e-38
0.068617143 -0.19381334 1.2640001 1.3094298e-38
0.071024768 -0.19381334 1.2640001 1.2817711e-38
0.073432386 -0.19381334 1.2640001 1.2725515e-38
0.075840004 -0.19381334 1.2640001 1.2633319e-38
0.077938102 -0.19304667 1.2590001 1.2356735e-38
0.080336191 -0.19304667 1.2590001 1.2356735e-38
0.082734287 -0.19304667 1.2590001 1.1987953e-38
0.084861912 -0.19243336 1.2550001 1.1711366e-38
0.087252386 -0.19243336 1.2550001 1.1710287e-38
0.08964286 -0.19243336 1.2550001 1.1802483e-38
0.091666669 -0.19166666 1.25 1.1986864e-38
0.093671434 -0.1909 1.245 1.1802473e-38
0.096042857 -0.1909 1.245 1.1435482e-38
0.098098099 -0.19028668 1.2410001 1.1804265e-38
0.10046192 -0.19028668 1.2410001 1.0606476e-38
0.0082400003 -0.18716572 1.2360001 2.1481241e-38
0.010594286 -0.18716572 1.2360001 1.7427533e-38
0.012948572 -0.18716572 1.2360001 1.1803599e-38
0.015302857 -0.18716572 1.2360001 1.0424568e-38
0.017728573 -0.18792287 1.2410001 1.1069937e-38
0.020092381 -0.18792287 1.2410001 1.2446751e-38
0.022528572 -0.18852857 1.245 1.2631142e-38
0.025 -0.18928571 1.25 1.244676e-38
0.027380953 -0.18928571 1.25 1.2538956e-38
0.029761905 -0.18928571 1.25 1.2448195e-38
0.03227143 -0.19004287 1.2550001 1.2909173e-38
0.034661908 -0.19004287 1.2550001 1.2817341e-38
0.037052382 -0.19004287 1.2550001 1.2909536e-38
0.039568573 -0.19064859 1.2590001 1.3001013e-38
0.042133335 -0.19140573 1.2640001 1.3093209e-38
0.044540953 -0.19140573 1.2640001 1.3186126e-38
0.046948571 -0.19140573 1.2640001 1.3462713e-38
0.049356192 -0.19140573 1.2640001 1.346271e-38
0.051927619 -0.19201143 1.268 1.3370515e-38
0.054342858 -0.19201143 1.268 1.3370152e-38
0.056758095 -0.19201143 1.268 1.3554543e-38
0.058986671 -0.19140573 1.2640001 1.3461991e-38
0.061394289 -0.19140573 1.2640001 1.3461991e-38
0.063801907 -0.19140573 1.2640001 1.3370515e-38
0.066209525 -0.19140573 1.2640001 1.3278319e-38
0.068834282 -0.19201143 1.268 1.3001735e-38
0.07124953 -0.19201143 1.268 1.3001735e-38
0.073432386 -0.19140573 1.2640001 1.2818064e-38
0.075840004 -0.19140573 1.2640001 1.2633673e-38
0.077938102 -0.19064859 1.2590001 1.1897187e-38
0.080336191 -0.19064859 1.2590001 1.1897187e-38
0.082734287 -0.19064859 1.2590001 1.1804268e-38
0.084861912 -0.19004287 1.2550001 1.1712072e-38
0.087252386 -0.19004287 1.2550001 1.1803192e-38
0.089285716 -0.18928571 1.25 1.1987583e-38
0.091666669 -0.18928571 1.25 1.2170902e-38
0.093671434 -0.18852857 1.245 1.2078707e-38
0.096042857 -0.18852857 1.245 1.1895382e-38
0.098414287 -0.18852857 1.245 1.0973425e-38
0.010594286 -0.18481143 1.2360001 2.1113543e-38
0.012948572 -0.18481143 1.2360001 1.4291067e-38
0.015302857 -0.18481143 1.2360001 1.1344732e-38
0.017728573 -0.18555905 1.2410001 1.1252536e-38
0.020092381 -0.18555905 1.2410001 1.2355644e-38
0.022528572 -0.18615714 1.245 1.2908818e-38
0.025 -0.18690476 1.25 1.2999934e-38
0.027380953 -0.18690476 1.25 1.2815543e-38
0.029761905 -0.18690476 1.25 1.2632587e-38
0.03227143 -0.18765239 1.2550001 1.3001369e-38
0.034661908 -0.18765239 1.2550001 1.2908818e-38
0.037052382 -0.18765239 1.2550001 1.2908818e-38
0.039568573 -0.18825048 1.2590001 1.290882e-38
0.042133335 -0.1889981 1.2640001 1.3001016e-38
0.044540953 -0.1889981 1.2640001 1.3001735e-38
0.047097143 -0.18959619 1.268 1.3186126e-38
0.049512379 -0.18959619 1.268 1.3186126e-38
0.052132379 -0.19034381 1.273 1.3186126e-38
0.054342858 -0.18959619 1.268 1.318576e-38
0.056758095 -0.18959619 1.268 1.3370152e-38
0.059173334 -0.18959619 1.268 1.3461991e-38
0.06158857 -0.18959619 1.268 1.3369796e-38
0.063801907 -0.1889981 1.2640001 1.3186126e-38
0.066209525 -0.1889981 1.2640001 1.309393e-38
0.068834282 -0.18959619 1.268 1.2909539e-38
0.07124953 -0.18959619 1.268 1.3001735e-38
0.073664762 -0.18959619 1.268 1.2910259e-38
0.075840004 -0.1889981 1.2640001 1.2818064e-38
0.077938102 -0.18825048 1.2590001 1.2725148e-38
0.080336191 -0.18825048 1.2590001 1.2817344e-38
0.082734287 -0.18825048 1.2590001 1.2909887e-38
0.084861912 -0.18765239 1.2550001 1.3094278e-38
0.087252386 -0.18765239 1.2550001 1.3095007e-38
0.089285716 -0.18690476 1.25 1.3555985e-38
0.091666669 -0.18690476 1.25 1.2356738e-38
0.094047621 -0.18690476 1.25 1.2080151e-38
0.093651436 -0.18152192 1.2140001 1.0421371e-38
0.095963813 -0.18152192 1.2140001 7.9320892e-39
0.098276198 -0.18152192 1.2140001 1.0699034e-38
0.015302857 -0.18245716 1.2360001 1.3092874e-38
0.017657144 -0.18245716 1.2360001 1.0327005e-38
0.020092381 -0.18319525 1.2410001 1.0788671e-38
0.022528572 -0.18378572 1.245 1.2540388e-38
0.024900001 -0.18378572 1.245 1.3093565e-38
0.027380953 -0.18452381 1.25 1.2909173e-38
0.029761905 -0.18452381 1.25 1.3001369e-38
0.03227143 -0.18526192 1.2550001 1.3001369e-38
0.034661908 -0.18526192 1.2550001 1.2908818e-38
0.037170477 -0.18585238 1.2590001 1.3001013e-38
0.039725717 -0.18659049 1.2640001 1.3001013e-38
0.042266667 -0.18718095 1.268 1.3093209e-38
0.044681903 -0.18718095 1.268 1.3093928e-38
0.047097143 -0.18718095 1.268 1.3186123e-38
0.049512379 -0.18718095 1.268 1.3002811e-38
0.052132379 -0.18791905 1.273 1.3095007e-38
0.054557141 -0.18791905 1.273 1.3370517e-38
0.056981906 -0.18791905 1.273 1.3554909e-38
0.059406664 -0.18791905 1.273 1.3647104e-38
0.061831426 -0.18791905 1.273 1.3647104e-38
0.06400381 -0.18718095 1.268 1.3554909e-38
0.066419043 -0.18718095 1.268 1.3370517e-38
0.068834282 -0.18718095 1.268 1.3094651e-38
0.07124953 -0.18718095 1.268 1.3002455e-38
0.073664762 -0.18718095 1.268 1.3002105e-38
0.075840004 -0.18659049 1.2640001 1.3002105e-38
0.078247622 -0.18659049 1.2640001 1.3185404e-38
0.080336191 -0.18585238 1.2590001 1.3554187e-38
0.082734287 -0.18585238 1.2590001 1.4014802e-38
0.084861912 -0.18526192 1.2550001 1.3092846e-38
0.082663804 -0.17551905 1.189 1.2451432e-38
0.084928572 -0.17551905 1.189 1.2635824e-38
0.087486669 -0.17610954 1.1930001 1.1714243e-38
0.090060003 -0.1767 1.197 1.1253265e-38
0.092725717 -0.1774381 1.202 9.3185759e-39
0.095015235 -0.1774381 1.202 7.1980764e-39
0.097628579 -0.17802858 1.2060001 1.0606488e-38
0.099925719 -0.17802858 1.2060001 2.0655811e-38
0.015253334 -0.17952001 1.2320001 1.4200673e-38
0.017600002 -0.17952001 1.2320001 6.0874577e-39
0.020092381 -0.18083143 1.2410001 5.6318522e-39
0.022528572 -0.18141429 1.245 7.8445473e-39
0.024900001 -0.18141429 1.245 1.1065611e-38
0.027380953 -0.18214285 1.25 1.1987567e-38
0.029761905 -0.18214285 1.25 1.2264507e-38
0.03227143 -0.18287145 1.2550001 1.2356703e-38
0.034661908 -0.18287145 1.2550001 1.1989029e-38
0.037318096 -0.18418287 1.2640001 1.1896833e-38
0.039725717 -0.18418287 1.2640001 1.2081225e-38
0.042266667 -0.18476571 1.268 1.2265616e-38
0.044681903 -0.18476571 1.268 1.2726224e-38
0.047097143 -0.18476571 1.268 1.3187202e-38
0.049512379 -0.18476571 1.268 1.3279398e-38
0.052132379 -0.18549427 1.273 1.3832572e-38
0.054557141 -0.18549427 1.273 1.4108082e-38
0.057205718 -0.18622287 1.2780001 1.4569061e-38
0.059640005 -0.18622287 1.2780001 1.3740739e-38
0.062074292 -0.18622287 1.2780001 1.3187565e-38
0.064256191 -0.18549427 1.273 1.226778e-38
0.066680953 -0.18549427 1.273 1.1898997e-38
0.069105707 -0.18549427 1.273 1.2543272e-38
0.071530476 -0.18549427 1.273 1.3188641e-38
0.073955238 -0.18549427 1.273 1.3003903e-38
0.076080002 -0.18476571 1.268 1.2358533e-38
0.07310953 -0.17208859 1.1810001 1.2634026e-38
0.075359054 -0.17208859 1.1810001 1.3187199e-38
0.078134283 -0.1732543 1.189 1.1989029e-38
0.080399044 -0.1732543 1.189 8.5777907e-39
0.082663804 -0.1732543 1.189 8.3962889e-39
0.084928572 -0.1732543 1.189 1.0608984e-38
0.087486669 -0.17383714 1.1930001 1.0425264e-38
0.090060003 -0.17442 1.197 6.6452432e-39
0.092725717 -0.17514858 1.202 5.5414866e-39
0.095015235 -0.17514858 1.202 6.9244211e-39
0.097628579 -0.17573145 1.2060001 1.226458e-38
0.099925719 -0.17573145 1.2060001 2.0285599e-38
0.015253334 -0.17717335 1.2320001 1.4477989e-38
0.017414287 -0.17530382 1.2190001 4.7974476e-39
0.019736191 -0.17530382 1.2190001 3.9733846e-39
0.021967622 -0.17458478 1.2140001 8.3065792e-39
0.02428 -0.17458478 1.2140001 1.0420627e-38
0.027380953 -0.1797619 1.25 1.0236236e-38
0.029761905 -0.1797619 1.25 9.8695763e-39
0.03227143 -0.18048097 1.2550001 1.0514946e-38
0.034661908 -0.18048097 1.2550001 1.152876e-38
0.037436187 -0.18235047 1.268 1.1713151e-38
0.039851431 -0.18235047 1.268 1.0610769e-38
0.042266667 -0.18235047 1.268 1.0426378e-38
0.044681903 -0.18235047 1.268 1.1437656e-38
0.047282856 -0.18306953 1.273 1.282059e-38
0.049707618 -0.18306953 1.273 1.3280487e-38
0.052337147 -0.18378858 1.2780001 1.2819509e-38
0.054771435 -0.18378858 1.2780001 1.3095704e-38
0.052684762 -0.16926381 1.177 1.4109856e-38
0.054926671 -0.16926381 1.177 1.3281934e-38
0.057557143 -0.1704143 1.1850001 1.1714609e-38
0.059612386 -0.16983907 1.1810001 9.2328613e-39
0.061861914 -0.16983907 1.1810001 9.3250569e-39
0.064328574 -0.1704143 1.1850001 1.0978843e-38
0.066585712 -0.1704143 1.1850001 1.2453973e-38
0.068842858 -0.1704143 1.1850001 1.2453613e-38
0.070860006 -0.16983907 1.1810001 1.0886287e-38
0.07310953 -0.16983907 1.1810001 1.1345085e-38
0.075359054 -0.16983907 1.1810001 1.1990454e-38
0.078134283 -0.17098953 1.189 1.1069224e-38
0.080399044 -0.17098953 1.189 8.3955504e-39
0.082663804 -0.17098953 1.189 8.3008437e-39
0.085214287 -0.17156476 1.1930001 1.0882321e-38
0.087486669 -0.17156476 1.1930001 9.5051196e-39
0.090060003 -0.17214 1.197 4.9875337e-39
0.09234 -0.17214 1.197 3.9791551e-39
0.094620004 -0.17214 1.197 6.5606328e-39
0.097304761 -0.17285904 1.202 1.3463111e-38
0.099594288 -0.17285904 1.202 2.0193392e-38
0.01493143 -0.17113715 1.2060001 1.5028999e-38
0.017228574 -0.17113715 1.2060001 4.4265015e-39
0.019525714 -0.17113715 1.2060001 5.3541933e-39
0.021822859 -0.17113715 1.2060001 1.0609344e-38
0.024040001 -0.17056952 1.202 1.0698659e-38
0.026219999 -0.16985999 1.197 8.393768e-39
0.0285 -0.16985999 1.197 6.6492033e-39
0.030677145 -0.16929239 1.1930001 7.3867683e-39
0.032949526 -0.16929239 1.1930001 9.2267629e-39
0.035103809 -0.16872476 1.189 1.180824e-38
0.03736857 -0.16872476 1.189 1.1990101e-38
0.039500002 -0.16815715 1.1850001 1.1621318e-38
0.041757144 -0.16815715 1.1850001 1.2451427e-38
0.04401429 -0.16815715 1.1850001 1.364997e-38
0.046271432 -0.16815715 1.1850001 1.2727316e-38
0.048364766 -0.16758953 1.1810001 8.9472949e-39
0.05061429 -0.16758953 1.1810001 1.0055049e-38
0.052684762 -0.1670219 1.177 1.3742875e-38
0.054926671 -0.1670219 1.177 1.383366e-38
0.057557143 -0.16815715 1.1850001 1.1344378e-38
0.059612386 -0.16758953 1.1810001 9.5076069e-39
0.061861914 -0.16758953 1.1810001 9.5998025e-39
0.064328574 -0.16815715 1.1850001 1.1532726e-38
0.066585712 -0.16815715 1.1850001 1.2546878e-38
0.068842858 -0.16815715 1.1850001 1.1901152e-38
0.070860006 -0.16758953 1.1810001 9.2274789e-39
0.07310953 -0.16758953 1.1810001 9.2289265e-39
0.075614288 -0.16815715 1.1850001 1.0611861e-38
0.078134283 -0.16872476 1.189 1.1623116e-38
0.080399044 -0.16872476 1.189 1.2084095e-38
0.082663804 -0.16872476 1.189 1.1622019e-38
0.085214287 -0.16929239 1.1930001 9.3171284e-39
0.087486669 -0.16929239 1.1930001 5.4528587e-39
0.090060003 -0.16985999 1.197 3.0557723e-39
0.09234 -0.16985999 1.197 9.4178187e-40
0.094620004 -0.16985999 1.197 5.0905852e-39
0.097304761 -0.17056952 1.202 1.3463824e-38
0.099594288 -0.17056952 1.202 2.010191e-38
0.01493143 -0.16884001 1.2060001 1.4754929e-38
0.017228574 -0.16884001 1.2060001 3.3226706e-39
0.019525714 -0.16884001 1.2060001 5.9059055e-39
0.021750478 -0.16828001 1.202 1.0792274e-38
0.024040001 -0.16828001 1.202 9.6881039e-39
0.026219999 -0.16757999 1.197 5.9080831e-39
0.0285 -0.16757999 1.197 3.705092e-39
0.030677145 -0.16702001 1.1930001 3.7972876e-39
0.032839045 -0.16646001 1.189 8.395891e-39
0.035103809 -0.16646001 1.189 1.1530542e-38
0.03724286 -0.16590001 1.1850001 1.2818064e-38
0.039500002 -0.16590001 1.1850001 1.3094651e-38
0.041757144 -0.16590001 1.1850001 1.2820227e-38
0.04401429 -0.16590001 1.1850001 1.2728032e-38
0.046271432 -0.16590001 1.1850001 1.1253265e-38
0.048364766 -0.16534001 1.1810001 7.934222e-39
0.05061429 -0.16534001 1.1810001 8.3022478e-39
0.052863814 -0.16534001 1.1810001 1.162129e-38
0.055113338 -0.16534001 1.1810001 1.3556329e-38
0.057557143 -0.16590001 1.1850001 1.2357786e-38
0.059814289 -0.16590001 1.1850001 1.0978823e-38
0.062071431 -0.16590001 1.1850001 1.1716388e-38
0.064328574 -0.16590001 1.1850001 1.2637991e-38
0.066585712 -0.16590001 1.1850001 1.2084818e-38
0.068842858 -0.16590001 1.1850001 1.0152672e-38
0.071100004 -0.16590001 1.1850001 8.6775421e-39
0.073357143 -0.16590001 1.1850001 8.0354125e-39
0.075869523 -0.16646001 1.189 8.6807819e-39
0.078134283 -0.16646001 1.189 1.1255054e-38
0.080669522 -0.16702001 1.1930001 1.2453597e-38
0.082941905 -0.16702001 1.1930001 1.1898997e-38
0.085214287 -0.16702001 1.1930001 6.0906723e-39
0.087486669 -0.16702001 1.1930001 4.1635394e-39
0.090060003 -0.16757999 1.197 3.2415831e-39
0.09234 -0.16757999 1.197 8.5064002e-40
0.094620004 -0.16757999 1.197 5.3682259e-39
0.097304761 -0.16828001 1.202 1.4107396e-38
0.099594288 -0.16828001 1.202 2.0376699e-38
0.01493143 -0.16654286 1.2060001 1.5582529e-38
0.017228574 -0.16654286 1.2060001 2.7673361e-39
0.019525714 -0.16654286 1.2060001 3.0543346e-39
0.021750478 -0.16599049 1.202 7.6641161e-39
0.024040001 -0.16599049 1.202 8.0299951e-39
0.026219999 -0.1653 1.197 5.079735e-39
0.0285 -0.1653 1.197 3.154477e-39
0.030677145 -0.16474763 1.1930001 3.0622814e-39
0.032839045 -0.16419524 1.189 4.3486761e-39
0.035103809 -0.16419524 1.189 7.6677188e-39
0.03724286 -0.16364287 1.1850001 1.2542887e-38
0.039500002 -0.16364287 1.1850001 1.374143e-38
0.041757144 -0.16364287 1.1850001 1.3371558e-38
0.04401429 -0.16364287 1.1850001 8.9461683e-39
0.046271432 -0.16364287 1.1850001 7.8430955e-39
0.048528574 -0.16364287 1.1850001 7.8430955e-39
0.050785717 -0.16364287 1.1850001 8.0256987e-39
0.052863814 -0.16309048 1.1810001 8.3022856e-39
0.055113338 -0.16309048 1.1810001 9.5958509e-39
0.057557143 -0.16364287 1.1850001 1.2730502e-38
0.059814289 -0.16364287 1.1850001 1.3097543e-38
0.062071431 -0.16364287 1.1850001 1.3189739e-38
0.064328574 -0.16364287 1.1850001 1.2270628e-38
0.066585712 -0.16364287 1.1850001 9.7813463e-39
0.068842858 -0.16364287 1.1850001 8.3116393e-39
0.071100004 -0.16364287 1.1850001 8.4038349e-39
0.073357143 -0.16364287 1.1850001 8.0347091e-39
0.075869523 -0.16419524 1.189 7.7581222e-39
0.078134283 -0.16419524 1.189 1.0793343e-38
0.080669522 -0.16474763 1.1930001 1.2176278e-38
0.082941905 -0.16474763 1.1930001 1.116034e-38
0.085214287 -0.16474763 1.1930001 5.3520157e-39
0.087486669 -0.16474763 1.1930001 2.0499091e-39
0.090060003 -0.1653 1.197 1.6811266e-39
0.09234 -0.1653 1.197 1.6796944e-39
0.094620004 -0.1653 1.197 8.0411929e-39
0.097304761 -0.16599049 1.202 1.4385064e-38
0.099594288 -0.16599049 1.202 2.0193389e-38
0.014980952 -0.16479047 1.21 1.650269e-38
0.017285716 -0.16479047 1.21 4.1484754e-39
0.019525714 -0.16424572 1.2060001 1.9501226e-39
0.021822859 -0.16424572 1.2060001 7.1130779e-39
0.024040001 -0.16370095 1.202 7.4772067e-39
0.026219999 -0.16302 1.197 5.4489028e-39
0.0285 -0.16302 1.197 4.624547e-39
0.030677145 -0.16247524 1.1930001 4.4401557e-39
0.032839045 -0.16193049 1.189 2.5112404e-39
0.035103809 -0.16193049 1.189 4.1707617e-39
0.03724286 -0.16138572 1.1850001 1.0147633e-38
0.039500002 -0.16138572 1.1850001 1.2083741e-38
0.041757144 -0.16138572 1.1850001 1.1894666e-38
0.04401429 -0.16138572 1.1850001 8.2068404e-39
0.046271432 -0.16138572 1.1850001 7.6558274e-39
0.048528574 -0.16138572 1.1850001 8.3933924e-39
0.050785717 -0.16138572 1.1850001 8.5774306e-39
0.053042859 -0.16138572 1.1850001 7.8398655e-39
0.055300001 -0.16138572 1.1850001 7.3835215e-39
0.057557143 -0.16138572 1.1850001 1.1901107e-38
0.059814289 -0.16138572 1.1850001 1.3005345e-38
0.062071431 -0.16138572 1.1850001 1.2728758e-38
0.064328574 -0.16138572 1.1850001 1.0613648e-38
0.066810474 -0.16193049 1.189 8.5853437e-39
0.069075234 -0.16193049 1.189 8.0361356e-39
0.071339995 -0.16193049 1.189 8.3127225e-39
0.073604763 -0.16193049 1.189 8.2194437e-39
0.075869523 -0.16193049 1.189 7.7584655e-39
0.078397147 -0.16247524 1.1930001 9.5044217e-39
0.080669522 -0.16247524 1.1930001 1.1624921e-38
0.082941905 -0.16247524 1.1930001 9.7806527e-39
0.085214287 -0.16247524 1.1930001 5.0786756e-39
0.087779999 -0.16302 1.197 2.6005493e-39
0.09043619 -0.16370095 1.202 2.0473755e-39
0.092725717 -0.16370095 1.202 2.9675396e-39
0.095015235 -0.16370095 1.202 1.0250994e-38
0.097304761 -0.16370095 1.202 1.5029365e-38
0.099594288 -0.16370095 1.202 1.9915733e-38
0.014980952 -0.16248572 1.21 1.7607605e-38
0.017285716 -0.16248572 1.21 5.9909559e-39
0.019525714 -0.16194858 1.2060001 4.710249e-39
0.021822859 -0.16194858 1.2060001 9.3200305e-39
0.024040001 -0.16141143 1.202 8.9512424e-39
0.026219999 -0.16074 1.197 5.6321997e-39
0.0285 -0.16074 1.197 3.8884141e-39
0.030780001 -0.16074 1.197 4.3493922e-39
0.032949526 -0.16020286 1.1930001 2.6027353e-39
0.035221905 -0.16020286 1.1930001 2.9715179e-39
0.03736857 -0.15966572 1.189 9.4115044e-39
0.039500002 -0.15912858 1.1850001 1.1347613e-38
0.041757144 -0.15912858 1.1850001 1.1434043e-38
0.04401429 -0.15912858 1.1850001 7.9306094e-39
0.046427619 -0.15966572 1.189 7.5647206e-39
0.048692379 -0.15966572 1.189 8.3022856e-39
0.050957143 -0.15966572 1.189 8.5774334e-39
0.053042859 -0.15912858 1.1850001 8.2086509e-39
0.055300001 -0.15912858 1.1850001 7.7487587e-39
0.057557143 -0.15912858 1.1850001 1.0699019e-38
0.059814289 -0.15912858 1.1850001 1.2360669e-38
0.062071431 -0.15912858 1.1850001 1.2452864e-38
0.064545713 -0.15966572 1.189 1.0521808e-38
0.066810474 -0.15966572 1.189 8.4013084e-39
0.069075234 -0.15966572 1.189 8.0354322e-39
0.071339995 -0.15966572 1.189 8.1276278e-39
0.073852383 -0.16020286 1.1930001 8.1265292e-39
0.076124765 -0.16020286 1.1930001 8.0343335e-39
0.078397147 -0.16020286 1.1930001 1.0148359e-38
0.080940001 -0.16074 1.197 1.2637641e-38
0.083220005 -0.16074 1.197 1.1714571e-38
0.085500002 -0.16074 1.197 5.7218548e-39
0.087779999 -0.16074 1.197 3.7969345e-39
0.09043619 -0.16141143 1.202 3.7969345e-39
0.092725717 -0.16141143 1.202 4.4394228e-39
0.095331438 -0.16194858 1.2060001 1.2183856e-38
0.097628579 -0.16194858 1.2060001 1.5858775e-38
0.099925719 -0.16194858 1.2060001 2.0099774e-38
0.015030477 -0.16071048 1.2140001 1.8252965e-38
0.017285716 -0.16018096 1.21 6.9129024e-39
0.019525714 -0.15965144 1.2060001 6.1792554e-39
0.021822859 -0.15965144 1.2060001 1.0143667e-38
0.024040001 -0.1591219 1.202 8.950892e-39
0.026329523 -0.1591219 1.202 6.3694144e-39
0.0285 -0.15846001 1.197 3.9802566e-39
0.030780001 -0.15846001 1.197 4.1646478e-39
0.033059999 -0.15846001 1.197 1.9587924e-39
0.03534 -0.15846001 1.197 3.802705e-39
0.037494287 -0.15793048 1.1930001 9.4107884e-39
0.039766666 -0.15793048 1.1930001 1.1439092e-38
0.041898094 -0.15740095 1.189 1.1065994e-38
0.044162858 -0.15740095 1.189 7.8391467e-39
0.046427619 -0.15740095 1.189 7.8394998e-39
0.048692379 -0.15740095 1.189 8.4848692e-39
0.050957143 -0.15740095 1.189 8.6692605e-39
0.053042859 -0.15687144 1.1850001 8.2082823e-39
0.055300001 -0.15687144 1.1850001 7.840569e-39
0.057557143 -0.15687144 1.1850001 1.162059e-38
0.059814289 -0.15687144 1.1850001 1.199083e-38
0.062280957 -0.15740095 1.189 1.2359612e-38
0.064545713 -0.15740095 1.189 9.8771797e-39
0.066810474 -0.15740095 1.189 8.2176584e-39
0.069075234 -0.15740095 1.189 8.0347091e-39
0.07158 -0.15793048 1.1930001 8.1269047e-39
0.073852383 -0.15793048 1.1930001 8.2187276e-39
0.076124765 -0.15793048 1.1930001 8.4953145e-39
0.078397147 -0.15793048 1.1930001 1.0699375e-38
0.080940001 -0.15846001 1.197 1.2082309e-38
0.083220005 -0.15846001 1.197 1.1530568e-38
0.085500002 -0.15846001 1.197 7.197373e-39
0.088146664 -0.1591219 1.202 5.3585093e-39
0.09043619 -0.1591219 1.202 5.2663136e-39
0.09303429 -0.15965144 1.2060001 5.4506755e-39
0.095331438 -0.15965144 1.2060001 1.2641935e-38
0.097628579 -0.15965144 1.2060001 1.6135359e-38
0.099925719 -0.15965144 1.2060001 1.9823184e-38
0.017342858 -0.15839811 1.2140001 7.834493e-39
0.019525714 -0.1573543 1.2060001 4.8914032e-39
0.021822859 -0.1573543 1.2060001 7.5650765e-39
0.024120001 -0.1573543 1.2060001 7.9353108e-39
0.026329523 -0.15683238 1.202 9.6870277e-39
0.028619049 -0.15683238 1.202 6.6485446e-39
0.030780001 -0.15617999 1.197 4.3436539e-39
0.033059999 -0.15617999 1.197 5.4528587e-39
0.03534 -0.15617999 1.197 9.9704446e-39
0.037620001 -0.15617999 1.197 1.2359237e-38
0.039766666 -0.1556581 1.1930001 1.3281193e-38
0.041898094 -0.1551362 1.189 1.3186108e-38
0.044162858 -0.1551362 1.189 1.0143652e-38
0.046427619 -0.1551362 1.189 7.5643703e-39
0.048692379 -0.1551362 1.189 7.379979e-39
0.050957143 -0.1551362 1.189 7.5650989e-39
0.053042859 -0.15461428 1.1850001 8.5792509e-39
0.055300001 -0.15461428 1.1850001 1.0329115e-38
0.057557143 -0.15461428 1.1850001 1.3924745e-38
0.060016192 -0.1551362 1.189 1.3648906e-38
0.062280957 -0.1551362 1.189 1.3556711e-38
0.064762861 -0.1556581 1.1930001 1.2086262e-38
0.067035235 -0.1556581 1.1930001 1.0518937e-38
0.069307618 -0.1556581 1.1930001 8.1261915e-39
0.07158 -0.1556581 1.1930001 7.9418002e-39
0.073852383 -0.1556581 1.1930001 9.5055232e-39
0.076380007 -0.15617999 1.197 1.1349436e-38
0.078660004 -0.15617999 1.197 1.152912e-38
0.080940001 -0.15617999 1.197 1.0146186e-38
0.083220005 -0.15617999 1.197 1.0423867e-38
0.085500002 -0.15617999 1.197 1.1161432e-38
0.088146664 -0.15683238 1.202 1.0056511e-38
0.090737149 -0.1573543 1.2060001 7.7516202e-39
0.09303429 -0.1573543 1.2060001 5.2680989e-39
0.095331438 -0.1573543 1.2060001 1.2090576e-38
0.097304761 -0.15683238 1.202 1.6319741e-38
0.099594288 -0.15683238 1.202 1.9454392e-38
0.017342858 -0.15608573 1.2140001 8.5724111e-39
0.019590477 -0.15557143 1.21 3.6039084e-39
0.021895239 -0.15557143 1.21 5.8166036e-39
0.024120001 -0.15505715 1.2060001 7.4732284e-39
0.026329523 -0.15454286 1.202 1.0239097e-38
0.028619049 -0.15454286 1.202 9.0434562e-39
0.030908573 -0.15454286 1.202 6.5541742e-39
0.033059999 -0.1539 1.197 7.660519e-39
0.03534 -0.1539 1.197 1.1348344e-38
0.037620001 -0.1539 1.197 1.2634398e-38
0.039900001 -0.1539 1.197 1.2357812e-38
0.042039048 -0.15338571 1.1930001 1.2359609e-38
0.04431143 -0.15338571 1.1930001 1.0976675e-38
0.046583813 -0.15338571 1.1930001 9.5905259e-39
0.048856195 -0.15338571 1.1930001 7.5622221e-39
0.050957143 -0.15287143 1.189 6.461966e-39
0.053221904 -0.15287143 1.189 8.7668567e-39
0.055486668 -0.15287143 1.189 1.2170905e-38
0.057751428 -0.15287143 1.189 1.3553839e-38
0.060016192 -0.15287143 1.189 1.2452158e-38
0.062280957 -0.15287143 1.189 1.2544354e-38
0.064762861 -0.15338571 1.1930001 1.2730184e-38
0.067035235 -0.15338571 1.1930001 1.1992619e-38
0.069307618 -0.15338571 1.1930001 9.5076784e-39
0.07158 -0.15338571 1.1930001 8.8623089e-39
0.073852383 -0.15338571 1.1930001 1.0240211e-38
0.076380007 -0.1539 1.197 1.1438755e-38
0.078660004 -0.1539 1.197 1.1345808e-38
0.080940001 -0.1539 1.197 8.4877433e-39
0.083220005 -0.1539 1.197 9.1331057e-39
0.085857145 -0.15454286 1.202 1.1530192e-38
0.088146664 -0.15454286 1.202 1.1343309e-38
0.090737149 -0.15505715 1.2060001 7.932071e-39
0.09303429 -0.15505715 1.2060001 4.898222e-39
0.095331438 -0.15505715 1.2060001 1.2458264e-38
0.097304761 -0.15454286 1.202 1.6504129e-38
0.099594288 -0.15454286 1.202 1.8901215e-38
0.017342858 -0.15377335 1.2140001 8.6656759e-39
0.019590477 -0.15326667 1.21 5.636653e-40
0.021895239 -0.15326667 1.21 2.9607517e-39
0.024120001 -0.15276001 1.2060001 5.2591264e-39
0.026329523 -0.15225333 1.202 9.592321e-39
0.028619049 -0.15225333 1.202 1.0329526e-38
0.030908573 -0.15225333 1.202 1.1251482e-38
0.033198096 -0.15225333 1.202 1.0977747e-38
0.03534 -0.15162 1.197 1.0885551e-38
0.037620001 -0.15162 1.197 9.6888256e-39
0.039900001 -0.15162 1.197 9.1356518e-39
0.042039048 -0.15111333 1.1930001 1.0148366e-38
0.04431143 -0.15111333 1.1930001 1.2914235e-38
0.046583813 -0.15111333 1.1930001 1.3186496e-38
0.048856195 -0.15111333 1.1930001 1.0697214e-38
0.051128577 -0.15111333 1.1930001 1.1068485e-38
0.053221904 -0.15060668 1.189 1.4110941e-38
0.055486668 -0.15060668 1.189 1.3004278e-38
0.057751428 -0.15060668 1.189 9.7774311e-39
0.0602181 -0.15111333 1.1930001 7.5726141e-39
0.062490482 -0.15111333 1.1930001 7.2038316e-39
0.064762861 -0.15111333 1.1930001 9.782438e-39
0.067035235 -0.15111333 1.1930001 1.2732698e-38
0.069307618 -0.15111333 1.1930001 1.3189373e-38
0.071820006 -0.15162 1.197 1.2912786e-38
0.074100003 -0.15162 1.197 1.2175218e-38
0.076380007 -0.15162 1.197 9.4093492e-39
0.078660004 -0.15162 1.197 6.8293262e-39
0.080940001 -0.15162 1.197 5.630783e-39
0.083567619 -0.15225333 1.202 6.4594576e-39
0.085857145 -0.15225333 1.202 1.042387e-38
0.088146664 -0.15225333 1.202 1.0606816e-38
0.090737149 -0.15276001 1.2060001 6.7345998e-39
0.09303429 -0.15276001 1.2060001 3.9780761e-39
0.095331438 -0.15276001 1.2060001 1.2183487e-38
0.097628579 -0.15276001 1.2060001 1.8071072e-38
0.099925719 -0.15276001 1.2060001 1.8808637e-38
0.019655241 -0.15146096 1.2140001 2.873895e-40
0.021895239 -0.15096191 1.21 2.8688671e-39
0.024120001 -0.15046287 1.2060001 5.349845e-39
0.026417146 -0.15046287 1.2060001 8.3001052e-39
0.028619049 -0.14996381 1.202 1.1063476e-38
0.030908573 -0.14996381 1.202 1.2722997e-38
0.033198096 -0.14996381 1.202 1.1530568e-38
0.035487618 -0.14996381 1.202 9.7788506e-39
0.037777144 -0.14996381 1.202 7.8506611e-39
0.039900001 -0.14934 1.197 7.5740743e-39
0.042180002 -0.14934 1.197 9.1370812e-39
0.04431143 -0.14884095 1.1930001 1.1257581e-38
0.046583813 -0.14884095 1.1930001 1.3188301e-38
0.048856195 -0.14884095 1.1930001 1.300391e-38
0.051128577 -0.14884095 1.1930001 1.1990486e-38
0.053400956 -0.14884095 1.1930001 1.2912443e-38
0.055486668 -0.14834191 1.189 1.1808972e-38
0.057751428 -0.14834191 1.189 6.4616254e-39
0.0602181 -0.14884095 1.1930001 2.606673e-39
0.062490482 -0.14884095 1.1930001 2.7910642e-39
0.064762861 -0.14884095 1.1930001 8.1228914e-39
0.067035235 -0.14884095 1.1930001 1.1626325e-38
0.069539994 -0.14934 1.197 1.4199569e-38
0.071820006 -0.14934 1.197 1.4107373e-38
0.074100003 -0.14934 1.197 1.2359612e-38
0.076380007 -0.14934 1.197 7.1966569e-39
0.078660004 -0.14934 1.197 7.5618269e-39
0.080940001 -0.14934 1.197 7.28524e-39
0.083567619 -0.14996381 1.202 7.0097097e-39
0.085857145 -0.14996381 1.202 1.0789731e-38
0.088146664 -0.14996381 1.202 1.0422432e-38
0.090737149 -0.15046287 1.2060001 6.3658243e-39
0.09303429 -0.15046287 1.2060001 2.5983689e-39
0.095331438 -0.15046287 1.2060001 1.2555497e-38
0.097628579 -0.15046287 1.2060001 1.8439148e-38
0.099925719 -0.15046287 1.2060001 1.8715735e-38
0.021895239 -0.14865716 1.21 1.9494346e-39
0.0242 -0.14865716 1.21 4.7985042e-39
0.026417146 -0.14816572 1.2060001 6.089243e-39
0.028714286 -0.14816572 1.2060001 8.760017e-39
0.030908573 -0.14767428 1.202 1.1986864e-38
0.033198096 -0.14767428 1.202 1.0701157e-38
0.035487618 -0.14767428 1.202 8.9494403e-39
0.037777144 -0.14767428 1.202 7.4822388e-39
0.040066667 -0.14767428 1.202 7.8510213e-39
0.042180002 -0.14706001 1.197 8.033993e-39
0.044460002 -0.14706001 1.197 8.5871668e-39
0.046739999 -0.14706001 1.197 1.1530918e-38
0.04902 -0.14706001 1.197 1.3928004e-38
0.051128577 -0.14656857 1.1930001 1.3281206e-38
0.053400956 -0.14656857 1.1930001 9.2245979e-39
0.055673338 -0.14656857 1.1930001 4.5356038e-39
0.057945717 -0.14656857 1.1930001 4.4434081e-39
0.0602181 -0.14656857 1.1930001 4.1704212e-39
0.062699996 -0.14706001 1.197 3.8938343e-39
0.06498 -0.14706001 1.197 4.0767612e-39
0.067259997 -0.14706001 1.197 6.2894563e-39
0.069539994 -0.14706001 1.197 1.1437628e-38
0.072119996 -0.14767428 1.202 1.1990802e-38
0.07440953 -0.14767428 1.202 1.1896058e-38
0.076699048 -0.14767428 1.202 7.6550595e-39
0.078988574 -0.14767428 1.202 7.3788902e-39
0.081278101 -0.14767428 1.202 7.3788902e-39
0.083567619 -0.14767428 1.202 7.0101049e-39
0.08614286 -0.14816572 1.2060001 9.7759738e-39
0.088440008 -0.14816572 1.2060001 9.8713966e-39
0.090737149 -0.14816572 1.2060001 5.9069845e-39
0.09303429 -0.14816572 1.2060001 1.8637228e-39
0.095647618 -0.14865716 1.21 1.1913046e-38
0.097952388 -0.14865716 1.21 1.7518634e-38
0.10025714 -0.14865716 1.21 1.8071808e-38
0.019655241 -0.14683619 1.2140001 5.6254132e-39
0.021967622 -0.14683619 1.2140001 3.8736962e-39
0.0242 -0.14635238 1.21 4.7041253e-39
0.026504762 -0.14635238 1.21 6.5480379e-39
0.028619049 -0.14538477 1.202 7.9316982e-39
0.030908573 -0.14538477 1.202 1.1619523e-38
0.033198096 -0.14538477 1.202 1.0333464e-38
0.035487618 -0.14538477 1.202 8.6739422e-39
0.037777144 -0.14538477 1.202 7.8499521e-39
0.040066667 -0.14538477 1.202 8.0343433e-39
0.042180002 -0.14478 1.197 7.574454e-39
0.044460002 -0.14478 1.197 7.6666496e-39
0.046739999 -0.14478 1.197 8.8630152e-39
0.04902 -0.14478 1.197 1.2458645e-38
0.051128577 -0.1442962 1.1930001 1.25469e-38
0.053400956 -0.1442962 1.1930001 6.7385753e-39
0.055673338 -0.1442962 1.1930001 2.5144774e-39
0.057945717 -0.1442962 1.1930001 4.0818031e-39
0.0602181 -0.1442962 1.1930001 5.550099e-39
0.062699996 -0.14478 1.197 5.0891209e-39
0.06498 -0.14478 1.197 2.5155564e-39
0.067259997 -0.14478 1.197 3.8062952e-39
0.069539994 -0.14478 1.197 9.4140338e-39
0.072119996 -0.14538477 1.202 1.0796968e-38
0.07440953 -0.14538477 1.202 9.7763269e-39
0.076699048 -0.14538477 1.202 7.2870449e-39
0.078988574 -0.14538477 1.202 7.6554715e-39
0.081278101 -0.14538477 1.202 7.3788846e-39
0.083567619 -0.14538477 1.202 5.8165937e-39
0.08614286 -0.14586858 1.2060001 9.227832e-39
0.088440008 -0.14586858 1.2060001 9.6884571e-39
0.090737149 -0.14586858 1.2060001 5.9084362e-39
0.09303429 -0.14586858 1.2060001 1.2205296e-39
0.095647618 -0.14635238 1.21 1.302157e-38
0.097952388 -0.14635238 1.21 1.6784335e-38
0.10025714 -0.14635238 1.21 1.7337509e-38
0.015302857 -0.14714286 1.2360001 1.8623517e-38
0.017657144 -0.14714286 1.2360001 1.4105931e-38
0.020011429 -0.14714286 1.2360001 5.9049484e-39
0.021967622 -0.14452383 1.2140001 3.9688402e-39
0.0242 -0.14404762 1.21 3.9723308e-39
0.026504762 -0.14404762 1.21 6.2772216e-39
0.028619049 -0.14309524 1.202 8.3912793e-39
0.030908573 -0.14309524 1.202 1.2447887e-38
0.033198096 -0.14309524 1.202 1.0425647e-38
0.035487618 -0.14309524 1.202 8.7661252e-39
0.037777144 -0.14309524 1.202 7.9417974e-39
0.040066667 -0.14309524 1.202 7.9417974e-39
0.042180002 -0.1425 1.197 7.758125e-39
0.044460002 -0.1425 1.197 7.9425163e-39
0.046739999 -0.1425 1.197 9.2296397e-39
0.04902 -0.1425 1.197 1.2640878e-38
0.051128577 -0.14202382 1.1930001 1.2271004e-38
0.053400956 -0.14202382 1.1930001 5.7251142e-39
0.055673338 -0.14202382 1.1930001 1.7805151e-39
0.057945717 -0.14202382 1.1930001 3.2556451e-39
0.0602181 -0.14202382 1.1930001 4.5377491e-39
0.062699996 -0.1425 1.197 3.9845754e-39
0.06498 -0.1425 1.197 3.1584146e-39
0.067259997 -0.1425 1.197 5.8320879e-39
0.069539994 -0.1425 1.197 1.1347956e-38
0.071820006 -0.1425 1.197 1.1808934e-38
0.07440953 -0.14309524 1.202 1.0422419e-38
0.076699048 -0.14309524 1.202 6.6423985e-39
0.078988574 -0.14309524 1.202 6.0921114e-39
0.081278101 -0.14309524 1.202 6.460894e-39
0.083567619 -0.14309524 1.202 7.1044711e-39
0.08614286 -0.14357144 1.2060001 1.0239123e-38
0.088440008 -0.14357144 1.2060001 9.6880941e-39
0.0910381 -0.14404762 1.21 7.1066165e-39
0.093342856 -0.14404762 1.21 3.6154551e-39
0.095647618 -0.14404762 1.21 1.5416496e-38
0.097952388 -0.14404762 1.21 2.0930228e-38
0.10025714 -0.14404762 1.21 2.0008272e-38
0.015302857 -0.14478858 1.2360001 1.8623164e-38
0.017600002 -0.14432001 1.2320001 1.4566556e-38
0.019865716 -0.14373431 1.2270001 9.9589581e-39
0.021967622 -0.14221144 1.2140001 5.8101548e-39
0.02428 -0.14221144 1.2140001 4.6162303e-39
0.026504762 -0.14174286 1.21 7.6586861e-39
0.028714286 -0.1412743 1.2060001 1.1246069e-38
0.030908573 -0.14080572 1.202 1.2444612e-38
0.033198096 -0.14080572 1.202 1.0700794e-38
0.035487618 -0.14080572 1.202 9.3178599e-39
0.037777144 -0.14080572 1.202 8.3080534e-39
0.040066667 -0.14080572 1.202 8.2158577e-39
0.042356189 -0.14080572 1.202 7.2063805e-39
0.044645716 -0.14080572 1.202 7.9439456e-39
0.046935238 -0.14080572 1.202 9.9654223e-39
0.04922476 -0.14080572 1.202 1.25469e-38
0.0513 -0.14022 1.197 1.1903663e-38
0.053580001 -0.14022 1.197 7.6626643e-39
0.055859998 -0.14022 1.197 3.0673274e-39
0.058139998 -0.14022 1.197 3.2517187e-39
0.060420003 -0.14022 1.197 3.3420674e-39
0.062699996 -0.14022 1.197 2.7888936e-39
0.06498 -0.14022 1.197 4.2607965e-39
0.067259997 -0.14022 1.197 8.133013e-39
0.069539994 -0.14022 1.197 1.1898994e-38
0.071820006 -0.14022 1.197 1.1898994e-38
0.07440953 -0.14080572 1.202 1.0976322e-38
0.076699048 -0.14080572 1.202 7.1041054e-39
0.078988574 -0.14080572 1.202 6.7352724e-39
0.081278101 -0.14080572 1.202 7.7494243e-39
0.083567619 -0.14080572 1.202 9.1302386e-39
0.08614286 -0.1412743 1.2060001 9.775608e-39
0.088440008 -0.1412743 1.2060001 8.6753365e-39
0.0910381 -0.14174286 1.21 6.1860545e-39
0.093342856 -0.14174286 1.21 4.5349017e-39
0.095963813 -0.14221144 1.2140001 1.7442286e-38
0.098276198 -0.14221144 1.2140001 2.1852183e-38
0.10058858 -0.14221144 1.2140001 2.0838033e-38
0.015302857 -0.14243428 1.2360001 1.8623167e-38
0.017600002 -0.14197333 1.2320001 1.475095e-38
0.019865716 -0.14139715 1.2270001 9.6838188e-39
0.021967622 -0.13989906 1.2140001 6.1803848e-39
0.02428 -0.13989906 1.2140001 7.288484e-39
0.026592383 -0.13989906 1.2140001 1.1068505e-38
0.028714286 -0.13897716 1.2060001 1.0054721e-38
0.031011432 -0.13897716 1.2060001 8.9483739e-39
0.033198096 -0.13851619 1.202 8.9516081e-39
0.035487618 -0.13851619 1.202 1.1072108e-38
0.037777144 -0.13851619 1.202 1.0519274e-38
0.040066667 -0.13851619 1.202 9.2285355e-39
0.042356189 -0.13851619 1.202 9.1370966e-39
0.044645716 -0.13851619 1.202 1.1534183e-38
0.046935238 -0.13851619 1.202 1.2452171e-38
0.04922476 -0.13851619 1.202 1.2083388e-38
0.0513 -0.13794 1.197 1.2084095e-38
0.053580001 -0.13794 1.197 1.2637268e-38
0.055859998 -0.13794 1.197 9.3243815e-39
0.058139998 -0.13794 1.197 5.6365563e-39
0.060420003 -0.13794 1.197 2.2396855e-39
0.062699996 -0.13794 1.197 4.6367719e-39
0.065251425 -0.13851619 1.202 9.5065797e-39
0.067540951 -0.13851619 1.202 1.2180253e-38
0.069830477 -0.13851619 1.202 1.1623133e-38
0.072119996 -0.13851619 1.202 1.1162155e-38
0.07440953 -0.13851619 1.202 1.1439095e-38
0.076699048 -0.13851619 1.202 1.0148356e-38
0.078988574 -0.13851619 1.202 1.0238695e-38
0.081278101 -0.13851619 1.202 1.1252847e-38
0.08384572 -0.13897716 1.2060001 1.0516035e-38
0.08614286 -0.13897716 1.2060001 6.4594268e-39
0.088440008 -0.13897716 1.2060001 4.5315652e-39
0.0910381 -0.13943809 1.21 3.7018045e-39
0.093342856 -0.13943809 1.21 4.4441508e-39
0.095963813 -0.13989906 1.2140001 1.9285453e-38
0.098680958 -0.14047524 1.2190001 2.3142182e-38
0.10100286 -0.14047524 1.2190001 2.2312421e-38
0.015253334 -0.13962668 1.2320001 1.8438773e-38
0.017600002 -0.13962668 1.2320001 1.4935339e-38
0.019865716 -0.13906002 1.2270001 1.1343665e-38
0.022130478 -0.13860667 1.223 6.5494925e-39
0.02428 -0.13758668 1.2140001 7.8420109e-39
0.026592383 -0.13758668 1.2140001 1.0515684e-38
0.028809523 -0.13713333 1.21 8.5853493e-39
0.031011432 -0.13668001 1.2060001 4.9897197e-39
0.033308573 -0.13668001 1.2060001 6.2811592e-39
0.035487618 -0.13622667 1.202 9.7845932e-39
0.037777144 -0.13622667 1.202 1.1622044e-38
0.040066667 -0.13622667 1.202 1.0607892e-38
0.042356189 -0.13622667 1.202 9.7810311e-39
0.044645716 -0.13622667 1.202 1.2178117e-38
0.046935238 -0.13622667 1.202 1.282059e-38
0.04922476 -0.13622667 1.202 1.1068873e-38
0.0513 -0.13566001 1.197 1.060787e-38
0.053580001 -0.13566001 1.197 1.2543978e-38
0.055859998 -0.13566001 1.197 1.2820956e-38
0.058382858 -0.13622667 1.202 8.6721527e-39
0.06067238 -0.13622667 1.202 3.5260985e-39
0.062961906 -0.13622667 1.202 6.66075e-39
0.065251425 -0.13622667 1.202 1.2081944e-38
0.067540951 -0.13622667 1.202 1.235853e-38
0.069830477 -0.13622667 1.202 1.0886284e-38
0.072119996 -0.13622667 1.202 1.0148719e-38
0.07440953 -0.13622667 1.202 1.0795884e-38
0.076699048 -0.13622667 1.202 1.1072471e-38
0.078988574 -0.13622667 1.202 1.0608248e-38
0.081278101 -0.13622667 1.202 1.1161422e-38
0.08384572 -0.13668001 1.2060001 9.9639622e-39
0.08614286 -0.13668001 1.2060001 4.0634418e-39
0.088733338 -0.13713333 1.21 1.309732e-39
0.091339052 -0.13758668 1.2140001 1.5863147e-39
0.093651436 -0.13758668 1.2140001 5.1784887e-39
0.095963813 -0.13758668 1.2140001 1.9468765e-38
0.098680958 -0.13815333 1.2190001 2.2774842e-38
0.10100286 -0.13815333 1.2190001 2.1391907e-38
0.015191429 -0.13672288 1.2270001 1.806999e-38
0.017528573 -0.13672288 1.2270001 1.5027535e-38
0.019865716 -0.13672288 1.2270001 1.1712448e-38
0.022202859 -0.13672288 1.2270001 5.6275362e-39
0.024380002 -0.13583145 1.2190001 6.554156e-39
0.026701907 -0.13583145 1.2190001 7.8448948e-39
0.028904764 -0.13527429 1.2140001 4.5309276e-39
0.031114288 -0.13482858 1.21 3.0557975e-39
0.033308573 -0.13438286 1.2060001 1.3152209e-39
0.035605714 -0.13438286 1.2060001 5.3718286e-39
0.037777144 -0.13393715 1.202 1.0884832e-38
0.040066667 -0.13393715 1.202 1.3005332e-38
0.042356189 -0.13393715 1.202 1.3003509e-38
0.044645716 -0.13393715 1.202 1.1343988e-38
0.046935238 -0.13393715 1.202 8.2108411e-39
0.04922476 -0.13393715 1.202 7.0122979e-39
0.051514287 -0.13393715 1.202 7.5643675e-39
0.053803809 -0.13393715 1.202 1.0606823e-38
0.056093335 -0.13393715 1.202 1.1069612e-38
0.058382858 -0.13393715 1.202 1.2268155e-38
0.06067238 -0.13393715 1.202 1.2270628e-38
0.062961906 -0.13393715 1.202 1.2639411e-38
0.065251425 -0.13393715 1.202 1.1808596e-38
0.067540951 -0.13393715 1.202 1.0056879e-38
0.069830477 -0.13393715 1.202 8.3105701e-39
0.072119996 -0.13393715 1.202 7.849592e-39
0.07440953 -0.13393715 1.202 9.0470505e-39
0.076699048 -0.13393715 1.202 1.0614376e-38
0.078988574 -0.13393715 1.202 1.1806786e-38
0.081278101 -0.13393715 1.202 9.9628733e-39
0.08384572 -0.13438286 1.2060001 7.477557e-39
0.086428568 -0.13482858 1.21 3.6053406e-39
0.088733338 -0.13482858 1.21 9.413811e-40
0.091339052 -0.13527429 1.2140001 3.8820732e-40
0.093651436 -0.13527429 1.2140001 7.6648938e-39
0.095963813 -0.13527429 1.2140001 1.9742478e-38
0.098680958 -0.13583145 1.2190001 2.2037289e-38
0.10100286 -0.13583145 1.2190001 2.074655e-38
0.10332477 -0.13583145 1.2190001 2.0469613e-38
0.015191429 -0.13438572 1.2270001 1.7793403e-38
0.017528573 -0.13438572 1.2270001 1.6318273e-38
0.019865716 -0.13438572 1.2270001 1.1623133e-38
0.022202859 -0.13438572 1.2270001 4.9850478e-39
0.024380002 -0.13350953 1.2190001 5.727282e-39
0.026701907 -0.13350953 1.2190001 6.8336295e-39
0.028904764 -0.13296191 1.2140001 3.5196315e-39
0.031114288 -0.13252382 1.21 2.8742621e-39
0.033308573 -0.13208573 1.2060001 1.2237161e-39
0.035605714 -0.13208573 1.2060001 2.5144549e-39
0.037777144 -0.13164762 1.202 8.6746555e-39
0.040066667 -0.13164762 1.202 1.2823459e-38
0.042356189 -0.13164762 1.202 1.3095755e-38
0.044645716 -0.13164762 1.202 9.4079297e-39
0.046935238 -0.13164762 1.202 7.5665086e-39
0.04922476 -0.13164762 1.202 7.474313e-39
0.051514287 -0.13164762 1.202 7.4735843e-39
0.053803809 -0.13164762 1.202 7.9345625e-39
0.056093335 -0.13164762 1.202 1.0146539e-38
0.058382858 -0.13164762 1.202 1.3188995e-38
0.06067238 -0.13164762 1.202 1.3558155e-38
0.062961906 -0.13164762 1.202 1.3189373e-38
0.065251425 -0.13164762 1.202 1.0521818e-38
0.067540951 -0.13164762 1.202 8.2169269e-39
0.069830477 -0.13164762 1.202 7.6673587e-39
0.072119996 -0.13164762 1.202 7.4829674e-39
0.07440953 -0.13164762 1.202 8.1258103e-39
0.076699048 -0.13164762 1.202 1.024631e-38
0.078988574 -0.13164762 1.202 1.1347631e-38
0.081278101 -0.13164762 1.202 8.581762e-39
0.08384572 -0.13208573 1.2060001 4.6241742e-39
0.086428568 -0.13252382 1.21 2.8724573e-39
0.089026667 -0.13296191 1.2140001 6.6587321e-40
0.091339052 -0.13296191 1.2140001 1.1268514e-39
0.093651436 -0.13296191 1.2140001 1.0976739e-38
0.095963813 -0.13296191 1.2140001 2.1118217e-38
0.098680958 -0.13350953 1.2190001 2.1759989e-38
0.10100286 -0.13350953 1.2190001 2.0653641e-38
0.015191429 -0.13204859 1.2270001 1.7793403e-38
0.017528573 -0.13204859 1.2270001 1.6687056e-38
0.019865716 -0.13204859 1.2270001 1.2542571e-38
0.022130478 -0.1316181 1.223 4.7981384e-39
0.024380002 -0.13118763 1.2190001 5.5428907e-39
0.026592383 -0.13064952 1.2140001 7.0180208e-39
0.028904764 -0.13064952 1.2140001 4.8074991e-39
0.031217147 -0.13064952 1.2140001 3.8855428e-39
0.033419047 -0.13021906 1.21 1.8669527e-39
0.035605714 -0.12978858 1.2060001 1.4981702e-39
0.037902862 -0.12978858 1.2060001 7.014774e-39
0.040200002 -0.12978858 1.2060001 1.1808947e-38
0.042356189 -0.1293581 1.202 1.2632587e-38
0.044645716 -0.1293581 1.202 7.7462182e-39
0.046935238 -0.1293581 1.202 7.0129817e-39
0.049388576 -0.12978858 1.2060001 8.0271337e-39
0.051514287 -0.1293581 1.202 8.1182503e-39
0.053803809 -0.1293581 1.202 7.2884896e-39
0.056280006 -0.12978858 1.2060001 6.2783034e-39
0.058577146 -0.12978858 1.2060001 1.0795889e-38
0.060874287 -0.12978858 1.2060001 1.2268503e-38
0.063171431 -0.12978858 1.2060001 1.1162155e-38
0.065468572 -0.12978858 1.2060001 8.8633809e-39
0.06776572 -0.12978858 1.2060001 8.0336203e-39
0.070062861 -0.12978858 1.2060001 7.8513968e-39
0.072360002 -0.12978858 1.2060001 7.7592012e-39
0.07465715 -0.12978858 1.2060001 8.1258103e-39
0.076954298 -0.12978858 1.2060001 9.3243535e-39
0.079251431 -0.12978858 1.2060001 1.0518934e-38
