# .PCD v0.7 - Point Cloud Data file format
VERSION 0.7
FIELDS x y z rgb
SIZE 4 4 4 4
TYPE F F F F
COUNT 1 1 1 1
WIDTH 1030
HEIGHT 1
VIEWPOINT 0 0 0 1 0 0 0
POINTS 1030
DATA ascii
-0.082837142 -0.11848858 1.1010001 1.6685611e-38
-0.080740005 -0.11848858 1.1010001 1.6777807e-38
-0.078357145 -0.11805809 1.097 1.6039889e-38
-0.076267622 -0.11805809 1.097 1.557891e-38
-0.074178092 -0.11805809 1.097 1.5485263e-38
-0.071891434 -0.11773524 1.0940001 1.5116481e-38
-0.069807619 -0.11773524 1.0940001 1.5759692e-38
-0.067723818 -0.11773524 1.0940001 1.6681648e-38
-0.15218 -0.11491142 1.087 1.4932077e-38
-0.15010953 -0.11491142 1.087 1.548525e-38
-0.14803904 -0.11491142 1.087 1.54849e-38
-0.14596857 -0.11491142 1.087 1.6591248e-38
-0.14482477 -0.11565144 1.0940001 1.6407582e-38
-0.14313237 -0.11596857 1.097 1.686856e-38
-0.14104286 -0.11596857 1.097 1.6776731e-38
-0.13895333 -0.11596857 1.097 1.7329904e-38
-0.13736285 -0.11639144 1.1010001 1.7054394e-38
-0.13526572 -0.11639144 1.1010001 1.7515372e-38
-0.13316858 -0.11639144 1.1010001 1.7607567e-38
-0.13154761 -0.11681429 1.105 1.797635e-38
-0.12944287 -0.11681429 1.105 1.7700482e-38
-0.12768382 -0.11713143 1.108 1.8069264e-38
-0.12602669 -0.1175543 1.1120001 1.8069264e-38
-0.12390859 -0.1175543 1.1120001 1.8345851e-38
-0.12179048 -0.1175543 1.1120001 1.8529524e-38
-0.1196724 -0.1175543 1.1120001 1.8806111e-38
-0.1175543 -0.1175543 1.1120001 1.82533e-38
-0.1154362 -0.1175543 1.1120001 1.8529887e-38
-0.1133181 -0.1175543 1.1120001 1.8622435e-38
-0.1112 -0.1175543 1.1120001 1.8806827e-38
-0.10908192 -0.1175543 1.1120001 1.8530603e-38
-0.10657905 -0.11713143 1.108 1.8346211e-38
-0.10446857 -0.11713143 1.108 1.8254016e-38
-0.1023581 -0.11713143 1.108 1.8254016e-38
-0.10024762 -0.11713143 1.108 1.8068909e-38
-0.098137148 -0.11713143 1.108 1.8161104e-38
-0.096026666 -0.11713143 1.108 1.8160021e-38
-0.093661904 -0.11681429 1.105 1.7883434e-38
-0.091557145 -0.11681429 1.105 1.7515372e-38
-0.089452386 -0.11681429 1.105 1.7423176e-38
-0.087347619 -0.11681429 1.105 1.7054394e-38
-0.08524286 -0.11681429 1.105 1.6685611e-38
-0.082837142 -0.11639144 1.1010001 1.6777087e-38
-0.080740005 -0.11639144 1.1010001 1.6777087e-38
-0.078357145 -0.11596857 1.097 1.6040245e-38
-0.076267622 -0.11596857 1.097 1.5579266e-38
-0.074178092 -0.11596857 1.097 1.5577086e-38
-0.071891434 -0.11565144 1.0940001 1.5577086e-38
-0.069807619 -0.11565144 1.0940001 1.5483468e-38
-0.067723818 -0.11565144 1.0940001 1.5575664e-38
-0.15218 -0.11284095 1.087 1.5115757e-38
-0.15010953 -0.11284095 1.087 1.5668931e-38
-0.14803904 -0.11284095 1.087 1.5577108e-38
-0.14596857 -0.11284095 1.087 1.6406869e-38
-0.14482477 -0.11356763 1.0940001 1.6223544e-38
-0.14313237 -0.11387905 1.097 1.6868914e-38
-0.14104286 -0.11387905 1.097 1.6685258e-38
-0.13895333 -0.11387905 1.097 1.7238432e-38
-0.13736285 -0.1142943 1.1010001 1.7055113e-38
-0.13526572 -0.1142943 1.1010001 1.7608286e-38
-0.13316858 -0.1142943 1.1010001 1.7607923e-38
-0.13154761 -0.11470952 1.105 1.788451e-38
-0.12944287 -0.11470952 1.105 1.7792678e-38
-0.12768382 -0.11502095 1.108 1.8069264e-38
-0.12602669 -0.1154362 1.1120001 1.816146e-38
-0.12390859 -0.1154362 1.1120001 1.8714634e-38
-0.12179048 -0.1154362 1.1120001 1.8806461e-38
-0.1196724 -0.1154362 1.1120001 1.8990852e-38
-0.1175543 -0.1154362 1.1120001 1.8898309e-38
-0.1154362 -0.1154362 1.1120001 1.8990505e-38
-0.1133181 -0.1154362 1.1120001 1.8622791e-38
-0.1112 -0.1154362 1.1120001 1.8622791e-38
-0.10908192 -0.1154362 1.1120001 1.84384e-38
-0.10657905 -0.11502095 1.108 1.8346204e-38
-0.10446857 -0.11502095 1.108 1.8254369e-38
-0.1023581 -0.11502095 1.108 1.8254369e-38
-0.10024762 -0.11502095 1.108 1.7977069e-38
-0.098137148 -0.11502095 1.108 1.7977069e-38
-0.096026666 -0.11502095 1.108 1.8160015e-38
-0.093661904 -0.11470952 1.105 1.7699037e-38
-0.091557145 -0.11470952 1.105 1.7238788e-38
-0.089452386 -0.11470952 1.105 1.7146592e-38
-0.087347619 -0.11470952 1.105 1.6870358e-38
-0.08524286 -0.11470952 1.105 1.6501576e-38
-0.082837142 -0.1142943 1.1010001 1.6132087e-38
-0.080740005 -0.1142943 1.1010001 1.5947696e-38
-0.07864286 -0.1142943 1.1010001 1.5854409e-38
-0.076545723 -0.1142943 1.1010001 1.5946604e-38
-0.074178092 -0.11387905 1.097 1.6315367e-38
-0.072088569 -0.11387905 1.097 1.6868541e-38
-0.069999047 -0.11387905 1.097 1.6499758e-38
-0.067909524 -0.11387905 1.097 1.5116824e-38
-0.15010953 -0.11077047 1.087 1.5760771e-38
-0.14803904 -0.11077047 1.087 1.566966e-38
-0.14637142 -0.11107619 1.09 1.6407225e-38
-0.14482477 -0.11148382 1.0940001 1.6132065e-38
-0.14313237 -0.11178952 1.097 1.6685238e-38
-0.14104286 -0.11178952 1.097 1.6501223e-38
-0.13895333 -0.11178952 1.097 1.7238788e-38
-0.13736285 -0.11219715 1.1010001 1.7147305e-38
-0.13526572 -0.11219715 1.1010001 1.7331697e-38
-0.13316858 -0.11219715 1.1010001 1.7331699e-38
-0.13154761 -0.11260476 1.105 1.7700482e-38
-0.12944287 -0.11260476 1.105 1.7700482e-38
-0.12768382 -0.11291048 1.108 1.8069264e-38
-0.12602669 -0.1133181 1.1120001 1.7977429e-38
-0.12390859 -0.1133181 1.1120001 1.816182e-38
-0.12179048 -0.1133181 1.1120001 1.8345132e-38
-0.1196724 -0.1133181 1.1120001 1.8529524e-38
-0.1175543 -0.1133181 1.1120001 1.8437694e-38
-0.1154362 -0.1133181 1.1120001 1.8437694e-38
-0.1133181 -0.1133181 1.1120001 1.8346567e-38
-0.11080001 -0.11291048 1.108 1.8254372e-38
-0.10868952 -0.11291048 1.108 1.7885233e-38
-0.10657905 -0.11291048 1.108 1.7977429e-38
-0.10446857 -0.11291048 1.108 1.7977066e-38
-0.1023581 -0.11291048 1.108 1.8069262e-38
-0.10024762 -0.11291048 1.108 1.7884873e-38
-0.098137148 -0.11291048 1.108 1.7884873e-38
-0.096026666 -0.11291048 1.108 1.7792678e-38
-0.093916193 -0.11291048 1.108 1.7239504e-38
-0.091557145 -0.11260476 1.105 1.7145866e-38
-0.089452386 -0.11260476 1.105 1.7238062e-38
-0.087347619 -0.11260476 1.105 1.6593771e-38
-0.08524286 -0.11260476 1.105 1.640938e-38
-0.082837142 -0.11219715 1.1010001 1.6131711e-38
-0.080740005 -0.11219715 1.1010001 1.6223907e-38
-0.07864286 -0.11219715 1.1010001 1.6222834e-38
-0.076545723 -0.11219715 1.1010001 1.6407225e-38
-0.074178092 -0.11178952 1.097 1.6407938e-38
-0.072088569 -0.11178952 1.097 1.6407938e-38
-0.066808574 -0.10669429 1.0470001 1.6407563e-38
-0.064814284 -0.10669429 1.0470001 1.5024628e-38
-0.062820002 -0.10669429 1.0470001 1.4748039e-38
-0.060825717 -0.10669429 1.0470001 1.5116821e-38
-0.058831431 -0.10669429 1.0470001 1.4931714e-38
-0.15010953 -0.1087 1.087 1.6682014e-38
-0.14803904 -0.1087 1.087 1.6406143e-38
-0.14637142 -0.109 1.09 1.6867121e-38
-0.14482477 -0.10940001 1.0940001 1.6591604e-38
-0.14313237 -0.10969999 1.097 1.6868191e-38
-0.14104286 -0.10969999 1.097 1.6684891e-38
-0.13895333 -0.10969999 1.097 1.7238065e-38
-0.13736285 -0.11010001 1.1010001 1.7147296e-38
-0.13526572 -0.11010001 1.1010001 1.7239491e-38
-0.13316858 -0.11010001 1.1010001 1.7147308e-38
-0.13154761 -0.1105 1.105 1.7608286e-38
-0.12944287 -0.1105 1.105 1.7516091e-38
-0.12814477 -0.1112 1.1120001 1.7977069e-38
-0.12602669 -0.1112 1.1120001 1.7885586e-38
-0.12390859 -0.1112 1.1120001 1.7977782e-38
-0.12179048 -0.1112 1.1120001 1.816146e-38
-0.1196724 -0.1112 1.1120001 1.816146e-38
-0.1175543 -0.1112 1.1120001 1.8068195e-38
-0.1154362 -0.1112 1.1120001 1.7883804e-38
-0.1133181 -0.1112 1.1120001 1.7700842e-38
-0.11080001 -0.11080001 1.108 1.7885233e-38
-0.10868952 -0.11080001 1.108 1.7608649e-38
-0.10657905 -0.11080001 1.108 1.7516454e-38
-0.10446857 -0.11080001 1.108 1.7608646e-38
-0.1023581 -0.11080001 1.108 1.7700842e-38
-0.10024762 -0.11080001 1.108 1.7423895e-38
-0.098137148 -0.11080001 1.108 1.7423895e-38
-0.096026666 -0.11080001 1.108 1.7421747e-38
-0.093916193 -0.11080001 1.108 1.7237356e-38
-0.091557145 -0.1105 1.105 1.7053668e-38
-0.089452386 -0.1105 1.105 1.7238059e-38
-0.087347619 -0.1105 1.105 1.7422443e-38
-0.08524286 -0.1105 1.105 1.7330248e-38
-0.083138093 -0.1105 1.105 1.7514636e-38
-0.080740005 -0.11010001 1.1010001 1.7975614e-38
-0.07864286 -0.11010001 1.1010001 1.797563e-38
-0.076545723 -0.11010001 1.1010001 1.7606847e-38
-0.070797145 -0.10470001 1.0470001 1.6040605e-38
-0.068802863 -0.10470001 1.0470001 1.318254e-38
-0.066808574 -0.10470001 1.0470001 1.3366183e-38
-0.064814284 -0.10470001 1.0470001 1.4564726e-38
-0.062820002 -0.10470001 1.0470001 1.5116821e-38
-0.060825717 -0.10470001 1.0470001 1.5209017e-38
-0.15084477 -0.10427524 1.0630001 1.336582e-38
-0.14840001 -0.10398096 1.0600001 1.4746944e-38
-0.14638096 -0.10398096 1.0600001 1.6683052e-38
-0.14803904 -0.10662952 1.087 1.6499039e-38
-0.14596857 -0.10662952 1.087 1.6960018e-38
-0.14482477 -0.1073162 1.0940001 1.6776355e-38
-0.14313237 -0.10761047 1.097 1.7052942e-38
-0.14104286 -0.10761047 1.097 1.6684891e-38
-0.13946001 -0.10800286 1.1010001 1.7145869e-38
-0.13736285 -0.10800286 1.1010001 1.6871074e-38
-0.13526572 -0.10800286 1.1010001 1.7055466e-38
-0.13365239 -0.10839524 1.105 1.6778526e-38
-0.13154761 -0.10839524 1.105 1.7239504e-38
-0.1297943 -0.10868952 1.108 1.7239504e-38
-0.12814477 -0.10908192 1.1120001 1.7700482e-38
-0.12602669 -0.10908192 1.1120001 1.7608286e-38
-0.12390859 -0.10908192 1.1120001 1.7700482e-38
-0.12179048 -0.10908192 1.1120001 1.7791959e-38
-0.1196724 -0.10908192 1.1120001 1.8160741e-38
-0.1175543 -0.10908192 1.1120001 1.7884517e-38
-0.1154362 -0.10908192 1.1120001 1.7884517e-38
-0.1133181 -0.10908192 1.1120001 1.7700842e-38
-0.11080001 -0.10868952 1.108 1.7700842e-38
-0.10868952 -0.10868952 1.108 1.7332781e-38
-0.10696382 -0.10908192 1.1120001 1.7517172e-38
-0.10484572 -0.10908192 1.1120001 1.7608646e-38
-0.1023581 -0.10868952 1.108 1.7608646e-38
-0.10024762 -0.10868952 1.108 1.7515735e-38
-0.098137148 -0.10868952 1.108 1.7515735e-38
-0.096373342 -0.10908192 1.1120001 1.7422456e-38
-0.094255246 -0.10908192 1.1120001 1.7514652e-38
-0.091557145 -0.10839524 1.105 1.7606847e-38
-0.089452386 -0.10839524 1.105 1.7699043e-38
-0.087347619 -0.10839524 1.105 1.806603e-38
-0.08524286 -0.10839524 1.105 1.806603e-38
-0.083138093 -0.10839524 1.105 1.8251132e-38
-0.080740005 -0.10800286 1.1010001 1.8251132e-38
-0.07864286 -0.10800286 1.1010001 1.7883428e-38
-0.072999999 -0.10300001 1.0500001 1.7238059e-38
-0.070797145 -0.10270572 1.0470001 1.4386121e-38
-0.068802863 -0.10270572 1.0470001 1.0421709e-38
-0.066808574 -0.10270572 1.0470001 1.050989e-38
-0.064814284 -0.10270572 1.0470001 1.4382106e-38
-0.062820002 -0.10270572 1.0470001 1.5300852e-38
-0.060825717 -0.10270572 1.0470001 1.5393048e-38
-0.058831431 -0.10270572 1.0470001 1.5393408e-38
-0.15559049 -0.10138477 1.054 1.5853335e-38
-0.15358287 -0.10138477 1.054 1.5853335e-38
-0.15157524 -0.10138477 1.054 1.3643518e-38
-0.14956762 -0.10138477 1.054 7.5586067e-39
-0.14756 -0.10138477 1.054 8.3887079e-39
-0.14500001 -0.10100001 1.0500001 1.2629707e-38
-0.14136574 -0.099845722 1.0380001 1.4747649e-38
-0.13938859 -0.099845722 1.0380001 1.5946192e-38
-0.13741145 -0.099845722 1.0380001 1.6868891e-38
-0.1354343 -0.099845722 1.0380001 1.7145478e-38
-0.13345715 -0.099845722 1.0380001 1.7053673e-38
-0.13097334 -0.099460959 1.034 1.7699043e-38
-0.12900382 -0.099460959 1.034 1.769904e-38
-0.12703429 -0.099460959 1.034 1.8344409e-38
-0.12506478 -0.099460959 1.034 1.79767e-38
-0.12309524 -0.099460959 1.034 1.8161092e-38
-0.12112572 -0.099460959 1.034 1.7976713e-38
-0.1191562 -0.099460959 1.034 1.8529887e-38
-0.11684667 -0.099172384 1.031 1.8346204e-38
-0.11488286 -0.099172384 1.031 1.8346204e-38
-0.11291905 -0.099172384 1.031 1.8529887e-38
-0.11095524 -0.099172384 1.031 1.9359647e-38
-0.11713143 -0.10657905 1.108 1.9359638e-38
-0.11502095 -0.10657905 1.108 1.9359638e-38
-0.11291048 -0.10657905 1.108 1.9359647e-38
-0.11080001 -0.10657905 1.108 1.972843e-38
-0.10868952 -0.10657905 1.108 1.963659e-38
-0.10696382 -0.10696382 1.1120001 2.0005373e-38
-0.10484572 -0.10696382 1.1120001 1.9728786e-38
-0.1023581 -0.10657905 1.108 1.9820981e-38
-0.10024762 -0.10657905 1.108 1.9175978e-38
-0.098137148 -0.10657905 1.108 1.8899391e-38
-0.096373342 -0.10696382 1.1120001 1.8623154e-38
-0.094255246 -0.10696382 1.1120001 1.8899741e-38
-0.086254284 -0.10013428 1.041 1.8161826e-38
-0.084028579 -0.099845722 1.0380001 1.7977435e-38
-0.082051434 -0.099845722 1.0380001 1.6778548e-38
-0.080074295 -0.099845722 1.0380001 1.6409766e-38
-0.078548573 -0.10042286 1.044 1.6038112e-38
-0.076559998 -0.10042286 1.044 1.5669329e-38
-0.074785717 -0.10071143 1.0470001 1.2721214e-38
-0.072791435 -0.10071143 1.0470001 1.2352432e-38
-0.071000002 -0.10100001 1.0500001 1.2540035e-38
-0.069000006 -0.10100001 1.0500001 1.1618079e-38
-0.067000002 -0.10100001 1.0500001 1.1246788e-38
-0.065000005 -0.10100001 1.0500001 1.4104852e-38
-0.062820002 -0.10071143 1.0470001 1.5761825e-38
-0.060825717 -0.10071143 1.0470001 1.5577433e-38
-0.058831431 -0.10071143 1.0470001 1.5669632e-38
-0.15559049 -0.09937714 1.054 1.5577471e-38
-0.15358287 -0.09937714 1.054 1.6222841e-38
-0.15157524 -0.09937714 1.054 1.4106663e-38
-0.14956762 -0.09937714 1.054 6.2700343e-39
-0.14658001 -0.098717146 1.0470001 4.4342913e-39
-0.14417143 -0.098434284 1.044 8.4908864e-39
-0.14136574 -0.097868577 1.0380001 1.207435e-38
-0.13938859 -0.097868577 1.0380001 1.4840219e-38
-0.13741145 -0.097868577 1.0380001 1.4014442e-38
-0.1354343 -0.097868577 1.0380001 1.4383225e-38
-0.13345715 -0.097868577 1.0380001 1.5487755e-38
-0.13097334 -0.097491436 1.034 1.7516058e-38
-0.12900382 -0.097491436 1.034 1.7423176e-38
-0.12703429 -0.097491436 1.034 1.7515372e-38
-0.12506478 -0.097491436 1.034 1.7792289e-38
-0.12309524 -0.097491436 1.034 1.8068876e-38
-0.12112572 -0.097491436 1.034 1.8345488e-38
-0.1191562 -0.097491436 1.034 1.8437684e-38
-0.11684667 -0.097208567 1.031 1.825294e-38
-0.11488286 -0.097208567 1.031 1.8345135e-38
-0.11291905 -0.097208567 1.031 1.8713918e-38
-0.11063238 -0.096925713 1.028 1.9267092e-38
-0.10867429 -0.096925713 1.028 1.9175975e-38
-0.10671619 -0.096925713 1.028 1.9175975e-38
-0.1047581 -0.096925713 1.028 1.9543676e-38
-0.1028 -0.096925713 1.028 1.9635871e-38
-0.10868952 -0.10446857 1.108 1.9728417e-38
-0.099460959 -0.097491436 1.034 1.9912809e-38
-0.097491436 -0.097491436 1.034 2.0004657e-38
-0.095521905 -0.097491436 1.034 1.9912461e-38
-0.093552381 -0.097491436 1.034 1.9176691e-38
-0.091937155 -0.097868577 1.0380001 1.8162539e-38
-0.089960009 -0.097868577 1.0380001 1.8071748e-38
-0.087982871 -0.097868577 1.0380001 1.844053e-38
-0.086005718 -0.097868577 1.0380001 1.6597747e-38
-0.084028579 -0.097868577 1.0380001 1.5583595e-38
-0.082051434 -0.097868577 1.0380001 1.4479393e-38
-0.080074295 -0.097868577 1.0380001 1.4295002e-38
-0.078548573 -0.098434284 1.044 1.5395957e-38
-0.076559998 -0.098434284 1.044 1.2814479e-38
-0.074785717 -0.098717146 1.0470001 1.2258744e-38
-0.072791435 -0.098717146 1.0470001 1.2443135e-38
-0.071000002 -0.099000007 1.0500001 1.2909877e-38
-0.069000006 -0.099000007 1.0500001 1.2264507e-38
-0.066808574 -0.098717146 1.0470001 1.1708104e-38
-0.064814284 -0.098717146 1.0470001 1.4473973e-38
-0.062820002 -0.098717146 1.0470001 1.5945868e-38
-0.060825717 -0.098717146 1.0470001 1.5945868e-38
-0.058831431 -0.098717146 1.0470001 1.5669279e-38
-0.15603334 -0.097646669 1.057 1.5854058e-38
-0.15402001 -0.097646669 1.057 1.7052601e-38
-0.15157524 -0.097369522 1.054 1.5120106e-38
-0.14956762 -0.097369522 1.054 7.0068903e-39
-0.14658001 -0.096722864 1.0470001 3.9765726e-39
-0.14417143 -0.096445717 1.044 7.7565934e-39
-0.14136574 -0.095891438 1.0380001 1.1985397e-38
-0.13938859 -0.095891438 1.0380001 1.3737114e-38
-0.13741145 -0.095891438 1.0380001 1.1708119e-38
-0.1354343 -0.095891438 1.0380001 7.5593158e-39
-0.13294287 -0.095521905 1.034 8.6635348e-39
-0.13097334 -0.095521905 1.034 1.4379664e-38
-0.12900382 -0.095521905 1.034 1.4197048e-38
-0.12703429 -0.095521905 1.034 1.1523375e-38
-0.12506478 -0.095521905 1.034 9.2288858e-39
-0.12309524 -0.095521905 1.034 1.125719e-38
-0.12112572 -0.095521905 1.034 1.3461326e-38
-0.1191562 -0.095521905 1.034 1.6227195e-38
-0.11718667 -0.095521905 1.034 1.5673635e-38
-0.11488286 -0.095244765 1.031 1.493607e-38
-0.11291905 -0.095244765 1.031 1.5212667e-38
-0.11063238 -0.094967619 1.028 1.6595602e-38
-0.10867429 -0.094967619 1.028 1.6686703e-38
-0.10671619 -0.094967619 1.028 1.5856942e-38
-0.1047581 -0.094967619 1.028 1.4472578e-38
-0.1028 -0.094967619 1.028 1.40116e-38
-0.10113619 -0.095244765 1.031 1.4195603e-38
-0.099172384 -0.095244765 1.031 1.6223907e-38
-0.097491436 -0.095521905 1.034 1.6777819e-38
-0.095244765 -0.095244765 1.031 1.7146602e-38
-0.093280949 -0.095244765 1.031 1.3925879e-38
-0.091582857 -0.095521905 1.034 9.1317058e-39
-0.089960009 -0.095891438 1.0380001 1.0331691e-38
-0.087982871 -0.095891438 1.0380001 1.604782e-38
-0.086005718 -0.095891438 1.0380001 1.7425324e-38
-0.084028579 -0.095891438 1.0380001 1.5765803e-38
-0.082051434 -0.095891438 1.0380001 1.5215128e-38
-0.080074295 -0.095891438 1.0380001 1.5399519e-38
-0.078548573 -0.096445717 1.044 1.6133522e-38
-0.076559998 -0.096445717 1.044 1.2722284e-38
-0.074785717 -0.096722864 1.0470001 8.7586129e-39
-0.072791435 -0.096722864 1.0470001 8.0210478e-39
-0.071000002 -0.097000003 1.0500001 9.0373521e-39
-0.069000006 -0.097000003 1.0500001 1.1803221e-38
-0.066808574 -0.096722864 1.0470001 1.2536422e-38
-0.064814284 -0.096722864 1.0470001 1.4933509e-38
-0.062820002 -0.096722864 1.0470001 1.5945506e-38
-0.060825717 -0.096722864 1.0470001 1.6129897e-38
-0.15603334 -0.095633335 1.057 1.57615e-38
-0.15402001 -0.095633335 1.057 1.6499065e-38
-0.15200667 -0.095633335 1.057 1.5305566e-38
-0.14956762 -0.095361911 1.054 7.8377201e-39
-0.14658001 -0.094728574 1.0470001 3.1435721e-39
-0.14458571 -0.094728574 1.0470001 8.0299279e-39
-0.14218286 -0.094457142 1.044 1.2627539e-38
-0.13979143 -0.094185717 1.041 1.3641691e-38
-0.13780858 -0.094185717 1.041 1.2351671e-38
-0.13582572 -0.094185717 1.041 7.9262808e-39
-0.13294287 -0.093552381 1.034 8.4808741e-39
-0.13097334 -0.093552381 1.034 1.3090656e-38
-0.12900382 -0.093552381 1.034 1.4015168e-38
-0.12752572 -0.093914293 1.0380001 1.0788321e-38
-0.12554859 -0.093914293 1.0380001 2.6094994e-39
-0.12309524 -0.093552381 1.034 7.0348896e-39
-0.12112572 -0.093552381 1.034 1.2176663e-38
-0.1191562 -0.093552381 1.034 1.4758141e-38
-0.11684667 -0.093280949 1.031 1.4661639e-38
-0.11488286 -0.093280949 1.031 1.2172357e-38
-0.11291905 -0.093280949 1.031 1.2357827e-38
-0.11063238 -0.093009517 1.028 1.4570522e-38
-0.10867429 -0.093009517 1.028 1.5950936e-38
-0.10702762 -0.093280949 1.031 1.5121175e-38
-0.10506381 -0.093280949 1.031 1.2078016e-38
-0.1031 -0.093280949 1.031 1.1801429e-38
-0.10113619 -0.093280949 1.031 1.1244614e-38
-0.099172384 -0.093280949 1.031 1.6223178e-38
-0.097208567 -0.093280949 1.031 1.6503033e-38
-0.095244765 -0.093280949 1.031 1.5673272e-38
-0.093280949 -0.093280949 1.031 1.300785e-38
-0.091582857 -0.093552381 1.034 6.6463516e-39
-0.089960009 -0.093914293 1.0380001 9.3221478e-39
-0.087982871 -0.093914293 1.0380001 1.4116321e-38
-0.086005718 -0.093914293 1.0380001 1.8161075e-38
-0.084028579 -0.093914293 1.0380001 1.7515705e-38
-0.082051434 -0.093914293 1.0380001 1.604457e-38
-0.080074295 -0.093914293 1.0380001 1.5860179e-38
-0.078548573 -0.094457142 1.044 1.6502655e-38
-0.076779999 -0.094728574 1.0470001 1.0141156e-38
-0.074785717 -0.094728574 1.0470001 9.6772789e-39
-0.072999999 -0.095000006 1.0500001 8.9397139e-39
-0.071000002 -0.095000006 1.0500001 8.668522e-39
-0.069000006 -0.095000006 1.0500001 1.1618782e-38
-0.067000002 -0.095000006 1.0500001 1.2627905e-38
-0.065000005 -0.095000006 1.0500001 1.5209382e-38
-0.063000001 -0.095000006 1.0500001 1.5484171e-38
-0.061000001 -0.095000006 1.0500001 1.5760758e-38
-0.059000004 -0.095000006 1.0500001 1.5669282e-38
-0.15603334 -0.093620002 1.057 1.5300159e-38
-0.15402001 -0.093620002 1.057 1.5945528e-38
-0.15200667 -0.093620002 1.057 1.5212279e-38
-0.14956762 -0.093354285 1.054 1.0694693e-38
-0.14658001 -0.092734285 1.0470001 4.255735e-39
-0.14458571 -0.092734285 1.0470001 5.269887e-39
-0.14218286 -0.092468575 1.044 1.1064867e-38
-0.1401943 -0.092468575 1.044 1.1710236e-38
-0.13820571 -0.092468575 1.044 1.0508837e-38
-0.13582572 -0.092202857 1.041 8.2961423e-39
-0.13345715 -0.091937155 1.0380001 8.2043545e-39
-0.13148001 -0.091937155 1.0380001 1.1062419e-38
-0.12950286 -0.091937155 1.0380001 1.2354943e-38
-0.12752572 -0.091937155 1.0380001 1.558179e-38
-0.12554859 -0.091937155 1.0380001 1.4940702e-38
-0.12309524 -0.091582857 1.034 1.5954854e-38
-0.12112572 -0.091582857 1.034 1.5677923e-38
-0.1191562 -0.091582857 1.034 1.5309141e-38
-0.11684667 -0.091317147 1.031 1.3007528e-38
-0.11488286 -0.091317147 1.031 1.1624593e-38
-0.11291905 -0.091317147 1.031 1.1350522e-38
-0.11095524 -0.091317147 1.031 1.2733456e-38
-0.10899143 -0.091317147 1.031 1.5031866e-38
-0.10702762 -0.091317147 1.031 1.7521148e-38
-0.10506381 -0.091317147 1.031 1.7423192e-38
-0.1031 -0.091317147 1.031 1.5671475e-38
-0.10113619 -0.091317147 1.031 1.6501583e-38
-0.099172384 -0.091317147 1.031 1.908306e-38
-0.097208567 -0.091317147 1.031 1.6506643e-38
-0.095244765 -0.091317147 1.031 1.2265644e-38
-0.093280949 -0.091317147 1.031 6.6596962e-39
-0.091582857 -0.091582857 1.034 5.6455442e-39
-0.089613333 -0.091582857 1.034 7.5773183e-39
-0.087982871 -0.091937155 1.0380001 8.0382964e-39
-0.086005718 -0.091937155 1.0380001 1.3006026e-38
-0.084028579 -0.091937155 1.0380001 1.6970438e-38
-0.082051434 -0.091937155 1.0380001 1.7978879e-38
-0.080074295 -0.091937155 1.0380001 1.6227162e-38
-0.078774288 -0.092734285 1.0470001 1.5029279e-38
-0.076779999 -0.092734285 1.0470001 9.3131501e-39
-0.075000003 -0.09300001 1.0500001 8.7596666e-39
-0.072999999 -0.09300001 1.0500001 8.4830797e-39
-0.071000002 -0.09300001 1.0500001 8.7596666e-39
-0.069000006 -0.09300001 1.0500001 1.143334e-38
-0.067000002 -0.09300001 1.0500001 1.2627915e-38
-0.065000005 -0.09300001 1.0500001 1.5946957e-38
-0.063420005 -0.093620002 1.057 1.6130613e-38
-0.15603334 -0.091606669 1.057 1.5484184e-38
-0.15402001 -0.091606669 1.057 1.6037358e-38
-0.15200667 -0.091606669 1.057 1.521156e-38
-0.14999335 -0.091606669 1.057 1.161593e-38
-0.147 -0.091000006 1.0500001 4.8060516e-39
-0.14458571 -0.09074001 1.0470001 4.5294647e-39
-0.14218286 -0.090480007 1.044 8.9505165e-39
-0.1401943 -0.090480007 1.044 9.6880815e-39
-0.13820571 -0.090480007 1.044 7.9316954e-39
-0.13582572 -0.090220004 1.041 7.7473042e-39
-0.13384286 -0.090220004 1.041 8.2064929e-39
-0.13186 -0.090220004 1.041 8.9440579e-39
-0.12950286 -0.089960009 1.0380001 1.1338595e-38
-0.12752572 -0.089960009 1.0380001 1.6132768e-38
-0.12506478 -0.089613333 1.034 1.6962178e-38
-0.12309524 -0.089613333 1.034 1.8068526e-38
-0.12112572 -0.089613333 1.034 1.6138551e-38
-0.1191562 -0.089613333 1.034 1.4294639e-38
-0.11684667 -0.08935333 1.031 1.1262285e-38
-0.11488286 -0.08935333 1.031 1.0893502e-38
-0.11291905 -0.08935333 1.031 1.0158098e-38
-0.11095524 -0.08935333 1.031 1.0803467e-38
-0.10899143 -0.08935333 1.031 1.392838e-38
-0.10702762 -0.08935333 1.031 1.6048879e-38
-0.10506381 -0.08935333 1.031 1.8529171e-38
-0.1031 -0.08935333 1.031 1.8529171e-38
-0.10113619 -0.08935333 1.031 1.7885624e-38
-0.099172384 -0.08935333 1.031 1.8070016e-38
-0.097208567 -0.08935333 1.031 1.4668834e-38
-0.095244765 -0.08935333 1.031 7.6619665e-39
-0.093552381 -0.089613333 1.034 4.4545513e-39
-0.091582857 -0.089613333 1.034 5.6530944e-39
-0.089613333 -0.089613333 1.034 3.5351285e-39
-0.087982871 -0.089960009 1.0380001 1.8756072e-39
-0.086005718 -0.089960009 1.0380001 7.7598696e-39
-0.084028579 -0.089960009 1.0380001 1.4951129e-38
-0.082051434 -0.089960009 1.0380001 1.7335688e-38
-0.08030571 -0.090220004 1.041 1.5215188e-38
-0.078774288 -0.09074001 1.0470001 1.1621666e-38
-0.076779999 -0.09074001 1.0470001 8.2104277e-39
-0.075000003 -0.091000006 1.0500001 9.220642e-39
-0.072999999 -0.091000006 1.0500001 8.7596638e-39
-0.071000002 -0.091000006 1.0500001 8.9422572e-39
-0.069262855 -0.091346666 1.054 1.1892517e-38
-0.067255244 -0.091346666 1.054 1.2813009e-38
-0.065247618 -0.091346666 1.054 1.5763269e-38
-0.063420005 -0.091606669 1.057 1.6314648e-38
-0.061406672 -0.091606669 1.057 1.6038061e-38
-0.15445715 -0.089847624 1.0600001 1.6037714e-38
-0.15200667 -0.089593336 1.057 1.5487068e-38
-0.14999335 -0.089593336 1.057 1.3089982e-38
-0.14756 -0.089339048 1.054 4.806479e-39
-0.14500001 -0.089000002 1.0500001 2.4093926e-39
-0.14259143 -0.088745721 1.0470001 8.4888349e-39
-0.14059715 -0.088745721 1.0470001 1.0148356e-38
-0.13820571 -0.088491425 1.044 8.9419069e-39
-0.13582572 -0.088237144 1.041 8.5731244e-39
-0.13384286 -0.088237144 1.041 8.6671207e-39
-0.13186 -0.088237144 1.041 8.4827294e-39
-0.12987715 -0.088237144 1.041 8.4812791e-39
-0.12789428 -0.088237144 1.041 1.3275452e-38
-0.12506478 -0.08764381 1.034 1.6040928e-38
-0.12309524 -0.08764381 1.034 1.6778493e-38
-0.12112572 -0.08764381 1.034 1.4757033e-38
-0.1191562 -0.08764381 1.034 1.1806773e-38
-0.11718667 -0.08764381 1.034 1.0064128e-38
-0.11488286 -0.087389529 1.031 1.0893889e-38
-0.11291905 -0.087389529 1.031 1.0894581e-38
-0.11095524 -0.087389529 1.031 1.0986777e-38
-0.10899143 -0.087389529 1.031 1.2272819e-38
-0.10702762 -0.087389529 1.031 1.245721e-38
-0.10506381 -0.087389529 1.031 1.6135304e-38
-0.1031 -0.087389529 1.031 2.0007521e-38
-0.10113619 -0.087389529 1.031 1.8441297e-38
-0.099172384 -0.087389529 1.031 1.3186146e-38
-0.097208567 -0.087389529 1.031 5.4633474e-39
-0.095244765 -0.087389529 1.031 4.4491955e-39
-0.093552381 -0.08764381 1.034 5.0077404e-39
-0.091937155 -0.087982871 1.0380001 5.7453055e-39
-0.089960009 -0.087982871 1.0380001 5.3747251e-39
-0.087982871 -0.087982871 1.0380001 3.8073994e-39
-0.086254284 -0.088237144 1.041 6.1057937e-39
-0.084271431 -0.088237144 1.041 1.0992162e-38
-0.082525715 -0.088491425 1.044 1.5124762e-38
-0.080537148 -0.088491425 1.044 1.2727676e-38
-0.078774288 -0.088745721 1.0470001 9.2238888e-39
-0.076779999 -0.088745721 1.0470001 7.93315e-39
-0.075000003 -0.089000002 1.0500001 9.1295352e-39
-0.072999999 -0.089000002 1.0500001 9.1295352e-39
-0.071000002 -0.089000002 1.0500001 1.0234093e-38
-0.069262855 -0.089339048 1.054 1.3092158e-38
-0.067255244 -0.089339048 1.054 1.3550927e-38
-0.065247618 -0.089339048 1.054 1.5579231e-38
-0.063239999 -0.089339048 1.054 1.6129894e-38
-0.061232381 -0.089339048 1.054 1.6037698e-38
-0.1524381 -0.087828577 1.0600001 1.5762929e-38
-0.15041904 -0.087828577 1.0600001 1.4287799e-38
-0.14798 -0.087580003 1.057 8.5828508e-39
-0.14555238 -0.087331429 1.054 4.7106343e-39
-0.14259143 -0.086751431 1.0470001 8.2104459e-39
-0.14059715 -0.086751431 1.0470001 1.0791924e-38
-0.13860285 -0.086751431 1.0470001 1.0046472e-38
-0.13621715 -0.086502858 1.044 8.8479288e-39
-0.13384286 -0.086254284 1.041 8.9429761e-39
-0.13186 -0.086254284 1.041 8.6663892e-39
-0.13025144 -0.086502858 1.044 8.2061145e-39
-0.12789428 -0.086254284 1.041 1.2631505e-38
-0.12554859 -0.086005718 1.0380001 1.3463433e-38
-0.12309524 -0.085674286 1.034 1.5399541e-38
-0.12112572 -0.085674286 1.034 1.2364311e-38
-0.1191562 -0.085674286 1.034 1.0704789e-38
-0.11718667 -0.085674286 1.034 1.01563e-38
-0.11521715 -0.085674286 1.034 1.0986061e-38
-0.11324762 -0.085674286 1.034 1.1170449e-38
-0.11127809 -0.085674286 1.034 1.1447036e-38
-0.10899143 -0.085425712 1.031 1.0619427e-38
-0.10702762 -0.085425712 1.031 9.9740571e-39
-0.10536952 -0.085674286 1.034 1.310078e-38
-0.1031 -0.085425712 1.031 1.8079344e-38
-0.10113619 -0.085425712 1.031 1.7338934e-38
-0.099172384 -0.085425712 1.031 9.7788927e-39
-0.097208567 -0.085425712 1.031 1.5132986e-39
-0.095244765 -0.085425712 1.031 3.2650156e-39
-0.093552381 -0.085674286 1.034 5.7427817e-39
-0.091937155 -0.086005718 1.0380001 5.927173e-39
-0.089960009 -0.086005718 1.0380001 5.9271702e-39
-0.087982871 -0.086005718 1.0380001 4.1754532e-39
-0.086254284 -0.086254284 1.041 3.9921214e-39
-0.084271431 -0.086254284 1.041 9.800446e-39
-0.082288571 -0.086254284 1.041 1.4481223e-38
-0.080537148 -0.086502858 1.044 1.3098288e-38
-0.078774288 -0.086751431 1.0470001 9.3168131e-39
-0.076779999 -0.086751431 1.0470001 7.5650961e-39
-0.075000003 -0.087000005 1.0500001 8.9458179e-39
-0.072999999 -0.087000005 1.0500001 1.0236557e-38
-0.071270473 -0.087331429 1.054 1.2444612e-38
-0.069262855 -0.087331429 1.054 1.2813395e-38
-0.067255244 -0.087331429 1.054 1.3458366e-38
-0.065247618 -0.087331429 1.054 1.5763257e-38
-0.063239999 -0.087331429 1.054 1.585331e-38
-0.061232381 -0.087331429 1.054 1.5761114e-38
-0.15041904 -0.085809529 1.0600001 1.4932089e-38
-0.14798 -0.08556667 1.057 1.0329551e-38
-0.14596666 -0.08556667 1.057 7.6558779e-39
-0.14395334 -0.08556667 1.057 9.315381e-39
-0.141 -0.085000008 1.0500001 1.2450032e-38
-0.13860285 -0.084757142 1.0470001 1.2077277e-38
-0.13621715 -0.08451429 1.044 8.2972564e-39
-0.13422857 -0.08451429 1.044 7.6551085e-39
-0.13224 -0.08451429 1.044 7.7473042e-39
-0.13025144 -0.08451429 1.044 7.929906e-39
-0.12789428 -0.084271431 1.041 1.1986514e-38
-0.12591143 -0.084271431 1.041 1.4107351e-38
-0.12357144 -0.084028579 1.0380001 1.6412242e-38
-0.12159429 -0.084028579 1.0380001 1.4022371e-38
-0.1191562 -0.08370477 1.034 1.171748e-38
-0.11718667 -0.08370477 1.034 1.0065897e-38
-0.11521715 -0.08370477 1.034 1.0619071e-38
-0.11324762 -0.08370477 1.034 1.1444878e-38
-0.11127809 -0.08370477 1.034 1.1813661e-38
-0.10930857 -0.08370477 1.034 1.0894578e-38
-0.10733905 -0.08370477 1.034 1.0341405e-38
-0.10536952 -0.08370477 1.034 1.3100437e-38
-0.10340001 -0.08370477 1.034 1.7618023e-38
-0.10143048 -0.08370477 1.034 1.7247785e-38
-0.099460959 -0.08370477 1.034 9.6877438e-39
-0.097491436 -0.08370477 1.034 1.5129623e-39
-0.095521905 -0.08370477 1.034 2.5271143e-39
-0.093552381 -0.08370477 1.034 5.0077404e-39
-0.091937155 -0.084028579 1.0380001 5.1921317e-39
-0.089960009 -0.084028579 1.0380001 4.8233366e-39
-0.087982871 -0.084028579 1.0380001 3.0716196e-39
-0.086254284 -0.084271431 1.041 7.2096021e-39
-0.084271431 -0.084271431 1.041 1.3663296e-38
-0.082288571 -0.084271431 1.041 1.696546e-38
-0.080537148 -0.08451429 1.044 1.6412286e-38
-0.078774288 -0.084757142 1.0470001 1.3185466e-38
-0.076779999 -0.084757142 1.0470001 8.2990977e-39
-0.075000003 -0.085000008 1.0500001 8.5784844e-39
-0.072999999 -0.085000008 1.0500001 1.2727288e-38
-0.071270473 -0.085323811 1.054 1.2267026e-38
-0.069262855 -0.085323811 1.054 9.2245698e-39
-0.067255244 -0.085323811 1.054 1.0787617e-38
-0.065247618 -0.085323811 1.054 1.5673986e-38
-0.063239999 -0.085323811 1.054 1.6591588e-38
-0.061232381 -0.085323811 1.054 1.613061e-38
-0.059000004 -0.085000008 1.0500001 1.613061e-38
-0.15041904 -0.083790481 1.0600001 1.6038787e-38
-0.14840001 -0.083790481 1.0600001 1.2448578e-38
-0.14596666 -0.083553337 1.057 9.9592958e-39
-0.14395334 -0.083553337 1.057 1.1064905e-38
-0.14153714 -0.083316192 1.054 1.2540035e-38
-0.13900001 -0.083000004 1.0500001 1.1804641e-38
-0.13660859 -0.08276286 1.0470001 8.8543804e-39
-0.13422857 -0.082525715 1.044 7.6551085e-39
-0.13224 -0.082525715 1.044 7.4707173e-39
-0.13025144 -0.082525715 1.044 7.7473042e-39
-0.12789428 -0.082288571 1.041 1.3371238e-38
-0.12591143 -0.082288571 1.041 1.4844575e-38
-0.12357144 -0.082051434 1.0380001 1.622751e-38
-0.12159429 -0.082051434 1.0380001 1.4297888e-38
-0.11961716 -0.082051434 1.0380001 1.2269584e-38
-0.11764001 -0.082051434 1.0380001 1.0066616e-38
-0.11566287 -0.082051434 1.0380001 1.0435398e-38
-0.11324762 -0.081735246 1.034 1.1077168e-38
-0.11127809 -0.081735246 1.034 1.144595e-38
-0.10930857 -0.081735246 1.034 1.0434316e-38
-0.10733905 -0.081735246 1.034 1.0526512e-38
-0.10536952 -0.081735246 1.034 1.4019879e-38
-0.10340001 -0.081735246 1.034 1.7707704e-38
-0.10143048 -0.081735246 1.034 1.7340694e-38
-0.099460959 -0.081735246 1.034 1.3191891e-38
-0.097491436 -0.081735246 1.034 4.3652941e-39
-0.095521905 -0.081735246 1.034 3.0745553e-39
-0.093552381 -0.081735246 1.034 4.0868603e-39
-0.091937155 -0.082051434 1.0380001 4.2712516e-39
-0.090220004 -0.082288571 1.041 2.800062e-39
-0.088237144 -0.082288571 1.041 3.4454314e-39
-0.086254284 -0.082288571 1.041 1.0154132e-38
-0.084271431 -0.082288571 1.041 1.5224892e-38
-0.082525715 -0.082525715 1.044 1.8438413e-38
-0.080768578 -0.08276286 1.0470001 1.7793043e-38
-0.078774288 -0.08276286 1.0470001 1.5950955e-38
-0.077000007 -0.083000004 1.0500001 1.0972391e-38
-0.075000003 -0.083000004 1.0500001 9.4972317e-39
-0.072999999 -0.083000004 1.0500001 1.3277253e-38
-0.071270473 -0.083316192 1.054 1.1899338e-38
-0.069262855 -0.083316192 1.054 7.6583385e-39
-0.067255244 -0.083316192 1.054 9.317141e-39
-0.065247618 -0.083316192 1.054 1.5217661e-38
-0.063000001 -0.083000004 1.0500001 1.6592314e-38
-0.061000001 -0.083000004 1.0500001 1.603914e-38
-0.059000004 -0.083000004 1.0500001 1.6222806e-38
-0.15084477 -0.082002863 1.0630001 1.6407207e-38
-0.14840001 -0.081771433 1.0600001 1.3736417e-38
-0.14638096 -0.081771433 1.0600001 1.0601766e-38
-0.14395334 -0.081540003 1.057 9.9625132e-39
-0.14194 -0.081540003 1.057 1.0792274e-38
-0.13952953 -0.081308573 1.054 1.1528031e-38
-0.13700001 -0.081 1.0500001 1.1989009e-38
-0.13461429 -0.080768578 1.0470001 1.042063e-38
-0.13224 -0.080537148 1.044 9.3142824e-39
-0.13025144 -0.080537148 1.044 1.1062059e-38
-0.12826286 -0.080537148 1.044 1.6870384e-38
-0.12591143 -0.08030571 1.041 1.6503737e-38
-0.12392857 -0.08030571 1.041 1.5766172e-38
-0.12159429 -0.080074295 1.0380001 1.4665945e-38
-0.11961716 -0.080074295 1.0380001 1.4665945e-38
-0.11764001 -0.080074295 1.0380001 1.2365743e-38
-0.11566287 -0.080074295 1.0380001 1.1075004e-38
-0.11324762 -0.079765722 1.034 1.0433613e-38
-0.11127809 -0.079765722 1.034 1.0986787e-38
-0.10930857 -0.079765722 1.034 1.236538e-38
-0.10733905 -0.079765722 1.034 1.4946858e-38
-0.10536952 -0.079765722 1.034 1.7428564e-38
-0.10340001 -0.079765722 1.034 1.7612955e-38
-0.10143048 -0.079765722 1.034 1.7796984e-38
-0.099460959 -0.079765722 1.034 1.871894e-38
-0.097491436 -0.079765722 1.034 1.5497173e-38
-0.095521905 -0.079765722 1.034 1.0887391e-38
-0.093914293 -0.080074295 1.0380001 2.7061203e-39
-0.092202857 -0.08030571 1.041 1.8763597e-39
-0.090220004 -0.08030571 1.041 5.4643844e-39
-0.088237144 -0.08030571 1.041 1.1549296e-38
-0.086502858 -0.080537148 1.044 1.641657e-38
-0.08451429 -0.080537148 1.044 1.6139983e-38
-0.082525715 -0.080537148 1.044 1.6137825e-38
-0.080768578 -0.080768578 1.0470001 1.6322217e-38
-0.078774288 -0.080768578 1.0470001 1.6319721e-38
-0.077000007 -0.081 1.0500001 1.5674351e-38
-0.075000003 -0.081 1.0500001 1.5766153e-38
-0.072999999 -0.081 1.0500001 1.3737849e-38
-0.071270473 -0.081308573 1.054 9.318255e-39
-0.069262855 -0.081308573 1.054 5.2616473e-39
-0.067255244 -0.081308573 1.054 1.0145109e-38
-0.065247618 -0.081308573 1.054 1.5953434e-38
-0.063000001 -0.081 1.0500001 1.6867825e-38
-0.061000001 -0.081 1.0500001 1.6222455e-38
-0.15084477 -0.079978101 1.0630001 1.6406844e-38
-0.14840001 -0.079752386 1.0600001 1.4011938e-38
-0.14638096 -0.079752386 1.0600001 1.0416308e-38
-0.1443619 -0.079752386 1.0600001 8.6732065e-39
-0.14194 -0.07952667 1.057 8.7654022e-39
-0.13992667 -0.07952667 1.057 1.1618782e-38
-0.13700001 -0.079000004 1.0500001 1.272513e-38
-0.13461429 -0.078774288 1.0470001 1.24464e-38
-0.13262001 -0.078774288 1.0470001 1.2262009e-38
-0.13025144 -0.078548573 1.044 1.4654802e-38
-0.12826286 -0.078548573 1.044 1.7144084e-38
-0.12627429 -0.078548573 1.044 1.4756348e-38
-0.12392857 -0.078322858 1.041 1.3373414e-38
-0.12194571 -0.078322858 1.041 1.4481528e-38
-0.11996286 -0.078322858 1.041 1.6048854e-38
-0.11798 -0.078322858 1.041 1.4849627e-38
-0.11599714 -0.078322858 1.041 1.1991563e-38
-0.11368572 -0.07809715 1.0380001 1.0157004e-38
-0.11170858 -0.07809715 1.0380001 1.0986764e-38
-0.10973144 -0.07809715 1.0380001 1.3835844e-38
-0.1077543 -0.07809715 1.0380001 1.6693908e-38
-0.10577715 -0.07809715 1.0380001 1.8532401e-38
-0.10340001 -0.077796191 1.034 1.6596292e-38
-0.10143048 -0.077796191 1.034 1.6411484e-38
-0.099460959 -0.077796191 1.034 1.8992961e-38
-0.097491436 -0.077796191 1.034 1.8994114e-38
-0.095521905 -0.077796191 1.034 1.5121898e-38
-0.093914293 -0.07809715 1.0380001 7.3990871e-39
-0.092202857 -0.078322858 1.041 4.1722401e-39
-0.090220004 -0.078322858 1.041 7.119933e-39
-0.088491425 -0.078548573 1.044 1.4495583e-38
-0.086502858 -0.078548573 1.044 1.7062675e-38
-0.08451429 -0.078548573 1.044 1.3835828e-38
-0.08276286 -0.078774288 1.0470001 1.3190812e-38
-0.080768578 -0.078774288 1.0470001 1.3559595e-38
-0.078774288 -0.078774288 1.0470001 1.6135314e-38
-0.077000007 -0.079000004 1.0500001 1.7149466e-38
-0.075000003 -0.079000004 1.0500001 1.6871094e-38
-0.072999999 -0.079000004 1.0500001 1.1154965e-38
-0.071270473 -0.079300947 1.054 8.9469011e-39
-0.069262855 -0.079300947 1.054 7.3795754e-39
-0.067255244 -0.079300947 1.054 1.0880867e-38
-0.065247618 -0.079300947 1.054 1.5951626e-38
-0.063239999 -0.079300947 1.054 1.6775263e-38
-0.061232381 -0.079300947 1.054 1.622209e-38
-0.059224762 -0.079300947 1.054 1.6405039e-38
-0.14882001 -0.077953339 1.0630001 1.5119342e-38
-0.14638096 -0.077733338 1.0600001 9.1266261e-39
-0.1443619 -0.077733338 1.0600001 7.4771843e-39
-0.14194 -0.07751333 1.057 7.7537712e-39
-0.13992667 -0.07751333 1.057 9.1338512e-39
-0.13700001 -0.077000007 1.0500001 1.2268503e-38
-0.13461429 -0.076779999 1.0470001 1.4013723e-38
-0.13262001 -0.076779999 1.0470001 1.5857636e-38
-0.13025144 -0.076559998 1.044 1.5213361e-38
-0.12826286 -0.076559998 1.044 1.2724079e-38
-0.12627429 -0.076559998 1.044 7.5716122e-39
-0.12428571 -0.076559998 1.044 4.8979389e-39
-0.12194571 -0.076339997 1.041 9.1374413e-39
-0.11996286 -0.076339997 1.041 1.5130157e-38
-0.11798 -0.076339997 1.041 1.6230046e-38
-0.11599714 -0.076339997 1.041 1.5769068e-38
-0.11401429 -0.076339997 1.041 1.5126901e-38
-0.11203143 -0.076339997 1.041 1.6325444e-38
-0.11004857 -0.076339997 1.041 1.7335315e-38
-0.1077543 -0.076120012 1.0380001 1.7335315e-38
-0.10577715 -0.076120012 1.0380001 1.4753847e-38
-0.10340001 -0.075826667 1.034 1.0144065e-38
-0.10143048 -0.075826667 1.034 1.0787242e-38
-0.099845722 -0.076120012 1.0380001 1.567361e-38
-0.097868577 -0.076120012 1.0380001 1.7793043e-38
-0.095891438 -0.076120012 1.0380001 1.9913543e-38
-0.093914293 -0.076120012 1.0380001 1.8534556e-38
-0.092202857 -0.076339997 1.041 1.5860883e-38
-0.090480007 -0.076559998 1.044 1.5771917e-38
-0.088491425 -0.076559998 1.044 1.7062656e-38
-0.086751431 -0.076779999 1.0470001 1.5864838e-38
-0.084757142 -0.076779999 1.0470001 1.24536e-38
-0.08276286 -0.076779999 1.0470001 1.0983893e-38
-0.080768578 -0.076779999 1.0470001 1.0430719e-38
-0.078774288 -0.076779999 1.0470001 1.3281215e-38
-0.077000007 -0.077000007 1.0500001 1.5954889e-38
-0.075000003 -0.077000007 1.0500001 1.5584649e-38
-0.072999999 -0.077000007 1.0500001 8.7621722e-39
-0.071676195 -0.077733338 1.0600001 5.7294302e-39
-0.069657147 -0.077733338 1.0600001 6.282604e-39
-0.067638099 -0.077733338 1.0600001 1.152516e-38
-0.065619051 -0.077733338 1.0600001 1.6042746e-38
-0.063780002 -0.077953339 1.0630001 1.6682702e-38
-0.06175524 -0.077953339 1.0630001 1.6129528e-38
-0.1498 -0.076428577 1.0700001 1.5119718e-38
-0.14679524 -0.075928576 1.0630001 9.2191972e-39
-0.1443619 -0.07571429 1.0600001 7.6605035e-39
-0.14234287 -0.07571429 1.0600001 7.9370904e-39
-0.13992667 -0.075500004 1.057 8.3987874e-39
-0.13752191 -0.075285718 1.054 1.1072461e-38
-0.13500002 -0.075000003 1.0500001 1.4014086e-38
-0.13262001 -0.074785717 1.0470001 1.6134586e-38
-0.13025144 -0.074571431 1.044 1.4202819e-38
-0.12826286 -0.074571431 1.044 7.9335157e-39
-0.12627429 -0.074571431 1.044 4.2633203e-39
-0.12428571 -0.074571431 1.044 3.1569727e-39
-0.12229715 -0.074571431 1.044 6.9286642e-39
-0.12030858 -0.074571431 1.044 1.1722837e-38
-0.11832 -0.074571431 1.044 1.6412595e-38
-0.11633143 -0.074571431 1.044 1.7334551e-38
-0.11401429 -0.074357137 1.041 1.7424977e-38
-0.11203143 -0.074357137 1.041 1.8254738e-38
-0.11004857 -0.074357137 1.041 1.8440571e-38
-0.1077543 -0.074142866 1.0380001 1.5766897e-38
-0.10577715 -0.074142866 1.0380001 1.2635846e-38
-0.10380001 -0.074142866 1.0380001 9.6855858e-39
-0.10182287 -0.074142866 1.0380001 1.005143e-38
-0.099845722 -0.074142866 1.0380001 1.2540712e-38
-0.097868577 -0.074142866 1.0380001 1.6497591e-38
-0.095891438 -0.074142866 1.0380001 1.9171264e-38
-0.094185717 -0.074357137 1.041 2.0371997e-38
-0.092468575 -0.074571431 1.044 2.0003215e-38
-0.090480007 -0.074571431 1.044 1.7336394e-38
-0.088491425 -0.074571431 1.044 1.5861264e-38
-0.086751431 -0.074785717 1.0470001 1.3562487e-38
-0.084757142 -0.074785717 1.0470001 1.1626379e-38
-0.08276286 -0.074785717 1.0470001 1.0986411e-38
-0.080768578 -0.074785717 1.0470001 1.0064455e-38
-0.078774288 -0.074785717 1.0470001 1.153417e-38
-0.077000007 -0.075000003 1.0500001 1.4392235e-38
-0.075000003 -0.075000003 1.0500001 1.4390084e-38
-0.072999999 -0.075000003 1.0500001 6.5534553e-39
-0.071676195 -0.07571429 1.0600001 1.7768521e-39
-0.069657147 -0.07571429 1.0600001 5.0958947e-39
-0.067638099 -0.07571429 1.0600001 1.226128e-38
-0.065619051 -0.07571429 1.0600001 1.6225692e-38
-0.063780002 -0.075928576 1.0630001 1.6590506e-38
-0.06175524 -0.075928576 1.0630001 1.6129528e-38
-0.14679524 -0.073903814 1.0630001 1.2259851e-38
-0.14477049 -0.073903814 1.0630001 8.0285854e-39
-0.14234287 -0.073695242 1.0600001 7.9363898e-39
-0.13992667 -0.073486671 1.057 7.9381975e-39
-0.13752191 -0.073278099 1.054 9.4133275e-39
-0.13500002 -0.072999999 1.0500001 1.3094984e-38
-0.13262001 -0.072791435 1.0470001 1.4293527e-38
-0.13062572 -0.072791435 1.0470001 1.2453931e-38
-0.12826286 -0.072582863 1.044 6.0924323e-39
-0.12627429 -0.072582863 1.044 2.2433107e-39
-0.12428571 -0.072582863 1.044 3.3496582e-39
-0.12229715 -0.072582863 1.044 5.2756799e-39
-0.12030858 -0.072582863 1.044 5.4600712e-39
-0.11832 -0.072582863 1.044 9.5983816e-39
-0.11633143 -0.072582863 1.044 1.5867684e-38
-0.11434286 -0.072582863 1.044 1.7610109e-38
-0.11203143 -0.072374292 1.041 1.7056936e-38
-0.11004857 -0.072374292 1.041 1.4845314e-38
-0.10806572 -0.072374292 1.041 1.0327728e-38
-0.10577715 -0.07216572 1.0380001 1.0330229e-38
-0.10380001 -0.07216572 1.0380001 1.1067794e-38
-0.10182287 -0.07216572 1.0380001 1.1341141e-38
-0.10013428 -0.072374292 1.041 1.1064555e-38
-0.098151423 -0.072374292 1.041 1.2261981e-38
-0.09616857 -0.072374292 1.041 1.502785e-38
-0.094185717 -0.072374292 1.041 1.8344381e-38
-0.092468575 -0.072582863 1.044 2.0557076e-38
-0.09074001 -0.072791435 1.0470001 1.7611183e-38
-0.088745721 -0.072791435 1.0470001 1.4107749e-38
-0.086751431 -0.072791435 1.0470001 1.0986058e-38
-0.084757142 -0.072791435 1.0470001 1.1078254e-38
-0.08276286 -0.072791435 1.0470001 1.1262995e-38
-0.080768578 -0.072791435 1.0470001 1.0433235e-38
-0.078774288 -0.072791435 1.0470001 1.1810051e-38
-0.077000007 -0.072999999 1.0500001 1.4114942e-38
-0.075000003 -0.072999999 1.0500001 1.4389718e-38
-0.073278099 -0.073278099 1.054 7.2906546e-39
-0.071676195 -0.073695242 1.0600001 2.3293728e-39
-0.069657147 -0.073695242 1.0600001 5.5562199e-39
-0.067638099 -0.073695242 1.0600001 1.2077274e-38
-0.065619051 -0.073695242 1.0600001 1.6226078e-38
-0.063600004 -0.073695242 1.0600001 1.6498311e-38
-0.14477049 -0.071879052 1.0630001 1.0419891e-38
-0.14234287 -0.071676195 1.0600001 9.3135439e-39
-0.14032382 -0.071676195 1.0600001 7.5708415e-39
-0.13752191 -0.071270473 1.054 8.7693846e-39
-0.13500002 -0.071000002 1.0500001 1.0886637e-38
-0.133 -0.071000002 1.0500001 1.273055e-38
-0.13062572 -0.070797145 1.0470001 9.6935017e-39
-0.12863143 -0.070797145 1.0470001 5.1759159e-39
-0.12663715 -0.070797145 1.0470001 3.1634467e-39
-0.12428571 -0.070594288 1.044 4.4541855e-39
-0.12229715 -0.070594288 1.044 3.7162673e-39
-0.12030858 -0.070594288 1.044 2.2411373e-39
-0.11832 -0.070594288 1.044 4.817147e-39
-0.11633143 -0.070594288 1.044 1.3206949e-38
-0.11434286 -0.070594288 1.044 1.6785032e-38
-0.11235429 -0.070594288 1.044 1.5678684e-38
-0.11004857 -0.070391431 1.041 1.2636547e-38
-0.10806572 -0.070391431 1.041 9.7784821e-39
-0.10608286 -0.070391431 1.041 1.0788336e-38
-0.1041 -0.070391431 1.041 1.1710293e-38
-0.10211714 -0.070391431 1.041 1.1617728e-38
-0.10013428 -0.070391431 1.041 1.1341141e-38
-0.098151423 -0.070391431 1.041 1.0513504e-38
-0.09616857 -0.070391431 1.041 1.1896438e-38
-0.094185717 -0.070391431 1.041 1.6040219e-38
-0.092734285 -0.070797145 1.0470001 2.0096827e-38
-0.09074001 -0.070797145 1.0470001 1.6693558e-38
-0.088745721 -0.070797145 1.0470001 1.2360363e-38
-0.086751431 -0.070797145 1.0470001 1.0343203e-38
-0.084757142 -0.070797145 1.0470001 1.0896376e-38
-0.08276286 -0.070797145 1.0470001 1.0802746e-38
-0.080768578 -0.070797145 1.0470001 1.0065181e-38
-0.079000004 -0.071000002 1.0500001 1.1626379e-38
-0.077000007 -0.071000002 1.0500001 1.4392247e-38
-0.075000003 -0.071000002 1.0500001 1.4575194e-38
-0.073695242 -0.071676195 1.0600001 8.5824781e-39
-0.071676195 -0.071676195 1.0600001 4.9007485e-39
-0.069854289 -0.071879052 1.0630001 7.1134436e-39
-0.067638099 -0.071676195 1.0600001 1.3276143e-38
-0.065619051 -0.071676195 1.0600001 1.6318598e-38
-0.063600004 -0.071676195 1.0600001 1.6498667e-38
-0.14274572 -0.069854289 1.0630001 9.3149984e-39
-0.14032382 -0.069657147 1.0600001 7.9396366e-39
-0.13791333 -0.069460005 1.057 8.585006e-39
-0.13551429 -0.069262855 1.054 1.171424e-38
-0.133 -0.069000006 1.0500001 1.4480109e-38
-0.131 -0.069000006 1.0500001 1.2179512e-38
-0.12863143 -0.068802863 1.0470001 5.633622e-39
-0.12663715 -0.068802863 1.0470001 1.4178464e-39
-0.12428571 -0.068605714 1.044 3.261759e-39
-0.12229715 -0.068605714 1.044 4.2676489e-39
-0.12065428 -0.068802863 1.0470001 3.3456926e-39
-0.11832 -0.068605714 1.044 4.1732798e-39
-0.11633143 -0.068605714 1.044 1.0165996e-38
-0.11434286 -0.068605714 1.044 1.5493545e-38
-0.11235429 -0.068605714 1.044 1.4295002e-38
-0.11036572 -0.068605714 1.044 1.1436564e-38
-0.10806572 -0.068408571 1.041 1.0145825e-38
-0.10608286 -0.068408571 1.041 1.1617744e-38
-0.1041 -0.068408571 1.041 1.1894331e-38
-0.10211714 -0.068408571 1.041 1.2077274e-38
-0.10013428 -0.068408571 1.041 1.1985079e-38
-0.098151423 -0.068408571 1.041 1.0972725e-38
-0.09616857 -0.068408571 1.041 1.1433703e-38
-0.094185717 -0.068408571 1.041 1.5212617e-38
-0.092734285 -0.068802863 1.0470001 1.9453616e-38
-0.09074001 -0.068802863 1.0470001 1.6876845e-38
-0.088745721 -0.068802863 1.0470001 1.2174868e-38
-0.086751431 -0.068802863 1.0470001 9.9762249e-39
-0.084757142 -0.068802863 1.0470001 1.071379e-38
-0.08276286 -0.068802863 1.0470001 1.0894225e-38
-0.081 -0.069000006 1.0500001 1.0525443e-38
-0.079000004 -0.069000006 1.0500001 1.2731294e-38
-0.077293336 -0.069262855 1.054 1.5036185e-38
-0.075500004 -0.069460005 1.057 1.613603e-38
-0.073695242 -0.069657147 1.0600001 1.4292118e-38
-0.071676195 -0.069657147 1.0600001 1.1253998e-38
-0.069854289 -0.069854289 1.0630001 1.014765e-38
-0.067829534 -0.069854289 1.0630001 1.3000277e-38
-0.065804772 -0.069854289 1.0630001 1.6134929e-38
-0.063780002 -0.069854289 1.0630001 1.6406471e-38
-0.14328286 -0.068084762 1.067 9.6826865e-39
-0.14072096 -0.067829534 1.0630001 7.8477815e-39
-0.13830476 -0.067638099 1.0600001 9.5073028e-39
-0.13590001 -0.067446664 1.057 1.3093224e-38
-0.13350667 -0.067255244 1.054 1.4937137e-38
-0.131 -0.067000002 1.0500001 1.2638717e-38
-0.12863143 -0.066808574 1.0470001 7.2913707e-39
-0.12663715 -0.066808574 1.0470001 1.416801e-39
-0.12464286 -0.066808574 1.0470001 2.6153442e-39
-0.12264857 -0.066808574 1.0470001 2.9808505e-39
-0.12065428 -0.066808574 1.0470001 2.3354811e-39
-0.11866 -0.066808574 1.0470001 1.8763078e-39
-0.11633143 -0.066617146 1.044 9.1597626e-39
-0.11434286 -0.066617146 1.044 1.5217336e-38
-0.11235429 -0.066617146 1.044 1.4756358e-38
-0.11036572 -0.066617146 1.044 1.1620993e-38
-0.10837714 -0.066617146 1.044 1.0145863e-38
-0.10608286 -0.066425718 1.041 1.1525536e-38
-0.1041 -0.066425718 1.041 1.1802122e-38
-0.10211714 -0.066425718 1.041 1.2076909e-38
-0.10013428 -0.066425718 1.041 1.1892517e-38
-0.098434284 -0.066617146 1.044 1.1157119e-38
-0.096445717 -0.066617146 1.044 1.3277618e-38
-0.094457142 -0.066617146 1.044 1.6500144e-38
-0.092734285 -0.066808574 1.0470001 1.9266013e-38
-0.09074001 -0.066808574 1.0470001 1.7153432e-38
-0.088745721 -0.066808574 1.0470001 1.3557802e-38
-0.086751431 -0.066808574 1.0470001 1.0159914e-38
