# .PCD v0.7 - Point Cloud Data file format
VERSION 0.7
FIELDS x y z rgb
SIZE 4 4 4 4
TYPE F F F F
COUNT 1 1 1 1
WIDTH 1036
HEIGHT 1
VIEWPOINT 0 0 0 1 0 0 0
POINTS 1036
DATA ascii
-0.019460952 -0.17056952 1.202 1.8247821e-38
-0.017171429 -0.17056952 1.202 1.7601745e-38
-0.093342856 -0.16940001 1.21 1.9260563e-38
-0.0910381 -0.16940001 1.21 1.9447095e-38
-0.088733338 -0.16940001 1.21 1.9078313e-38
-0.086428568 -0.16940001 1.21 1.8525149e-38
-0.084401913 -0.16996002 1.2140001 1.8156366e-38
-0.082089528 -0.16996002 1.2140001 1.668376e-38
-0.079777151 -0.16996002 1.2140001 1.5761804e-38
-0.077464767 -0.16996002 1.2140001 1.6220608e-38
-0.075152382 -0.16996002 1.2140001 1.6128413e-38
-0.073140003 -0.17066 1.2190001 1.6035138e-38
-0.070818104 -0.17066 1.2190001 1.6496116e-38
-0.068496197 -0.17066 1.2190001 1.6220964e-38
-0.065902859 -0.16996002 1.2140001 1.6036573e-38
-0.063590482 -0.16996002 1.2140001 1.575963e-38
-0.061278097 -0.16996002 1.2140001 1.5944022e-38
-0.05896572 -0.16996002 1.2140001 1.6218813e-38
-0.056886673 -0.17066 1.2190001 1.6311009e-38
-0.054564763 -0.17066 1.2190001 1.6127334e-38
-0.05224286 -0.17066 1.2190001 1.6957094e-38
-0.049920954 -0.17066 1.2190001 1.6957813e-38
-0.047599051 -0.17066 1.2190001 1.7326596e-38
-0.045277145 -0.17066 1.2190001 1.7693237e-38
-0.042955242 -0.17066 1.2190001 1.7877628e-38
-0.04046667 -0.16996002 1.2140001 1.7877596e-38
-0.038028572 -0.16940001 1.21 1.8522966e-38
-0.035723813 -0.16940001 1.21 1.8432941e-38
-0.033419047 -0.16940001 1.21 1.9815875e-38
-0.031011432 -0.16884001 1.2060001 1.9909515e-38
-0.028714286 -0.16884001 1.2060001 2.0186102e-38
-0.026417146 -0.16884001 1.2060001 2.0736402e-38
-0.024040001 -0.16828001 1.202 2.0552011e-38
-0.02166 -0.16757999 1.197 2.0182872e-38
-0.019380001 -0.16757999 1.197 1.9076525e-38
-0.017099999 -0.16757999 1.197 1.8430079e-38
-0.014820001 -0.16757999 1.197 1.7969101e-38
-0.095331438 -0.16654286 1.2060001 1.7694699e-38
-0.09303429 -0.16654286 1.2060001 1.7510308e-38
-0.0910381 -0.16709524 1.21 1.7602114e-38
-0.088733338 -0.16709524 1.21 1.7602114e-38
-0.086714298 -0.16764763 1.2140001 1.7234413e-38
-0.084401913 -0.16764763 1.2140001 1.6773435e-38
-0.082089528 -0.16764763 1.2140001 1.6312454e-38
-0.079777151 -0.16764763 1.2140001 1.6220258e-38
-0.077464767 -0.16764763 1.2140001 1.6404652e-38
-0.075152382 -0.16764763 1.2140001 1.6312457e-38
-0.072840005 -0.16764763 1.2140001 1.6312088e-38
-0.070818104 -0.16833812 1.2190001 1.6496479e-38
-0.068496197 -0.16833812 1.2190001 1.6404627e-38
-0.065902859 -0.16764763 1.2140001 1.6496823e-38
-0.063590482 -0.16764763 1.2140001 1.6496835e-38
-0.061530478 -0.16833812 1.2190001 1.6681226e-38
-0.059208576 -0.16833812 1.2190001 1.6403933e-38
-0.056886673 -0.16833812 1.2190001 1.6864911e-38
-0.054564763 -0.16833812 1.2190001 1.6496842e-38
-0.05224286 -0.16833812 1.2190001 1.7050016e-38
-0.049920954 -0.16833812 1.2190001 1.7142565e-38
-0.047599051 -0.16833812 1.2190001 1.723476e-38
-0.045277145 -0.16833812 1.2190001 1.7417734e-38
-0.042779051 -0.16764763 1.2140001 1.8063103e-38
-0.04046667 -0.16764763 1.2140001 1.8063089e-38
-0.038028572 -0.16709524 1.21 1.8155285e-38
-0.035723813 -0.16709524 1.21 1.843259e-38
-0.033419047 -0.16709524 1.21 1.8985764e-38
-0.031011432 -0.16654286 1.2060001 1.9446727e-38
-0.028714286 -0.16654286 1.2060001 1.9815509e-38
-0.026417146 -0.16654286 1.2060001 1.9906639e-38
-0.024040001 -0.16599049 1.202 1.9814443e-38
-0.02166 -0.1653 1.197 2.0273979e-38
-0.019315239 -0.16474763 1.1930001 2.2210087e-38
-0.016985714 -0.16419524 1.189 2.1104127e-38
-0.014720952 -0.16419524 1.189 2.082754e-38
-0.099594288 -0.16370095 1.202 1.8525139e-38
-0.097304761 -0.16370095 1.202 1.8156357e-38
-0.095015235 -0.16370095 1.202 1.695747e-38
-0.09303429 -0.16424572 1.2060001 1.7049666e-38
-0.0910381 -0.16479047 1.21 1.7049656e-38
-0.088733338 -0.16479047 1.21 1.7049656e-38
-0.086714298 -0.16533525 1.2140001 1.7049303e-38
-0.084401913 -0.16533525 1.2140001 1.6957107e-38
-0.082089528 -0.16533525 1.2140001 1.6680508e-38
-0.079777151 -0.16533525 1.2140001 1.6957094e-38
-0.077464767 -0.16533525 1.2140001 1.7049303e-38
-0.075152382 -0.16533525 1.2140001 1.6772716e-38
-0.072840005 -0.16533525 1.2140001 1.6588315e-38
-0.070818104 -0.16601621 1.2190001 1.668051e-38
-0.068496197 -0.16601621 1.2190001 1.6772693e-38
-0.066174291 -0.16601621 1.2190001 1.6957085e-38
-0.063852385 -0.16601621 1.2190001 1.6864536e-38
-0.061530478 -0.16601621 1.2190001 1.6864536e-38
-0.059208576 -0.16601621 1.2190001 1.6404284e-38
-0.057073336 -0.16656096 1.223 1.6496479e-38
-0.054564763 -0.16601621 1.2190001 1.6496832e-38
-0.05224286 -0.16601621 1.2190001 1.6865615e-38
-0.049920954 -0.16601621 1.2190001 1.7234407e-38
-0.047599051 -0.16601621 1.2190001 1.7234407e-38
-0.045277145 -0.16601621 1.2190001 1.7234413e-38
-0.042779051 -0.16533525 1.2140001 1.7971978e-38
-0.04046667 -0.16533525 1.2140001 1.7971978e-38
-0.038028572 -0.16479047 1.21 1.8248565e-38
-0.035723813 -0.16479047 1.21 1.8616982e-38
-0.033419047 -0.16479047 1.21 1.8893568e-38
-0.031011432 -0.16424572 1.2060001 1.8616613e-38
-0.028714286 -0.16424572 1.2060001 1.8985396e-38
-0.026417146 -0.16424572 1.2060001 1.8985048e-38
-0.024040001 -0.16370095 1.202 1.9261635e-38
-0.02166 -0.16302 1.197 1.9629682e-38
-0.019315239 -0.16247524 1.1930001 2.1934573e-38
-0.016928572 -0.16138572 1.1850001 2.1472186e-38
-0.014671429 -0.16138572 1.1850001 2.0642425e-38
-0.099594288 -0.16141143 1.202 1.7419167e-38
-0.097304761 -0.16141143 1.202 1.7511363e-38
-0.095015235 -0.16141143 1.202 1.7602839e-38
-0.09303429 -0.16194858 1.2060001 1.7510644e-38
-0.0910381 -0.16248572 1.21 1.7049656e-38
-0.088733338 -0.16248572 1.21 1.7049656e-38
-0.086714298 -0.16302286 1.2140001 1.7049306e-38
-0.084401913 -0.16302286 1.2140001 1.6864914e-38
-0.082089528 -0.16302286 1.2140001 1.6771984e-38
-0.079777151 -0.16302286 1.2140001 1.7048571e-38
-0.077464767 -0.16302286 1.2140001 1.7048937e-38
-0.075152382 -0.16302286 1.2140001 1.7048937e-38
-0.072840005 -0.16302286 1.2140001 1.6864902e-38
-0.070818104 -0.16369429 1.2190001 1.6588315e-38
-0.068496197 -0.16369429 1.2190001 1.6680508e-38
-0.066174291 -0.16369429 1.2190001 1.6772703e-38
-0.063852385 -0.16369429 1.2190001 1.6680508e-38
-0.061530478 -0.16369429 1.2190001 1.6772703e-38
-0.059208576 -0.16369429 1.2190001 1.6588315e-38
-0.057073336 -0.16423143 1.223 1.6496119e-38
-0.054743811 -0.16423143 1.223 1.6404977e-38
-0.05224286 -0.16369429 1.2190001 1.6497173e-38
-0.049920954 -0.16369429 1.2190001 1.7048937e-38
-0.047599051 -0.16369429 1.2190001 1.7970893e-38
-0.045277145 -0.16369429 1.2190001 1.7787568e-38
-0.042779051 -0.16302286 1.2140001 1.8064155e-38
-0.04046667 -0.16302286 1.2140001 1.7971978e-38
-0.038028572 -0.16248572 1.21 1.8709543e-38
-0.035723813 -0.16248572 1.21 1.8708821e-38
-0.033419047 -0.16248572 1.21 1.9630778e-38
-0.031011432 -0.16194858 1.2060001 1.9260919e-38
-0.028714286 -0.16194858 1.2060001 1.9168723e-38
-0.026417146 -0.16194858 1.2060001 1.8893229e-38
-0.024040001 -0.16141143 1.202 1.972299e-38
-0.02166 -0.16074 1.197 2.0183579e-38
-0.019315239 -0.16020286 1.1930001 2.1935296e-38
-0.016928572 -0.15912858 1.1850001 2.110448e-38
-0.014671429 -0.15912858 1.1850001 1.8707393e-38
-0.10222286 -0.15965144 1.2060001 1.7881624e-38
-0.099925719 -0.15965144 1.2060001 1.7326959e-38
-0.097628579 -0.15965144 1.2060001 1.7603546e-38
-0.095331438 -0.15965144 1.2060001 1.7694309e-38
-0.093342856 -0.16018096 1.21 1.7694309e-38
-0.0910381 -0.16018096 1.21 1.7048571e-38
-0.088733338 -0.16018096 1.21 1.7140767e-38
-0.086714298 -0.16071048 1.2140001 1.7141135e-38
-0.084401913 -0.16071048 1.2140001 1.704894e-38
-0.082089528 -0.16071048 1.2140001 1.686418e-38
-0.079777151 -0.16071048 1.2140001 1.7140767e-38
-0.077464767 -0.16071048 1.2140001 1.7049303e-38
-0.075152382 -0.16071048 1.2140001 1.6957107e-38
-0.072840005 -0.16071048 1.2140001 1.7048937e-38
-0.070818104 -0.16137239 1.2190001 1.6864546e-38
-0.068496197 -0.16137239 1.2190001 1.6773066e-38
-0.066174291 -0.16137239 1.2190001 1.6588675e-38
-0.063852385 -0.16137239 1.2190001 1.612805e-38
-0.061732382 -0.16190191 1.223 1.6773419e-38
-0.059402857 -0.16190191 1.223 1.6864896e-38
-0.057073336 -0.16190191 1.223 1.67727e-38
-0.054743811 -0.16190191 1.223 1.6956359e-38
-0.052414287 -0.16190191 1.223 1.6956359e-38
-0.050084762 -0.16190191 1.223 1.686383e-38
-0.047599051 -0.16137239 1.2190001 1.7140417e-38
-0.045277145 -0.16137239 1.2190001 1.7602114e-38
-0.042955242 -0.16137239 1.2190001 1.8155287e-38
-0.04046667 -0.16071048 1.2140001 1.7879061e-38
-0.038154289 -0.16071048 1.2140001 1.8432234e-38
-0.035723813 -0.16018096 1.21 1.852442e-38
-0.033419047 -0.16018096 1.21 1.9538572e-38
-0.031011432 -0.15965144 1.2060001 1.9444935e-38
-0.028714286 -0.15965144 1.2060001 1.9444935e-38
-0.026417146 -0.15965144 1.2060001 1.8985048e-38
-0.024040001 -0.1591219 1.202 2.0091396e-38
-0.02166 -0.15846001 1.197 2.0460541e-38
-0.019250475 -0.15740095 1.189 2.1013715e-38
-0.016928572 -0.15687144 1.1850001 2.0737145e-38
-0.014621906 -0.15634191 1.1810001 1.7141515e-38
-0.012372382 -0.15634191 1.1810001 1.6404974e-38
-0.10025714 -0.15787619 1.21 1.9538582e-38
-0.097952388 -0.15787619 1.21 1.8985408e-38
-0.095647618 -0.15787619 1.21 1.8616613e-38
-0.093342856 -0.15787619 1.21 1.7879048e-38
-0.0910381 -0.15787619 1.21 1.7602114e-38
-0.088733338 -0.15787619 1.21 1.7602114e-38
-0.086714298 -0.15839811 1.2140001 1.7602114e-38
-0.084401913 -0.15839811 1.2140001 1.7602114e-38
-0.082089528 -0.15839811 1.2140001 1.7326243e-38
-0.079777151 -0.15839811 1.2140001 1.7418438e-38
-0.077464767 -0.15839811 1.2140001 1.7048951e-38
-0.075152382 -0.15839811 1.2140001 1.6956755e-38
-0.073140003 -0.15905049 1.2190001 1.6957097e-38
-0.070818104 -0.15905049 1.2190001 1.6864902e-38
-0.068496197 -0.15905049 1.2190001 1.6773069e-38
-0.066391431 -0.15957239 1.223 1.6680873e-38
-0.064061902 -0.15957239 1.223 1.6403931e-38
-0.061732382 -0.15957239 1.223 1.70493e-38
-0.059402857 -0.15957239 1.223 1.6957801e-38
-0.057073336 -0.15957239 1.223 1.7326583e-38
-0.054743811 -0.15957239 1.223 1.6771987e-38
-0.052414287 -0.15957239 1.223 1.6864183e-38
-0.050084762 -0.15957239 1.223 1.68642e-38
-0.047599051 -0.15905049 1.2190001 1.6679808e-38
-0.045277145 -0.15905049 1.2190001 1.6956755e-38
-0.042779051 -0.15839811 1.2140001 1.833969e-38
-0.04046667 -0.15839811 1.2140001 1.880136e-38
-0.038154289 -0.15839811 1.2140001 1.9170143e-38
-0.035723813 -0.15787619 1.21 1.9906266e-38
-0.033419047 -0.15787619 1.21 2.0643831e-38
-0.031011432 -0.1573543 1.2060001 2.0551632e-38
-0.028714286 -0.1573543 1.2060001 2.1104806e-38
-0.026329523 -0.15683238 1.202 2.1105515e-38
-0.023940001 -0.15617999 1.197 2.1382102e-38
-0.021515237 -0.1551362 1.189 1.9538962e-38
-0.019185714 -0.15461428 1.1850001 1.852481e-38
-0.01687143 -0.15409239 1.1810001 1.8064168e-38
-0.014572381 -0.15357049 1.177 1.6312451e-38
-0.012330476 -0.15357049 1.177 1.6220243e-38
-0.095865719 -0.14875714 1.1570001 2.0366531e-38
-0.097952388 -0.15557143 1.21 2.0458726e-38
-0.095647618 -0.15557143 1.21 1.9815891e-38
-0.093342856 -0.15557143 1.21 1.9078325e-38
-0.0910381 -0.15557143 1.21 1.8063818e-38
-0.088733338 -0.15557143 1.21 1.7971622e-38
-0.086428568 -0.15557143 1.21 1.7786871e-38
-0.084401913 -0.15608573 1.2140001 1.7510284e-38
-0.082089528 -0.15608573 1.2140001 1.7234407e-38
-0.080105722 -0.15672858 1.2190001 1.7234407e-38
-0.077783816 -0.15672858 1.2190001 1.6864902e-38
-0.075461909 -0.15672858 1.2190001 1.6957097e-38
-0.073140003 -0.15672858 1.2190001 1.7048574e-38
-0.07105048 -0.15724286 1.223 1.7048574e-38
-0.068720959 -0.15724286 1.223 1.6773066e-38
-0.066391431 -0.15724286 1.223 1.6680871e-38
-0.064061902 -0.15724286 1.223 1.6312088e-38
-0.061732382 -0.15724286 1.223 1.6865262e-38
-0.059402857 -0.15724286 1.223 1.6773409e-38
-0.057073336 -0.15724286 1.223 1.7049996e-38
-0.054743811 -0.15724286 1.223 1.6588315e-38
-0.052414287 -0.15724286 1.223 1.6772706e-38
-0.050084762 -0.15724286 1.223 1.7048937e-38
-0.047599051 -0.15672858 1.2190001 1.6956741e-38
-0.045091432 -0.15608573 1.2140001 1.6957097e-38
-0.042779051 -0.15608573 1.2140001 1.8616619e-38
-0.04046667 -0.15608573 1.2140001 1.9352742e-38
-0.038154289 -0.15608573 1.2140001 1.981372e-38
-0.035723813 -0.15557143 1.21 2.0273979e-38
-0.033419047 -0.15557143 1.21 2.0366175e-38
-0.031011432 -0.15505715 1.2060001 1.9998834e-38
-0.028714286 -0.15505715 1.2060001 2.0183225e-38
-0.026329523 -0.15454286 1.202 2.0276147e-38
-0.023940001 -0.1539 1.197 2.0368343e-38
-0.021442859 -0.15235715 1.1850001 1.8158914e-38
-0.019185714 -0.15235715 1.1850001 1.7144762e-38
-0.016814286 -0.15132858 1.177 1.5855429e-38
-0.014522858 -0.15081429 1.1730001 1.5763233e-38
-0.012288572 -0.15081429 1.1730001 1.6036921e-38
-0.10027333 -0.14655334 1.1570001 1.6680858e-38
-0.098069526 -0.14655334 1.1570001 1.6404271e-38
-0.095865719 -0.14655334 1.1570001 1.7049275e-38
-0.093661912 -0.14655334 1.1570001 1.9077579e-38
-0.091141902 -0.14604667 1.153 1.9816228e-38
-0.088637143 -0.14554 1.149 1.9724033e-38
-0.086448573 -0.14554 1.149 1.9447102e-38
-0.083673336 -0.14452668 1.141 1.9723689e-38
-0.081285715 -0.14414667 1.138 1.8801034e-38
-0.078840002 -0.14364001 1.1340001 1.8616642e-38
-0.076409526 -0.14313333 1.13 1.8709543e-38
-0.074257143 -0.14313333 1.13 1.9078325e-38
-0.072360002 -0.14364001 1.1340001 1.8893556e-38
-0.075461909 -0.15440668 1.2190001 1.8616969e-38
-0.073140003 -0.15440668 1.2190001 1.8524067e-38
-0.07105048 -0.15491334 1.223 1.8524067e-38
-0.068720959 -0.15491334 1.223 1.8062729e-38
-0.066391431 -0.15491334 1.223 1.8062729e-38
-0.064061902 -0.15491334 1.223 1.8246764e-38
-0.061934292 -0.15542001 1.2270001 1.8799938e-38
-0.059597149 -0.15542001 1.2270001 1.8892117e-38
-0.057073336 -0.15491334 1.223 1.9260899e-38
-0.054743811 -0.15491334 1.223 1.9076528e-38
-0.048771426 -0.14414667 1.138 1.9076528e-38
-0.04660381 -0.14414667 1.138 1.880137e-38
-0.04443619 -0.14414667 1.138 1.8616979e-38
-0.045091432 -0.15377335 1.2140001 1.8249979e-38
-0.040206671 -0.14452668 1.141 1.8342174e-38
-0.038033333 -0.14452668 1.141 1.8065237e-38
-0.035859998 -0.14452668 1.141 1.7604259e-38
-0.033686668 -0.14452668 1.141 1.8340379e-38
-0.031513333 -0.14452668 1.141 1.8432575e-38
-0.02944286 -0.14503334 1.1450001 1.7970533e-38
-0.027357142 -0.14554 1.149 1.7878338e-38
-0.025256189 -0.14604667 1.153 1.6863481e-38
-0.02306 -0.14604667 1.153 1.6402503e-38
-0.020863809 -0.14604667 1.153 1.4655117e-38
-0.018732382 -0.14655334 1.1570001 1.2258031e-38
-0.0167 -0.14807333 1.169 1.3088507e-38
-0.014423811 -0.14756668 1.1650001 1.5577789e-38
-0.012204763 -0.14756668 1.1650001 1.6128756e-38
-0.10027333 -0.14434953 1.1570001 1.6036555e-38
-0.098069526 -0.14434953 1.1570001 1.4745816e-38
-0.095865719 -0.14434953 1.1570001 1.4746525e-38
-0.093661912 -0.14434953 1.1570001 1.7881177e-38
-0.091141902 -0.14385048 1.153 1.7789019e-38
-0.088637143 -0.14335144 1.149 1.7696823e-38
-0.086448573 -0.14335144 1.149 1.7695778e-38
-0.083673336 -0.14235334 1.141 1.8248952e-38
-0.081285715 -0.14197905 1.138 1.8708835e-38
-0.078840002 -0.14148 1.1340001 1.861664e-38
-0.076409526 -0.14098094 1.13 1.8985778e-38
-0.074257143 -0.14098094 1.13 1.9262365e-38
-0.072360002 -0.14148 1.1340001 1.9446026e-38
-0.070447616 -0.14197905 1.138 1.8708461e-38
-0.068279997 -0.14197905 1.138 1.889141e-38
-0.066112377 -0.14197905 1.138 1.9075802e-38
-0.068945721 -0.15308286 1.2270001 1.8705584e-38
-0.066608571 -0.15308286 1.2270001 1.8705584e-38
-0.064271435 -0.15308286 1.2270001 1.8890345e-38
-0.057240006 -0.14148 1.1340001 1.9074737e-38
-0.055080004 -0.14148 1.1340001 1.9536054e-38
-0.052920002 -0.14148 1.1340001 1.9720445e-38
-0.050760005 -0.14148 1.1340001 2.0088522e-38
-0.048771426 -0.14197905 1.138 1.9811935e-38
-0.04660381 -0.14197905 1.138 1.9078673e-38
-0.04443619 -0.14197905 1.138 1.8525499e-38
-0.042380001 -0.14235334 1.141 1.6408979e-38
-0.040206671 -0.14235334 1.141 1.5118241e-38
-0.038033333 -0.14235334 1.141 1.4565365e-38
-0.035859998 -0.14235334 1.141 1.4841952e-38
-0.033686668 -0.14235334 1.141 1.5852189e-38
-0.031513333 -0.14235334 1.141 1.6220971e-38
-0.02944286 -0.1428524 1.1450001 1.7232239e-38
-0.027357142 -0.14335144 1.149 1.6863457e-38
-0.025256189 -0.14385048 1.153 1.6405003e-38
-0.02306 -0.14385048 1.153 1.5851829e-38
-0.020863809 -0.14385048 1.153 1.3551278e-38
-0.018667618 -0.14385048 1.153 1.1522974e-38
-0.016528573 -0.14434953 1.1570001 1.2813676e-38
-0.014423811 -0.14534763 1.1650001 1.5118567e-38
-0.012204763 -0.14534763 1.1650001 1.5667772e-38
-0.10062 -0.14263713 1.161 1.6312441e-38
-0.098408572 -0.14263713 1.161 1.5206094e-38
-0.096197143 -0.14263713 1.161 1.5116448e-38
-0.093985714 -0.14263713 1.161 1.6591578e-38
-0.091458097 -0.14214572 1.1570001 1.5024616e-38
-0.08925429 -0.14214572 1.1570001 1.4748029e-38
-0.086749524 -0.14165428 1.153 1.5116824e-38
-0.084260009 -0.14116286 1.149 1.3826085e-38
-0.081785724 -0.14067145 1.1450001 1.3731682e-38
-0.079118095 -0.13981143 1.138 1.33629e-38
-0.076950483 -0.13981143 1.138 1.4651161e-38
-0.074782856 -0.13981143 1.138 1.6679465e-38
-0.072615236 -0.13981143 1.138 1.6035864e-38
-0.070447616 -0.13981143 1.138 1.5206103e-38
-0.068279997 -0.13981143 1.138 1.5483059e-38
-0.066112377 -0.13981143 1.138 1.6865993e-38
-0.064113334 -0.14018001 1.141 1.6035504e-38
-0.061777141 -0.13981143 1.138 1.4836961e-38
-0.059609525 -0.13981143 1.138 1.4561833e-38
-0.057240006 -0.13932002 1.1340001 1.4377441e-38
-0.055080004 -0.13932002 1.1340001 1.5480912e-38
-0.052920002 -0.13932002 1.1340001 1.7509216e-38
-0.050760005 -0.13932002 1.1340001 1.6956378e-38
-0.048771426 -0.13981143 1.138 1.6218813e-38
-0.04660381 -0.13981143 1.138 1.6127687e-38
-0.04443619 -0.13981143 1.138 1.7141839e-38
-0.042380001 -0.14018001 1.141 1.5579192e-38
-0.040206671 -0.14018001 1.141 1.0416237e-38
-0.038166672 -0.14067145 1.1450001 1.0510969e-38
-0.035985716 -0.14067145 1.1450001 1.3000251e-38
-0.033804763 -0.14067145 1.1450001 1.4747646e-38
-0.031623811 -0.14067145 1.1450001 1.4839842e-38
-0.02944286 -0.14067145 1.1450001 1.4562532e-38
-0.027357142 -0.14116286 1.149 1.4562532e-38
-0.025256189 -0.14165428 1.153 1.4931317e-38
-0.02306 -0.14165428 1.153 1.5761078e-38
-0.020863809 -0.14165428 1.153 1.3828554e-38
-0.018667618 -0.14165428 1.153 1.1154881e-38
-0.016528573 -0.14214572 1.1570001 1.2997374e-38
-0.014423811 -0.14312857 1.1650001 1.5117873e-38
-0.012204763 -0.14312857 1.1650001 1.5667069e-38
-0.10062 -0.14042571 1.161 1.6405353e-38
-0.098069526 -0.13994192 1.1570001 1.5391201e-38
-0.095865719 -0.13994192 1.1570001 1.6222779e-38
-0.093985714 -0.14042571 1.161 1.5946192e-38
-0.091774285 -0.14042571 1.161 1.4198794e-38
-0.089562856 -0.14042571 1.161 1.3830011e-38
-0.087050483 -0.13994192 1.1570001 1.4475042e-38
-0.084553331 -0.13945809 1.153 1.3276499e-38
-0.082071431 -0.13897429 1.149 1.1797001e-38
-0.079326667 -0.13800666 1.141 1.3272131e-38
-0.077153333 -0.13800666 1.141 1.4467825e-38
-0.074980006 -0.13800666 1.141 1.6219542e-38
-0.072615236 -0.13764381 1.138 1.4933143e-38
-0.070447616 -0.13764381 1.138 1.3273622e-38
-0.068279997 -0.13764381 1.138 1.3459046e-38
-0.066112377 -0.13764381 1.138 1.4288806e-38
-0.064113334 -0.13800666 1.141 1.4379957e-38
-0.061777141 -0.13764381 1.138 1.3273609e-38
-0.059609525 -0.13764381 1.138 1.0606776e-38
-0.057441905 -0.13764381 1.138 1.1528732e-38
-0.055274285 -0.13764381 1.138 1.3548754e-38
-0.053106666 -0.13764381 1.138 1.5669254e-38
-0.051073335 -0.13800666 1.141 1.5209703e-38
-0.048900001 -0.13800666 1.141 1.2997008e-38
-0.046726666 -0.13800666 1.141 1.4098995e-38
-0.044553336 -0.13800666 1.141 1.5113147e-38
-0.042380001 -0.13800666 1.141 1.5578113e-38
-0.040347625 -0.13849048 1.1450001 1.0968332e-38
-0.038166672 -0.13849048 1.1450001 1.0970833e-38
-0.035985716 -0.13849048 1.1450001 1.4382071e-38
-0.033804763 -0.13849048 1.1450001 1.5394451e-38
-0.031623811 -0.13849048 1.1450001 1.2720777e-38
-0.029545715 -0.13897429 1.149 1.2167588e-38
-0.027357142 -0.13897429 1.149 1.2812957e-38
-0.025256189 -0.13945809 1.153 1.4195565e-38
-0.02306 -0.13945809 1.153 1.4287761e-38
-0.020863809 -0.13945809 1.153 1.3275736e-38
-0.018732382 -0.13994192 1.1570001 1.235378e-38
-0.016528573 -0.13994192 1.1570001 1.3089557e-38
-0.014423811 -0.14090954 1.1650001 1.4841274e-38
-0.10062 -0.13821429 1.161 1.6128766e-38
-0.098069526 -0.13773811 1.1570001 1.4192658e-38
-0.095865719 -0.13773811 1.1570001 1.4749447e-38
-0.093985714 -0.13821429 1.161 1.4749447e-38
-0.091774285 -0.13821429 1.161 1.2541092e-38
-0.089562856 -0.13821429 1.161 1.1987918e-38
-0.087050483 -0.13773811 1.1570001 1.3553419e-38
-0.084846668 -0.13773811 1.1570001 1.5305136e-38
-0.082357138 -0.1372619 1.153 1.5761798e-38
-0.079604767 -0.13630953 1.1450001 1.6499363e-38
-0.077423811 -0.13630953 1.1450001 1.5761078e-38
-0.074980006 -0.13583334 1.141 1.2903013e-38
-0.072806664 -0.13583334 1.141 9.7716676e-39
-0.070633337 -0.13583334 1.141 7.0057987e-39
-0.068460003 -0.13583334 1.141 8.482686e-39
-0.066286668 -0.13583334 1.141 1.2723685e-38
-0.064113334 -0.13583334 1.141 1.3640609e-38
-0.061940003 -0.13583334 1.141 1.447037e-38
-0.059766669 -0.13583334 1.141 1.4103373e-38
-0.057593334 -0.13583334 1.141 1.4472155e-38
-0.05542 -0.13583334 1.141 1.483914e-38
-0.053246666 -0.13583334 1.141 1.4101575e-38
-0.051073335 -0.13583334 1.141 1.1703765e-38
-0.049071435 -0.13630953 1.1450001 1.0228635e-38
-0.046726666 -0.13583334 1.141 1.0872928e-38
-0.044553336 -0.13583334 1.141 1.336221e-38
-0.042528573 -0.13630953 1.1450001 1.382604e-38
-0.040347625 -0.13630953 1.1450001 1.5669953e-38
-0.038166672 -0.13630953 1.1450001 1.5303331e-38
-0.035985716 -0.13630953 1.1450001 1.5487722e-38
-0.033804763 -0.13630953 1.1450001 1.4751227e-38
-0.031623811 -0.13630953 1.1450001 1.2077553e-38
-0.02944286 -0.13630953 1.1450001 1.1526197e-38
-0.027357142 -0.13678572 1.149 1.1987175e-38
-0.025256189 -0.1372619 1.153 1.3735672e-38
-0.02306 -0.1372619 1.153 1.3735672e-38
-0.020863809 -0.1372619 1.153 1.3091339e-38
-0.018667618 -0.1372619 1.153 1.2538166e-38
-0.016528573 -0.13773811 1.1570001 1.3550172e-38
-0.014473334 -0.13916667 1.169 1.4748715e-38
-0.10062 -0.13600287 1.161 1.5853248e-38
-0.098069526 -0.13553429 1.1570001 1.5023488e-38
-0.095865719 -0.13553429 1.1570001 1.4750526e-38
-0.093985714 -0.13600287 1.161 1.4289548e-38
-0.091774285 -0.13600287 1.161 1.1622723e-38
-0.089562856 -0.13600287 1.161 1.1346136e-38
-0.087351426 -0.13600287 1.161 1.2171191e-38
-0.084846668 -0.13553429 1.1570001 1.4383886e-38
-0.082642861 -0.13553429 1.1570001 1.6220624e-38
-0.080160953 -0.13506572 1.153 1.6681602e-38
-0.077423811 -0.13412857 1.1450001 1.5761096e-38
-0.075242862 -0.13412857 1.1450001 1.0229358e-38
-0.072806664 -0.13366 1.141 8.7607176e-39
-0.070633337 -0.13366 1.141 7.3777832e-39
-0.068460003 -0.13366 1.141 8.116018e-39
-0.066286668 -0.13366 1.141 9.5911481e-39
-0.064113334 -0.13366 1.141 1.3361818e-38
-0.061940003 -0.13366 1.141 1.5666709e-38
-0.059766669 -0.13366 1.141 1.5573468e-38
-0.057593334 -0.13366 1.141 1.594225e-38
-0.05542 -0.13366 1.141 1.5300131e-38
-0.053246666 -0.13366 1.141 1.2073283e-38
-0.051073335 -0.13366 1.141 1.1335685e-38
-0.049071435 -0.13412857 1.1450001 1.0505924e-38
-0.046890479 -0.13412857 1.1450001 1.032117e-38
-0.044709526 -0.13412857 1.1450001 1.0689952e-38
-0.042528573 -0.13412857 1.1450001 1.326961e-38
-0.040347625 -0.13412857 1.1450001 1.7049631e-38
-0.038166672 -0.13412857 1.1450001 1.5855099e-38
-0.035985716 -0.13412857 1.1450001 1.5117534e-38
-0.033804763 -0.13412857 1.1450001 1.2725836e-38
-0.031623811 -0.13412857 1.1450001 1.1342902e-38
-0.02944286 -0.13412857 1.1450001 1.1618763e-38
-0.027357142 -0.13459715 1.149 1.2171936e-38
-0.025256189 -0.13506572 1.153 1.3184288e-38
-0.02306 -0.13506572 1.153 1.3368679e-38
-0.020863809 -0.13506572 1.153 1.2354153e-38
-0.018667618 -0.13506572 1.153 1.2354153e-38
-0.016528573 -0.13553429 1.1570001 1.3734198e-38
-0.10062 -0.13379143 1.161 1.5575958e-38
-0.098408572 -0.13379143 1.161 1.4838393e-38
-0.096197143 -0.13379143 1.161 1.5118577e-38
-0.094309531 -0.13425238 1.1650001 1.5118577e-38
-0.091774285 -0.13379143 1.161 1.2358493e-38
-0.089562856 -0.13379143 1.161 1.1805319e-38
-0.087351426 -0.13379143 1.161 1.1436889e-38
-0.085140005 -0.13379143 1.161 1.2358846e-38
-0.082642861 -0.13333048 1.1570001 1.456507e-38
-0.080160953 -0.13286953 1.153 1.5118243e-38
-0.077694289 -0.13240857 1.149 1.4381718e-38
-0.075242862 -0.13194764 1.1450001 8.1124153e-39
-0.073061906 -0.13194764 1.1450001 6.8303505e-39
-0.070880957 -0.13194764 1.1450001 7.0147418e-39
-0.068700008 -0.13194764 1.1450001 7.7487237e-39
-0.066519052 -0.13194764 1.1450001 7.3799412e-39
-0.064338103 -0.13194764 1.1450001 9.4010297e-39
-0.06215715 -0.13194764 1.1450001 1.382642e-38
-0.059766669 -0.13148667 1.141 1.492882e-38
-0.057593334 -0.13148667 1.141 1.5021016e-38
-0.05542 -0.13148667 1.141 1.3547681e-38
-0.053246666 -0.13148667 1.141 1.0413029e-38
-0.051252387 -0.13194764 1.1450001 1.059707e-38
-0.049071435 -0.13194764 1.1450001 1.0781461e-38
-0.046890479 -0.13194764 1.1450001 1.0781093e-38
-0.044709526 -0.13194764 1.1450001 1.0873289e-38
-0.042528573 -0.13194764 1.1450001 1.0874007e-38
-0.040347625 -0.13194764 1.1450001 1.5115006e-38
-0.038166672 -0.13194764 1.1450001 1.5026411e-38
-0.035985716 -0.13194764 1.1450001 1.3182498e-38
-0.033804763 -0.13194764 1.1450001 1.1803173e-38
-0.031623811 -0.13194764 1.1450001 1.1434391e-38
-0.029545715 -0.13240857 1.149 1.1526942e-38
-0.027357142 -0.13240857 1.149 1.2541094e-38
-0.025256189 -0.13286953 1.153 1.4750145e-38
-0.02306 -0.13286953 1.153 1.5303318e-38
-0.020863809 -0.13286953 1.153 1.4565419e-38
-0.018732382 -0.13333048 1.1570001 1.3090288e-38
-0.098408572 -0.13158 1.161 1.5391904e-38
-0.096197143 -0.13158 1.161 1.5578476e-38
-0.094309531 -0.13203335 1.1650001 1.5578476e-38
-0.091774285 -0.13158 1.161 1.3185382e-38
-0.089562856 -0.13158 1.161 1.1986839e-38
-0.087351426 -0.13158 1.161 1.0794044e-38
-0.085140005 -0.13158 1.161 1.1439413e-38
-0.082642861 -0.13112667 1.1570001 1.2909874e-38
-0.080160953 -0.13067333 1.153 1.3924026e-38
-0.077694289 -0.13022 1.149 1.1712044e-38
-0.075242862 -0.12976667 1.1450001 6.9178714e-39
-0.073061906 -0.12976667 1.1450001 6.1878622e-39
-0.070880957 -0.12976667 1.1450001 6.6488403e-39
-0.068700008 -0.12976667 1.1450001 6.0020542e-39
-0.066519052 -0.12976667 1.1450001 5.7254673e-39
-0.064338103 -0.12976667 1.1450001 7.1947876e-39
-0.06215715 -0.12976667 1.1450001 1.1804569e-38
-0.059976194 -0.12976667 1.1450001 1.3733524e-38
-0.057795241 -0.12976667 1.1450001 1.3825719e-38
-0.055614289 -0.12976667 1.1450001 1.2165099e-38
-0.053433336 -0.12976667 1.1450001 1.0413382e-38
-0.051252387 -0.12976667 1.1450001 1.0689263e-38
-0.049071435 -0.12976667 1.1450001 1.0781459e-38
-0.046890479 -0.12976667 1.1450001 1.0873637e-38
-0.044709526 -0.12976667 1.1450001 1.0689246e-38
-0.042528573 -0.12976667 1.1450001 1.0230391e-38
-0.040347625 -0.12976667 1.1450001 1.5116759e-38
-0.0383 -0.13022 1.149 1.4658717e-38
-0.036111429 -0.13022 1.149 1.3644565e-38
-0.033922859 -0.13022 1.149 1.1619138e-38
-0.031734288 -0.13022 1.149 1.115816e-38
-0.029545715 -0.13022 1.149 1.097304e-38
-0.027452381 -0.13067333 1.153 1.39233e-38
-0.025343811 -0.13112667 1.1570001 1.4934198e-38
-0.02314 -0.13112667 1.1570001 1.5395176e-38
-0.020936191 -0.13112667 1.1570001 1.5302282e-38
-0.018732382 -0.13112667 1.1570001 1.428813e-38
-0.098408572 -0.12936857 1.161 1.7142902e-38
-0.096197143 -0.12936857 1.161 1.6130564e-38
-0.094309531 -0.1298143 1.1650001 1.557739e-38
-0.09209048 -0.1298143 1.1650001 1.355419e-38
-0.089871436 -0.1298143 1.1650001 1.1986864e-38
-0.087351426 -0.12936857 1.161 1.1528757e-38
-0.085140005 -0.12936857 1.161 1.2635105e-38
-0.082928576 -0.12936857 1.161 1.4842005e-38
-0.080439053 -0.12892286 1.1570001 1.6409331e-38
-0.077694289 -0.12803143 1.149 1.4199873e-38
-0.075505719 -0.12803143 1.149 7.3773964e-39
-0.073061906 -0.12758572 1.1450001 5.9123543e-39
-0.070880957 -0.12758572 1.1450001 6.5577237e-39
-0.068700008 -0.12758572 1.1450001 6.1868084e-39
-0.066519052 -0.12758572 1.1450001 5.9102215e-39
-0.064338103 -0.12758572 1.1450001 7.378872e-39
-0.06215715 -0.12758572 1.1450001 1.1066697e-38
-0.059976194 -0.12758572 1.1450001 1.3733521e-38
-0.057795241 -0.12758572 1.1450001 1.3825717e-38
-0.055614289 -0.12758572 1.1450001 1.1889236e-38
-0.053433336 -0.12758572 1.1450001 1.0137519e-38
-0.051252387 -0.12758572 1.1450001 1.0414118e-38
-0.049071435 -0.12758572 1.1450001 1.0414118e-38
-0.046890479 -0.12758572 1.1450001 1.0505914e-38
-0.044709526 -0.12758572 1.1450001 1.0321523e-38
-0.042677142 -0.12803143 1.149 1.1243129e-38
-0.040488571 -0.12803143 1.149 1.5852911e-38
-0.0383 -0.12803143 1.149 1.5394114e-38
-0.036111429 -0.12803143 1.149 1.5209723e-38
-0.033922859 -0.12803143 1.149 1.2816246e-38
-0.031734288 -0.12803143 1.149 1.1433312e-38
-0.029545715 -0.12803143 1.149 1.2446022e-38
-0.027452381 -0.12847714 1.153 1.5304086e-38
-0.02543143 -0.12936857 1.161 1.5761075e-38
-0.02314 -0.12892286 1.1570001 1.5853271e-38
-0.020936191 -0.12892286 1.1570001 1.5669982e-38
-0.018732382 -0.12892286 1.1570001 1.5024613e-38
-0.098408572 -0.12715714 1.161 1.7416971e-38
-0.096197143 -0.12715714 1.161 1.6405356e-38
-0.094309531 -0.12759525 1.1650001 1.5667791e-38
-0.09209048 -0.12759525 1.1650001 1.4476111e-38
-0.089871436 -0.12759525 1.1650001 1.281659e-38
-0.087351426 -0.12715714 1.161 1.2446751e-38
-0.085140005 -0.12715714 1.161 1.3737489e-38
-0.082928576 -0.12715714 1.161 1.576002e-38
-0.080439053 -0.12671906 1.1570001 1.6220998e-38
-0.07796476 -0.12628095 1.153 1.4659083e-38
-0.075505719 -0.12584287 1.149 9.9571056e-39
-0.073061906 -0.12540478 1.1450001 6.0963952e-39
-0.070880957 -0.12540478 1.1450001 5.7276127e-39
-0.068700008 -0.12540478 1.1450001 5.4517152e-39
-0.066519052 -0.12540478 1.1450001 5.4517152e-39
-0.064338103 -0.12540478 1.1450001 7.4710186e-39
-0.06237429 -0.12584287 1.149 1.2265191e-38
-0.059976194 -0.12540478 1.1450001 1.4287045e-38
-0.057795241 -0.12540478 1.1450001 1.4471436e-38
-0.055614289 -0.12540478 1.1450001 1.2627539e-38
-0.053433336 -0.12540478 1.1450001 1.0322648e-38
-0.051252387 -0.12540478 1.1450001 1.032191e-38
-0.049071435 -0.12540478 1.1450001 1.0229714e-38
-0.046890479 -0.12540478 1.1450001 1.0229662e-38
-0.044709526 -0.12540478 1.1450001 1.0782836e-38
-0.042677142 -0.12584287 1.149 1.253208e-38
-0.040488571 -0.12584287 1.149 1.6035514e-38
-0.0383 -0.12584287 1.149 1.5945817e-38
-0.036111429 -0.12584287 1.149 1.5853621e-38
-0.033922859 -0.12584287 1.149 1.410661e-38
-0.031734288 -0.12584287 1.149 1.2723675e-38
-0.029648572 -0.12628095 1.153 1.3181063e-38
-0.027452381 -0.12628095 1.153 1.3918628e-38
-0.02543143 -0.12715714 1.161 1.4928055e-38
-0.023220001 -0.12715714 1.161 1.5389033e-38
-0.021008572 -0.12715714 1.161 1.6129504e-38
-0.018797142 -0.12715714 1.161 1.5484135e-38
-0.098408572 -0.12494572 1.161 1.7049631e-38
-0.096197143 -0.12494572 1.161 1.4565053e-38
-0.094309531 -0.12537619 1.1650001 1.189138e-38
-0.09209048 -0.12537619 1.1650001 1.2447807e-38
-0.089871436 -0.12537619 1.1650001 1.512148e-38
-0.087351426 -0.12494572 1.161 1.6314273e-38
-0.085140005 -0.12494572 1.161 1.659086e-38
-0.082928576 -0.12494572 1.161 1.529977e-38
-0.080439053 -0.12451525 1.1570001 1.4562205e-38
-0.07796476 -0.12408476 1.153 1.4562934e-38
-0.075505719 -0.12365429 1.149 1.5116108e-38
-0.07331714 -0.12365429 1.149 1.0883012e-38
-0.071128577 -0.12365429 1.149 7.195187e-39
-0.068939999 -0.12365429 1.149 7.1069178e-39
-0.066751435 -0.12365429 1.149 9.6883954e-39
-0.064562857 -0.12365429 1.149 1.2260515e-38
-0.06237429 -0.12365429 1.149 1.4657602e-38
-0.060185716 -0.12365429 1.149 1.5115708e-38
-0.057997145 -0.12365429 1.149 1.6037665e-38
-0.055808574 -0.12365429 1.149 1.4009054e-38
-0.053620003 -0.12365429 1.149 1.262612e-38
-0.051431429 -0.12365429 1.149 1.0322648e-38
-0.049242858 -0.12365429 1.149 9.7694745e-39
-0.047054287 -0.12365429 1.149 1.1058385e-38
-0.044865716 -0.12365429 1.149 1.4377427e-38
-0.042677142 -0.12365429 1.149 1.4193749e-38
-0.040488571 -0.12365429 1.149 1.3456184e-38
-0.0383 -0.12365429 1.149 1.4749024e-38
-0.036111429 -0.12365429 1.149 1.5210002e-38
-0.03404095 -0.12408476 1.153 1.484164e-38
-0.031844761 -0.12408476 1.153 1.4933835e-38
-0.029648572 -0.12408476 1.153 1.4933104e-38
-0.02754762 -0.12451525 1.1570001 1.2628213e-38
-0.025519049 -0.12537619 1.1650001 1.2718609e-38
-0.023220001 -0.12494572 1.161 1.2810805e-38
-0.021008572 -0.12494572 1.161 1.437992e-38
-0.018861907 -0.12537619 1.1650001 1.5117485e-38
-0.098408572 -0.12273429 1.161 1.6681208e-38
-0.096197143 -0.12273429 1.161 1.3461942e-38
-0.094309531 -0.12315714 1.1650001 1.0235095e-38
-0.09209048 -0.12315714 1.1650001 1.1434663e-38
-0.089871436 -0.12315714 1.1650001 1.5767857e-38
-0.087351426 -0.12273429 1.161 1.7786176e-38
-0.085140005 -0.12273429 1.161 1.7325197e-38
-0.082928576 -0.12273429 1.161 1.5207928e-38
-0.080439053 -0.12231143 1.1570001 1.3732798e-38
-0.07796476 -0.12188857 1.153 1.4745118e-38
-0.075768568 -0.12188857 1.153 1.575927e-38
-0.07331714 -0.12146572 1.149 1.4656559e-38
-0.071128577 -0.12146572 1.149 9.9545819e-39
-0.068939999 -0.12146572 1.149 8.1156649e-39
-0.066519052 -0.12104286 1.1450001 1.1526903e-38
-0.064338103 -0.12104286 1.1450001 1.4560737e-38
-0.06237429 -0.12146572 1.149 1.5113911e-38
-0.060185716 -0.12146572 1.149 1.4929872e-38
-0.057997145 -0.12146572 1.149 1.5483046e-38
-0.055808574 -0.12146572 1.149 1.529977e-38
-0.053620003 -0.12146572 1.149 1.3640249e-38
-0.051431429 -0.12146572 1.149 1.3271783e-38
-0.049242858 -0.12146572 1.149 1.1335675e-38
-0.047054287 -0.12146572 1.149 1.2071458e-38
-0.044865716 -0.12146572 1.149 1.5113913e-38
-0.042677142 -0.12146572 1.149 1.5301203e-38
-0.040488571 -0.12146572 1.149 1.0968008e-38
-0.0383 -0.12146572 1.149 1.0785357e-38
-0.036111429 -0.12146572 1.149 1.2721465e-38
-0.03404095 -0.12188857 1.153 1.5301173e-38
-0.031844761 -0.12188857 1.153 1.5946543e-38
-0.029751431 -0.12231143 1.1570001 1.5576357e-38
-0.02754762 -0.12231143 1.1570001 1.2165119e-38
-0.025519049 -0.12315714 1.1650001 1.0783915e-38
-0.023300001 -0.12315714 1.1650001 1.2627828e-38
-0.021080954 -0.12315714 1.1650001 1.3826759e-38
-0.018861907 -0.12315714 1.1650001 1.4748715e-38
-0.096528575 -0.1209381 1.1650001 1.3830742e-38
-0.094309531 -0.1209381 1.1650001 1.0327308e-38
-0.09209048 -0.1209381 1.1650001 1.0883316e-38
-0.089871436 -0.1209381 1.1650001 1.4939924e-38
-0.087652385 -0.1209381 1.1650001 1.6589774e-38
-0.085140005 -0.12052286 1.161 1.4100492e-38
-0.082928576 -0.12052286 1.161 1.1704141e-38
-0.080717139 -0.12052286 1.161 1.0689989e-38
-0.078235239 -0.12010762 1.1570001 1.2072148e-38
-0.075768568 -0.11969239 1.153 1.5022409e-38
-0.07331714 -0.11927715 1.149 1.4838069e-38
-0.071128577 -0.11927715 1.149 1.5206852e-38
-0.068939999 -0.11927715 1.149 1.4933116e-38
-0.066519052 -0.11886191 1.1450001 1.5394095e-38
-0.064338103 -0.11886191 1.1450001 1.3918265e-38
-0.06215715 -0.11886191 1.1450001 1.2719722e-38
-0.060185716 -0.11927715 1.149 1.2537089e-38
-0.057997145 -0.11927715 1.149 1.2813676e-38
-0.055808574 -0.11927715 1.149 1.3364738e-38
-0.053620003 -0.11927715 1.149 1.502426e-38
-0.051431429 -0.11927715 1.149 1.5209331e-38
-0.049242858 -0.11927715 1.149 1.5393722e-38
-0.047054287 -0.11927715 1.149 1.5208987e-38
-0.044865716 -0.11927715 1.149 1.3641662e-38
-0.042677142 -0.11927715 1.149 1.1340037e-38
-0.040488571 -0.11927715 1.149 8.3897771e-39
-0.0383 -0.11927715 1.149 7.8412724e-39
-0.036237143 -0.11969239 1.153 7.6568812e-39
-0.03404095 -0.11969239 1.153 1.2352695e-38
-0.031844761 -0.11969239 1.153 1.5395151e-38
-0.029751431 -0.12010762 1.1570001 1.4840575e-38
-0.027642857 -0.12052286 1.161 1.1613728e-38
-0.025519049 -0.1209381 1.1650001 1.1337141e-38
-0.023300001 -0.1209381 1.1650001 1.3365445e-38
-0.021080954 -0.1209381 1.1650001 1.5301523e-38
-0.018861907 -0.1209381 1.1650001 1.5301523e-38
-0.096859999 -0.11912666 1.169 1.4106612e-38
-0.094633341 -0.11912666 1.169 1.0418787e-38
-0.092406668 -0.11912666 1.169 7.752566e-39
-0.089871436 -0.11871905 1.1650001 1.3929654e-38
-0.087652385 -0.11871905 1.1650001 1.5855828e-38
-0.085140005 -0.11831143 1.161 1.2260198e-38
-0.082928576 -0.11831143 1.161 1.1152382e-38
-0.080717139 -0.11831143 1.161 1.07836e-38
-0.078235239 -0.11790381 1.1570001 1.1334578e-38
-0.075768568 -0.11749619 1.153 1.2625317e-38
-0.07331714 -0.11708858 1.149 1.4835526e-38
-0.071128577 -0.11708858 1.149 1.6679438e-38
-0.068939999 -0.11708858 1.149 1.6497225e-38
-0.066519052 -0.11668096 1.1450001 1.5944051e-38
-0.064338103 -0.11668096 1.1450001 1.3184303e-38
-0.06215715 -0.11668096 1.1450001 1.1155999e-38
-0.060185716 -0.11708858 1.149 9.5007447e-39
-0.057997145 -0.11708858 1.149 1.0791484e-38
-0.055808574 -0.11708858 1.149 1.1800982e-38
-0.053620003 -0.11708858 1.149 1.3552699e-38
-0.051431429 -0.11708858 1.149 1.5852189e-38
-0.049242858 -0.11708858 1.149 1.6405363e-38
-0.047054287 -0.11708858 1.149 1.5393042e-38
-0.044865716 -0.11708858 1.149 1.0967652e-38
-0.042677142 -0.11708858 1.149 9.4989861e-39
-0.040488571 -0.11708858 1.149 7.8394648e-39
-0.038433332 -0.11749619 1.153 6.5559286e-39
-0.036237143 -0.11749619 1.153 6.463733e-39
-0.03404095 -0.11749619 1.153 8.6702806e-39
-0.031955238 -0.11790381 1.1570001 1.3095671e-38
-0.029751431 -0.11790381 1.1570001 1.4287779e-38
-0.027642857 -0.11831143 1.161 1.1060932e-38
-0.025519049 -0.11871905 1.1650001 1.1520419e-38
-0.02338 -0.11912666 1.169 1.4839462e-38
-0.021153333 -0.11912666 1.169 1.5577777e-38
-0.018926667 -0.11912666 1.169 1.530119e-38
-0.016814286 -0.11994191 1.177 1.4931305e-38
-0.014671429 -0.12075715 1.1850001 1.4931305e-38
-0.097191438 -0.1173 1.1730001 1.5303344e-38
-0.094957151 -0.1173 1.1730001 1.1246736e-38
-0.092722863 -0.1173 1.1730001 9.501458e-39
-0.090180002 -0.1169 1.169 1.3189283e-38
-0.087652385 -0.11650001 1.1650001 1.511894e-38
-0.085433342 -0.11650001 1.1650001 1.1984288e-38
-0.082928576 -0.1161 1.161 1.1060198e-38
-0.080717139 -0.1161 1.161 1.1060198e-38
-0.078235239 -0.11570001 1.1570001 1.1518661e-38
-0.075768568 -0.1153 1.153 1.1149878e-38
-0.07331714 -0.1149 1.149 1.1884929e-38
-0.071128577 -0.1149 1.149 1.6586906e-38
-0.068939999 -0.1149 1.149 1.5669968e-38
-0.066751435 -0.1149 1.149 1.3088491e-38
-0.064562857 -0.1149 1.149 1.1342551e-38
-0.06237429 -0.1149 1.149 1.0973769e-38
-0.060185716 -0.1149 1.149 1.0882637e-38
-0.057997145 -0.1149 1.149 1.0974832e-38
-0.055808574 -0.1149 1.149 1.1249973e-38
-0.053620003 -0.1149 1.149 1.1987538e-38
-0.051431429 -0.1149 1.149 1.5208592e-38
-0.049242858 -0.1149 1.149 1.7052505e-38
-0.047054287 -0.1149 1.149 1.4655816e-38
-0.044865716 -0.1149 1.149 8.6631004e-39
-0.042677142 -0.1149 1.149 6.8314337e-39
-0.040629521 -0.1153 1.153 7.1080206e-39
-0.038433332 -0.1153 1.153 7.2009379e-39
-0.036237143 -0.1153 1.153 6.924351e-39
-0.03404095 -0.1153 1.153 8.7610707e-39
-0.031955238 -0.11570001 1.1570001 1.2725483e-38
-0.029854285 -0.1161 1.161 1.3643473e-38
-0.027642857 -0.1161 1.161 1.0324431e-38
-0.025606668 -0.1169 1.169 1.1153112e-38
-0.02338 -0.1169 1.169 1.4656546e-38
-0.021225717 -0.1173 1.1730001 1.5669602e-38
-0.018991429 -0.1173 1.1730001 1.5485211e-38
-0.016814286 -0.1177 1.177 1.5114261e-38
-0.014671429 -0.1185 1.1850001 1.5022065e-38
-0.097191438 -0.11506572 1.1730001 1.6039467e-38
-0.094957151 -0.11506572 1.1730001 1.216725e-38
-0.092722863 -0.11506572 1.1730001 1.0511985e-38
-0.090180002 -0.11467334 1.169 1.4476397e-38
-0.087953337 -0.11467334 1.169 1.4751273e-38
-0.085433342 -0.11428096 1.1650001 1.2446382e-38
-0.082928576 -0.11388857 1.161 1.115132e-38
-0.080717139 -0.11388857 1.161 1.115132e-38
-0.078235239 -0.11349619 1.1570001 1.1151315e-38
-0.075768568 -0.11310381 1.153 1.0782532e-38
-0.073572382 -0.11310381 1.153 1.0873625e-38
-0.071128577 -0.11271144 1.149 1.6313167e-38
-0.068939999 -0.11271144 1.149 1.5120421e-38
-0.066751435 -0.11271144 1.149 1.1616987e-38
-0.064562857 -0.11271144 1.149 9.9639299e-39
-0.06237429 -0.11271144 1.149 1.0240517e-38
-0.060185716 -0.11271144 1.149 1.0791517e-38
-0.057997145 -0.11271144 1.149 1.0699322e-38
-0.055808574 -0.11271144 1.149 1.0514933e-38
-0.053620003 -0.11271144 1.149 1.0699324e-38
-0.051610474 -0.11310381 1.153 1.2997714e-38
-0.049414285 -0.11310381 1.153 1.6408953e-38
-0.047218092 -0.11310381 1.153 1.309247e-38
-0.045021903 -0.11310381 1.153 8.0217106e-39
-0.042825714 -0.11310381 1.153 5.727963e-39
-0.040629521 -0.11310381 1.153 6.3733324e-39
-0.038433332 -0.11310381 1.153 7.4767933e-39
-0.03636286 -0.11349619 1.1570001 6.9236195e-39
-0.034159049 -0.11349619 1.1570001 8.207897e-39
-0.031955238 -0.11349619 1.1570001 1.3278657e-38
-0.029854285 -0.11388857 1.161 1.3922221e-38
-0.027738096 -0.11428096 1.1650001 1.0879765e-38
-0.025606668 -0.11467334 1.169 1.1336771e-38
-0.023460001 -0.11506572 1.1730001 1.4563618e-38
-0.021225717 -0.11506572 1.1730001 1.5853627e-38
-0.018991429 -0.11506572 1.1730001 1.557704e-38
-0.016814286 -0.11545809 1.177 1.5113895e-38
-0.014621906 -0.11585049 1.1810001 1.50217e-38
-0.097191438 -0.11283144 1.1730001 1.5302239e-38
-0.094957151 -0.11283144 1.1730001 1.3734914e-38
-0.092722863 -0.11283144 1.1730001 1.4012256e-38
-0.090180002 -0.11244667 1.169 1.7054712e-38
-0.087953337 -0.11244667 1.169 1.7421319e-38
-0.085433342 -0.11206191 1.1650001 1.5208624e-38
-0.082928576 -0.11167714 1.161 1.2443526e-38
-0.080717139 -0.11167714 1.161 1.08762e-38
-0.07850571 -0.11167714 1.161 1.0416642e-38
-0.076031432 -0.11129239 1.1570001 1.0324446e-38
-0.073572382 -0.11090762 1.153 1.2071832e-38
-0.071128577 -0.11052286 1.149 1.6589418e-38
-0.068939999 -0.11052286 1.149 1.5855076e-38
-0.066751435 -0.11052286 1.149 1.281262e-38
-0.064562857 -0.11052286 1.149 1.1066324e-38
-0.06237429 -0.11052286 1.149 1.0881933e-38
-0.060185716 -0.11052286 1.149 1.0330542e-38
-0.057997145 -0.11052286 1.149 1.0422737e-38
-0.055808574 -0.11052286 1.149 1.0882289e-38
-0.053620003 -0.11052286 1.149 1.1158876e-38
-0.051610474 -0.11090762 1.153 1.3549453e-38
-0.049414285 -0.11090762 1.153 1.6684105e-38
-0.047218092 -0.11090762 1.153 1.5210059e-38
-0.045021903 -0.11090762 1.153 1.01393e-38
-0.042825714 -0.11090762 1.153 6.4633953e-39
-0.040629521 -0.11090762 1.153 6.0946128e-39
-0.038433332 -0.11090762 1.153 7.1073045e-39
-0.03636286 -0.11129239 1.1570001 8.8590215e-39
-0.034159049 -0.11129239 1.1570001 1.1524441e-38
-0.032065712 -0.11167714 1.161 1.4751288e-38
-0.029854285 -0.11167714 1.161 1.5393746e-38
-0.027738096 -0.11206191 1.1650001 1.4656181e-38
-0.025606668 -0.11244667 1.169 1.4380308e-38
-0.023460001 -0.11283144 1.1730001 1.4195917e-38
-0.021153333 -0.11244667 1.169 1.4286668e-38
-0.018926667 -0.11244667 1.169 1.4194472e-38
-0.016814286 -0.1132162 1.177 1.4836945e-38
-0.014621906 -0.11360096 1.1810001 1.5297923e-38
-0.097191438 -0.11059715 1.1730001 1.5118217e-38
-0.094957151 -0.11059715 1.1730001 1.484163e-38
-0.093039051 -0.11097429 1.177 1.5669956e-38
-0.090488575 -0.11059715 1.1730001 1.7698259e-38
-0.088254295 -0.11059715 1.1730001 1.8064185e-38
-0.085726663 -0.11022 1.169 1.6312468e-38
-0.08321429 -0.10984286 1.1650001 1.4839521e-38
-0.080995239 -0.10984286 1.1650001 1.10595e-38
-0.07850571 -0.10946572 1.161 1.0967934e-38
-0.076294288 -0.10946572 1.161 1.188989e-38
-0.073827624 -0.10908858 1.1570001 1.3176747e-38
-0.07137619 -0.10871143 1.153 1.6403594e-38
-0.069179997 -0.10871143 1.153 1.6681952e-38
-0.066983812 -0.10871143 1.153 1.419267e-38
-0.064562857 -0.10833429 1.149 1.2722609e-38
-0.06237429 -0.10833429 1.149 1.1524066e-38
-0.060185716 -0.10833429 1.149 1.0329812e-38
-0.057997145 -0.10833429 1.149 1.0514203e-38
-0.056002859 -0.10871143 1.153 1.1618395e-38
-0.053806666 -0.10871143 1.153 1.1987178e-38
-0.051610474 -0.10871143 1.153 1.456147e-38
-0.049414285 -0.10871143 1.153 1.60366e-38
-0.047218092 -0.10871143 1.153 1.5210056e-38
-0.045021903 -0.10871143 1.153 1.2536383e-38
-0.042974286 -0.10908858 1.1570001 8.6739296e-39
-0.040770479 -0.10908858 1.1570001 6.092452e-39
-0.038566668 -0.10908858 1.1570001 7.4742359e-39
-0.03636286 -0.10908858 1.1570001 1.0885474e-38
-0.034159049 -0.10908858 1.1570001 1.4010476e-38
-0.032065712 -0.10946572 1.161 1.5116824e-38
-0.029957144 -0.10984286 1.1650001 1.6130564e-38
-0.027738096 -0.10984286 1.1650001 1.6591542e-38
-0.025694286 -0.11059715 1.1730001 1.5393048e-38
-0.023460001 -0.11059715 1.1730001 1.3272548e-38
-0.021153333 -0.11022 1.169 1.3915342e-38
-0.018926667 -0.11022 1.169 1.5113885e-38
-0.0167 -0.11022 1.169 1.5298965e-38
-0.097522855 -0.10873239 1.177 2.0094613e-38
-0.09528096 -0.10873239 1.177 1.7697527e-38
-0.093039051 -0.10873239 1.177 1.6500442e-38
-0.090797149 -0.10873239 1.177 1.6408247e-38
-0.088254295 -0.10836286 1.1730001 1.6499713e-38
-0.085726663 -0.10799333 1.169 1.5854344e-38
-0.08321429 -0.10762382 1.1650001 1.4747698e-38
-0.080995239 -0.10762382 1.1650001 1.3364764e-38
-0.078776196 -0.10762382 1.1650001 1.382708e-38
-0.076294288 -0.10725429 1.161 1.5855384e-38
-0.074082859 -0.10725429 1.161 1.5853292e-38
-0.07162381 -0.10688476 1.1570001 1.4931335e-38
-0.069179997 -0.10651524 1.153 1.5023863e-38
-0.066983812 -0.10651524 1.153 1.5392646e-38
-0.064787619 -0.10651524 1.153 1.3827161e-38
-0.062591426 -0.10651524 1.153 1.2905205e-38
-0.060395237 -0.10651524 1.153 1.1710951e-38
-0.058199048 -0.10651524 1.153 1.152656e-38
-0.056002859 -0.10651524 1.153 1.2720438e-38
-0.053993337 -0.10688476 1.1570001 1.5025329e-38
-0.051610474 -0.10651524 1.153 1.5300826e-38
-0.049414285 -0.10651524 1.153 1.4194478e-38
-0.047381908 -0.10688476 1.1570001 1.502527e-38
-0.0451781 -0.10688476 1.1570001 1.6131618e-38
-0.042974286 -0.10688476 1.1570001 1.3461606e-38
-0.040770479 -0.10688476 1.1570001 1.041915e-38
-0.038566668 -0.10688476 1.1570001 1.1248192e-38
-0.03636286 -0.10688476 1.1570001 1.465943e-38
-0.034277145 -0.10725429 1.161 1.4841303e-38
-0.032065712 -0.10725429 1.161 1.2997391e-38
-0.029957144 -0.10762382 1.1650001 1.511744e-38
-0.027833333 -0.10799333 1.169 1.6776962e-38
-0.025694286 -0.10836286 1.1730001 1.5025704e-38
-0.023540001 -0.10873239 1.177 1.1061292e-38
-0.021153333 -0.10799333 1.169 1.2628596e-38
-0.018926667 -0.10799333 1.169 1.9543268e-38
-0.0167 -0.10799333 1.169 2.1107327e-38
-0.097522855 -0.10649048 1.177 2.1108448e-38
-0.09528096 -0.10649048 1.177 1.8065992e-38
-0.093039051 -0.10649048 1.177 1.6316773e-38
-0.090797149 -0.10649048 1.177 1.5026034e-38
-0.088254295 -0.10612858 1.1730001 1.3921502e-38
-0.086020008 -0.10612858 1.1730001 1.4013698e-38
-0.083500005 -0.10576667 1.169 1.5393758e-38
-0.080995239 -0.10540477 1.1650001 1.4656193e-38
-0.078776196 -0.10540477 1.1650001 1.5205393e-38
-0.076557145 -0.10540477 1.1650001 1.7141501e-38
-0.074082859 -0.10504285 1.161 1.6776693e-38
-0.07162381 -0.10468096 1.1570001 1.1613737e-38
-0.069420002 -0.10468096 1.1570001 1.2072872e-38
-0.067216195 -0.10468096 1.1570001 1.3640197e-38
-0.06501238 -0.10468096 1.1570001 1.530082e-38
-0.062808573 -0.10468096 1.1570001 1.4471059e-38
-0.060395237 -0.10431904 1.153 1.3643827e-38
-0.058199048 -0.10431904 1.153 1.3275044e-38
-0.056197144 -0.10468096 1.1570001 1.4101578e-38
-0.053993337 -0.10468096 1.1570001 1.5761099e-38
-0.051789526 -0.10468096 1.1570001 1.5485594e-38
-0.049585715 -0.10468096 1.1570001 1.2166551e-38
-0.047381908 -0.10468096 1.1570001 1.299302e-38
-0.0451781 -0.10468096 1.1570001 1.5297911e-38
-0.042974286 -0.10468096 1.1570001 1.5762175e-38
-0.040770479 -0.10468096 1.1570001 1.4748023e-38
-0.038566668 -0.10468096 1.1570001 1.364277e-38
-0.03636286 -0.10468096 1.1570001 1.5394487e-38
-0.034277145 -0.10504285 1.161 1.5025339e-38
-0.032176193 -0.10540477 1.1650001 1.2443861e-38
-0.029957144 -0.10540477 1.1650001 1.2538159e-38
-0.027833333 -0.10576667 1.169 1.5488419e-38
-0.025694286 -0.10612858 1.1730001 1.4474686e-38
-0.023540001 -0.10649048 1.177 1.0233687e-38
-0.021153333 -0.10576667 1.169 1.1800633e-38
-0.018926667 -0.10576667 1.169 2.0282631e-38
-0.016757144 -0.10612858 1.1730001 2.2212971e-38
-0.09528096 -0.10424858 1.177 1.7882314e-38
-0.093039051 -0.10424858 1.177 1.5948706e-38
-0.090797149 -0.10424858 1.177 1.4842359e-38
-0.088254295 -0.10389429 1.1730001 1.2909536e-38
-0.086020008 -0.10389429 1.1730001 1.2632949e-38
