# .PCD v0.7 - Point Cloud Data file format
VERSION 0.7
FIELDS x y z rgb
SIZE 4 4 4 4
TYPE F F F F
COUNT 1 1 1 1
WIDTH 1070
HEIGHT 1
VIEWPOINT 0 0 0 1 0 0 0
POINTS 1070
DATA ascii
-0.13975143 -0.1556581 1.1930001 1.6593416e-38
-0.13747905 -0.1556581 1.1930001 1.6777807e-38
-0.13520667 -0.1556581 1.1930001 1.6777807e-38
-0.13338 -0.15617999 1.197 1.7054394e-38
-0.1311 -0.15617999 1.197 1.733026e-38
-0.12882 -0.15617999 1.197 1.7606847e-38
-0.12654001 -0.15617999 1.197 1.7423176e-38
-0.12477905 -0.15683238 1.202 1.7699763e-38
-0.12248952 -0.15683238 1.202 1.7607918e-38
-0.1202 -0.15683238 1.202 1.7700113e-38
-0.11830287 -0.1573543 1.2060001 1.7423892e-38
-0.11600572 -0.1573543 1.2060001 1.7147305e-38
-0.11370859 -0.1573543 1.2060001 1.7147308e-38
-0.11141144 -0.1573543 1.2060001 1.7331699e-38
-0.10911429 -0.1573543 1.2060001 1.705475e-38
-0.10646286 -0.15683238 1.202 1.705475e-38
-0.10417333 -0.15683238 1.202 1.696327e-38
-0.10188381 -0.15683238 1.202 1.6778879e-38
-0.099594288 -0.15683238 1.202 1.6502292e-38
-0.096900001 -0.15617999 1.197 1.6594488e-38
-0.094303817 -0.1556581 1.1930001 1.6133156e-38
-0.092031434 -0.1556581 1.1930001 1.5856569e-38
-0.089458093 -0.1551362 1.189 1.594697e-38
-0.087193333 -0.1551362 1.189 1.5209405e-38
-0.08435715 -0.15409239 1.1810001 1.4564739e-38
-0.081829526 -0.15357049 1.177 1.3827174e-38
-0.079587616 -0.15357049 1.177 1.3641328e-38
-0.077608578 -0.15409239 1.1810001 1.3456937e-38
-0.1625381 -0.15132858 1.177 1.2261678e-38
-0.16029619 -0.15132858 1.177 1.2625041e-38
-0.15805428 -0.15132858 1.177 1.3731388e-38
-0.15634191 -0.15184286 1.1810001 1.3640978e-38
-0.15461428 -0.15235715 1.1850001 1.4931717e-38
-0.15287143 -0.15287143 1.189 1.5117547e-38
-0.15060668 -0.15287143 1.189 1.5762916e-38
-0.14834191 -0.15287143 1.189 1.5855115e-38
-0.14607714 -0.15287143 1.189 1.6316093e-38
-0.1442962 -0.15338571 1.1930001 1.6132788e-38
-0.14202382 -0.15338571 1.1930001 1.6593766e-38
-0.13975143 -0.15338571 1.1930001 1.6501939e-38
-0.13747905 -0.15338571 1.1930001 1.6778526e-38
-0.13520667 -0.15338571 1.1930001 1.6777807e-38
-0.13338 -0.1539 1.197 1.7146589e-38
-0.1311 -0.1539 1.197 1.7422453e-38
-0.1293581 -0.15454286 1.202 1.7606844e-38
-0.12706856 -0.15454286 1.202 1.7606847e-38
-0.12477905 -0.15454286 1.202 1.7699043e-38
-0.12248952 -0.15454286 1.202 1.7791589e-38
-0.1202 -0.15454286 1.202 1.7883784e-38
-0.11791047 -0.15454286 1.202 1.7423529e-38
-0.11600572 -0.15505715 1.2060001 1.7331334e-38
-0.11370859 -0.15505715 1.2060001 1.7054394e-38
-0.1110419 -0.15454286 1.202 1.7146589e-38
-0.10875238 -0.15454286 1.202 1.705475e-38
-0.10646286 -0.15454286 1.202 1.6962554e-38
-0.10417333 -0.15454286 1.202 1.6870356e-38
-0.10188381 -0.15454286 1.202 1.6870356e-38
-0.099594288 -0.15454286 1.202 1.6410096e-38
-0.096900001 -0.1539 1.197 1.6502292e-38
-0.094303817 -0.15338571 1.1930001 1.6041314e-38
-0.092031434 -0.15338571 1.1930001 1.5856922e-38
-0.089458093 -0.15287143 1.189 1.5579266e-38
-0.087193333 -0.15287143 1.189 1.5210484e-38
-0.084642865 -0.15235715 1.1850001 1.4841679e-38
-0.082107626 -0.15184286 1.1810001 1.419631e-38
-0.079858102 -0.15184286 1.1810001 1.3641694e-38
-0.077608578 -0.15184286 1.1810001 1.4010476e-38
-0.16198573 -0.14858001 1.1730001 1.1064908e-38
-0.15975145 -0.14858001 1.1730001 1.2813353e-38
-0.15805428 -0.14908667 1.177 1.456507e-38
-0.1558124 -0.14908667 1.177 1.4932442e-38
-0.15409239 -0.14959334 1.1810001 1.5485616e-38
-0.15287143 -0.15060668 1.189 1.5485979e-38
-0.15060668 -0.15060668 1.189 1.6039153e-38
-0.14834191 -0.15060668 1.189 1.6039153e-38
-0.14607714 -0.15060668 1.189 1.6500131e-38
-0.1442962 -0.15111333 1.1930001 1.6224986e-38
-0.14202382 -0.15111333 1.1930001 1.6593769e-38
-0.13975143 -0.15111333 1.1930001 1.6593771e-38
-0.13747905 -0.15111333 1.1930001 1.6962554e-38
-0.13566001 -0.15162 1.197 1.6962554e-38
-0.13338 -0.15162 1.197 1.7239141e-38
-0.1311 -0.15162 1.197 1.742245e-38
-0.1293581 -0.15225333 1.202 1.7514646e-38
-0.12706856 -0.15225333 1.202 1.7790883e-38
-0.12477905 -0.15225333 1.202 1.7606491e-38
-0.12248952 -0.15225333 1.202 1.769939e-38
-0.1202 -0.15225333 1.202 1.7883782e-38
-0.11791047 -0.15225333 1.202 1.7515722e-38
-0.11562095 -0.15225333 1.202 1.7423527e-38
-0.11333143 -0.15225333 1.202 1.7146945e-38
-0.1110419 -0.15225333 1.202 1.7146945e-38
-0.10875238 -0.15225333 1.202 1.6962554e-38
-0.10646286 -0.15225333 1.202 1.6870358e-38
-0.10417333 -0.15225333 1.202 1.6778513e-38
-0.10188381 -0.15225333 1.202 1.6686317e-38
-0.099594288 -0.15225333 1.202 1.6317545e-38
-0.096900001 -0.15162 1.197 1.6133153e-38
-0.094303817 -0.15111333 1.1930001 1.5763655e-38
-0.092031434 -0.15111333 1.1930001 1.5579264e-38
-0.089458093 -0.15060668 1.189 1.5486348e-38
-0.086900003 -0.15010001 1.1850001 1.5486348e-38
-0.08435715 -0.14959334 1.1810001 1.4841329e-38
-0.081829526 -0.14908667 1.177 1.4749133e-38
-0.079587616 -0.14908667 1.177 1.4933512e-38
-0.077345721 -0.14908667 1.177 1.5210099e-38
-0.16198573 -0.14634572 1.1730001 1.2539685e-38
-0.15975145 -0.14634572 1.1730001 1.4010098e-38
-0.15751716 -0.14634572 1.1730001 1.502425e-38
-0.1558124 -0.14684477 1.177 1.48406e-38
-0.15409239 -0.14734381 1.1810001 1.5485969e-38
-0.15287143 -0.14834191 1.189 1.5393774e-38
-0.15060668 -0.14834191 1.189 1.5854752e-38
-0.14834191 -0.14834191 1.189 1.5946957e-38
-0.14607714 -0.14834191 1.189 1.6592327e-38
-0.1442962 -0.14884095 1.1930001 1.6317535e-38
-0.14202382 -0.14884095 1.1930001 1.6317535e-38
-0.13975143 -0.14884095 1.1930001 1.6317185e-38
-0.13747905 -0.14884095 1.1930001 1.6870358e-38
-0.13566001 -0.14934 1.197 1.6778523e-38
-0.13338 -0.14934 1.197 1.7147305e-38
-0.1311 -0.14934 1.197 1.7147661e-38
-0.1293581 -0.14996381 1.202 1.7239857e-38
-0.12706856 -0.14996381 1.202 1.7331336e-38
-0.12477905 -0.14996381 1.202 1.7423532e-38
-0.12248952 -0.14996381 1.202 1.7606842e-38
-0.1202 -0.14996381 1.202 1.7514646e-38
-0.11791047 -0.14996381 1.202 1.742245e-38
-0.11562095 -0.14996381 1.202 1.742245e-38
-0.11333143 -0.14996381 1.202 1.7238062e-38
-0.1110419 -0.14996381 1.202 1.7145866e-38
-0.10875238 -0.14996381 1.202 1.6869277e-38
-0.10646286 -0.14996381 1.202 1.6777081e-38
-0.10417333 -0.14996381 1.202 1.6777434e-38
-0.10188381 -0.14996381 1.202 1.6777434e-38
-0.099594288 -0.14996381 1.202 1.6226055e-38
-0.096900001 -0.14934 1.197 1.613386e-38
-0.094303817 -0.14884095 1.1930001 1.5579967e-38
-0.092031434 -0.14884095 1.1930001 1.5487771e-38
-0.089458093 -0.14834191 1.189 1.5394146e-38
-0.086900003 -0.14784285 1.1850001 1.5486342e-38
-0.08435715 -0.14734381 1.1810001 1.5117209e-38
-0.081829526 -0.14684477 1.177 1.5209405e-38
-0.079587616 -0.14684477 1.177 1.5393774e-38
-0.077345721 -0.14684477 1.177 1.5209382e-38
-0.15975145 -0.14411144 1.1730001 1.4378192e-38
-0.15751716 -0.14411144 1.1730001 1.548454e-38
-0.1558124 -0.14460286 1.177 1.5669279e-38
-0.15409239 -0.14509429 1.1810001 1.585367e-38
-0.15287143 -0.14607714 1.189 1.576219e-38
-0.15060668 -0.14607714 1.189 1.5946582e-38
-0.14834191 -0.14607714 1.189 1.6038787e-38
-0.14656857 -0.14656857 1.1930001 1.6591961e-38
-0.1442962 -0.14656857 1.1930001 1.6500837e-38
-0.14202382 -0.14656857 1.1930001 1.6500837e-38
-0.14022 -0.14706001 1.197 1.6408301e-38
-0.13794 -0.14706001 1.197 1.6777084e-38
-0.13622667 -0.14767428 1.202 1.6685961e-38
-0.13393715 -0.14767428 1.202 1.6778157e-38
-0.13208573 -0.14816572 1.2060001 1.6870358e-38
-0.12978858 -0.14816572 1.2060001 1.705475e-38
-0.12706856 -0.14767428 1.202 1.714657e-38
-0.12477905 -0.14767428 1.202 1.7238765e-38
-0.12248952 -0.14767428 1.202 1.7330255e-38
-0.1202 -0.14767428 1.202 1.7238059e-38
-0.11791047 -0.14767428 1.202 1.6869282e-38
-0.11600572 -0.14816572 1.2060001 1.6777087e-38
-0.11333143 -0.14767428 1.202 1.686856e-38
-0.1110419 -0.14767428 1.202 1.686856e-38
-0.10875238 -0.14767428 1.202 1.6684522e-38
-0.10681715 -0.14816572 1.2060001 1.6592327e-38
-0.10452001 -0.14816572 1.2060001 1.6777071e-38
-0.10256191 -0.14865716 1.21 1.6869267e-38
-0.099925719 -0.14816572 1.2060001 1.6870333e-38
-0.097304761 -0.14767428 1.202 1.6870333e-38
-0.094620004 -0.14706001 1.197 1.6869254e-38
-0.09234 -0.14706001 1.197 1.7053645e-38
-0.089759052 -0.14656857 1.1930001 1.7053668e-38
-0.086900003 -0.14558572 1.1850001 1.7053668e-38
-0.084642865 -0.14558572 1.1850001 1.6132084e-38
-0.082385719 -0.14558572 1.1850001 1.5394519e-38
-0.077423811 -0.14067145 1.1450001 1.3829335e-38
-0.075242862 -0.14067145 1.1450001 1.1893226e-38
-0.15922381 -0.13945809 1.153 1.4194925e-38
-0.15648286 -0.13897429 1.149 1.4102659e-38
-0.15375715 -0.13849048 1.1450001 1.5485594e-38
-0.15157621 -0.13849048 1.1450001 1.5854389e-38
-0.1469162 -0.13619238 1.126 1.603878e-38
-0.14438573 -0.13582952 1.123 1.6222806e-38
-0.14224668 -0.13582952 1.123 1.6315001e-38
-0.13960858 -0.13534571 1.1190001 1.6314664e-38
-0.13747716 -0.13534571 1.1190001 1.6683446e-38
-0.13534571 -0.13534571 1.1190001 1.6592317e-38
-0.13321429 -0.13534571 1.1190001 1.6776708e-38
-0.13108286 -0.13534571 1.1190001 1.6500497e-38
-0.13851619 -0.14538477 1.202 1.6684888e-38
-0.13668001 -0.14586858 1.2060001 1.6409377e-38
-0.13438286 -0.14586858 1.2060001 1.6593769e-38
-0.13208573 -0.14586858 1.2060001 1.6777087e-38
-0.12978858 -0.14586858 1.2060001 1.7145869e-38
-0.12706856 -0.14538477 1.202 1.7054024e-38
-0.12477905 -0.14538477 1.202 1.7054024e-38
-0.12198001 -0.14478 1.197 1.6961472e-38
-0.11970001 -0.14478 1.197 1.7053668e-38
-0.11791047 -0.14538477 1.202 1.7144787e-38
-0.11600572 -0.14586858 1.2060001 1.7421374e-38
-0.11333143 -0.14538477 1.202 1.7329188e-38
-0.1110419 -0.14538477 1.202 1.7236993e-38
-0.10875238 -0.14538477 1.202 1.6961122e-38
-0.10681715 -0.14586858 1.2060001 1.6961122e-38
-0.097586669 -0.13619238 1.126 1.7053308e-38
-0.095441908 -0.13619238 1.126 1.7145503e-38
-0.093297146 -0.13619238 1.126 1.742244e-38
-0.091476195 -0.13667618 1.13 1.7238049e-38
-0.089323811 -0.13667618 1.13 1.7513557e-38
-0.092725717 -0.14538477 1.202 1.7790144e-38
-0.09043619 -0.14538477 1.202 1.7238415e-38
-0.083673336 -0.13800666 1.141 1.6316459e-38
-0.081500001 -0.13800666 1.141 1.5397371e-38
-0.079604767 -0.13849048 1.1450001 1.4752001e-38
-0.077423811 -0.13849048 1.1450001 1.199118e-38
-0.075242862 -0.13849048 1.1450001 1.0239463e-38
-0.073061906 -0.13849048 1.1450001 1.2354893e-38
-0.071128577 -0.13897429 1.149 1.5397348e-38
-0.068939999 -0.13897429 1.149 1.6130632e-38
-0.15867144 -0.13678572 1.149 1.3826503e-38
-0.15648286 -0.13678572 1.149 1.1155296e-38
-0.15375715 -0.13630953 1.1450001 1.1708469e-38
-0.15104666 -0.13583334 1.141 1.3826796e-38
-0.1469162 -0.13404761 1.126 1.4933143e-38
-0.14438573 -0.13369048 1.123 1.5855789e-38
-0.14224668 -0.13369048 1.123 1.6224571e-38
-0.13960858 -0.13321429 1.1190001 1.6224989e-38
-0.13747716 -0.13321429 1.1190001 1.6317185e-38
-0.13534571 -0.13321429 1.1190001 1.6224986e-38
-0.13321429 -0.13321429 1.1190001 1.6501573e-38
-0.13108286 -0.13321429 1.1190001 1.6593771e-38
-0.13897716 -0.14357144 1.2060001 1.7239141e-38
-0.13668001 -0.14357144 1.2060001 1.7330255e-38
-0.13438286 -0.14357144 1.2060001 1.7606842e-38
-0.13208573 -0.14357144 1.2060001 1.7606842e-38
-0.12978858 -0.14357144 1.2060001 1.8252211e-38
-0.12706856 -0.14309524 1.202 1.8068896e-38
-0.12477905 -0.14309524 1.202 1.8161092e-38
-0.12198001 -0.1425 1.197 1.7885942e-38
-0.11970001 -0.1425 1.197 1.7978138e-38
-0.10937619 -0.1327381 1.115 1.8345483e-38
-0.10725237 -0.1327381 1.115 1.9359635e-38
-0.10512857 -0.1327381 1.115 1.9082344e-38
-0.10300476 -0.1327381 1.115 1.8713562e-38
-0.10088095 -0.1327381 1.115 1.8068192e-38
-0.099465713 -0.13369048 1.123 1.8160388e-38
-0.097326666 -0.13369048 1.123 1.7239504e-38
-0.095187619 -0.13369048 1.123 1.5764374e-38
-0.093297146 -0.13404761 1.126 1.4566206e-38
-0.091476195 -0.13452381 1.13 1.447401e-38
-0.089323811 -0.13452381 1.13 1.5210837e-38
-0.087480001 -0.13500002 1.1340001 1.6040598e-38
-0.085620955 -0.13547619 1.138 1.4291402e-38
-0.083453335 -0.13547619 1.138 1.0050403e-38
-0.081500001 -0.13583334 1.141 1.0513917e-38
-0.079604767 -0.13630953 1.1450001 1.3925155e-38
-0.077423811 -0.13630953 1.1450001 1.3922934e-38
-0.075242862 -0.13630953 1.1450001 1.106487e-38
-0.07331714 -0.13678572 1.149 1.1615923e-38
-0.071128577 -0.13678572 1.149 1.5211553e-38
-0.068939999 -0.13678572 1.149 1.5761487e-38
-0.15867144 -0.13459715 1.149 1.2445356e-38
-0.1559381 -0.13412857 1.1450001 8.5766795e-39
-0.15322001 -0.13366 1.141 1.0697179e-38
-0.15064953 -0.13330857 1.138 1.189251e-38
-0.14743809 -0.13237143 1.13 1.3091054e-38
-0.14477144 -0.13190286 1.126 1.3735669e-38
-0.14224668 -0.13155143 1.123 1.4842017e-38
-0.14010762 -0.13155143 1.123 1.4844926e-38
-0.13796857 -0.13155143 1.123 1.4660534e-38
-0.13582952 -0.13155143 1.123 1.4568339e-38
-0.13321429 -0.13108286 1.1190001 1.4383948e-38
-0.13108286 -0.13108286 1.1190001 1.594732e-38
-0.12941237 -0.13155143 1.123 1.742245e-38
-0.12727334 -0.13155143 1.123 1.7238059e-38
-0.12546857 -0.13190286 1.126 1.6777081e-38
-0.12332381 -0.13190286 1.126 1.7054352e-38
-0.12042572 -0.13108286 1.1190001 1.8437286e-38
-0.11829429 -0.13108286 1.1190001 1.7977797e-38
-0.11616287 -0.13108286 1.1190001 1.7240232e-38
-0.11403143 -0.13108286 1.1190001 1.6781377e-38
-0.11190001 -0.13108286 1.1190001 1.6781377e-38
-0.10937619 -0.1306143 1.115 1.7241637e-38
-0.10725237 -0.1306143 1.115 1.8255788e-38
-0.10512857 -0.1306143 1.115 1.8346217e-38
-0.10300476 -0.1306143 1.115 1.7700848e-38
-0.10088095 -0.1306143 1.115 1.6780686e-38
-0.099465713 -0.13155143 1.123 1.7057273e-38
-0.097326666 -0.13155143 1.123 1.6872882e-38
-0.095187619 -0.13155143 1.123 1.5305556e-38
-0.093297146 -0.13190286 1.126 1.2452168e-38
-0.091476195 -0.13237143 1.13 1.2267777e-38
-0.089323811 -0.13237143 1.13 1.3184351e-38
-0.087480001 -0.13284001 1.1340001 1.4198503e-38
-0.085620955 -0.13330857 1.138 1.2636196e-38
-0.083453335 -0.13330857 1.138 7.3810454e-39
-0.081500001 -0.13366 1.141 9.4107435e-39
-0.079604767 -0.13412857 1.1450001 1.3928329e-38
-0.077423811 -0.13412857 1.1450001 1.4934951e-38
-0.075242862 -0.13412857 1.1450001 1.1523712e-38
-0.07331714 -0.13459715 1.149 1.1982533e-38
-0.071128577 -0.13459715 1.149 1.5485967e-38
-0.068939999 -0.13459715 1.149 1.5668926e-38
-0.15867144 -0.13240857 1.149 1.2444988e-38
-0.1559381 -0.13194764 1.1450001 1.0235532e-38
-0.15322001 -0.13148667 1.141 1.1802858e-38
-0.15064953 -0.13114095 1.138 1.2079072e-38
-0.14743809 -0.13021904 1.13 9.6819859e-39
-0.14477144 -0.12975809 1.126 8.1221627e-39
-0.14262667 -0.12975809 1.126 8.4909452e-39
-0.14048192 -0.12975809 1.126 1.1065643e-38
-0.13796857 -0.12941237 1.123 1.429249e-38
-0.13582952 -0.12941237 1.123 1.4750557e-38
-0.13369048 -0.12941237 1.123 1.4289579e-38
-0.13155143 -0.12941237 1.123 1.6040926e-38
-0.12941237 -0.12941237 1.123 1.7055077e-38
-0.12727334 -0.12941237 1.123 1.5302324e-38
-0.12513429 -0.12941237 1.123 1.1245716e-38
-0.12299524 -0.12941237 1.123 1.2904139e-38
-0.12042572 -0.12895143 1.1190001 1.7698311e-38
-0.11829429 -0.12895143 1.1190001 1.7791236e-38
-0.11616287 -0.12895143 1.1190001 1.5025367e-38
-0.11403143 -0.12895143 1.1190001 1.2637577e-38
-0.11190001 -0.12895143 1.1190001 1.2545381e-38
-0.10976858 -0.12895143 1.1190001 1.5399846e-38
-0.10763714 -0.12895143 1.1190001 1.7704736e-38
-0.10550572 -0.12895143 1.1190001 1.7426031e-38
-0.10337429 -0.12895143 1.1190001 1.4199184e-38
-0.10124286 -0.12895143 1.1190001 1.37429e-38
-0.09973143 -0.12975809 1.126 1.4480465e-38
-0.097586669 -0.12975809 1.126 1.5583232e-38
-0.095441908 -0.12975809 1.126 1.6320797e-38
-0.093297146 -0.12975809 1.126 1.5121162e-38
-0.091476195 -0.13021904 1.13 1.5397749e-38
-0.089323811 -0.13021904 1.13 1.5215869e-38
-0.087480001 -0.13068001 1.1340001 1.2357805e-38
-0.085620955 -0.13114095 1.138 7.665579e-39
-0.083453335 -0.13114095 1.138 4.0699495e-39
-0.081500001 -0.13148667 1.141 6.4644939e-39
-0.079604767 -0.13194764 1.1450001 1.098208e-38
-0.077423811 -0.13194764 1.1450001 1.2814814e-38
-0.075505719 -0.13240857 1.149 9.9567497e-39
-0.07331714 -0.13240857 1.149 1.1523009e-38
-0.071128577 -0.13240857 1.149 1.5210834e-38
-0.068939999 -0.13240857 1.149 1.5669282e-38
-0.066751435 -0.13240857 1.149 1.5208303e-38
-0.15811905 -0.12976667 1.1450001 1.2813773e-38
-0.1559381 -0.12976667 1.1450001 1.1154968e-38
-0.15322001 -0.12931333 1.141 1.2722293e-38
-0.15104666 -0.12931333 1.141 1.1438019e-38
-0.14848191 -0.12897334 1.138 6.2750636e-39
-0.14528571 -0.12806667 1.13 2.1442277e-39
-0.14313333 -0.12806667 1.13 2.4208146e-39
-0.14048192 -0.12761334 1.126 1.02369e-38
-0.13833715 -0.12761334 1.126 1.4016921e-38
-0.13619238 -0.12761334 1.126 1.5762916e-38
-0.13369048 -0.12727334 1.123 1.6500481e-38
-0.13155143 -0.12727334 1.123 1.6043119e-38
-0.12941237 -0.12727334 1.123 1.5674336e-38
-0.12727334 -0.12727334 1.123 1.3647827e-38
-0.12513429 -0.12727334 1.123 9.7756108e-39
-0.12299524 -0.12727334 1.123 1.15226e-38
-0.12085619 -0.12727334 1.123 1.5763599e-38
-0.11871714 -0.12727334 1.123 1.8250756e-38
-0.1165781 -0.12727334 1.123 1.6130257e-38
-0.11443905 -0.12727334 1.123 1.2912417e-38
-0.1123 -0.12727334 1.123 1.2820222e-38
-0.10976858 -0.12682001 1.1190001 1.5766885e-38
-0.10763714 -0.12682001 1.1190001 1.7518602e-38
-0.10550572 -0.12682001 1.1190001 1.6321861e-38
-0.10374381 -0.12727334 1.123 1.3187209e-38
-0.10160477 -0.12727334 1.123 1.1628178e-38
-0.099465713 -0.12727334 1.123 1.199696e-38
-0.097586669 -0.12761334 1.126 1.5398821e-38
-0.095441908 -0.12761334 1.126 1.6412973e-38
-0.09362857 -0.12806667 1.13 1.6962554e-38
-0.091476195 -0.12806667 1.13 1.7239141e-38
-0.089323811 -0.12806667 1.13 1.5677576e-38
-0.087480001 -0.12852001 1.1340001 8.670708e-39
-0.085620955 -0.12897334 1.138 5.6412002e-39
-0.083453335 -0.12897334 1.138 4.1660701e-39
-0.081500001 -0.12931333 1.141 5.2724051e-39
-0.079604767 -0.12976667 1.1450001 8.8680347e-39
-0.077423811 -0.12976667 1.1450001 1.1249299e-38
-0.075505719 -0.13022 1.149 9.9585602e-39
-0.07331714 -0.13022 1.149 1.1889627e-38
-0.071128577 -0.13022 1.149 1.5669647e-38
-0.068939999 -0.13022 1.149 1.5761474e-38
-0.066751435 -0.13022 1.149 1.5392692e-38
-0.15811905 -0.12758572 1.1450001 1.3182556e-38
-0.1559381 -0.12758572 1.1450001 1.0788003e-38
-0.15322001 -0.12714 1.141 1.041922e-38
-0.15104666 -0.12714 1.141 8.0314721e-39
-0.14848191 -0.12680571 1.138 4.6202338e-39
-0.14528571 -0.12591429 1.13 2.6066758e-39
-0.14313333 -0.12591429 1.13 2.4222845e-39
-0.14098094 -0.12591429 1.13 5.6368842e-39
-0.13833715 -0.12546857 1.126 1.0246666e-38
-0.13619238 -0.12546857 1.126 1.5397351e-38
-0.13404761 -0.12546857 1.126 1.7241264e-38
-0.13190286 -0.12546857 1.126 1.6962176e-38
-0.12941237 -0.12513429 1.123 1.1983612e-38
-0.12727334 -0.12513429 1.123 1.0236936e-38
-0.12513429 -0.12513429 1.123 9.9603496e-39
-0.12299524 -0.12513429 1.123 1.0785444e-38
-0.12085619 -0.12513429 1.123 1.1430813e-38
-0.11871714 -0.12513429 1.123 1.4656544e-38
-0.11688953 -0.12546857 1.126 1.8344369e-38
-0.11474476 -0.12546857 1.126 1.770122e-38
-0.1126 -0.12546857 1.126 1.8623177e-38
-0.11016095 -0.12513429 1.123 1.7335665e-38
-0.10802191 -0.12513429 1.123 1.5307361e-38
-0.10588286 -0.12513429 1.123 1.2824203e-38
-0.10374381 -0.12513429 1.123 1.2271029e-38
-0.10160477 -0.12513429 1.123 1.1813298e-38
-0.099465713 -0.12513429 1.123 1.135232e-38
-0.097933337 -0.12591429 1.13 1.2546168e-38
-0.095780954 -0.12591429 1.13 1.4113494e-38
-0.09362857 -0.12591429 1.13 1.5492466e-38
-0.091476195 -0.12591429 1.13 1.5676857e-38
-0.089639999 -0.12636001 1.1340001 1.4114876e-38
-0.087480001 -0.12636001 1.1340001 6.5548342e-39
-0.085620955 -0.12680571 1.138 3.6215438e-39
-0.083673336 -0.12714 1.141 3.805935e-39
-0.081785724 -0.12758572 1.1450001 6.1014623e-39
-0.079604767 -0.12758572 1.1450001 9.1439181e-39
-0.077423811 -0.12758572 1.1450001 1.1158189e-38
-0.075505719 -0.12803143 1.149 9.8674505e-39
-0.07331714 -0.12803143 1.149 1.2074381e-38
-0.071128577 -0.12803143 1.149 1.5854402e-38
-0.068939999 -0.12803143 1.149 1.6038052e-38
-0.066751435 -0.12803143 1.149 1.6038052e-38
-0.1559381 -0.12540478 1.1450001 1.1158215e-38
-0.15322001 -0.12496666 1.141 9.7752801e-39
-0.15104666 -0.12496666 1.141 7.3868131e-39
-0.14848191 -0.12463809 1.138 4.9897268e-39
-0.14580001 -0.1242 1.1340001 3.2513263e-39
-0.14313333 -0.1237619 1.13 3.343522e-39
-0.14098094 -0.1237619 1.13 3.6172124e-39
-0.13882858 -0.1237619 1.13 6.19869e-39
-0.13619238 -0.12332381 1.126 1.3094628e-38
-0.13404761 -0.12332381 1.126 1.5860497e-38
-0.13190286 -0.12332381 1.126 1.511937e-38
-0.12975809 -0.12332381 1.126 1.0417393e-38
-0.12761334 -0.12332381 1.126 9.774522e-39
-0.12513429 -0.12299524 1.123 1.0973065e-38
-0.12299524 -0.12299524 1.123 1.1063826e-38
-0.12085619 -0.12299524 1.123 1.014187e-38
-0.11871714 -0.12299524 1.123 1.0970868e-38
-0.11688953 -0.12332381 1.126 1.5765041e-38
-0.11474476 -0.12332381 1.126 1.8344046e-38
-0.1126 -0.12332381 1.126 1.9450394e-38
-0.11016095 -0.12299524 1.123 1.6968337e-38
-0.10802191 -0.12299524 1.123 1.2819534e-38
-0.10588286 -0.12299524 1.123 1.071054e-38
-0.10374381 -0.12299524 1.123 1.1448105e-38
-0.10160477 -0.12299524 1.123 1.1723257e-38
-0.099465713 -0.12299524 1.123 1.0985692e-38
-0.097933337 -0.1237619 1.13 1.0524334e-38
-0.095780954 -0.1237619 1.13 1.2368247e-38
-0.09362857 -0.1237619 1.13 1.365505e-38
-0.091800004 -0.1242 1.1340001 1.3747245e-38
-0.089639999 -0.1242 1.1340001 1.0248831e-38
-0.087788574 -0.12463809 1.138 4.9014842e-39
-0.085846663 -0.12496666 1.141 4.3576641e-39
-0.083673336 -0.12496666 1.141 4.2654684e-39
-0.081785724 -0.12540478 1.1450001 5.6412002e-39
-0.079604767 -0.12540478 1.1450001 9.2368298e-39
-0.077423811 -0.12540478 1.1450001 1.1989738e-38
-0.075505719 -0.12584287 1.149 1.0791195e-38
-0.07331714 -0.12584287 1.149 1.2350589e-38
-0.071128577 -0.12584287 1.149 1.5300849e-38
-0.068939999 -0.12584287 1.149 1.5391966e-38
-0.1559381 -0.12322382 1.1450001 1.1709956e-38
-0.15322001 -0.12279333 1.141 1.0511413e-38
-0.15104666 -0.12279333 1.141 8.6768415e-39
-0.14848191 -0.12247047 1.138 5.9109726e-39
-0.14580001 -0.12204001 1.1340001 3.6175879e-39
-0.14364001 -0.12204001 1.1340001 3.7097835e-39
-0.14098094 -0.12160952 1.13 2.1471424e-39
-0.13882858 -0.12160952 1.13 2.3315336e-39
-0.13667618 -0.12160952 1.13 1.1530863e-38
-0.13404761 -0.12117905 1.126 1.4849906e-38
-0.13190286 -0.12117905 1.126 1.4566887e-38
-0.12975809 -0.12117905 1.126 9.7727143e-39
-0.12761334 -0.12117905 1.126 9.6830621e-39
-0.12546857 -0.12117905 1.126 1.0697214e-38
-0.12332381 -0.12117905 1.126 1.1155671e-38
-0.12117905 -0.12117905 1.126 1.1063476e-38
-0.11903429 -0.12117905 1.126 1.0234769e-38
-0.11688953 -0.12117905 1.126 1.2170877e-38
-0.11474476 -0.12117905 1.126 1.6594799e-38
-0.1126 -0.12117905 1.126 1.8623102e-38
-0.11045524 -0.12117905 1.126 1.6508047e-38
-0.10831048 -0.12117905 1.126 1.2728026e-38
-0.10616572 -0.12117905 1.126 1.0711629e-38
-0.10402096 -0.12117905 1.126 1.1172607e-38
-0.10187619 -0.12117905 1.126 1.1723613e-38
-0.09973143 -0.12117905 1.126 1.1354831e-38
-0.097933337 -0.12160952 1.13 1.0709105e-38
-0.095780954 -0.12160952 1.13 1.1907649e-38
-0.09362857 -0.12160952 1.13 1.4206056e-38
-0.091800004 -0.12204001 1.1340001 1.4667034e-38
-0.089639999 -0.12204001 1.1340001 1.1813635e-38
-0.087788574 -0.12247047 1.138 4.9911589e-39
-0.085846663 -0.12279333 1.141 1.3242285e-39
-0.083966672 -0.12322382 1.1450001 1.6008153e-39
-0.081785724 -0.12322382 1.1450001 6.6521278e-39
-0.079604767 -0.12322382 1.1450001 1.1077518e-38
-0.077694289 -0.12365429 1.149 1.3646007e-38
-0.075505719 -0.12365429 1.149 1.2908442e-38
-0.07331714 -0.12365429 1.149 1.3087098e-38
-0.071128577 -0.12365429 1.149 1.5207597e-38
-0.068939999 -0.12365429 1.149 1.539089e-38
-0.1559381 -0.12104286 1.1450001 1.2814476e-38
-0.15322001 -0.12062 1.141 1.0878368e-38
-0.15104666 -0.12062 1.141 9.9664789e-39
-0.14887333 -0.12062 1.141 8.3069576e-39
-0.14631429 -0.12030286 1.138 3.0655422e-39
-0.14364001 -0.11988001 1.1340001 2.8811509e-39
-0.14098094 -0.11945714 1.13 1.0425619e-39
-0.13882858 -0.11945714 1.13 1.9645182e-39
-0.13667618 -0.11945714 1.13 1.0056864e-38
-0.13452381 -0.11945714 1.13 1.4390059e-38
-0.13237143 -0.11945714 1.13 1.3646768e-38
-0.12975809 -0.11903429 1.126 9.129182e-39
-0.12761334 -0.11903429 1.126 9.8656358e-39
-0.12546857 -0.11903429 1.126 1.0879788e-38
-0.12332381 -0.11903429 1.126 1.0971633e-38
-0.12117905 -0.11903429 1.126 1.0695046e-38
-0.11903429 -0.11903429 1.126 9.2235034e-39
-0.11688953 -0.11903429 1.126 1.1989372e-38
-0.11474476 -0.11903429 1.126 1.4476852e-38
-0.1126 -0.11903429 1.126 1.7611504e-38
-0.11045524 -0.11903429 1.126 1.4851791e-38
-0.10831048 -0.11903429 1.126 1.1993726e-38
-0.10616572 -0.11903429 1.126 1.0803455e-38
-0.10402096 -0.11903429 1.126 1.1264433e-38
-0.10187619 -0.11903429 1.126 1.1355191e-38
-0.09973143 -0.11903429 1.126 1.0986408e-38
-0.097933337 -0.11945714 1.13 1.0984959e-38
-0.095780954 -0.11945714 1.13 1.2828872e-38
-0.093960002 -0.11988001 1.1340001 1.5309516e-38
-0.091800004 -0.11988001 1.1340001 1.6047081e-38
-0.089956194 -0.12030286 1.138 1.2642345e-38
-0.087788574 -0.12030286 1.138 5.2666948e-39
-0.085846663 -0.12062 1.141 1.2305657e-39
-0.083966672 -0.12104286 1.1450001 2.3369132e-39
-0.081785724 -0.12104286 1.1450001 9.135649e-39
-0.07988286 -0.12146572 1.149 1.1901518e-38
-0.077694289 -0.12146572 1.149 1.4197003e-38
-0.075505719 -0.12146572 1.149 1.3551634e-38
-0.07331714 -0.12146572 1.149 1.3454779e-38
-0.07137619 -0.12188857 1.153 1.5390887e-38
-0.069179997 -0.12188857 1.153 1.5298341e-38
-0.15322001 -0.11844667 1.141 9.7723584e-39
-0.15104666 -0.11844667 1.141 9.4090143e-39
-0.14887333 -0.11844667 1.141 1.1713905e-38
-0.14631429 -0.11813524 1.138 8.4935517e-39
-0.14364001 -0.11772001 1.1340001 4.3447483e-39
-0.14148 -0.11772001 1.1340001 2.5148305e-39
-0.13882858 -0.11730476 1.13 8.0465683e-39
-0.13667618 -0.11730476 1.13 1.4202428e-38
-0.13452381 -0.11730476 1.13 1.6968296e-38
-0.13237143 -0.11730476 1.13 1.6411526e-38
-0.13021904 -0.11730476 1.13 1.1801744e-38
-0.12806667 -0.11730476 1.13 9.7756108e-39
-0.12546857 -0.11688953 1.126 1.0052198e-38
-0.12332381 -0.11688953 1.126 9.8671002e-39
-0.12117905 -0.11688953 1.126 9.4061221e-39
-0.11903429 -0.11688953 1.126 1.0879788e-38
-0.11688953 -0.11688953 1.126 1.5858352e-38
-0.11474476 -0.11688953 1.126 1.7517858e-38
-0.1126 -0.11688953 1.126 1.8992988e-38
-0.11045524 -0.11688953 1.126 1.7153053e-38
-0.10831048 -0.11688953 1.126 1.4387185e-38
-0.10616572 -0.11688953 1.126 1.1906563e-38
-0.10402096 -0.11688953 1.126 1.1814367e-38
-0.10187619 -0.11688953 1.126 1.0986774e-38
-0.09973143 -0.11688953 1.126 1.0894578e-38
-0.097933337 -0.11730476 1.13 1.3008231e-38
-0.09612 -0.11772001 1.1340001 1.57741e-38
-0.093960002 -0.11772001 1.1340001 1.6781037e-38
-0.091800004 -0.11772001 1.1340001 1.7149819e-38
-0.089956194 -0.11813524 1.138 1.5861271e-38
-0.088020004 -0.11844667 1.141 1.3464184e-38
-0.086147629 -0.11886191 1.1450001 1.0431395e-38
-0.083966672 -0.11886191 1.1450001 1.0062612e-38
-0.081785724 -0.11886191 1.1450001 1.1347641e-38
-0.07988286 -0.11927715 1.149 1.0794467e-38
-0.077694289 -0.11927715 1.149 1.2172998e-38
-0.075505719 -0.11927715 1.149 1.3094955e-38
-0.07331714 -0.11927715 1.149 1.4748023e-38
-0.07162381 -0.12010762 1.1570001 1.6038762e-38
-0.069420002 -0.12010762 1.1570001 1.5945137e-38
-0.15322001 -0.11627334 1.141 9.2181154e-39
-0.15104666 -0.11627334 1.141 9.5879209e-39
-0.14848191 -0.11596762 1.138 1.318355e-38
-0.14631429 -0.11596762 1.138 1.1714981e-38
-0.14364001 -0.11556 1.1340001 5.7222653e-39
-0.14148 -0.11556 1.1340001 5.1798535e-39
-0.13932002 -0.11556 1.1340001 1.1356961e-38
-0.13667618 -0.11515237 1.13 1.5212642e-38
-0.13452381 -0.11515237 1.13 1.6134598e-38
-0.13237143 -0.11515237 1.13 1.6134961e-38
-0.13021904 -0.11515237 1.13 1.4106657e-38
-0.12806667 -0.11515237 1.13 1.1525571e-38
-0.12591429 -0.11515237 1.13 9.5894623e-39
-0.1237619 -0.11515237 1.13 9.499342e-39
-0.12160952 -0.11515237 1.13 1.0697885e-38
-0.11945714 -0.11515237 1.13 1.2445353e-38
-0.11730476 -0.11515237 1.13 1.7239526e-38
-0.11515237 -0.11515237 1.13 1.7885949e-38
-0.1126 -0.11474476 1.126 1.7701558e-38
-0.11045524 -0.11474476 1.126 1.7244886e-38
-0.10831048 -0.11474476 1.126 1.5954147e-38
-0.10654286 -0.11515237 1.13 1.3195156e-38
-0.10439047 -0.11515237 1.13 1.1720026e-38
-0.1022381 -0.11515237 1.13 1.0985325e-38
-0.10008571 -0.11515237 1.13 1.1907281e-38
-0.098280005 -0.11556 1.1340001 1.5123333e-38
-0.09612 -0.11556 1.1340001 1.5768702e-38
-0.093960002 -0.11556 1.1340001 1.613279e-38
-0.092123814 -0.11596762 1.138 1.6317182e-38
-0.089956194 -0.11596762 1.138 1.6872514e-38
-0.088020004 -0.11627334 1.141 1.631934e-38
-0.086147629 -0.11668096 1.1450001 1.4385771e-38
-0.083966672 -0.11668096 1.1450001 1.4109184e-38
-0.082071431 -0.11708858 1.149 1.2638364e-38
-0.07988286 -0.11708858 1.149 8.7661476e-39
-0.077694289 -0.11708858 1.149 9.317808e-39
-0.075505719 -0.11708858 1.149 1.2636851e-38
-0.07331714 -0.11708858 1.149 1.4932793e-38
-0.071128577 -0.11708858 1.149 1.5854749e-38
-0.068939999 -0.11708858 1.149 1.5853673e-38
-0.15322001 -0.1141 1.141 8.0202813e-39
-0.15104666 -0.1141 1.141 6.828128e-39
-0.14848191 -0.1138 1.138 1.0700345e-38
-0.14631429 -0.1138 1.138 1.1067111e-38
-0.14364001 -0.1134 1.1340001 1.2450045e-38
-0.14148 -0.1134 1.1340001 1.3374805e-38
-0.13932002 -0.1134 1.1340001 1.4942131e-38
-0.13667618 -0.113 1.13 1.3464893e-38
-0.13452381 -0.113 1.13 1.2450741e-38
-0.13237143 -0.113 1.13 1.3648206e-38
-0.13021904 -0.113 1.13 1.6782857e-38
-0.12806667 -0.113 1.13 1.5396693e-38
-0.12591429 -0.113 1.13 1.1893259e-38
-0.1237619 -0.113 1.13 1.1618435e-38
-0.12160952 -0.113 1.13 1.5582847e-38
-0.11945714 -0.113 1.13 1.7149807e-38
-0.11730476 -0.113 1.13 1.7518589e-38
-0.11515237 -0.113 1.13 1.3374888e-38
-0.113 -0.113 1.13 1.1069997e-38
-0.11084761 -0.113 1.13 1.3652844e-38
-0.10869523 -0.113 1.13 1.7801647e-38
-0.10654286 -0.113 1.13 1.7889202e-38
-0.10439047 -0.113 1.13 1.5676507e-38
-0.1022381 -0.113 1.13 1.558681e-38
-0.10008571 -0.113 1.13 1.6969744e-38
-0.098280005 -0.1134 1.1340001 1.733386e-38
-0.09612 -0.1134 1.1340001 1.3738231e-38
-0.094291434 -0.1138 1.138 1.0418141e-38
-0.092123814 -0.1138 1.138 9.8649674e-39
-0.090193339 -0.1141 1.141 1.2077981e-38
-0.088020004 -0.1141 1.141 1.6872153e-38
-0.086147629 -0.11450001 1.1450001 1.677998e-38
-0.084260009 -0.1149 1.149 1.5581437e-38
-0.082071431 -0.1149 1.149 1.2271001e-38
-0.07988286 -0.1149 1.149 8.3987846e-39
-0.077694289 -0.1149 1.149 9.0427093e-39
-0.075505719 -0.1149 1.149 1.1992969e-38
-0.07331714 -0.1149 1.149 1.4656221e-38
-0.071128577 -0.1149 1.149 1.5762569e-38
-0.069660001 -0.1161 1.161 1.5761477e-38
-0.067448571 -0.1161 1.161 1.548489e-38
-0.15322001 -0.11192667 1.141 8.5727586e-39
-0.15104666 -0.11192667 1.141 5.2586668e-39
-0.14887333 -0.11192667 1.141 7.2869706e-39
-0.14669999 -0.11192667 1.141 1.2166574e-38
-0.14414667 -0.11163238 1.138 1.5577812e-38
-0.14197905 -0.11163238 1.138 1.5212632e-38
-0.13932002 -0.11124001 1.1340001 1.4567263e-38
-0.13716 -0.11124001 1.1340001 1.1994793e-38
-0.13452381 -0.11084761 1.13 9.9664887e-39
-0.13237143 -0.11084761 1.13 1.1990827e-38
-0.13021904 -0.11084761 1.13 1.5586456e-38
-0.12806667 -0.11084761 1.13 1.7148387e-38
-0.12591429 -0.11084761 1.13 1.4935692e-38
-0.1237619 -0.11084761 1.13 1.3827925e-38
-0.12160952 -0.11084761 1.13 1.7884533e-38
-0.11945714 -0.11084761 1.13 1.7704798e-38
-0.11730476 -0.11084761 1.13 1.512332e-38
-0.11515237 -0.11084761 1.13 9.2397291e-39
-0.113 -0.11084761 1.13 6.3816645e-39
-0.11084761 -0.11084761 1.13 1.0430666e-38
-0.10869523 -0.11084761 1.13 1.4948252e-38
-0.10654286 -0.11084761 1.13 1.8807183e-38
-0.10439047 -0.11084761 1.13 1.8346204e-38
-0.1022381 -0.11084761 1.13 1.7333167e-38
-0.10008571 -0.11084761 1.13 1.7701949e-38
-0.098280005 -0.11124001 1.1340001 1.75161e-38
-0.09612 -0.11124001 1.1340001 1.1338993e-38
-0.094291434 -0.11163238 1.138 1.02337e-38
-0.092123814 -0.11163238 1.138 9.6805257e-39
-0.090193339 -0.11192667 1.141 1.041877e-38
-0.088328578 -0.11231906 1.1450001 1.5766117e-38
-0.086147629 -0.11231906 1.1450001 1.6411917e-38
-0.084260009 -0.11271144 1.149 1.5028982e-38
-0.082071431 -0.11271144 1.149 1.1534168e-38
-0.07988286 -0.11271144 1.149 8.3073205e-39
-0.077694289 -0.11271144 1.149 8.8593774e-39
-0.075505719 -0.11271144 1.149 1.1994029e-38
-0.07331714 -0.11271144 1.149 1.456366e-38
-0.07187143 -0.11388857 1.161 1.5670007e-38
-0.069660001 -0.11388857 1.161 1.5669279e-38
-0.067448571 -0.11388857 1.161 1.5484888e-38
-0.15375715 -0.1101381 1.1450001 1.0969495e-38
-0.15104666 -0.10975334 1.141 5.167637e-39
-0.14887333 -0.10975334 1.141 4.0612895e-39
-0.14669999 -0.10975334 1.141 7.1909088e-39
-0.14452668 -0.10975334 1.141 1.4382168e-38
-0.14197905 -0.10946476 1.138 1.4108082e-38
-0.13932002 -0.10908 1.1340001 1.2079779e-38
-0.13716 -0.10908 1.1340001 1.0061571e-38
-0.13500002 -0.10908 1.1340001 9.7849841e-39
-0.13237143 -0.10869523 1.13 1.0152688e-38
-0.13021904 -0.10869523 1.13 1.1720013e-38
-0.12806667 -0.10869523 1.13 1.457085e-38
-0.12591429 -0.10869523 1.13 1.7244523e-38
-0.1237619 -0.10869523 1.13 1.7701571e-38
-0.12160952 -0.10869523 1.13 1.7424984e-38
-0.11945714 -0.10869523 1.13 1.3652534e-38
-0.11730476 -0.10869523 1.13 8.8583615e-39
-0.11515237 -0.10869523 1.13 4.0875666e-39
-0.1126 -0.10831048 1.126 3.6265885e-39
-0.11045524 -0.10831048 1.126 6.2909109e-39
-0.10869523 -0.10869523 1.13 7.5816497e-39
-0.10654286 -0.10869523 1.13 1.3833632e-38
-0.10439047 -0.10869523 1.13 1.8443414e-38
-0.1022381 -0.10869523 1.13 1.9175975e-38
-0.10008571 -0.10869523 1.13 1.548815e-38
-0.098280005 -0.10908 1.1340001 1.2630824e-38
-0.096459046 -0.10946476 1.138 1.0418129e-38
-0.094291434 -0.10946476 1.138 1.0236586e-38
-0.092123814 -0.10946476 1.138 1.0144391e-38
-0.090193339 -0.10975334 1.141 1.0235119e-38
-0.088328578 -0.1101381 1.1450001 1.2632205e-38
-0.086147629 -0.1101381 1.1450001 1.4108067e-38
-0.084260009 -0.11052286 1.149 1.4108067e-38
-0.082071431 -0.11052286 1.149 1.1901508e-38
-0.07988286 -0.11052286 1.149 8.8590523e-39
-0.077694289 -0.11052286 1.149 9.5036875e-39
-0.075505719 -0.11052286 1.149 1.2269556e-38
-0.07331714 -0.11052286 1.149 1.4748051e-38
-0.07187143 -0.11167714 1.161 1.5577812e-38
-0.069660001 -0.11167714 1.161 1.5485238e-38
-0.067448571 -0.11167714 1.161 1.5485238e-38
-0.15375715 -0.10795715 1.1450001 1.1615217e-38
-0.15157621 -0.10795715 1.1450001 6.7306565e-39
-0.14939526 -0.10795715 1.1450001 4.4257658e-39
-0.14669999 -0.10758 1.141 6.5486615e-39
-0.14452668 -0.10758 1.141 1.4293094e-38
-0.14197905 -0.10729714 1.138 1.3373774e-38
-0.13981143 -0.10729714 1.138 1.0884492e-38
-0.13716 -0.10692 1.1340001 9.3257982e-39
-0.13500002 -0.10692 1.1340001 9.9711676e-39
-0.13284001 -0.10692 1.1340001 9.0513819e-39
-0.13068001 -0.10692 1.1340001 9.2357732e-39
-0.12806667 -0.10654286 1.13 1.1902947e-38
-0.12591429 -0.10654286 1.13 1.6236142e-38
-0.1237619 -0.10654286 1.13 1.7612993e-38
-0.12160952 -0.10654286 1.13 1.5308103e-38
-0.11945714 -0.10654286 1.13 9.1464418e-39
-0.11730476 -0.10654286 1.13 5.5508123e-39
-0.11515237 -0.10654286 1.13 3.5354816e-39
-0.1126 -0.10616572 1.126 4.5496336e-39
-0.11045524 -0.10616572 1.126 4.6396586e-39
-0.10869523 -0.10654286 1.13 2.7035504e-39
-0.10654286 -0.10654286 1.13 8.5885513e-39
-0.10439047 -0.10654286 1.13 1.6517375e-38
-0.1022381 -0.10654286 1.13 1.8809748e-38
-0.10008571 -0.10654286 1.13 1.3370206e-38
-0.098626666 -0.10729714 1.138 1.0880516e-38
-0.096459046 -0.10729714 1.138 1.0788321e-38
-0.094291434 -0.10729714 1.138 1.1340062e-38
-0.092366666 -0.10758 1.141 1.0786889e-38
-0.090193339 -0.10758 1.141 9.4993715e-39
-0.088328578 -0.10795715 1.1450001 1.291061e-38
-0.086147629 -0.10795715 1.1450001 1.328049e-38
-0.084260009 -0.10833429 1.149 1.3464881e-38
-0.082071431 -0.10833429 1.149 1.0428556e-38
-0.07988286 -0.10833429 1.149 8.1236649e-39
-0.077694289 -0.10833429 1.149 9.7791757e-39
-0.075505719 -0.10833429 1.149 1.2360653e-38
-0.074082859 -0.10946572 1.161 1.4748404e-38
-0.07187143 -0.10946572 1.161 1.5670361e-38
-0.069900006 -0.10984286 1.1650001 1.5577436e-38
-0.067680955 -0.10984286 1.1650001 1.5577436e-38
-0.15316477 -0.10688476 1.1570001 7.0080309e-39
-0.15043904 -0.10651524 1.153 3.5967926e-39
-0.14772858 -0.10614572 1.149 5.536044e-39
-0.14503334 -0.1057762 1.1450001 1.2727303e-38
-0.1428524 -0.1057762 1.1450001 1.3465594e-38
-0.14018001 -0.10540666 1.141 1.143729e-38
-0.13764381 -0.10512953 1.138 9.5098294e-39
-0.13547619 -0.10512953 1.138 1.0247394e-38
-0.13330857 -0.10512953 1.138 9.6953192e-39
-0.13068001 -0.10476001 1.1340001 9.7875149e-39
-0.12852001 -0.10476001 1.1340001 1.0982808e-38
-0.12636001 -0.10476001 1.1340001 1.4301851e-38
-0.1237619 -0.10439047 1.13 1.5864495e-38
-0.12160952 -0.10439047 1.13 1.2084474e-38
-0.11945714 -0.10439047 1.13 5.3732734e-39
-0.11730476 -0.10439047 1.13 4.4513171e-39
-0.11515237 -0.10439047 1.13 5.282877e-39
-0.113 -0.10439047 1.13 5.7438551e-39
-0.11084761 -0.10439047 1.13 6.0182896e-39
-0.10869523 -0.10439047 1.13 4.0821814e-39
-0.10654286 -0.10439047 1.13 6.6571472e-39
-0.10439047 -0.10439047 1.13 1.292645e-38
-0.1026 -0.10476001 1.1340001 1.7520407e-38
-0.10044 -0.10476001 1.1340001 1.1619886e-38
-0.098626666 -0.10512953 1.138 9.1324022e-39
-0.096713334 -0.10540666 1.141 9.7777716e-39
-0.094540007 -0.10540666 1.141 1.0972006e-38
-0.09269049 -0.1057762 1.1450001 1.0326636e-38
-0.090509534 -0.1057762 1.1450001 1.0786873e-38
-0.088328578 -0.1057762 1.1450001 1.4843481e-38
-0.086448573 -0.10614572 1.149 1.6041661e-38
-0.084260009 -0.10614572 1.149 1.6041661e-38
-0.082071431 -0.10614572 1.149 1.318937e-38
-0.080160953 -0.10651524 1.153 1.0515697e-38
-0.07796476 -0.10651524 1.153 1.0423128e-38
-0.076031432 -0.10688476 1.1570001 1.1806063e-38
-0.074082859 -0.10725429 1.161 1.4655127e-38
-0.07187143 -0.10725429 1.161 1.5761474e-38
-0.069900006 -0.10762382 1.1650001 1.5760758e-38
-0.067680955 -0.10762382 1.1650001 1.5852954e-38
-0.15316477 -0.10468096 1.1570001 1.1431204e-38
-0.15096095 -0.10468096 1.1570001 6.4526403e-39
-0.14824286 -0.10431904 1.153 7.3756378e-39
-0.14503334 -0.10359525 1.1450001 1.429031e-38
-0.1428524 -0.10359525 1.1450001 1.4017333e-38
-0.14018001 -0.10323334 1.141 1.2357812e-38
-0.13800666 -0.10323334 1.141 9.4172806e-39
-0.13547619 -0.10296191 1.138 1.006265e-38
-0.13330857 -0.10296191 1.138 9.7875051e-39
-0.13114095 -0.10296191 1.138 9.7875051e-39
-0.12897334 -0.10296191 1.138 9.7878526e-39
-0.12636001 -0.1026 1.1340001 1.3660069e-38
-0.1242 -0.1026 1.1340001 1.476176e-38
-0.12204001 -0.1026 1.1340001 1.2088087e-38
-0.11988001 -0.1026 1.1340001 5.0981382e-39
-0.11772001 -0.1026 1.1340001 4.2683775e-39
-0.11556 -0.1026 1.1340001 5.5580149e-39
-0.113 -0.1022381 1.13 6.0189931e-39
-0.11084761 -0.1022381 1.13 5.5580149e-39
-0.10908 -0.1026 1.1340001 4.0828849e-39
-0.10692 -0.1026 1.1340001 5.645526e-39
-0.10476001 -0.1026 1.1340001 1.3389959e-38
-0.1026 -0.1026 1.1340001 1.6142545e-38
-0.10044 -0.1026 1.1340001 1.2362524e-38
-0.098626666 -0.10296191 1.138 9.5923336e-39
-0.096713334 -0.10323334 1.141 9.2235511e-39
-0.094540007 -0.10323334 1.141 1.0418812e-38
-0.09269049 -0.10359525 1.1450001 1.0418812e-38
-0.090509534 -0.10359525 1.1450001 1.1339359e-38
-0.088328578 -0.10359525 1.1450001 1.5488162e-38
-0.086448573 -0.10395715 1.149 1.6225336e-38
-0.084260009 -0.10395715 1.149 1.594875e-38
-0.082071431 -0.10395715 1.149 1.4293572e-38
-0.080160953 -0.10431904 1.153 1.1435508e-38
-0.07796476 -0.10431904 1.153 1.1066301e-38
-0.076031432 -0.10468096 1.1570001 1.2357039e-38
-0.074338101 -0.10540477 1.1650001 1.465513e-38
-0.07211905 -0.10540477 1.1650001 1.5853673e-38
-0.069900006 -0.10540477 1.1650001 1.5852944e-38
-0.067680955 -0.10540477 1.1650001 1.594514e-38
-0.15536858 -0.10247715 1.1570001 1.4471477e-38
-0.15316477 -0.10247715 1.1570001 1.1431594e-38
-0.15096095 -0.10247715 1.1570001 9.1267031e-39
-0.14824286 -0.10212285 1.153 1.0231945e-38
-0.14503334 -0.10141429 1.1450001 1.4749531e-38
-0.1428524 -0.10141429 1.1450001 1.4383948e-38
-0.14018001 -0.10106 1.141 1.4383948e-38
-0.13800666 -0.10106 1.141 1.2086262e-38
-0.13583334 -0.10106 1.141 1.107211e-38
-0.13330857 -0.10079429 1.138 1.0154855e-38
-0.13114095 -0.10079429 1.138 1.0431442e-38
-0.12897334 -0.10079429 1.138 1.1902597e-38
-0.12680571 -0.10079429 1.138 1.5867009e-38
-0.12463809 -0.10079429 1.138 1.6966883e-38
-0.12204001 -0.10044 1.1340001 1.6505904e-38
-0.11988001 -0.10044 1.1340001 1.2365052e-38
-0.11772001 -0.10044 1.1340001 8.0318574e-39
-0.11556 -0.10044 1.1340001 4.1786804e-39
-0.1134 -0.10044 1.1340001 4.1786804e-39
-0.11124001 -0.10044 1.1340001 4.7293361e-39
-0.10946476 -0.10079429 1.138 7.0342268e-39
-0.10692 -0.10044 1.1340001 1.1626395e-38
-0.10476001 -0.10044 1.1340001 1.6881546e-38
-0.10296191 -0.10079429 1.138 1.8072158e-38
-0.10079429 -0.10079429 1.138 1.7242397e-38
-0.098886669 -0.10106 1.141 1.4568752e-38
-0.096713334 -0.10106 1.141 1.0696536e-38
-0.094540007 -0.10106 1.141 1.0053612e-38
-0.09269049 -0.10141429 1.1450001 1.1436546e-38
-0.090509534 -0.10141429 1.1450001 1.3830789e-38
-0.088637143 -0.10176858 1.149 1.5951289e-38
-0.086448573 -0.10176858 1.149 1.3374105e-38
-0.084260009 -0.10176858 1.149 1.1898975e-38
-0.082071431 -0.10176858 1.149 1.3095039e-38
-0.080160953 -0.10212285 1.153 1.2910648e-38
-0.07796476 -0.10212285 1.153 1.1617693e-38
-0.076031432 -0.10247715 1.1570001 1.2816237e-38
-0.074082859 -0.10283143 1.161 1.5484888e-38
-0.07211905 -0.10318572 1.1650001 1.6406844e-38
-0.069900006 -0.10318572 1.1650001 1.6405742e-38
-0.15536858 -0.10027333 1.1570001 1.4933174e-38
-0.15316477 -0.10027333 1.1570001 1.2263839e-38
-0.15096095 -0.10027333 1.1570001 1.1249687e-38
-0.14875714 -0.10027333 1.1570001 1.2444612e-38
-0.14604667 -0.099926665 1.153 1.3089982e-38
-0.1428524 -0.099233337 1.1450001 1.2631117e-38
-0.14067145 -0.099233337 1.1450001 1.4014051e-38
-0.13800666 -0.098886669 1.141 1.41106e-38
-0.13583334 -0.098886669 1.141 1.2266688e-38
-0.13366 -0.098886669 1.141 1.0155186e-38
-0.13114095 -0.098626666 1.138 1.1169338e-38
-0.12897334 -0.098626666 1.138 1.4938226e-38
-0.12680571 -0.098626666 1.138 1.6782138e-38
-0.12463809 -0.098626666 1.138 1.7333132e-38
-0.12247047 -0.098626666 1.138 1.7425327e-38
-0.11988001 -0.098280005 1.1340001 1.5495725e-38
-0.11772001 -0.098280005 1.1340001 1.1531313e-38
-0.11596762 -0.098626666 1.138 4.3627424e-39
-0.1138 -0.098626666 1.138 2.6110254e-39
-0.11163238 -0.098626666 1.138 3.9013523e-39
-0.10946476 -0.098626666 1.138 8.695525e-39
-0.10729714 -0.098626666 1.138 1.6227175e-38
-0.10512953 -0.098626666 1.138 1.7886696e-38
-0.10296191 -0.098626666 1.138 1.816182e-38
-0.10079429 -0.098626666 1.138 1.816182e-38
-0.099233337 -0.099233337 1.1450001 1.7517908e-38
-0.097052388 -0.099233337 1.1450001 1.34613e-38
-0.094871432 -0.099233337 1.1450001 1.078976e-38
-0.09269049 -0.099233337 1.1450001 1.3002455e-38
-0.090509534 -0.099233337 1.1450001 1.631792e-38
-0.088637143 -0.099580005 1.149 1.3828638e-38
-0.086448573 -0.099580005 1.149 1.0243782e-38
-0.084553331 -0.099926665 1.153 9.5984124e-39
-0.082357138 -0.099926665 1.153 1.2175221e-38
-0.080160953 -0.099926665 1.153 1.2728395e-38
-0.078235239 -0.10027333 1.1570001 1.2076137e-38
-0.076031432 -0.10027333 1.1570001 1.327468e-38
-0.074082859 -0.10062 1.161 1.5577086e-38
-0.07187143 -0.10062 1.161 1.6222455e-38
-0.15536858 -0.098069526 1.1570001 1.5485269e-38
-0.15316477 -0.098069526 1.1570001 1.2814476e-38
-0.15096095 -0.098069526 1.1570001 1.189252e-38
-0.14875714 -0.098069526 1.1570001 1.1526975e-38
-0.14604667 -0.097730473 1.153 9.5908664e-39
-0.1428524 -0.097052388 1.1450001 7.7544564e-39
-0.14067145 -0.097052388 1.1450001 9.1373908e-39
-0.13800666 -0.096713334 1.141 1.1161817e-38
-0.13583334 -0.096713334 1.141 1.448086e-38
-0.13366 -0.096713334 1.141 1.4757026e-38
-0.13148667 -0.096713334 1.141 1.6139961e-38
-0.12931333 -0.096713334 1.141 1.6964009e-38
-0.12680571 -0.096459046 1.138 1.4290335e-38
-0.12463809 -0.096459046 1.138 1.3921152e-38
-0.12247047 -0.096459046 1.138 1.4658717e-38
-0.12030286 -0.096459046 1.138 1.5119768e-38
-0.11813524 -0.096459046 1.138 1.8070028e-38
-0.11596762 -0.096459046 1.138 1.5036883e-38
-0.1138 -0.096459046 1.138 1.0888079e-38
-0.11163238 -0.096459046 1.138 1.171966e-38
-0.10946476 -0.096459046 1.138 1.679042e-38
-0.10729714 -0.096459046 1.138 1.7428589e-38
-0.10512953 -0.096459046 1.138 1.5215894e-38
-0.10323334 -0.096713334 1.141 1.4389689e-38
-0.10106 -0.096713334 1.141 1.4942862e-38
-0.099233337 -0.097052388 1.1450001 1.6505902e-38
-0.097052388 -0.097052388 1.1450001 1.7151271e-38
-0.094871432 -0.097052388 1.1450001 1.6964349e-38
-0.09269049 -0.097052388 1.1450001 1.7333132e-38
-0.090509534 -0.097052388 1.1450001 1.5123718e-38
-0.088637143 -0.097391427 1.149 9.223198e-39
-0.086448573 -0.097391427 1.149 3.0676792e-39
-0.084553331 -0.097730473 1.153 2.6988966e-39
-0.082357138 -0.097730473 1.153 8.304466e-39
-0.080160953 -0.097730473 1.153 1.0793748e-38
-0.078235239 -0.098069526 1.1570001 1.2074703e-38
-0.076031432 -0.098069526 1.1570001 1.3365442e-38
-0.074082859 -0.098408572 1.161 1.5393042e-38
-0.07187143 -0.098408572 1.161 1.6038412e-38
-0.15316477 -0.095865719 1.1570001 1.3182193e-38
-0.15096095 -0.095865719 1.1570001 1.1707063e-38
-0.14875714 -0.095865719 1.1570001 9.9657628e-39
-0.14604667 -0.09553428 1.153 6.0013507e-39
-0.14385048 -0.09553428 1.153 1.686827e-39
-0.14067145 -0.094871432 1.1450001 2.3321964e-39
-0.13849048 -0.094871432 1.1450001 1.0056844e-38
-0.13630953 -0.094871432 1.1450001 1.4943213e-38
-0.13366 -0.094540007 1.141 1.650444e-38
-0.13148667 -0.094540007 1.141 1.7518592e-38
-0.12931333 -0.094540007 1.141 1.7147674e-38
-0.12714 -0.094540007 1.141 1.1800327e-38
-0.12496666 -0.094540007 1.141 1.1520829e-38
-0.12279333 -0.094540007 1.141 1.2350589e-38
-0.12030286 -0.094291434 1.138 1.6219569e-38
-0.11813524 -0.094291434 1.138 1.8985438e-38
-0.11596762 -0.094291434 1.138 1.8163981e-38
-0.1138 -0.094291434 1.138 1.6320068e-38
-0.11163238 -0.094291434 1.138 1.4941848e-38
-0.10946476 -0.094291434 1.138 1.7338934e-38
-0.10758 -0.094540007 1.141 1.6876492e-38
-0.10540666 -0.094540007 1.141 1.3373058e-38
-0.10323334 -0.094540007 1.141 1.1079313e-38
-0.10106 -0.094540007 1.141 1.1263704e-38
-0.099233337 -0.094871432 1.1450001 1.5124752e-38
-0.097052388 -0.094871432 1.1450001 1.7153056e-38
-0.094871432 -0.094871432 1.1450001 1.7885602e-38
-0.09269049 -0.094871432 1.1450001 1.7148037e-38
-0.090509534 -0.094871432 1.1450001 1.3285181e-38
-0.088637143 -0.095202863 1.149 6.0939219e-39
-0.086749524 -0.09553428 1.153 1.5986475e-39
-0.084553331 -0.09553428 1.153 2.1518213e-39
-0.082357138 -0.09553428 1.153 8.1214817e-39
-0.080160953 -0.09553428 1.153 9.5966118e-39
-0.078235239 -0.095865719 1.1570001 1.1059801e-38
-0.076031432 -0.095865719 1.1570001 1.4102257e-38
-0.074082859 -0.096197143 1.161 1.5023909e-38
-0.07187143 -0.096197143 1.161 1.585367e-38
-0.15096095 -0.093661912 1.1570001 1.133863e-38
-0.14875714 -0.093661912 1.1570001 8.9526871e-39
-0.14655334 -0.093661912 1.1570001 4.988275e-39
-0.14385048 -0.093338095 1.153 1.4124584e-39
-0.14165428 -0.093338095 1.153 1.4124584e-39
-0.13849048 -0.09269049 1.1450001 4.3519033e-39
-0.13630953 -0.09269049 1.1450001 1.0344619e-38
-0.13412857 -0.09269049 1.1450001 1.5766506e-38
-0.13148667 -0.092366666 1.141 1.5766506e-38
-0.12931333 -0.092366666 1.141 1.4381038e-38
-0.12714 -0.092366666 1.141 1.0601018e-38
-0.12496666 -0.092366666 1.141 1.0418109e-38
-0.12279333 -0.092366666 1.141 1.0971283e-38
-0.12062 -0.092366666 1.141 1.2353427e-38
-0.11844667 -0.092366666 1.141 1.4566122e-38
-0.11627334 -0.092366666 1.141 1.6316844e-38
-0.1141 -0.092366666 1.141 1.9912474e-38
-0.11192667 -0.092366666 1.141 1.8256903e-38
-0.10975334 -0.092366666 1.141 1.5952012e-38
-0.10758 -0.092366666 1.141 1.32859e-38
-0.10540666 -0.092366666 1.141 1.2824922e-38
-0.10323334 -0.092366666 1.141 1.1632146e-38
-0.10106 -0.092366666 1.141 1.1078973e-38
-0.099233337 -0.09269049 1.1450001 1.2824543e-38
-0.097052388 -0.09269049 1.1450001 1.4945043e-38
-0.094871432 -0.09269049 1.1450001 1.6229318e-38
-0.093014285 -0.093014285 1.149 1.4385405e-38
-0.090825714 -0.093014285 1.149 1.0431407e-38
-0.088637143 -0.093014285 1.149 4.8996695e-39
