# .PCD v0.7 - Point Cloud Data file format
VERSION 0.7
FIELDS x y z rgb
SIZE 4 4 4 4
TYPE F F F F
COUNT 1 1 1 1
WIDTH 1074
HEIGHT 1
VIEWPOINT 0 0 0 1 0 0 0
POINTS 1074
DATA ascii
-0.14107144 -0.15687144 1.1850001 1.1432233e-38
-0.13881429 -0.15687144 1.1850001 1.1154927e-38
-0.13609621 -0.15634191 1.1810001 1.0232971e-38
-0.13339333 -0.1558124 1.177 1.0415505e-38
-0.13115142 -0.1558124 1.177 1.115307e-38
-0.12890953 -0.1558124 1.177 1.5297586e-38
-0.21175523 -0.1551362 1.189 1.1985041e-38
-0.20949046 -0.1551362 1.189 1.2538215e-38
-0.20652857 -0.15461428 1.1850001 1.2538218e-38
-0.20427144 -0.15461428 1.1850001 1.3275783e-38
-0.20337811 -0.1556581 1.1930001 1.3459821e-38
-0.20110573 -0.1556581 1.1930001 1.3736408e-38
-0.19883335 -0.1556581 1.1930001 1.3735701e-38
-0.19722001 -0.15617999 1.197 1.4381071e-38
-0.19494002 -0.15617999 1.197 1.4197749e-38
-0.19346476 -0.15683238 1.202 1.438214e-38
-0.19117524 -0.15683238 1.202 1.4566887e-38
-0.18888572 -0.15683238 1.202 1.4751278e-38
-0.18721716 -0.1573543 1.2060001 1.4842758e-38
-0.18492001 -0.1573543 1.2060001 1.4750562e-38
-0.18262286 -0.1573543 1.2060001 1.4842768e-38
-0.18032572 -0.1573543 1.2060001 1.4934963e-38
-0.17802858 -0.1573543 1.2060001 1.4934598e-38
-0.17573145 -0.1573543 1.2060001 1.4934598e-38
-0.1734343 -0.1573543 1.2060001 1.4658376e-38
-0.17113715 -0.1573543 1.2060001 1.4658376e-38
-0.16884001 -0.1573543 1.2060001 1.4749853e-38
-0.16654286 -0.1573543 1.2060001 1.4565462e-38
-0.16370095 -0.15683238 1.202 1.4474336e-38
-0.16141143 -0.15683238 1.202 1.4474336e-38
-0.1591219 -0.15683238 1.202 1.41052e-38
-0.15683238 -0.15683238 1.202 1.3920809e-38
-0.1539 -0.15617999 1.197 1.3644575e-38
-0.15162 -0.15617999 1.197 1.3552379e-38
-0.14884095 -0.1556581 1.1930001 1.3275439e-38
-0.14656857 -0.1556581 1.1930001 1.2998852e-38
-0.14381239 -0.1551362 1.189 1.2814814e-38
-0.14107144 -0.15461428 1.1850001 1.2538227e-38
-0.13881429 -0.15461428 1.1850001 1.2260571e-38
-0.13609621 -0.15409239 1.1810001 1.1523006e-38
-0.13339333 -0.15357049 1.177 1.1614103e-38
-0.13070573 -0.15304859 1.1730001 1.0692147e-38
-0.12847143 -0.15304859 1.1730001 1.050989e-38
-0.2133 -0.15235715 1.1850001 1.234987e-38
-0.21104287 -0.15235715 1.1850001 1.2351665e-38
-0.20878571 -0.15235715 1.1850001 1.3181426e-38
-0.20652857 -0.15235715 1.1850001 1.3089952e-38
-0.20427144 -0.15235715 1.1850001 1.3827517e-38
-0.20337811 -0.15338571 1.1930001 1.3460174e-38
-0.20110573 -0.15338571 1.1930001 1.3828956e-38
-0.19883335 -0.15338571 1.1930001 1.3644222e-38
-0.19722001 -0.1539 1.197 1.4289591e-38
-0.19494002 -0.1539 1.197 1.4382493e-38
-0.19346476 -0.15454286 1.202 1.4382493e-38
-0.19117524 -0.15454286 1.202 1.4381777e-38
-0.18888572 -0.15454286 1.202 1.4750559e-38
-0.18721716 -0.15505715 1.2060001 1.465909e-38
-0.18492001 -0.15505715 1.2060001 1.4843481e-38
-0.18262286 -0.15505715 1.2060001 1.4934963e-38
-0.18032572 -0.15505715 1.2060001 1.5027159e-38
-0.17802858 -0.15505715 1.2060001 1.4935316e-38
-0.17573145 -0.15505715 1.2060001 1.4935316e-38
-0.1734343 -0.15505715 1.2060001 1.4843121e-38
-0.17113715 -0.15505715 1.2060001 1.4750925e-38
-0.16884001 -0.15505715 1.2060001 1.4566534e-38
-0.16654286 -0.15505715 1.2060001 1.4566534e-38
-0.16370095 -0.15454286 1.202 1.4473985e-38
-0.16141143 -0.15454286 1.202 1.438179e-38
-0.1591219 -0.15454286 1.202 1.4197749e-38
-0.15683238 -0.15454286 1.202 1.4105553e-38
-0.1539 -0.1539 1.197 1.3644222e-38
-0.15162 -0.1539 1.197 1.3552026e-38
-0.14884095 -0.15338571 1.1930001 1.3091048e-38
-0.14656857 -0.15338571 1.1930001 1.2906657e-38
-0.14381239 -0.15287143 1.189 1.290665e-38
-0.14107144 -0.15235715 1.1850001 1.2630063e-38
-0.13881429 -0.15235715 1.1850001 1.226128e-38
-0.13609621 -0.15184286 1.1810001 1.1800302e-38
-0.13339333 -0.15132858 1.177 1.1706283e-38
-0.13070573 -0.15081429 1.1730001 1.1614088e-38
-0.12847143 -0.15081429 1.1730001 1.0881171e-38
-0.12623715 -0.15081429 1.1730001 1.5214365e-38
-0.21258001 -0.14959334 1.1810001 1.2534277e-38
-0.21033049 -0.14959334 1.1810001 1.2443514e-38
-0.20878571 -0.15010001 1.1850001 1.3181079e-38
-0.20652857 -0.15010001 1.1850001 1.2814454e-38
-0.20427144 -0.15010001 1.1850001 1.3552019e-38
-0.20337811 -0.15111333 1.1930001 1.3459821e-38
-0.20110573 -0.15111333 1.1930001 1.3920799e-38
-0.19883335 -0.15111333 1.1930001 1.3736417e-38
-0.19722001 -0.15162 1.197 1.4381787e-38
-0.19575429 -0.15225333 1.202 1.4381774e-38
-0.19410858 -0.15276001 1.2060001 1.4381774e-38
-0.19181143 -0.15276001 1.2060001 1.4473622e-38
-0.18951431 -0.15276001 1.2060001 1.4658014e-38
-0.18721716 -0.15276001 1.2060001 1.4842402e-38
-0.18492001 -0.15276001 1.2060001 1.5118989e-38
-0.18262286 -0.15276001 1.2060001 1.5118639e-38
-0.18032572 -0.15276001 1.2060001 1.5118639e-38
-0.17802858 -0.15276001 1.2060001 1.5027149e-38
-0.17573145 -0.15276001 1.2060001 1.4934954e-38
-0.1734343 -0.15276001 1.2060001 1.4842758e-38
-0.17113715 -0.15276001 1.2060001 1.4842758e-38
-0.16884001 -0.15276001 1.2060001 1.4842755e-38
-0.16654286 -0.15276001 1.2060001 1.4658364e-38
-0.16370095 -0.15225333 1.202 1.4381074e-38
-0.16141143 -0.15225333 1.202 1.4381074e-38
-0.1591219 -0.15225333 1.202 1.4289581e-38
-0.15683238 -0.15225333 1.202 1.4197386e-38
-0.1539 -0.15162 1.197 1.3552029e-38
-0.15162 -0.15162 1.197 1.3275442e-38
-0.14884095 -0.15111333 1.1930001 1.3090332e-38
-0.14656857 -0.15111333 1.1930001 1.2721549e-38
-0.14381239 -0.15060668 1.189 1.2812656e-38
-0.14107144 -0.15010001 1.1850001 1.2812656e-38
-0.13881429 -0.15010001 1.1850001 1.2997038e-38
-0.13609621 -0.14959334 1.1810001 1.3181429e-38
-0.13339333 -0.14908667 1.177 1.3735289e-38
-0.13070573 -0.14858001 1.1730001 1.3643094e-38
-0.12847143 -0.14858001 1.1730001 1.2539659e-38
-0.12623715 -0.14858001 1.1730001 1.5305528e-38
-0.21046382 -0.14434953 1.1570001 1.2718303e-38
-0.20826001 -0.14434953 1.1570001 1.2810498e-38
-0.21033049 -0.14734381 1.1810001 1.2443148e-38
-0.20878571 -0.14784285 1.1850001 1.3180713e-38
-0.20652857 -0.14784285 1.1850001 1.263006e-38
-0.20427144 -0.14784285 1.1850001 1.3459821e-38
-0.20337811 -0.14884095 1.1930001 1.3459821e-38
-0.20110573 -0.14884095 1.1930001 1.3920799e-38
-0.19883335 -0.14884095 1.1930001 1.3828606e-38
-0.19722001 -0.14934 1.197 1.4289584e-38
-0.19575429 -0.14996381 1.202 1.4381774e-38
-0.19346476 -0.14996381 1.202 1.447397e-38
-0.19181143 -0.15046287 1.2060001 1.4473973e-38
-0.18951431 -0.15046287 1.2060001 1.4658364e-38
-0.18721716 -0.15046287 1.2060001 1.4842402e-38
-0.18492001 -0.15046287 1.2060001 1.4934598e-38
-0.18262286 -0.15046287 1.2060001 1.4934247e-38
-0.18032572 -0.15046287 1.2060001 1.5118639e-38
-0.17802858 -0.15046287 1.2060001 1.4934954e-38
-0.17573145 -0.15046287 1.2060001 1.4934954e-38
-0.1734343 -0.15046287 1.2060001 1.4842402e-38
-0.17113715 -0.15046287 1.2060001 1.4750206e-38
-0.16884001 -0.15046287 1.2060001 1.4750206e-38
-0.16654286 -0.15046287 1.2060001 1.4658011e-38
-0.16370095 -0.14996381 1.202 1.4197386e-38
-0.16141143 -0.14996381 1.202 1.4289581e-38
-0.1591219 -0.14996381 1.202 1.4289581e-38
-0.15683238 -0.14996381 1.202 1.4012994e-38
-0.1539 -0.14934 1.197 1.3367628e-38
-0.15162 -0.14934 1.197 1.3275432e-38
-0.14884095 -0.14884095 1.1930001 1.3091038e-38
-0.14656857 -0.14884095 1.1930001 1.2814451e-38
-0.14381239 -0.14834191 1.189 1.2996319e-38
-0.14154762 -0.14834191 1.189 1.3365101e-38
-0.13881429 -0.14784285 1.1850001 1.3639558e-38
-0.13609621 -0.14734381 1.1810001 1.3823949e-38
-0.13339333 -0.14684477 1.177 1.3920046e-38
-0.13070573 -0.14634572 1.1730001 1.3366873e-38
-0.12847143 -0.14634572 1.1730001 1.2540391e-38
-0.21264288 -0.14067145 1.1450001 1.2075447e-38
-0.21046191 -0.14067145 1.1450001 1.2259838e-38
-0.20973618 -0.14165428 1.153 1.2811217e-38
-0.20753999 -0.14165428 1.153 1.3733173e-38
-0.21104287 -0.14558572 1.1850001 1.3732805e-38
-0.20878571 -0.14558572 1.1850001 1.4009392e-38
-0.20652857 -0.14558572 1.1850001 1.3366536e-38
-0.20427144 -0.14558572 1.1850001 1.3735319e-38
-0.20337811 -0.14656857 1.1930001 1.3368344e-38
-0.20110573 -0.14656857 1.1930001 1.3737126e-38
-0.19883335 -0.14656857 1.1930001 1.373677e-38
-0.19722001 -0.14706001 1.197 1.4013357e-38
-0.19575429 -0.14767428 1.202 1.4012994e-38
-0.19346476 -0.14767428 1.202 1.4289581e-38
-0.19181143 -0.14816572 1.2060001 1.4197386e-38
-0.18951431 -0.14816572 1.2060001 1.4289581e-38
-0.18721716 -0.14816572 1.2060001 1.4473269e-38
-0.18492001 -0.14816572 1.2060001 1.465766e-38
-0.18262286 -0.14816572 1.2060001 1.4840973e-38
-0.18032572 -0.14816572 1.2060001 1.4748777e-38
-0.17802858 -0.14816572 1.2060001 1.4749118e-38
-0.17573145 -0.14816572 1.2060001 1.4749118e-38
-0.1734343 -0.14816572 1.2060001 1.4656569e-38
-0.17113715 -0.14816572 1.2060001 1.4564373e-38
-0.16884001 -0.14816572 1.2060001 1.4656925e-38
-0.16654286 -0.14816572 1.2060001 1.4656925e-38
-0.16370095 -0.14767428 1.202 1.4380698e-38
-0.16141143 -0.14767428 1.202 1.4472894e-38
-0.1591219 -0.14767428 1.202 1.4012994e-38
-0.15683238 -0.14767428 1.202 1.3736408e-38
-0.15454286 -0.14767428 1.202 1.4287786e-38
-0.15162 -0.14706001 1.197 1.4656569e-38
-0.14934 -0.14706001 1.197 1.475019e-38
-0.14706001 -0.14706001 1.197 1.5026776e-38
-0.1442962 -0.14656857 1.1930001 1.5118972e-38
-0.14202382 -0.14656857 1.1930001 1.5487755e-38
-0.13928285 -0.14607714 1.189 1.4380367e-38
-0.1370181 -0.14607714 1.189 1.2536455e-38
-0.13475333 -0.14607714 1.189 1.1156365e-38
-0.21482383 -0.13849048 1.1450001 1.1984691e-38
-0.21264288 -0.13849048 1.1450001 1.1063476e-38
-0.21046191 -0.13849048 1.1450001 1.0049324e-38
-0.20828097 -0.13849048 1.1450001 1.1338196e-38
-0.20610002 -0.13849048 1.1450001 1.3458695e-38
-0.21104287 -0.14332858 1.1850001 1.4102296e-38
-0.20878571 -0.14332858 1.1850001 1.3917905e-38
-0.20722571 -0.14381239 1.189 1.3274343e-38
-0.20496096 -0.14381239 1.189 1.3919713e-38
-0.20337811 -0.1442962 1.1930001 1.3551666e-38
-0.20110573 -0.1442962 1.1930001 1.3920448e-38
-0.19883335 -0.1442962 1.1930001 1.3828613e-38
-0.19722001 -0.14478 1.197 1.4197396e-38
-0.19640572 -0.14586858 1.2060001 1.4104484e-38
-0.19410858 -0.14586858 1.2060001 1.4381071e-38
-0.19181143 -0.14586858 1.2060001 1.410519e-38
-0.18951431 -0.14586858 1.2060001 1.4289581e-38
-0.18721716 -0.14586858 1.2060001 1.42903e-38
-0.18492001 -0.14586858 1.2060001 1.4382496e-38
-0.18262286 -0.14586858 1.2060001 1.4749836e-38
-0.18032572 -0.14586858 1.2060001 1.4842032e-38
-0.17802858 -0.14586858 1.2060001 1.4840597e-38
-0.17573145 -0.14586858 1.2060001 1.4932793e-38
-0.1734343 -0.14586858 1.2060001 1.4932433e-38
-0.17113715 -0.14586858 1.2060001 1.5116824e-38
-0.16884001 -0.14586858 1.2060001 1.5023925e-38
-0.16654286 -0.14586858 1.2060001 1.5208316e-38
-0.16424572 -0.14586858 1.2060001 1.4933524e-38
-0.16194858 -0.14586858 1.2060001 1.4933524e-38
-0.15965144 -0.14586858 1.2060001 1.4842049e-38
-0.1573543 -0.14586858 1.2060001 1.4934244e-38
-0.15505715 -0.14586858 1.2060001 1.5301951e-38
-0.15225333 -0.14538477 1.202 1.5394146e-38
-0.14996381 -0.14538477 1.202 1.5578881e-38
-0.14767428 -0.14538477 1.202 1.5855468e-38
-0.14538477 -0.14538477 1.202 1.5396292e-38
-0.13500002 -0.13716 1.1340001 1.4566531e-38
-0.13330857 -0.13764381 1.138 1.2635468e-38
-0.13148667 -0.13800666 1.141 1.0975946e-38
-0.21482383 -0.13630953 1.1450001 1.3459823e-38
-0.21264288 -0.13630953 1.1450001 1.1709927e-38
-0.21046191 -0.13630953 1.1450001 3.8732983e-39
-0.20828097 -0.13630953 1.1450001 3.8779155e-39
-0.20610002 -0.13630953 1.1450001 9.3174577e-39
-0.20391907 -0.13630953 1.1450001 1.2351992e-38
-0.20949046 -0.14154762 1.189 1.3550535e-38
-0.20722571 -0.14154762 1.189 1.3550565e-38
-0.20496096 -0.14154762 1.189 1.428813e-38
-0.20337811 -0.14202382 1.1930001 1.4105205e-38
-0.20110573 -0.14202382 1.1930001 1.4750575e-38
-0.19883335 -0.14202382 1.1930001 1.4382859e-38
-0.19722001 -0.1425 1.197 1.4936033e-38
-0.19575429 -0.14309524 1.202 1.5119718e-38
-0.19346476 -0.14309524 1.202 1.5857283e-38
-0.19181143 -0.14357144 1.2060001 1.5764711e-38
-0.18951431 -0.14357144 1.2060001 1.5764711e-38
-0.18721716 -0.14357144 1.2060001 1.585762e-38
-0.17158002 -0.13321429 1.1190001 1.6410794e-38
-0.16944857 -0.13321429 1.1190001 1.6503343e-38
-0.16671905 -0.1327381 1.115 1.6595538e-38
-0.16459523 -0.1327381 1.115 1.6687031e-38
-0.16363715 -0.13369048 1.123 1.7148009e-38
-0.16149808 -0.13369048 1.123 1.7147646e-38
-0.17113715 -0.14357144 1.2060001 1.7332037e-38
-0.16884001 -0.14357144 1.2060001 1.7332047e-38
-0.16654286 -0.14357144 1.2060001 1.7239851e-38
-0.16424572 -0.14357144 1.2060001 1.6318626e-38
-0.15080285 -0.13369048 1.123 1.6134235e-38
-0.1486638 -0.13369048 1.123 1.6134588e-38
-0.14652476 -0.13369048 1.123 1.6042393e-38
-0.14438573 -0.13369048 1.123 1.4201377e-38
-0.14224668 -0.13369048 1.123 1.3371616e-38
-0.14010762 -0.13369048 1.123 1.4015521e-38
-0.13833715 -0.13404761 1.126 1.4753086e-38
-0.13667618 -0.13452381 1.13 1.438179e-38
-0.13500002 -0.13500002 1.1340001 9.4032256e-39
-0.13330857 -0.13547619 1.138 9.0383933e-39
-0.13148667 -0.13583334 1.141 1.1527675e-38
-0.12976667 -0.13630953 1.1450001 1.1157431e-38
-0.12758572 -0.13630953 1.1450001 1.0327671e-38
-0.21482383 -0.13412857 1.1450001 1.345947e-38
-0.21190001 -0.13366 1.141 1.2172347e-38
-0.20972668 -0.13366 1.141 3.9669358e-39
-0.20755333 -0.13366 1.141 6.6401369e-40
-0.20537999 -0.13366 1.141 5.7347635e-39
-0.20391907 -0.13412857 1.1450001 1.0048933e-38
-0.2017381 -0.13412857 1.1450001 1.115528e-38
-0.20722571 -0.13928285 1.189 1.2166546e-38
-0.20496096 -0.13928285 1.189 1.3272893e-38
-0.20337811 -0.13975143 1.1930001 1.3553451e-38
-0.20110573 -0.13975143 1.1930001 1.3553451e-38
-0.19883335 -0.13975143 1.1930001 1.2633653e-38
-0.19722001 -0.14022 1.197 1.2080479e-38
-0.19575429 -0.14080572 1.202 1.3831114e-38
-0.19346476 -0.14080572 1.202 1.5767223e-38
-0.19244762 -0.14174286 1.21 1.5582491e-38
-0.17647143 -0.13155143 1.123 1.5121513e-38
-0.17371145 -0.13108286 1.1190001 1.5950519e-38
-0.17158002 -0.13108286 1.1190001 1.6595889e-38
-0.16944857 -0.13108286 1.1190001 1.6595564e-38
-0.16671905 -0.1306143 1.115 1.6134586e-38
-0.16459523 -0.1306143 1.115 1.5859771e-38
-0.16363715 -0.13155143 1.123 1.5583184e-38
-0.16149808 -0.13155143 1.123 1.5123636e-38
-0.15935905 -0.13155143 1.123 1.650657e-38
-0.15722001 -0.13155143 1.123 1.6874324e-38
-0.15508096 -0.13155143 1.123 1.6228955e-38
-0.15294191 -0.13155143 1.123 1.4847812e-38
-0.15080285 -0.13155143 1.123 1.5032204e-38
-0.1486638 -0.13155143 1.123 1.5493159e-38
-0.14652476 -0.13155143 1.123 1.5585355e-38
-0.14438573 -0.13155143 1.123 1.2456509e-38
-0.14224668 -0.13155143 1.123 1.0704792e-38
-0.14010762 -0.13155143 1.123 1.1162511e-38
-0.13833715 -0.13190286 1.126 1.2914228e-38
-0.13667618 -0.13237143 1.13 1.3920799e-38
-0.13500002 -0.13284001 1.1340001 8.1124741e-39
-0.13330857 -0.13330857 1.138 7.8387151e-39
-0.13148667 -0.13366 1.141 1.1434345e-38
-0.12976667 -0.13412857 1.1450001 1.2354527e-38
-0.12758572 -0.13412857 1.1450001 1.0879397e-38
-0.21407335 -0.13148667 1.141 1.3366919e-38
-0.21190001 -0.13148667 1.141 1.2724429e-38
-0.20972668 -0.13148667 1.141 6.270735e-39
-0.20755333 -0.13148667 1.141 2.3192064e-39
-0.20537999 -0.13148667 1.141 7.3899661e-39
-0.20320667 -0.13148667 1.141 1.0602851e-38
-0.20103334 -0.13148667 1.141 9.6808943e-39
-0.19886 -0.13148667 1.141 8.8514447e-39
-0.20496096 -0.1370181 1.189 8.5748578e-39
-0.20337811 -0.13747905 1.1930001 1.1063085e-38
-0.20110573 -0.13747905 1.1930001 1.3921149e-38
-0.18716668 -0.12941237 1.123 1.2541447e-38
-0.18502763 -0.12941237 1.123 8.3004485e-39
-0.19640572 -0.13897716 1.2060001 1.1806371e-38
-0.18074952 -0.12941237 1.123 1.5309805e-38
-0.17861047 -0.12941237 1.123 1.4847068e-38
-0.17647143 -0.12941237 1.123 1.2357786e-38
-0.17371145 -0.12895143 1.1190001 1.2451076e-38
-0.17158002 -0.12895143 1.1190001 1.447938e-38
-0.16944857 -0.12895143 1.1190001 1.5950194e-38
-0.16791524 -0.12941237 1.123 1.456726e-38
-0.16577619 -0.12941237 1.123 1.3464088e-38
-0.16363715 -0.12941237 1.123 1.2081153e-38
-0.16149808 -0.12941237 1.123 1.2635056e-38
-0.15935905 -0.12941237 1.123 1.6507272e-38
-0.15722001 -0.12941237 1.123 1.6598441e-38
-0.15508096 -0.12941237 1.123 1.281842e-38
-0.15294191 -0.12941237 1.123 8.4942551e-39
-0.15080285 -0.12941237 1.123 7.9410813e-39
-0.1486638 -0.12941237 1.123 1.1992597e-38
-0.14652476 -0.12941237 1.123 1.5957009e-38
-0.14438573 -0.12941237 1.123 1.5953084e-38
-0.14262667 -0.12975809 1.126 1.5123323e-38
-0.14048192 -0.12975809 1.126 1.5122938e-38
-0.13882858 -0.13021904 1.13 1.3279025e-38
-0.13716 -0.13068001 1.1340001 1.1987189e-38
-0.13500002 -0.13068001 1.1340001 7.1008207e-39
-0.13330857 -0.13114095 1.138 7.4703319e-39
-0.13148667 -0.13148667 1.141 9.9596139e-39
-0.12931333 -0.13148667 1.141 9.681948e-39
-0.12714 -0.13148667 1.141 1.0327317e-38
-0.12496666 -0.13148667 1.141 1.1802488e-38
-0.21407335 -0.12931333 1.141 1.3182528e-38
-0.21190001 -0.12931333 1.141 1.290847e-38
-0.20972668 -0.12931333 1.141 7.2845366e-39
-0.20755333 -0.12931333 1.141 2.3134653e-39
-0.20537999 -0.12931333 1.141 8.2139744e-39
-0.20320667 -0.12931333 1.141 9.7774157e-39
-0.20103334 -0.12931333 1.141 7.2881337e-39
-0.19833714 -0.12897334 1.138 6.7327403e-39
-0.19548 -0.12852001 1.1340001 6.4561534e-39
-0.1926381 -0.12806667 1.13 1.0597754e-38
-0.18981142 -0.12761334 1.126 1.3916797e-38
-0.18716668 -0.12727334 1.123 1.3737842e-38
-0.18502763 -0.12727334 1.123 1.2723691e-38
-0.18288857 -0.12727334 1.123 1.2727653e-38
-0.18074952 -0.12727334 1.123 1.5216935e-38
-0.17861047 -0.12727334 1.123 1.4296058e-38
-0.17647143 -0.12727334 1.123 1.1345798e-38
-0.1743324 -0.12727334 1.123 1.0796227e-38
-0.17219333 -0.12727334 1.123 1.2732335e-38
-0.17005429 -0.12727334 1.123 1.6226408e-38
-0.16791524 -0.12727334 1.123 1.5581039e-38
-0.16577619 -0.12727334 1.123 1.4567963e-38
-0.16363715 -0.12727334 1.123 1.3461616e-38
-0.16149808 -0.12727334 1.123 1.4014442e-38
-0.15935905 -0.12727334 1.123 1.7241289e-38
-0.15722001 -0.12727334 1.123 1.6323296e-38
-0.15549524 -0.12761334 1.126 1.0238384e-38
-0.15335047 -0.12761334 1.126 5.4614879e-39
-0.15120572 -0.12761334 1.126 3.8941622e-39
-0.14906096 -0.12761334 1.126 8.4941878e-39
-0.1469162 -0.12761334 1.126 1.2735187e-38
-0.14477144 -0.12761334 1.126 1.72384e-38
-0.14262667 -0.12761334 1.126 1.7699378e-38
-0.14048192 -0.12761334 1.126 1.6225727e-38
-0.13882858 -0.12806667 1.13 1.1154968e-38
-0.13716 -0.12852001 1.1340001 1.0049289e-38
-0.13500002 -0.12852001 1.1340001 7.9287891e-39
-0.13330857 -0.12897334 1.138 7.2855609e-39
-0.13148667 -0.12931333 1.141 9.5904517e-39
-0.12931333 -0.12931333 1.141 8.4851901e-39
-0.12714 -0.12931333 1.141 1.0052516e-38
-0.12496666 -0.12931333 1.141 1.1986877e-38
-0.21407335 -0.12714 1.141 1.3459114e-38
-0.21190001 -0.12714 1.141 1.3092505e-38
-0.20972668 -0.12714 1.141 9.0358976e-39
-0.20755333 -0.12714 1.141 4.0688144e-39
-0.20537999 -0.12714 1.141 5.3595532e-39
-0.20320667 -0.12714 1.141 7.6554771e-39
-0.20103334 -0.12714 1.141 6.5491295e-39
-0.19833714 -0.12680571 1.138 6.181398e-39
-0.19548 -0.12636001 1.1340001 6.2735936e-39
-0.1926381 -0.12591429 1.13 7.8358676e-39
-0.18981142 -0.12546857 1.126 1.1339302e-38
-0.18766667 -0.12546857 1.126 1.2629732e-38
-0.1855219 -0.12546857 1.126 1.6133166e-38
-0.18288857 -0.12513429 1.123 1.4570147e-38
-0.18074952 -0.12513429 1.123 1.2910625e-38
-0.17861047 -0.12513429 1.123 1.1350124e-38
-0.17647143 -0.12513429 1.123 1.0981341e-38
-0.1743324 -0.12513429 1.123 1.08906e-38
-0.17219333 -0.12513429 1.123 1.1167187e-38
-0.17005429 -0.12513429 1.123 1.3559899e-38
-0.16791524 -0.12513429 1.123 1.5035029e-38
-0.16577619 -0.12513429 1.123 1.6134961e-38
-0.16363715 -0.12513429 1.123 1.7794482e-38
-0.16149808 -0.12513429 1.123 1.7241649e-38
-0.15935905 -0.12513429 1.123 1.4291389e-38
-0.15722001 -0.12513429 1.123 9.6920724e-39
-0.15549524 -0.12546857 1.126 6.7418123e-39
-0.15335047 -0.12546857 1.126 3.809172e-39
-0.15120572 -0.12546857 1.126 3.5325851e-39
-0.14906096 -0.12546857 1.126 5.6451533e-39
-0.1469162 -0.12546857 1.126 5.9217402e-39
-0.14477144 -0.12546857 1.126 1.383104e-38
-0.14262667 -0.12546857 1.126 1.7611061e-38
-0.14098094 -0.12591429 1.13 1.6223178e-38
-0.13882858 -0.12591429 1.13 9.4928975e-39
-0.13716 -0.12636001 1.1340001 7.6540225e-39
-0.13547619 -0.12680571 1.138 7.7462182e-39
-0.13366 -0.12714 1.141 7.7462154e-39
-0.13148667 -0.12714 1.141 1.0051106e-38
-0.12931333 -0.12714 1.141 1.0051456e-38
-0.12758572 -0.12758572 1.1450001 1.0973413e-38
-0.12540478 -0.12758572 1.1450001 1.2078353e-38
-0.21190001 -0.12496666 1.141 1.2633319e-38
-0.20972668 -0.12496666 1.141 9.4064724e-39
-0.20755333 -0.12496666 1.141 5.3570603e-39
-0.20537999 -0.12496666 1.141 5.449256e-39
-0.20320667 -0.12496666 1.141 7.1955849e-39
-0.20103334 -0.12496666 1.141 6.6424112e-39
-0.19833714 -0.12463809 1.138 6.8235304e-39
-0.19548 -0.1242 1.1340001 7.1923129e-39
-0.19332001 -0.1242 1.1340001 6.9175015e-39
-0.1904857 -0.1237619 1.13 7.7472621e-39
-0.18766667 -0.12332381 1.126 1.1524066e-38
-0.1855219 -0.12332381 1.126 1.6410434e-38
-0.18337715 -0.12332381 1.126 1.4387566e-38
-0.18123238 -0.12332381 1.126 1.0423154e-38
-0.17908762 -0.12332381 1.126 8.9573562e-39
-0.17694287 -0.12332381 1.126 1.0340291e-38
-0.1747981 -0.12332381 1.126 1.0064439e-38
-0.17265335 -0.12332381 1.126 9.7878526e-39
-0.17050858 -0.12332381 1.126 1.0155539e-38
-0.16836382 -0.12332381 1.126 1.1354082e-38
-0.16621906 -0.12332381 1.126 1.5399541e-38
-0.16363715 -0.12299524 1.123 1.8073215e-38
-0.16149808 -0.12299524 1.123 1.6875779e-38
-0.15978476 -0.12332381 1.126 9.6845194e-39
-0.15764 -0.12332381 1.126 6.1961719e-39
-0.15549524 -0.12332381 1.126 5.4586068e-39
-0.15335047 -0.12332381 1.126 4.1783175e-39
-0.15120572 -0.12332381 1.126 4.5471e-39
-0.14906096 -0.12332381 1.126 3.6258598e-39
-0.1469162 -0.12332381 1.126 1.6897515e-39
-0.14477144 -0.12332381 1.126 8.4001775e-39
-0.14262667 -0.12332381 1.126 1.5407045e-38
-0.14098094 -0.1237619 1.13 1.4751676e-38
-0.13882858 -0.1237619 1.13 8.4823735e-39
-0.13764381 -0.12463809 1.138 7.7451364e-39
-0.13547619 -0.12463809 1.138 8.1139189e-39
-0.13366 -0.12496666 1.141 8.0224295e-39
-0.13148667 -0.12496666 1.141 1.0511712e-38
-0.12976667 -0.12540478 1.1450001 1.097305e-38
-0.12758572 -0.12540478 1.1450001 1.1434028e-38
-0.12540478 -0.12540478 1.1450001 1.2354217e-38
-0.21190001 -0.12279333 1.141 1.2815899e-38
-0.20972668 -0.12279333 1.141 1.1248573e-38
-0.20755333 -0.12279333 1.141 6.3673054e-39
-0.20610002 -0.12322382 1.1450001 5.721936e-39
-0.20391907 -0.12322382 1.1450001 7.3799762e-39
-0.20103334 -0.12279333 1.141 7.6565631e-39
-0.19833714 -0.12247047 1.138 7.5603948e-39
-0.19616953 -0.12247047 1.138 7.2838079e-39
-0.19332001 -0.12204001 1.1340001 7.0083e-39
-0.1904857 -0.12160952 1.13 6.7317131e-39
-0.18766667 -0.12117905 1.126 8.9458123e-39
-0.1855219 -0.12117905 1.126 1.5399506e-38
-0.18337715 -0.12117905 1.126 1.3559948e-38
-0.18123238 -0.12117905 1.126 9.9643181e-39
-0.17908762 -0.12117905 1.126 8.4074349e-39
-0.17694287 -0.12117905 1.126 9.6981737e-39
-0.1747981 -0.12117905 1.126 1.0431783e-38
-0.17265335 -0.12117905 1.126 1.0523978e-38
-0.17050858 -0.12117905 1.126 1.0339956e-38
-0.16836382 -0.12117905 1.126 1.0063369e-38
-0.16621906 -0.12117905 1.126 1.3557774e-38
-0.16407429 -0.12117905 1.126 1.7429991e-38
-0.16192952 -0.12117905 1.126 1.577192e-38
-0.15978476 -0.12117905 1.126 6.736748e-39
-0.15764 -0.12117905 1.126 1.3260263e-39
-0.15549524 -0.12117905 1.126 3.3543302e-39
-0.15335047 -0.12117905 1.126 5.1885164e-39
-0.15120572 -0.12117905 1.126 5.280712e-39
-0.14906096 -0.12117905 1.126 4.8200996e-39
-0.1469162 -0.12117905 1.126 2.7917957e-39
-0.14477144 -0.12117905 1.126 9.0444946e-39
-0.14313333 -0.12160952 1.13 1.5405993e-38
-0.14098094 -0.12160952 1.13 1.5396304e-38
-0.13932002 -0.12204001 1.1340001 8.3894366e-39
-0.13764381 -0.12247047 1.138 5.6318522e-39
-0.13547619 -0.12247047 1.138 6.3694172e-39
-0.13366 -0.12279333 1.141 7.6547554e-39
-0.13194764 -0.12322382 1.1450001 9.9596462e-39
-0.12976667 -0.12322382 1.1450001 1.0880138e-38
-0.12758572 -0.12322382 1.1450001 1.2724051e-38
-0.21190001 -0.12062 1.141 1.290666e-38
-0.20972668 -0.12062 1.141 1.2537877e-38
-0.20755333 -0.12062 1.141 8.6707178e-39
-0.20610002 -0.12104286 1.1450001 7.2877834e-39
-0.20391907 -0.12104286 1.1450001 8.5777781e-39
-0.2017381 -0.12104286 1.1450001 8.854365e-39
-0.19833714 -0.12030286 1.138 8.0217513e-39
-0.19616953 -0.12030286 1.138 7.2841862e-39
-0.1940019 -0.12030286 1.138 6.549428e-39
-0.1904857 -0.11945714 1.13 6.6416236e-39
-0.18766667 -0.11903429 1.126 7.9323961e-39
-0.1855219 -0.11903429 1.126 1.4754873e-38
-0.18337715 -0.11903429 1.126 1.3100051e-38
-0.18123238 -0.11903429 1.126 1.0057596e-38
-0.17908762 -0.11903429 1.126 8.7744195e-39
-0.17694287 -0.11903429 1.126 9.7885714e-39
-0.1747981 -0.11903429 1.126 1.0523978e-38
-0.17265335 -0.11903429 1.126 1.0523978e-38
-0.17050858 -0.11903429 1.126 9.7885812e-39
-0.16836382 -0.11903429 1.126 9.3276031e-39
-0.16621906 -0.11903429 1.126 1.2270278e-38
-0.16407429 -0.11903429 1.126 1.6603473e-38
-0.16192952 -0.11903429 1.126 1.41171e-38
-0.15978476 -0.11903429 1.126 5.819493e-39
-0.15764 -0.11903429 1.126 2.2436666e-39
-0.15549524 -0.11903429 1.126 4.0875792e-39
-0.15335047 -0.11903429 1.126 5.371816e-39
-0.15120572 -0.11903429 1.126 5.2796204e-39
-0.14906096 -0.11903429 1.126 3.5329481e-39
-0.14743809 -0.11945714 1.13 3.1641656e-39
-0.14528571 -0.11945714 1.13 1.0700807e-38
-0.14313333 -0.11945714 1.13 1.549498e-38
-0.14098094 -0.11945714 1.13 1.5582503e-38
-0.13932002 -0.11988001 1.1340001 1.0327352e-38
-0.13764381 -0.12030286 1.138 7.3803293e-39
-0.13547619 -0.12030286 1.138 7.8413075e-39
-0.13366 -0.12062 1.141 8.669629e-39
-0.13194764 -0.12104286 1.1450001 9.0384115e-39
-0.12976667 -0.12104286 1.1450001 1.0420174e-38
-0.12758572 -0.12104286 1.1450001 1.2448478e-38
-0.12540478 -0.12104286 1.1450001 1.3826814e-38
-0.20900859 -0.11927715 1.149 9.5905161e-39
-0.20610002 -0.11886191 1.1450001 7.6544079e-39
-0.20391907 -0.11886191 1.1450001 8.3933868e-39
-0.20103334 -0.11844667 1.141 1.0513886e-38
-0.19886 -0.11844667 1.141 9.4061249e-39
-0.19616953 -0.11813524 1.138 6.8246472e-39
-0.1940019 -0.11813524 1.138 6.9153659e-39
-0.1904857 -0.11730476 1.13 1.0142213e-38
-0.18833333 -0.11730476 1.13 1.1154615e-38
-0.18618095 -0.11730476 1.13 1.5487809e-38
-0.18402857 -0.11730476 1.13 1.3926209e-38
-0.18187618 -0.11730476 1.13 1.3004253e-38
-0.17972381 -0.11730476 1.13 1.0522897e-38
-0.17694287 -0.11688953 1.126 9.7853316e-39
-0.1747981 -0.11688953 1.126 9.510928e-39
-0.17265335 -0.11688953 1.126 9.6953192e-39
-0.17050858 -0.11688953 1.126 1.0890956e-38
-0.16836382 -0.11688953 1.126 1.2366086e-38
-0.16621906 -0.11688953 1.126 1.4939632e-38
-0.16407429 -0.11688953 1.126 1.7428914e-38
-0.16192952 -0.11688953 1.126 1.6230759e-38
-0.15978476 -0.11688953 1.126 1.3833673e-38
-0.15764 -0.11688953 1.126 7.7649886e-39
-0.15549524 -0.11688953 1.126 4.3537503e-39
-0.15335047 -0.11688953 1.126 1.510049e-39
-0.15120572 -0.11688953 1.126 1.4178534e-39
-0.14959046 -0.11730476 1.13 5.9210213e-39
-0.14743809 -0.11730476 1.13 1.0622998e-38
-0.14528571 -0.11730476 1.13 1.5125806e-38
-0.14313333 -0.11730476 1.13 1.5310197e-38
-0.14148 -0.11772001 1.1340001 1.5397749e-38
-0.13932002 -0.11772001 1.1340001 1.5028967e-38
-0.13764381 -0.11813524 1.138 1.2725165e-38
-0.13547619 -0.11813524 1.138 1.0881252e-38
-0.13366 -0.11844667 1.141 1.0055435e-38
-0.13194764 -0.11886191 1.1450001 6.736392e-39
-0.12931333 -0.11844667 1.141 6.0952616e-39
-0.12714 -0.11844667 1.141 9.8752824e-39
-0.20900859 -0.11708858 1.149 1.0880163e-38
-0.20682001 -0.11708858 1.149 8.2064901e-39
-0.20391907 -0.11668096 1.1450001 8.1171559e-39
-0.20103334 -0.11627334 1.141 9.8688728e-39
-0.19833714 -0.11596762 1.138 1.0421343e-38
-0.19616953 -0.11596762 1.138 7.1023005e-39
-0.1940019 -0.11596762 1.138 7.6511134e-39
-0.19183429 -0.11596762 1.138 1.2353091e-38
-0.18833333 -0.11515237 1.13 1.4010499e-38
-0.18618095 -0.11515237 1.13 1.4840259e-38
-0.18402857 -0.11515237 1.13 1.4109833e-38
-0.18187618 -0.11515237 1.13 1.4570811e-38
-0.17972381 -0.11515237 1.13 1.2638717e-38
-0.17757143 -0.11515237 1.13 1.0518218e-38
-0.17541905 -0.11515237 1.13 8.958808e-39
-0.17326666 -0.11515237 1.13 9.2353949e-39
-0.17111428 -0.11515237 1.13 1.1717855e-38
-0.16896191 -0.11515237 1.13 1.4391529e-38
-0.16621906 -0.11474476 1.126 1.6320061e-38
-0.16407429 -0.11474476 1.126 1.6320061e-38
-0.16192952 -0.11474476 1.126 1.6688819e-38
-0.15978476 -0.11474476 1.126 1.6135645e-38
-0.15764 -0.11474476 1.126 1.2734172e-38
-0.15549524 -0.11474476 1.126 7.2946301e-39
-0.15335047 -0.11474476 1.126 1.4178436e-39
-0.15120572 -0.11474476 1.126 1.6944305e-39
-0.14959046 -0.11515237 1.13 7.7599018e-39
-0.14743809 -0.11515237 1.13 1.329164e-38
-0.14528571 -0.11515237 1.13 1.5218743e-38
-0.14313333 -0.11515237 1.13 1.3559222e-38
-0.14148 -0.11556 1.1340001 1.4016607e-38
-0.13932002 -0.11556 1.1340001 1.5030759e-38
-0.13764381 -0.11596762 1.138 1.521156e-38
-0.13547619 -0.11596762 1.138 1.4105213e-38
-0.13366 -0.11627334 1.141 9.5980691e-39
-0.13148667 -0.11627334 1.141 2.8677881e-39
-0.12931333 -0.11627334 1.141 2.3217161e-39
-0.12714 -0.11627334 1.141 8.4066165e-39
-0.12496666 -0.11627334 1.141 1.2356e-38
-0.20973618 -0.1153 1.153 1.1432258e-38
-0.20682001 -0.1149 1.149 7.0068679e-39
-0.20391907 -0.11450001 1.1450001 5.8158931e-39
-0.20103334 -0.1141 1.141 7.5676101e-39
-0.19833714 -0.1138 1.138 9.1306016e-39
-0.19616953 -0.1138 1.138 1.0974514e-38
-0.1940019 -0.1138 1.138 1.2908766e-38
-0.19183429 -0.1138 1.138 1.5029265e-38
-0.18833333 -0.113 1.13 1.2448953e-38
-0.18618095 -0.113 1.13 8.2079544e-39
-0.18402857 -0.113 1.13 9.6898205e-39
-0.18187618 -0.113 1.13 1.4299602e-38
-0.17972381 -0.113 1.13 1.4848166e-38
-0.17757143 -0.113 1.13 1.41106e-38
-0.17541905 -0.113 1.13 1.2915635e-38
-0.17326666 -0.113 1.13 1.3100026e-38
-0.17111428 -0.113 1.13 1.521658e-38
-0.16896191 -0.113 1.13 1.669171e-38
-0.16680951 -0.113 1.13 1.5121178e-38
-0.16465715 -0.113 1.13 1.1341157e-38
-0.16250476 -0.113 1.13 1.3185019e-38
-0.16035238 -0.113 1.13 1.7333822e-38
-0.1582 -0.113 1.13 1.6505198e-38
-0.15549524 -0.1126 1.126 1.5306655e-38
-0.15335047 -0.1126 1.126 1.2735204e-38
-0.15120572 -0.1126 1.126 1.1352269e-38
-0.14959046 -0.113 1.13 1.291568e-38
-0.14743809 -0.113 1.13 1.4667397e-38
-0.14528571 -0.113 1.13 1.3468105e-38
-0.14313333 -0.113 1.13 1.0794432e-38
-0.14148 -0.1134 1.1340001 1.1071382e-38
-0.13932002 -0.1134 1.1340001 1.2269925e-38
-0.13764381 -0.1138 1.138 1.3464515e-38
-0.13583334 -0.1141 1.141 1.3833298e-38
-0.13366 -0.1141 1.141 9.9664789e-39
-0.13148667 -0.1141 1.141 3.1440023e-39
-0.12931333 -0.1141 1.141 1.0353592e-39
-0.12714 -0.1141 1.141 7.4890533e-39
-0.21046382 -0.11349619 1.1570001 1.1801391e-38
-0.20682001 -0.11271144 1.149 7.4681963e-39
-0.20391907 -0.11231906 1.1450001 4.8049501e-39
-0.2017381 -0.11231906 1.1450001 5.9112977e-39
-0.19886 -0.11192667 1.141 8.8540021e-39
-0.19668667 -0.11192667 1.141 1.1712067e-38
-0.19451334 -0.11192667 1.141 1.3737139e-38
-0.19183429 -0.11163238 1.138 1.3737139e-38
-0.18966667 -0.11163238 1.138 1.0519297e-38
-0.18684 -0.11124001 1.1340001 4.1577983e-39
-0.18468001 -0.11124001 1.1340001 3.7993714e-39
-0.18187618 -0.11084761 1.13 9.4233048e-39
-0.17972381 -0.11084761 1.13 1.4937818e-38
-0.17757143 -0.11084761 1.13 1.5490992e-38
-0.17541905 -0.11084761 1.13 1.4937843e-38
-0.17326666 -0.11084761 1.13 1.5951995e-38
-0.17111428 -0.11084761 1.13 1.6321145e-38
-0.16896191 -0.11084761 1.13 1.5675775e-38
-0.16680951 -0.11084761 1.13 1.3464515e-38
-0.16465715 -0.11084761 1.13 8.9469292e-39
-0.16250476 -0.11084761 1.13 1.1060903e-38
-0.16035238 -0.11084761 1.13 1.5117511e-38
-0.1582 -0.11084761 1.13 1.7789768e-38
-0.15604763 -0.11084761 1.13 1.7789768e-38
-0.15389523 -0.11084761 1.13 1.613603e-38
-0.15174286 -0.11084761 1.13 1.5767248e-38
-0.14959046 -0.11084761 1.13 1.5402781e-38
-0.14743809 -0.11084761 1.13 1.3651064e-38
-0.14528571 -0.11084761 1.13 1.2085897e-38
-0.14364001 -0.11124001 1.1340001 1.0426375e-38
-0.14148 -0.11124001 1.1340001 9.2339557e-39
-0.13981143 -0.11163238 1.138 9.7871295e-39
-0.13764381 -0.11163238 1.138 1.2085543e-38
-0.13583334 -0.11192667 1.141 1.2638717e-38
-0.13366 -0.11192667 1.141 9.5065769e-39
-0.13148667 -0.11192667 1.141 2.4997091e-39
-0.12931333 -0.11192667 1.141 1.4941205e-39
-0.12714 -0.11192667 1.141 8.8697653e-39
-0.12496666 -0.11192667 1.141 1.3184316e-38
-0.12322382 -0.11231906 1.1450001 1.456725e-38
-0.20682001 -0.11052286 1.149 8.4819853e-39
-0.20391907 -0.1101381 1.1450001 5.2652178e-39
-0.2017381 -0.1101381 1.1450001 5.5418047e-39
-0.19886 -0.10975334 1.141 7.7501712e-39
-0.19668667 -0.10975334 1.141 1.1069214e-38
-0.19451334 -0.10975334 1.141 1.1988659e-38
-0.19234 -0.10975334 1.141 9.8681596e-39
-0.18966667 -0.10946476 1.138 4.2593574e-39
-0.18684 -0.10908 1.1340001 3.1530098e-39
-0.18468001 -0.10908 1.1340001 2.2382562e-39
-0.18187618 -0.10869523 1.13 3.3446038e-39
-0.17972381 -0.10869523 1.13 9.229941e-39
-0.17757143 -0.10869523 1.13 1.3931918e-38
-0.17541905 -0.10869523 1.13 1.585873e-38
-0.17326666 -0.10869523 1.13 1.6965078e-38
-0.17111428 -0.10869523 1.13 1.6412232e-38
-0.16896191 -0.10869523 1.13 1.1249277e-38
-0.16680951 -0.10869523 1.13 9.8695763e-39
-0.16465715 -0.10869523 1.13 9.7773807e-39
-0.16250476 -0.10869523 1.13 1.0694327e-38
-0.16035238 -0.10869523 1.13 1.0602132e-38
-0.1582 -0.10869523 1.13 1.2815106e-38
-0.15604763 -0.10869523 1.13 1.6871713e-38
-0.15389523 -0.10869523 1.13 1.6412267e-38
-0.15174286 -0.10869523 1.13 1.7057636e-38
-0.15012001 -0.10908 1.1340001 1.4942507e-38
-0.14743809 -0.10869523 1.13 1.171566e-38
-0.14528571 -0.10869523 1.13 1.0246315e-38
-0.14364001 -0.10908 1.1340001 1.0061924e-38
-0.14148 -0.10908 1.1340001 9.2346816e-39
-0.13981143 -0.10946476 1.138 9.2346816e-39
-0.13800666 -0.10975334 1.141 1.0980278e-38
-0.13583334 -0.10975334 1.141 1.1256865e-38
-0.13366 -0.10975334 1.141 9.1381503e-39
-0.13194764 -0.1101381 1.1450001 3.0532388e-39
-0.12976667 -0.1101381 1.1450001 1.6796748e-39
-0.12758572 -0.1101381 1.1450001 8.5943471e-39
-0.12540478 -0.1101381 1.1450001 1.3275792e-38
-0.12322382 -0.1101381 1.1450001 1.4566531e-38
-0.20682001 -0.10833429 1.149 9.1266359e-39
-0.20391907 -0.10795715 1.1450001 6.0002591e-39
-0.2017381 -0.10795715 1.1450001 5.4470854e-39
-0.19886 -0.10758 1.141 6.7381843e-39
-0.19668667 -0.10758 1.141 1.0518205e-38
-0.19451334 -0.10758 1.141 1.0702261e-38
-0.19234 -0.10758 1.141 8.1207838e-39
-0.18966667 -0.10729714 1.138 2.3300763e-39
-0.18749905 -0.10729714 1.138 3.0676413e-39
-0.18468001 -0.10692 1.1340001 3.0690833e-39
-0.18252 -0.10692 1.1340001 1.8705401e-39
-0.17972381 -0.10654286 1.13 4.7224361e-39
-0.17757143 -0.10654286 1.13 1.0438565e-38
-0.17541905 -0.10654286 1.13 1.604239e-38
-0.17326666 -0.10654286 1.13 1.6318977e-38
-0.17172001 -0.10692 1.1340001 1.4659809e-38
-0.16896191 -0.10654286 1.13 1.0142223e-38
-0.16680951 -0.10654286 1.13 9.2242069e-39
-0.16465715 -0.10654286 1.13 1.0514946e-38
-0.16250476 -0.10654286 1.13 1.0880514e-38
-0.16035238 -0.10654286 1.13 9.5897748e-39
-0.1582 -0.10654286 1.13 9.5932935e-39
-0.15604763 -0.10654286 1.13 1.4479662e-38
-0.15389523 -0.10654286 1.13 1.5952345e-38
-0.15228 -0.10692 1.1340001 1.6044541e-38
-0.15012001 -0.10692 1.1340001 1.3469913e-38
-0.14796001 -0.10692 1.1340001 1.0611848e-38
-0.14580001 -0.10692 1.1340001 9.5119874e-39
-0.14364001 -0.10692 1.1340001 9.604183e-39
-0.14197905 -0.10729714 1.138 9.2361137e-39
-0.14018001 -0.10758 1.141 8.8673312e-39
-0.13800666 -0.10758 1.141 1.1164303e-38
-0.13583334 -0.10758 1.141 1.1994064e-38
-0.13412857 -0.10795715 1.1450001 8.7704636e-39
-0.13194764 -0.10795715 1.1450001 2.2245739e-39
-0.12976667 -0.10795715 1.1450001 2.598673e-39
-0.12758572 -0.10795715 1.1450001 9.6055408e-39
-0.12540478 -0.10795715 1.1450001 1.3091757e-38
-0.12322382 -0.10795715 1.1450001 1.42903e-38
-0.20391907 -0.1057762 1.1450001 6.4612569e-39
-0.2017381 -0.1057762 1.1450001 5.5393006e-39
-0.19955716 -0.1057762 1.1450001 6.3704962e-39
-0.19737621 -0.1057762 1.1450001 9.9661258e-39
-0.19451334 -0.10540666 1.141 1.0794076e-38
-0.19234 -0.10540666 1.141 8.6735765e-39
-0.19016667 -0.10540666 1.141 3.1569755e-39
-0.18749905 -0.10512953 1.138 3.0647799e-39
-0.18533143 -0.10512953 1.138 2.7925062e-39
-0.18316381 -0.10512953 1.138 2.7003105e-39
-0.18036 -0.10476001 1.1340001 3.7104996e-39
-0.17820001 -0.10476001 1.1340001 6.2919772e-39
-0.17604001 -0.10476001 1.1340001 1.3741053e-38
-0.17388 -0.10476001 1.1340001 1.4478618e-38
-0.17172001 -0.10476001 1.1340001 1.4107312e-38
-0.16956 -0.10476001 1.1340001 9.8663127e-39
-0.1674 -0.10476001 1.1340001 9.7766772e-39
-0.16524 -0.10476001 1.1340001 1.0606438e-38
-0.16308001 -0.10476001 1.1340001 1.1064905e-38
-0.16091999 -0.10476001 1.1340001 1.032734e-38
-0.15876001 -0.10476001 1.1340001 9.4993715e-39
-0.1566 -0.10476001 1.1340001 1.2449632e-38
-0.15444 -0.10476001 1.1340001 1.521582e-38
-0.15281714 -0.10512953 1.138 1.5768994e-38
-0.15064953 -0.10512953 1.138 1.3562106e-38
-0.14848191 -0.10512953 1.138 1.051965e-38
-0.14631429 -0.10512953 1.138 8.8691361e-39
-0.14414667 -0.10512953 1.138 9.145723e-39
-0.14235334 -0.10540666 1.141 9.8782461e-39
-0.14018001 -0.10540666 1.141 1.0154833e-38
-0.13800666 -0.10540666 1.141 1.2821997e-38
-0.13630953 -0.1057762 1.1450001 1.4112736e-38
-0.13412857 -0.1057762 1.1450001 1.2728382e-38
-0.13194764 -0.1057762 1.1450001 6.6434705e-39
-0.13022 -0.10614572 1.149 6.2797075e-39
-0.12803143 -0.10614572 1.149 1.0151924e-38
-0.12584287 -0.10614572 1.149 1.281517e-38
-0.12365429 -0.10614572 1.149 1.42903e-38
-0.20244285 -0.10395715 1.149 6.5512721e-39
-0.19955716 -0.10359525 1.1450001 6.0027829e-39
-0.19737621 -0.10359525 1.1450001 1.0151586e-38
-0.19519526 -0.10359525 1.1450001 1.107031e-38
-0.19234 -0.10323334 1.141 9.8717665e-39
-0.19016667 -0.10323334 1.141 4.7218027e-39
-0.18749905 -0.10296191 1.138 3.2466726e-39
-0.18533143 -0.10296191 1.138 2.7917831e-39
-0.18364668 -0.10323334 1.141 2.8839787e-39
-0.18036 -0.1026 1.1340001 1.3206131e-39
-0.17820001 -0.1026 1.1340001 5.2850252e-39
-0.17604001 -0.1026 1.1340001 1.1991893e-38
-0.17388 -0.1026 1.1340001 1.374361e-38
-0.17172001 -0.1026 1.1340001 1.2541833e-38
-0.16956 -0.1026 1.1340001 9.4071814e-39
-0.1674 -0.1026 1.1340001 1.0143652e-38
-0.16524 -0.1026 1.1340001 1.0789021e-38
-0.16308001 -0.1026 1.1340001 1.0880514e-38
-0.16148761 -0.10296191 1.138 1.0142949e-38
-0.15932 -0.10296191 1.138 9.1320113e-39
-0.15715237 -0.10296191 1.138 1.3649597e-38
-0.15498477 -0.10296191 1.138 1.5030026e-38
-0.15281714 -0.10296191 1.138 1.6044178e-38
-0.15064953 -0.10296191 1.138 1.3562474e-38
-0.14848191 -0.10296191 1.138 1.0612214e-38
-0.14631429 -0.10296191 1.138 9.0520826e-39
-0.14452668 -0.10323334 1.141 9.0520826e-39
-0.1428524 -0.10359525 1.1450001 9.9697131e-39
-0.14067145 -0.10359525 1.1450001 1.1260452e-38
-0.13849048 -0.10359525 1.1450001 1.3648178e-38
-0.13630953 -0.10359525 1.1450001 1.3832569e-38
-0.13459715 -0.10395715 1.149 1.3280827e-38
-0.13240857 -0.10395715 1.149 9.5008064e-39
-0.13067333 -0.10431904 1.153 8.8554244e-39
-0.12892286 -0.10468096 1.1570001 1.0883728e-38
-0.12671906 -0.10468096 1.1570001 1.2630423e-38
-0.12494572 -0.10504285 1.161 1.4105553e-38
-0.20314761 -0.10212285 1.153 6.4608814e-39
-0.20025429 -0.10176858 1.149 8.303345e-39
-0.19806573 -0.10176858 1.149 1.199117e-38
-0.19519526 -0.10141429 1.1450001 1.2448909e-38
-0.19234 -0.10106 1.141 1.2817691e-38
-0.19016667 -0.10106 1.141 9.0456436e-39
-0.18799333 -0.10106 1.141 5.6344053e-39
-0.18582 -0.10106 1.141 2.3326e-39
-0.18364668 -0.10106 1.141 1.6872306e-39
-0.18036 -0.10044 1.1340001 4.6295594e-39
-0.17820001 -0.10044 1.1340001 1.0437884e-38
-0.17604001 -0.10044 1.1340001 1.6044881e-38
-0.17388 -0.10044 1.1340001 1.6874642e-38
-0.17172001 -0.10044 1.1340001 1.5766506e-38
-0.16956 -0.10044 1.1340001 1.1248921e-38
-0.1674 -0.10044 1.1340001 9.3149956e-39
-0.16524 -0.10044 1.1340001 9.4071912e-39
-0.16365524 -0.10079429 1.138 9.8674533e-39
-0.16148761 -0.10079429 1.138 1.0420627e-38
-0.15932 -0.10079429 1.138 1.1524441e-38
-0.15715237 -0.10079429 1.138 1.6871788e-38
-0.15498477 -0.10079429 1.138 1.6780321e-38
-0.15281714 -0.10079429 1.138 1.6503734e-38
-0.15104666 -0.10106 1.141 1.4850336e-38
-0.14887333 -0.10106 1.141 1.3559597e-38
-0.14669999 -0.10106 1.141 1.03396e-38
-0.14452668 -0.10106 1.141 9.3254479e-39
-0.1428524 -0.10141429 1.1450001 1.1624928e-38
-0.14116286 -0.10176858 1.149 1.3837623e-38
-0.13897429 -0.10176858 1.149 1.3370164e-38
-0.13678572 -0.10176858 1.149 9.4057521e-39
-0.13553429 -0.10247715 1.1570001 9.8678065e-39
-0.13333048 -0.10247715 1.1570001 1.2449284e-38
-0.13112667 -0.10247715 1.1570001 1.1617706e-38
-0.12936857 -0.10283143 1.161 1.1341119e-38
-0.12715714 -0.10283143 1.161 1.2722258e-38
-0.12494572 -0.10283143 1.161 1.4289584e-38
-0.20314761 -0.099926665 1.153 5.6354493e-39
-0.20095141 -0.099926665 1.153 9.9585349e-39
-0.19875523 -0.099926665 1.153 1.217123e-38
-0.19587715 -0.099580005 1.149 1.1985404e-38
-0.19301431 -0.099233337 1.1450001 1.2722969e-38
-0.19016667 -0.098886669 1.141 1.1531288e-38
-0.18799333 -0.098886669 1.141 7.8434627e-39
-0.18582 -0.098886669 1.141 4.1693071e-39
-0.18364668 -0.098886669 1.141 3.3395465e-39
-0.18099619 -0.098626666 1.138 7.2967657e-39
-0.17882857 -0.098626666 1.138 1.3473873e-38
-0.17604001 -0.098280005 1.1340001 1.5861236e-38
-0.17388 -0.098280005 1.1340001 1.5861236e-38
-0.17232572 -0.098626666 1.138 1.5951995e-38
-0.16956 -0.098280005 1.1340001 1.3554909e-38
-0.1674 -0.098280005 1.1340001 1.1066032e-38
-0.16582285 -0.098626666 1.138 9.1299233e-39
-0.16365524 -0.098626666 1.138 9.6830004e-39
-0.16148761 -0.098626666 1.138 1.1987891e-38
-0.15932 -0.098626666 1.138 1.4286385e-38
-0.15715237 -0.098626666 1.138 1.7789819e-38
-0.15498477 -0.098626666 1.138 1.6597008e-38
-0.15281714 -0.098626666 1.138 1.530627e-38
-0.15104666 -0.098886669 1.141 1.5125809e-38
-0.14887333 -0.098886669 1.141 1.5218005e-38
-0.14669999 -0.098886669 1.141 1.38369e-38
-0.14452668 -0.098886669 1.141 1.2546161e-38
-0.1428524 -0.099233337 1.1450001 1.300714e-38
-0.14116286 -0.099580005 1.149 1.300714e-38
-0.13897429 -0.099580005 1.149 1.3183587e-38
-0.1372619 -0.099926665 1.153 8.666001e-39
-0.13553429 -0.10027333 1.1570001 9.3124228e-39
-0.13333048 -0.10027333 1.1570001 1.1432922e-38
-0.13158 -0.10062 1.161 1.2810849e-38
-0.12936857 -0.10062 1.161 1.2165479e-38
-0.12715714 -0.10062 1.161 1.2722258e-38
-0.12494572 -0.10062 1.161 1.4197389e-38
-0.20605619 -0.098069526 1.1570001 7.3817867e-39
-0.20314761 -0.097730473 1.153 4.5237221e-39
-0.20095141 -0.097730473 1.153 9.224546e-39
-0.19875523 -0.097730473 1.153 1.0054307e-38
-0.19655904 -0.097730473 1.153 9.1266233e-39
-0.19301431 -0.097052388 1.1450001 8.4812539e-39
-0.19083335 -0.097052388 1.1450001 9.0380584e-39
-0.1886524 -0.097052388 1.1450001 1.3371253e-38
-0.18647143 -0.097052388 1.1450001 1.2820222e-38
-0.1842905 -0.097052388 1.1450001 1.2082657e-38
-0.18099619 -0.096459046 1.138 1.3373764e-38
-0.17882857 -0.096459046 1.138 1.5309872e-38
-0.17666095 -0.096459046 1.138 1.4111317e-38
-0.17449333 -0.096459046 1.138 1.2820578e-38
-0.17232572 -0.096459046 1.138 1.3741465e-38
-0.17015809 -0.096459046 1.138 1.6691725e-38
-0.16799048 -0.096459046 1.138 1.6134258e-38
-0.16582285 -0.096459046 1.138 1.2446432e-38
-0.16365524 -0.096459046 1.138 1.2539659e-38
-0.16148761 -0.096459046 1.138 1.7149441e-38
-0.15932 -0.096459046 1.138 1.7424971e-38
-0.15715237 -0.096459046 1.138 1.4935689e-38
-0.15498477 -0.096459046 1.138 9.5055568e-39
-0.15322001 -0.096713334 1.141 6.5552966e-39
-0.15104666 -0.096713334 1.141 8.6793246e-39
-0.14887333 -0.096713334 1.141 1.3750084e-38
-0.14669999 -0.096713334 1.141 1.5769406e-38
-0.14503334 -0.097052388 1.1450001 1.632258e-38
-0.1428524 -0.097052388 1.1450001 1.5766882e-38
-0.14116286 -0.097391427 1.149 1.1525883e-38
-0.13897429 -0.097391427 1.149 8.3930239e-39
-0.1372619 -0.097730473 1.153 7.0100895e-39
-0.13553429 -0.098069526 1.1570001 7.6540197e-39
-0.13333048 -0.098069526 1.1570001 9.4979323e-39
-0.13158 -0.098408572 1.161 1.0786876e-38
-0.12936857 -0.098408572 1.161 1.1432245e-38
-0.12715714 -0.098408572 1.161 1.3366183e-38
-0.12494572 -0.098408572 1.161 1.4656922e-38
-0.20605619 -0.095865719 1.1570001 9.0402066e-39
-0.20385239 -0.095865719 1.1570001 4.8914032e-39
-0.20095141 -0.09553428 1.153 7.7490768e-39
-0.19875523 -0.09553428 1.153 8.3944462e-39
-0.19655904 -0.09553428 1.153 7.6536442e-39
-0.19368857 -0.095202863 1.149 6.7316879e-39
-0.19150001 -0.095202863 1.149 9.9538434e-39
-0.1886524 -0.094871432 1.1450001 1.4287038e-38
-0.18647143 -0.094871432 1.1450001 1.4934954e-38
-0.1842905 -0.094871432 1.1450001 1.585691e-38
-0.18147334 -0.094540007 1.141 1.4665219e-38
-0.17882857 -0.094291434 1.138 1.3835458e-38
-0.17666095 -0.094291434 1.138 1.1719625e-38
-0.17495334 -0.094540007 1.141 1.0521082e-38
-0.17278001 -0.094540007 1.141 1.2637616e-38
-0.17015809 -0.094291434 1.138 1.5403485e-38
-0.16799048 -0.094291434 1.138 1.7056554e-38
-0.16582285 -0.094291434 1.138 1.567362e-38
-0.16365524 -0.094291434 1.138 1.4291061e-38
-0.16148761 -0.094291434 1.138 1.7425713e-38
-0.15974 -0.094540007 1.141 1.6690656e-38
-0.15756667 -0.094540007 1.141 1.1251114e-38
-0.15539335 -0.094540007 1.141 7.0248605e-39
-0.15322001 -0.094540007 1.141 4.166796e-39
-0.15104666 -0.094540007 1.141 5.4596578e-39
-0.14887333 -0.094540007 1.141 9.4240699e-39
-0.14669999 -0.094540007 1.141 1.6133847e-38
-0.14452668 -0.094540007 1.141 1.7516782e-38
-0.1428524 -0.094871432 1.1450001 1.677638e-38
-0.14116286 -0.095202863 1.149 1.0414882e-38
-0.13897429 -0.095202863 1.149 7.9323793e-39
-0.1372619 -0.09553428 1.153 7.8401836e-39
-0.13553429 -0.095865719 1.1570001 7.3795908e-39
-0.13333048 -0.095865719 1.1570001 9.2235034e-39
-0.13112667 -0.095865719 1.1570001 9.8688574e-39
-0.12892286 -0.095865719 1.1570001 1.0883009e-38
-0.12715714 -0.096197143 1.161 1.3366539e-38
-0.12494572 -0.096197143 1.161 1.4104104e-38
-0.20605619 -0.093661912 1.1570001 9.962523e-39
-0.20385239 -0.093661912 1.1570001 2.9556552e-39
-0.20164859 -0.093661912 1.1570001 5.1722935e-39
-0.19944477 -0.093661912 1.1570001 7.3849886e-39
-0.19724096 -0.093661912 1.1570001 8.0203009e-39
-0.19436285 -0.093338095 1.153 7.0983446e-39
-0.19150001 -0.093014285 1.149 7.3742057e-39
-0.1886524 -0.09269049 1.1450001 1.1062031e-38
-0.18647143 -0.09269049 1.1450001 1.3183587e-38
-0.1842905 -0.09269049 1.1450001 1.6226043e-38
-0.18147334 -0.092366666 1.141 1.4479731e-38
-0.1793 -0.092366666 1.141 1.1898253e-38
-0.17712666 -0.092366666 1.141 1.0063353e-38
-0.17495334 -0.092366666 1.141 1.0063353e-38
-0.17278001 -0.092366666 1.141 1.08906e-38
-0.17015809 -0.092123814 1.138 1.1628165e-38
-0.16799048 -0.092123814 1.138 1.4202784e-38
-0.16625999 -0.092366666 1.141 1.6784261e-38
-0.16408667 -0.092366666 1.141 1.7334576e-38
-0.16191334 -0.092366666 1.141 1.5675055e-38
-0.15974 -0.092366666 1.141 1.1718919e-38
-0.15756667 -0.092366666 1.141 7.1091374e-39
-0.15539335 -0.092366666 1.141 3.9006488e-39
-0.15322001 -0.092366666 1.141 4.3616269e-39
-0.15104666 -0.092366666 1.141 5.3707594e-39
-0.14887333 -0.092366666 1.141 4.3566075e-39
-0.14669999 -0.092366666 1.141 1.2449923e-38
-0.14452668 -0.092366666 1.141 1.6414335e-38
-0.1428524 -0.09269049 1.1450001 1.6038787e-38
-0.14116286 -0.093014285 1.149 9.4007018e-39
-0.13945809 -0.093338095 1.153 7.6558274e-39
-0.1372619 -0.093338095 1.153 7.9324143e-39
-0.13553429 -0.093661912 1.1570001 8.7585848e-39
-0.13333048 -0.093661912 1.1570001 1.1893236e-38
-0.13067333 -0.093338095 1.153 1.1801731e-38
-0.12847714 -0.093338095 1.153 1.1525145e-38
-0.12628095 -0.093338095 1.153 1.3182145e-38
-0.20605619 -0.091458097 1.1570001 1.0882681e-38
-0.20385239 -0.091458097 1.1570001 4.521183e-39
-0.20164859 -0.091458097 1.1570001 4.9893092e-39
-0.19944477 -0.091458097 1.1570001 7.4785912e-39
-0.19724096 -0.091458097 1.1570001 7.6515184e-39
-0.19503716 -0.091458097 1.1570001 7.1905403e-39
-0.19216666 -0.091141902 1.153 6.9153505e-39
-0.18997046 -0.091141902 1.153 8.5748718e-39
-0.18777429 -0.091141902 1.153 1.1893208e-38
-0.1849343 -0.090825714 1.149 1.5673229e-38
-0.18210953 -0.090509534 1.1450001 1.30075e-38
