# .PCD v0.7 - Point Cloud Data file format
VERSION 0.7
FIELDS x y z rgb
SIZE 4 4 4 4
TYPE F F F F
COUNT 1 1 1 1
WIDTH 1013
HEIGHT 1
VIEWPOINT 0 0 0 1 0 0 0
POINTS 1013
DATA ascii
-0.027694287 -0.11180286 1.077 2.0460541e-38
-0.025642859 -0.11180286 1.077 2.1382497e-38
-0.02350381 -0.11138763 1.0730001 2.2029665e-38
-0.021400001 -0.11107619 1.0700001 2.1753078e-38
-0.019361906 -0.11107619 1.0700001 2.1568984e-38
-0.10730001 -0.10934381 1.0730001 1.8159996e-38
-0.10525619 -0.10934381 1.0730001 1.8340016e-38
-0.10359714 -0.10975143 1.077 1.8524408e-38
-0.10154571 -0.10975143 1.077 1.843259e-38
-0.099771433 -0.11005715 1.08 1.8156003e-38
-0.098076202 -0.11046477 1.0840001 1.7879767e-38
-0.096011437 -0.11046477 1.0840001 1.7787571e-38
-0.094206668 -0.11077047 1.087 1.7970881e-38
-0.092136197 -0.11077047 1.087 1.7970881e-38
-0.09006571 -0.11077047 1.087 1.7878698e-38
-0.088561907 -0.11148382 1.0940001 1.8063089e-38
-0.086478107 -0.11148382 1.0940001 1.7510631e-38
-0.084625714 -0.11178952 1.097 1.7418436e-38
-0.082536191 -0.11178952 1.097 1.7325511e-38
-0.080446668 -0.11178952 1.097 1.7509903e-38
-0.07864286 -0.11219715 1.1010001 1.7325161e-38
-0.076545723 -0.11219715 1.1010001 1.7601748e-38
-0.074178092 -0.11178952 1.097 1.7234763e-38
-0.072088569 -0.11178952 1.097 1.7050372e-38
-0.069999047 -0.11178952 1.097 1.7142555e-38
-0.067909524 -0.11178952 1.097 1.7419142e-38
-0.065820001 -0.11178952 1.097 1.7601751e-38
-0.063730478 -0.11178952 1.097 1.7970533e-38
-0.061640952 -0.11178952 1.097 1.7879404e-38
-0.059551429 -0.11178952 1.097 1.7510621e-38
-0.057461902 -0.11178952 1.097 1.732588e-38
-0.05537238 -0.11178952 1.097 1.7418075e-38
-0.053282857 -0.11178952 1.097 1.7510268e-38
-0.05119333 -0.11178952 1.097 1.852442e-38
-0.049103811 -0.11178952 1.097 1.8983956e-38
-0.047014289 -0.11178952 1.097 1.953713e-38
-0.044801909 -0.11148382 1.0940001 1.9445658e-38
-0.042718098 -0.11148382 1.0940001 1.9630049e-38
-0.040485717 -0.11107619 1.09 1.9353818e-38
-0.038409524 -0.11107619 1.09 2.0275774e-38
-0.036233336 -0.11077047 1.087 2.0183588e-38
-0.034068573 -0.11046477 1.0840001 2.0552371e-38
-0.031797145 -0.10975143 1.077 2.0552385e-38
-0.029745713 -0.10975143 1.077 2.0644581e-38
-0.027694287 -0.10975143 1.077 2.0828245e-38
-0.025642859 -0.10975143 1.077 2.1750201e-38
-0.023438096 -0.1090381 1.0700001 2.1938209e-38
-0.021340001 -0.10873239 1.067 2.0924057e-38
-0.01923524 -0.10832477 1.0630001 1.8435449e-38
-0.017210476 -0.10832477 1.0630001 1.5485189e-38
-0.015185716 -0.10832477 1.0630001 1.6036558e-38
-0.10730001 -0.10730001 1.0730001 2.0278332e-38
-0.10525619 -0.10730001 1.0730001 1.9077974e-38
-0.10321239 -0.10730001 1.0730001 1.8985778e-38
-0.10154571 -0.1077 1.077 1.8431885e-38
-0.099771433 -0.108 1.08 1.7970907e-38
-0.098076202 -0.10840001 1.0840001 1.7787218e-38
-0.096011437 -0.10840001 1.0840001 1.7695022e-38
-0.094206668 -0.1087 1.087 1.7786142e-38
-0.092136197 -0.1087 1.087 1.7878338e-38
-0.09006571 -0.1087 1.087 1.7878345e-38
-0.088561907 -0.10940001 1.0940001 1.8062736e-38
-0.086478107 -0.10940001 1.0940001 1.7971612e-38
-0.084625714 -0.10969999 1.097 1.7879417e-38
-0.082536191 -0.10969999 1.097 1.7787218e-38
-0.080446668 -0.10969999 1.097 1.7787218e-38
-0.07864286 -0.11010001 1.1010001 1.7787218e-38
-0.076545723 -0.11010001 1.1010001 1.7879414e-38
-0.074178092 -0.10969999 1.097 1.7602474e-38
-0.072088569 -0.10969999 1.097 1.7786865e-38
-0.069999047 -0.10969999 1.097 1.7878685e-38
-0.067909524 -0.10969999 1.097 1.8431859e-38
-0.065820001 -0.10969999 1.097 1.7785789e-38
-0.063730478 -0.10969999 1.097 1.8062376e-38
-0.061640952 -0.10969999 1.097 1.7970881e-38
-0.059551429 -0.10969999 1.097 1.8247468e-38
-0.057671431 -0.11010001 1.1010001 1.7879414e-38
-0.05557429 -0.11010001 1.1010001 1.7879414e-38
-0.053477146 -0.11010001 1.1010001 1.7787218e-38
-0.051380005 -0.11010001 1.1010001 1.8432588e-38
-0.049103811 -0.10969999 1.097 1.8524417e-38
-0.047014289 -0.10969999 1.097 1.9538569e-38
-0.044801909 -0.10940001 1.0940001 1.9538209e-38
-0.042718098 -0.10940001 1.0940001 1.9814796e-38
-0.040485717 -0.109 1.09 2.0275771e-38
-0.038409524 -0.109 1.09 2.0460163e-38
-0.036233336 -0.1087 1.087 2.0828242e-38
-0.034068573 -0.10840001 1.0840001 2.1842394e-38
-0.031797145 -0.1077 1.077 2.156617e-38
-0.029745713 -0.1077 1.077 2.1658365e-38
-0.027694287 -0.1077 1.077 2.0460552e-38
-0.025642859 -0.1077 1.077 2.0183965e-38
-0.023372382 -0.1067 1.067 1.8986144e-38
-0.021260001 -0.1063 1.0630001 1.7879796e-38
-0.019180954 -0.106 1.0600001 1.6865587e-38
-0.017161906 -0.106 1.0600001 1.5574848e-38
-0.015142857 -0.106 1.0600001 1.5852157e-38
-0.10730001 -0.10525619 1.0730001 2.0737861e-38
-0.10525619 -0.10525619 1.0730001 2.0276161e-38
-0.10321239 -0.10525619 1.0730001 1.94464e-38
-0.10154571 -0.10564857 1.077 1.9537486e-38
-0.099771433 -0.10594286 1.08 1.8892117e-38
-0.098076202 -0.10633525 1.0840001 1.8157067e-38
-0.096011437 -0.10633525 1.0840001 1.7972676e-38
-0.094206668 -0.10662952 1.087 1.8153127e-38
-0.092136197 -0.10662952 1.087 1.8153127e-38
-0.09006571 -0.10662952 1.087 1.7877965e-38
-0.088561907 -0.1073162 1.0940001 1.8246747e-38
-0.086478107 -0.1073162 1.0940001 1.7879417e-38
-0.084625714 -0.10761047 1.097 1.7787221e-38
-0.082837142 -0.10800286 1.1010001 1.7787218e-38
-0.080740005 -0.10800286 1.1010001 1.7695022e-38
-0.07864286 -0.10800286 1.1010001 1.7695025e-38
-0.076545723 -0.10800286 1.1010001 1.7695025e-38
-0.074448578 -0.10800286 1.1010001 1.7601745e-38
-0.072351426 -0.10800286 1.1010001 1.7786136e-38
-0.069999047 -0.10761047 1.097 1.806199e-38
-0.067909524 -0.10761047 1.097 1.8246382e-38
-0.065820001 -0.10761047 1.097 1.7877243e-38
-0.063730478 -0.10761047 1.097 1.8061634e-38
-0.061640952 -0.10761047 1.097 1.7877959e-38
-0.059551429 -0.10761047 1.097 1.8154546e-38
-0.057671431 -0.10800286 1.1010001 1.7879035e-38
-0.05557429 -0.10800286 1.1010001 1.7971231e-38
-0.053477146 -0.10800286 1.1010001 1.7879061e-38
-0.051380005 -0.10800286 1.1010001 1.8340039e-38
-0.049103811 -0.10761047 1.097 1.8248186e-38
-0.047014289 -0.10761047 1.097 1.9262338e-38
-0.044801909 -0.1073162 1.0940001 1.9261985e-38
-0.042718098 -0.1073162 1.0940001 1.9815159e-38
-0.040485717 -0.10692381 1.09 2.0276856e-38
-0.038409524 -0.10692381 1.09 2.0461247e-38
-0.036233336 -0.10662952 1.087 2.1379976e-38
-0.03416286 -0.10662952 1.087 2.1656563e-38
-0.031885713 -0.10594286 1.08 2.1196685e-38
-0.029745713 -0.10564857 1.077 2.0827903e-38
-0.027694287 -0.10564857 1.077 2.0185033e-38
-0.025642859 -0.10564857 1.077 1.9355272e-38
-0.023372382 -0.10466762 1.067 1.7789026e-38
-0.021200001 -0.10398096 1.0600001 1.7235852e-38
-0.019072382 -0.10339238 1.054 1.5391178e-38
-0.017064763 -0.10339238 1.054 1.5759961e-38
-0.015057143 -0.10339238 1.054 1.5943999e-38
-0.10359714 -0.10359714 1.077 2.1198486e-38
-0.10154571 -0.10359714 1.077 2.1106601e-38
-0.099771433 -0.10388572 1.08 2.1198797e-38
-0.098076202 -0.10427048 1.0840001 2.0738538e-38
-0.096277148 -0.10455905 1.087 2.0185364e-38
-0.094206668 -0.10455905 1.087 1.9538596e-38
-0.092136197 -0.10455905 1.087 1.9262009e-38
-0.09006571 -0.10455905 1.087 1.916978e-38
-0.088561907 -0.10523239 1.0940001 1.9077584e-38
-0.086478107 -0.10523239 1.0940001 1.9352742e-38
-0.084625714 -0.10552095 1.097 1.9076155e-38
-0.082837142 -0.10590572 1.1010001 1.9075789e-38
-0.080740005 -0.10590572 1.1010001 1.8983593e-38
-0.07864286 -0.10590572 1.1010001 1.8706303e-38
-0.076545723 -0.10590572 1.1010001 1.8521912e-38
-0.074448578 -0.10590572 1.1010001 1.8613389e-38
-0.072351426 -0.10590572 1.1010001 1.8982171e-38
-0.070254289 -0.10590572 1.1010001 1.9444562e-38
-0.068157144 -0.10590572 1.1010001 1.9536757e-38
-0.066060007 -0.10590572 1.1010001 1.9444206e-38
-0.063962862 -0.10590572 1.1010001 1.935201e-38
-0.061865721 -0.10590572 1.1010001 1.9721149e-38
-0.059551429 -0.10552095 1.097 1.9721149e-38
-0.057461902 -0.10552095 1.097 1.9630029e-38
-0.05557429 -0.10590572 1.1010001 1.9722225e-38
-0.053477146 -0.10590572 1.1010001 1.9630792e-38
-0.051380005 -0.10590572 1.1010001 2.0183965e-38
-0.045746669 -0.098306671 1.0220001 2.009138e-38
-0.0438 -0.098306671 1.0220001 2.0183576e-38
-0.041853335 -0.098306671 1.0220001 2.0183576e-38
-0.039906669 -0.098306671 1.0220001 2.0183576e-38
-0.03796 -0.098306671 1.0220001 2.0000264e-38
-0.036013335 -0.098306671 1.0220001 1.9908068e-38
-0.03406667 -0.098306671 1.0220001 1.9998461e-38
-0.03416286 -0.10455905 1.087 1.9537483e-38
-0.032092378 -0.10455905 1.087 1.8062762e-38
-0.030021906 -0.10455905 1.087 1.769398e-38
-0.02777143 -0.10388572 1.08 1.6220248e-38
-0.025000002 -0.10100001 1.0500001 1.6128053e-38
-0.023000002 -0.10100001 1.0500001 1.6220608e-38
-0.021000002 -0.10100001 1.0500001 1.6128413e-38
-0.019000001 -0.10100001 1.0500001 1.6035489e-38
-0.017000001 -0.10100001 1.0500001 1.5943293e-38
-0.015000001 -0.10100001 1.0500001 1.5758186e-38
-0.10182858 -0.10182858 1.08 2.0370143e-38
-0.099771433 -0.10182858 1.08 2.0831121e-38
-0.098076202 -0.10220572 1.0840001 2.1014078e-38
-0.096277148 -0.10248857 1.087 1.9999926e-38
-0.094206668 -0.10248857 1.087 1.9539325e-38
-0.092136197 -0.10248857 1.087 1.9078346e-38
-0.08492858 -0.096642859 1.0250001 1.9538938e-38
-0.082733333 -0.096360005 1.0220001 1.9631134e-38
-0.080786668 -0.096360005 1.0220001 2.0458383e-38
-0.078840002 -0.096360005 1.0220001 1.9905209e-38
-0.082837142 -0.10380858 1.1010001 1.9996676e-38
-0.080740005 -0.10380858 1.1010001 1.9904481e-38
-0.07864286 -0.10380858 1.1010001 2.0180714e-38
-0.076545723 -0.10380858 1.1010001 2.0088519e-38
-0.074448578 -0.10380858 1.1010001 1.9627884e-38
-0.072351426 -0.10380858 1.1010001 1.972008e-38
-0.070254289 -0.10380858 1.1010001 1.9904471e-38
-0.068157144 -0.10380858 1.1010001 1.9996666e-38
-0.060600001 -0.095228568 1.01 2.0548761e-38
-0.05850191 -0.094945721 1.0070001 2.0640957e-38
-0.056583814 -0.094945721 1.0070001 2.101156e-38
-0.054665718 -0.094945721 1.0070001 2.0919364e-38
-0.053061903 -0.095511429 1.013 2.0922259e-38
-0.051132381 -0.095511429 1.013 1.963152e-38
-0.049348574 -0.095794283 1.016 1.9906648e-38
-0.047553334 -0.096077144 1.0190001 1.9906648e-38
-0.045746669 -0.096360005 1.0220001 1.9261282e-38
-0.0438 -0.096360005 1.0220001 1.9445673e-38
-0.041853335 -0.096360005 1.0220001 1.990556e-38
-0.039906669 -0.096360005 1.0220001 1.9721168e-38
-0.03796 -0.096360005 1.0220001 1.8894282e-38
-0.036013335 -0.096360005 1.0220001 1.870989e-38
-0.03406667 -0.096360005 1.0220001 1.7789753e-38
-0.032214291 -0.096642859 1.0250001 1.7236579e-38
-0.030261908 -0.096642859 1.0250001 1.6776284e-38
-0.028475238 -0.097208567 1.031 1.6868479e-38
-0.027000003 -0.099000007 1.0500001 1.474835e-38
-0.025000002 -0.099000007 1.0500001 1.4840545e-38
-0.023000002 -0.099000007 1.0500001 1.5390472e-38
-0.021000002 -0.099000007 1.0500001 1.6128037e-38
-0.019000001 -0.099000007 1.0500001 1.59447e-38
-0.017000001 -0.099000007 1.0500001 1.5668113e-38
-0.015000001 -0.099000007 1.0500001 1.5852122e-38
-0.097491436 -0.095521905 1.034 1.769501e-38
-0.095521905 -0.095521905 1.034 1.8155988e-38
-0.093552381 -0.095521905 1.034 1.7786502e-38
-0.096277148 -0.1004181 1.087 1.7602111e-38
-0.094206668 -0.1004181 1.087 1.7234424e-38
-0.087135233 -0.094967619 1.028 1.6957837e-38
-0.08492858 -0.094690487 1.0250001 1.6868151e-38
-0.082733333 -0.09441334 1.0220001 1.7236934e-38
-0.080786668 -0.09441334 1.0220001 1.8157436e-38
-0.078840002 -0.09441334 1.0220001 1.8341827e-38
-0.077119052 -0.094690487 1.0250001 1.8708458e-38
-0.074946672 -0.09441334 1.0220001 1.8800654e-38
-0.073000006 -0.09441334 1.0220001 1.9261269e-38
-0.071053334 -0.09441334 1.0220001 1.9537856e-38
-0.074448578 -0.10171143 1.1010001 1.9076502e-38
-0.072351426 -0.10171143 1.1010001 1.8984307e-38
-0.06502191 -0.094136193 1.0190001 1.8799918e-38
-0.063080952 -0.094136193 1.0190001 1.8707723e-38
-0.060600001 -0.093304761 1.01 1.8706653e-38
-0.05850191 -0.093027629 1.0070001 1.8614458e-38
-0.056583814 -0.093027629 1.0070001 1.8614108e-38
-0.054665718 -0.093027629 1.0070001 1.8798499e-38
-0.053061903 -0.093581907 1.013 1.8430829e-38
-0.051132381 -0.093581907 1.013 1.7969851e-38
-0.049348574 -0.093859047 1.016 1.7786845e-38
-0.047553334 -0.094136193 1.0190001 1.7971237e-38
-0.045746669 -0.09441334 1.0220001 1.7511e-38
-0.0438 -0.09441334 1.0220001 1.6957826e-38
-0.041853335 -0.09441334 1.0220001 1.5574892e-38
-0.039906669 -0.09441334 1.0220001 1.5482696e-38
-0.03796 -0.09441334 1.0220001 1.5483056e-38
-0.036013335 -0.09441334 1.0220001 1.7050382e-38
-0.03406667 -0.09441334 1.0220001 1.6499369e-38
-0.032214291 -0.094690487 1.0250001 1.37335e-38
-0.030350477 -0.094967619 1.028 1.4378497e-38
-0.028475238 -0.095244765 1.031 1.7974126e-38
-0.026922857 -0.096722864 1.0470001 1.7144733e-38
-0.024928572 -0.096722864 1.0470001 1.6407168e-38
-0.022934286 -0.096722864 1.0470001 1.658976e-38
-0.020940002 -0.096722864 1.0470001 2.1660519e-38
-0.019000001 -0.097000003 1.0500001 2.2121129e-38
-0.017000001 -0.097000003 1.0500001 2.2489911e-38
-0.015000001 -0.097000003 1.0500001 2.2397703e-38
-0.10241143 -0.094457142 1.044 1.3736008e-38
-0.10013428 -0.094185717 1.041 1.5579921e-38
-0.097491436 -0.093552381 1.034 1.7326983e-38
-0.095521905 -0.093552381 1.034 1.6773809e-38
-0.093280949 -0.093280949 1.031 1.6496832e-38
-0.091051422 -0.093009517 1.028 1.6957811e-38
-0.089093328 -0.093009517 1.028 1.6775601e-38
-0.087135233 -0.093009517 1.028 1.6314623e-38
-0.08492858 -0.092738099 1.0250001 1.4657614e-38
-0.0829762 -0.092738099 1.0250001 1.3920049e-38
-0.080786668 -0.092466667 1.0220001 1.3828194e-38
-0.078840002 -0.092466667 1.0220001 1.5026737e-38
-0.077119052 -0.092738099 1.0250001 1.6129858e-38
-0.074946672 -0.092466667 1.0220001 1.649864e-38
-0.073000006 -0.092466667 1.0220001 1.6957457e-38
-0.071053334 -0.092466667 1.0220001 1.6680871e-38
-0.069106668 -0.092466667 1.0220001 1.6405356e-38
-0.067160003 -0.092466667 1.0220001 1.6405356e-38
-0.06502191 -0.092195243 1.0190001 1.6405719e-38
-0.063080952 -0.092195243 1.0190001 1.5391567e-38
-0.061140005 -0.092195243 1.0190001 1.5574498e-38
-0.058850475 -0.091652378 1.013 1.5205715e-38
-0.056920953 -0.091652378 1.013 1.5113888e-38
-0.054991428 -0.091652378 1.013 1.6773409e-38
-0.053219046 -0.091923811 1.016 1.7141891e-38
-0.05143524 -0.092195243 1.0190001 1.5943348e-38
-0.049494285 -0.092195243 1.0190001 1.5942933e-38
-0.047693335 -0.092466667 1.0220001 1.6403911e-38
-0.045746669 -0.092466667 1.0220001 1.6684117e-38
-0.0438 -0.092466667 1.0220001 1.5946552e-38
-0.041976195 -0.092738099 1.0250001 1.4011866e-38
-0.040023815 -0.092738099 1.0250001 1.3827475e-38
-0.038071431 -0.092738099 1.0250001 1.4561806e-38
-0.036119051 -0.092738099 1.0250001 1.6958892e-38
-0.034166671 -0.092738099 1.0250001 1.6407533e-38
-0.032214291 -0.092738099 1.0250001 1.1797752e-38
-0.030350477 -0.093009517 1.028 1.3085154e-38
-0.028475238 -0.093280949 1.031 1.7326153e-38
-0.026691431 -0.093914293 1.0380001 1.7604635e-38
-0.024928572 -0.094728574 1.0470001 1.5852918e-38
-0.022934286 -0.094728574 1.0470001 1.6403933e-38
-0.020940002 -0.094728574 1.0470001 2.2673236e-38
-0.018945716 -0.094728574 1.0470001 2.30431e-38
-0.017000001 -0.095000006 1.0500001 2.3135296e-38
-0.1044 -0.092468575 1.044 1.3457986e-38
-0.10211714 -0.092202857 1.041 1.4104075e-38
-0.10013428 -0.092202857 1.041 1.7515313e-38
-0.097491436 -0.091582857 1.034 1.7512076e-38
-0.095521905 -0.091582857 1.034 1.3916446e-38
-0.093280949 -0.091317147 1.031 1.4007888e-38
-0.091051422 -0.091051422 1.028 1.4376671e-38
-0.089093328 -0.091051422 1.028 1.4928467e-38
-0.087135233 -0.091051422 1.028 1.6680184e-38
-0.085177138 -0.091051422 1.028 1.5394075e-38
-0.0829762 -0.090785727 1.0250001 1.3089184e-38
-0.080786668 -0.090520002 1.0220001 1.3182148e-38
-0.078840002 -0.090520002 1.0220001 1.502606e-38
-0.076893337 -0.090520002 1.0220001 1.6313876e-38
-0.074946672 -0.090520002 1.0220001 1.5945094e-38
-0.073000006 -0.090520002 1.0220001 1.4932043e-38
-0.071053334 -0.090520002 1.0220001 1.4747652e-38
-0.069106668 -0.090520002 1.0220001 1.5483059e-38
-0.067160003 -0.090520002 1.0220001 1.6497211e-38
-0.065213338 -0.090520002 1.0220001 1.5852182e-38
-0.063080952 -0.090254292 1.0190001 1.2164357e-38
-0.061140005 -0.090254292 1.0190001 1.1889559e-38
-0.058850475 -0.089722857 1.013 1.2073951e-38
-0.056920953 -0.089722857 1.013 1.4285216e-38
-0.054991428 -0.089722857 1.013 1.6590107e-38
-0.053219046 -0.089988574 1.016 1.6037689e-38
-0.05143524 -0.090254292 1.0190001 1.3179624e-38
-0.049640004 -0.090520002 1.0220001 1.2812592e-38
-0.047693335 -0.090520002 1.0220001 1.2996983e-38
-0.045746669 -0.090520002 1.0220001 1.4563971e-38
-0.043928575 -0.090785727 1.0250001 1.6500079e-38
-0.041976195 -0.090785727 1.0250001 1.649899e-38
-0.040023815 -0.090785727 1.0250001 1.5945817e-38
-0.038071431 -0.090785727 1.0250001 1.5853292e-38
-0.036119051 -0.090785727 1.0250001 1.5853292e-38
-0.034266666 -0.091051422 1.028 1.5116406e-38
-0.032308571 -0.091051422 1.028 1.1612972e-38
-0.030350477 -0.091051422 1.028 1.1980681e-38
-0.028558096 -0.091582857 1.034 1.4654355e-38
-0.026691431 -0.091937155 1.0380001 1.5210059e-38
-0.024928572 -0.092734285 1.0470001 1.456469e-38
-0.022934286 -0.092734285 1.0470001 1.6221001e-38
-0.020940002 -0.092734285 1.0470001 2.2859086e-38
-0.018945716 -0.092734285 1.0470001 2.3137102e-38
-0.017000001 -0.09300001 1.0500001 2.2952711e-38
-0.1044 -0.090480007 1.044 1.3458735e-38
-0.10211714 -0.090220004 1.041 1.2443462e-38
-0.10013428 -0.090220004 1.041 1.7422026e-38
-0.097491436 -0.089613333 1.034 1.7328071e-38
-0.095521905 -0.089613333 1.034 1.1704138e-38
-0.093280949 -0.08935333 1.031 1.207143e-38
-0.091317147 -0.08935333 1.031 1.2163625e-38
-0.08935333 -0.08935333 1.031 1.4926257e-38
-0.087389529 -0.08935333 1.031 1.6401387e-38
-0.085177138 -0.089093328 1.028 1.6405719e-38
-0.083219044 -0.089093328 1.028 1.4377415e-38
-0.081023812 -0.08883334 1.0250001 1.2719722e-38
-0.07907144 -0.08883334 1.0250001 1.5854374e-38
-0.076893337 -0.088573337 1.0220001 1.6498643e-38
-0.074946672 -0.088573337 1.0220001 1.4378143e-38
-0.073000006 -0.088573337 1.0220001 1.3550538e-38
-0.071053334 -0.088573337 1.0220001 1.3181755e-38
-0.069106668 -0.088573337 1.0220001 1.4653273e-38
-0.067160003 -0.088573337 1.0220001 1.5575229e-38
-0.065213338 -0.088573337 1.0220001 1.5759633e-38
-0.063266672 -0.088573337 1.0220001 1.244059e-38
-0.061319999 -0.088573337 1.0220001 1.1429278e-38
-0.059373334 -0.088573337 1.0220001 1.2443429e-38
-0.057426669 -0.088573337 1.0220001 1.4653283e-38
-0.055317145 -0.088313334 1.0190001 1.6405e-38
-0.05337619 -0.088313334 1.0190001 1.5210446e-38
-0.05143524 -0.088313334 1.0190001 9.8630995e-39
-0.049640004 -0.088573337 1.0220001 8.9436179e-39
-0.047693335 -0.088573337 1.0220001 9.2202048e-39
-0.045880955 -0.08883334 1.0250001 1.3455446e-38
-0.043928575 -0.08883334 1.0250001 1.5575945e-38
-0.041976195 -0.08883334 1.0250001 1.7234407e-38
-0.040023815 -0.08883334 1.0250001 1.7234407e-38
-0.038071431 -0.08883334 1.0250001 1.6314651e-38
-0.036119051 -0.08883334 1.0250001 1.4286347e-38
-0.034266666 -0.089093328 1.028 1.3456184e-38
-0.032308571 -0.089093328 1.028 1.1796663e-38
-0.030350477 -0.089093328 1.028 1.1612275e-38
-0.028558096 -0.089613333 1.034 1.4470339e-38
-0.026691431 -0.089960009 1.0380001 1.4383185e-38
-0.024928572 -0.09074001 1.0470001 1.3830011e-38
-0.022934286 -0.09074001 1.0470001 1.6314636e-38
-0.020940002 -0.09074001 1.0470001 2.3044917e-38
-0.018945716 -0.09074001 1.0470001 2.2953437e-38
-0.1044 -0.088491425 1.044 1.39197e-38
-0.10241143 -0.088491425 1.044 1.1615933e-38
-0.10013428 -0.088237144 1.041 1.4566193e-38
-0.097868577 -0.087982871 1.0380001 1.520899e-38
-0.095521905 -0.08764381 1.034 1.1244578e-38
-0.093552381 -0.08764381 1.034 1.1334279e-38
-0.091317147 -0.087389529 1.031 1.1242084e-38
-0.08935333 -0.087389529 1.031 1.2716086e-38
-0.087389529 -0.087389529 1.031 1.4928781e-38
-0.085425712 -0.087389529 1.031 1.6035501e-38
-0.083219044 -0.087135233 1.028 1.7510631e-38
-0.081023812 -0.08688096 1.0250001 1.6499363e-38
-0.07907144 -0.08688096 1.0250001 1.5946189e-38
-0.076893337 -0.086626671 1.0220001 1.4656895e-38
-0.074946672 -0.086626671 1.0220001 1.2167613e-38
-0.073000006 -0.086626671 1.0220001 1.1526197e-38
-0.071053334 -0.086626671 1.0220001 1.1434001e-38
-0.069106668 -0.086626671 1.0220001 1.2444544e-38
-0.067160003 -0.086626671 1.0220001 1.3458695e-38
-0.065213338 -0.086626671 1.0220001 1.410158e-38
-0.063266672 -0.086626671 1.0220001 1.5668906e-38
-0.061319999 -0.086626671 1.0220001 1.576105e-38
-0.059373334 -0.086626671 1.0220001 1.6406419e-38
-0.057426669 -0.086626671 1.0220001 1.5024233e-38
-0.055480003 -0.086626671 1.0220001 1.2903734e-38
-0.053533334 -0.086626671 1.0220001 9.9578161e-39
-0.051586669 -0.086626671 1.0220001 7.7451209e-39
-0.049640004 -0.086626671 1.0220001 7.3806796e-39
-0.047693335 -0.086626671 1.0220001 7.4728753e-39
-0.045880955 -0.08688096 1.0250001 8.9447333e-39
-0.043928575 -0.08688096 1.0250001 1.0604255e-38
-0.041976195 -0.08688096 1.0250001 1.5299005e-38
-0.040140949 -0.087135233 1.028 1.8249265e-38
-0.038182855 -0.087135233 1.028 1.6497578e-38
-0.03622476 -0.087135233 1.028 1.1887796e-38
-0.034366667 -0.087389529 1.031 1.1612646e-38
-0.032402854 -0.087389529 1.031 1.1704841e-38
-0.03052762 -0.08764381 1.034 1.1980352e-38
-0.028668575 -0.087982871 1.0380001 1.4746221e-38
-0.026768571 -0.088237144 1.041 1.4472881e-38
-0.025000002 -0.089000002 1.0500001 1.4472881e-38
-0.023000002 -0.089000002 1.0500001 1.6960005e-38
-0.021000002 -0.089000002 1.0500001 2.3413699e-38
-0.019072382 -0.089339048 1.054 2.3045986e-38
-0.10470001 -0.086751431 1.0470001 1.4012256e-38
-0.10241143 -0.086502858 1.044 1.1248859e-38
-0.10013428 -0.086254284 1.041 1.3461554e-38
-0.097868577 -0.086005718 1.0380001 1.4103736e-38
-0.095521905 -0.085674286 1.034 1.1522258e-38
-0.093552381 -0.085674286 1.034 1.124279e-38
-0.091317147 -0.085425712 1.031 1.1334986e-38
-0.08935333 -0.085425712 1.031 1.1519691e-38
-0.087389529 -0.085425712 1.031 1.2626038e-38
-0.085425712 -0.085425712 1.031 1.5205012e-38
-0.083461903 -0.085425712 1.031 1.8247468e-38
-0.081023812 -0.08492858 1.0250001 1.7420267e-38
-0.07907144 -0.08492858 1.0250001 1.5207572e-38
-0.077119052 -0.08492858 1.0250001 1.2816584e-38
-0.075166672 -0.08492858 1.0250001 1.143365e-38
-0.073000006 -0.084680006 1.0220001 1.0881907e-38
-0.071053334 -0.084680006 1.0220001 1.1066298e-38
-0.069106668 -0.084680006 1.0220001 1.1157752e-38
-0.067160003 -0.084680006 1.0220001 1.1434339e-38
-0.065213338 -0.084680006 1.0220001 1.2904084e-38
-0.063266672 -0.084680006 1.0220001 1.5854344e-38
-0.061319999 -0.084680006 1.0220001 1.6496835e-38
-0.059373334 -0.084680006 1.0220001 1.6589031e-38
-0.057426669 -0.084680006 1.0220001 1.4748728e-38
-0.055480003 -0.084680006 1.0220001 9.4935771e-39
-0.053533334 -0.084680006 1.0220001 8.3007988e-39
-0.051586669 -0.084680006 1.0220001 7.5632338e-39
-0.049640004 -0.084680006 1.0220001 6.9229287e-39
-0.047833338 -0.08492858 1.0250001 7.1995156e-39
-0.045880955 -0.08492858 1.0250001 6.9246957e-39
-0.043928575 -0.08492858 1.0250001 6.6481088e-39
-0.041976195 -0.08492858 1.0250001 1.1892086e-38
-0.040140949 -0.085177138 1.028 1.6409672e-38
-0.038182855 -0.085177138 1.028 1.6313199e-38
-0.036330476 -0.085425712 1.031 1.1795613e-38
-0.034366667 -0.085425712 1.031 1.1612615e-38
-0.032402854 -0.085425712 1.031 1.1981398e-38
-0.03052762 -0.085674286 1.034 1.216508e-38
-0.028668575 -0.086005718 1.0380001 1.5023144e-38
-0.026768571 -0.086254284 1.041 1.4472854e-38
-0.025000002 -0.087000005 1.0500001 1.4749441e-38
-0.023000002 -0.087000005 1.0500001 1.788051e-38
-0.02108 -0.087331429 1.054 2.3504443e-38
-0.019072382 -0.087331429 1.054 2.2768317e-38
-0.017064763 -0.087331429 1.054 2.2860513e-38
-0.10241143 -0.08451429 1.044 1.484341e-38
-0.10013428 -0.084271431 1.041 1.6041953e-38
-0.097868577 -0.084028579 1.0380001 1.6041252e-38
-0.095521905 -0.08370477 1.034 1.1708057e-38
-0.093552381 -0.08370477 1.034 1.0968371e-38
-0.091582857 -0.08370477 1.034 1.1152762e-38
-0.08935333 -0.083461903 1.031 1.1427883e-38
-0.087389529 -0.083461903 1.031 1.1335688e-38
-0.085674286 -0.08370477 1.034 1.2163662e-38
-0.08370477 -0.08370477 1.034 1.7418813e-38
-0.081023812 -0.0829762 1.0250001 1.6316057e-38
-0.07907144 -0.0829762 1.0250001 1.2904818e-38
-0.077119052 -0.0829762 1.0250001 1.1251422e-38
-0.075166672 -0.0829762 1.0250001 1.1435813e-38
-0.073000006 -0.082733333 1.0220001 1.1068107e-38
-0.071053334 -0.082733333 1.0220001 1.1252498e-38
-0.069106668 -0.082733333 1.0220001 1.1343588e-38
-0.067160003 -0.082733333 1.0220001 1.1159197e-38
-0.065213338 -0.082733333 1.0220001 1.216868e-38
-0.063266672 -0.082733333 1.0220001 1.4104788e-38
-0.061319999 -0.082733333 1.0220001 1.4656167e-38
-0.059373334 -0.082733333 1.0220001 1.4656167e-38
-0.057426669 -0.082733333 1.0220001 1.2723995e-38
-0.055642862 -0.0829762 1.0250001 8.2064088e-39
-0.053533334 -0.082733333 1.0220001 7.0151243e-39
-0.051586669 -0.082733333 1.0220001 6.8307331e-39
-0.049785718 -0.0829762 1.0250001 6.923279e-39
-0.047833338 -0.0829762 1.0250001 7.3842572e-39
-0.045880955 -0.0829762 1.0250001 6.9250769e-39
-0.043928575 -0.0829762 1.0250001 6.4640987e-39
-0.042099047 -0.083219044 1.028 1.1615156e-38
-0.040140949 -0.083219044 1.028 1.6317133e-38
-0.038182855 -0.083219044 1.028 1.5669233e-38
-0.036330476 -0.083461903 1.031 1.1520429e-38
-0.034366667 -0.083461903 1.031 1.096942e-38
-0.032497145 -0.08370477 1.034 1.1891377e-38
-0.03052762 -0.08370477 1.034 1.2534931e-38
-0.028668575 -0.084028579 1.0380001 1.5853974e-38
-0.026845716 -0.08451429 1.044 1.6776281e-38
-0.025000002 -0.085000008 1.0500001 1.6684085e-38
-0.023087619 -0.085323811 1.054 1.8709903e-38
-0.02108 -0.085323811 1.054 2.3504796e-38
-0.019072382 -0.085323811 1.054 2.2953427e-38
-0.017064763 -0.085323811 1.054 2.2953427e-38
-0.10241143 -0.082525715 1.044 1.6220962e-38
-0.10042286 -0.082525715 1.044 1.7142918e-38
-0.098151423 -0.082288571 1.041 1.6593004e-38
-0.095891438 -0.082051434 1.0380001 1.3642743e-38
-0.093914293 -0.082051434 1.0380001 1.1154557e-38
-0.091582857 -0.081735246 1.034 1.0785775e-38
-0.089613333 -0.081735246 1.034 1.1335685e-38
-0.08764381 -0.081735246 1.034 1.1151294e-38
-0.085674286 -0.081735246 1.034 1.1428574e-38
-0.08370477 -0.081735246 1.034 1.6960312e-38
-0.081498094 -0.081498094 1.031 1.5397361e-38
-0.07907144 -0.081023812 1.0250001 1.1986123e-38
-0.077119052 -0.081023812 1.0250001 1.0699676e-38
-0.075166672 -0.081023812 1.0250001 1.125285e-38
-0.073214293 -0.081023812 1.0250001 1.1069186e-38
-0.071261905 -0.081023812 1.0250001 1.097699e-38
-0.069309533 -0.081023812 1.0250001 1.1160654e-38
-0.067160003 -0.080786668 1.0220001 1.060748e-38
-0.065213338 -0.080786668 1.0220001 1.0881558e-38
-0.063266672 -0.080786668 1.0220001 1.3094253e-38
-0.061319999 -0.080786668 1.0220001 1.3370828e-38
-0.059373334 -0.080786668 1.0220001 1.3463024e-38
-0.057595242 -0.081023812 1.0250001 1.0330542e-38
-0.055642862 -0.081023812 1.0250001 7.4724773e-39
-0.053690478 -0.081023812 1.0250001 6.924358e-39
-0.051738098 -0.081023812 1.0250001 6.924358e-39
-0.049785718 -0.081023812 1.0250001 7.1995058e-39
-0.047833338 -0.081023812 1.0250001 7.1073101e-39
-0.045880955 -0.081023812 1.0250001 5.3602567e-39
-0.043928575 -0.081023812 1.0250001 6.1900174e-39
-0.042099047 -0.081260949 1.028 1.1429685e-38
-0.040140949 -0.081260949 1.028 1.6500445e-38
-0.038182855 -0.081260949 1.028 1.4749473e-38
-0.036330476 -0.081498094 1.031 1.1061648e-38
-0.034466669 -0.081735246 1.034 1.0785357e-38
-0.032497145 -0.081735246 1.034 1.19839e-38
-0.03052762 -0.081735246 1.034 1.2536023e-38
-0.028668575 -0.082051434 1.0380001 1.5394088e-38
-0.026845716 -0.082525715 1.044 1.7235832e-38
-0.025000002 -0.083000004 1.0500001 1.7051441e-38
-0.023087619 -0.083316192 1.054 1.9723329e-38
-0.02108 -0.083316192 1.054 2.350443e-38
-0.019072382 -0.083316192 1.054 2.2768672e-38
-0.017064763 -0.083316192 1.054 2.3045258e-38
-0.015057143 -0.083316192 1.054 2.2861957e-38
-0.10241143 -0.080537148 1.044 1.8713157e-38
-0.10042286 -0.080537148 1.044 1.7145831e-38
-0.098151423 -0.08030571 1.041 1.7053606e-38
-0.095891438 -0.080074295 1.0380001 1.6223845e-38
-0.093914293 -0.080074295 1.0380001 1.2535371e-38
-0.091582857 -0.079765722 1.034 1.0783654e-38
-0.089613333 -0.079765722 1.034 1.1060906e-38
-0.08764381 -0.079765722 1.034 1.1798471e-38
-0.085674286 -0.079765722 1.034 1.271757e-38
-0.08370477 -0.079765722 1.034 1.7603938e-38
-0.081498094 -0.079534285 1.031 1.6592292e-38
-0.079302855 -0.079302855 1.028 1.4656183e-38
-0.07734476 -0.079302855 1.028 1.1527296e-38
-0.075166672 -0.07907144 1.0250001 1.14351e-38
-0.073214293 -0.07907144 1.0250001 1.0976993e-38
-0.071261905 -0.07907144 1.0250001 1.1069189e-38
-0.069309533 -0.07907144 1.0250001 1.0883009e-38
-0.067357145 -0.07907144 1.0250001 1.0514227e-38
-0.065404765 -0.07907144 1.0250001 1.1525142e-38
-0.063452385 -0.07907144 1.0250001 1.3830033e-38
-0.061500005 -0.07907144 1.0250001 1.4565403e-38
-0.059547622 -0.07907144 1.0250001 1.5671751e-38
-0.057595242 -0.07907144 1.0250001 1.2540391e-38
-0.055642862 -0.07907144 1.0250001 7.8384138e-39
-0.053690478 -0.07907144 1.0250001 6.095689e-39
-0.051738098 -0.07907144 1.0250001 6.9254496e-39
-0.049785718 -0.07907144 1.0250001 6.6474208e-39
-0.047833338 -0.07907144 1.0250001 6.2786383e-39
-0.045880955 -0.07907144 1.0250001 7.7508747e-39
-0.043928575 -0.07907144 1.0250001 1.079333e-38
-0.042099047 -0.079302855 1.028 1.3733874e-38
-0.040140949 -0.079302855 1.028 1.7421699e-38
-0.038182855 -0.079302855 1.028 1.7052543e-38
-0.036330476 -0.079534285 1.031 1.4747652e-38
-0.034466669 -0.079765722 1.034 1.2720791e-38
-0.032497145 -0.079765722 1.034 1.2720791e-38
-0.030645715 -0.080074295 1.0380001 1.2904852e-38
-0.028668575 -0.080074295 1.0380001 1.4564373e-38
-0.026845716 -0.080537148 1.044 1.5210047e-38
-0.025000002 -0.081 1.0500001 1.5855416e-38
-0.023087619 -0.081308573 1.054 1.9356342e-38
-0.02108 -0.081308573 1.054 2.3506586e-38
-0.019072382 -0.081308573 1.054 2.3045983e-38
-0.017064763 -0.081308573 1.054 2.2861592e-38
-0.015057143 -0.081308573 1.054 2.2769759e-38
-0.10241143 -0.078548573 1.044 1.9819514e-38
-0.10042286 -0.078548573 1.044 1.6500472e-38
-0.098151423 -0.078322858 1.041 1.6960692e-38
-0.09616857 -0.078322858 1.041 1.6868496e-38
-0.093914293 -0.07809715 1.0380001 1.5208651e-38
-0.091582857 -0.077796191 1.034 1.1059848e-38
-0.089613333 -0.077796191 1.034 1.1611896e-38
-0.08764381 -0.077796191 1.034 1.2810439e-38
-0.085674286 -0.077796191 1.034 1.5570936e-38
-0.08370477 -0.077796191 1.034 1.8060218e-38
-0.081498094 -0.077570483 1.031 1.7143293e-38
-0.079302855 -0.07734476 1.028 1.594475e-38
-0.07734476 -0.07734476 1.028 1.3093186e-38
-0.075166672 -0.077119052 1.0250001 1.1986839e-38
-0.073214293 -0.077119052 1.0250001 1.0330891e-38
-0.071261905 -0.077119052 1.0250001 1.0699673e-38
-0.069309533 -0.077119052 1.0250001 1.0790797e-38
-0.067357145 -0.077119052 1.0250001 1.0882993e-38
-0.065404765 -0.077119052 1.0250001 1.2077602e-38
-0.063452385 -0.077119052 1.0250001 1.4198102e-38
-0.061500005 -0.077119052 1.0250001 1.5483406e-38
-0.059547622 -0.077119052 1.0250001 1.6497558e-38
-0.057595242 -0.077119052 1.0250001 1.3922597e-38
-0.055642862 -0.077119052 1.0250001 9.865989e-39
-0.053690478 -0.077119052 1.0250001 5.6354367e-39
-0.051738098 -0.077119052 1.0250001 6.0042192e-39
-0.049785718 -0.077119052 1.0250001 6.1892831e-39
-0.047833338 -0.077119052 1.0250001 6.0048918e-39
-0.045880955 -0.077119052 1.0250001 9.1305595e-39
-0.043928575 -0.077119052 1.0250001 1.3094972e-38
-0.042099047 -0.07734476 1.028 1.5484135e-38
-0.040258095 -0.077570483 1.031 1.7051461e-38
-0.038294286 -0.077570483 1.031 1.7143663e-38
-0.036436193 -0.077796191 1.034 1.6313903e-38
-0.034466669 -0.077796191 1.034 1.4378864e-38
-0.032497145 -0.077796191 1.034 1.4286668e-38
-0.030645715 -0.07809715 1.0380001 1.45647e-38
-0.028668575 -0.07809715 1.0380001 1.2352005e-38
-0.026845716 -0.078548573 1.044 1.1892729e-38
-0.025000002 -0.079000004 1.0500001 1.5119576e-38
-0.023087619 -0.079300947 1.054 1.908156e-38
-0.02108 -0.079300947 1.054 2.350695e-38
-0.019072382 -0.079300947 1.054 2.3138533e-38
-0.017064763 -0.079300947 1.054 2.2861946e-38
-0.015057143 -0.079300947 1.054 2.267684e-38
-0.10241143 -0.076559998 1.044 1.982023e-38
-0.10042286 -0.076559998 1.044 1.4288493e-38
-0.098151423 -0.076339997 1.041 1.4842359e-38
-0.09616857 -0.076339997 1.041 1.5948706e-38
-0.094185717 -0.076339997 1.041 1.5578126e-38
-0.091937155 -0.076120012 1.0380001 1.4102996e-38
-0.089613333 -0.075826667 1.034 1.5575252e-38
-0.08764381 -0.075826667 1.034 1.7880142e-38
-0.085674286 -0.075826667 1.034 1.7142902e-38
-0.08370477 -0.075826667 1.034 1.4192642e-38
-0.081498094 -0.075606667 1.031 1.5851826e-38
-0.079302855 -0.075386666 1.028 1.6773782e-38
-0.07734476 -0.075386666 1.028 1.4840224e-38
-0.075386666 -0.075386666 1.028 1.4102659e-38
-0.073214293 -0.075166672 1.0250001 1.1526211e-38
-0.071261905 -0.075166672 1.0250001 1.1157428e-38
-0.069309533 -0.075166672 1.0250001 1.1433668e-38
-0.067357145 -0.075166672 1.0250001 1.2908798e-38
-0.065404765 -0.075166672 1.0250001 1.5117508e-38
-0.063452385 -0.075166672 1.0250001 1.5578486e-38
-0.061500005 -0.075166672 1.0250001 1.5853624e-38
-0.059547622 -0.075166672 1.0250001 1.6130211e-38
-0.057595242 -0.075166672 1.0250001 1.5024979e-38
-0.055642862 -0.075166672 1.0250001 1.4932783e-38
-0.053690478 -0.075166672 1.0250001 1.1619521e-38
-0.051738098 -0.075166672 1.0250001 8.3004779e-39
-0.049785718 -0.075166672 1.0250001 7.8441199e-39
-0.047833338 -0.075166672 1.0250001 9.5958368e-39
-0.045880955 -0.075166672 1.0250001 1.2813353e-38
-0.044057142 -0.075386666 1.028 1.60402e-38
-0.042099047 -0.075386666 1.028 1.4932037e-38
-0.040258095 -0.075606667 1.031 1.4010081e-38
-0.038294286 -0.075606667 1.031 1.5485192e-38
-0.036436193 -0.075826667 1.034 1.7329104e-38
-0.034466669 -0.075826667 1.034 1.7050732e-38
-0.032497145 -0.075826667 1.034 1.7050732e-38
-0.030645715 -0.076120012 1.0380001 1.4473939e-38
-0.028751429 -0.076339997 1.041 1.0786114e-38
-0.026845716 -0.076559998 1.044 1.023832e-38
-0.025095237 -0.077293336 1.054 1.3741754e-38
-0.023087619 -0.077293336 1.054 1.8897894e-38
-0.02108 -0.077293336 1.054 2.3507676e-38
-0.019072382 -0.077293336 1.054 2.3046337e-38
-0.017064763 -0.077293336 1.054 2.2861946e-38
-0.015057143 -0.077293336 1.054 2.2769043e-38
-0.10470001 -0.074785717 1.0470001 2.2216577e-38
-0.10270572 -0.074785717 1.0470001 1.9453606e-38
-0.10071143 -0.074785717 1.0470001 1.3645281e-38
-0.098717146 -0.074785717 1.0470001 1.3370828e-38
-0.096445717 -0.074571431 1.044 1.4016198e-38
-0.094457142 -0.074571431 1.044 1.6314972e-38
-0.092202857 -0.074357137 1.041 1.6407168e-38
-0.089960009 -0.074142866 1.0380001 1.6219218e-38
-0.087982871 -0.074142866 1.0380001 1.787874e-38
-0.085674286 -0.073857144 1.034 1.6868175e-38
-0.08370477 -0.073857144 1.034 1.1520829e-38
-0.081498094 -0.073642857 1.031 1.2808281e-38
-0.079534285 -0.073642857 1.031 1.4836585e-38
-0.077570483 -0.073642857 1.031 1.6587962e-38
-0.075386666 -0.073428571 1.028 1.5666005e-38
-0.073428571 -0.073428571 1.028 1.3459085e-38
-0.071470477 -0.073428571 1.028 1.1522977e-38
-0.069309533 -0.073214293 1.0250001 1.1892093e-38
-0.067357145 -0.073214293 1.0250001 1.447357e-38
-0.065404765 -0.073214293 1.0250001 1.5946209e-38
-0.063452385 -0.073214293 1.0250001 1.4747666e-38
-0.061500005 -0.073214293 1.0250001 1.4193389e-38
-0.059547622 -0.073214293 1.0250001 1.5207541e-38
-0.057595242 -0.073214293 1.0250001 1.5943671e-38
-0.055642862 -0.073214293 1.0250001 1.6496845e-38
-0.053690478 -0.073214293 1.0250001 1.5118253e-38
-0.051738098 -0.073214293 1.0250001 1.1153841e-38
-0.049785718 -0.073214293 1.0250001 8.9461164e-39
-0.047833338 -0.073214293 1.0250001 1.1343203e-38
-0.045880955 -0.073214293 1.0250001 1.5482696e-38
-0.044057142 -0.073428571 1.028 1.5759283e-38
-0.042099047 -0.073428571 1.028 1.447286e-38
-0.040258095 -0.073642857 1.031 1.2905534e-38
-0.038294286 -0.073642857 1.031 1.2906238e-38
-0.036436193 -0.073857144 1.034 1.5948694e-38
-0.034466669 -0.073857144 1.034 1.741952e-38
-0.032622863 -0.074142866 1.0380001 1.741952e-38
-0.030645715 -0.074142866 1.0380001 1.429099e-38
-0.028668575 -0.074142866 1.0380001 9.8655994e-39
-0.026922857 -0.074785717 1.0470001 8.6742365e-39
-0.025095237 -0.075285718 1.054 1.4021583e-38
-0.023087619 -0.075285718 1.054 1.898973e-38
-0.02108 -0.075285718 1.054 2.3322924e-38
-0.019072382 -0.075285718 1.054 2.295306e-38
-0.017064763 -0.075285718 1.054 2.295306e-38
-0.015057143 -0.075285718 1.054 2.2769399e-38
-0.10669429 -0.072791435 1.0470001 2.2676836e-38
-0.10470001 -0.072791435 1.0470001 2.2769032e-38
-0.10270572 -0.072791435 1.0470001 2.0188647e-38
-0.10071143 -0.072791435 1.0470001 1.4472518e-38
-0.098717146 -0.072791435 1.0470001 1.3370852e-38
-0.096445717 -0.072582863 1.044 1.3186461e-38
-0.094457142 -0.072582863 1.044 1.5026394e-38
-0.092202857 -0.072374292 1.041 1.7515676e-38
-0.089960009 -0.07216572 1.0380001 1.714296e-38
-0.087982871 -0.07216572 1.0380001 1.5299047e-38
-0.085674286 -0.07188762 1.034 1.2353135e-38
-0.08370477 -0.07188762 1.034 9.0340927e-39
-0.081735246 -0.07188762 1.034 8.9443676e-39
-0.079534285 -0.071679048 1.031 9.9585195e-39
-0.077570483 -0.071679048 1.031 1.3547301e-38
-0.075606667 -0.071679048 1.031 1.6497561e-38
-0.073642857 -0.071679048 1.031 1.5945487e-38
-0.071679048 -0.071679048 1.031 1.4654749e-38
-0.069512382 -0.071470477 1.028 1.5393346e-38
-0.067554288 -0.071470477 1.028 1.594652e-38
-0.065596186 -0.071470477 1.028 1.5208624e-38
-0.063638091 -0.071470477 1.028 1.1797386e-38
-0.061500005 -0.071261905 1.0250001 1.1336408e-38
-0.059547622 -0.071261905 1.0250001 1.0783234e-38
-0.057595242 -0.071261905 1.0250001 1.2900477e-38
-0.055642862 -0.071261905 1.0250001 1.5758542e-38
-0.053690478 -0.071261905 1.0250001 1.53001e-38
-0.051738098 -0.071261905 1.0250001 1.6498643e-38
-0.049785718 -0.071261905 1.0250001 1.557811e-38
-0.047833338 -0.071261905 1.0250001 1.5393719e-38
-0.045880955 -0.071261905 1.0250001 1.5025312e-38
-0.044057142 -0.071470477 1.028 1.3550182e-38
-0.042221904 -0.071679048 1.031 1.2632196e-38
-0.040258095 -0.071679048 1.031 1.2908782e-38
-0.038294286 -0.071679048 1.031 1.2447464e-38
-0.036436193 -0.07188762 1.034 1.3461616e-38
-0.034466669 -0.07188762 1.034 1.5301173e-38
-0.032622863 -0.07216572 1.0380001 1.5854347e-38
-0.030645715 -0.07216572 1.0380001 1.3922918e-38
-0.028668575 -0.07216572 1.0380001 8.6677667e-39
-0.026922857 -0.072791435 1.0470001 9.502942e-39
-0.025095237 -0.073278099 1.054 1.6141027e-38
-0.023087619 -0.073278099 1.054 1.9266317e-38
-0.02108 -0.073278099 1.054 2.3508036e-38
-0.019072382 -0.073278099 1.054 2.3045983e-38
-0.10669429 -0.070797145 1.0470001 2.2861232e-38
-0.10470001 -0.070797145 1.0470001 2.2861232e-38
-0.10270572 -0.070797145 1.0470001 2.0740745e-38
-0.10071143 -0.070797145 1.0470001 1.5116811e-38
-0.098717146 -0.070797145 1.0470001 1.4014411e-38
-0.096445717 -0.070594288 1.044 1.3000259e-38
-0.094457142 -0.070594288 1.044 1.4012933e-38
-0.092468575 -0.070594288 1.044 1.7055389e-38
-0.089960009 -0.070188574 1.0380001 1.6592327e-38
-0.087982871 -0.070188574 1.0380001 1.1982545e-38
-0.086005718 -0.070188574 1.0380001 9.7770121e-39
-0.08370477 -0.069918096 1.034 8.1174908e-39
-0.081735246 -0.069918096 1.034 6.9254244e-39
-0.079765722 -0.069918096 1.034 6.4644463e-39
-0.077570483 -0.069715239 1.031 1.0599529e-38
-0.075606667 -0.069715239 1.031 1.4102963e-38
-0.073642857 -0.069715239 1.031 1.70493e-38
-0.071679048 -0.069715239 1.031 1.6864909e-38
-0.069512382 -0.069512382 1.028 1.6497575e-38
-0.067554288 -0.069512382 1.028 1.5944401e-38
-0.065596186 -0.069512382 1.028 1.3917902e-38
-0.063638091 -0.069512382 1.028 1.059886e-38
-0.06168 -0.069512382 1.028 1.0873991e-38
-0.059721906 -0.069512382 1.028 1.0873991e-38
-0.057595242 -0.069309533 1.0250001 1.1334215e-38
-0.055642862 -0.069309533 1.0250001 1.3362519e-38
-0.053690478 -0.069309533 1.0250001 1.5850008e-38
-0.051738098 -0.069309533 1.0250001 1.7601725e-38
-0.049785718 -0.069309533 1.0250001 1.7049666e-38
-0.047973335 -0.069512382 1.028 1.6127709e-38
-0.046015237 -0.069512382 1.028 1.4842005e-38
-0.044057142 -0.069512382 1.028 1.2444919e-38
-0.042221904 -0.069715239 1.031 1.1343966e-38
-0.040258095 -0.069715239 1.031 1.2081532e-38
-0.038405713 -0.069918096 1.034 1.1712044e-38
-0.036436193 -0.069918096 1.034 1.2080827e-38
-0.034466669 -0.069918096 1.034 1.346124e-38
-0.032622863 -0.070188574 1.0380001 1.4659783e-38
-0.030645715 -0.070188574 1.0380001 1.2081553e-38
-0.028668575 -0.070188574 1.0380001 8.3015317e-39
-0.026845716 -0.070594288 1.044 1.1157036e-38
-0.025095237 -0.071270473 1.054 1.8071708e-38
-0.023087619 -0.071270473 1.054 1.9634392e-38
-0.02108 -0.071270473 1.054 2.3414412e-38
-0.10700001 -0.069000006 1.0500001 2.267647e-38
-0.105 -0.069000006 1.0500001 2.2768666e-38
-0.10300001 -0.069000006 1.0500001 2.2308781e-38
-0.10071143 -0.068802863 1.0470001 1.6777043e-38
-0.098717146 -0.068802863 1.0470001 1.3280452e-38
-0.096722864 -0.068802863 1.0470001 1.2727278e-38
-0.094457142 -0.068605714 1.044 1.3554851e-38
-0.092468575 -0.068605714 1.044 1.6044133e-38
-0.090220004 -0.068408571 1.041 1.5766497e-38
-0.088237144 -0.068408571 1.041 1.0603541e-38
-0.086005718 -0.068211436 1.0380001 7.6626265e-39
-0.084028579 -0.068211436 1.0380001 7.3860396e-39
-0.081735246 -0.067948572 1.034 7.5693771e-39
-0.079765722 -0.067948572 1.034 6.9240077e-39
-0.077796191 -0.067948572 1.034 8.8536167e-39
-0.075606667 -0.06775143 1.031 9.3145948e-39
-0.073642857 -0.06775143 1.031 1.5300374e-38
-0.071679048 -0.06775143 1.031 1.7328678e-38
-0.069715239 -0.06775143 1.031 1.6219527e-38
-0.06775143 -0.06775143 1.031 1.2162919e-38
-0.065787621 -0.06775143 1.031 1.1243139e-38
-0.063823812 -0.06775143 1.031 1.0874356e-38
-0.061860003 -0.06775143 1.031 1.0874728e-38
-0.059721906 -0.067554288 1.028 1.1059119e-38
-0.057763807 -0.067554288 1.028 1.1150231e-38
-0.055805713 -0.067554288 1.028 1.0412666e-38
-0.053847618 -0.067554288 1.028 1.2161836e-38
-0.051889524 -0.067554288 1.028 1.6402835e-38
-0.049931429 -0.067554288 1.028 1.6405379e-38
-0.047973335 -0.067554288 1.028 1.5022445e-38
-0.046015237 -0.067554288 1.028 1.2631468e-38
-0.044185713 -0.06775143 1.031 1.1801708e-38
-0.042344764 -0.067948572 1.034 1.1252498e-38
-0.04037524 -0.067948572 1.034 1.2358846e-38
-0.038405713 -0.067948572 1.034 1.1804245e-38
-0.036436193 -0.067948572 1.034 1.2080832e-38
-0.034600001 -0.068211436 1.0380001 1.4842005e-38
-0.032622863 -0.068211436 1.0380001 1.6593722e-38
-0.030734286 -0.068408571 1.041 1.2724426e-38
-0.028751429 -0.068408571 1.041 8.2068404e-39
-0.026845716 -0.068605714 1.044 1.1251393e-38
-0.025095237 -0.069262855 1.054 1.8350456e-38
-0.023087619 -0.069262855 1.054 2.0095022e-38
-0.10270572 -0.066808574 1.0470001 2.2217682e-38
-0.10071143 -0.066808574 1.0470001 1.7331314e-38
-0.098717146 -0.066808574 1.0470001 1.4109859e-38
-0.096722864 -0.066808574 1.0470001 1.2634729e-38
-0.094457142 -0.066617146 1.044 1.3002756e-38
-0.092468575 -0.066617146 1.044 1.567643e-38
-0.090480007 -0.066617146 1.044 1.4755957e-38
-0.088491425 -0.066617146 1.044 1.069935e-38
-0.086254284 -0.066425718 1.041 7.1123296e-39
-0.084271431 -0.066425718 1.041 6.8357427e-39
-0.081735246 -0.065979049 1.034 7.7537684e-39
-0.079765722 -0.065979049 1.034 7.2927902e-39
-0.077796191 -0.065979049 1.034 7.2009379e-39
-0.075826667 -0.065979049 1.034 6.2789816e-39
-0.073857144 -0.065979049 1.034 1.1614765e-38
-0.07188762 -0.065979049 1.034 1.6685524e-38
-0.069918096 -0.065979049 1.034 1.493242e-38
-0.067948572 -0.065979049 1.034 1.0599225e-38
-0.065979049 -0.065979049 1.034 1.0230776e-38
-0.064009525 -0.065979049 1.034 1.0599559e-38
-0.061860003 -0.065787621 1.031 1.0782532e-38
-0.059896193 -0.065787621 1.031 1.0966923e-38
-0.057932384 -0.065787621 1.031 1.0966923e-38
-0.055968571 -0.065787621 1.031 1.0321554e-38
-0.054004762 -0.065787621 1.031 1.0781745e-38
-0.052040953 -0.065787621 1.031 1.5760309e-38
-0.050077144 -0.065787621 1.031 1.5854386e-38
-0.048113335 -0.065787621 1.031 1.4471452e-38
-0.046149526 -0.065787621 1.031 1.180349e-38
-0.044185713 -0.065787621 1.031 1.1619099e-38
-0.042344764 -0.065979049 1.034 1.088336e-38
-0.04037524 -0.065979049 1.034 1.1528729e-38
-0.038554288 -0.066234291 1.0380001 1.1803877e-38
-0.036577147 -0.066234291 1.0380001 1.3186811e-38
-0.034600001 -0.066234291 1.0380001 1.5210073e-38
-0.032717142 -0.066425718 1.041 1.6685203e-38
-0.030734286 -0.066425718 1.041 1.3831114e-38
-0.028917143 -0.066808574 1.0470001 1.0880854e-38
-0.026922857 -0.066808574 1.0470001 1.1896051e-38
-0.025095237 -0.067255244 1.054 1.8534137e-38
-0.023087619 -0.067255244 1.054 2.0371609e-38
-0.02108 -0.067255244 1.054 2.3321869e-38
-0.10071143 -0.064814284 1.0470001 1.8160346e-38
-0.098717146 -0.064814284 1.0470001 1.4937121e-38
-0.096722864 -0.064814284 1.0470001 1.3738578e-38
-0.094457142 -0.064628571 1.044 1.4843456e-38
-0.092468575 -0.064628571 1.044 1.7056151e-38
-0.090480007 -0.064628571 1.044 1.7055414e-38
-0.088491425 -0.064628571 1.044 1.4658327e-38
-0.086254284 -0.064442858 1.041 9.2281852e-39
-0.084271431 -0.064442858 1.041 6.9232944e-39
-0.082051434 -0.064257152 1.0380001 7.2938692e-39
-0.079765722 -0.064009525 1.034 6.9250867e-39
-0.077796191 -0.064009525 1.034 6.9243454e-39
-0.075826667 -0.064009525 1.034 6.278976e-39
-0.073857144 -0.064009525 1.034 1.1707002e-38
-0.07188762 -0.064009525 1.034 1.6408979e-38
-0.069918096 -0.064009525 1.034 1.5209343e-38
-0.067948572 -0.064009525 1.034 9.9541923e-39
-0.065979049 -0.064009525 1.034 1.0231495e-38
-0.064009525 -0.064009525 1.034 1.1153452e-38
-0.062040005 -0.064009525 1.034 1.09662e-38
-0.060070477 -0.064009525 1.034 1.09662e-38
-0.058100954 -0.064009525 1.034 1.0690342e-38
-0.05613143 -0.064009525 1.034 1.0413755e-38
-0.054004762 -0.063823812 1.031 1.1150224e-38
-0.052040953 -0.063823812 1.031 1.5391223e-38
-0.050077144 -0.063823812 1.031 1.5946552e-38
-0.048113335 -0.063823812 1.031 1.4748009e-38
-0.046283811 -0.064009525 1.034 1.1987545e-38
-0.044314288 -0.064009525 1.034 1.1803154e-38
-0.042344764 -0.064009525 1.034 1.1253227e-38
-0.04037524 -0.064009525 1.034 1.1068836e-38
-0.038554288 -0.064257152 1.0380001 1.2631468e-38
-0.036577147 -0.064257152 1.0380001 1.5212946e-38
-0.034700003 -0.064442858 1.041 1.6591192e-38
-0.032717142 -0.064442858 1.041 1.7144365e-38
-0.030822858 -0.064628571 1.044 1.5855806e-38
-0.029000003 -0.065000005 1.0500001 1.4933849e-38
-0.027000003 -0.065000005 1.0500001 1.5210802e-38
-0.025238097 -0.065619051 1.0600001 1.8990823e-38
-0.023219049 -0.065619051 1.0600001 2.0463802e-38
-0.10071143 -0.062820002 1.0470001 1.7883396e-38
-0.098717146 -0.062820002 1.0470001 1.5397337e-38
-0.096722864 -0.062820002 1.0470001 1.4567577e-38
-0.094457142 -0.062640004 1.044 1.6037698e-38
-0.092468575 -0.062640004 1.044 1.8066002e-38
-0.090480007 -0.062640004 1.044 1.8618793e-38
-0.088491425 -0.062640004 1.044 1.6774881e-38
-0.086502858 -0.062640004 1.044 1.2266338e-38
-0.084271431 -0.062459998 1.041 8.2097299e-39
-0.082051434 -0.062280003 1.0380001 7.2927902e-39
-0.080074295 -0.062280003 1.0380001 6.9240077e-39
-0.07809715 -0.062280003 1.0380001 5.8201488e-39
-0.075826667 -0.062040005 1.034 6.3733226e-39
-0.073857144 -0.062040005 1.034 1.1707351e-38
-0.07188762 -0.062040005 1.034 1.594835e-38
-0.069918096 -0.062040005 1.034 1.5210073e-38
-0.067948572 -0.062040005 1.034 1.1337857e-38
-0.065979049 -0.062040005 1.034 1.0598141e-38
-0.064009525 -0.062040005 1.034 1.1059119e-38
-0.062040005 -0.062040005 1.034 1.1058029e-38
-0.060070477 -0.062040005 1.034 1.0965833e-38
-0.058100954 -0.062040005 1.034 1.032227e-38
-0.05613143 -0.062040005 1.034 1.0598857e-38
-0.054161906 -0.062040005 1.034 1.1335709e-38
-0.052192383 -0.062040005 1.034 1.5392316e-38
-0.050222859 -0.062040005 1.034 1.6684124e-38
-0.048253331 -0.062040005 1.034 1.5116799e-38
-0.046283811 -0.062040005 1.034 1.3461959e-38
-0.044314288 -0.062040005 1.034 1.1986829e-38
-0.042344764 -0.062040005 1.034 1.1436887e-38
-0.040531434 -0.062280003 1.0380001 1.1436887e-38
-0.038554288 -0.062280003 1.0380001 1.345834e-38
-0.036682859 -0.062459998 1.041 1.6132013e-38
-0.0348 -0.062640004 1.044 1.6866709e-38
