# .PCD v0.7 - Point Cloud Data file format
VERSION 0.7
FIELDS x y z rgb
SIZE 4 4 4 4
TYPE F F F F
COUNT 1 1 1 1
WIDTH 1042
HEIGHT 1
VIEWPOINT 0 0 0 1 0 0 0
POINTS 1042
DATA ascii
-0.023940001 -0.1539 1.197 1.585691e-38
-0.02166 -0.1539 1.197 1.5396292e-38
-0.019380001 -0.1539 1.197 1.5304096e-38
-0.017099999 -0.1539 1.197 1.5027149e-38
-0.014770477 -0.15338571 1.1930001 1.5027149e-38
-0.012498097 -0.15338571 1.1930001 1.4566887e-38
-0.010225714 -0.15338571 1.1930001 1.42903e-38
-0.0079266662 -0.15287143 1.189 1.3828966e-38
-0.0056619048 -0.15287143 1.189 1.4013357e-38
-0.0033857145 -0.15235715 1.1850001 1.38279e-38
-0.001124762 -0.15184286 1.1810001 1.3366922e-38
0.0011209524 -0.15132858 1.177 1.3184288e-38
0.0033628573 -0.15132858 1.177 1.2723309e-38
-0.081829526 -0.14908667 1.177 1.254001e-38
-0.079587616 -0.14908667 1.177 1.3642067e-38
-0.077345721 -0.14908667 1.177 1.4379632e-38
-0.075103812 -0.14908667 1.177 1.4379975e-38
-0.07310953 -0.14959334 1.1810001 1.4840953e-38
-0.070860006 -0.14959334 1.1810001 1.4657641e-38
-0.069075234 -0.15060668 1.189 1.4842032e-38
-0.067035235 -0.15111333 1.1930001 1.4566181e-38
-0.06498 -0.15162 1.197 1.4934963e-38
-0.062699996 -0.15162 1.197 1.5026443e-38
-0.060420003 -0.15162 1.197 1.5395225e-38
-0.058139998 -0.15162 1.197 1.5303027e-38
-0.055859998 -0.15162 1.197 1.5579614e-38
-0.053803809 -0.15225333 1.202 1.5580336e-38
-0.051685717 -0.15276001 1.2060001 1.5764727e-38
-0.049388576 -0.15276001 1.2060001 1.5581402e-38
-0.046935238 -0.15225333 1.202 1.5673598e-38
-0.044645716 -0.15225333 1.202 1.585691e-38
-0.042356189 -0.15225333 1.202 1.6041301e-38
-0.040066667 -0.15225333 1.202 1.6040945e-38
-0.037620001 -0.15162 1.197 1.594875e-38
-0.03534 -0.15162 1.197 1.5764721e-38
-0.033059999 -0.15162 1.197 1.5764721e-38
-0.030780001 -0.15162 1.197 1.5395223e-38
-0.0285 -0.15162 1.197 1.5395223e-38
-0.026219999 -0.15162 1.197 1.5487048e-38
-0.024040001 -0.15225333 1.202 1.5487048e-38
-0.02166 -0.15162 1.197 1.5119342e-38
-0.019380001 -0.15162 1.197 1.5211538e-38
-0.017099999 -0.15162 1.197 1.5027146e-38
-0.014770477 -0.15111333 1.1930001 1.5119342e-38
-0.012498097 -0.15111333 1.1930001 1.5211535e-38
-0.010225714 -0.15111333 1.1930001 1.5488122e-38
-0.0079266662 -0.15060668 1.189 1.5488841e-38
-0.0056619048 -0.15060668 1.189 1.5673232e-38
-0.003374286 -0.14959334 1.1810001 1.5026453e-38
-0.0011209524 -0.14908667 1.177 1.3920105e-38
0.0011209524 -0.14908667 1.177 1.2999909e-38
0.0033628573 -0.14908667 1.177 1.382967e-38
-0.079317145 -0.14634572 1.1730001 1.30903e-38
-0.077082857 -0.14634572 1.1730001 1.456543e-38
-0.075103812 -0.14684477 1.177 1.4656574e-38
-0.07310953 -0.14734381 1.1810001 1.5025357e-38
-0.070860006 -0.14734381 1.1810001 1.4658361e-38
-0.069075234 -0.14834191 1.189 1.4842752e-38
-0.067035235 -0.14884095 1.1930001 1.4749856e-38
-0.06498 -0.14934 1.197 1.5118639e-38
-0.062699996 -0.14934 1.197 1.5210815e-38
-0.060420003 -0.14934 1.197 1.5487401e-38
-0.058139998 -0.14934 1.197 1.5119339e-38
-0.056093335 -0.14996381 1.202 1.5395926e-38
-0.053803809 -0.14996381 1.202 1.5395929e-38
-0.051685717 -0.15046287 1.2060001 1.558032e-38
-0.049388576 -0.15046287 1.2060001 1.5395926e-38
-0.046935238 -0.14996381 1.202 1.5580317e-38
-0.044645716 -0.14996381 1.202 1.5395579e-38
-0.042356189 -0.14996381 1.202 1.557997e-38
-0.040066667 -0.14996381 1.202 1.5488127e-38
-0.037777144 -0.14996381 1.202 1.5764714e-38
-0.035487618 -0.14996381 1.202 1.5764714e-38
-0.033198096 -0.14996381 1.202 1.5764714e-38
-0.030780001 -0.14934 1.197 1.5671793e-38
-0.0285 -0.14934 1.197 1.5856184e-38
-0.026219999 -0.14934 1.197 1.5670724e-38
-0.024040001 -0.14996381 1.202 1.5670724e-38
-0.021750478 -0.14996381 1.202 1.5670724e-38
-0.019460952 -0.14996381 1.202 1.6039506e-38
-0.017099999 -0.14934 1.197 1.5856204e-38
-0.014820001 -0.14934 1.197 1.5856204e-38
-0.012498097 -0.14884095 1.1930001 1.613279e-38
-0.010225714 -0.14884095 1.1930001 1.6409377e-38
-0.0079266662 -0.14834191 1.189 1.5951254e-38
-0.0056619048 -0.14834191 1.189 1.5029297e-38
-0.003374286 -0.14734381 1.1810001 1.4383963e-38
-0.0010980952 -0.14385048 1.153 1.3001029e-38
0.0010942857 -0.14335144 1.149 1.1342499e-38
0.0032828571 -0.14335144 1.149 1.3739586e-38
0.0054714289 -0.14335144 1.149 1.5672541e-38
-0.077423811 -0.14067145 1.1450001 9.128061e-39
-0.074980006 -0.14018001 1.141 1.2447104e-38
-0.072360002 -0.13932002 1.1340001 1.3920811e-38
-0.070200004 -0.13932002 1.1340001 1.3920811e-38
-0.068039998 -0.13932002 1.1340001 1.401337e-38
-0.069307618 -0.14656857 1.1930001 1.54885e-38
-0.067035235 -0.14656857 1.1930001 1.5672531e-38
-0.06498 -0.14706001 1.197 1.6317901e-38
-0.062961906 -0.14767428 1.202 1.6226403e-38
-0.06067238 -0.14767428 1.202 1.650299e-38
-0.058382858 -0.14767428 1.202 1.6870689e-38
-0.056093335 -0.14767428 1.202 1.7147276e-38
-0.053982858 -0.14816572 1.2060001 1.7240192e-38
-0.051685717 -0.14816572 1.2060001 1.7424583e-38
-0.049388576 -0.14816572 1.2060001 1.8161422e-38
-0.046935238 -0.14767428 1.202 1.8161422e-38
-0.044645716 -0.14767428 1.202 1.8160368e-38
-0.042356189 -0.14767428 1.202 1.8068173e-38
-0.040066667 -0.14767428 1.202 1.7884861e-38
-0.037777144 -0.14767428 1.202 1.7977056e-38
-0.035487618 -0.14767428 1.202 1.7885937e-38
-0.033198096 -0.14767428 1.202 1.7978132e-38
-0.028671429 -0.13698572 1.115 1.7701899e-38
-0.026547618 -0.13698572 1.115 1.7701899e-38
-0.026329523 -0.14767428 1.202 1.7149093e-38
-0.024120001 -0.14816572 1.2060001 1.7241289e-38
-0.021750478 -0.14767428 1.202 1.7331687e-38
-0.019460952 -0.14767428 1.202 1.7608274e-38
-0.017099999 -0.14706001 1.197 1.6409753e-38
-0.014820001 -0.14706001 1.197 1.604097e-38
-0.012498097 -0.14656857 1.1930001 1.5857658e-38
-0.010225714 -0.14656857 1.1930001 1.4566919e-38
-0.0075866668 -0.13981143 1.138 1.0605757e-38
-0.0054190475 -0.13981143 1.138 9.9603874e-39
-0.0032600001 -0.14018001 1.141 1.0330965e-38
-0.0010942857 -0.14116286 1.149 8.855835e-39
0.0010942857 -0.14116286 1.149 8.2132583e-39
0.0032828571 -0.14116286 1.149 1.3007431e-38
0.0054714289 -0.14116286 1.149 1.6594835e-38
-0.079326667 -0.13800666 1.141 8.7564338e-39
-0.077153333 -0.13800666 1.141 6.9156447e-39
-0.074782856 -0.13764381 1.138 1.1156644e-38
-0.072360002 -0.13716 1.1340001 1.2354568e-38
-0.070200004 -0.13716 1.1340001 1.1617002e-38
-0.068279997 -0.13764381 1.138 1.1896065e-38
-0.066112377 -0.13764381 1.138 1.475413e-38
-0.067540951 -0.14538477 1.202 1.5028967e-38
-0.065251425 -0.14538477 1.202 1.5674336e-38
-0.062961906 -0.14538477 1.202 1.5951957e-38
-0.06067238 -0.14538477 1.202 1.6412935e-38
-0.058382858 -0.14538477 1.202 1.6963986e-38
-0.056093335 -0.14538477 1.202 1.7056182e-38
-0.053803809 -0.14538477 1.202 1.7976328e-38
-0.051685717 -0.14586858 1.2060001 1.7699741e-38
-0.049388576 -0.14586858 1.2060001 1.8529482e-38
-0.047091432 -0.14586858 1.2060001 1.899046e-38
-0.044645716 -0.14538477 1.202 1.9819177e-38
-0.042356189 -0.14538477 1.202 1.9450394e-38
-0.040066667 -0.14538477 1.202 1.8807899e-38
-0.035168573 -0.13534571 1.1190001 1.8254725e-38
-0.033037145 -0.13534571 1.1190001 1.8532028e-38
-0.030905718 -0.13534571 1.1190001 1.8255441e-38
-0.028671429 -0.1348619 1.115 1.7059779e-38
-0.026547618 -0.1348619 1.115 1.6230018e-38
-0.02451143 -0.13534571 1.1190001 1.5034692e-38
-0.022380002 -0.13534571 1.1190001 1.5680062e-38
-0.020320952 -0.13582952 1.123 1.6871087e-38
-0.018181903 -0.13582952 1.123 1.7055478e-38
-0.016142858 -0.13667618 1.13 1.6042393e-38
-0.014820001 -0.14478 1.197 1.5212632e-38
-0.011838095 -0.13667618 1.13 1.4296071e-38
-0.0096857138 -0.13667618 1.13 1.346631e-38
-0.0075866668 -0.13764381 1.138 8.8608796e-39
-0.0054190475 -0.13764381 1.138 9.4140534e-39
-0.0032600001 -0.13800666 1.141 1.1253615e-38
-0.0010942857 -0.13897429 1.149 6.9204204e-39
0.0010942857 -0.13897429 1.149 7.1061302e-39
0.0032828571 -0.13897429 1.149 1.4205185e-38
0.0054714289 -0.13897429 1.149 1.6779242e-38
-0.081500001 -0.13583334 1.141 1.8898657e-38
-0.079326667 -0.13583334 1.141 8.572746e-39
-0.077153333 -0.13583334 1.141 4.3395943e-39
-0.074782856 -0.13547619 1.138 7.2898545e-39
-0.072615236 -0.13547619 1.138 8.7604121e-39
-0.070447616 -0.13547619 1.138 9.8667597e-39
-0.068279997 -0.13547619 1.138 1.1250301e-38
-0.066112377 -0.13547619 1.138 1.4200561e-38
-0.063944757 -0.13547619 1.138 1.5028579e-38
-0.061560001 -0.13500002 1.1340001 1.3830035e-38
-0.059400003 -0.13500002 1.1340001 1.3372642e-38
-0.06067238 -0.14309524 1.202 1.4755576e-38
-0.058382858 -0.14309524 1.202 1.5674686e-38
-0.052733332 -0.13452381 1.13 1.4107361e-38
-0.050580952 -0.13452381 1.13 1.3275783e-38
-0.051857144 -0.14404762 1.21 1.1985044e-38
-0.049552381 -0.14404762 1.21 1.2813748e-38
-0.047247618 -0.14404762 1.21 1.7423529e-38
-0.04494286 -0.14404762 1.21 1.7977416e-38
-0.039572384 -0.13369048 1.123 1.7424243e-38
-0.037300002 -0.13321429 1.1190001 1.4939655e-38
-0.035168573 -0.13321429 1.1190001 1.3925503e-38
-0.033037145 -0.13321429 1.1190001 1.4937872e-38
-0.030905718 -0.13321429 1.1190001 1.7150568e-38
-0.028774286 -0.13321429 1.1190001 1.6782809e-38
-0.026642859 -0.13321429 1.1190001 1.3279375e-38
-0.02451143 -0.13321429 1.1190001 1.3558846e-38
-0.022380002 -0.13321429 1.1190001 1.5955933e-38
-0.020320952 -0.13369048 1.123 1.7148387e-38
-0.018181903 -0.13369048 1.123 1.5212279e-38
-0.016085716 -0.13404761 1.126 1.1433722e-38
-0.013940953 -0.13404761 1.126 1.0050788e-38
-0.011838095 -0.13452381 1.13 1.1528773e-38
-0.0096857138 -0.13452381 1.13 1.5400989e-38
-0.0075866668 -0.13547619 1.138 1.5491364e-38
-0.0054333331 -0.13583334 1.141 1.3924039e-38
-0.0032714289 -0.13630953 1.1450001 1.1163575e-38
-0.0010904763 -0.13630953 1.1450001 6.1850105e-39
0.0010942857 -0.13678572 1.149 5.8201811e-39
0.0032828571 -0.13678572 1.149 1.2827049e-38
0.0054714289 -0.13678572 1.149 1.6870718e-38
-0.083966672 -0.13412857 1.1450001 1.9728417e-38
-0.081500001 -0.13366 1.141 1.9175972e-38
-0.079326667 -0.13366 1.141 9.6798223e-39
-0.077153333 -0.13366 1.141 1.8535703e-39
-0.074980006 -0.13366 1.141 4.8038249e-39
-0.072615236 -0.13330857 1.138 8.8525377e-39
-0.070447616 -0.13330857 1.138 1.1434015e-38
-0.068279997 -0.13330857 1.138 1.2446735e-38
-0.066112377 -0.13330857 1.138 1.4936017e-38
-0.063720003 -0.13284001 1.1340001 1.4845995e-38
-0.061560001 -0.13284001 1.1340001 1.2448909e-38
-0.059190478 -0.13237143 1.13 1.1348304e-38
-0.057038095 -0.13237143 1.13 1.2454651e-38
-0.054885715 -0.13237143 1.13 1.604274e-38
-0.052733332 -0.13237143 1.13 1.4659806e-38
-0.050580952 -0.13237143 1.13 1.2998843e-38
-0.048428569 -0.13237143 1.13 1.1984691e-38
-0.046276189 -0.13237143 1.13 1.1066305e-38
-0.04396762 -0.13190286 1.126 1.7059021e-38
-0.041822858 -0.13190286 1.126 1.7428211e-38
-0.039572384 -0.13155143 1.123 1.5031125e-38
-0.037300002 -0.13108286 1.1190001 1.2364281e-38
-0.035168573 -0.13108286 1.1190001 1.1165738e-38
-0.033037145 -0.13108286 1.1190001 1.4019822e-38
-0.030905718 -0.13108286 1.1190001 1.6416908e-38
-0.028774286 -0.13108286 1.1190001 1.724416e-38
-0.026642859 -0.13108286 1.1190001 1.4847074e-38
-0.02451143 -0.13108286 1.1190001 1.3468853e-38
-0.022380002 -0.13108286 1.1190001 1.5773744e-38
-0.020320952 -0.13155143 1.123 1.7978501e-38
-0.018181903 -0.13155143 1.123 1.3092133e-38
-0.016085716 -0.13190286 1.126 1.0790817e-38
-0.013940953 -0.13190286 1.126 8.9469039e-39
-0.011838095 -0.13237143 1.13 1.0697155e-38
-0.0097200004 -0.13284001 1.1340001 1.5122545e-38
-0.0075866668 -0.13330857 1.138 1.6226431e-38
-0.0054333331 -0.13366 1.141 1.4290323e-38
-0.0032714289 -0.13412857 1.1450001 1.1071029e-38
-0.0010904763 -0.13412857 1.1450001 6.2768558e-39
0.0010904763 -0.13412857 1.1450001 5.5435591e-39
0.0032828571 -0.13459715 1.149 1.3380188e-38
0.0054714289 -0.13459715 1.149 1.6779239e-38
-0.083966672 -0.13194764 1.1450001 1.9636222e-38
-0.081500001 -0.13148667 1.141 1.9267808e-38
-0.079326667 -0.13148667 1.141 1.1338983e-38
-0.077153333 -0.13148667 1.141 3.4205738e-39
-0.074980006 -0.13148667 1.141 2.5908131e-39
-0.072806664 -0.13148667 1.141 5.444577e-39
-0.070633337 -0.13148667 1.141 1.1437293e-38
-0.068279997 -0.13114095 1.138 1.3092861e-38
-0.066112377 -0.13114095 1.138 1.43836e-38
-0.063720003 -0.13068001 1.1340001 1.263725e-38
-0.061560001 -0.13068001 1.1340001 1.0977729e-38
-0.059190478 -0.13021904 1.13 9.8775301e-39
-0.057038095 -0.13021904 1.13 1.0615095e-38
-0.054885715 -0.13021904 1.13 1.3191513e-38
-0.052733332 -0.13021904 1.13 1.5957382e-38
-0.050580952 -0.13021904 1.13 1.7056542e-38
-0.048257146 -0.12975809 1.126 1.6687759e-38
-0.046112385 -0.12975809 1.126 1.6965418e-38
-0.04396762 -0.12975809 1.126 1.8163961e-38
-0.041822858 -0.12975809 1.126 1.604958e-38
-0.039572384 -0.12941237 1.123 1.0702233e-38
-0.037300002 -0.12895143 1.1190001 6.7525925e-39
-0.035168573 -0.12895143 1.1190001 4.8164842e-39
-0.033037145 -0.12895143 1.1190001 8.6825588e-39
-0.030905718 -0.12895143 1.1190001 1.2370384e-38
-0.028774286 -0.12895143 1.1190001 1.6599501e-38
-0.026642859 -0.12895143 1.1190001 1.8259023e-38
-0.024599047 -0.12941237 1.123 1.8624947e-38
-0.022460001 -0.12941237 1.123 1.6688838e-38
-0.020320952 -0.12941237 1.123 1.4937102e-38
-0.018230475 -0.12975809 1.126 1.032732e-38
-0.016142858 -0.13021904 1.13 8.4870328e-39
-0.013990476 -0.13021904 1.13 8.3026416e-39
-0.011838095 -0.13021904 1.13 8.5777837e-39
-0.0097200004 -0.13068001 1.1340001 1.1528044e-38
-0.007606667 -0.13148667 1.141 1.3186113e-38
-0.0054333331 -0.13148667 1.141 1.3554896e-38
-0.0032714289 -0.13194764 1.1450001 1.1163212e-38
-0.0010904763 -0.13194764 1.1450001 6.1846476e-39
0.0010904763 -0.13194764 1.1450001 6.6474208e-39
0.0032714289 -0.13194764 1.1450001 1.3930876e-38
0.0054523814 -0.13194764 1.1450001 1.7147296e-38
-0.081785724 -0.12976667 1.1450001 1.8991218e-38
-0.079604767 -0.12976667 1.1450001 1.198435e-38
-0.077423811 -0.12976667 1.1450001 7.28201e-39
-0.075242862 -0.12976667 1.1450001 4.7005324e-39
-0.072806664 -0.12931333 1.141 5.6285115e-39
-0.070633337 -0.12931333 1.141 1.2082194e-38
-0.068279997 -0.12897334 1.138 1.2450729e-38
-0.066112377 -0.12897334 1.138 1.2542924e-38
-0.063720003 -0.12852001 1.1340001 9.8775147e-39
-0.061560001 -0.12852001 1.1340001 9.4165365e-39
-0.059190478 -0.12806667 1.13 8.7754985e-39
-0.057038095 -0.12806667 1.13 9.2364767e-39
-0.054885715 -0.12806667 1.13 1.0615801e-38
-0.052733332 -0.12806667 1.13 1.3197279e-38
-0.050580952 -0.12806667 1.13 1.6966497e-38
-0.048257146 -0.12761334 1.126 1.8349432e-38
-0.046112385 -0.12761334 1.126 1.779664e-38
-0.04396762 -0.12761334 1.126 1.6413706e-38
-0.041822858 -0.12761334 1.126 1.1632484e-38
-0.039572384 -0.12727334 1.123 6.7461157e-39
-0.037433334 -0.12727334 1.123 3.9046145e-39
-0.035294287 -0.12727334 1.123 4.0890057e-39
-0.033037145 -0.12682001 1.1190001 5.0973717e-39
-0.030905718 -0.12682001 1.1190001 6.2959149e-39
-0.028774286 -0.12682001 1.1190001 1.355848e-38
-0.026642859 -0.12682001 1.1190001 1.8537045e-38
-0.024599047 -0.12727334 1.123 1.908453e-38
-0.022460001 -0.12727334 1.123 1.5027923e-38
-0.020375239 -0.12761334 1.126 1.1896808e-38
-0.018295238 -0.12806667 1.13 9.4997218e-39
-0.016142858 -0.12806667 1.13 9.4993743e-39
-0.013990476 -0.12806667 1.13 9.2227874e-39
-0.011880001 -0.12852001 1.1340001 8.3940931e-39
-0.0097200004 -0.12852001 1.1340001 1.1252158e-38
-0.007606667 -0.12931333 1.141 1.1805357e-38
-0.0054333331 -0.12931333 1.141 1.2542922e-38
-0.0032714289 -0.12976667 1.1450001 9.8732113e-39
-0.0010904763 -0.12976667 1.1450001 6.1853861e-39
0.0010904763 -0.12976667 1.1450001 7.291302e-39
0.0032714289 -0.12976667 1.1450001 1.4666952e-38
0.0054523814 -0.12976667 1.1450001 1.7422803e-38
-0.081785724 -0.12758572 1.1450001 1.8806461e-38
-0.079604767 -0.12758572 1.1450001 1.4104484e-38
-0.077423811 -0.12758572 1.1450001 6.2740462e-39
-0.075242862 -0.12758572 1.1450001 2.3096341e-39
-0.073061906 -0.12758572 1.1450001 2.6837374e-39
-0.070633337 -0.12714 1.141 9.0452359e-39
-0.068279997 -0.12680571 1.138 1.2266675e-38
-0.066112377 -0.12680571 1.138 1.2543262e-38
-0.063720003 -0.12636001 1.1340001 1.0245221e-38
-0.061560001 -0.12636001 1.1340001 9.6920472e-39
-0.059190478 -0.12591429 1.13 9.1432118e-39
-0.057038095 -0.12591429 1.13 9.8807769e-39
-0.054885715 -0.12591429 1.13 1.0155564e-38
-0.052733332 -0.12591429 1.13 1.0524347e-38
-0.050580952 -0.12591429 1.13 1.4847068e-38
-0.048257146 -0.12546857 1.126 1.8627089e-38
-0.046112385 -0.12546857 1.126 1.7244173e-38
-0.04396762 -0.12546857 1.126 1.0329501e-38
-0.041822858 -0.12546857 1.126 4.9151637e-39
-0.039572384 -0.12513429 1.123 5.3761418e-39
-0.037433334 -0.12513429 1.123 5.8364067e-39
-0.035294287 -0.12513429 1.123 5.9286023e-39
-0.033155236 -0.12513429 1.123 6.01864e-39
-0.031016191 -0.12513429 1.123 4.3591186e-39
-0.028877143 -0.12513429 1.123 7.2989363e-39
-0.026738096 -0.12513429 1.123 1.4213609e-38
-0.024664761 -0.12546857 1.126 1.7150921e-38
-0.022599999 -0.12591429 1.13 1.0789422e-38
-0.020447617 -0.12591429 1.13 7.9356611e-39
-0.018295238 -0.12591429 1.13 8.949813e-39
-0.0162 -0.12636001 1.1340001 1.0051845e-38
-0.014040001 -0.12636001 1.1340001 9.3142796e-39
-0.011880001 -0.12636001 1.1340001 8.854365e-39
-0.0097542861 -0.12680571 1.138 1.1804625e-38
-0.0075866668 -0.12680571 1.138 1.3372294e-38
-0.0054333331 -0.12714 1.141 1.3372294e-38
-0.0032600001 -0.12714 1.141 1.0424605e-38
-0.0010904763 -0.12758572 1.1450001 7.1977584e-39
0.0010904763 -0.12758572 1.1450001 7.5672093e-39
0.0032828571 -0.12803143 1.149 1.4666273e-38
0.0054714289 -0.12803143 1.149 1.7423144e-38
0.0076600001 -0.12803143 1.149 1.6224601e-38
-0.082071431 -0.12584287 1.149 1.8622438e-38
-0.079604767 -0.12540478 1.1450001 1.4565831e-38
-0.077423811 -0.12540478 1.1450001 1.0418838e-38
-0.075242862 -0.12540478 1.1450001 4.1495348e-39
-0.073061906 -0.12540478 1.1450001 2.9599011e-39
-0.070880957 -0.12540478 1.1450001 9.9667577e-39
-0.068460003 -0.12496666 1.141 1.1712445e-38
-0.066112377 -0.12463809 1.138 1.245001e-38
-0.063720003 -0.1242 1.1340001 9.7860533e-39
-0.061560001 -0.1242 1.1340001 9.3250752e-39
-0.059400003 -0.1242 1.1340001 9.1432118e-39
-0.057038095 -0.1237619 1.13 9.9729725e-39
-0.054885715 -0.1237619 1.13 9.6045431e-39
-0.052733332 -0.1237619 1.13 9.6045431e-39
-0.050580952 -0.1237619 1.13 1.2178455e-38
-0.048428569 -0.1237619 1.13 1.7249215e-38
-0.046112385 -0.12332381 1.126 1.568227e-38
-0.04396762 -0.12332381 1.126 7.5690548e-39
-0.041822858 -0.12332381 1.126 1.514358e-39
-0.039572384 -0.12299524 1.123 4.00364e-39
-0.037433334 -0.12299524 1.123 6.6639968e-39
-0.035294287 -0.12299524 1.123 6.4796055e-39
-0.033155236 -0.12299524 1.123 5.5605331e-39
-0.031016191 -0.12299524 1.123 3.5322292e-39
-0.028877143 -0.12299524 1.123 2.8000241e-39
-0.026738096 -0.12299524 1.123 1.091324e-38
-0.02475238 -0.1237619 1.13 1.6049628e-38
-0.022599999 -0.1237619 1.13 1.0333499e-38
-0.020447617 -0.1237619 1.13 8.6703297e-39
-0.018360002 -0.1242 1.1340001 9.5000903e-39
-0.0162 -0.1242 1.1340001 9.9589133e-39
-0.014040001 -0.1242 1.1340001 9.4057395e-39
-0.011880001 -0.1242 1.1340001 9.1305889e-39
-0.0097542861 -0.12463809 1.138 1.3555979e-38
-0.0075866668 -0.12463809 1.138 1.410843e-38
-0.0054333331 -0.12496666 1.141 1.3924039e-38
-0.0032600001 -0.12496666 1.141 1.2173786e-38
-0.0010904763 -0.12540478 1.1450001 8.2093739e-39
0.0010904763 -0.12540478 1.1450001 7.5664316e-39
0.0032942859 -0.12628095 1.153 1.540306e-38
0.0054714289 -0.12584287 1.149 1.7514999e-38
0.0076600001 -0.12584287 1.149 1.6132065e-38
-0.082071431 -0.12365429 1.149 1.7793043e-38
-0.079604767 -0.12322382 1.1450001 1.4658392e-38
-0.077423811 -0.12322382 1.1450001 1.0695108e-38
-0.075242862 -0.12322382 1.1450001 5.8087395e-39
-0.073061906 -0.12322382 1.1450001 6.9174945e-39
-0.070880957 -0.12322382 1.1450001 1.3002406e-38
-0.068460003 -0.12279333 1.141 1.3369808e-38
-0.066112377 -0.12247047 1.138 1.4199569e-38
-0.063720003 -0.12204001 1.1340001 1.2086613e-38
-0.061560001 -0.12204001 1.1340001 1.02427e-38
-0.059400003 -0.12204001 1.1340001 8.9591891e-39
-0.057240006 -0.12204001 1.1340001 9.6967542e-39
-0.055080004 -0.12204001 1.1340001 9.6963856e-39
-0.052733332 -0.12160952 1.13 1.0249559e-38
-0.050580952 -0.12160952 1.13 1.3283373e-38
-0.048428569 -0.12160952 1.13 1.7524372e-38
-0.046276189 -0.12160952 1.13 1.7061587e-38
-0.044123806 -0.12160952 1.13 1.1529849e-38
-0.041971426 -0.12160952 1.13 3.6276913e-39
-0.039678097 -0.12117905 1.126 3.9042782e-39
-0.037533332 -0.12117905 1.126 4.8258449e-39
-0.03538857 -0.12117905 1.126 4.9180405e-39
-0.033243813 -0.12117905 1.126 5.1917534e-39
-0.031099049 -0.12117905 1.126 4.8229708e-39
-0.028954286 -0.12117905 1.126 7.5794889e-39
-0.026809525 -0.12117905 1.126 1.4494161e-38
-0.02475238 -0.12160952 1.13 1.7705874e-38
-0.022599999 -0.12160952 1.13 1.484781e-38
-0.020520002 -0.12204001 1.1340001 1.0516448e-38
-0.018360002 -0.12204001 1.1340001 8.3037528e-39
-0.0162 -0.12204001 1.1340001 8.3959162e-39
-0.014040001 -0.12204001 1.1340001 9.0412856e-39
-0.011880001 -0.12204001 1.1340001 1.0972009e-38
-0.0097542861 -0.12247047 1.138 1.4659834e-38
-0.0075866668 -0.12247047 1.138 1.4199897e-38
-0.0054333331 -0.12279333 1.141 1.4292092e-38
-0.0032714289 -0.12322382 1.1450001 1.3556329e-38
-0.0010904763 -0.12322382 1.1450001 9.3153305e-39
0.0010942857 -0.12365429 1.149 9.2216958e-39
0.0032942859 -0.12408476 1.153 1.5767585e-38
0.0055285715 -0.12494572 1.161 1.6316093e-38
-0.082071431 -0.12146572 1.149 1.6872166e-38
-0.07988286 -0.12146572 1.149 1.4659471e-38
-0.077694289 -0.12146572 1.149 1.2633325e-38
-0.075242862 -0.12104286 1.1450001 7.2859785e-39
-0.073061906 -0.12104286 1.1450001 9.1237296e-39
-0.070880957 -0.12104286 1.1450001 1.4194489e-38
-0.068460003 -0.12062 1.141 1.3737489e-38
-0.066112377 -0.12030286 1.138 1.456725e-38
-0.063944757 -0.12030286 1.138 1.2916739e-38
-0.061560001 -0.11988001 1.1340001 1.0980631e-38
-0.059400003 -0.11988001 1.1340001 8.9595268e-39
-0.057240006 -0.11988001 1.1340001 9.3283094e-39
-0.055080004 -0.11988001 1.1340001 9.5127006e-39
-0.052920002 -0.11988001 1.1340001 1.1080026e-38
-0.050580952 -0.11945714 1.13 1.5488888e-38
-0.048428569 -0.11945714 1.13 1.7885975e-38
-0.046276189 -0.11945714 1.13 1.7338148e-38
-0.044123806 -0.11945714 1.13 1.4941062e-38
-0.041971426 -0.11945714 1.13 8.2285003e-39
-0.039678097 -0.11903429 1.126 5.0938488e-39
-0.037533332 -0.11903429 1.126 2.802227e-39
-0.03538857 -0.11903429 1.126 2.802227e-39
-0.033361904 -0.11945714 1.13 4.2712292e-39
-0.031209525 -0.11945714 1.13 6.5761199e-39
-0.029057143 -0.11945714 1.13 1.3190109e-38
-0.026904762 -0.11945714 1.13 1.6877934e-38
-0.024840001 -0.11988001 1.1340001 1.8533823e-38
-0.022680001 -0.11988001 1.1340001 1.6966497e-38
-0.020520002 -0.11988001 1.1340001 1.4387225e-38
-0.018360002 -0.11988001 1.1340001 9.961835e-39
-0.0162 -0.11988001 1.1340001 8.4869922e-39
-0.014040001 -0.11988001 1.1340001 1.0515296e-38
-0.011880001 -0.11988001 1.1340001 1.3827547e-38
-0.0097542861 -0.12030286 1.138 1.3274373e-38
-0.0075866668 -0.12030286 1.138 1.2357056e-38
-0.0054333331 -0.12062 1.141 1.3371208e-38
-0.0032714289 -0.12104286 1.1450001 1.4015531e-38
-0.0010904763 -0.12104286 1.1450001 9.9589231e-39
0.0010942857 -0.12146572 1.149 9.405008e-39
0.0032942859 -0.12188857 1.153 1.5028941e-38
-0.082928576 -0.12052286 1.161 1.7515735e-38
-0.080160953 -0.11969239 1.153 1.61328e-38
-0.077694289 -0.11927715 1.149 1.3186123e-38
-0.075505719 -0.11927715 1.149 9.774885e-39
-0.073061906 -0.11886191 1.1450001 1.0421693e-38
-0.070880957 -0.11886191 1.1450001 1.0882672e-38
-0.068460003 -0.11844667 1.141 1.00554e-38
-0.066286668 -0.11844667 1.141 9.8710084e-39
-0.063944757 -0.11813524 1.138 1.1713902e-38
-0.061560001 -0.11772001 1.1340001 1.4479771e-38
-0.059400003 -0.11772001 1.1340001 1.3100752e-38
-0.057240006 -0.11772001 1.1340001 1.1994404e-38
-0.055080004 -0.11772001 1.1340001 1.3100036e-38
-0.052920002 -0.11772001 1.1340001 1.6326883e-38
-0.050760005 -0.11772001 1.1340001 1.6688501e-38
-0.048600003 -0.11772001 1.1340001 1.4936784e-38
-0.046276189 -0.11730476 1.13 1.6506178e-38
-0.044123806 -0.11730476 1.13 1.9364242e-38
-0.041971426 -0.11730476 1.13 1.6325123e-38
-0.039819047 -0.11730476 1.13 1.2360711e-38
-0.037666667 -0.11730476 1.13 6.1104951e-39
-0.035514288 -0.11730476 1.13 4.8197563e-39
-0.033361904 -0.11730476 1.13 8.3156246e-39
-0.031209525 -0.11730476 1.13 1.4584927e-38
-0.029057143 -0.11730476 1.13 1.6784649e-38
-0.026904762 -0.11730476 1.13 1.5401715e-38
-0.024840001 -0.11772001 1.1340001 1.632397e-38
-0.022680001 -0.11772001 1.1340001 1.7338122e-38
-0.020520002 -0.11772001 1.1340001 1.7426066e-38
-0.018360002 -0.11772001 1.1340001 1.5582153e-38
-0.016257143 -0.11813524 1.138 1.4754123e-38
-0.014089524 -0.11813524 1.138 1.5768275e-38
-0.011921904 -0.11813524 1.138 1.5031838e-38
-0.0097542861 -0.11813524 1.138 9.9610783e-39
-0.007606667 -0.11844667 1.141 5.1791529e-39
-0.0054333331 -0.11844667 1.141 6.0089136e-39
-0.0032714289 -0.11886191 1.1450001 9.5958887e-39
-0.0010904763 -0.11886191 1.1450001 9.1349105e-39
0.0010942857 -0.11927715 1.149 1.0048933e-38
0.0032942859 -0.11969239 1.153 1.4935301e-38
-0.07796476 -0.11749619 1.153 1.3279042e-38
-0.075505719 -0.11708858 1.149 9.775608e-39
-0.07331714 -0.11708858 1.149 9.9646782e-39
-0.070880957 -0.11668096 1.1450001 7.6597875e-39
-0.068460003 -0.11627334 1.141 5.3613385e-39
-0.066286668 -0.11627334 1.141 5.2691429e-39
-0.063944757 -0.11596762 1.138 1.1618407e-38
-0.061560001 -0.11556 1.1340001 1.5214036e-38
-0.059400003 -0.11556 1.1340001 1.5031828e-38
-0.057240006 -0.11556 1.1340001 1.4017676e-38
-0.055080004 -0.11556 1.1340001 1.4938228e-38
-0.052920002 -0.11556 1.1340001 1.6966532e-38
-0.050760005 -0.11556 1.1340001 1.6320794e-38
-0.048600003 -0.11556 1.1340001 1.2356382e-38
-0.046276189 -0.11515237 1.13 1.3921106e-38
-0.044123806 -0.11515237 1.13 1.8162105e-38
-0.041971426 -0.11515237 1.13 1.9360717e-38
-0.039819047 -0.11515237 1.13 1.6133869e-38
-0.037666667 -0.11515237 1.13 1.1077508e-38
-0.035514288 -0.11515237 1.13 9.5101825e-39
-0.033361904 -0.11515237 1.13 1.2548685e-38
-0.031209525 -0.11515237 1.13 1.6789684e-38
-0.029057143 -0.11515237 1.13 1.7981748e-38
-0.026904762 -0.11515237 1.13 1.3648553e-38
-0.024840001 -0.11556 1.1340001 1.2915279e-38
-0.022680001 -0.11556 1.1340001 1.4851387e-38
-0.02059238 -0.11596762 1.138 1.7886305e-38
-0.018424762 -0.11596762 1.138 1.779411e-38
-0.016257143 -0.11596762 1.138 1.5768693e-38
-0.014089524 -0.11596762 1.138 1.5584301e-38
-0.011921904 -0.11596762 1.138 1.3745784e-38
-0.0097542861 -0.11596762 1.138 6.5545245e-39
-0.007606667 -0.11627334 1.141 1.1383574e-39
-0.0054333331 -0.11627334 1.141 2.1525093e-39
-0.0032714289 -0.11668096 1.1450001 8.9516081e-39
-0.0010942857 -0.11708858 1.149 8.1218474e-39
0.0010942857 -0.11708858 1.149 9.7694745e-39
0.0032942859 -0.11749619 1.153 1.5485604e-38
-0.075505719 -0.1149 1.149 9.3128124e-39
-0.07331714 -0.1149 1.149 7.4789962e-39
-0.070880957 -0.11450001 1.1450001 4.6209316e-39
-0.068460003 -0.1141 1.141 1.9613064e-39
-0.066286668 -0.1141 1.141 1.7769151e-39
-0.063944757 -0.1138 1.138 6.4666043e-39
-0.061777141 -0.1138 1.138 1.0799799e-38
-0.059609525 -0.1138 1.138 1.5490273e-38
-0.057240006 -0.1134 1.1340001 1.7426381e-38
-0.055080004 -0.1134 1.1340001 1.6595216e-38
-0.052920002 -0.1134 1.1340001 1.3368369e-38
-0.050760005 -0.1134 1.1340001 9.7763647e-39
-0.048600003 -0.1134 1.1340001 8.7622128e-39
-0.046440002 -0.1134 1.1340001 9.2228028e-39
-0.044280004 -0.1134 1.1340001 1.2910628e-38
-0.042120002 -0.1134 1.1340001 1.5950535e-38
-0.039819047 -0.113 1.13 1.9177382e-38
-0.037666667 -0.113 1.13 1.7981382e-38
-0.035514288 -0.113 1.13 1.7151621e-38
-0.033361904 -0.113 1.13 1.6508428e-38
-0.031209525 -0.113 1.13 1.5955254e-38
-0.029057143 -0.113 1.13 1.3562837e-38
-0.026904762 -0.113 1.13 1.1995511e-38
-0.024840001 -0.1134 1.1340001 1.1537051e-38
-0.02276 -0.1138 1.138 1.1444856e-38
-0.02059238 -0.1138 1.138 1.4113089e-38
-0.018424762 -0.1138 1.138 1.6602371e-38
-0.016257143 -0.1138 1.138 1.6875037e-38
-0.014089524 -0.1138 1.138 1.364819e-38
-0.011921904 -0.1138 1.138 9.0502581e-39
-0.0097542861 -0.1138 1.138 4.7170635e-39
-0.007606667 -0.1141 1.141 1.0469031e-39
-0.0054714289 -0.1149 1.149 1.9688594e-39
-0.0032828571 -0.1149 1.149 8.4902824e-39
-0.0010980952 -0.1153 1.153 7.7527174e-39
0.0010980952 -0.1153 1.153 9.5865308e-39
0.0032942859 -0.1153 1.153 1.530266e-38
-0.075768568 -0.11310381 1.153 9.5879798e-39
-0.07331714 -0.11271144 1.149 6.9258224e-39
-0.070880957 -0.11231906 1.1450001 4.4365404e-39
-0.068700008 -0.11231906 1.1450001 1.594672e-39
-0.066286668 -0.11192667 1.141 2.2400415e-39
-0.064113334 -0.11192667 1.141 3.8930482e-39
-0.061777141 -0.11163238 1.138 6.5667214e-39
-0.059609525 -0.11163238 1.138 1.4105903e-38
-0.057240006 -0.11124001 1.1340001 1.7517142e-38
-0.055080004 -0.11124001 1.1340001 1.6410832e-38
-0.053106666 -0.11163238 1.138 1.0233725e-38
-0.050760005 -0.11124001 1.1340001 9.7745192e-39
-0.048600003 -0.11124001 1.1340001 1.0512084e-38
-0.046440002 -0.11124001 1.1340001 9.4085981e-39
-0.044280004 -0.11124001 1.1340001 9.685185e-39
-0.042120002 -0.11124001 1.1340001 1.3275033e-38
-0.039960004 -0.11124001 1.1340001 1.8161401e-38
-0.037666667 -0.11084761 1.13 1.9820243e-38
-0.035514288 -0.11084761 1.13 1.9728047e-38
-0.033361904 -0.11084761 1.13 1.7797369e-38
-0.031209525 -0.11084761 1.13 1.4109544e-38
-0.029057143 -0.11084761 1.13 1.1262983e-38
-0.026904762 -0.11084761 1.13 1.1262983e-38
-0.024840001 -0.11124001 1.1340001 1.1080392e-38
-0.02276 -0.11163238 1.138 9.9740445e-39
-0.02059238 -0.11163238 1.138 1.0985285e-38
-0.018424762 -0.11163238 1.138 1.467311e-38
-0.016257143 -0.11163238 1.138 1.5865229e-38
-0.014089524 -0.11163238 1.138 1.162423e-38
-0.011921904 -0.11163238 1.138 5.8284557e-39
-0.00978 -0.11192667 1.141 3.523565e-39
-0.0076333336 -0.11231906 1.1450001 1.5985943e-39
-0.0054714289 -0.11271144 1.149 2.9815287e-39
-0.0032828571 -0.11271144 1.149 9.3185956e-39
-0.0010942857 -0.11271144 1.149 8.7654218e-39
0.0010942857 -0.11271144 1.149 1.02319e-38
0.0032942859 -0.11310381 1.153 1.5118269e-38
-0.076031432 -0.11129239 1.1570001 9.771655e-39
-0.073572382 -0.11090762 1.153 7.7527146e-39
-0.071128577 -0.11052286 1.149 7.1995408e-39
-0.068700008 -0.1101381 1.1450001 3.9859921e-39
-0.066519052 -0.1101381 1.1450001 3.9859921e-39
-0.064113334 -0.10975334 1.141 2.5159095e-39
-0.061940003 -0.10975334 1.141 1.9627357e-39
-0.059766669 -0.10975334 1.141 1.1990024e-38
-0.057441905 -0.10946476 1.138 1.5677849e-38
-0.055274285 -0.10946476 1.138 1.5488454e-38
-0.053106666 -0.10946476 1.138 9.5879335e-39
-0.050760005 -0.10908 1.1340001 8.948011e-39
-0.048600003 -0.10908 1.1340001 1.0515337e-38
-0.046440002 -0.10908 1.1340001 1.0880882e-38
-0.044280004 -0.10908 1.1340001 1.0143317e-38
-0.042120002 -0.10908 1.1340001 9.4071912e-39
-0.039960004 -0.10908 1.1340001 1.3371603e-38
-0.037666667 -0.10869523 1.13 1.7334159e-38
-0.035514288 -0.10869523 1.13 1.8624898e-38
-0.033480003 -0.10908 1.1340001 1.7061208e-38
-0.031320002 -0.10908 1.1340001 1.3465579e-38
-0.029160002 -0.10908 1.1340001 1.1172951e-38
-0.027000003 -0.10908 1.1340001 1.1265146e-38
-0.024927618 -0.10946476 1.138 1.1356263e-38
-0.02276 -0.10946476 1.138 1.0710893e-38
-0.02059238 -0.10946476 1.138 1.1352657e-38
-0.018424762 -0.10946476 1.138 1.3934135e-38
-0.0163 -0.10975334 1.141 1.5128362e-38
-0.014126667 -0.10975334 1.141 1.0887363e-38
-0.011953333 -0.10975334 1.141 3.6233585e-39
-0.0098142866 -0.1101381 1.1450001 1.6872502e-39
-0.0076600001 -0.11052286 1.149 3.2520298e-39
-0.0054714289 -0.11052286 1.149 7.1242462e-39
-0.0032828571 -0.11052286 1.149 1.0333466e-38
-0.0010942857 -0.11052286 1.149 9.5959013e-39
0.0010942857 -0.11052286 1.149 1.1247163e-38
0.0033057143 -0.11129239 1.1570001 1.4658402e-38
-0.076031432 -0.10908858 1.1570001 1.078581e-38
-0.073827624 -0.10908858 1.1570001 8.490239e-39
-0.071128577 -0.10833429 1.149 8.9512171e-39
-0.068939999 -0.10833429 1.149 5.0876831e-39
-0.066519052 -0.10795715 1.1450001 4.1657268e-39
-0.064338103 -0.10795715 1.1450001 1.1380071e-39
-0.06215715 -0.10795715 1.1450001 6.7702895e-40
-0.059766669 -0.10758 1.141 9.3207283e-39
-0.057593334 -0.10758 1.141 1.4391488e-38
-0.05542 -0.10758 1.141 1.3647477e-38
-0.053106666 -0.10729714 1.138 9.1298911e-39
-0.050939046 -0.10729714 1.138 9.5919174e-39
-0.048600003 -0.10692 1.1340001 1.0698265e-38
-0.046440002 -0.10692 1.1340001 1.1064555e-38
-0.044280004 -0.10692 1.1340001 1.0787968e-38
-0.042120002 -0.10692 1.1340001 8.6746302e-39
-0.039960004 -0.10692 1.1340001 1.2546847e-38
-0.037800003 -0.10692 1.1340001 1.411203e-38
-0.035640001 -0.10692 1.1340001 1.6877899e-38
-0.033480003 -0.10692 1.1340001 1.4668832e-38
-0.031320002 -0.10692 1.1340001 1.2456136e-38
-0.029160002 -0.10692 1.1340001 1.1080752e-38
-0.027000003 -0.10692 1.1340001 1.1265143e-38
-0.024927618 -0.10729714 1.138 1.1263714e-38
-0.02276 -0.10729714 1.138 1.0618345e-38
-0.02059238 -0.10729714 1.138 1.1076789e-38
-0.018424762 -0.10729714 1.138 1.4119245e-38
-0.0163 -0.10758 1.141 1.4669905e-38
-0.014176192 -0.10795715 1.1450001 1.1996232e-38
-0.011995239 -0.10795715 1.1450001 3.9935885e-39
-0.0098142866 -0.10795715 1.1450001 8.589371e-40
-0.0076600001 -0.10833429 1.149 4.5369882e-39
-0.0054714289 -0.10833429 1.149 9.331161e-39
-0.0032828571 -0.10833429 1.149 1.152912e-38
-0.0010942857 -0.10833429 1.149 1.005399e-38
0.0010904763 -0.10795715 1.1450001 1.2998843e-38
0.0032714289 -0.10795715 1.1450001 1.5027146e-38
-0.073827624 -0.10688476 1.1570001 8.5806353e-39
-0.07137619 -0.10651524 1.153 1.0885526e-38
-0.068939999 -0.10614572 1.149 7.5722988e-39
-0.066751435 -0.10614572 1.149 3.8844736e-39
-0.064338103 -0.1057762 1.1450001 1.8705681e-39
-0.06215715 -0.1057762 1.1450001 6.2037627e-39
-0.059766669 -0.10540666 1.141 1.3096098e-38
-0.057593334 -0.10540666 1.141 1.706051e-38
-0.05542 -0.10540666 1.141 1.6596257e-38
-0.053106666 -0.10512953 1.138 1.0972324e-38
-0.050939046 -0.10512953 1.138 8.8558097e-39
-0.048600003 -0.10476001 1.1340001 9.5011791e-39
-0.046440002 -0.10476001 1.1340001 9.9600147e-39
-0.044280004 -0.10476001 1.1340001 9.5912322e-39
-0.042120002 -0.10476001 1.1340001 9.9607125e-39
-0.039960004 -0.10476001 1.1340001 1.4754885e-38
-0.037800003 -0.10476001 1.1340001 1.7611478e-38
-0.035640001 -0.10476001 1.1340001 1.8994413e-38
-0.033480003 -0.10476001 1.1340001 1.6877548e-38
-0.031320002 -0.10476001 1.1340001 1.3742897e-38
-0.029160002 -0.10476001 1.1340001 1.1356263e-38
-0.027000003 -0.10476001 1.1340001 1.1356263e-38
-0.024927618 -0.10512953 1.138 1.1079689e-38
-0.02276 -0.10512953 1.138 1.1079689e-38
-0.02059238 -0.10512953 1.138 1.3193686e-38
-0.018473335 -0.10540666 1.141 1.5590772e-38
-0.016357144 -0.1057762 1.1450001 1.6323659e-38
-0.014176192 -0.1057762 1.1450001 1.6139267e-38
-0.011995239 -0.1057762 1.1450001 1.2456857e-38
-0.0098485723 -0.10614572 1.149 7.662684e-39
-0.0076600001 -0.10614572 1.149 8.6782456e-39
-0.0054904758 -0.10651524 1.153 1.1812897e-38
-0.0032942859 -0.10651524 1.153 1.1344366e-38
-0.0010942857 -0.10614572 1.149 9.5004533e-39
0.0010904763 -0.1057762 1.1450001 1.2815881e-38
0.0032714289 -0.1057762 1.1450001 1.5950532e-38
-0.07137619 -0.10431904 1.153 1.0695747e-38
-0.068939999 -0.10395715 1.149 1.0699728e-38
-0.066751435 -0.10395715 1.149 5.8133595e-39
-0.064338103 -0.10359525 1.1450001 5.3606631e-39
-0.06215715 -0.10359525 1.1450001 1.1076792e-38
-0.059976194 -0.10359525 1.1450001 1.5579982e-38
-0.057593334 -0.10323334 1.141 1.7055113e-38
-0.05542 -0.10323334 1.141 1.6045277e-38
-0.053106666 -0.10296191 1.138 1.3095016e-38
-0.050939046 -0.10296191 1.138 1.0054751e-38
-0.048600003 -0.1026 1.1340001 8.8562077e-39
-0.046440002 -0.1026 1.1340001 9.1327105e-39
-0.044280004 -0.1026 1.1340001 9.7780799e-39
-0.042120002 -0.1026 1.1340001 1.0514277e-38
-0.039960004 -0.1026 1.1340001 1.6230406e-38
-0.037800003 -0.1026 1.1340001 1.807141e-38
-0.035640001 -0.1026 1.1340001 1.8163605e-38
-0.033480003 -0.1026 1.1340001 1.6877548e-38
-0.031320002 -0.1026 1.1340001 1.494144e-38
-0.029262858 -0.10296191 1.138 1.1449916e-38
-0.027095238 -0.10296191 1.138 1.052796e-38
-0.025080955 -0.10359525 1.1450001 1.0619414e-38
-0.022900002 -0.10359525 1.1450001 1.1633566e-38
-0.020719048 -0.10359525 1.1450001 1.5493179e-38
-0.018538097 -0.10359525 1.1450001 1.5493179e-38
-0.016414287 -0.10395715 1.149 1.5858339e-38
-0.014225715 -0.10395715 1.149 1.6872491e-38
-0.012037144 -0.10395715 1.149 1.5771211e-38
-0.0098485723 -0.10395715 1.149 1.2544364e-38
-0.0076600001 -0.10395715 1.149 9.7839247e-39
-0.0054904758 -0.10431904 1.153 1.0613685e-38
-0.0032942859 -0.10431904 1.153 1.1343634e-38
-0.0010942857 -0.10395715 1.149 1.0052896e-38
0.0010942857 -0.10395715 1.149 1.2816237e-38
0.0032828571 -0.10395715 1.149 1.5674301e-38
-0.07137619 -0.10212285 1.153 7.1937801e-39
-0.069179997 -0.10212285 1.153 8.1193517e-39
-0.066751435 -0.10176858 1.149 1.1346199e-38
-0.064562857 -0.10176858 1.149 1.3557399e-38
-0.06237429 -0.10176858 1.149 1.5677898e-38
-0.059976194 -0.10141429 1.1450001 1.4385402e-38
-0.057795241 -0.10141429 1.1450001 1.3279055e-38
-0.055614289 -0.10141429 1.1450001 1.4202446e-38
-0.053246666 -0.10106 1.141 1.6599532e-38
-0.050939046 -0.10079429 1.138 1.4754913e-38
-0.048600003 -0.10044 1.1340001 1.060611e-38
-0.046440002 -0.10044 1.1340001 1.0147593e-38
-0.044280004 -0.10044 1.1340001 1.4112005e-38
-0.042120002 -0.10044 1.1340001 1.7333482e-38
-0.039960004 -0.10044 1.1340001 1.8808612e-38
-0.037800003 -0.10044 1.1340001 1.5771204e-38
-0.035640001 -0.10044 1.1340001 1.3189726e-38
-0.033598095 -0.10079429 1.138 1.4298955e-38
-0.031430475 -0.10079429 1.138 1.7710193e-38
-0.029262858 -0.10079429 1.138 1.7063735e-38
-0.027166668 -0.10106 1.141 1.4113475e-38
-0.025080955 -0.10141429 1.1450001 1.4852466e-38
-0.022900002 -0.10141429 1.1450001 1.6696379e-38
-0.020719048 -0.10141429 1.1450001 1.6505902e-38
-0.018602857 -0.10176858 1.149 1.2080511e-38
-0.016414287 -0.10176858 1.149 1.0606755e-38
-0.014225715 -0.10176858 1.149 1.1897493e-38
-0.012037144 -0.10176858 1.149 1.3647484e-38
-0.0098485723 -0.10176858 1.149 1.5952375e-38
-0.0076600001 -0.10176858 1.149 1.4754901e-38
-0.0054904758 -0.10212285 1.153 1.1159271e-38
-0.0032942859 -0.10212285 1.153 9.5044091e-39
-0.0010980952 -0.10212285 1.153 9.4122135e-39
0.0010942857 -0.10176858 1.149 1.2264861e-38
0.0032828571 -0.10176858 1.149 1.5122925e-38
-0.07162381 -0.10027333 1.1570001 5.6271732e-39
-0.069179997 -0.099926665 1.153 8.1181732e-39
-0.066983812 -0.099926665 1.153 1.3373324e-38
-0.064562857 -0.099580005 1.149 1.5395225e-38
-0.06237429 -0.099580005 1.149 1.5671812e-38
-0.060185716 -0.099580005 1.149 1.2823108e-38
-0.057795241 -0.099233337 1.1450001 1.0426022e-38
-0.055614289 -0.099233337 1.1450001 1.180966e-38
-0.053246666 -0.098886669 1.141 1.5313094e-38
-0.051073335 -0.098886669 1.141 1.6874318e-38
-0.048771426 -0.098626666 1.138 1.3370884e-38
-0.04660381 -0.098626666 1.138 1.2080146e-38
-0.044280004 -0.098280005 1.1340001 1.7150905e-38
-0.042120002 -0.098280005 1.1340001 1.8440924e-38
-0.039960004 -0.098280005 1.1340001 1.7242381e-38
-0.037800003 -0.098280005 1.1340001 1.2461156e-38
-0.035640001 -0.098280005 1.1340001 9.0499176e-39
-0.033598095 -0.098626666 1.138 1.1997992e-38
-0.031513333 -0.098886669 1.141 1.6238991e-38
-0.029340001 -0.098886669 1.141 1.8259041e-38
-0.027166668 -0.098886669 1.141 1.7060498e-38
-0.025080955 -0.099233337 1.1450001 1.5680485e-38
-0.022900002 -0.099233337 1.1450001 1.641805e-38
-0.020719048 -0.099233337 1.1450001 1.7056189e-38
-0.018602857 -0.099580005 1.149 1.0141516e-38
-0.016414287 -0.099580005 1.149 8.7614211e-39
-0.014225715 -0.099580005 1.149 9.4989861e-39
-0.012037144 -0.099580005 1.149 1.3273615e-38
-0.0098485723 -0.099580005 1.149 1.7422418e-38
-0.0076866667 -0.099926665 1.153 1.576728e-38
-0.0054904758 -0.099926665 1.153 9.9589553e-39
-0.0032942859 -0.099926665 1.153 7.940298e-39
-0.0010980952 -0.099926665 1.153 9.2310368e-39
0.0010980952 -0.099926665 1.153 1.2539294e-38
0.0032942859 -0.099926665 1.153 1.5028576e-38
0.0054904758 -0.099926665 1.153 1.5394487e-38
-0.074082859 -0.098408572 1.161 7.1952598e-39
-0.07162381 -0.098069526 1.1570001 2.5854783e-39
-0.069420002 -0.098069526 1.1570001 4.8963807e-39
-0.066983812 -0.097730473 1.153 1.1811053e-38
-0.064562857 -0.097391427 1.149 1.3647824e-38
-0.06237429 -0.097391427 1.149 1.2818064e-38
-0.060185716 -0.097391427 1.149 1.0522884e-38
-0.057795241 -0.097052388 1.1450001 9.6931234e-39
-0.055614289 -0.097052388 1.1450001 9.878965e-39
-0.053433336 -0.097052388 1.1450001 1.1630682e-38
-0.051073335 -0.096713334 1.141 1.4571942e-38
-0.048771426 -0.096459046 1.138 1.6784637e-38
-0.04660381 -0.096459046 1.138 1.7887384e-38
-0.04443619 -0.096459046 1.138 1.8348362e-38
-0.042120002 -0.09612 1.1340001 1.5770144e-38
-0.039960004 -0.09612 1.1340001 1.0607189e-38
-0.037933335 -0.096459046 1.138 5.8342361e-39
-0.035765715 -0.096459046 1.138 4.4513016e-39
-0.033598095 -0.096459046 1.138 5.8328012e-39
-0.031513333 -0.096713334 1.141 8.5064744e-39
-0.029340001 -0.096713334 1.141 1.5311253e-38
-0.027261905 -0.097052388 1.1450001 1.8630295e-38
-0.025080955 -0.097052388 1.1450001 1.8900823e-38
-0.022900002 -0.097052388 1.1450001 1.4475433e-38
-0.020719048 -0.097052388 1.1450001 1.1434779e-38
-0.018602857 -0.097391427 1.149 9.5908664e-39
-0.016414287 -0.097391427 1.149 9.6841313e-39
-0.014225715 -0.097391427 1.149 8.5777837e-39
-0.012037144 -0.097391427 1.149 9.6805257e-39
-0.0098485723 -0.097391427 1.149 1.4935677e-38
-0.0076866667 -0.097730473 1.153 1.4476156e-38
-0.0054904758 -0.097730473 1.153 9.8663743e-39
-0.0033057143 -0.098069526 1.1570001 7.9403274e-39
-0.0011019048 -0.098069526 1.1570001 9.8764357e-39
0.0011019048 -0.098069526 1.1570001 1.2724407e-38
0.0033057143 -0.098069526 1.1570001 1.475271e-38
-0.074082859 -0.096197143 1.161 1.1154592e-38
-0.07187143 -0.096197143 1.161 4.5165069e-39
-0.069660001 -0.096197143 1.161 4.1555562e-39
-0.067216195 -0.095865719 1.1570001 1.2176563e-38
-0.064562857 -0.095202863 1.149 1.2821306e-38
-0.06237429 -0.095202863 1.149 1.1346176e-38
-0.060185716 -0.095202863 1.149 8.3148707e-39
-0.057997145 -0.095202863 1.149 9.3290226e-39
-0.055614289 -0.094871432 1.1450001 8.8702081e-39
-0.053433336 -0.094871432 1.1450001 8.8702081e-39
-0.051073335 -0.094540007 1.141 1.2179884e-38
-0.048900001 -0.094540007 1.141 1.6052101e-38
-0.046726666 -0.094540007 1.141 1.8349101e-38
-0.04443619 -0.094291434 1.138 1.7427145e-38
-0.042268571 -0.094291434 1.138 1.163319e-38
-0.040100951 -0.094291434 1.138 6.1014525e-39
-0.037933335 -0.094291434 1.138 3.1702892e-39
-0.035859998 -0.094540007 1.141 4.4610281e-39
-0.033686668 -0.094540007 1.141 3.8145642e-39
-0.031623811 -0.094871432 1.1450001 2.1550429e-39
-0.02944286 -0.094871432 1.1450001 1.0338821e-38
-0.027261905 -0.094871432 1.1450001 1.7253493e-38
-0.025168573 -0.095202863 1.149 1.8809376e-38
-0.022980001 -0.095202863 1.149 1.134153e-38
-0.02079143 -0.095202863 1.149 1.0510267e-38
-0.018602857 -0.095202863 1.149 1.0694658e-38
-0.016414287 -0.095202863 1.149 1.0603576e-38
-0.014225715 -0.095202863 1.149 9.220642e-39
-0.012037144 -0.095202863 1.149 8.7628602e-39
-0.0098828571 -0.09553428 1.153 1.4294598e-38
-0.0076866667 -0.09553428 1.153 1.374149e-38
-0.0055095241 -0.095865719 1.1570001 9.3160998e-39
-0.0033057143 -0.095865719 1.1570001 8.0317846e-39
-0.0011019048 -0.095865719 1.1570001 1.0428871e-38
0.0011019048 -0.095865719 1.1570001 1.2724401e-38
-0.07187143 -0.093985714 1.161 3.7825768e-39
-0.069660001 -0.093985714 1.161 2.0423238e-39
-0.067216195 -0.093661912 1.1570001 9.8789524e-39
-0.064787619 -0.093338095 1.153 1.2820941e-38
-0.06237429 -0.093014285 1.149 1.1806789e-38
-0.060185716 -0.093014285 1.149 9.418347e-39
-0.057997145 -0.093014285 1.149 9.9715208e-39
-0.055614289 -0.09269049 1.1450001 9.6970947e-39
-0.053433336 -0.09269049 1.1450001 9.5127034e-39
-0.051252387 -0.09269049 1.1450001 1.0983862e-38
-0.048900001 -0.092366666 1.141 1.4671687e-38
-0.046726666 -0.092366666 1.141 1.632439e-38
-0.044553336 -0.092366666 1.141 1.337413e-38
-0.042268571 -0.092123814 1.138 6.4767314e-39
-0.040100951 -0.092123814 1.138 4.9094057e-39
-0.038033333 -0.092366666 1.141 5.1017157e-39
-0.035859998 -0.092366666 1.141 5.7470851e-39
-0.033804763 -0.09269049 1.1450001 6.2044633e-39
-0.031623811 -0.09269049 1.1450001 3.7151813e-39
-0.02944286 -0.09269049 1.1450001 8.221561e-39
-0.027261905 -0.09269049 1.1450001 1.4767451e-38
-0.025168573 -0.093014285 1.149 1.7059419e-38
-0.022980001 -0.093014285 1.149 9.775964e-39
-0.02079143 -0.093014285 1.149 8.304424e-39
-0.018602857 -0.093014285 1.149 9.041989e-39
-0.016414287 -0.093014285 1.149 9.6827089e-39
-0.014225715 -0.093014285 1.149 8.9451439e-39
-0.012037144 -0.093014285 1.149 1.0971974e-38
-0.0098828571 -0.093338095 1.153 1.6595907e-38
-0.0077133342 -0.093661912 1.1570001 1.5582491e-38
-0.0055095241 -0.093661912 1.1570001 1.0972709e-38
-0.0033057143 -0.093661912 1.1570001 1.014904e-38
-0.0011019048 -0.093661912 1.1570001 1.1255388e-38
0.0011019048 -0.093661912 1.1570001 1.2447804e-38
-0.074338101 -0.09209048 1.1650001 1.2264537e-38
-0.07187143 -0.091774285 1.161 5.3498647e-39
-0.069660001 -0.091774285 1.161 5.0764699e-39
-0.067448571 -0.091774285 1.161 1.2636512e-38
-0.064787619 -0.091141902 1.153 1.3375904e-38
-0.06237429 -0.090825714 1.149 1.2453948e-38
-0.060185716 -0.090825714 1.149 9.603111e-39
-0.057997145 -0.090825714 1.149 9.8796979e-39
-0.055614289 -0.090509534 1.1450001 1.006407e-38
-0.053433336 -0.090509534 1.1450001 1.0156265e-38
-0.051252387 -0.090509534 1.1450001 9.8807545e-39
-0.049071435 -0.090509534 1.1450001 1.3845167e-38
-0.046890479 -0.090509534 1.1450001 1.5038337e-38
-0.044553336 -0.090193339 1.141 1.2825642e-38
-0.042380001 -0.090193339 1.141 4.9158825e-39
-0.040206671 -0.090193339 1.141 4.2705131e-39
-0.038033333 -0.090193339 1.141 5.0087942e-39
-0.035859998 -0.090193339 1.141 5.3775767e-39
-0.033804763 -0.090509534 1.1450001 5.1924694e-39
-0.031623811 -0.090509534 1.1450001 3.6251437e-39
-0.02944286 -0.090509534 1.1450001 6.5674501e-39
-0.027261905 -0.090509534 1.1450001 1.3758709e-38
-0.025168573 -0.090825714 1.149 1.6416958e-38
-0.022980001 -0.090825714 1.149 1.0793025e-38
-0.02079143 -0.090825714 1.149 9.4068255e-39
-0.018602857 -0.090825714 1.149 9.2224342e-39
-0.016414287 -0.090825714 1.149 9.4071464e-39
-0.014225715 -0.090825714 1.149 1.0421298e-38
-0.012079047 -0.091141902 1.153 1.2902734e-38
-0.0098828571 -0.091141902 1.153 1.659056e-38
-0.0077133342 -0.091458097 1.1570001 1.5581762e-38
-0.0055285715 -0.091774285 1.161 1.2078328e-38
-0.0033171428 -0.091774285 1.161 1.1342914e-38
-0.0011057142 -0.091774285 1.161 1.1250718e-38
0.0011057142 -0.091774285 1.161 1.2261981e-38
-0.074338101 -0.089871436 1.1650001 1.2540744e-38
-0.07187143 -0.089562856 1.161 8.8529188e-39
-0.069660001 -0.089562856 1.161 9.3146453e-39
-0.067448571 -0.089562856 1.161 1.3186862e-38
-0.06501238 -0.08925429 1.1570001 1.4109486e-38
-0.06237429 -0.088637143 1.149 1.5031443e-38
-0.060185716 -0.088637143 1.149 1.2823108e-38
-0.057997145 -0.088637143 1.149 1.1255783e-38
-0.055614289 -0.088328578 1.1450001 9.604183e-39
-0.053433336 -0.088328578 1.1450001 1.0249552e-38
-0.051252387 -0.088328578 1.1450001 1.2088055e-38
-0.049071435 -0.088328578 1.1450001 1.5683684e-38
-0.046890479 -0.088328578 1.1450001 1.6875763e-38
-0.044553336 -0.088020004 1.141 1.6506981e-38
-0.042380001 -0.088020004 1.141 1.1630361e-38
-0.040206671 -0.088020004 1.141 6.7439927e-39
-0.038166672 -0.088328578 1.1450001 2.0668256e-39
-0.035985716 -0.088328578 1.1450001 2.1590212e-39
-0.033804763 -0.088328578 1.1450001 4.1797594e-39
-0.031623811 -0.088328578 1.1450001 6.4846502e-39
-0.02944286 -0.088328578 1.1450001 1.19966e-38
-0.027261905 -0.088328578 1.1450001 1.6975164e-38
-0.025168573 -0.088637143 1.149 1.8349451e-38
-0.022980001 -0.088637143 1.149 1.6136756e-38
-0.02079143 -0.088637143 1.149 1.2082334e-38
-0.018602857 -0.088637143 1.149 8.1179224e-39
-0.016414287 -0.088637143 1.149 8.7657525e-39
-0.014225715 -0.088637143 1.149 1.3652121e-38
-0.012079047 -0.088945709 1.153 1.4661253e-38
-0.0099171428 -0.08925429 1.1570001 1.198758e-38
-0.0077133342 -0.08925429 1.1570001 1.3186787e-38
-0.0055285715 -0.089562856 1.161 1.4016548e-38
-0.0033171428 -0.089562856 1.161 1.2447111e-38
