# .PCD v0.7 - Point Cloud Data file format
VERSION 0.7
FIELDS x y z rgb
SIZE 4 4 4 4
TYPE F F F F
COUNT 1 1 1 1
WIDTH 969
HEIGHT 1
VIEWPOINT 0 0 0 1 0 0 0
POINTS 969
DATA ascii
-0.063600004 -0.095904768 1.0600001 1.7977066e-38
-0.061580956 -0.095904768 1.0600001 1.788487e-38
-0.059561908 -0.095904768 1.0600001 1.7607918e-38
-0.057542857 -0.095904768 1.0600001 1.7700113e-38
-0.055366669 -0.095633335 1.057 1.7608637e-38
-0.053353336 -0.095633335 1.057 1.7608637e-38
-0.051340003 -0.095633335 1.057 1.7608637e-38
-0.049186666 -0.095361911 1.054 1.7424245e-38
-0.047179051 -0.095361911 1.054 1.6872153e-38
-0.045000002 -0.095000006 1.0500001 1.6872153e-38
-0.043000001 -0.095000006 1.0500001 1.6963983e-38
-0.041000001 -0.095000006 1.0500001 1.6687396e-38
-0.03888857 -0.094728574 1.0470001 1.6503371e-38
-0.036894288 -0.094728574 1.0470001 1.6226784e-38
-0.0348 -0.094457142 1.044 1.6226415e-38
-0.032717142 -0.094185717 1.041 1.5673242e-38
-0.030734286 -0.094185717 1.041 1.5118989e-38
-0.028668575 -0.093914293 1.0380001 1.4842402e-38
-0.026691431 -0.093914293 1.0380001 1.4381427e-38
-0.024785714 -0.094185717 1.041 1.4473622e-38
-0.022737145 -0.093914293 1.0380001 1.5487039e-38
-0.020760002 -0.093914293 1.0380001 1.4933865e-38
-0.01878286 -0.093914293 1.0380001 1.4563275e-38
-0.11095524 -0.091317147 1.031 1.2537887e-38
-0.10867429 -0.091051422 1.028 1.2815158e-38
-0.10671619 -0.091051422 1.028 1.4474679e-38
-0.1047581 -0.091051422 1.028 1.4748757e-38
-0.1028 -0.091051422 1.028 1.5209736e-38
-0.10113619 -0.091317147 1.031 1.5210111e-38
-0.099460959 -0.091582857 1.034 1.6132067e-38
-0.097868577 -0.091937155 1.0380001 1.6132415e-38
-0.096445717 -0.092468575 1.044 1.6224611e-38
-0.094728574 -0.092734285 1.0470001 1.6040595e-38
-0.092734285 -0.092734285 1.0470001 1.6685964e-38
-0.091000006 -0.09300001 1.0500001 1.6594122e-38
-0.089000002 -0.09300001 1.0500001 1.6870709e-38
-0.087000005 -0.09300001 1.0500001 1.6870356e-38
-0.085323811 -0.093354285 1.054 1.7239138e-38
-0.083316192 -0.093354285 1.054 1.7147658e-38
-0.081540003 -0.093620002 1.057 1.7424245e-38
-0.07952667 -0.093620002 1.057 1.7424243e-38
-0.077733338 -0.09388572 1.0600001 1.7424243e-38
-0.07571429 -0.09388572 1.0600001 1.7332415e-38
-0.073695242 -0.09388572 1.0600001 1.7701198e-38
-0.071676195 -0.09388572 1.0600001 1.7700832e-38
-0.069657147 -0.09388572 1.0600001 1.7793028e-38
-0.067638099 -0.09388572 1.0600001 1.7977056e-38
-0.065619051 -0.09388572 1.0600001 1.8069252e-38
-0.063600004 -0.09388572 1.0600001 1.79767e-38
-0.061580956 -0.09388572 1.0600001 1.7884505e-38
-0.059561908 -0.09388572 1.0600001 1.7700116e-38
-0.057542857 -0.09388572 1.0600001 1.7607921e-38
-0.055523813 -0.09388572 1.0600001 1.7516441e-38
-0.053504765 -0.09388572 1.0600001 1.7516441e-38
-0.051340003 -0.093620002 1.057 1.7239854e-38
-0.049326669 -0.093620002 1.057 1.7055463e-38
-0.047179051 -0.093354285 1.054 1.7055463e-38
-0.045171428 -0.093354285 1.054 1.7055463e-38
-0.043000001 -0.09300001 1.0500001 1.668668e-38
-0.041000001 -0.09300001 1.0500001 1.6225702e-38
-0.03888857 -0.092734285 1.0470001 1.6040961e-38
-0.036894288 -0.092734285 1.0470001 1.5856569e-38
-0.0348 -0.092468575 1.044 1.5764361e-38
-0.032717142 -0.092202857 1.041 1.557997e-38
-0.030734286 -0.092202857 1.041 1.6039859e-38
-0.028668575 -0.091937155 1.0380001 1.6408642e-38
-0.026691431 -0.091937155 1.0380001 1.6225317e-38
-0.024785714 -0.092202857 1.041 1.5395556e-38
-0.022737145 -0.091937155 1.0380001 1.4565468e-38
-0.020760002 -0.091937155 1.0380001 1.4381076e-38
-0.11095524 -0.08935333 1.031 1.2264187e-38
-0.10867429 -0.089093328 1.028 1.2812296e-38
-0.10671619 -0.089093328 1.028 1.3918644e-38
-0.1047581 -0.089093328 1.028 1.5024613e-38
-0.1028 -0.089093328 1.028 1.5577787e-38
-0.10113619 -0.08935333 1.031 1.5026443e-38
-0.099460959 -0.089613333 1.034 1.5671812e-38
-0.097868577 -0.089960009 1.0380001 1.5855828e-38
-0.096445717 -0.090480007 1.044 1.6132415e-38
-0.094728574 -0.09074001 1.0470001 1.6040592e-38
-0.09300001 -0.091000006 1.0500001 1.6593766e-38
-0.091000006 -0.091000006 1.0500001 1.6594122e-38
-0.089000002 -0.091000006 1.0500001 1.6778513e-38
-0.087331429 -0.091346666 1.054 1.6870356e-38
-0.08556667 -0.091606669 1.057 1.7146942e-38
-0.083553337 -0.091606669 1.057 1.7147661e-38
-0.081540003 -0.091606669 1.057 1.7239857e-38
-0.07952667 -0.091606669 1.057 1.7147656e-38
-0.077733338 -0.091866672 1.0600001 1.7424243e-38
-0.07571429 -0.091866672 1.0600001 1.7332415e-38
-0.073695242 -0.091866672 1.0600001 1.7609002e-38
-0.071676195 -0.091866672 1.0600001 1.7609e-38
-0.069657147 -0.091866672 1.0600001 1.7609e-38
-0.067638099 -0.091866672 1.0600001 1.7700832e-38
-0.065619051 -0.091866672 1.0600001 1.7977419e-38
-0.063600004 -0.091866672 1.0600001 1.7608639e-38
-0.061580956 -0.091866672 1.0600001 1.7608639e-38
-0.059561908 -0.091866672 1.0600001 1.7608637e-38
-0.057542857 -0.091866672 1.0600001 1.7608637e-38
-0.055523813 -0.091866672 1.0600001 1.7332769e-38
-0.053504765 -0.091866672 1.0600001 1.7332769e-38
-0.051340003 -0.091606669 1.057 1.7055463e-38
-0.049326669 -0.091606669 1.057 1.7055463e-38
-0.047313333 -0.091606669 1.057 1.7147658e-38
-0.045171428 -0.091346666 1.054 1.6963267e-38
-0.043000001 -0.091000006 1.0500001 1.6410447e-38
-0.041000001 -0.091000006 1.0500001 1.6410447e-38
-0.03888857 -0.09074001 1.0470001 1.6040945e-38
-0.036894288 -0.09074001 1.0470001 1.6040945e-38
-0.0348 -0.090480007 1.044 1.585692e-38
-0.032717142 -0.090220004 1.041 1.5949115e-38
-0.030734286 -0.090220004 1.041 1.6684162e-38
-0.028668575 -0.089960009 1.0380001 1.7052945e-38
-0.026691431 -0.089960009 1.0380001 1.6869983e-38
-0.024714287 -0.089960009 1.0380001 1.502607e-38
-0.022737145 -0.089960009 1.0380001 1.3553422e-38
-0.10867429 -0.087135233 1.028 1.4751654e-38
-0.10671619 -0.087135233 1.028 1.2538959e-38
-0.1047581 -0.087135233 1.028 1.4379975e-38
-0.1028 -0.087135233 1.028 1.6223887e-38
-0.10113619 -0.087389529 1.031 1.6130272e-38
-0.099460959 -0.08764381 1.034 1.6406859e-38
-0.098151423 -0.088237144 1.041 1.6316799e-38
-0.096722864 -0.088745721 1.0470001 1.6316799e-38
-0.094728574 -0.088745721 1.0470001 1.6040595e-38
-0.09300001 -0.089000002 1.0500001 1.6593769e-38
-0.091000006 -0.089000002 1.0500001 1.650157e-38
-0.089000002 -0.089000002 1.0500001 1.650157e-38
-0.087331429 -0.089339048 1.054 1.6593416e-38
-0.08556667 -0.089593336 1.057 1.6962198e-38
-0.083553337 -0.089593336 1.057 1.6962554e-38
-0.081771433 -0.089847624 1.0600001 1.705475e-38
-0.079752386 -0.089847624 1.0600001 1.6962551e-38
-0.077733338 -0.089847624 1.0600001 1.7146942e-38
-0.07571429 -0.089847624 1.0600001 1.7147308e-38
-0.073695242 -0.089847624 1.0600001 1.7516091e-38
-0.071676195 -0.089847624 1.0600001 1.7516088e-38
-0.069657147 -0.089847624 1.0600001 1.7331697e-38
-0.067638099 -0.089847624 1.0600001 1.733205e-38
-0.065619051 -0.089847624 1.0600001 1.7793028e-38
-0.063600004 -0.089847624 1.0600001 1.7332053e-38
-0.061580956 -0.089847624 1.0600001 1.7239857e-38
-0.059561908 -0.089847624 1.0600001 1.7423527e-38
-0.057542857 -0.089847624 1.0600001 1.7331331e-38
-0.055523813 -0.089847624 1.0600001 1.714694e-38
-0.053504765 -0.089847624 1.0600001 1.714694e-38
-0.051340003 -0.089593336 1.057 1.6962551e-38
-0.049326669 -0.089593336 1.057 1.7054747e-38
-0.047313333 -0.089593336 1.057 1.7239141e-38
-0.045171428 -0.089339048 1.054 1.7331336e-38
-0.043000001 -0.089000002 1.0500001 1.7331684e-38
-0.041000001 -0.089000002 1.0500001 1.7516075e-38
-0.03888857 -0.088745721 1.0470001 1.7608624e-38
-0.036894288 -0.088745721 1.0470001 1.7885211e-38
-0.0348 -0.088491425 1.044 1.7608639e-38
-0.032811429 -0.088491425 1.044 1.7239857e-38
-0.030734286 -0.088237144 1.041 1.5765456e-38
-0.027315238 -0.08382953 0.98900002 1.4013739e-38
-0.02543143 -0.08382953 0.98900002 1.1527003e-38
-0.024714287 -0.087982871 1.0380001 9.4065032e-39
-0.022737145 -0.087982871 1.0380001 1.0235472e-38
-0.10772667 -0.082940005 1.001 1.806963e-38
-0.10582001 -0.082940005 1.001 1.5766544e-38
-0.10360191 -0.082691431 0.99800003 1.0695785e-38
-0.10139524 -0.082442857 0.99500006 1.2444556e-38
-0.099200003 -0.082194284 0.99200004 1.5671403e-38
-0.097310476 -0.082194284 0.99200004 1.6406481e-38
-0.099460959 -0.085674286 1.034 1.6683068e-38
-0.098151423 -0.086254284 1.041 1.6777061e-38
-0.096722864 -0.086751431 1.0470001 1.6684866e-38
-0.094728574 -0.086751431 1.0470001 1.6317182e-38
-0.09300001 -0.087000005 1.0500001 1.677816e-38
-0.091000006 -0.087000005 1.0500001 1.6685964e-38
-0.089000002 -0.087000005 1.0500001 1.6685964e-38
-0.087331429 -0.087331429 1.054 1.6685964e-38
-0.08556667 -0.087580003 1.057 1.6962551e-38
-0.083553337 -0.087580003 1.057 1.7146217e-38
-0.081771433 -0.087828577 1.0600001 1.7146217e-38
-0.079752386 -0.087828577 1.0600001 1.6778513e-38
-0.077733338 -0.087828577 1.0600001 1.6962904e-38
-0.07571429 -0.087828577 1.0600001 1.6778873e-38
-0.073695242 -0.087828577 1.0600001 1.7147656e-38
-0.071676195 -0.087828577 1.0600001 1.714694e-38
-0.069657147 -0.087828577 1.0600001 1.7423527e-38
-0.067638099 -0.087828577 1.0600001 1.7239851e-38
-0.065619051 -0.087828577 1.0600001 1.7424243e-38
-0.063600004 -0.087828577 1.0600001 1.7331687e-38
-0.061580956 -0.087828577 1.0600001 1.7239491e-38
-0.059561908 -0.087828577 1.0600001 1.7331331e-38
-0.057379998 -0.087580003 1.057 1.7423527e-38
-0.055366669 -0.087580003 1.057 1.7330611e-38
-0.053353336 -0.087580003 1.057 1.7607197e-38
-0.051340003 -0.087580003 1.057 1.7606491e-38
-0.049326669 -0.087580003 1.057 1.7790883e-38
-0.047313333 -0.087580003 1.057 1.7792315e-38
-0.045300003 -0.087580003 1.057 1.788451e-38
-0.04316381 -0.087331429 1.054 1.7884505e-38
-0.041000001 -0.087000005 1.0500001 1.7792309e-38
-0.03888857 -0.086751431 1.0470001 1.8069252e-38
-0.036894288 -0.086751431 1.0470001 1.7608274e-38
-0.0328 -0.081531428 0.98400003 1.7241274e-38
-0.030925713 -0.081531428 0.98400003 1.6872491e-38
-0.029140001 -0.081780002 0.98700005 1.3835458e-38
-0.027315238 -0.08194571 0.98900002 1.1069589e-38
-0.02543143 -0.08194571 0.98900002 9.963965e-39
-0.023833334 -0.082940005 1.001 7.1980961e-39
-0.021926668 -0.082940005 1.001 8.9464667e-39
-0.020020001 -0.082940005 1.001 1.4939183e-38
-0.018167621 -0.083188578 1.0040001 1.5578881e-38
-0.10772667 -0.081033342 1.001 1.8530243e-38
-0.10582001 -0.081033342 1.001 1.6687422e-38
-0.10360191 -0.080790475 0.99800003 6.9146849e-39
-0.10139524 -0.080547623 0.99500006 6.0906191e-39
-0.099200003 -0.080304772 0.99200004 1.0516009e-38
-0.097016193 -0.080061905 0.98900002 1.3458729e-38
-0.095132381 -0.080061905 0.98900002 1.5394837e-38
-0.093248576 -0.080061905 0.98900002 1.6778481e-38
-0.091364756 -0.080061905 0.98900002 1.7239459e-38
-0.095000006 -0.085000008 1.0500001 1.696327e-38
-0.09300001 -0.085000008 1.0500001 1.7332053e-38
-0.091000006 -0.085000008 1.0500001 1.724057e-38
-0.089000002 -0.085000008 1.0500001 1.788594e-38
-0.087331429 -0.085323811 1.054 1.7977056e-38
-0.08556667 -0.08556667 1.057 1.8253643e-38
-0.083790481 -0.085809529 1.0600001 1.8345116e-38
-0.081771433 -0.085809529 1.0600001 1.8437311e-38
-0.079752386 -0.085809529 1.0600001 1.8438394e-38
-0.077733338 -0.085809529 1.0600001 1.8622786e-38
-0.07571429 -0.085809529 1.0600001 1.8714972e-38
-0.073695242 -0.085809529 1.0600001 1.8714972e-38
-0.071676195 -0.085809529 1.0600001 1.8806817e-38
-0.069657147 -0.085809529 1.0600001 1.9452186e-38
-0.067638099 -0.085809529 1.0600001 1.9636222e-38
-0.065619051 -0.085809529 1.0600001 1.9728417e-38
-0.063600004 -0.085809529 1.0600001 1.9636938e-38
-0.061580956 -0.085809529 1.0600001 1.9729133e-38
-0.059561908 -0.085809529 1.0600001 2.0005726e-38
-0.057379998 -0.08556667 1.057 2.0097921e-38
-0.055366669 -0.08556667 1.057 1.9637306e-38
-0.053353336 -0.08556667 1.057 1.9729502e-38
-0.051340003 -0.08556667 1.057 1.8532053e-38
-0.04946667 -0.085809529 1.0600001 1.8071075e-38
-0.047447622 -0.085809529 1.0600001 1.6965441e-38
-0.045300003 -0.08556667 1.057 1.7057636e-38
-0.04316381 -0.085323811 1.054 1.7516807e-38
-0.041156191 -0.085323811 1.054 1.7609002e-38
-0.03654857 -0.079657145 0.98400003 1.5764746e-38
-0.034674287 -0.079657145 0.98400003 1.189253e-38
-0.0328 -0.079657145 0.98400003 1.2354214e-38
-0.030925713 -0.079657145 0.98400003 1.5765453e-38
-0.029140001 -0.079900004 0.98700005 1.5306574e-38
-0.027315238 -0.080061905 0.98900002 1.3093879e-38
-0.025662858 -0.080790475 0.99800003 1.0885221e-38
-0.023833334 -0.081033342 1.001 7.1973954e-39
-0.021926668 -0.081033342 1.001 8.4870272e-39
-0.020020001 -0.081033342 1.001 1.4203156e-38
-0.018113334 -0.081033342 1.001 1.5855102e-38
-0.016206667 -0.081033342 1.001 1.5394124e-38
-0.10772667 -0.079126664 1.001 1.8254016e-38
-0.10582001 -0.079126664 1.001 1.7056917e-38
-0.10360191 -0.078889519 0.99800003 7.7451588e-39
-0.10170095 -0.078889519 0.99800003 1.7724968e-39
-0.099200003 -0.078415245 0.99200004 7.3964176e-39
-0.097016193 -0.0781781 0.98900002 1.0699362e-38
-0.095132381 -0.0781781 0.98900002 1.2174492e-38
-0.093248576 -0.0781781 0.98900002 1.4841637e-38
-0.091364756 -0.0781781 0.98900002 1.6501158e-38
-0.089480951 -0.0781781 0.98900002 1.5581793e-38
-0.087597147 -0.0781781 0.98900002 1.5120815e-38
-0.085540004 -0.078020006 0.98700005 1.5398453e-38
-0.083659999 -0.078020006 0.98700005 1.6320409e-38
-0.081780002 -0.078020006 0.98700005 1.7608251e-38
-0.079900004 -0.078020006 0.98700005 1.8530208e-38
-0.083790481 -0.083790481 1.0600001 1.8346918e-38
-0.081771433 -0.083790481 1.0600001 1.8162526e-38
-0.079752386 -0.083790481 1.0600001 1.8623139e-38
-0.077733338 -0.083790481 1.0600001 1.8899726e-38
-0.07571429 -0.083790481 1.0600001 1.9267439e-38
-0.073695242 -0.083790481 1.0600001 1.9175243e-38
-0.071676195 -0.083790481 1.0600001 1.9635138e-38
-0.069657147 -0.083790481 1.0600001 1.9911725e-38
-0.067638099 -0.083790481 1.0600001 2.0281947e-38
-0.065619051 -0.083790481 1.0600001 2.0466338e-38
-0.063600004 -0.083790481 1.0600001 2.0927689e-38
-0.061580956 -0.083790481 1.0600001 2.0466711e-38
-0.059393335 -0.083553337 1.057 2.0652174e-38
-0.057379998 -0.083553337 1.057 1.9822414e-38
-0.055366669 -0.083553337 1.057 1.9270309e-38
-0.053353336 -0.083553337 1.057 1.9178113e-38
-0.051340003 -0.083553337 1.057 1.7428589e-38
-0.049326669 -0.083553337 1.057 1.6045655e-38
-0.047447622 -0.083790481 1.0600001 1.4574816e-38
-0.045428574 -0.083790481 1.0600001 1.5220185e-38
-0.040174287 -0.077545717 0.98100007 1.6135327e-38
-0.038305718 -0.077545717 0.98100007 1.5213371e-38
-0.036437146 -0.077545717 0.98100007 1.4658739e-38
-0.034674287 -0.077782862 0.98400003 9.4957841e-39
-0.032900002 -0.078020006 0.98700005 1.0971922e-38
-0.031020002 -0.078020006 0.98700005 1.4936334e-38
-0.029140001 -0.078020006 0.98700005 1.6961087e-38
-0.027315238 -0.0781781 0.98900002 1.5301565e-38
-0.025662858 -0.078889519 0.99800003 1.2451805e-38
-0.023833334 -0.079126664 1.001 7.6576323e-39
-0.021860953 -0.078889519 0.99800003 9.0373045e-39
-0.019959999 -0.078889519 0.99800003 1.5122216e-38
-0.018004762 -0.078652389 0.99500006 1.5947301e-38
-0.016109524 -0.078652389 0.99500006 1.5486322e-38
-0.10804953 -0.07745143 1.0040001 1.7608271e-38
-0.10582001 -0.07722 1.001 1.6963993e-38
-0.10329048 -0.076757148 0.99500006 9.2195602e-39
-0.10139524 -0.076757148 0.99500006 5.6318494e-39
-0.099200003 -0.076525718 0.99200004 1.0702609e-38
-0.097016193 -0.076294288 0.98900002 1.1895757e-38
-0.095132381 -0.076294288 0.98900002 9.3142796e-39
-0.093248576 -0.076294288 0.98900002 1.1064455e-38
-0.091364756 -0.076294288 0.98900002 1.475228e-38
-0.089480951 -0.076294288 0.98900002 1.4382871e-38
-0.087597147 -0.076294288 0.98900002 1.0971633e-38
-0.085540004 -0.076140001 0.98700005 9.4993715e-39
-0.083659999 -0.076140001 0.98700005 8.2086326e-39
-0.081780002 -0.076140001 0.98700005 1.1061661e-38
-0.079900004 -0.076140001 0.98700005 1.5948029e-38
-0.078020006 -0.076140001 0.98700005 1.696505e-38
-0.081771433 -0.081771433 1.0600001 1.6043093e-38
-0.079752386 -0.081771433 1.0600001 1.631968e-38
-0.077953339 -0.082002863 1.0630001 1.7702615e-38
-0.075928576 -0.082002863 1.0630001 1.7149113e-38
-0.073695242 -0.081771433 1.0600001 1.595057e-38
-0.071676195 -0.081771433 1.0600001 1.5215506e-38
-0.069657147 -0.081771433 1.0600001 1.5307702e-38
-0.067638099 -0.081771433 1.0600001 1.6133882e-38
-0.065804772 -0.082002863 1.0630001 1.8530968e-38
-0.058680002 -0.075445719 0.97800004 1.8624596e-38
-0.05664286 -0.075214282 0.97500002 1.6319705e-38
-0.054785714 -0.075214282 0.97500002 1.1900837e-38
-0.052928571 -0.075214282 0.97500002 1.0794489e-38
-0.051071428 -0.075214282 0.97500002 1.2635505e-38
-0.049214289 -0.075214282 0.97500002 1.7429678e-38
-0.047357146 -0.075214282 0.97500002 1.8347997e-38
-0.045500003 -0.075214282 0.97500002 1.595091e-38
-0.043642856 -0.075214282 0.97500002 1.5769381e-38
-0.041785713 -0.075214282 0.97500002 1.7336706e-38
-0.04005143 -0.075445719 0.97800004 1.8163245e-38
-0.038305718 -0.075677149 0.98100007 1.4844203e-38
-0.036437146 -0.075677149 0.98100007 1.2262745e-38
-0.034674287 -0.075908571 0.98400003 8.943702e-39
-0.032900002 -0.076140001 0.98700005 9.0369542e-39
-0.031020002 -0.076140001 0.98700005 1.2263801e-38
-0.029199047 -0.076294288 0.98900002 1.50275e-38
-0.027315238 -0.076294288 0.98900002 1.5580673e-38
-0.025662858 -0.076988578 0.99800003 1.2728379e-38
-0.023833334 -0.07722 1.001 7.1966415e-39
-0.021860953 -0.076988578 0.99800003 8.7646987e-39
-0.0199 -0.076757148 0.99500006 1.4573023e-38
-0.017950477 -0.076525718 0.99200004 1.6131692e-38
-0.016060952 -0.076525718 0.99200004 1.5670714e-38
-0.10772667 -0.075313337 1.001 1.7607197e-38
-0.10550286 -0.075087622 0.99800003 1.6779605e-38
-0.10329048 -0.074861906 0.99500006 1.0325911e-38
-0.10139524 -0.074861906 0.99500006 7.3773964e-39
-0.099200003 -0.074636191 0.99200004 1.2540352e-38
-0.097016193 -0.074410483 0.98900002 1.2264167e-38
-0.095132381 -0.074410483 0.98900002 7.3777986e-39
-0.093248576 -0.074410483 0.98900002 7.9287037e-39
-0.091364756 -0.074410483 0.98900002 1.2815058e-38
-0.089480951 -0.074410483 0.98900002 1.5486685e-38
-0.087597147 -0.074410483 0.98900002 1.2536425e-38
-0.085540004 -0.074260004 0.98700005 1.1062364e-38
-0.083659999 -0.074260004 0.98700005 1.0601386e-38
-0.081780002 -0.074260004 0.98700005 1.0513138e-38
-0.079900004 -0.074260004 0.98700005 1.5860485e-38
-0.078020006 -0.074260004 0.98700005 1.7149106e-38
-0.075908571 -0.074034289 0.98400003 1.5305193e-38
-0.074034289 -0.074034289 0.98400003 1.5305165e-38
-0.077953339 -0.079978101 1.0630001 1.7149078e-38
-0.075928576 -0.079978101 1.0630001 1.5954173e-38
-0.068202861 -0.073808581 0.98100007 1.4386847e-38
-0.066131428 -0.073582858 0.97800004 9.786754e-39
-0.064268574 -0.073582858 0.97800004 1.1077493e-38
-0.062405713 -0.073582858 0.97800004 1.3924061e-38
-0.060542859 -0.073582858 0.97800004 1.8257256e-38
-0.058680002 -0.073582858 0.97800004 1.8073583e-38
-0.05664286 -0.073357143 0.97500002 1.3095019e-38
-0.054785714 -0.073357143 0.97500002 9.4190701e-39
-0.052928571 -0.073357143 0.97500002 7.1141793e-39
-0.051071428 -0.073357143 0.97500002 1.1350101e-38
-0.049214289 -0.073357143 0.97500002 1.5498905e-38
-0.047357146 -0.073357143 0.97500002 1.9176663e-38
-0.045500003 -0.073357143 0.97500002 1.8346902e-38
-0.043642856 -0.073357143 0.97500002 1.6505548e-38
-0.041785713 -0.073357143 0.97500002 1.7888483e-38
-0.04005143 -0.073582858 0.97800004 1.8439479e-38
-0.038305718 -0.073808581 0.98100007 1.2538959e-38
-0.03654857 -0.074034289 0.98400003 1.2074368e-38
-0.034674287 -0.074034289 0.98400003 1.0968021e-38
-0.032900002 -0.074260004 0.98700005 8.8547055e-39
-0.031020002 -0.074260004 0.98700005 9.5000749e-39
-0.029199047 -0.074410483 0.98900002 1.2908082e-38
-0.027398096 -0.074636191 0.99200004 1.4751994e-38
-0.025662858 -0.075087622 0.99800003 1.1715682e-38
-0.023833334 -0.075313337 1.001 7.1980961e-39
-0.021860953 -0.075087622 0.99800003 9.4093366e-39
-0.0199 -0.074861906 0.99500006 1.4848879e-38
-0.017950477 -0.074636191 0.99200004 1.6039856e-38
-0.016060952 -0.074636191 0.99200004 1.5578878e-38
-0.10772667 -0.073406667 1.001 1.7515725e-38
-0.10550286 -0.073186666 0.99800003 1.6963996e-38
-0.10329048 -0.072966672 0.99500006 1.1432258e-38
-0.10139524 -0.072966672 0.99500006 7.7487139e-39
-0.099200003 -0.072746672 0.99200004 9.8692134e-39
-0.097016193 -0.072526664 0.98900002 9.9614034e-39
-0.095132381 -0.072526664 0.98900002 6.826752e-39
-0.093248576 -0.072526664 0.98900002 6.8249947e-39
-0.091364756 -0.072526664 0.98900002 8.9454942e-39
-0.089480951 -0.072526664 0.98900002 1.2353836e-38
-0.087597147 -0.072526664 0.98900002 1.6779226e-38
-0.085713334 -0.072526664 0.98900002 1.6870336e-38
-0.083659999 -0.072379999 0.98700005 1.6685945e-38
-0.081780002 -0.072379999 0.98700005 1.7241286e-38
-0.079900004 -0.072379999 0.98700005 1.8439829e-38
-0.078020006 -0.072379999 0.98700005 1.6783214e-38
-0.075908571 -0.072160006 0.98400003 1.4293932e-38
-0.074034289 -0.072160006 0.98400003 1.3284806e-38
-0.072160006 -0.072160006 0.98400003 1.5036522e-38
-0.070071429 -0.071940005 0.98100007 1.6414798e-38
-0.068202861 -0.071940005 0.98100007 1.7797732e-38
-0.066131428 -0.071719997 0.97800004 1.733563e-38
-0.064268574 -0.071719997 0.97800004 1.7612217e-38
-0.062405713 -0.071719997 0.97800004 1.8072158e-38
-0.060542859 -0.071719997 0.97800004 1.8901919e-38
-0.058680002 -0.071719997 0.97800004 1.688076e-38
-0.056817144 -0.071719997 0.97800004 1.0058284e-38
-0.054954287 -0.071719997 0.97800004 5.1914128e-39
-0.053091429 -0.071719997 0.97800004 4.7304347e-39
-0.051228572 -0.071719997 0.97800004 7.2117853e-39
-0.049365718 -0.071719997 0.97800004 8.8713067e-39
-0.04750286 -0.071719997 0.97800004 1.4757727e-38
-0.045639999 -0.071719997 0.97800004 1.8629944e-38
-0.043777145 -0.071719997 0.97800004 1.9361445e-38
-0.041914288 -0.071719997 0.97800004 1.7517533e-38
-0.04005143 -0.071719997 0.97800004 1.6043434e-38
-0.038305718 -0.071940005 0.98100007 1.0603892e-38
-0.03654857 -0.072160006 0.98400003 9.7738158e-39
-0.034779999 -0.072379999 0.98700005 1.0419185e-38
-0.032900002 -0.072379999 0.98700005 9.4075388e-39
-0.031082857 -0.072526664 0.98900002 8.7621694e-39
-0.029199047 -0.072526664 0.98900002 1.2263416e-38
-0.027480954 -0.072966672 0.99500006 1.4660502e-38
-0.025739999 -0.073406667 1.001 1.208265e-38
-0.023833334 -0.073406667 1.001 7.1040858e-39
-0.021860953 -0.073186666 0.99800003 9.3185984e-39
-0.0199 -0.072966672 0.99500006 1.4389358e-38
-0.018004762 -0.072966672 0.99500006 1.6039491e-38
-0.016109524 -0.072966672 0.99500006 1.5486317e-38
-0.10550286 -0.07128571 0.99800003 1.6963993e-38
-0.10329048 -0.071071438 0.99500006 1.216982e-38
-0.10139524 -0.071071438 0.99500006 7.3803293e-39
-0.099200003 -0.070857145 0.99200004 8.21009e-39
-0.097016193 -0.070642859 0.98900002 9.0387436e-39
-0.095132381 -0.070642859 0.98900002 7.4714179e-39
-0.093248576 -0.070642859 0.98900002 7.1948493e-39
-0.091364756 -0.070642859 0.98900002 8.0246099e-39
-0.089480951 -0.070642859 0.98900002 1.0048563e-38
-0.087597147 -0.070642859 0.98900002 1.5211518e-38
-0.085713334 -0.070642859 0.98900002 1.7422791e-38
-0.083659999 -0.070500001 0.98700005 1.8436943e-38
-0.081780002 -0.070500001 0.98700005 1.7335665e-38
-0.079900004 -0.070500001 0.98700005 1.6874687e-38
-0.078020006 -0.070500001 0.98700005 1.4391529e-38
-0.075908571 -0.070285715 0.98400003 1.2271029e-38
-0.074034289 -0.070285715 0.98400003 1.0803455e-38
-0.072160006 -0.070285715 0.98400003 1.1817607e-38
-0.070071429 -0.070071429 0.98100007 1.5586819e-38
-0.068202861 -0.070071429 0.98100007 1.7707319e-38
-0.066131428 -0.06985715 0.97800004 1.9175599e-38
-0.064268574 -0.06985715 0.97800004 1.9820969e-38
-0.062405713 -0.06985715 0.97800004 1.8626041e-38
-0.060542859 -0.06985715 0.97800004 1.632115e-38
-0.058680002 -0.06985715 0.97800004 1.1817954e-38
-0.056817144 -0.06985715 0.97800004 7.1159772e-39
-0.054954287 -0.06985715 0.97800004 4.366687e-39
-0.053091429 -0.06985715 0.97800004 5.1042521e-39
-0.051228572 -0.06985715 0.97800004 4.3666716e-39
-0.049365718 -0.06985715 0.97800004 2.3383678e-39
-0.04750286 -0.06985715 0.97800004 8.8665647e-39
-0.045639999 -0.06985715 0.97800004 1.6518802e-38
-0.043777145 -0.06985715 0.97800004 1.8994846e-38
-0.041914288 -0.06985715 0.97800004 1.6413368e-38
-0.040174287 -0.070071429 0.98100007 1.2085518e-38
-0.03842286 -0.070285715 0.98400003 9.1352581e-39
-0.03654857 -0.070285715 0.98400003 1.0052548e-38
-0.034779999 -0.070500001 0.98700005 9.9603524e-39
-0.032900002 -0.070500001 0.98700005 9.4990211e-39
-0.031177143 -0.070857145 0.99200004 9.2224342e-39
-0.02928762 -0.070857145 0.99200004 1.1708835e-38
-0.027480954 -0.071071438 0.99500006 1.45669e-38
-0.025739999 -0.071500003 1.001 1.1715309e-38
-0.023833334 -0.071500003 1.001 7.8430927e-39
-0.021860953 -0.07128571 0.99800003 9.7788254e-39
-0.019959999 -0.07128571 0.99800003 1.4388607e-38
-0.018059047 -0.07128571 0.99800003 1.5762907e-38
-0.016158095 -0.07128571 0.99800003 1.548632e-38
-0.10645429 -0.070010483 1.0070001 1.6595211e-38
-0.10422476 -0.069801912 1.0040001 1.2538603e-38
-0.10200667 -0.06959334 1.001 7.6566149e-39
-0.099799998 -0.069384769 0.99800003 7.6566149e-39
-0.097310476 -0.068967618 0.99200004 8.7625253e-39
-0.095420949 -0.068967618 0.99200004 7.5639821e-39
-0.093248576 -0.068759046 0.98900002 7.7466035e-39
-0.091364756 -0.068759046 0.98900002 8.3919729e-39
-0.089480951 -0.068759046 0.98900002 8.3897869e-39
-0.087597147 -0.068759046 0.98900002 1.1247851e-38
-0.085713334 -0.068759046 0.98900002 1.502606e-38
-0.08382953 -0.068759046 0.98900002 1.9082668e-38
-0.081780002 -0.068620004 0.98700005 1.7059416e-38
-0.079900004 -0.068620004 0.98700005 1.3648178e-38
-0.078020006 -0.068620004 0.98700005 1.1445938e-38
-0.075908571 -0.068411432 0.98400003 1.1538133e-38
-0.074034289 -0.068411432 0.98400003 1.126408e-38
-0.071940005 -0.068202861 0.98100007 1.1448471e-38
-0.06985715 -0.067994289 0.97800004 1.2642673e-38
-0.067994289 -0.067994289 0.97800004 1.5039759e-38
-0.066131428 -0.067994289 0.97800004 1.8254369e-38
-0.064268574 -0.067994289 0.97800004 2.0743651e-38
-0.062405713 -0.067994289 0.97800004 1.7705148e-38
-0.060542859 -0.067994289 0.97800004 1.0145107e-38
-0.058680002 -0.067994289 0.97800004 4.6428928e-39
-0.056817144 -0.067994289 0.97800004 5.1960666e-39
-0.054954287 -0.067994289 0.97800004 5.7463817e-39
-0.053091429 -0.067994289 0.97800004 5.9307729e-39
-0.051228572 -0.067994289 0.97800004 5.6538231e-39
-0.049517147 -0.068202861 0.98100007 3.8099105e-39
-0.04750286 -0.067994289 0.97800004 6.5681886e-39
-0.045639999 -0.067994289 0.97800004 1.2007731e-38
-0.043777145 -0.067994289 0.97800004 1.6783921e-38
-0.042042863 -0.068202861 0.98100007 1.383366e-38
-0.040174287 -0.068202861 0.98100007 1.0054018e-38
-0.03842286 -0.068411432 0.98400003 9.5008442e-39
-0.03654857 -0.068411432 0.98400003 1.060393e-38
-0.034779999 -0.068620004 0.98700005 1.0050756e-38
-0.032900002 -0.068620004 0.98700005 1.0232999e-38
-0.031177143 -0.068967618 0.99200004 1.2353498e-38
-0.02928762 -0.068967618 0.99200004 1.4473975e-38
-0.027480954 -0.06917619 0.99500006 1.6133497e-38
-0.025739999 -0.06959334 1.001 1.4016578e-38
-0.023833334 -0.06959334 1.001 9.683383e-39
-0.021860953 -0.069384769 0.99800003 1.1065624e-38
-0.019959999 -0.069384769 0.99800003 1.4845645e-38
-0.018059047 -0.069384769 0.99800003 1.5670708e-38
-0.016158095 -0.069384769 0.99800003 1.5394121e-38
-0.10677142 -0.068295233 1.01 1.6227144e-38
-0.1045362 -0.068092391 1.0070001 1.272371e-38
-0.10200667 -0.06768667 1.001 1.0236974e-38
-0.099799998 -0.067483813 0.99800003 9.0384311e-39
-0.09789905 -0.067483813 0.99800003 9.774522e-39
-0.095420949 -0.067078099 0.99200004 8.2071963e-39
-0.093531437 -0.067078099 0.99200004 8.1132028e-39
-0.09164191 -0.067078099 0.99200004 9.0351591e-39
-0.089480951 -0.066875242 0.98900002 7.8402004e-39
-0.087597147 -0.066875242 0.98900002 8.208983e-39
-0.085713334 -0.066875242 0.98900002 1.2907353e-38
-0.08382953 -0.066875242 0.98900002 1.8346895e-38
-0.081780002 -0.066740006 0.98700005 1.5771583e-38
-0.079900004 -0.066740006 0.98700005 1.1899367e-38
-0.078020006 -0.066740006 0.98700005 1.0067682e-38
-0.075908571 -0.066537142 0.98400003 1.1081834e-38
-0.074034289 -0.066537142 0.98400003 1.1540304e-38
-0.071940005 -0.066334285 0.98100007 1.1540304e-38
-0.06985715 -0.066131428 0.97800004 1.1356616e-38
-0.067994289 -0.066131428 0.97800004 1.2923942e-38
-0.066131428 -0.066131428 0.97800004 1.6876113e-38
-0.064268574 -0.066131428 0.97800004 1.9365395e-38
-0.062405713 -0.066131428 0.97800004 1.4946144e-38
-0.060542859 -0.066131428 0.97800004 7.0173202e-39
-0.058680002 -0.066131428 0.97800004 1.8846021e-39
-0.056817144 -0.066131428 0.97800004 4.0972972e-39
-0.054954287 -0.066131428 0.97800004 6.3895903e-39
-0.053091429 -0.066131428 0.97800004 6.2973947e-39
-0.051228572 -0.066131428 0.97800004 5.7460159e-39
-0.049517147 -0.066334285 0.98100007 3.9021033e-39
-0.047648571 -0.066334285 0.98100007 3.2588695e-39
-0.045780003 -0.066334285 0.98100007 1.0357933e-38
-0.043911431 -0.066334285 0.98100007 1.5865229e-38
-0.042042863 -0.066334285 0.98100007 1.4390099e-38
-0.040174287 -0.066334285 0.98100007 9.5033624e-39
-0.03842286 -0.066537142 0.98400003 8.7657973e-39
-0.036660001 -0.066740006 0.98700005 1.0512087e-38
-0.034779999 -0.066740006 0.98700005 9.774522e-39
-0.03296667 -0.066875242 0.98900002 1.032374e-38
-0.031177143 -0.067078099 0.99200004 1.4288152e-38
-0.02928762 -0.067078099 0.99200004 1.4841701e-38
-0.027480954 -0.067280956 0.99500006 1.4933897e-38
-0.025739999 -0.06768667 1.001 1.4199562e-38
-0.023833334 -0.06768667 1.001 1.1157106e-38
-0.021926668 -0.06768667 1.001 1.1985772e-38
-0.020020001 -0.06768667 1.001 1.5212619e-38
-0.018113334 -0.06768667 1.001 1.5670348e-38
-0.10837239 -0.066174291 1.0070001 1.6777784e-38
-0.099799998 -0.065582857 0.99800003 1.0236285e-38
-0.09789905 -0.065582857 0.99800003 1.0882309e-38
-0.095709525 -0.065385722 0.99500006 8.7618092e-39
-0.093531437 -0.065188579 0.99200004 8.3915623e-39
-0.09164191 -0.065188579 0.99200004 8.9447361e-39
-0.089480951 -0.064991429 0.98900002 7.8402131e-39
-0.087597147 -0.064991429 0.98900002 7.2870393e-39
-0.085713334 -0.064991429 0.98900002 1.1527296e-38
-0.08382953 -0.064991429 0.98900002 1.7612207e-38
-0.081780002 -0.064860001 0.98700005 1.5588617e-38
-0.079900004 -0.064860001 0.98700005 1.1716401e-38
-0.078020006 -0.064860001 0.98700005 9.9758522e-39
-0.075908571 -0.064662859 0.98400003 1.0990004e-38
-0.074034289 -0.064662859 0.98400003 1.1356273e-38
-0.071940005 -0.064465716 0.98100007 1.1448468e-38
-0.06985715 -0.064268574 0.97800004 1.1540304e-38
-0.067994289 -0.064268574 0.97800004 1.2646651e-38
-0.066334285 -0.064465716 0.98100007 1.6599883e-38
-0.064465716 -0.064465716 0.98100007 1.918136e-38
-0.062597148 -0.064465716 0.98100007 1.5866293e-38
-0.060728572 -0.064465716 0.98100007 7.6608819e-39
-0.058860004 -0.064465716 0.98100007 1.5165497e-39
-0.056991432 -0.064465716 0.98100007 3.5448535e-39
-0.055122864 -0.064465716 0.98100007 6.205562e-39
-0.053254288 -0.064465716 0.98100007 6.205562e-39
-0.051385716 -0.064465716 0.98100007 5.2857693e-39
-0.049517147 -0.064465716 0.98100007 3.1652698e-39
-0.047648571 -0.064465716 0.98100007 7.2124762e-39
-0.045780003 -0.064465716 0.98100007 1.4127148e-38
-0.043911431 -0.064465716 0.98100007 1.7612265e-38
-0.04217143 -0.064662859 0.98400003 1.6782504e-38
-0.040297143 -0.064662859 0.98400003 1.2818128e-38
-0.038540002 -0.064860001 0.98700005 8.7615206e-39
-0.036660001 -0.064860001 0.98700005 8.4881118e-39
-0.034779999 -0.064860001 0.98700005 9.0412856e-39
-0.03296667 -0.064991429 0.98900002 1.1338265e-38
-0.031271432 -0.065385722 0.99500006 1.6040242e-38
-0.029376192 -0.065385722 0.99500006 1.4106284e-38
-0.02756381 -0.065582857 0.99800003 1.1617002e-38
-0.025817145 -0.065977141 1.0040001 1.1343325e-38
-0.023976194 -0.066174291 1.0070001 1.0882347e-38
-0.022058096 -0.066174291 1.0070001 1.2354192e-38
-0.020260001 -0.066568576 1.013 1.5304452e-38
-0.018330475 -0.066568576 1.013 1.5578505e-38
-0.016498096 -0.066962861 1.0190001 1.5209723e-38
-0.099799998 -0.063681908 0.99800003 1.0511747e-38
-0.09789905 -0.063681908 0.99800003 1.1251792e-38
-0.095998101 -0.063681908 0.99800003 1.0329836e-38
-0.094097145 -0.063681908 0.99800003 8.2086509e-39
-0.09191905 -0.063490473 0.99500006 8.3008465e-39
-0.089752384 -0.063299052 0.99200004 7.381739e-39
-0.087862857 -0.063299052 0.99200004 7.6583259e-39
-0.085713334 -0.063107617 0.98900002 1.2170517e-38
-0.08382953 -0.063107617 0.98900002 1.7886646e-38
-0.08194571 -0.063107617 0.98900002 1.5497138e-38
-0.079900004 -0.062980004 0.98700005 1.2270291e-38
-0.078020006 -0.062980004 0.98700005 9.6077899e-39
-0.076140001 -0.062980004 0.98700005 1.0529746e-38
-0.074034289 -0.062788568 0.98400003 1.0988203e-38
-0.072160006 -0.062788568 0.98400003 1.1080399e-38
-0.070285715 -0.062788568 0.98400003 1.1355907e-38
-0.068411432 -0.062788568 0.98400003 1.319982e-38
-0.066537142 -0.062788568 0.98400003 1.6783205e-38
-0.064465716 -0.062597148 0.98100007 1.89959e-38
-0.062597148 -0.062597148 0.98100007 1.5960303e-38
-0.060914289 -0.062788568 0.98400003 9.6910004e-39
-0.058860004 -0.062597148 0.98100007 2.3434391e-39
-0.056991432 -0.062597148 0.98100007 3.2653954e-39
-0.055122864 -0.062597148 0.98100007 5.7460159e-39
-0.053254288 -0.062597148 0.98100007 5.6538203e-39
-0.051385716 -0.062597148 0.98100007 3.8135077e-39
-0.049668573 -0.062788568 0.98400003 4.1822902e-39
-0.047794286 -0.062788568 0.98400003 1.089026e-38
-0.045919999 -0.062788568 0.98400003 1.6237606e-38
-0.044045717 -0.062788568 0.98400003 1.9360363e-38
-0.042300001 -0.062980004 0.98700005 1.8622798e-38
-0.04042 -0.062980004 0.98700005 1.5953469e-38
-0.038618095 -0.063107617 0.98900002 1.1343688e-38
-0.036734283 -0.063107617 0.98900002 8.8565188e-39
-0.034850478 -0.063107617 0.98900002 1.0423844e-38
-0.033066668 -0.063299052 0.99200004 1.2997436e-38
-0.031271432 -0.063490473 0.99500006 1.4656957e-38
-0.029376192 -0.063490473 0.99500006 1.2912042e-38
-0.02756381 -0.063681908 0.99800003 9.5008036e-39
-0.025817145 -0.064064763 1.0040001 1.0056874e-38
-0.024047619 -0.064447619 1.01 1.0702243e-38
-0.022189524 -0.064639047 1.013 1.3089596e-38
-0.020260001 -0.064639047 1.013 1.5394487e-38
-0.018439047 -0.06502191 1.0190001 1.5577796e-38
-0.016498096 -0.06502191 1.0190001 1.5209014e-38
-0.1026181 -0.062338103 1.0070001 1.346306e-38
-0.1001 -0.061966669 1.001 8.3001052e-39
-0.09819334 -0.061966669 1.001 8.5806606e-39
-0.095998101 -0.061780956 0.99800003 1.1623116e-38
-0.094097145 -0.061780956 0.99800003 9.7742137e-39
-0.092196189 -0.061780956 0.99800003 7.0083448e-39
-0.090023816 -0.061595239 0.99500006 8.2082823e-39
-0.087862857 -0.061409526 0.99200004 1.3924411e-38
-0.085973337 -0.061409526 0.99200004 1.5767588e-38
-0.08382953 -0.061223812 0.98900002 1.7334914e-38
-0.08194571 -0.061223812 0.98900002 1.6139981e-38
-0.080061905 -0.061223812 0.98900002 1.5586807e-38
-0.0781781 -0.061223812 0.98900002 1.1907649e-38
-0.076140001 -0.061100006 0.98700005 1.0801301e-38
-0.074260004 -0.061100006 0.98700005 1.0711982e-38
-0.072160006 -0.060914289 0.98400003 1.1726134e-38
-0.070285715 -0.060914289 0.98400003 1.4206772e-38
-0.068411432 -0.060914289 0.98400003 1.7341423e-38
-0.066537142 -0.060914289 0.98400003 1.8901186e-38
-0.064662859 -0.060914289 0.98400003 1.9269968e-38
-0.062788568 -0.060914289 0.98400003 1.8073608e-38
-0.060914289 -0.060914289 0.98400003 1.7336043e-38
-0.059039999 -0.060914289 0.98400003 1.1450653e-38
-0.057165716 -0.060914289 0.98400003 6.4720889e-39
-0.055291429 -0.060914289 0.98400003 1.6998619e-39
-0.053417142 -0.060914289 0.98400003 1.423275e-39
-0.05154286 -0.060914289 0.98400003 7.1217253e-39
-0.049668573 -0.060914289 0.98400003 1.2745659e-38
-0.047794286 -0.060914289 0.98400003 1.7245968e-38
-0.045919999 -0.060914289 0.98400003 1.6877185e-38
-0.044045717 -0.060914289 0.98400003 1.6967583e-38
-0.042300001 -0.061100006 0.98700005 1.7336366e-38
-0.04042 -0.061100006 0.98700005 1.7334946e-38
-0.038618095 -0.061223812 0.98900002 1.6597381e-38
-0.036734283 -0.061223812 0.98900002 1.5952669e-38
-0.034850478 -0.061223812 0.98900002 1.4846321e-38
-0.033066668 -0.061409526 0.99200004 1.5029686e-38
-0.031271432 -0.061595239 0.99500006 1.2356012e-38
-0.029376192 -0.061595239 0.99500006 6.7443234e-39
-0.02756381 -0.061780956 0.99800003 3.8862589e-39
-0.025817145 -0.062152382 1.0040001 6.8314968e-39
-0.024047619 -0.062523812 1.01 1.0242735e-38
-0.022189524 -0.062709525 1.013 1.2813365e-38
-0.02032 -0.062895238 1.016 1.5210452e-38
-0.018384762 -0.062895238 1.016 1.5485957e-38
-0.016449524 -0.062895238 1.016 1.5117174e-38
-0.014514286 -0.062895238 1.016 1.5117527e-38
-0.1026181 -0.060420007 1.0070001 1.3922972e-38
-0.1004 -0.06024 1.0040001 7.5614738e-39
-0.09819334 -0.060060002 1.001 8.1178257e-39
-0.096286669 -0.060060002 1.001 1.245102e-38
-0.094097145 -0.05988 0.99800003 1.226489e-38
-0.092196189 -0.05988 0.99800003 9.1302386e-39
-0.09029524 -0.05988 0.99800003 9.9582098e-39
-0.088128574 -0.059700005 0.99500006 1.6043121e-38
-0.085973337 -0.059520002 0.99200004 1.641334e-38
-0.08408381 -0.059520002 0.99200004 1.5122601e-38
-0.08194571 -0.059340004 0.98900002 1.5217986e-38
-0.080061905 -0.059340004 0.98900002 1.6600921e-38
-0.0781781 -0.059340004 0.98900002 1.4575917e-38
-0.076140001 -0.059220001 0.98700005 1.1994439e-38
-0.074260004 -0.059220001 0.98700005 1.0895635e-38
-0.072379999 -0.059220001 0.98700005 1.2462961e-38
-0.070285715 -0.059039999 0.98400003 1.6965088e-38
-0.068411432 -0.059039999 0.98400003 1.8809e-38
-0.066537142 -0.059039999 0.98400003 1.8531685e-38
-0.064662859 -0.059039999 0.98400003 1.8162902e-38
-0.062788568 -0.059039999 0.98400003 1.8808262e-38
-0.060914289 -0.059039999 0.98400003 1.9453631e-38
-0.059039999 -0.059039999 0.98400003 1.7155602e-38
-0.057165716 -0.059039999 0.98400003 1.1992647e-38
-0.055291429 -0.059039999 0.98400003 3.0802726e-39
-0.053417142 -0.059039999 0.98400003 2.1583163e-39
-0.05154286 -0.059039999 0.98400003 8.869492e-39
-0.049819998 -0.059220001 0.98700005 1.5691969e-38
-0.047940001 -0.059220001 0.98700005 1.7616568e-38
-0.046060003 -0.059220001 0.98700005 1.4297525e-38
-0.044180002 -0.059220001 0.98700005 1.3652506e-38
-0.042300001 -0.059220001 0.98700005 1.4482267e-38
-0.04042 -0.059220001 0.98700005 1.770263e-38
-0.038618095 -0.059340004 0.98900002 1.8071413e-38
-0.036734283 -0.059340004 0.98900002 1.7516454e-38
-0.034850478 -0.059340004 0.98900002 1.6778889e-38
-0.033066668 -0.059520002 0.99200004 1.4665239e-38
-0.031271432 -0.059700005 0.99500006 8.1193489e-39
-0.029464763 -0.05988 0.99800003 5.2738344e-39
-0.027646668 -0.060060002 1.001 3.5221174e-39
-0.025971429 -0.060600001 1.01 6.9243734e-39
-0.024119047 -0.06078 1.013 1.0520003e-38
-0.022189524 -0.06078 1.013 1.2628618e-38
-0.02032 -0.060960002 1.016 1.5210096e-38
-0.018384762 -0.060960002 1.016 1.5393405e-38
-0.016449524 -0.060960002 1.016 1.5116818e-38
-0.10070001 -0.05850191 1.0070001 7.8369817e-39
-0.09848763 -0.058327623 1.0040001 6.5552126e-39
-0.096575245 -0.058327623 1.0040001 9.8742552e-39
-0.094380006 -0.058153339 1.001 1.2356e-38
-0.092196189 -0.057979047 0.99800003 1.4753086e-38
-0.09029524 -0.057979047 0.99800003 1.5397011e-38
-0.088394284 -0.057979047 0.99800003 1.6503358e-38
-0.08623334 -0.057804763 0.99500006 1.2452206e-38
-0.08408381 -0.057630476 0.99200004 7.4736418e-39
-0.08194571 -0.057456192 0.98900002 8.7700881e-39
-0.080061905 -0.057456192 0.98900002 1.5131587e-38
-0.0781781 -0.057456192 0.98900002 1.6599545e-38
-0.076140001 -0.057340004 0.98700005 1.6599545e-38
-0.074260004 -0.057340004 0.98700005 1.5589321e-38
-0.072379999 -0.057340004 0.98700005 1.6326886e-38
-0.070285715 -0.057165716 0.98400003 1.7795574e-38
-0.068411432 -0.057165716 0.98400003 1.6043857e-38
-0.066537142 -0.057165716 0.98400003 1.2999269e-38
-0.064662859 -0.057165716 0.98400003 1.1800725e-38
-0.062788568 -0.057165716 0.98400003 1.447577e-38
-0.060914289 -0.057165716 0.98400003 1.9638726e-38
-0.059039999 -0.057165716 0.98400003 1.9914982e-38
-0.057165716 -0.057165716 0.98400003 1.9177417e-38
-0.055460002 -0.057340004 0.98700005 1.5408176e-38
-0.053580001 -0.057340004 0.98700005 1.3287677e-38
-0.051700003 -0.057340004 0.98700005 1.5036908e-38
-0.049819998 -0.057340004 0.98700005 1.7249603e-38
-0.047940001 -0.057340004 0.98700005 1.6326896e-38
-0.046060003 -0.057340004 0.98700005 1.2915657e-38
-0.044180002 -0.057340004 0.98700005 1.0986411e-38
-0.042300001 -0.057340004 0.98700005 1.0986411e-38
-0.04042 -0.057340004 0.98700005 1.3744686e-38
-0.038618095 -0.057456192 0.98900002 1.6049577e-38
-0.036845718 -0.057630476 0.99200004 1.7149482e-38
-0.034956191 -0.057630476 0.99200004 1.6319721e-38
-0.033166666 -0.057804763 0.99500006 1.365356e-38
-0.031365715 -0.057979047 0.99800003 6.2779096e-39
-0.029464763 -0.057979047 0.99800003 2.0567488e-39
-0.027646668 -0.058153339 1.001 1.7801619e-39
-0.025971429 -0.058676191 1.01 7.660519e-39
-0.024119047 -0.058850475 1.013 1.1163953e-38
-0.022255238 -0.059024762 1.016 1.3181079e-38
-0.02032 -0.059024762 1.016 1.5670361e-38
-0.018439047 -0.05919905 1.0190001 1.5577796e-38
-0.016498096 -0.05919905 1.0190001 1.5209014e-38
-0.10070001 -0.056583814 1.0070001 9.0358752e-39
-0.098781914 -0.056583814 1.0070001 3.5210258e-39
-0.096863814 -0.056583814 1.0070001 6.471286e-39
-0.09466286 -0.056415241 1.0040001 1.1803539e-38
-0.092473343 -0.056246668 1.001 1.5767951e-38
-0.09029524 -0.056078095 0.99800003 1.6134601e-38
-0.088394284 -0.056078095 0.99800003 1.4567275e-38
-0.08623334 -0.055909529 0.99500006 8.9591737e-39
-0.084338099 -0.055909529 0.99500006 4.0728053e-39
-0.082194284 -0.055740956 0.99200004 4.9993691e-39
-0.080061905 -0.055572383 0.98900002 1.1176476e-38
-0.0781781 -0.055572383 0.98900002 1.6874655e-38
-0.076140001 -0.055460002 0.98700005 1.7888807e-38
-0.074260004 -0.055460002 0.98700005 1.7151271e-38
-0.072379999 -0.055460002 0.98700005 1.7059075e-38
-0.070500001 -0.055460002 0.98700005 1.7427858e-38
-0.068411432 -0.055291429 0.98400003 1.3740033e-38
-0.066537142 -0.055291429 0.98400003 1.2079779e-38
-0.064662859 -0.055291429 0.98400003 1.1065627e-38
-0.062788568 -0.055291429 0.98400003 1.2355242e-38
-0.060914289 -0.055291429 0.98400003 1.6872827e-38
-0.059220001 -0.055460002 0.98700005 2.0095385e-38
-0.057340004 -0.055460002 0.98700005 2.0556363e-38
-0.055460002 -0.055460002 0.98700005 1.8718237e-38
-0.053580001 -0.055460002 0.98700005 1.779628e-38
-0.051700003 -0.055460002 0.98700005 1.715595e-38
-0.049819998 -0.055460002 0.98700005 1.6141798e-38
-0.047940001 -0.055460002 0.98700005 1.3932703e-38
-0.046060003 -0.055460002 0.98700005 1.1996595e-38
-0.044180002 -0.055460002 0.98700005 1.0896729e-38
-0.042300001 -0.055460002 0.98700005 1.0343556e-38
-0.040501904 -0.055572383 0.98900002 1.0893815e-38
-0.038618095 -0.055572383 0.98900002 1.3844075e-38
-0.036845718 -0.055740956 0.99200004 1.5680116e-38
-0.035061907 -0.055909529 0.99500006 1.4573769e-38
-0.033266667 -0.056078095 0.99800003 1.0340293e-38
-0.031365715 -0.056078095 0.99800003 4.5319688e-39
-0.029553335 -0.056246668 1.001 1.4149597e-39
-0.027729524 -0.056415241 1.0040001 1.6915466e-39
-0.026048571 -0.056920953 1.013 8.0292861e-39
-0.024119047 -0.056920953 1.013 1.1440524e-38
-0.022255238 -0.057089522 1.016 1.3456586e-38
-0.02032 -0.057089522 1.016 1.5761477e-38
-0.018439047 -0.057258096 1.0190001 1.5577787e-38
-0.016498096 -0.057258096 1.0190001 1.53012e-38
-0.101 -0.054828569 1.01 1.0418447e-38
-0.098781914 -0.054665718 1.0070001 5.7287295e-39
-0.096863814 -0.054665718 1.0070001 6.2819033e-39
-0.09466286 -0.05450286 1.0040001 1.051423e-38
-0.092473343 -0.054340001 1.001 1.5216207e-38
-0.09029524 -0.054177143 0.99800003 1.4569061e-38
-0.088394284 -0.054177143 0.99800003 9.1295183e-39
-0.08623334 -0.054014288 0.99500006 4.3576613e-39
-0.084338099 -0.054014288 0.99500006 3.8966831e-39
-0.082194284 -0.053851429 0.99200004 3.9921186e-39
-0.080304772 -0.053851429 0.99200004 4.8218792e-39
-0.0781781 -0.053688571 0.98900002 1.1718492e-38
-0.076294288 -0.053688571 0.98900002 1.6789251e-38
-0.074260004 -0.053580001 0.98700005 1.8254745e-38
-0.072379999 -0.053580001 0.98700005 1.6226441e-38
-0.070500001 -0.053580001 0.98700005 1.4015874e-38
-0.068620004 -0.053580001 0.98700005 1.1526592e-38
-0.066740006 -0.053580001 0.98700005 1.1159977e-38
-0.064662859 -0.053417142 0.98400003 1.1344369e-38
-0.062788568 -0.053417142 0.98400003 1.1710277e-38
-0.061100006 -0.053580001 0.98700005 1.1802473e-38
-0.059220001 -0.053580001 0.98700005 1.4383182e-38
-0.057340004 -0.053580001 0.98700005 1.8716377e-38
-0.055460002 -0.053580001 0.98700005 1.8718237e-38
-0.053580001 -0.053580001 0.98700005 1.9179215e-38
-0.051700003 -0.053580001 0.98700005 1.6971549e-38
-0.049819998 -0.053580001 0.98700005 1.3652506e-38
-0.047940001 -0.053580001 0.98700005 1.1263364e-38
-0.046060003 -0.053580001 0.98700005 1.1447755e-38
-0.044269525 -0.053688571 0.98900002 1.1357708e-38
-0.042385716 -0.053688571 0.98900002 1.0896729e-38
-0.040501904 -0.053688571 0.98900002 1.0711244e-38
-0.038735237 -0.053851429 0.99200004 1.2186374e-38
-0.036957145 -0.054014288 0.99500006 1.4390803e-38
-0.035061907 -0.054014288 0.99500006 1.3100064e-38
-0.033266667 -0.054177143 0.99800003 9.3279338e-39
-0.031365715 -0.054177143 0.99800003 4.1649785e-39
-0.029553335 -0.054340001 1.001 1.506805e-39
-0.027729524 -0.05450286 1.0040001 3.4429133e-39
-0.026048571 -0.054991428 1.013 8.6743051e-39
-0.024119047 -0.054991428 1.013 1.1901152e-38
-0.022255238 -0.055154286 1.016 1.4010836e-38
-0.020380002 -0.055317145 1.0190001 1.5485967e-38
-0.018493334 -0.055480003 1.0220001 1.530155e-38
-0.016546667 -0.055480003 1.0220001 1.5117159e-38
-0.014642859 -0.055642862 1.0250001 1.5209367e-38
-0.101 -0.052904762 1.01 1.1155293e-38
-0.098781914 -0.052747626 1.0070001 6.738913e-39
-0.096863814 -0.052747626 1.0070001 6.3701305e-39
-0.094945721 -0.052747626 1.0070001 8.3987874e-39
-0.092473343 -0.052433338 1.001 1.3469547e-38
-0.090566665 -0.052433338 1.001 1.282349e-38
-0.088394284 -0.052276194 0.99800003 6.1854043e-39
-0.086493336 -0.052276194 0.99800003 1.2320104e-39
-0.084338099 -0.05211905 0.99500006 3.2603143e-39
-0.082442857 -0.05211905 0.99500006 2.7993459e-39
-0.080304772 -0.051961906 0.99200004 1.8773896e-39
-0.078415245 -0.051961906 0.99200004 6.2883241e-39
-0.076294288 -0.051804762 0.98900002 1.2834214e-38
-0.074410483 -0.051804762 0.98900002 1.7979946e-38
-0.072526664 -0.051804762 0.98900002 1.6320424e-38
-0.070500001 -0.051700003 0.98700005 1.2817344e-38
-0.068620004 -0.051700003 0.98700005 1.1342213e-38
-0.066740006 -0.051700003 0.98700005 1.1896463e-38
-0.064860001 -0.051700003 0.98700005 1.2357442e-38
-0.062980004 -0.051700003 0.98700005 1.2080855e-38
-0.061100006 -0.051700003 0.98700005 1.0882312e-38
-0.059220001 -0.051700003 0.98700005 1.0516717e-38
-0.057340004 -0.051700003 0.98700005 1.6232846e-38
-0.055460002 -0.051700003 0.98700005 1.8257609e-38
-0.053580001 -0.051700003 0.98700005 1.8534196e-38
-0.051700003 -0.051700003 0.98700005 1.5866296e-38
-0.049819998 -0.051700003 0.98700005 1.2731644e-38
-0.048037145 -0.051804762 0.98900002 1.052867e-38
-0.046153337 -0.051804762 0.98900002 1.1266235e-38
-0.044269525 -0.051804762 0.98900002 1.1817607e-38
-0.042385716 -0.051804762 0.98900002 1.0987846e-38
-0.040501904 -0.051804762 0.98900002 1.0251347e-38
-0.038735237 -0.051961906 0.99200004 1.2003064e-38
-0.037068572 -0.052276194 0.99800003 1.356357e-38
-0.03516762 -0.052276194 0.99800003 1.3379179e-38
-0.033266667 -0.052276194 0.99800003 8.5000032e-39
-0.031365715 -0.052276194 0.99800003 3.1526567e-39
-0.029553335 -0.052433338 1.001 2.3314706e-39
-0.027729524 -0.052590482 1.0040001 5.8349045e-39
-0.026048571 -0.053061903 1.013 1.1159243e-38
-0.024190478 -0.053219046 1.016 1.2634373e-38
-0.022255238 -0.053219046 1.016 1.3644212e-38
-0.020380002 -0.05337619 1.0190001 1.4750559e-38
-0.018493334 -0.053533334 1.0220001 1.5024966e-38
-0.016595239 -0.053690478 1.0250001 1.493277e-38
-0.014642859 -0.053690478 1.0250001 1.5116811e-38
-0.101 -0.050980952 1.01 1.2722258e-38
-0.098781914 -0.05082953 1.0070001 7.8452633e-39
-0.096863814 -0.05082953 1.0070001 6.6467202e-39
-0.094945721 -0.05082953 1.0070001 8.2136927e-39
-0.092473343 -0.050526667 1.001 1.3100061e-38
-0.090566665 -0.050526667 1.001 1.2456127e-38
