# .PCD v0.7 - Point Cloud Data file format
VERSION 0.7
FIELDS x y z rgba
SIZE 4 4 4 4
TYPE F F F U
COUNT 1 1 1 1
WIDTH 1107
HEIGHT 1
VIEWPOINT 0 0 0 1 0 0 0
POINTS 1107
DATA ascii
-0.046985716 0.16264287 0.75900006 11169488
-0.045540005 0.16264287 0.75900006 10973145
-0.044094287 0.16264287 0.75900006 10907352
-0.042648572 0.16264287 0.75900006 11501283
-0.041202862 0.16264287 0.75900006 13211901
-0.039757144 0.16264287 0.75900006 12821759
-0.038311433 0.16264287 0.75900006 11505908
-0.036865719 0.16264287 0.75900006 11369713
-0.035420001 0.16264287 0.75900006 11896057
-0.03397429 0.16264287 0.75900006 12094207
-0.032528572 0.16264287 0.75900006 11962623
-0.031164765 0.16307144 0.76100004 11897087
-0.02971524 0.16307144 0.76100004 12160255
-0.028265715 0.16307144 0.76100004 11965434
-0.026816191 0.16307144 0.76100004 12360191
-0.025466667 0.16371429 0.76400006 12230655
-0.024011429 0.16371429 0.76400006 11835903
-0.022644762 0.16435714 0.76700002 11835127
-0.021183809 0.16435714 0.76700002 10979818
-0.019774286 0.16478573 0.76900005 11831016
-0.018357145 0.16521429 0.77100003 9265089
-0.016932381 0.16564287 0.77300006 8738477
-0.015480001 0.16585715 0.77400005 10317509
-0.014041905 0.16628572 0.77600002 7503613
-0.01256381 0.16628572 0.77600002 3753412
-0.011114286 0.1667143 0.77800006 2576581
-0.0096323816 0.1667143 0.77800006 6458367
-0.074643806 0.16776381 0.77600002 8290195
-0.073165715 0.16776381 0.77600002 4938687
-0.071687624 0.16776381 0.77600002 5004480
-0.070028573 0.16733144 0.77400005 7165373
-0.06855429 0.16733144 0.77400005 6704822
-0.066646673 0.1662505 0.76900005 8076715
-0.06501238 0.1658181 0.76700002 11366365
-0.063551433 0.1658181 0.76700002 11242454
-0.062090475 0.1658181 0.76700002 12163556
-0.060550477 0.16560191 0.76600003 12625913
-0.05909143 0.16560191 0.76600003 12494327
-0.057632383 0.16560191 0.76600003 12427263
-0.056026667 0.16516954 0.76400006 12493055
-0.054571431 0.16516954 0.76400006 12557796
-0.052977145 0.16473714 0.76200002 13215726
-0.051458098 0.16452096 0.76100004 13479167
-0.050008573 0.16452096 0.76100004 13479167
-0.048431434 0.16408858 0.75900006 13215231
-0.046985716 0.16408858 0.75900006 13215231
-0.045540005 0.16408858 0.75900006 13017599
-0.044094287 0.16408858 0.75900006 12754430
-0.042648572 0.16408858 0.75900006 12492030
-0.041202862 0.16408858 0.75900006 14136831
-0.039757144 0.16408858 0.75900006 13810943
-0.038412381 0.16452096 0.76100004 13547775
-0.036962859 0.16452096 0.76100004 13218815
-0.035513334 0.16452096 0.76100004 13350399
-0.034063812 0.16452096 0.76100004 13612543
-0.032614287 0.16452096 0.76100004 12823033
-0.031164765 0.16452096 0.76100004 13150719
-0.02971524 0.16452096 0.76100004 13545471
-0.028265715 0.16452096 0.76100004 12822015
-0.026816191 0.16452096 0.76100004 13019391
-0.025466667 0.16516954 0.76400006 12625407
-0.024011429 0.16516954 0.76400006 11441141
-0.022644762 0.1658181 0.76700002 11769071
-0.021183809 0.1658181 0.76700002 11111141
-0.019774286 0.1662505 0.76900005 10976209
-0.018357145 0.16668287 0.77100003 8278696
-0.016932381 0.16711524 0.77300006 7492787
-0.015480001 0.16733144 0.77400005 10519265
-0.014041905 0.16776381 0.77600002 8227071
-0.012596191 0.1681962 0.77800006 3818953
-0.011114286 0.1681962 0.77800006 2051793
-0.008150477 0.1681962 0.77800006 10199238
-0.074643806 0.16924191 0.77600002 9013146
-0.073165715 0.16924191 0.77600002 6254517
-0.071872383 0.16967811 0.77800006 4412313
-0.070028573 0.16880573 0.77400005 6772664
-0.06855429 0.16880573 0.77400005 6838457
-0.066820003 0.16815144 0.77100003 8143262
-0.065181904 0.16771525 0.76900005 11103947
-0.063551433 0.16727905 0.76700002 10386384
-0.062090475 0.16727905 0.76700002 12097002
-0.060629524 0.16727905 0.76700002 12233978
-0.05909143 0.16706096 0.76600003 11707634
-0.057632383 0.16706096 0.76600003 11507961
-0.056026667 0.16662477 0.76400006 11442168
-0.054571431 0.16662477 0.76400006 11375330
-0.052977145 0.16618857 0.76200002 12691190
-0.051458098 0.16597049 0.76100004 12693759
-0.050008573 0.16597049 0.76100004 12430591
-0.048559051 0.16597049 0.76100004 12428799
-0.047109526 0.16597049 0.76100004 12494591
-0.04566 0.16597049 0.76100004 12690687
-0.044094287 0.1655343 0.75900006 12361727
-0.042648572 0.1655343 0.75900006 11704318
-0.041311432 0.16597049 0.76100004 13349119
-0.039861906 0.16597049 0.76100004 12827391
-0.038412381 0.16597049 0.76100004 12564223
-0.036962859 0.16597049 0.76100004 12629759
-0.035513334 0.16597049 0.76100004 12761343
-0.034063812 0.16597049 0.76100004 13352191
-0.032614287 0.16597049 0.76100004 12365301
-0.031164765 0.16597049 0.76100004 12691967
-0.02971524 0.16597049 0.76100004 12757759
-0.028302858 0.16618857 0.76200002 11967487
-0.026851429 0.16618857 0.76200002 12230655
-0.025466667 0.16662477 0.76400006 12296703
-0.024074288 0.16706096 0.76600003 11638779
-0.022644762 0.16727905 0.76700002 12097786
-0.021183809 0.16727905 0.76700002 10847719
-0.019774286 0.16771525 0.76900005 9858764
-0.018357145 0.16815144 0.77100003 8542904
-0.016954288 0.16880573 0.77400005 7428830
-0.015480001 0.16880573 0.77400005 9007862
-0.014078096 0.16967811 0.77800006 7374847
-0.012596191 0.16967811 0.77800006 3624654
-0.011142857 0.17011429 0.78000003 3101653
-0.0096571427 0.17011429 0.78000003 7378175
-0.0763181 0.17116001 0.77800006 10394540
-0.074836195 0.17116001 0.77800006 9802403
-0.073354289 0.17116001 0.77800006 6583480
-0.071872383 0.17116001 0.77800006 3885967
-0.070209526 0.17072001 0.77600002 5723586
-0.06855429 0.17028001 0.77400005 6578895
-0.066820003 0.16962001 0.77100003 7819683
-0.065181904 0.16918001 0.76900005 8609199
-0.063551433 0.16874 0.76700002 9266622
-0.062090475 0.16874 0.76700002 10516689
-0.060629524 0.16874 0.76700002 10256595
-0.05909143 0.16852002 0.76600003 10388181
-0.057632383 0.16852002 0.76600003 10584558
-0.056026667 0.16808 0.76400006 10716144
-0.054571431 0.16808 0.76400006 10649822
-0.052977145 0.16764 0.76200002 11899889
-0.051458098 0.16742001 0.76100004 11770365
-0.050008573 0.16742001 0.76100004 11638779
-0.048559051 0.16742001 0.76100004 11769341
-0.047109526 0.16742001 0.76100004 11769341
-0.04566 0.16742001 0.76100004 12031741
-0.044094287 0.16698001 0.75900006 12163327
-0.042648572 0.16698001 0.75900006 11900670
-0.041311432 0.16742001 0.76100004 12427007
-0.039861906 0.16742001 0.76100004 11967994
-0.038412381 0.16742001 0.76100004 11573236
-0.036962859 0.16742001 0.76100004 11573234
-0.035513334 0.16742001 0.76100004 11836406
-0.034063812 0.16742001 0.76100004 11440126
-0.032614287 0.16742001 0.76100004 10847989
-0.031164765 0.16742001 0.76100004 10715384
-0.02971524 0.16742001 0.76100004 10320626
-0.028302858 0.16764 0.76200002 9661417
-0.026851429 0.16764 0.76200002 9398245
-0.025533335 0.16852002 0.76600003 9137364
-0.024074288 0.16852002 0.76600003 9926880
-0.022644762 0.16874 0.76700002 10059754
-0.021183809 0.16874 0.76700002 8546515
-0.019825716 0.16962001 0.77100003 8153808
-0.018404763 0.17006001 0.77300006 9864426
-0.016954288 0.17028001 0.77400005 8752383
-0.015560001 0.17116001 0.77800006 6383837
-0.014078096 0.17116001 0.77800006 3826680
-0.012644762 0.17182001 0.78100002 2181855
-0.011157143 0.17182001 0.78100002 3298519
-0.0096695237 0.17182001 0.78100002 7838207
-0.0763181 0.17264192 0.77800006 10328490
-0.074836195 0.17264192 0.77800006 10525869
-0.073354289 0.17264192 0.77800006 7306928
-0.071872383 0.17264192 0.77800006 3754106
-0.070209526 0.17219809 0.77600002 4281011
-0.068731427 0.17219809 0.77600002 5531078
-0.066993333 0.17153239 0.77300006 7888837
-0.065351434 0.17108858 0.77100003 8283595
-0.063717149 0.17064478 0.76900005 8870828
-0.062090475 0.17020094 0.76700002 9857723
-0.060629524 0.17020094 0.76700002 9463495
-0.059168573 0.17020094 0.76700002 10581976
-0.057632383 0.16997905 0.76600003 10386132
-0.056173336 0.16997905 0.76600003 10254546
-0.054571431 0.16953525 0.76400006 10187479
-0.052977145 0.16909143 0.76200002 11634925
-0.051525716 0.16909143 0.76200002 11374324
-0.050074287 0.16909143 0.76200002 11176945
-0.048559051 0.16886953 0.76100004 11174894
-0.047109526 0.16886953 0.76100004 10977515
-0.04566 0.16886953 0.76100004 11239910
-0.044210479 0.16886953 0.76100004 11568875
-0.042760953 0.16886953 0.76100004 11372021
-0.041311432 0.16886953 0.76100004 11964158
-0.039861906 0.16886953 0.76100004 12228856
-0.038412381 0.16886953 0.76100004 11110375
-0.036962859 0.16886953 0.76100004 11435758
-0.035513334 0.16886953 0.76100004 11633137
-0.034063812 0.16886953 0.76100004 11370735
-0.032614287 0.16886953 0.76100004 10449633
-0.031205716 0.16909143 0.76200002 10318064
-0.029754287 0.16909143 0.76200002 10186478
-0.028377144 0.16953525 0.76400006 9463273
-0.026921906 0.16953525 0.76400006 9594859
-0.025566667 0.17020094 0.76700002 8939481
-0.024105715 0.17020094 0.76700002 10650099
-0.022644762 0.17020094 0.76700002 10260735
-0.021183809 0.17020094 0.76700002 8813295
-0.019825716 0.17108858 0.77100003 8158967
-0.018404763 0.17153239 0.77300006 8751103
-0.016998095 0.17219809 0.77600002 7441919
-0.015560001 0.17264192 0.77800006 3954904
-0.014114286 0.17308572 0.78000003 1662445
-0.012644762 0.17330763 0.78100002 675550
-0.011157143 0.17330763 0.78100002 2838481
-0.0096695237 0.17330763 0.78100002 7838719
-0.076514289 0.17457142 0.78000003 10394022
-0.075028576 0.17457142 0.78000003 10722987
-0.073542856 0.17457142 0.78000003 8424604
-0.072057143 0.17457142 0.78000003 3358543
-0.070390478 0.17412382 0.77800006 2378171
-0.068731427 0.17367619 0.77600002 4483547
-0.066993333 0.17300478 0.77300006 7565029
-0.065351434 0.17255716 0.77100003 8617717
-0.063717149 0.17210953 0.76900005 9931177
-0.062252384 0.17210953 0.76900005 10260142
-0.060629524 0.17166191 0.76700002 9931484
-0.059168573 0.17166191 0.76700002 9470933
-0.057707619 0.17166191 0.76700002 9273545
-0.056173336 0.1714381 0.76600003 9668303
-0.054714285 0.1714381 0.76600003 9930228
-0.053116191 0.17099048 0.76400006 10522365
-0.051660955 0.17099048 0.76400006 10654962
-0.050074287 0.17054287 0.76200002 10720755
-0.048559051 0.17031905 0.76100004 10522606
-0.047109526 0.17031905 0.76100004 9864676
-0.04566 0.17031905 0.76100004 10126056
-0.044210479 0.17031905 0.76100004 11376123
-0.042760953 0.17031905 0.76100004 10852351
-0.041311432 0.17031905 0.76100004 10720766
-0.039861906 0.17031905 0.76100004 10919676
-0.038412381 0.17031905 0.76100004 9932781
-0.036962859 0.17031905 0.76100004 10390527
-0.035513334 0.17031905 0.76100004 10456319
-0.034063812 0.17031905 0.76100004 10259182
-0.032657143 0.17054287 0.76200002 9140701
-0.031205716 0.17054287 0.76200002 10788336
-0.029832384 0.17099048 0.76400006 11183094
-0.028377144 0.17099048 0.76400006 13157374
-0.026921906 0.17099048 0.76400006 13486335
-0.025566667 0.17166191 0.76700002 13289471
-0.024105715 0.17166191 0.76700002 13618431
-0.02270381 0.17210953 0.76900005 13488383
-0.02123905 0.17210953 0.76900005 11975149
-0.019825716 0.17255716 0.77100003 11385087
-0.018428572 0.17322858 0.77400005 9740270
-0.017041905 0.17412382 0.77800006 6719743
-0.015560001 0.17412382 0.77800006 3101140
-0.014132381 0.17479524 0.78100002 1465323
-0.012644762 0.17479524 0.78100002 17877
-0.011185715 0.17524286 0.78300005 1459667
-0.0096942866 0.17524286 0.78300005 7315199
-0.0082447622 0.1761381 0.78700006 10330567
-0.0067628575 0.17658572 0.78900003 10198981
-0.076612383 0.17628285 0.78100002 10261923
-0.075124763 0.17628285 0.78100002 10788267
-0.073637143 0.17628285 0.78100002 8883622
-0.072057143 0.17605714 0.78000003 4212319
-0.07057143 0.17605714 0.78000003 1657005
-0.068908572 0.17560573 0.77800006 2907072
-0.067080006 0.17470287 0.77400005 6319841
-0.065520957 0.17447716 0.77300006 7504115
-0.063882858 0.17402571 0.77100003 9343456
-0.062252384 0.17357428 0.76900005 11119867
-0.060629524 0.17312287 0.76700002 10923775
-0.059168573 0.17312287 0.76700002 10397439
-0.057707619 0.17312287 0.76700002 8885483
-0.056173336 0.17289715 0.76600003 9280241
-0.054714285 0.17289715 0.76600003 10987007
-0.053116191 0.17244571 0.76400006 10789631
-0.051660955 0.17244571 0.76400006 10397439
-0.050205719 0.17244571 0.76400006 10463231
-0.048622858 0.1719943 0.76200002 10594298
-0.047171429 0.1719943 0.76200002 9410024
-0.04572 0.1719943 0.76200002 9210857
-0.044210479 0.17176858 0.76100004 10592510
-0.042760953 0.17176858 0.76100004 10857727
-0.041311432 0.17176858 0.76100004 10660351
-0.039861906 0.17176858 0.76100004 10465023
-0.038412381 0.17176858 0.76100004 9412345
-0.037011426 0.1719943 0.76200002 9346302
-0.035513334 0.17176858 0.76100004 9477887
-0.034063812 0.17176858 0.76100004 9739519
-0.032657143 0.1719943 0.76200002 8292076
-0.031287622 0.17244571 0.76400006 10134527
-0.029832384 0.17244571 0.76400006 10134527
-0.02845143 0.17289715 0.76600003 12043775
-0.026992382 0.17289715 0.76600003 13030655
-0.025566667 0.17312287 0.76700002 12702207
-0.024168573 0.17357428 0.76900005 12965375
-0.02270381 0.17357428 0.76900005 13228031
-0.02123905 0.17357428 0.76900005 11320038
-0.019877145 0.17447716 0.77300006 10729727
-0.018476192 0.17515428 0.77600002 8163809
-0.017041905 0.17560573 0.77800006 6456319
-0.015600001 0.17605714 0.78000003 3890406
-0.014132381 0.17628285 0.78100002 2712049
-0.012644762 0.17628285 0.78100002 738259
-0.011185715 0.1767343 0.78300005 1918160
-0.0097438106 0.17763716 0.78700006 7773695
-0.0082447622 0.17763716 0.78700006 10461640
-0.0067628575 0.17808858 0.78900003 10395847
-0.00526 0.17808858 0.78900003 10329802
-0.076612383 0.17777048 0.78100002 10326939
-0.075124763 0.17777048 0.78100002 10853283
-0.073637143 0.17777048 0.78100002 9147044
-0.072057143 0.17754287 0.78000003 4080983
-0.070390478 0.17708763 0.77800006 1132978
-0.068731427 0.17663239 0.77600002 2119873
-0.067080006 0.17617714 0.77400005 4217824
-0.065520957 0.17594953 0.77300006 6586367
-0.063882858 0.1754943 0.77100003 9805054
-0.062252384 0.17503907 0.76900005 12568319
-0.060629524 0.17458381 0.76700002 13224959
-0.059168573 0.17458381 0.76700002 12961791
-0.057707619 0.17458381 0.76700002 11121405
-0.056173336 0.17435619 0.76600003 9805545
-0.054714285 0.17435619 0.76600003 9016319
-0.053255241 0.17435619 0.76600003 8753151
-0.05179619 0.17435619 0.76600003 9411575
-0.050205719 0.17390096 0.76400006 9806333
-0.048750479 0.17390096 0.76400006 9937385
-0.047295243 0.17390096 0.76400006 9345248
-0.04572 0.17344572 0.76200002 8686825
-0.044268575 0.17344572 0.76200002 9147376
-0.042817142 0.17344572 0.76200002 8426227
-0.041365717 0.17344572 0.76200002 9149950
-0.039914284 0.17344572 0.76200002 10269439
-0.038462859 0.17344572 0.76200002 7440349
-0.037011426 0.17344572 0.76200002 5273833
-0.035560001 0.17344572 0.76200002 4681696
-0.034108575 0.17344572 0.76200002 3894783
-0.032742858 0.17390096 0.76400006 2052598
-0.031287622 0.17390096 0.76400006 5011711
-0.029910479 0.17435619 0.76600003 4551167
-0.02845143 0.17435619 0.76600003 11452379
-0.026992382 0.17435619 0.76600003 13755134
-0.025633333 0.17503907 0.76900005 13358847
-0.024168573 0.17503907 0.76900005 13293055
-0.02270381 0.17503907 0.76900005 13293567
-0.02123905 0.17503907 0.76900005 10925023
-0.019877145 0.17594953 0.77300006 9415935
-0.018476192 0.17663239 0.77600002 6455260
-0.017085714 0.17754287 0.78000003 4947199
-0.015600001 0.17754287 0.78000003 4223487
-0.014132381 0.17777048 0.78100002 3565304
-0.012677143 0.17822573 0.78300005 1196756
-0.011185715 0.17822573 0.78300005 2115033
-0.0097438106 0.1791362 0.78700006 7773183
-0.0082447622 0.1791362 0.78700006 10396360
-0.0067457147 0.1791362 0.78700006 10330567
-0.0052466667 0.1791362 0.78700006 10395599
-0.076612383 0.17925811 0.78100002 10195103
-0.075124763 0.17925811 0.78100002 10787240
-0.073637143 0.17925811 0.78100002 9410214
-0.072057143 0.17902859 0.78000003 4738911
-0.070390478 0.17856954 0.77800006 1132969
-0.068731427 0.17811048 0.77600002 1922485
-0.067080006 0.17765144 0.77400005 3561682
-0.065520957 0.17742191 0.77300006 5996023
-0.064048581 0.17742191 0.77300006 9346811
-0.062414289 0.17696285 0.77100003 11715327
-0.060787622 0.17650382 0.76900005 12700415
-0.059168573 0.17604476 0.76700002 12371455
-0.057707619 0.17604476 0.76700002 10596863
-0.056246668 0.17604476 0.76700002 8425700
-0.054714285 0.17581524 0.76600003 8031231
-0.053255241 0.17581524 0.76600003 7702271
-0.05179619 0.17581524 0.76600003 5995498
-0.050337147 0.17581524 0.76600003 6192877
-0.048750479 0.17535619 0.76400006 7567600
-0.047295243 0.17535619 0.76400006 8159737
-0.045840003 0.17535619 0.76400006 7765238
-0.044384766 0.17535619 0.76400006 7436273
-0.042929526 0.17535619 0.76400006 5733616
-0.041365717 0.17489713 0.76200002 9023231
-0.039914284 0.17489713 0.76200002 10470911
-0.038462859 0.17489713 0.76200002 8760300
-0.037108574 0.17535619 0.76400006 5673215
-0.035653338 0.17535619 0.76400006 5936383
-0.034198094 0.17535619 0.76400006 5936639
-0.032828573 0.17581524 0.76600003 5739263
-0.031369522 0.17581524 0.76600003 7379967
-0.029910479 0.17581524 0.76600003 6656255
-0.02845143 0.17581524 0.76600003 10463743
-0.026992382 0.17581524 0.76600003 12898047
-0.025633333 0.17650382 0.76900005 12767999
-0.024168573 0.17650382 0.76900005 13096959
-0.022762857 0.17696285 0.77100003 13425151
-0.021294286 0.17696285 0.77100003 10727642
-0.019877145 0.17742191 0.77300006 9021695
-0.01852381 0.17856954 0.77800006 5139919
-0.017085714 0.17902859 0.78000003 3043839
-0.015620001 0.17925811 0.78100002 3109631
-0.014168572 0.17971715 0.78300005 3763703
-0.012677143 0.17971715 0.78300005 1395155
-0.011214286 0.1801762 0.78500003 2443482
-0.0097438106 0.18063524 0.78700006 8035839
-0.0082447622 0.18063524 0.78700006 10462414
-0.0067457147 0.18063524 0.78700006 10396621
-0.0052466667 0.18063524 0.78700006 10396110
-0.076612383 0.18074572 0.78100002 10129049
-0.073637143 0.18074572 0.78100002 9737891
-0.07214953 0.18074572 0.78100002 6119276
-0.070390478 0.18005145 0.77800006 1460658
-0.068908572 0.18005145 0.77800006 2052795
-0.067253336 0.17958857 0.77600002 3759313
-0.065605715 0.17912573 0.77400005 6127861
-0.064048581 0.1788943 0.77300006 9674472
-0.06257619 0.1788943 0.77300006 11845631
-0.060945716 0.17843144 0.77100003 11910655
-0.05932286 0.17796859 0.76900005 10397423
-0.057858098 0.17796859 0.76900005 8820215
-0.056246668 0.17750572 0.76700002 8359664
-0.054785714 0.17750572 0.76700002 8820991
-0.053324763 0.17750572 0.76700002 8755199
-0.05179619 0.17727429 0.76600003 8821247
-0.050337147 0.17727429 0.76600003 9150207
-0.048878096 0.17727429 0.76600003 10133247
-0.047419049 0.17727429 0.76600003 10396415
-0.045960002 0.17727429 0.76600003 10134271
-0.044500954 0.17727429 0.76600003 9410557
-0.043041904 0.17727429 0.76600003 9019135
-0.04147429 0.17681144 0.76400006 10532351
-0.04001905 0.17681144 0.76400006 11782399
-0.038563814 0.17681144 0.76400006 11650815
-0.037108574 0.17681144 0.76400006 10403071
-0.035653338 0.17681144 0.76400006 9481977
-0.034198094 0.17681144 0.76400006 8564479
-0.032828573 0.17727429 0.76600003 7314421
-0.031369522 0.17727429 0.76600003 7379967
-0.029910479 0.17727429 0.76600003 7182591
-0.028488571 0.17750572 0.76700002 8360703
-0.02702762 0.17750572 0.76700002 7636991
-0.025633333 0.17796859 0.76900005 10398684
-0.024231428 0.17843144 0.77100003 13096191
-0.022762857 0.17843144 0.77100003 13358847
-0.021294286 0.17843144 0.77100003 10661338
-0.019902857 0.17912573 0.77400005 8561151
-0.01852381 0.18005145 0.77800006 4416205
-0.017085714 0.18051429 0.78000003 1073151
-0.015620001 0.18074572 0.78100002 744191
-0.014168572 0.18120858 0.78300005 1924079
-0.012677143 0.18120858 0.78300005 937184
-0.011242858 0.1821343 0.78700006 3034838
-0.0097438106 0.1821343 0.78700006 8429823
-0.0082657151 0.18259715 0.78900003 10593739
-0.0067628575 0.18259715 0.78900003 10527946
-0.00526 0.18259715 0.78900003 10461640
-0.073637143 0.18223333 0.78100002 9934243
-0.07214953 0.18223333 0.78100002 6841972
-0.07057143 0.18200001 0.78000003 2575272
-0.069085717 0.18200001 0.78000003 2838444
-0.067426667 0.18153335 0.77800006 4218574
-0.065775238 0.18106668 0.77600002 6192364
-0.064131431 0.1806 0.77400005 8950758
-0.06257619 0.18036668 0.77300006 11648255
-0.060945716 0.17990001 0.77100003 11320319
-0.05932286 0.17943335 0.76900005 9149157
-0.057858098 0.17943335 0.76900005 7112180
-0.056246668 0.17896667 0.76700002 8033279
-0.054785714 0.17896667 0.76700002 9741311
-0.053324763 0.17896667 0.76700002 9412351
-0.051863808 0.17896667 0.76700002 9676026
-0.050402857 0.17896667 0.76700002 10004991
-0.048878096 0.17873335 0.76600003 11316223
-0.047419049 0.17873335 0.76600003 11316223
-0.045960002 0.17873335 0.76600003 10989567
-0.044500954 0.17873335 0.76600003 10397439
-0.043041904 0.17873335 0.76600003 10595583
-0.04158286 0.17873335 0.76600003 11187711
-0.040123809 0.17873335 0.76600003 12371967
-0.038664766 0.17873335 0.76600003 12174591
-0.037205715 0.17873335 0.76600003 10862079
-0.035746668 0.17873335 0.76600003 10730495
-0.03428762 0.17873335 0.76600003 9353215
-0.032828573 0.17873335 0.76600003 8432123
-0.031369522 0.17873335 0.76600003 7183103
-0.029949524 0.17896667 0.76700002 7380479
-0.028488571 0.17896667 0.76700002 8033535
-0.02702762 0.17896667 0.76700002 7572990
-0.025700001 0.17990001 0.77100003 9279973
-0.024231428 0.17990001 0.77100003 12043263
-0.022821905 0.18036668 0.77300006 12437759
-0.021349525 0.18036668 0.77300006 10398182
-0.019902857 0.1806 0.77400005 7905023
-0.01852381 0.18153335 0.77800006 4549592
-0.017085714 0.18200001 0.78000003 1532671
-0.015600001 0.18200001 0.78000003 1006331
-0.014168572 0.18270001 0.78300005 1660907
-0.012677143 0.18270001 0.78300005 805598
-0.011242858 0.18363334 0.78700006 3363024
-0.0097438106 0.18363334 0.78700006 8823807
-0.0082657151 0.1841 0.78900003 10593487
-0.0067714285 0.18433334 0.79000002 10396108
-0.0052666669 0.18433334 0.79000002 10461640
-0.073542856 0.18348572 0.78000003 10000034
-0.072057143 0.18348572 0.78000003 7105142
-0.07057143 0.18348572 0.78000003 2707362
-0.069085717 0.18348572 0.78000003 2707362
-0.067426667 0.18301526 0.77800006 3365584
-0.065775238 0.18254477 0.77600002 5010409
-0.064131431 0.18207429 0.77400005 7899856
-0.06257619 0.18183906 0.77300006 9413095
-0.060945716 0.18136857 0.77100003 9017599
-0.05932286 0.1808981 0.76900005 8228088
-0.057858098 0.1808981 0.76900005 7638781
-0.056393337 0.1808981 0.76900005 7770367
-0.054928575 0.1808981 0.76900005 8034043
-0.053324763 0.18042763 0.76700002 7639285
-0.051863808 0.18042763 0.76700002 8757229
-0.050402857 0.18042763 0.76700002 9020401
-0.048941903 0.18042763 0.76700002 9675263
-0.047419049 0.1801924 0.76600003 9346300
-0.045960002 0.1801924 0.76600003 9347063
-0.044500954 0.1801924 0.76600003 9083891
-0.043041904 0.1801924 0.76600003 9742079
-0.04158286 0.1801924 0.76600003 9873663
-0.040123809 0.1801924 0.76600003 11123455
-0.038664766 0.1801924 0.76600003 10991871
-0.037205715 0.1801924 0.76600003 10467327
-0.035746668 0.1801924 0.76600003 10598911
-0.03428762 0.1801924 0.76600003 10008063
-0.032828573 0.1801924 0.76600003 9876479
-0.031369522 0.1801924 0.76600003 8954879
-0.029949524 0.18042763 0.76700002 9020671
-0.028488571 0.18042763 0.76700002 8624383
-0.02702762 0.18042763 0.76700002 8953343
-0.025700001 0.18136857 0.77100003 9084415
-0.024231428 0.18136857 0.77100003 9281791
-0.022821905 0.18183906 0.77300006 9019903
-0.021377144 0.18207429 0.77400005 7835640
-0.019954285 0.18254477 0.77600002 6985215
-0.01852381 0.18301526 0.77800006 5011431
-0.017041905 0.18301526 0.77800006 2714367
-0.015600001 0.18348572 0.78000003 1595903
-0.014168572 0.18419144 0.78300005 1135338
-0.012677143 0.18419144 0.78300005 16343
-0.011242858 0.18513238 0.78700006 3165895
-0.0097438106 0.18513238 0.78700006 8955647
-0.0082657151 0.18560286 0.78900003 10659280
-0.0067628575 0.18560286 0.78900003 10264522
-0.00526 0.18560286 0.78900003 10330315
-0.075028576 0.18497142 0.78000003 10524070
-0.073542856 0.18497142 0.78000003 10066599
-0.072057143 0.18497142 0.78000003 7369086
-0.07057143 0.18497142 0.78000003 3298470
-0.069085717 0.18497142 0.78000003 2772126
-0.067426667 0.18449716 0.77800006 1660356
-0.065944768 0.18449716 0.77800006 3239388
-0.064131431 0.18354858 0.77400005 5929696
-0.06265714 0.18354858 0.77400005 7311349
-0.061103813 0.18331145 0.77300006 7901692
-0.059477147 0.18283714 0.77100003 8296447
-0.05800857 0.18283714 0.77100003 8362751
-0.056540001 0.18283714 0.77100003 8625919
-0.055071428 0.18283714 0.77100003 8627199
-0.053463813 0.18236287 0.76900005 8824575
-0.051999051 0.18236287 0.76900005 9152511
-0.050402857 0.18188857 0.76700002 9415679
-0.048941903 0.18188857 0.76700002 9875199
-0.047480952 0.18188857 0.76700002 9940991
-0.046020001 0.18188857 0.76700002 10203647
-0.04455905 0.18188857 0.76700002 10203647
-0.043098096 0.18188857 0.76700002 10729983
-0.04158286 0.18165143 0.76600003 10729983
-0.040123809 0.18165143 0.76600003 10796543
-0.038664766 0.18165143 0.76600003 10335999
-0.037205715 0.18165143 0.76600003 9679871
-0.035746668 0.18165143 0.76600003 10008831
-0.03428762 0.18165143 0.76600003 9678847
-0.032871429 0.18188857 0.76700002 9810431
-0.031410474 0.18188857 0.76700002 9347839
-0.029949524 0.18188857 0.76700002 9282047
-0.028488571 0.18188857 0.76700002 8557813
-0.02702762 0.18188857 0.76700002 9215743
-0.025700001 0.18283714 0.77100003 8691711
-0.024231428 0.18283714 0.77100003 8691711
-0.022821905 0.18331145 0.77300006 8431359
-0.021377144 0.18354858 0.77400005 7115510
-0.019954285 0.18402286 0.77600002 5737471
-0.01852381 0.18449716 0.77800006 4290038
-0.017041905 0.18449716 0.77800006 4815103
-0.015600001 0.18497142 0.78000003 3104501
-0.014168572 0.18568286 0.78300005 2118122
-0.012709524 0.18615715 0.78500003 473297
-0.011242858 0.18663144 0.78700006 4216007
-0.0097685717 0.18710573 0.78900003 9545215
-0.0082657151 0.18710573 0.78900003 10593487
-0.0067628575 0.18710573 0.78900003 10330315
-0.00526 0.18710573 0.78900003 10330315
-0.074202865 0.1881305 0.78700006 10065827
-0.07214953 0.18669619 0.78100002 7763072
-0.070661902 0.18669619 0.78100002 3626161
-0.069085717 0.18645716 0.78000003 2178715
-0.067426667 0.18597905 0.77800006 871884
-0.065944768 0.18597905 0.77800006 2385123
-0.06429714 0.18550095 0.77600002 4550889
-0.06265714 0.18502288 0.77400005 6129919
-0.061103813 0.18478382 0.77300006 7442683
-0.059631433 0.18478382 0.77300006 8297983
-0.05800857 0.18430573 0.77100003 8625919
-0.056540001 0.18430573 0.77100003 9415423
-0.055071428 0.18430573 0.77100003 9416447
-0.053463813 0.18382762 0.76900005 9745407
-0.051999051 0.18382762 0.76900005 9942271
-0.050534289 0.18382762 0.76900005 9744895
-0.049069528 0.18382762 0.76900005 9679359
-0.047604766 0.18382762 0.76900005 9745151
-0.046020001 0.18334952 0.76700002 9745151
-0.04455905 0.18334952 0.76700002 9613567
-0.043098096 0.18334952 0.76700002 9876735
-0.041637145 0.18334952 0.76700002 9942527
-0.04017619 0.18334952 0.76700002 9417727
-0.03871524 0.18334952 0.76700002 8036084
-0.037254285 0.18334952 0.76700002 8627199
-0.035793334 0.18334952 0.76700002 10732543
-0.03433238 0.18334952 0.76700002 11715071
-0.032871429 0.18334952 0.76700002 11583487
-0.031410474 0.18334952 0.76700002 11252735
-0.029949524 0.18334952 0.76700002 10923775
-0.028488571 0.18334952 0.76700002 10003962
-0.02702762 0.18334952 0.76700002 10135548
-0.025700001 0.18430573 0.77100003 9350399
-0.024294289 0.18478382 0.77300006 8626686
-0.02285143 0.18502288 0.77400005 8168703
-0.021377144 0.18502288 0.77400005 7247614
-0.019954285 0.18550095 0.77600002 5738495
-0.01852381 0.18597905 0.77800006 3106789
-0.017085714 0.18645716 0.78000003 3437311
-0.015600001 0.18645716 0.78000003 2779391
-0.014168572 0.18717431 0.78300005 1594613
-0.012709524 0.18765238 0.78500003 15324
-0.011271429 0.18860857 0.78900003 2443210
-0.0097438106 0.1881305 0.78700006 8759295
-0.0082447622 0.1881305 0.78700006 10857422
-0.0067457147 0.1881305 0.78700006 10331078
-0.0052466667 0.1881305 0.78700006 10330574
-0.075701907 0.18962952 0.78700006 10195880
-0.074202865 0.18962952 0.78700006 9934761
-0.072519049 0.18914762 0.78500003 7895178
-0.070842862 0.18866573 0.78300005 5268136
-0.069351435 0.18866573 0.78300005 3031174
-0.067686662 0.18818381 0.78100002 1133503
-0.066114292 0.18794286 0.78000003 2646742
-0.064628571 0.18794286 0.78000003 3632869
-0.06265714 0.18649715 0.77400005 5277694
-0.06118286 0.18649715 0.77400005 6655731
-0.059631433 0.1862562 0.77300006 7839999
-0.058159053 0.1862562 0.77300006 7905023
-0.05668667 0.1862562 0.77300006 8168191
-0.05521429 0.1862562 0.77300006 8168447
-0.053602856 0.18577428 0.77100003 8826367
-0.051999051 0.18529238 0.76900005 8957951
-0.050534289 0.18529238 0.76900005 8892159
-0.049069528 0.18529238 0.76900005 8760575
-0.047604766 0.18529238 0.76900005 8694783
-0.046020001 0.18481049 0.76700002 8892159
-0.04455905 0.18481049 0.76700002 8760575
-0.043098096 0.18481049 0.76700002 8563967
-0.041637145 0.18481049 0.76700002 9090303
-0.04017619 0.18481049 0.76700002 8827391
-0.03871524 0.18481049 0.76700002 7050990
-0.037254285 0.18481049 0.76700002 7641599
-0.035793334 0.18481049 0.76700002 10470655
-0.03433238 0.18481049 0.76700002 12305663
-0.032871429 0.18481049 0.76700002 11910911
-0.031410474 0.18481049 0.76700002 11580670
-0.029949524 0.18481049 0.76700002 11514877
-0.028488571 0.18481049 0.76700002 10464254
-0.027098097 0.18529238 0.76900005 10135289
-0.025700001 0.18577428 0.77100003 9023231
-0.024294289 0.1862562 0.77300006 8496895
-0.02285143 0.18649715 0.77400005 7250943
-0.021377144 0.18649715 0.77400005 7053567
-0.019954285 0.18697906 0.77600002 6264575
-0.018571429 0.18794286 0.78000003 3961834
-0.017085714 0.18794286 0.78000003 2780927
-0.015620001 0.18818381 0.78100002 2320383
-0.014204763 0.18914762 0.78500003 3236087
-0.012709524 0.18914762 0.78500003 1064918
-0.011242858 0.18962952 0.78700006 1917386
-0.0097438106 0.18962952 0.78700006 8562431
-0.0082447622 0.18962952 0.78700006 10922963
-0.0067457147 0.18962952 0.78700006 10528205
-0.075701907 0.19112858 0.78700006 9998249
-0.074202865 0.19112858 0.78700006 9868459
-0.072703816 0.19112858 0.78700006 8157841
-0.071023814 0.19064286 0.78500003 4940965
-0.069528572 0.19064286 0.78500003 2572417
-0.067860007 0.19015715 0.78300005 806089
-0.066199049 0.18967143 0.78100002 2450914
-0.064628571 0.18942858 0.78000003 4223464
-0.063142858 0.18942858 0.78000003 5407738
-0.061340958 0.18845715 0.77600002 6786526
-0.059708573 0.18797144 0.77400005 7115491
-0.058159053 0.18772858 0.77300006 6721535
-0.05668667 0.18772858 0.77300006 6524159
-0.05521429 0.18772858 0.77300006 6130943
-0.053602856 0.18724287 0.77100003 6065151
-0.052134287 0.18724287 0.77100003 6000383
-0.050534289 0.18675716 0.76900005 6724095
-0.049069528 0.18675716 0.76900005 8497919
-0.047728572 0.18724287 0.77100003 8563711
-0.04614 0.18675716 0.76900005 8892671
-0.044675242 0.18675716 0.76900005 8761087
-0.043210477 0.18675716 0.76900005 9878271
-0.041637145 0.18627143 0.76700002 11128319
-0.04017619 0.18627143 0.76700002 10209279
-0.03871524 0.18627143 0.76700002 6590671
-0.037254285 0.18627143 0.76700002 7970815
-0.035793334 0.18627143 0.76700002 10799871
-0.03433238 0.18627143 0.76700002 12830463
-0.032871429 0.18627143 0.76700002 11777781
-0.031492382 0.18675716 0.76900005 10856182
-0.030027622 0.18675716 0.76900005 11316733
-0.028562859 0.18675716 0.76900005 8953855
-0.027098097 0.18675716 0.76900005 7835375
-0.025766669 0.18772858 0.77300006 7972095
-0.024325715 0.18797144 0.77400005 8695807
-0.022910476 0.18845715 0.77600002 8892159
-0.021432383 0.18845715 0.77600002 8760575
-0.020005716 0.18894286 0.77800006 8432127
-0.018571429 0.18942858 0.78000003 6853106
-0.017107621 0.18967143 0.78100002 5539583
-0.015620001 0.18967143 0.78100002 3500011
-0.014204763 0.19064286 0.78500003 2645243
-0.012709524 0.19064286 0.78500003 605660
-0.011242858 0.19112858 0.78700006 1916877
-0.0097685717 0.19161429 0.78900003 8561919
-0.0082657151 0.19161429 0.78900003 10988495
-0.0067714285 0.19185716 0.79000002 10527944
-0.075894289 0.19311716 0.78900003 9932967
-0.074391425 0.19311716 0.78900003 9802153
-0.072703816 0.19262764 0.78700006 8552086
-0.071204767 0.19262764 0.78700006 5334435
-0.069528572 0.19213811 0.78500003 2571129
-0.068033338 0.19213811 0.78500003 740028
-0.066199049 0.19115905 0.78100002 2845404
-0.064711429 0.19115905 0.78100002 4551143
-0.063142858 0.19091429 0.78000003 5209073
-0.061499052 0.19042477 0.77800006 4946655
-0.059708573 0.18944572 0.77400005 5407206
-0.058234289 0.18944572 0.77400005 5800447
-0.05668667 0.18920097 0.77300006 5405695
-0.05521429 0.18920097 0.77300006 4554495
-0.05374191 0.18920097 0.77300006 4949247
-0.052134287 0.18871143 0.77100003 5410559
-0.050665714 0.18871143 0.77100003 6002687
-0.049197145 0.18871143 0.77100003 7973887
-0.047728572 0.18871143 0.77100003 8171263
-0.04614 0.18822192 0.76900005 8892671
-0.044675242 0.18822192 0.76900005 8826879
-0.043210477 0.18822192 0.76900005 10009855
-0.041745719 0.18822192 0.76900005 10865151
-0.040280953 0.18822192 0.76900005 10012671
-0.038816195 0.18822192 0.76900005 7315166
-0.037351429 0.18822192 0.76900005 8300031
-0.035886671 0.18822192 0.76900005 10997503
-0.034421906 0.18822192 0.76900005 13159167
-0.032957144 0.18822192 0.76900005 11382762
-0.031492382 0.18822192 0.76900005 10921196
-0.030027622 0.18822192 0.76900005 11513333
-0.028637143 0.18871143 0.77100003 8429055
-0.027168572 0.18871143 0.77100003 6981614
-0.025766669 0.18920097 0.77300006 6725631
-0.024325715 0.18944572 0.77400005 8436223
-0.022910476 0.18993524 0.77600002 9878271
-0.021432383 0.18993524 0.77600002 9483519
-0.020005716 0.19042477 0.77800006 8431359
-0.018571429 0.19091429 0.78000003 6786545
-0.017107621 0.19115905 0.78100002 5933055
-0.015660001 0.19164859 0.78300005 3498728
-0.014204763 0.19213811 0.78500003 2382843
-0.012741906 0.19262764 0.78700006 606432
-0.011271429 0.19311716 0.78900003 2638279
-0.0097685717 0.19311716 0.78900003 8625407
-0.0082761906 0.19336191 0.79000002 10593489
-0.0067714285 0.19336191 0.79000002 10593489
-0.074202865 0.19412668 0.78700006 9802412
-0.072703816 0.19412668 0.78700006 8618138
-0.071204767 0.19412668 0.78700006 5203878
-0.069528572 0.19363333 0.78500003 2506365
-0.068033338 0.19363333 0.78500003 805580
-0.066199049 0.19264667 0.78100002 3568886
-0.064711429 0.19264667 0.78100002 4748002
-0.063223809 0.19264667 0.78100002 3892693
-0.061657146 0.19240001 0.78000003 2186979
-0.05986286 0.19141334 0.77600002 4226559
-0.058234289 0.19092001 0.77400005 5866751
-0.05668667 0.19067335 0.77300006 5274623
-0.05521429 0.19067335 0.77300006 4292351
-0.05374191 0.19067335 0.77300006 4687103
-0.052269526 0.19067335 0.77300006 6329087
-0.050797146 0.19067335 0.77300006 6921215
-0.049197145 0.19018 0.77100003 7971583
-0.047728572 0.19018 0.77100003 8300543
-0.046260003 0.19018 0.77100003 8694783
-0.044675242 0.18968669 0.76900005 9023743
-0.043210477 0.18968669 0.76900005 10009087
-0.041745719 0.18968669 0.76900005 10601215
-0.040280953 0.18968669 0.76900005 10338815
-0.038917147 0.19018 0.77100003 9351928
-0.037351429 0.18968669 0.76900005 10269951
-0.035886671 0.18968669 0.76900005 11848959
-0.034511428 0.19018 0.77100003 12633597
-0.033042856 0.19018 0.77100003 10922979
-0.031574287 0.19018 0.77100003 10331121
-0.030105716 0.19018 0.77100003 10989051
-0.028637143 0.19018 0.77100003 9151743
-0.027168572 0.19018 0.77100003 8428031
-0.025800001 0.19092001 0.77400005 8038143
-0.024325715 0.19092001 0.77400005 9551359
-0.022910476 0.19141334 0.77600002 10666239
-0.021487622 0.19190668 0.77800006 9810937
-0.020057144 0.19240001 0.78000003 7970815
-0.018595237 0.19264667 0.78100002 5602280
-0.017107621 0.19264667 0.78100002 5276159
-0.015660001 0.19314002 0.78300005 3368166
-0.014204763 0.19363333 0.78500003 2711038
-0.012774286 0.19462001 0.78900003 737248
-0.011271429 0.19462001 0.78900003 1258697
-0.0097685717 0.19462001 0.78900003 7443199
-0.0082761906 0.19486667 0.79000002 10724821
-0.0067714285 0.19486667 0.79000002 10922200
-0.0052666669 0.19486667 0.79000002 10659532
-0.074391425 0.19612287 0.78900003 9802666
-0.072888575 0.19612287 0.78900003 8947357
-0.071204767 0.19562572 0.78700006 5861277
-0.069528572 0.19512857 0.78500003 2308455
-0.068033338 0.19512857 0.78500003 803770
-0.066199049 0.19413428 0.78100002 3567076
-0.064711429 0.19413428 0.78100002 5141218
-0.063223809 0.19413428 0.78100002 4154323
-0.061657146 0.19388571 0.78000003 1990361
-0.05986286 0.19289143 0.77600002 5214207
-0.058234289 0.19239429 0.77400005 6197243
-0.056760002 0.19239429 0.77400005 5407727
-0.055285718 0.19239429 0.77400005 3964396
-0.05374191 0.19214574 0.77300006 4293361
-0.052269526 0.19214574 0.77300006 6655997
-0.050797146 0.19214574 0.77300006 7511295
-0.049324766 0.19214574 0.77300006 7773183
-0.047728572 0.19164857 0.77100003 8299519
-0.046260003 0.19164857 0.77100003 8431615
-0.04479143 0.19164857 0.77100003 8892159
-0.043322857 0.19164857 0.77100003 9679871
-0.041854288 0.19164857 0.77100003 10337791
-0.040385716 0.19164857 0.77100003 10796543
-0.038917147 0.19164857 0.77100003 10796543
-0.037448574 0.19164857 0.77100003 11648255
-0.035980001 0.19164857 0.77100003 12306175
-0.034511428 0.19164857 0.77100003 12567034
-0.033042856 0.19164857 0.77100003 11053795
-0.031574287 0.19164857 0.77100003 10396394
-0.030183813 0.19214574 0.77300006 11185910
-0.028711431 0.19214574 0.77300006 10400511
-0.027239049 0.19214574 0.77300006 9939967
-0.025800001 0.19239429 0.77400005 9351423
-0.024388572 0.19289143 0.77600002 10009343
-0.022969525 0.19338858 0.77800006 10665471
-0.021487622 0.19338858 0.77800006 9612790
-0.020057144 0.19388571 0.78000003 7313919
-0.018595237 0.19413428 0.78100002 5076965
-0.017151428 0.19463143 0.78300005 5275903
-0.015660001 0.19463143 0.78300005 3894258
-0.014240953 0.19562572 0.78700006 3826164
-0.012774286 0.19612287 0.78900003 1391823
-0.011271429 0.19612287 0.78900003 1061827
-0.0097685717 0.19612287 0.78900003 7048959
-0.0082761906 0.19637144 0.79000002 10856150
-0.0067714285 0.19637144 0.79000002 10987736
-0.0052933334 0.19736572 0.79400003 10593226
-0.074202865 0.19712478 0.78700006 9605283
-0.072703816 0.19712478 0.78700006 9013146
-0.071204767 0.19712478 0.78700006 6124183
-0.069528572 0.1966238 0.78500003 2505568
-0.067860007 0.19612287 0.78300005 804288
-0.066368572 0.19612287 0.78300005 3107043
-0.064877145 0.19612287 0.78300005 5338849
-0.063223809 0.19562191 0.78100002 4088782
-0.061657146 0.19537143 0.78000003 5074657
-0.05986286 0.19436954 0.77600002 8824831
-0.058384761 0.19436954 0.77600002 10004205
-0.05690667 0.19436954 0.77600002 9675240
-0.055285718 0.19386858 0.77400005 9347304
-0.053811431 0.19386858 0.77400005 9281511
-0.052269526 0.1936181 0.77300006 9610989
-0.050797146 0.1936181 0.77300006 10071540
-0.049324766 0.1936181 0.77300006 10268926
-0.047852382 0.1936181 0.77300006 10597887
-0.046260003 0.19311716 0.77100003 10795261
-0.04479143 0.19311716 0.77100003 11124223
-0.043322857 0.19311716 0.77100003 11516927
-0.041854288 0.19311716 0.77100003 11319551
-0.040385716 0.19311716 0.77100003 11516927
-0.039018098 0.1936181 0.77300006 12240639
-0.037448574 0.19311716 0.77100003 12962559
-0.035980001 0.19311716 0.77100003 12633599
-0.034600955 0.1936181 0.77300006 12304112
-0.033128574 0.1936181 0.77300006 11054045
-0.031656191 0.1936181 0.77300006 11053552
-0.030183813 0.1936181 0.77300006 12698367
-0.028711431 0.1936181 0.77300006 12700415
-0.027239049 0.1936181 0.77300006 12503039
-0.025800001 0.19386858 0.77400005 11518207
-0.024388572 0.19436954 0.77600002 11320828
-0.022969525 0.19487049 0.77800006 10794751
-0.021487622 0.19487049 0.77800006 9610485
-0.020057144 0.19537143 0.78000003 7576829
-0.018595237 0.19562191 0.78100002 4089800
-0.017151428 0.19612287 0.78300005 4291071
-0.015700001 0.1966238 0.78500003 4093695
-0.014277143 0.19762571 0.78900003 3564784
-0.012790476 0.19787619 0.79000002 1130443
-0.011285715 0.19787619 0.79000002 1128399
-0.0097809527 0.19787619 0.79000002 6654975
-0.0082971435 0.19837716 0.79200006 10527442
-0.0068057147 0.19887809 0.79400003 10856407
-0.0052933334 0.19887809 0.79400003 10790346
-0.074202865 0.19862384 0.78700006 9605285
-0.072703816 0.19862384 0.78700006 9144734
-0.071204767 0.19862384 0.78700006 6714780
-0.069528572 0.19811906 0.78500003 2898786
-0.067860007 0.1976143 0.78300005 1000120
-0.066368572 0.1976143 0.78300005 3434461
-0.064877145 0.1976143 0.78300005 5864665
-0.063223809 0.19710954 0.78100002 4614598
-0.061657146 0.19685715 0.78000003 5993169
-0.060017146 0.19635239 0.77800006 9480191
-0.058384761 0.19584762 0.77600002 11118055
-0.05690667 0.19584762 0.77600002 11052262
-0.055285718 0.19534287 0.77400005 10920946
-0.053811431 0.19534287 0.77400005 11118325
-0.052269526 0.19509049 0.77300006 11053813
-0.050797146 0.19509049 0.77300006 11514364
-0.049324766 0.19509049 0.77300006 11581183
-0.047852382 0.19509049 0.77300006 11646975
-0.046380006 0.19509049 0.77300006 12369663
-0.044907622 0.19509049 0.77300006 12501247
-0.043435238 0.19509049 0.77300006 12894975
-0.041962862 0.19509049 0.77300006 12697598
-0.040490478 0.19509049 0.77300006 12370175
-0.039018098 0.19509049 0.77300006 12962303
-0.037545718 0.19509049 0.77300006 13225727
-0.036073335 0.19509049 0.77300006 12304627
-0.034600955 0.19509049 0.77300006 11908084
-0.033128574 0.19509049 0.77300006 11381740
-0.031656191 0.19509049 0.77300006 11447540
-0.030183813 0.19509049 0.77300006 12829183
-0.028711431 0.19509049 0.77300006 13027839
-0.027274288 0.19534287 0.77400005 12764671
-0.025866667 0.19584762 0.77600002 12238847
-0.024388572 0.19584762 0.77600002 11909883
-0.022969525 0.19635239 0.77800006 11384063
-0.021542858 0.19685715 0.78000003 10791929
-0.020082857 0.19710954 0.78100002 8758527
-0.018642858 0.1976143 0.78300005 5468886
-0.017151428 0.1976143 0.78300005 3438335
-0.015700001 0.19811906 0.78500003 2648820
-0.014277143 0.19912858 0.78900003 4023016
-0.012790476 0.19938095 0.79000002 1786054
-0.011285715 0.19938095 0.79000002 2047698
-0.0097809527 0.19938095 0.79000002 6982143
-0.0083180955 0.20039047 0.79400003 10199249
-0.0068057147 0.20039047 0.79400003 10725593
-0.0052933334 0.20039047 0.79400003 10725071
-0.072703816 0.20012286 0.78700006 9209764
-0.071204767 0.20012286 0.78700006 6386333
-0.069528572 0.19961429 0.78500003 2899304
-0.067860007 0.19910572 0.78300005 1133253
-0.066199049 0.19859715 0.78100002 2843871
-0.064711429 0.19859715 0.78100002 5863116
-0.063223809 0.19859715 0.78100002 7113183
-0.061657146 0.19834286 0.78000003 8226002
-0.060017146 0.1978343 0.77800006 9805034
-0.058384761 0.19732571 0.77600002 10591711
-0.05690667 0.19732571 0.77600002 11644399
-0.055285718 0.19681716 0.77400005 12039927
-0.053811431 0.19681716 0.77400005 12566271
-0.052337144 0.19681716 0.77400005 12830458
-0.050797146 0.19656287 0.77300006 13356799
-0.049324766 0.19656287 0.77300006 13291519
-0.047852382 0.19656287 0.77300006 13094143
-0.046380006 0.19656287 0.77300006 13094141
-0.044907622 0.19656287 0.77300006 13028348
-0.043435238 0.19656287 0.77300006 13094141
-0.041962862 0.19656287 0.77300006 13094141
-0.040490478 0.19656287 0.77300006 13094141
-0.039018098 0.19656287 0.77300006 13291519
-0.037545718 0.19656287 0.77300006 13225215
-0.036073335 0.19656287 0.77300006 12238321
-0.034600955 0.19656287 0.77300006 11249918
-0.033128574 0.19656287 0.77300006 11118332
-0.031656191 0.19656287 0.77300006 11184125
-0.030222857 0.19681716 0.77400005 11907839
-0.028748574 0.19681716 0.77400005 11580668
-0.027274288 0.19681716 0.77400005 11449082
-0.025866667 0.19732571 0.77600002 11383807
-0.024388572 0.19732571 0.77600002 11318014
-0.022969525 0.1978343 0.77800006 11384319
-0.021542858 0.19834286 0.78000003 11844863
-0.020082857 0.19859715 0.78100002 10993151
-0.018642858 0.19910572 0.78300005 8624610
-0.017195238 0.19961429 0.78500003 6459379
-0.01574 0.20012286 0.78700006 3038143
-0.014295238 0.20088571 0.79000002 1594342
-0.012822858 0.2013943 0.79200006 541654
-0.011314287 0.2013943 0.79200006 1655511
-0.0098057147 0.2013943 0.79200006 6589951
-0.0083390484 0.20241144 0.79600006 10396115
-0.0068228575 0.20241144 0.79600006 10790873
-0.0053066672 0.20241144 0.79600006 10790348
-0.072703816 0.20162192 0.78700006 9209505
-0.071204767 0.20162192 0.78700006 6319518
-0.069528572 0.20110953 0.78500003 2898282
-0.067860007 0.20059715 0.78300005 1001149
-0.066199049 0.20008476 0.78100002 2514388
-0.064711429 0.20008476 0.78100002 6255040
-0.063223809 0.20008476 0.78100002 8294623
-0.061657146 0.19982858 0.78000003 9867724
-0.060017146 0.1993162 0.77800006 10459861
-0.058384761 0.19880381 0.77600002 10394845
-0.05690667 0.19880381 0.77600002 11513326
-0.055285718 0.19829144 0.77400005 11778040
-0.053811431 0.19829144 0.77400005 12238591
-0.052337144 0.19829144 0.77400005 12503039
-0.050797146 0.19803524 0.77300006 12963583
-0.049324766 0.19803524 0.77300006 13160703
-0.047852382 0.19803524 0.77300006 13029119
-0.046380006 0.19803524 0.77300006 13094654
-0.044907622 0.19803524 0.77300006 12963068
-0.043435238 0.19803524 0.77300006 12766462
-0.041962862 0.19803524 0.77300006 12832255
-0.040490478 0.19803524 0.77300006 13094652
-0.039018098 0.19803524 0.77300006 13028859
-0.037594289 0.19829144 0.77400005 13028350
-0.036120001 0.19829144 0.77400005 11449318
-0.034645718 0.19829144 0.77400005 11052521
-0.03317143 0.19829144 0.77400005 11052521
-0.031697143 0.19829144 0.77400005 10856434
-0.030222857 0.19829144 0.77400005 11580157
-0.028748574 0.19829144 0.77400005 11449082
-0.027274288 0.19829144 0.77400005 11712254
-0.025866667 0.19880381 0.77600002 11844351
-0.024388572 0.19880381 0.77600002 11844351
-0.022969525 0.1993162 0.77800006 11910655
-0.021487622 0.1993162 0.77800006 12108031
-0.020082857 0.20008476 0.78100002 11715327
-0.018642858 0.20059715 0.78300005 10596853
-0.017151428 0.20059715 0.78300005 6787839
-0.01574 0.20162192 0.78700006 2774469
-0.014295238 0.20239048 0.79000002 1069020
-0.012855238 0.20341524 0.79400003 476883
-0.011342858 0.20341524 0.79400003 1852367
-0.0098552387 0.20392764 0.79600006 6523647
-0.0083390484 0.20392764 0.79600006 10396367
-0.0068399999 0.20444 0.79800004 10791125
-0.0053200005 0.20444 0.79800004 10527696
-0.072703816 0.20312098 0.78700006 8617368
-0.071204767 0.20312098 0.78700006 6188704
-0.069705717 0.20312098 0.78700006 2767468
-0.067860007 0.20208858 0.78300005 1460678
-0.066368572 0.20208858 0.78300005 2973917
-0.064877145 0.20208858 0.78300005 6714046
-0.063223809 0.20157237 0.78100002 8622043
-0.061657146 0.20131429 0.78000003 9735879
-0.060017146 0.20079811 0.77800006 10328016
-0.058384761 0.2002819 0.77600002 10131671
-0.05690667 0.2002819 0.77600002 10855394
-0.055285718 0.19976573 0.77400005 11448033
-0.053811431 0.19976573 0.77400005 11448033
-0.052337144 0.19976573 0.77400005 11646195
-0.050797146 0.19950764 0.77300006 11909367
-0.049324766 0.19950764 0.77300006 12304884
-0.047852382 0.19950764 0.77300006 13028607
-0.046380006 0.19950764 0.77300006 13291775
-0.044907622 0.19950764 0.77300006 13686527
-0.043435238 0.19950764 0.77300006 13621500
-0.041962862 0.19950764 0.77300006 13621500
-0.040490478 0.19950764 0.77300006 13488638
-0.039018098 0.19950764 0.77300006 12896501
-0.037594289 0.19976573 0.77400005 12764915
-0.036120001 0.19976573 0.77400005 11054297
-0.034645718 0.19976573 0.77400005 10724069
-0.03317143 0.19976573 0.77400005 10855655
-0.031697143 0.19976573 0.77400005 10724591
-0.030222857 0.19976573 0.77400005 11579900
-0.028748574 0.19976573 0.77400005 12107003
-0.027274288 0.19976573 0.77400005 13093887
-0.025866667 0.2002819 0.77600002 13291775
-0.024388572 0.2002819 0.77600002 13225983
-0.022969525 0.20079811 0.77800006 12305407
-0.021487622 0.20079811 0.77800006 11910655
-0.020082857 0.20157237 0.78100002 11516926
-0.018642858 0.20208858 0.78300005 11385340
-0.017151428 0.20208858 0.78300005 10072310
-0.015700001 0.20260476 0.78500003 4282526
-0.014277143 0.20363715 0.78900003 1002716
-0.012790476 0.20389524 0.79000002 607958
-0.011314287 0.20441145 0.79200006 1524436
-0.0098057147 0.20441145 0.79200006 5866751
-0.0083600003 0.20596001 0.79800004 10133950
-0.0068399999 0.20596001 0.79800004 10726087
