# .PCD v0.7 - Point Cloud Data file format
VERSION 0.7
FIELDS x y z rgba
SIZE 4 4 4 4
TYPE F F F U
COUNT 1 1 1 1
WIDTH 1103
HEIGHT 1
VIEWPOINT 0 0 0 1 0 0 0
POINTS 1103
DATA ascii
-0.087900959 0.17769906 0.66400003 2379935
-0.086375244 0.17716382 0.66200006 3958967
-0.084985711 0.17689618 0.66100001 7826903
-0.083473332 0.17636096 0.65900004 6905801
-0.082093336 0.17609334 0.65800005 9007289
-0.080717139 0.17582572 0.65700001 12099560
-0.079223812 0.17529048 0.65500003 10063291
-0.077976197 0.17529048 0.65500003 10129084
-0.076611437 0.17502287 0.65400004 12360959
-0.075250484 0.17475525 0.65300006 12360959
-0.074006677 0.17475525 0.65300006 11566538
-0.072651431 0.17448762 0.65200001 4987238
-0.071409523 0.17448762 0.65200001 5507072
-0.069952384 0.17395239 0.65000004 13731191
-0.068714283 0.17395239 0.65000004 13283327
-0.067476198 0.17395239 0.65000004 14401791
-0.066238098 0.17395239 0.65000004 11967215
-0.064900003 0.17368478 0.64900005 4466813
-0.063663818 0.17368478 0.64900005 8605871
-0.062427621 0.17368478 0.64900005 16764415
-0.061191436 0.17368478 0.64900005 16116735
-0.059955239 0.17368478 0.64900005 10524331
-0.058719054 0.17368478 0.64900005 8015492
-0.057482861 0.17368478 0.64900005 13081553
-0.056246672 0.17368478 0.64900005 14863615
-0.055010479 0.17368478 0.64900005 13021416
-0.05377429 0.17368478 0.64900005 10256334
-0.052538101 0.17368478 0.64900005 10387920
-0.051301908 0.17368478 0.64900005 13417198
-0.050065719 0.17368478 0.64900005 16114687
-0.048829526 0.17368478 0.64900005 16051455
-0.047593337 0.17368478 0.64900005 11445945
-0.046428576 0.17395239 0.65000004 10122924
-0.045190476 0.17395239 0.65000004 11504577
-0.043952383 0.17395239 0.65000004 13089017
-0.042714287 0.17395239 0.65000004 15260159
-0.041476194 0.17395239 0.65000004 14210047
-0.040361904 0.17448762 0.65200001 10788815
-0.039180003 0.17475525 0.65300006 11838906
-0.037936196 0.17475525 0.65300006 15128556
-0.036748573 0.17502287 0.65400004 13355263
-0.035557143 0.17529048 0.65500003 8157622
-0.034414288 0.17582572 0.65700001 8152285
-0.033213336 0.17609334 0.65800005 14205183
-0.031960003 0.17609334 0.65800005 14472447
-0.030753333 0.17636096 0.65900004 10459078
-0.029587621 0.17689618 0.66100001 11112110
-0.028328571 0.17689618 0.66100001 13612244
-0.02711048 0.17716382 0.66200006 13484031
-0.02592762 0.17769906 0.66400003 12826106
-0.024774287 0.17850192 0.66700006 8950738
-0.02353905 0.17876953 0.66800004 5003158
-0.022333333 0.17930476 0.67000002 4675525
-0.021120002 0.17984001 0.67200005 8030968
-0.093520008 0.18004191 0.66800004 10722502
-0.092109531 0.17977239 0.66700006 11051467
-0.090702854 0.17950284 0.66600001 10330567
-0.089165725 0.17896381 0.66400003 6514573
-0.087900959 0.17896381 0.66400003 2707638
-0.086375244 0.17842478 0.66200006 4747221
-0.084985711 0.17815524 0.66100001 7565519
-0.083473332 0.17761619 0.65900004 6578624
-0.082093336 0.17734668 0.65800005 9402299
-0.080717139 0.17707714 0.65700001 12034019
-0.079223812 0.17653809 0.65500003 10061223
-0.077976197 0.17653809 0.65500003 10916532
-0.076611437 0.17626858 0.65400004 12624895
-0.075250484 0.17599906 0.65300006 11572216
-0.074006677 0.17599906 0.65300006 10844618
-0.072651431 0.17572953 0.65200001 4396904
-0.071409523 0.17572953 0.65200001 4784978
-0.069952384 0.17519048 0.65000004 13338068
-0.068714283 0.17519048 0.65000004 14270975
-0.067476198 0.17519048 0.65000004 14402559
-0.066238098 0.17519048 0.65000004 11702510
-0.064900003 0.17492096 0.64900005 3675764
-0.063663818 0.17492096 0.64900005 8148679
-0.062427621 0.17492096 0.64900005 16109567
-0.061191436 0.17492096 0.64900005 16050943
-0.059955239 0.17492096 0.64900005 10524331
-0.058719054 0.17492096 0.64900005 7618992
-0.057482861 0.17492096 0.64900005 12948223
-0.056246672 0.17492096 0.64900005 14732031
-0.055010479 0.17492096 0.64900005 13284590
-0.05377429 0.17492096 0.64900005 10715367
-0.052538101 0.17492096 0.64900005 6570408
-0.051301908 0.17492096 0.64900005 10980043
-0.050065719 0.17492096 0.64900005 16769791
-0.048829526 0.17492096 0.64900005 16576767
-0.047593337 0.17492096 0.64900005 11247534
-0.046428576 0.17519048 0.65000004 10185611
-0.045190476 0.17519048 0.65000004 11698850
-0.043952383 0.17519048 0.65000004 13548262
-0.042714287 0.17519048 0.65000004 16311551
-0.041476194 0.17519048 0.65000004 15588863
-0.040361904 0.17572953 0.65200001 9206943
-0.039180003 0.17599906 0.65300006 9858232
-0.037936196 0.17599906 0.65300006 16108543
-0.036748573 0.17626858 0.65400004 15129599
-0.035557143 0.17653809 0.65500003 14603257
-0.034414288 0.17707714 0.65700001 14275583
-0.033213336 0.17734668 0.65800005 14341375
-0.032008573 0.17761619 0.65900004 14075378
-0.030753333 0.17761619 0.65900004 5061737
-0.029587621 0.17815524 0.66100001 7216793
-0.028371431 0.17842478 0.66200006 14848767
-0.02711048 0.17842478 0.66200006 13349118
-0.026005713 0.17950284 0.66600001 11112156
-0.024774287 0.17977239 0.66700006 9211297
-0.02353905 0.18004191 0.66800004 6579577
-0.022333333 0.18058094 0.67000002 5661389
-0.021120002 0.18112001 0.67200005 8687867
-0.092109531 0.18104286 0.66700006 11117003
-0.090839051 0.18104286 0.66700006 10330054
-0.089434281 0.18077143 0.66600001 6777232
-0.088165708 0.18077143 0.66600001 2576803
-0.086375244 0.17968573 0.66200006 4419007
-0.085114293 0.17968573 0.66200006 8091345
-0.083473332 0.17887144 0.65900004 7236036
-0.082093336 0.17860001 0.65800005 9796287
-0.080717139 0.17832856 0.65700001 11375319
-0.079223812 0.17778571 0.65500003 9009315
-0.077976197 0.17778571 0.65500003 11246277
-0.076611437 0.1775143 0.65400004 13153023
-0.075250484 0.17724286 0.65300006 11245034
-0.074006677 0.17724286 0.65300006 10646976
-0.072651431 0.17697144 0.65200001 4791399
-0.071190484 0.17642859 0.65000004 5506336
-0.069952384 0.17642859 0.65000004 13993633
-0.068714283 0.17642859 0.65000004 13877759
-0.067372382 0.17615715 0.64900005 13943551
-0.066136196 0.17615715 0.64900005 10654975
-0.064900003 0.17615715 0.64900005 7365331
-0.063663818 0.17615715 0.64900005 7956698
-0.062427621 0.17615715 0.64900005 14733311
-0.061191436 0.17615715 0.64900005 15591423
-0.059955239 0.17615715 0.64900005 9999019
-0.058719054 0.17615715 0.64900005 7160169
-0.057482861 0.17615715 0.64900005 13081539
-0.056246672 0.17615715 0.64900005 14534911
-0.055010479 0.17615715 0.64900005 13350642
-0.05377429 0.17615715 0.64900005 11504624
-0.052538101 0.17615715 0.64900005 6833321
-0.051301908 0.17615715 0.64900005 9462894
-0.050065719 0.17615715 0.64900005 16767202
-0.048829526 0.17615715 0.64900005 16444159
-0.047666669 0.17642859 0.65000004 9996445
-0.046428576 0.17642859 0.65000004 8656519
-0.045190476 0.17642859 0.65000004 11025067
-0.043952383 0.17642859 0.65000004 13213157
-0.042714287 0.17642859 0.65000004 16700159
-0.041603811 0.17697144 0.65200001 15917823
-0.040361904 0.17697144 0.65200001 9141145
-0.039180003 0.17724286 0.65300006 8927116
-0.037936196 0.17724286 0.65300006 16032760
-0.036748573 0.1775143 0.65400004 14603519
-0.035557143 0.17778571 0.65500003 14537726
-0.034309525 0.17778571 0.65500003 14998527
-0.033213336 0.17860001 0.65800005 14077429
-0.032008573 0.17887144 0.65900004 12230630
-0.030753333 0.17887144 0.65900004 4993400
-0.029587621 0.17941429 0.66100001 7538503
-0.028371431 0.17968573 0.66200006 12933529
-0.02711048 0.17968573 0.66200006 12029390
-0.026005713 0.18077143 0.66600001 11503046
-0.024774287 0.18104286 0.66700006 6844608
-0.02353905 0.18131429 0.66800004 4541853
-0.022333333 0.18185715 0.67000002 4609734
-0.019780952 0.18185715 0.67000002 11185115
-0.092109531 0.18231335 0.66700006 10919622
-0.090839051 0.18231335 0.66700006 10330308
-0.089434281 0.18203999 0.66600001 7238037
-0.088165708 0.18203999 0.66600001 3759026
-0.086505719 0.18122002 0.66300005 4285370
-0.085114293 0.18094668 0.66200006 7434187
-0.083473332 0.18012668 0.65900004 7302601
-0.082093336 0.17985334 0.65800005 9992896
-0.080717139 0.17958 0.65700001 11506135
-0.079223812 0.17903335 0.65500003 10124468
-0.077976197 0.17903335 0.65500003 12164051
-0.076611437 0.17876001 0.65400004 13678591
-0.075250484 0.17848668 0.65300006 10849493
-0.074006677 0.17848668 0.65300006 10448055
-0.072651431 0.17821334 0.65200001 5053029
-0.071190484 0.17766666 0.65000004 6096216
-0.069952384 0.17766666 0.65000004 14188755
-0.068714283 0.17766666 0.65000004 14337023
-0.067372382 0.17739335 0.64900005 15060735
-0.066136196 0.17739335 0.64900005 13088255
-0.064900003 0.17739335 0.64900005 11048680
-0.063663818 0.17739335 0.64900005 10917631
-0.062427621 0.17739335 0.64900005 15062527
-0.061191436 0.17739335 0.64900005 15721471
-0.059955239 0.17739335 0.64900005 10721204
-0.058719054 0.17739335 0.64900005 8339115
-0.057482861 0.17739335 0.64900005 13799934
-0.056246672 0.17739335 0.64900005 15191295
-0.055010479 0.17739335 0.64900005 14335990
-0.05377429 0.17739335 0.64900005 12095735
-0.052538101 0.17739335 0.64900005 4134782
-0.051301908 0.17739335 0.64900005 7814753
-0.050065719 0.17739335 0.64900005 15380948
-0.048829526 0.17739335 0.64900005 15121919
-0.047666669 0.17766666 0.65000004 9726898
-0.046428576 0.17766666 0.65000004 9184699
-0.045190476 0.17766666 0.65000004 10632145
-0.044087619 0.17821334 0.65200001 12554686
-0.042845711 0.17821334 0.65200001 15581164
-0.041603811 0.17821334 0.65200001 15123967
-0.040423814 0.17848668 0.65300006 9663154
-0.039240003 0.17876001 0.65400004 9586606
-0.037994288 0.17876001 0.65400004 10770880
-0.036748573 0.17876001 0.65400004 10450351
-0.035557143 0.17903335 0.65500003 12621520
-0.034309525 0.17903335 0.65500003 11240958
-0.033213336 0.17985334 0.65800005 9135582
-0.032008573 0.18012668 0.65900004 9655711
-0.030753333 0.18012668 0.65900004 7089784
-0.029587621 0.18067333 0.66100001 7998089
-0.028371431 0.18094668 0.66200006 7471745
-0.02715143 0.18122002 0.66300005 7282513
-0.026005713 0.18203999 0.66600001 10308991
-0.024737144 0.18203999 0.66600001 7432141
-0.02353905 0.18258668 0.66800004 5458351
-0.022366667 0.18340667 0.671 5266894
-0.02108857 0.18340667 0.671 10201343
-0.092247628 0.18385907 0.66800004 10788036
-0.090839051 0.18358383 0.66700006 10264772
-0.089568578 0.18358383 0.66700006 7369880
-0.088165708 0.18330857 0.66600001 4020908
-0.086636193 0.18275811 0.66400003 3691943
-0.08524286 0.18248287 0.66300005 6907589
-0.083726667 0.18193239 0.66100001 7302347
-0.082093336 0.18110669 0.65800005 9992376
-0.080717139 0.18083143 0.65700001 9992376
-0.079223812 0.18028097 0.65500003 9727381
-0.077976197 0.18028097 0.65500003 12688066
-0.076611437 0.18000573 0.65400004 13810175
-0.075250484 0.17973049 0.65300006 10323153
-0.074006677 0.17973049 0.65300006 10510507
-0.072651431 0.17945525 0.65200001 5970790
-0.071409523 0.17945525 0.65200001 7407449
-0.069952384 0.17890477 0.65000004 14513093
-0.068714283 0.17890477 0.65000004 13547499
-0.067476198 0.17890477 0.65000004 14929151
-0.066238098 0.17890477 0.65000004 14405887
-0.064900003 0.17862955 0.64900005 12958446
-0.063663818 0.17862955 0.64900005 12893183
-0.062427621 0.17862955 0.64900005 14537983
-0.061191436 0.17862955 0.64900005 15194623
-0.059955239 0.17862955 0.64900005 9996980
-0.058719054 0.17862955 0.64900005 9059481
-0.057482861 0.17862955 0.64900005 14059749
-0.056246672 0.17862955 0.64900005 14992639
-0.055010479 0.17862955 0.64900005 14137335
-0.05377429 0.17862955 0.64900005 11833830
-0.052538101 0.17862955 0.64900005 6965148
-0.051301908 0.17862955 0.64900005 9655149
-0.050065719 0.17862955 0.64900005 14984382
-0.048829526 0.17862955 0.64900005 13807359
-0.047666669 0.17890477 0.65000004 9136063
-0.046428576 0.17890477 0.65000004 9846203
-0.045190476 0.17890477 0.65000004 10635719
-0.044087619 0.17945525 0.65200001 11692223
-0.042845711 0.17945525 0.65200001 13929185
-0.041603811 0.17945525 0.65200001 13277181
-0.040423814 0.17973049 0.65300006 10250703
-0.039240003 0.18000573 0.65400004 8595122
-0.037994288 0.18000573 0.65400004 10371533
-0.036804762 0.18028097 0.65500003 9785507
-0.035557143 0.18028097 0.65500003 11693504
-0.034414288 0.18083143 0.65700001 11498719
-0.033213336 0.18110669 0.65800005 10577617
-0.032008573 0.18138191 0.65900004 9652145
-0.030753333 0.18138191 0.65900004 8862629
-0.029587621 0.18193239 0.66100001 9715117
-0.028371431 0.18220764 0.66200006 7214983
-0.02715143 0.18248287 0.66300005 7080042
-0.026005713 0.18330857 0.66600001 11356587
-0.024737144 0.18330857 0.66600001 8351946
-0.02353905 0.18385907 0.66800004 5259675
-0.022366667 0.18468477 0.671 5397192
-0.090839051 0.1848543 0.66700006 10198719
-0.089434281 0.18457714 0.66600001 8488101
-0.088165708 0.18457714 0.66600001 4086971
-0.086636193 0.18402287 0.66400003 2442146
-0.08524286 0.18374573 0.66300005 6513594
-0.083853334 0.18346858 0.66200006 6974145
-0.082218096 0.18263716 0.65900004 9333406
-0.080839999 0.18236001 0.65800005 9136027
-0.079223812 0.18152858 0.65500003 9396872
-0.077976197 0.18152858 0.65500003 11436455
-0.076611437 0.18125144 0.65400004 11698932
-0.075365715 0.18125144 0.65400004 9856728
-0.074006677 0.18097429 0.65300006 9851785
-0.072762862 0.18097429 0.65300006 6233170
-0.071409523 0.18069714 0.65200001 7144804
-0.069952384 0.18014286 0.65000004 10500247
-0.068714283 0.18014286 0.65000004 12032144
-0.067476198 0.18014286 0.65000004 14137520
-0.066238098 0.18014286 0.65000004 13743359
-0.064900003 0.17986572 0.64900005 11506403
-0.063663818 0.17986572 0.64900005 11505374
-0.062427621 0.17986572 0.64900005 12294890
-0.061191436 0.17986572 0.64900005 12491238
-0.059955239 0.17986572 0.64900005 9333174
-0.058719054 0.17986572 0.64900005 9586111
-0.057482861 0.17986572 0.64900005 11362522
-0.056246672 0.17986572 0.64900005 11498471
-0.055010479 0.17986572 0.64900005 11235299
-0.05377429 0.17986572 0.64900005 11104690
-0.052538101 0.17986572 0.64900005 8736142
-0.051301908 0.17986572 0.64900005 10312085
-0.050065719 0.17986572 0.64900005 10970015
-0.048829526 0.17986572 0.64900005 11166665
-0.047666669 0.18014286 0.65000004 10377149
-0.046428576 0.18014286 0.65000004 10770889
-0.045329522 0.18069714 0.65200001 11757784
-0.044087619 0.18069714 0.65200001 11759304
-0.042845711 0.18069714 0.65200001 11759304
-0.041667622 0.18097429 0.65300006 12024788
-0.040423814 0.18097429 0.65300006 11958995
-0.039240003 0.18125144 0.65400004 12024795
-0.037994288 0.18125144 0.65400004 11959002
-0.036804762 0.18152858 0.65500003 11298526
-0.035557143 0.18152858 0.65500003 12022249
-0.034414288 0.18208285 0.65700001 11761875
-0.033213336 0.18236001 0.65800005 11630289
-0.032008573 0.18263716 0.65900004 11498194
-0.030753333 0.18263716 0.65900004 11695573
-0.029587621 0.18319142 0.66100001 11695823
-0.028371431 0.18346858 0.66200006 10511549
-0.02715143 0.18374573 0.66300005 9196198
-0.026005713 0.18457714 0.66600001 9788335
-0.024737144 0.18457714 0.66600001 7301316
-0.023468571 0.18457714 0.66600001 5064354
-0.022533335 0.18734859 0.67600006 6121416
-0.021308571 0.18790285 0.67800003 10529535
-0.090839051 0.18612477 0.66700006 10263735
-0.089434281 0.18584572 0.66600001 9671598
-0.088165708 0.18584572 0.66600001 6190269
-0.086636193 0.18528764 0.66400003 2834826
-0.085371435 0.18528764 0.66400003 5855412
-0.083980009 0.18500859 0.66300005 7039686
-0.082467623 0.18445048 0.66100001 8411311
-0.080839999 0.18361335 0.65800005 6898072
-0.079465717 0.18333429 0.65700001 7942491
-0.077976197 0.1827762 0.65500003 10376832
-0.076728575 0.1827762 0.65500003 11104195
-0.075365715 0.18249714 0.65400004 10183093
-0.07412 0.18249714 0.65400004 8399248
-0.072762862 0.1822181 0.65300006 7412353
-0.071409523 0.18193904 0.65200001 7669635
-0.069952384 0.18138096 0.65000004 10827699
-0.068714283 0.18138096 0.65000004 8999323
-0.067476198 0.18138096 0.65000004 12749524
-0.066238098 0.18138096 0.65000004 12688126
-0.064999998 0.18138096 0.65000004 10253785
-0.063761905 0.18138096 0.65000004 10576327
-0.062427621 0.18110192 0.64900005 11497429
-0.061191436 0.18110192 0.64900005 11366624
-0.059955239 0.18110192 0.64900005 10511315
-0.058719054 0.18110192 0.64900005 9915587
-0.057482861 0.18110192 0.64900005 11428826
-0.056246672 0.18110192 0.64900005 11234016
-0.055010479 0.18110192 0.64900005 11102430
-0.05377429 0.18110192 0.64900005 11167437
-0.052538101 0.18110192 0.64900005 10838472
-0.051301908 0.18110192 0.64900005 11231420
-0.050065719 0.18110192 0.64900005 11428799
-0.048829526 0.18110192 0.64900005 11625935
-0.047666669 0.18138096 0.65000004 12349658
-0.046428576 0.18138096 0.65000004 12090581
-0.045329522 0.18193904 0.65200001 12156374
-0.044087619 0.18193904 0.65200001 12287960
-0.042845711 0.18193904 0.65200001 12156374
-0.041667622 0.1822181 0.65300006 12484576
-0.040423814 0.1822181 0.65300006 12287197
-0.039240003 0.18249714 0.65400004 12418513
-0.037994288 0.18249714 0.65400004 12155341
-0.036804762 0.1827762 0.65500003 11232960
-0.035557143 0.1827762 0.65500003 12285648
-0.034414288 0.18333429 0.65700001 11958484
-0.033213336 0.18361335 0.65800005 11826898
-0.032008573 0.18389238 0.65900004 11564498
-0.030846667 0.18445048 0.66100001 11696084
-0.029587621 0.18445048 0.66100001 11563987
-0.028371431 0.18472955 0.66200006 11037643
-0.02715143 0.18500859 0.66300005 9066152
-0.026005713 0.18584572 0.66600001 9329324
-0.024737144 0.18584572 0.66600001 6709960
-0.023785714 0.18835714 0.67500001 4801963
-0.022533335 0.18863621 0.67600006 6910662
-0.021308571 0.18919429 0.67800003 10858239
-0.020046666 0.18947333 0.67900002 11644378
-0.018753333 0.18947333 0.67900002 11381206
-0.089434281 0.18711428 0.66600001 10394290
-0.088165708 0.18711428 0.66600001 8029377
-0.08689715 0.18711428 0.66600001 3358074
-0.085371435 0.18655239 0.66400003 4541122
-0.083980009 0.18627143 0.66300005 7041256
-0.08259239 0.1859905 0.66200006 9071026
-0.081208572 0.18570954 0.66100001 5715583
-0.079586677 0.18486668 0.65800005 6162511
-0.078214288 0.18458572 0.65700001 6688855
-0.076728575 0.18402381 0.65500003 8336508
-0.075365715 0.18374287 0.65400004 9849747
-0.07412 0.18374287 0.65400004 10312101
-0.072762862 0.18346192 0.65300006 10509480
-0.071519054 0.18346192 0.65300006 10838202
-0.069952384 0.18261907 0.65000004 10903995
-0.068714283 0.18261907 0.65000004 10247616
-0.067476198 0.18261907 0.65000004 11300304
-0.066238098 0.18261907 0.65000004 11433934
-0.064999998 0.18261907 0.65000004 11433934
-0.063761905 0.18261907 0.65000004 11301074
-0.062523812 0.18261907 0.65000004 11893211
-0.061285719 0.18261907 0.65000004 12025306
-0.060047623 0.18261907 0.65000004 12288478
-0.058809526 0.18261907 0.65000004 12156390
-0.057571433 0.18261907 0.65000004 12616941
-0.056333333 0.18261907 0.65000004 12485600
-0.055010479 0.1823381 0.64900005 12419807
-0.05377429 0.1823381 0.64900005 12682727
-0.052538101 0.1823381 0.64900005 12945899
-0.051301908 0.1823381 0.64900005 12221156
-0.050065719 0.1823381 0.64900005 11892191
-0.048829526 0.1823381 0.64900005 12088537
-0.047666669 0.18261907 0.65000004 12285916
-0.046428576 0.18261907 0.65000004 12024279
-0.045329522 0.18318094 0.65200001 11826900
-0.044087619 0.18318094 0.65200001 11625944
-0.042845711 0.18318094 0.65200001 11560151
-0.041667622 0.18346192 0.65300006 11624922
-0.040485717 0.18374287 0.65400004 10835406
-0.039240003 0.18374287 0.65400004 10900656
-0.038052384 0.18402381 0.65500003 10571691
-0.036804762 0.18402381 0.65500003 10440357
-0.035557143 0.18402381 0.65500003 12150975
-0.034414288 0.18458572 0.65700001 11760596
-0.033213336 0.18486668 0.65800005 11431631
-0.032008573 0.18514763 0.65900004 11299791
-0.030846667 0.18570954 0.66100001 11562963
-0.029587621 0.18570954 0.66100001 11564746
-0.028371431 0.1859905 0.66200006 10643644
-0.02711048 0.1859905 0.66200006 8606121
-0.02592762 0.18655239 0.66400003 9000879
-0.024737144 0.18711428 0.66600001 6776014
-0.023785714 0.18964286 0.67500001 5131189
-0.022533335 0.18992382 0.67600006 7239877
-0.021308571 0.19048572 0.67800003 10924285
-0.020017143 0.19048572 0.67800003 11579094
-0.018725716 0.19048572 0.67800003 11315922
-0.017434288 0.19048572 0.67800003 11119059
-0.016142858 0.19048572 0.67800003 11053266
-0.089434281 0.18838286 0.66600001 10591160
-0.087900959 0.18781714 0.66400003 8620226
-0.086636193 0.18781714 0.66400003 3817337
-0.085371435 0.18781714 0.66400003 3295405
-0.083980009 0.18753429 0.66300005 6387676
-0.08259239 0.18725143 0.66200006 10189791
-0.081208572 0.18696856 0.66100001 6242211
-0.079707623 0.18640286 0.65900004 6424106
-0.078214288 0.18583713 0.65700001 8397896
-0.076728575 0.18527143 0.65500003 9126028
-0.075480953 0.18527143 0.65500003 11099818
-0.07412 0.18498857 0.65400004 10907070
-0.072874293 0.18498857 0.65400004 11433414
-0.071519054 0.18470572 0.65300006 11499207
-0.069952384 0.18385714 0.65000004 11038656
-0.068714283 0.18385714 0.65000004 11036349
-0.067476198 0.18385714 0.65000004 11628486
-0.066238098 0.18385714 0.65000004 11367360
-0.064999998 0.18385714 0.65000004 11301567
-0.063761905 0.18385714 0.65000004 11432383
-0.062523812 0.18385714 0.65000004 11958727
-0.061285719 0.18385714 0.65000004 11828172
-0.060047623 0.18385714 0.65000004 11762379
-0.058809526 0.18385714 0.65000004 12089298
-0.057571433 0.18385714 0.65000004 12155091
-0.056333333 0.18385714 0.65000004 12022476
-0.055010479 0.1835743 0.64900005 12154062
-0.05377429 0.1835743 0.64900005 12155091
-0.052538101 0.1835743 0.64900005 12220884
-0.051301908 0.1835743 0.64900005 11956958
-0.050142858 0.18385714 0.65000004 11825372
-0.048904765 0.18385714 0.65000004 11889879
-0.047666669 0.18385714 0.65000004 11626707
-0.046428576 0.18385714 0.65000004 11625937
-0.045329522 0.18442285 0.65200001 11625937
-0.04415524 0.18470572 0.65300006 11427529
-0.042911433 0.18470572 0.65300006 11493322
-0.041731432 0.18498857 0.65400004 11426509
-0.040485717 0.18498857 0.65400004 11229130
-0.039240003 0.18498857 0.65400004 11031490
-0.038052384 0.18527143 0.65500003 10834111
-0.036804762 0.18527143 0.65500003 10572216
-0.035557143 0.18527143 0.65500003 12151248
-0.034414288 0.18583713 0.65700001 11694801
-0.033213336 0.18612 0.65800005 11629008
-0.032008573 0.18640286 0.65900004 11563226
-0.030846667 0.18696856 0.66100001 11694812
-0.029587621 0.18696856 0.66100001 11564496
-0.028371431 0.18725143 0.66200006 9788085
-0.02711048 0.18725143 0.66200006 8606364
-0.025888573 0.18753429 0.66300005 9330087
-0.024737144 0.18838286 0.66600001 7171285
-0.023891428 0.19177715 0.67800003 5592253
-0.022600001 0.19177715 0.67800003 7634630
-0.021340001 0.19206001 0.67900002 10858487
-0.020017143 0.19177715 0.67800003 11579092
-0.018725716 0.19177715 0.67800003 11315920
-0.017434288 0.19177715 0.67800003 10987473
-0.089434281 0.18965143 0.66600001 10524856
-0.087900959 0.18908191 0.66400003 9080766
-0.086636193 0.18908191 0.66400003 4672635
-0.085371435 0.18908191 0.66400003 2508730
-0.084106669 0.18908191 0.66400003 5666794
-0.082717143 0.18879716 0.66300005 9664996
-0.081331439 0.1885124 0.66200006 5980588
-0.079707623 0.1876581 0.65900004 7280240
-0.078333341 0.18737336 0.65800005 12477887
-0.076962851 0.18708858 0.65700001 11236031
-0.075480953 0.18651906 0.65500003 10775480
-0.074233338 0.18651906 0.65500003 10709185
-0.072874293 0.18623431 0.65400004 11103943
-0.071519054 0.18594955 0.65300006 11103423
-0.070275247 0.18594955 0.65300006 10445493
-0.068925716 0.18566476 0.65200001 10640564
-0.067683809 0.18566476 0.65200001 9982634
-0.066441901 0.18566476 0.65200001 10243741
-0.064999998 0.18509524 0.65000004 10506913
-0.063761905 0.18509524 0.65000004 10375589
-0.062523812 0.18509524 0.65000004 10901933
-0.061285719 0.18509524 0.65000004 10705065
-0.060047623 0.18509524 0.65000004 10573479
-0.058809526 0.18509524 0.65000004 11033003
-0.057571433 0.18509524 0.65000004 11098796
-0.056333333 0.18509524 0.65000004 10901156
-0.05509524 0.18509524 0.65000004 10835363
-0.053857144 0.18509524 0.65000004 10901944
-0.052619051 0.18509524 0.65000004 12020425
-0.051380955 0.18509524 0.65000004 11628245
-0.050142858 0.18509524 0.65000004 11562452
-0.048904765 0.18509524 0.65000004 11430105
-0.047666669 0.18509524 0.65000004 10837968
-0.04657143 0.18566476 0.65200001 11165402
-0.045329522 0.18566476 0.65200001 11823332
-0.04415524 0.18594955 0.65300006 11626957
-0.042911433 0.18594955 0.65300006 11561164
-0.041731432 0.18623431 0.65400004 11561427
-0.040485717 0.18623431 0.65400004 12153564
-0.039240003 0.18623431 0.65400004 12024288
-0.038052384 0.18651906 0.65500003 12090081
-0.036804762 0.18651906 0.65500003 12684515
-0.035557143 0.18651906 0.65500003 13276652
-0.034414288 0.18708858 0.65700001 12948709
-0.03326381 0.1876581 0.65900004 13014502
-0.032008573 0.1876581 0.65900004 13015272
-0.030846667 0.18822762 0.66100001 11633619
-0.029587621 0.18822762 0.66100001 11170508
-0.028371431 0.1885124 0.66200006 9459890
-0.02711048 0.1885124 0.66200006 7623317
-0.025888573 0.18879716 0.66300005 8741798
-0.025108574 0.19249907 0.67600006 6779356
-0.023820955 0.19249907 0.67600006 5331910
-0.022600001 0.19306858 0.67800003 7765703
-0.021340001 0.19335334 0.67900002 10660595
-0.020017143 0.19306858 0.67800003 11447759
-0.018725716 0.19306858 0.67800003 11184587
-0.017434288 0.19306858 0.67800003 11118291
-0.089434281 0.19092 0.66600001 10458809
-0.087900959 0.19034667 0.66400003 9672124
-0.086636193 0.19034667 0.66400003 5658751
-0.085628577 0.19092 0.66600001 2770344
-0.084106669 0.19034667 0.66400003 4941513
-0.082717143 0.19006002 0.66300005 8746722
-0.081331439 0.18977335 0.66200006 5917623
-0.079949521 0.18948667 0.66100001 7350896
-0.078452386 0.18891335 0.65900004 11232683
-0.077080004 0.18862668 0.65800005 10842036
-0.075711429 0.18834001 0.65700001 10644657
-0.074233338 0.18776667 0.65500003 10774471
-0.072874293 0.18748002 0.65400004 11169229
-0.071628578 0.18748002 0.65400004 11300806
-0.070275247 0.18719335 0.65300006 10577083
-0.068925716 0.18690667 0.65200001 10902471
-0.067683809 0.18690667 0.65200001 10376127
-0.066441901 0.18690667 0.65200001 10175402
-0.064999998 0.18633334 0.65000004 10833332
-0.063761905 0.18633334 0.65000004 10637232
-0.062523812 0.18633334 0.65000004 11031990
-0.06147429 0.18690667 0.65200001 10834620
-0.060047623 0.18633334 0.65000004 11163585
-0.058809526 0.18633334 0.65000004 11426750
-0.057748571 0.18690667 0.65200001 11426750
-0.056333333 0.18633334 0.65000004 11163576
-0.05509524 0.18633334 0.65000004 11229369
-0.053857144 0.18633334 0.65000004 11164857
-0.052619051 0.18633334 0.65000004 12283338
-0.051380955 0.18633334 0.65000004 11891939
-0.050142858 0.18633334 0.65000004 12418283
-0.048904765 0.18633334 0.65000004 12420341
-0.047666669 0.18633334 0.65000004 11038688
-0.04657143 0.18690667 0.65200001 11560671
-0.045399051 0.18719335 0.65300006 11955429
-0.04415524 0.18719335 0.65300006 11892187
-0.042911433 0.18719335 0.65300006 12155359
-0.041731432 0.18748002 0.65400004 12090849
-0.040485717 0.18748002 0.65400004 12551400
-0.039240003 0.18748002 0.65400004 12684031
-0.038052384 0.18776667 0.65500003 12618238
-0.036804762 0.18776667 0.65500003 12752372
-0.035557143 0.18776667 0.65500003 12949751
-0.034414288 0.18834001 0.65700001 12490977
-0.03326381 0.18891335 0.65900004 12754149
-0.032008573 0.18891335 0.65900004 13017082
-0.030846667 0.18948667 0.66100001 10780120
-0.029587621 0.18948667 0.66100001 10907581
-0.028371431 0.18977335 0.66200006 9789100
-0.02711048 0.18977335 0.66200006 7165355
-0.02592762 0.19034667 0.66400003 7625906
-0.025034286 0.19321334 0.67400002 6189527
-0.023750478 0.19321334 0.67400002 5400011
-0.022600001 0.19436 0.67800003 8159434
-0.021340001 0.19464667 0.67900002 10988533
-0.020046666 0.19464667 0.67900002 11447759
-0.018753333 0.19464667 0.67900002 11184587
-0.088165708 0.19218858 0.66600001 9802421
-0.08689715 0.19218858 0.66600001 7302287
-0.085628577 0.19218858 0.66600001 3429039
-0.084360003 0.19218858 0.66600001 3626418
-0.082717143 0.19132286 0.66300005 7497938
-0.081331439 0.1910343 0.66200006 6379457
-0.079949521 0.19074571 0.66100001 7813764
-0.078452386 0.19016859 0.65900004 9984933
-0.077080004 0.18988 0.65800005 10117030
-0.075711429 0.18959142 0.65700001 11893441
-0.074233338 0.1890143 0.65500003 12423637
-0.072985716 0.1890143 0.65500003 12423637
-0.071628578 0.18872572 0.65400004 11633623
-0.070275247 0.18843716 0.65300006 11633623
-0.06903144 0.18843716 0.65300006 11829737
-0.067683809 0.18814857 0.65200001 11369186
-0.066441901 0.18814857 0.65200001 11563985
-0.065200001 0.18814857 0.65200001 11695571
-0.063958094 0.18814857 0.65200001 11827157
-0.062716186 0.18814857 0.65200001 12024536
-0.06147429 0.18814857 0.65200001 11958495
-0.060232379 0.18814857 0.65200001 11761116
-0.058990479 0.18814857 0.65200001 12155359
-0.057748571 0.18814857 0.65200001 12484324
-0.056333333 0.18757144 0.65000004 12418011
-0.05509524 0.18757144 0.65000004 12286425
-0.053857144 0.18757144 0.65000004 12025308
-0.052619051 0.18757144 0.65000004 12485859
-0.051380955 0.18757144 0.65000004 12883454
-0.050142858 0.18757144 0.65000004 15054591
-0.048904765 0.18757144 0.65000004 14663935
-0.047666669 0.18757144 0.65000004 12953322
-0.04657143 0.18814857 0.65200001 13016319
-0.045399051 0.18843716 0.65300006 12687354
-0.044222858 0.18872572 0.65400004 13675251
-0.042977147 0.18872572 0.65400004 14135802
-0.041731432 0.18872572 0.65400004 13806591
-0.040485717 0.18872572 0.65400004 14003967
-0.039300002 0.1890143 0.65500003 14135807
-0.038052384 0.1890143 0.65500003 12293611
-0.036804762 0.1890143 0.65500003 12817661
-0.035665717 0.18959142 0.65700001 13212415
-0.034466669 0.18988 0.65800005 12490202
-0.03326381 0.19016859 0.65900004 12884960
-0.032105718 0.19074571 0.66100001 12885728
-0.030846667 0.19074571 0.66100001 10188215
-0.029632382 0.1910343 0.66200006 9263790
-0.028371431 0.1910343 0.66200006 9263790
-0.02711048 0.1910343 0.66200006 7433167
-0.02592762 0.19161144 0.66400003 7169995
-0.024922857 0.19363143 0.671 5599452
-0.023680001 0.19392002 0.67200005 5994210
-0.022400003 0.19392002 0.67200005 8291788
-0.021120002 0.19392002 0.67200005 11055094
-0.088298097 0.19374762 0.66700006 9867957
-0.087027624 0.19374762 0.66700006 7959960
-0.085628577 0.19345714 0.66600001 5398697
-0.084360003 0.19345714 0.66600001 4214423
-0.082717143 0.19258572 0.66300005 6906562
-0.081454292 0.19258572 0.66300005 6577597
-0.080070481 0.19229525 0.66200006 8406434
-0.078690477 0.19200477 0.66100001 9524915
-0.077197149 0.19142382 0.65900004 9722015
-0.075711429 0.19084285 0.65700001 11366840
-0.07446 0.19084285 0.65700001 12096210
-0.072985716 0.19026192 0.65500003 12096210
-0.071628578 0.18997145 0.65400004 11306464
-0.070382863 0.18997145 0.65400004 12293359
-0.06903144 0.18968098 0.65300006 12295419
-0.067683809 0.18939048 0.65200001 11637489
-0.066441901 0.18939048 0.65200001 11698910
-0.065200001 0.18939048 0.65200001 11830496
-0.063958094 0.18939048 0.65200001 12027096
-0.062716186 0.18939048 0.65200001 12158682
-0.06147429 0.18939048 0.65200001 12421104
-0.060232379 0.18939048 0.65200001 12421104
-0.058990479 0.18939048 0.65200001 12551913
-0.057748571 0.18939048 0.65200001 12551913
-0.056333333 0.18880953 0.65000004 12617452
-0.05509524 0.18880953 0.65000004 13012210
-0.053857144 0.18880953 0.65000004 12554993
-0.052619051 0.18880953 0.65000004 12226028
-0.051380955 0.18880953 0.65000004 12295167
-0.050142858 0.18880953 0.65000004 14268927
-0.048904765 0.18880953 0.65000004 14009087
-0.047813334 0.18939048 0.65200001 13219576
-0.046642862 0.18968098 0.65300006 13350399
-0.045399051 0.18968098 0.65300006 13087231
-0.044222858 0.18997145 0.65400004 13348607
-0.042977147 0.18997145 0.65400004 13348607
-0.041731432 0.18997145 0.65400004 12953851
-0.040547621 0.19026192 0.65500003 13545983
-0.039300002 0.19026192 0.65500003 13939967
-0.038052384 0.19026192 0.65500003 11966184
-0.036917143 0.19084285 0.65700001 12489716
-0.035665717 0.19084285 0.65700001 12094958
-0.034466669 0.19113335 0.65800005 11501004
-0.03326381 0.19142382 0.65900004 12093141
-0.032105718 0.19200477 0.66100001 12356315
-0.030893337 0.19229525 0.66200006 10250939
-0.029632382 0.19229525 0.66200006 8935606
-0.028371431 0.19229525 0.66200006 9856708
-0.02715143 0.19258572 0.66300005 8093153
-0.026005713 0.19345714 0.66600001 5329847
-0.024922857 0.19490953 0.671 4283329
-0.023680001 0.19520003 0.67200005 6257119
-0.022400003 0.19520003 0.67200005 8620235
-0.088430479 0.19531049 0.66800004 9736369
-0.087158099 0.19531049 0.66800004 8617888
-0.085757144 0.1950181 0.66700006 5334703
-0.084360003 0.19472572 0.66600001 2900362
-0.08309143 0.19472572 0.66600001 5068987
-0.081454292 0.19384858 0.66300005 6713812
-0.079949521 0.19326381 0.66100001 8346808
-0.078690477 0.19326381 0.66100001 7294120
-0.077197149 0.19267906 0.65900004 8797347
-0.075826667 0.19238667 0.65800005 10836930
-0.07446 0.19209428 0.65700001 11238836
-0.072985716 0.19150953 0.65500003 12949454
-0.071738102 0.19150953 0.65500003 12689650
-0.070382863 0.19121715 0.65400004 12952822
-0.06903144 0.19092478 0.65300006 12887036
-0.067787625 0.19092478 0.65300006 12294899
-0.066543818 0.19092478 0.65300006 12885746
-0.065200001 0.19063237 0.65200001 13280504
-0.063958094 0.19063237 0.65200001 12884708
-0.062716186 0.19063237 0.65200001 13016294
-0.06147429 0.19063237 0.65200001 13345791
-0.060232379 0.19063237 0.65200001 14069503
-0.058990479 0.19063237 0.65200001 13872895
-0.057748571 0.19063237 0.65200001 14004479
-0.056333333 0.19004764 0.65000004 14203135
-0.05509524 0.19004764 0.65000004 14729471
-0.053857144 0.19004764 0.65000004 14072063
-0.052619051 0.19004764 0.65000004 12690413
-0.051380955 0.19004764 0.65000004 12623103
-0.050142858 0.19004764 0.65000004 14399487
-0.049055237 0.19063237 0.65200001 14008575
-0.047813334 0.19063237 0.65200001 13416442
-0.046642862 0.19092478 0.65300006 13481727
-0.045468576 0.19121715 0.65400004 13415935
-0.044222858 0.19121715 0.65400004 13611519
-0.042977147 0.19121715 0.65400004 12624632
-0.041731432 0.19121715 0.65400004 12293611
-0.040547621 0.19150953 0.65500003 12622576
-0.039300002 0.19150953 0.65500003 12424945
-0.038052384 0.19150953 0.65500003 10582741
-0.036917143 0.19209428 0.65700001 10711515
-0.035720002 0.19238667 0.65800005 10645722
-0.034466669 0.19238667 0.65800005 10580681
-0.03326381 0.19267906 0.65900004 11041232
-0.032105718 0.19326381 0.66100001 10649025
-0.030893337 0.1935562 0.66200006 9004200
-0.029677145 0.19384858 0.66300005 8286423
-0.028414289 0.19384858 0.66300005 9602283
-0.027192382 0.19414096 0.66400003 6716143
-0.026044764 0.1950181 0.66700006 2636977
-0.024922857 0.19618762 0.671 934091
-0.023680001 0.19648001 0.67200005 5144831
-0.022400003 0.19648001 0.67200005 8817607
-0.088695243 0.19717142 0.67000002 9408424
-0.087419048 0.19717142 0.67000002 8947873
-0.085885718 0.19658287 0.66800004 6452396
-0.084486671 0.19628859 0.66700006 3557504
-0.08309143 0.19599429 0.66600001 3691954
-0.081454292 0.19511144 0.66300005 5270986
-0.079949521 0.19452286 0.66100001 7825093
-0.078690477 0.19452286 0.66100001 7167163
-0.077197149 0.19393429 0.65900004 8734366
-0.075826667 0.19364002 0.65800005 10050226
-0.074573338 0.19364002 0.65800005 10447271
-0.07320857 0.19334571 0.65700001 13210577
-0.071738102 0.19275714 0.65500003 12297200
-0.070382863 0.19246286 0.65400004 12099821
-0.069137141 0.19246286 0.65400004 12230896
-0.067787625 0.19216859 0.65300006 11967724
-0.066543818 0.19216859 0.65300006 12689137
-0.065300003 0.19216859 0.65300006 12557551
-0.063958094 0.19187428 0.65200001 11438811
-0.062716186 0.19187428 0.65200001 12557292
-0.061568573 0.19216859 0.65300006 12756220
-0.060324769 0.19216859 0.65300006 13282559
-0.059080955 0.19216859 0.65300006 12890107
-0.057837147 0.19216859 0.65300006 13021693
-0.056506667 0.19187428 0.65200001 13613823
-0.05526476 0.19187428 0.65200001 13548031
-0.054022856 0.19187428 0.65200001 13612543
-0.052780952 0.19187428 0.65200001 12428275
-0.051539049 0.19187428 0.65200001 12557303
-0.050297141 0.19187428 0.65200001 13807359
-0.049130481 0.19216859 0.65300006 13284351
-0.047886673 0.19216859 0.65300006 13021183
-0.046714287 0.19246286 0.65400004 12889599
-0.045468576 0.19246286 0.65400004 12823807
-0.044290476 0.19275714 0.65500003 13282303
-0.043042861 0.19275714 0.65500003 12624380
-0.041795239 0.19275714 0.65500003 12030435
-0.040547621 0.19275714 0.65500003 11964642
-0.039300002 0.19275714 0.65500003 11700452
-0.038168572 0.19334571 0.65700001 10779350
-0.036973335 0.19364002 0.65800005 10579922
-0.035720002 0.19364002 0.65800005 10645715
-0.03451905 0.19393429 0.65900004 9859016
-0.033364762 0.19452286 0.66100001 10911704
-0.032154288 0.19481716 0.66200006 10127330
-0.030940004 0.19511144 0.66300005 9732572
-0.029721906 0.19540572 0.66400003 8161260
-0.028457144 0.19540572 0.66400003 7569123
-0.027274286 0.19599429 0.66600001 5797097
-0.026200952 0.19746572 0.671 2046896
-0.024960002 0.19776 0.67200005 999348
-0.023680001 0.19776 0.67200005 5275893
-0.022400003 0.19776 0.67200005 9013960
-0.088827617 0.19874381 0.671 9473701
-0.087549523 0.19874381 0.671 9276322
-0.08614286 0.19844763 0.67000002 7765928
-0.084613338 0.19785525 0.66800004 4278899
-0.083340958 0.19785525 0.66800004 3625921
-0.081454292 0.1963743 0.66300005 5139160
-0.079949521 0.1957819 0.66100001 7498706
-0.078690477 0.1957819 0.66100001 7103948
-0.077197149 0.19518952 0.65900004 8345259
-0.075941913 0.19518952 0.65900004 8279466
-0.074686669 0.19518952 0.65900004 8801708
-0.073320009 0.19489335 0.65800005 11301842
-0.071957141 0.19459714 0.65700001 10780368
-0.070490479 0.19400477 0.65500003 10517196
-0.069137141 0.19370858 0.65400004 10517198
-0.067891434 0.19370858 0.65400004 11043542
-0.066645719 0.19370858 0.65400004 11437782
-0.065300003 0.19341241 0.65300006 11306196
-0.064056195 0.19341241 0.65300006 11305165
-0.06281238 0.19341241 0.65300006 12292060
-0.061568573 0.19341241 0.65300006 12688610
-0.060324769 0.19341241 0.65300006 12688610
-0.059080955 0.19341241 0.65300006 11766252
-0.057837147 0.19341241 0.65300006 11634666
-0.056506667 0.19311619 0.65200001 11437548
-0.05526476 0.19311619 0.65200001 11305962
-0.054022856 0.19311619 0.65200001 11371503
-0.052780952 0.19311619 0.65200001 11174124
-0.051618099 0.19341241 0.65300006 10976734
-0.050374292 0.19341241 0.65300006 11634664
-0.049130481 0.19341241 0.65300006 11307756
-0.047960002 0.19370858 0.65400004 10912998
-0.046714287 0.19370858 0.65400004 10452697
-0.045468576 0.19370858 0.65400004 9860560
-0.044290476 0.19400477 0.65500003 10386645
-0.043042861 0.19400477 0.65500003 10452438
-0.041795239 0.19400477 0.65500003 10320857
-0.040547621 0.19400477 0.65500003 10123478
-0.039419997 0.19459714 0.65700001 10783189
-0.038168572 0.19459714 0.65700001 11046361
-0.036973335 0.19489335 0.65800005 11837149
-0.035774291 0.19518952 0.65900004 12100321
-0.03451905 0.19518952 0.65900004 12893150
-0.033364762 0.1957819 0.66100001 13551080
-0.032202858 0.1963743 0.66300005 13486847
-0.030986669 0.19667049 0.66400003 12368372
-0.029811429 0.19726287 0.66600001 9279737
-0.028542858 0.19726287 0.66600001 7569119
-0.027356191 0.19785525 0.66800004 5600749
-0.026240002 0.19904001 0.67200005 2442685
-0.024960002 0.19904001 0.67200005 1459908
-0.023680001 0.19904001 0.67200005 4946937
-0.022400003 0.19904001 0.67200005 8620228
-0.021245716 0.20022479 0.67600006 10988776
-0.088960007 0.20032001 0.67200005 9802155
-0.087549523 0.20002189 0.671 9933741
-0.086271428 0.20002189 0.671 7831723
-0.084866665 0.19972381 0.67000002 4607866
-0.083340958 0.19912763 0.66800004 3232181
-0.081822857 0.19853143 0.66600001 4284869
-0.080191433 0.19763716 0.66300005 6515404
-0.07880953 0.19733907 0.66200006 6910162
-0.077431425 0.19704096 0.66100001 8218563
-0.076172382 0.19704096 0.66100001 7560633
-0.074686669 0.19644478 0.65900004 8210854
-0.073431432 0.19644478 0.65900004 10776781
-0.072066672 0.19614667 0.65800005 10252488
-0.070705712 0.19584857 0.65700001 10055109
-0.069242857 0.19525239 0.65500003 10316228
-0.067995243 0.19525239 0.65500003 10974158
-0.066645719 0.19495429 0.65400004 11238354
-0.065400004 0.19495429 0.65400004 11106768
-0.06415429 0.19495429 0.65400004 10710473
-0.062908575 0.19495429 0.65400004 11763161
-0.06166286 0.19495429 0.65400004 11894499
-0.060324769 0.19465621 0.65300006 11960292
-0.059080955 0.19465621 0.65300006 11631325
-0.057837147 0.19465621 0.65300006 11631325
-0.056593336 0.19465621 0.65300006 11434466
-0.05526476 0.1943581 0.65200001 11631845
-0.054022856 0.1943581 0.65200001 11567085
-0.052780952 0.1943581 0.65200001 11567085
-0.051618099 0.19465621 0.65300006 11042270
-0.050374292 0.19465621 0.65300006 11173856
-0.049205717 0.19495429 0.65400004 11042549
-0.047960002 0.19495429 0.65400004 10976756
-0.046714287 0.19495429 0.65400004 10779877
-0.045538098 0.19525239 0.65500003 10977256
-0.044290476 0.19525239 0.65500003 10651362
-0.043174285 0.19584857 0.65700001 10585569
-0.041922856 0.19584857 0.65700001 9732572
-0.040671431 0.19584857 0.65700001 9337814
-0.039419997 0.19584857 0.65700001 10325216
-0.038226672 0.19614667 0.65800005 12364799
-0.037029523 0.19644478 0.65900004 11776511
-0.035774291 0.19644478 0.65900004 12368639
-0.034623809 0.19704096 0.66100001 12436223
-0.033415239 0.19733907 0.66200006 12962559
-0.032202858 0.19763716 0.66300005 13291775
-0.031079998 0.19853143 0.66600001 11712749
-0.029811429 0.19853143 0.66600001 8493046
-0.028585717 0.19882953 0.66700006 6124498
-0.027479049 0.20002189 0.671 6058988
-0.026240002 0.20032001 0.67200005 3295682
-0.025034286 0.2009162 0.67400002 1723073
-0.023750478 0.2009162 0.67400002 5275895
-0.022533335 0.2015124 0.67600006 8488647
-0.021245716 0.2015124 0.67600006 10857195
-0.086271428 0.20130001 0.671 8160679
-0.084866665 0.20100001 0.67000002 4607857
-0.083340958 0.20040001 0.66800004 3100589
-0.081945717 0.2001 0.66700006 3626933
-0.080312386 0.1992 0.66400003 5399243
-0.078928575 0.19890001 0.66300005 6649310
-0.077548578 0.19860001 0.66200006 8420310
-0.076172382 0.1983 0.66100001 8025552
-0.074913338 0.1983 0.66100001 8875716
-0.073431432 0.19770001 0.65900004 10059990
-0.072176196 0.19770001 0.65900004 9994197
-0.070813335 0.19740002 0.65800005 10125783
-0.06945429 0.1971 0.65700001 9730262
-0.067995243 0.1965 0.65500003 9598676
-0.066747628 0.1965 0.65500003 10057685
-0.065499999 0.1965 0.65500003 10386650
-0.06415429 0.19620001 0.65400004 10452447
-0.062908575 0.19620001 0.65400004 10978791
-0.06166286 0.19620001 0.65400004 11175153
-0.060417145 0.19620001 0.65400004 11240946
-0.059171431 0.19620001 0.65400004 11438577
-0.057925716 0.19620001 0.65400004 11635956
-0.056593336 0.19590002 0.65300006 11176168
-0.055349529 0.19590002 0.65300006 11241961
-0.054105718 0.19590002 0.65300006 12296437
-0.05286191 0.19590002 0.65300006 12559609
-0.051697146 0.19620001 0.65400004 12166911
-0.050451431 0.19620001 0.65400004 12495871
-0.049205717 0.19620001 0.65400004 12562431
-0.048033334 0.1965 0.65500003 10983407
-0.046785716 0.1965 0.65500003 10325247
-0.045538098 0.1965 0.65500003 11246335
-0.044425715 0.1971 0.65700001 11443697
-0.043174285 0.1971 0.65700001 11641076
-0.041922856 0.1971 0.65700001 8745453
-0.040733337 0.19740002 0.65800005 7692765
-0.039480001 0.19740002 0.65800005 9536994
-0.038284764 0.19770001 0.65900004 13352959
-0.037029523 0.19770001 0.65900004 13816319
-0.035774291 0.19770001 0.65900004 13684735
-0.034623809 0.1983 0.66100001 13159679
-0.033415239 0.19860001 0.66200006 13093887
-0.032251429 0.1992 0.66400003 13028351
-0.031079998 0.1998 0.66600001 11054567
-0.029811429 0.1998 0.66600001 6455020
-0.028585717 0.2001 0.66700006 4744402
-0.027520001 0.20160002 0.67200005 4944611
-0.026357144 0.2025 0.67500001 3102407
-0.025071429 0.2025 0.67500001 3101896
-0.023785714 0.2025 0.67500001 6194167
-0.022533335 0.20280002 0.67600006 8817101
-0.021245716 0.20280002 0.67600006 10988270
-0.084993333 0.2025781 0.671 4936049
-0.083340958 0.20167239 0.66800004 2509474
-0.081945717 0.20137048 0.66700006 3759541
-0.080312386 0.20046477 0.66400003 4481219
-0.078928575 0.20016287 0.66300005 5073356
-0.077548578 0.19986098 0.66200006 7371735
-0.07628762 0.19986098 0.66200006 7832286
-0.074913338 0.19955905 0.66100001 8749786
-0.073654287 0.19955905 0.66100001 10723576
-0.072176196 0.19895525 0.65900004 10658292
-0.070813335 0.19865334 0.65800005 10460913
-0.06945429 0.19835143 0.65700001 10788345
-0.068202853 0.19835143 0.65700001 9933036
-0.066747628 0.19774763 0.65500003 9602760
-0.065499999 0.19774763 0.65500003 10458069
-0.064252384 0.19774763 0.65500003 11509753
-0.063004769 0.19774763 0.65500003 11378167
-0.06166286 0.19744572 0.65400004 11510527
-0.060417145 0.19744572 0.65400004 11576319
-0.059171431 0.19744572 0.65400004 12038139
-0.057925716 0.19744572 0.65400004 12038139
-0.056680001 0.19744572 0.65400004 10657263
-0.05543429 0.19744572 0.65400004 10723056
-0.054188572 0.19744572 0.65400004 12102911
-0.052942861 0.19744572 0.65400004 12102911
-0.051697146 0.19744572 0.65400004 11710455
-0.050528575 0.19774763 0.65500003 12039420
-0.049280953 0.19774763 0.65500003 12961023
-0.048033334 0.19774763 0.65500003 10329309
-0.046785716 0.19774763 0.65500003 8424414
-0.045538098 0.19774763 0.65500003 8819172
-0.044425715 0.19835143 0.65700001 8749786
-0.043174285 0.19835143 0.65700001 9868267
-0.041986667 0.19865334 0.65800005 8221895
-0.040733337 0.19865334 0.65800005 7695551
-0.039480001 0.19865334 0.65800005 8880093
-0.038284764 0.19895525 0.65900004 12630271
-0.037029523 0.19895525 0.65900004 12963839
-0.03588286 0.19955905 0.66100001 12700671
-0.034623809 0.19955905 0.66100001 12896767
-0.033415239 0.19986098 0.66200006 13159935
-0.032251429 0.20046477 0.66400003 12831999
-0.031126669 0.20137048 0.66700006 10397664
-0.029856192 0.20137048 0.66700006 6127588
-0.028628573 0.20167239 0.66800004 3627454
-0.027601905 0.20348381 0.67400002 3564521
-0.026357144 0.20378572 0.67500001 2577626
-0.025108574 0.20408764 0.67600006 3626182
-0.023820955 0.20408764 0.67600006 6652660
-0.022600001 0.20469144 0.67800003 9080779
-0.021308571 0.20469144 0.67800003 10922983
-0.084993333 0.20385619 0.671 5330548
-0.083590478 0.2035524 0.67000002 1853358
-0.081945717 0.20264097 0.66700006 3103425
-0.080554284 0.20233715 0.66600001 4153788
-0.079047628 0.20172954 0.66400003 4153788
-0.077665716 0.20142572 0.66300005 5334488
-0.07628762 0.20112193 0.66200006 7045106
-0.074913338 0.20081811 0.66100001 8684772
-0.073654287 0.20081811 0.66100001 11777023
-0.072395235 0.20081811 0.66100001 12763135
-0.070920952 0.20021048 0.65900004 13157887
-0.069665715 0.20021048 0.65900004 13289983
-0.068202853 0.19960286 0.65700001 12105715
-0.066951431 0.19960286 0.65700001 10592724
-0.065700002 0.19960286 0.65700001 11842791
-0.064252384 0.19899525 0.65500003 11710451
-0.063004769 0.19899525 0.65500003 9999833
-0.061757144 0.19899525 0.65500003 10066425
-0.060417145 0.19869143 0.65400004 10066425
-0.059171431 0.19869143 0.65400004 11447776
-0.057925716 0.19869143 0.65400004 11842534
-0.056680001 0.19869143 0.65400004 9671140
-0.05543429 0.19869143 0.65400004 9407968
-0.054188572 0.19869143 0.65400004 10199039
-0.052942861 0.19869143 0.65400004 9541119
-0.051776193 0.19899525 0.65500003 8951278
-0.050528575 0.19899525 0.65500003 10530303
-0.049280953 0.19899525 0.65500003 12764927
-0.048033334 0.19899525 0.65500003 9870041
-0.046785716 0.19899525 0.65500003 7241410
-0.04567714 0.19960286 0.65700001 8754649
-0.044493336 0.19990669 0.65800005 9409233
-0.043240003 0.19990669 0.65800005 10461921
-0.041986667 0.19990669 0.65800005 8881613
-0.040795241 0.20021048 0.65900004 9144785
-0.03954 0.20021048 0.65900004 9079021
-0.038284764 0.20021048 0.65900004 10526463
-0.037141904 0.20081811 0.66100001 11120895
-0.03588286 0.20081811 0.66100001 10857727
-0.034623809 0.20081811 0.66100001 12173050
-0.033415239 0.20112193 0.66200006 13488895
-0.032251429 0.20172954 0.66400003 13160191
-0.031126669 0.20264097 0.66700006 10133717
-0.029900953 0.20294477 0.66800004 5600751
-0.028757142 0.20385619 0.671 3034824
-0.027642857 0.20507142 0.67500001 1987819
-0.026396191 0.20537525 0.67600006 671959
-0.025108574 0.20537525 0.67600006 2115269
-0.023891428 0.20598286 0.67800003 6128639
-0.022600001 0.20598286 0.67800003 9277386
-0.021308571 0.20598286 0.67800003 10856418
