# .PCD v0.7 - Point Cloud Data file format
VERSION 0.7
FIELDS x y z rgba
SIZE 4 4 4 4
TYPE F F F U
COUNT 1 1 1 1
WIDTH 1104
HEIGHT 1
VIEWPOINT 0 0 0 1 0 0 0
POINTS 1104
DATA ascii
-0.016253335 0.17454667 0.74200004 9081579
-0.014880001 0.17501715 0.74400002 11910655
-0.013517143 0.17572285 0.74700004 12172778
-0.012094286 0.17572285 0.74700004 11909606
-0.010671429 0.17572285 0.74700004 11975156
-0.085045718 0.17501144 0.73800004 11710418
-0.083640002 0.17501144 0.73800004 11645652
-0.082011431 0.17453715 0.73600006 10790343
-0.080390476 0.17406286 0.73400003 8097496
-0.078884766 0.17382573 0.73300004 4149916
-0.077488579 0.17382573 0.73300004 1071587
-0.075884759 0.17335142 0.73100001 1795310
-0.074390478 0.17311428 0.73000002 6914045
-0.072800003 0.17264001 0.72800004 9677311
-0.071413331 0.17264001 0.72800004 12887295
-0.069930486 0.17240286 0.72700006 5715867
-0.068357147 0.17192858 0.72500002 8258979
-0.06679143 0.1714543 0.72300005 14575103
-0.065323815 0.17121716 0.72200006 12815853
-0.063948572 0.17121716 0.72200006 13276404
-0.062573336 0.17121716 0.72200006 13405951
-0.061028574 0.17074287 0.72000003 13471743
-0.059657145 0.17074287 0.72000003 13602046
-0.058204763 0.17050572 0.71900004 13207288
-0.056835238 0.17050572 0.71900004 12479722
-0.05554286 0.17074287 0.72000003 12282343
-0.054096192 0.17050572 0.71900004 12278750
-0.052726667 0.17050572 0.71900004 12673508
-0.051357146 0.17050572 0.71900004 12147920
-0.049987622 0.17050572 0.71900004 13332194
-0.048685715 0.17074287 0.72000003 13006327
-0.047248576 0.17050572 0.71900004 12940534
-0.045879051 0.17050572 0.71900004 13137911
-0.044509526 0.17050572 0.71900004 13006325
-0.043140002 0.17050572 0.71900004 13072629
-0.041828573 0.17074287 0.72000003 13335801
-0.040457144 0.17074287 0.72000003 12813048
-0.039085716 0.17074287 0.72000003 16234239
-0.037714288 0.17074287 0.72000003 15192063
-0.036443811 0.17121716 0.72200006 13942000
-0.035068572 0.17121716 0.72200006 13741311
-0.033740003 0.1714543 0.72300005 13807103
-0.03236286 0.1714543 0.72300005 13871359
-0.031071428 0.17192858 0.72500002 14331903
-0.029690476 0.17192858 0.72500002 14530303
-0.028387621 0.17240286 0.72700006 14793471
-0.027040001 0.17264001 0.72800004 14204415
-0.025723809 0.17311428 0.73000002 14007039
-0.024333334 0.17311428 0.73000002 14270719
-0.022974286 0.17335142 0.73100001 13744380
-0.021581903 0.17335142 0.73100001 13148155
-0.020244764 0.17382573 0.73300004 10516435
-0.018925715 0.17453715 0.73600006 8346306
-0.017666668 0.17596 0.74200004 8280513
-0.016253335 0.17596 0.74200004 9345257
-0.014920001 0.17690858 0.74600005 11911167
-0.013517143 0.17714572 0.74700004 12107498
-0.012094286 0.17714572 0.74700004 11910119
-0.083640002 0.17641714 0.73800004 11382732
-0.082011431 0.17593907 0.73600006 11185353
-0.080390476 0.17546096 0.73400003 8886476
-0.078884766 0.17522192 0.73300004 4280966
-0.077488579 0.17522192 0.73300004 1466084
-0.075884759 0.17474382 0.73100001 1926635
-0.074390478 0.17450477 0.73000002 5863160
-0.072800003 0.17402668 0.72800004 9284351
-0.071413331 0.17402668 0.72800004 11771391
-0.069930486 0.17378764 0.72700006 5257894
-0.068545721 0.17378764 0.72700006 7931336
-0.066976197 0.17330953 0.72500002 14971135
-0.065414287 0.17283143 0.72300005 12880365
-0.063948572 0.17259239 0.72200006 13209330
-0.062573336 0.17259239 0.72200006 14066938
-0.061198097 0.17259239 0.72200006 13935352
-0.059657145 0.17211428 0.72000003 13737727
-0.058285713 0.17211428 0.72000003 13803519
-0.056914289 0.17211428 0.72000003 13407487
-0.05554286 0.17211428 0.72000003 13144319
-0.054171428 0.17211428 0.72000003 13668863
-0.052726667 0.17187524 0.71900004 13866239
-0.051357146 0.17187524 0.71900004 14129919
-0.050057143 0.17211428 0.72000003 14919423
-0.048685715 0.17211428 0.72000003 14789887
-0.047314286 0.17211428 0.72000003 14724095
-0.045942858 0.17211428 0.72000003 14527743
-0.044509526 0.17187524 0.71900004 14659327
-0.043140002 0.17187524 0.71900004 14857471
-0.041828573 0.17211428 0.72000003 14857471
-0.040457144 0.17211428 0.72000003 14597629
-0.03919429 0.17259239 0.72200006 16702975
-0.03781905 0.17259239 0.72200006 15983615
-0.036443811 0.17259239 0.72200006 15588857
-0.035117142 0.17283143 0.72300005 15654911
-0.033740003 0.17283143 0.72300005 16115455
-0.032452382 0.17330953 0.72500002 15983103
-0.031071428 0.17330953 0.72500002 14798830
-0.029772382 0.17378764 0.72700006 14597119
-0.028387621 0.17378764 0.72700006 14794495
-0.027040001 0.17402668 0.72800004 14203135
-0.025723809 0.17450477 0.73000002 12492523
-0.024333334 0.17450477 0.73000002 12293887
-0.022974286 0.17474382 0.73100001 12228095
-0.021640953 0.17522192 0.73300004 11768782
-0.020272382 0.17546096 0.73400003 9597613
-0.018925715 0.17593907 0.73600006 7761899
-0.017666668 0.17737333 0.74200004 6380246
-0.016253335 0.17737333 0.74200004 8294877
-0.014940001 0.17856857 0.74700004 11452927
-0.013517143 0.17856857 0.74700004 12107239
-0.012094286 0.17856857 0.74700004 11909860
-0.082234286 0.17782286 0.73800004 11316425
-0.08082857 0.17782286 0.73800004 8952273
-0.078884766 0.1766181 0.73300004 5004693
-0.077488579 0.1766181 0.73300004 2976220
-0.075884759 0.1761362 0.73100001 3042013
-0.074390478 0.17589524 0.73000002 4091889
-0.072800003 0.17541334 0.72800004 7118335
-0.071413331 0.17541334 0.72800004 10590719
-0.069930486 0.17517239 0.72700006 7564252
-0.068545721 0.17517239 0.72700006 9588905
-0.066976197 0.17469047 0.72500002 12681176
-0.065595239 0.17469047 0.72500002 12090336
-0.064037152 0.17420858 0.72300005 13471989
-0.062573336 0.17396763 0.72200006 14200063
-0.061198097 0.17396763 0.72200006 14200063
-0.059822865 0.17396763 0.72200006 13741567
-0.058285713 0.17348571 0.72000003 14465279
-0.056914289 0.17348571 0.72000003 14335999
-0.05554286 0.17348571 0.72000003 14072831
-0.054171428 0.17348571 0.72000003 13872895
-0.052800003 0.17348571 0.72000003 13807103
-0.051428575 0.17348571 0.72000003 13870335
-0.050057143 0.17348571 0.72000003 14659839
-0.048685715 0.17348571 0.72000003 14662143
-0.047314286 0.17348571 0.72000003 14793727
-0.045942858 0.17348571 0.72000003 14729983
-0.044571429 0.17348571 0.72000003 14927359
-0.043200001 0.17348571 0.72000003 14928895
-0.041828573 0.17348571 0.72000003 14928895
-0.040569525 0.17396763 0.72200006 14863613
-0.03919429 0.17396763 0.72200006 15784703
-0.03781905 0.17396763 0.72200006 15327482
-0.036443811 0.17396763 0.72200006 14998517
-0.035117142 0.17420858 0.72300005 14998267
-0.033740003 0.17420858 0.72300005 15195646
-0.032452382 0.17469047 0.72500002 15720703
-0.031071428 0.17469047 0.72500002 14536430
-0.029772382 0.17517239 0.72700006 13611775
-0.028387621 0.17517239 0.72700006 13743359
-0.027114287 0.17589524 0.73000002 13873151
-0.025723809 0.17589524 0.73000002 12688880
-0.024333334 0.17589524 0.73000002 11899128
-0.022974286 0.1761362 0.73100001 12228093
-0.021640953 0.1766181 0.73300004 10258943
-0.020272382 0.17685905 0.73400003 9337842
-0.018925715 0.17734095 0.73600006 7963391
-0.017666668 0.17878668 0.74200004 6055395
-0.016253335 0.17878668 0.74200004 7835098
-0.01484 0.17878668 0.74200004 11322111
-0.078992382 0.17825715 0.73400003 5529745
-0.077594288 0.17825715 0.73400003 2450903
-0.076092385 0.17801429 0.73300004 2845661
-0.07449238 0.17752858 0.73100001 3305714
-0.072999999 0.17728572 0.73000002 5608447
-0.071413331 0.17680001 0.72800004 10327551
-0.070026673 0.17680001 0.72800004 7893222
-0.068545721 0.17655715 0.72700006 9194656
-0.067160957 0.17655715 0.72700006 11628997
-0.065595239 0.17607142 0.72500002 11760342
-0.064037152 0.17558572 0.72300005 13536753
-0.062660009 0.17558572 0.72300005 13673215
-0.061198097 0.17534287 0.72200006 15449599
-0.059822865 0.17534287 0.72200006 14928639
-0.058447625 0.17534287 0.72200006 14797055
-0.057072386 0.17534287 0.72200006 14796799
-0.055697147 0.17534287 0.72200006 14533631
-0.054321911 0.17534287 0.72200006 15322879
-0.052800003 0.17485714 0.72000003 15322879
-0.051428575 0.17485714 0.72000003 14728447
-0.050057143 0.17485714 0.72000003 15254783
-0.048685715 0.17485714 0.72000003 15782911
-0.047314286 0.17485714 0.72000003 16375039
-0.045942858 0.17485714 0.72000003 16114687
-0.044571429 0.17485714 0.72000003 16706815
-0.043200001 0.17485714 0.72000003 16180735
-0.041944765 0.17534287 0.72200006 16114942
-0.040569525 0.17534287 0.72200006 15126527
-0.03919429 0.17534287 0.72200006 14731773
-0.037871432 0.17558572 0.72300005 14534655
-0.036494289 0.17558572 0.72300005 14337276
-0.035117142 0.17558572 0.72300005 13217535
-0.033833336 0.17607142 0.72500002 12428023
-0.032541908 0.17655715 0.72700006 12492287
-0.031157147 0.17655715 0.72700006 12229119
-0.029772382 0.17655715 0.72700006 12096239
-0.028426668 0.17680001 0.72800004 11964653
-0.027114287 0.17728572 0.73000002 11572948
-0.025723809 0.17728572 0.73000002 11836120
-0.024366667 0.17752858 0.73100001 12036329
-0.022974286 0.17752858 0.73100001 13417982
-0.021640953 0.17801429 0.73300004 13158143
-0.020272382 0.17825715 0.73400003 10592222
-0.018925715 0.17874287 0.73600006 8295935
-0.01752381 0.17874287 0.73600006 5993193
-0.016297143 0.18068571 0.74400002 7769310
-0.077594288 0.17965524 0.73400003 2384851
-0.076196194 0.17965524 0.73400003 2845402
-0.074696198 0.17941049 0.73300004 2715122
-0.073099993 0.17892095 0.73100001 4557311
-0.071609527 0.17867619 0.73000002 9082367
-0.070026673 0.17818667 0.72800004 8029691
-0.068545721 0.17794192 0.72700006 9655005
-0.067160957 0.17794192 0.72700006 10510314
-0.065776192 0.17794192 0.72700006 12021942
-0.064214289 0.17745239 0.72500002 13732560
-0.062833332 0.17745239 0.72500002 12752636
-0.061282866 0.17696287 0.72300005 15121151
-0.059905719 0.17696287 0.72300005 14931455
-0.058447625 0.17671812 0.72200006 14470908
-0.057072386 0.17671812 0.72200006 14798335
-0.055697147 0.17671812 0.72200006 14600959
-0.054321911 0.17671812 0.72200006 14929407
-0.052946672 0.17671812 0.72200006 14666239
-0.051571433 0.17671812 0.72200006 13478655
-0.050196193 0.17671812 0.72200006 15057663
-0.048820958 0.17671812 0.72200006 15258367
-0.047445718 0.17671812 0.72200006 14995199
-0.046070479 0.17671812 0.72200006 14994943
-0.044571429 0.17622858 0.72000003 15192319
-0.043200001 0.17622858 0.72000003 15192575
-0.041944765 0.17671812 0.72200006 14929404
-0.040569525 0.17671812 0.72200006 14666493
-0.03919429 0.17671812 0.72200006 14271735
-0.037871432 0.17696287 0.72300005 14270207
-0.036494289 0.17696287 0.72300005 14138623
-0.035214286 0.17745239 0.72500002 13742079
-0.033833336 0.17745239 0.72500002 12623605
-0.032541908 0.17794192 0.72700006 12094463
-0.031157147 0.17794192 0.72700006 12160255
-0.029772382 0.17794192 0.72700006 11702262
-0.028426668 0.17818667 0.72800004 12228606
-0.027114287 0.17867619 0.73000002 11706367
-0.025759049 0.17892095 0.73100001 12101119
-0.024366667 0.17892095 0.73100001 12171006
-0.023037143 0.17941049 0.73300004 13815807
-0.021670477 0.17965524 0.73400003 13293055
-0.020272382 0.17965524 0.73400003 9213894
-0.018977143 0.1806343 0.73800004 7771391
-0.017714286 0.18210286 0.74400002 6455538
-0.016297143 0.18210286 0.74400002 8359905
-0.014920001 0.18259239 0.74600005 11649535
-0.076196194 0.18105334 0.73400003 3238611
-0.0747981 0.18105334 0.73400003 3370994
-0.073099993 0.18031332 0.73100001 4226303
-0.071707621 0.18031332 0.73100001 7965695
-0.070219047 0.18006667 0.73000002 9084159
-0.068640009 0.17957334 0.72800004 10584831
-0.067160957 0.17932668 0.72700006 8084709
-0.065776192 0.17932668 0.72700006 9323441
-0.064391434 0.17932668 0.72700006 12481505
-0.062833332 0.17883334 0.72500002 12027377
-0.061452381 0.17883334 0.72500002 13672191
-0.059905719 0.17834002 0.72300005 13215231
-0.058528576 0.17834002 0.72300005 12820479
-0.057151429 0.17834002 0.72300005 12820223
-0.05577429 0.17834002 0.72300005 13346559
-0.054397147 0.17834002 0.72300005 13280511
-0.053020004 0.17834002 0.72300005 12622590
-0.051571433 0.17809334 0.72200006 12753390
-0.050196193 0.17809334 0.72200006 13542906
-0.048820958 0.17809334 0.72200006 12752639
-0.047445718 0.17809334 0.72200006 12160510
-0.046070479 0.17809334 0.72200006 11633907
-0.044695243 0.17809334 0.72200006 11633907
-0.043320004 0.17809334 0.72200006 11766520
-0.041944765 0.17809334 0.72200006 11963899
-0.040569525 0.17809334 0.72200006 12099069
-0.039248575 0.17834002 0.72300005 12296447
-0.037871432 0.17834002 0.72300005 12101119
-0.03659524 0.17883334 0.72500002 12166911
-0.035214286 0.17883334 0.72500002 12299263
-0.033926666 0.17932668 0.72700006 12299263
-0.032541908 0.17932668 0.72700006 12366335
-0.031157147 0.17932668 0.72700006 12300543
-0.029813336 0.17957334 0.72800004 11644671
-0.028426668 0.17957334 0.72800004 12171007
-0.027151428 0.18031332 0.73100001 14407679
-0.025759049 0.18031332 0.73100001 15986687
-0.024433333 0.18080668 0.73300004 15131903
-0.023037143 0.18080668 0.73300004 15592447
-0.021670477 0.18105334 0.73400003 14016255
-0.02032762 0.18154669 0.73600006 8292267
-0.018977143 0.18204001 0.73800004 5666815
-0.017642858 0.18278001 0.74100006 5995775
-0.016253335 0.18302667 0.74200004 8360425
-0.014920001 0.18401335 0.74600005 11518463
-0.013499049 0.18401335 0.74600005 12173039
-0.012078096 0.18401335 0.74600005 11778281
-0.076403812 0.18294857 0.73600006 3762381
-0.0747981 0.18245143 0.73400003 4026605
-0.073300004 0.18220286 0.73300004 5013500
-0.071707621 0.18170571 0.73100001 6324735
-0.070315242 0.18170571 0.73100001 7377407
-0.068640009 0.18096001 0.72800004 10263039
-0.067253336 0.18096001 0.72800004 8355054
-0.065866672 0.18096001 0.72800004 9328338
-0.064391434 0.18071143 0.72700006 11565300
-0.063006669 0.18071143 0.72700006 11895258
-0.061452381 0.18021429 0.72500002 13145325
-0.060071427 0.18021429 0.72500002 12620282
-0.058690481 0.18021429 0.72500002 12291317
-0.057151429 0.17971715 0.72300005 12485887
-0.055697147 0.17946859 0.72200006 12683263
-0.054321911 0.17946859 0.72200006 12684283
-0.053020004 0.17971715 0.72300005 12750076
-0.051571433 0.17946859 0.72200006 11961591
-0.050196193 0.17946859 0.72200006 12356349
-0.048820958 0.17946859 0.72200006 12421631
-0.047445718 0.17946859 0.72200006 12619007
-0.046070479 0.17946859 0.72200006 11698687
-0.044695243 0.17946859 0.72200006 12356607
-0.043320004 0.17946859 0.72200006 12294143
-0.041944765 0.17946859 0.72200006 13149439
-0.040625714 0.17971715 0.72300005 13153535
-0.039248575 0.17971715 0.72300005 13219327
-0.03797619 0.18021429 0.72500002 12697341
-0.03659524 0.18021429 0.72500002 12368376
-0.035311431 0.18071143 0.72700006 10726910
-0.033926666 0.18071143 0.72700006 11187455
-0.032586671 0.18096001 0.72800004 11648255
-0.031200001 0.18096001 0.72800004 10529781
-0.029813336 0.18096001 0.72800004 9086719
-0.028504763 0.18145715 0.73000002 9349887
-0.027151428 0.18170571 0.73100001 13751038
-0.025829526 0.18220286 0.73300004 14672127
-0.024433333 0.18220286 0.73300004 14409212
-0.023068571 0.18245143 0.73400003 15198719
-0.021729525 0.18294857 0.73600006 14345471
-0.02032762 0.18294857 0.73600006 7437207
-0.019002859 0.1836943 0.73900002 4155872
-0.017642858 0.18419144 0.74100006 5800697
-0.016253335 0.18444002 0.74200004 8557799
-0.01484 0.18444002 0.74200004 11518463
-0.013462857 0.18493715 0.74400002 12107246
-0.012045715 0.18493715 0.74400002 11778281
-0.076715238 0.18510191 0.73900002 3695816
-0.07500191 0.18435049 0.73600006 3960810
-0.073300004 0.18359905 0.73300004 5079291
-0.07190381 0.18359905 0.73300004 6063101
-0.070315242 0.18309809 0.73100001 6128894
-0.068922862 0.18309809 0.73100001 8030975
-0.067253336 0.18234667 0.72800004 10004735
-0.065866672 0.18234667 0.72800004 11049983
-0.064391434 0.18209621 0.72700006 9273581
-0.063006669 0.18209621 0.72700006 9664730
-0.061621908 0.18209621 0.72700006 11901692
-0.060071427 0.18159524 0.72500002 11640575
-0.058690481 0.18159524 0.72500002 12035327
-0.057151429 0.1810943 0.72300005 11641087
-0.055697147 0.18084383 0.72200006 10785787
-0.054321911 0.18084383 0.72200006 11968255
-0.053020004 0.1810943 0.72300005 14139391
-0.051642857 0.1810943 0.72300005 14405631
-0.050265718 0.1810943 0.72300005 14734591
-0.048888575 0.1810943 0.72300005 14999039
-0.047511432 0.1810943 0.72300005 15656959
-0.046134286 0.1810943 0.72300005 15393535
-0.044757146 0.1810943 0.72300005 13814504
-0.043380003 0.1810943 0.72300005 13485565
-0.04200286 0.1810943 0.72300005 14998783
-0.040625714 0.1810943 0.72300005 14605311
-0.039357144 0.18159524 0.72500002 14144762
-0.03797619 0.18159524 0.72500002 13225471
-0.03659524 0.18159524 0.72500002 13028095
-0.035311431 0.18209621 0.72700006 9217769
-0.033926666 0.18209621 0.72700006 6980807
-0.032586671 0.18234667 0.72800004 6919167
-0.031200001 0.18234667 0.72800004 6590207
-0.029813336 0.18234667 0.72800004 7838463
-0.028504763 0.18284762 0.73000002 7772671
-0.027225716 0.18359905 0.73300004 12831739
-0.025829526 0.18359905 0.73300004 13687039
-0.024466667 0.18384953 0.73400003 14212090
-0.02313143 0.18435049 0.73600006 15330559
-0.021729525 0.18435049 0.73600006 14147839
-0.020382857 0.18485144 0.73800004 6713233
-0.01908 0.18585335 0.74200004 3828699
-0.017666668 0.18585335 0.74200004 5868282
-0.016297143 0.18635428 0.74400002 9083114
-0.014880001 0.18635428 0.74400002 11846399
-0.013462857 0.18635428 0.74400002 12304364
-0.012045715 0.18635428 0.74400002 12041192
-0.076715238 0.18650953 0.73900002 4285380
-0.075205714 0.18625715 0.73800004 3764446
-0.073399998 0.18524763 0.73400003 4751341
-0.07190381 0.18499525 0.73300004 5145086
-0.070507623 0.18499525 0.73300004 4947707
-0.068922862 0.18449047 0.73100001 5603839
-0.067253336 0.18373334 0.72800004 7511807
-0.065866672 0.18373334 0.72800004 10662655
-0.064479999 0.18373334 0.72800004 9346804
-0.063006669 0.18348096 0.72700006 9145855
-0.061621908 0.18348096 0.72700006 11843327
-0.060071427 0.18297619 0.72500002 12436222
-0.058690481 0.18297619 0.72500002 13159935
-0.057151429 0.18247144 0.72300005 13358333
-0.055697147 0.18221906 0.72200006 11845094
-0.054321911 0.18221906 0.72200006 12304636
-0.053020004 0.18247144 0.72300005 13554687
-0.051642857 0.18247144 0.72300005 14540798
-0.050265718 0.18247144 0.72300005 14146040
-0.048888575 0.18247144 0.72300005 14213116
-0.047511432 0.18247144 0.72300005 14607871
-0.046134286 0.18247144 0.72300005 14344702
-0.044757146 0.18247144 0.72300005 12634084
-0.043380003 0.18247144 0.72300005 12305663
-0.04200286 0.18247144 0.72300005 13029375
-0.040738095 0.18297619 0.72500002 12570367
-0.039357144 0.18297619 0.72500002 12044024
-0.038080957 0.18348096 0.72700006 11978751
-0.036696192 0.18348096 0.72700006 12505087
-0.035311431 0.18348096 0.72700006 8695295
-0.033973332 0.18373334 0.72800004 7774202
-0.032586671 0.18373334 0.72800004 8303615
-0.031200001 0.18373334 0.72800004 7908863
-0.029895239 0.18423811 0.73000002 10664959
-0.028543809 0.18449047 0.73100001 9743865
-0.027262859 0.18524763 0.73400003 11056639
-0.025864763 0.18524763 0.73400003 12569855
-0.024466667 0.18524763 0.73400003 13555199
-0.02313143 0.18575239 0.73600006 14278911
-0.021788571 0.18625715 0.73800004 13686783
-0.020410476 0.18650953 0.73900002 6383764
-0.01908 0.18726666 0.74200004 1069009
-0.017666668 0.18726666 0.74200004 4950783
-0.016253335 0.18726666 0.74200004 9346025
-0.01484 0.18726666 0.74200004 11977727
-0.013462857 0.18777142 0.74400002 12304364
-0.012045715 0.18777142 0.74400002 12106985
-0.078651428 0.18918858 0.74400002 4482763
-0.077026673 0.18868001 0.74200004 2772145
-0.075205714 0.18766285 0.73800004 1661923
-0.073600002 0.18715431 0.73600006 3569919
-0.072001912 0.18664572 0.73400003 4618749
-0.070507623 0.18639144 0.73300004 5210879
-0.068922862 0.18588285 0.73100001 5538559
-0.067530476 0.18588285 0.73100001 5999103
-0.065866672 0.18512 0.72800004 8230655
-0.064479999 0.18512 0.72800004 9678079
-0.063093334 0.18512 0.72800004 12700415
-0.061621908 0.18486573 0.72700006 15003135
-0.060237147 0.18486573 0.72700006 15265534
-0.058852386 0.18486573 0.72700006 15265534
-0.057309527 0.18435715 0.72500002 15068927
-0.055697147 0.1835943 0.72200006 12437207
-0.054321911 0.1835943 0.72200006 11911423
-0.053020004 0.18384859 0.72300005 12766719
-0.051642857 0.18384859 0.72300005 11976447
-0.050265718 0.18384859 0.72300005 11252730
-0.048888575 0.18384859 0.72300005 10662387
-0.047511432 0.18384859 0.72300005 10793973
-0.046134286 0.18384859 0.72300005 10793966
-0.044880953 0.18435715 0.72500002 11386103
-0.043500002 0.18435715 0.72500002 11977471
-0.042119049 0.18435715 0.72500002 11451131
-0.040738095 0.18435715 0.72500002 10532861
-0.039465718 0.18486573 0.72700006 11322367
-0.038080957 0.18486573 0.72700006 13162751
-0.036696192 0.18486573 0.72700006 15399679
-0.035360001 0.18512 0.72800004 12046335
-0.033973332 0.18512 0.72800004 10730481
-0.032586671 0.18512 0.72800004 10012159
-0.031285714 0.18562858 0.73000002 8235755
-0.029895239 0.18562858 0.73000002 8694783
-0.028543809 0.18588285 0.73100001 8628991
-0.027262859 0.18664572 0.73400003 9216255
-0.025864763 0.18664572 0.73400003 9676799
-0.024466667 0.18664572 0.73400003 12239871
-0.02313143 0.18715431 0.73600006 12700415
-0.021788571 0.18766285 0.73800004 11912958
-0.020410476 0.18791714 0.73900002 5465244
-0.01908 0.18868001 0.74200004 2251768
-0.017666668 0.18868001 0.74200004 5212415
-0.016253335 0.18868001 0.74200004 9148905
-0.01484 0.18868001 0.74200004 11780607
-0.013426667 0.18868001 0.74200004 12304364
-0.078651428 0.19060571 0.74400002 6191300
-0.076922864 0.18983716 0.74100006 3493787
-0.075307623 0.18932477 0.73900002 1857494
-0.073600002 0.18855619 0.73600006 3436526
-0.072001912 0.18804382 0.73400003 4552177
-0.070507623 0.18778764 0.73300004 5473279
-0.069111429 0.18778764 0.73300004 5407999
-0.067530476 0.18727525 0.73100001 5013247
-0.066138096 0.18727525 0.73100001 6589951
-0.064657144 0.18701905 0.73000002 8366335
-0.063093334 0.18650667 0.72800004 12175871
-0.061706673 0.18650667 0.72800004 14544383
-0.060320001 0.18650667 0.72800004 15594751
-0.058852386 0.18625049 0.72700006 15594751
-0.057467621 0.18625049 0.72700006 15989759
-0.055928573 0.1857381 0.72500002 12634316
-0.054547619 0.1857381 0.72500002 10861055
-0.053166665 0.1857381 0.72500002 11255807
-0.051642857 0.18522573 0.72300005 11385599
-0.050265718 0.18522573 0.72300005 11122431
-0.048888575 0.18522573 0.72300005 10399487
-0.047642857 0.1857381 0.72500002 10596863
-0.046261907 0.1857381 0.72500002 10399487
-0.044880953 0.1857381 0.72500002 11978495
-0.043500002 0.1857381 0.72500002 13161983
-0.042119049 0.1857381 0.72500002 11780332
-0.040850475 0.18625049 0.72700006 10270463
-0.039465718 0.18625049 0.72700006 11586303
-0.038080957 0.18625049 0.72700006 13163263
-0.03674667 0.18650667 0.72800004 14413311
-0.035360001 0.18650667 0.72800004 12639743
-0.033973332 0.18650667 0.72800004 11850232
-0.03267619 0.18701905 0.73000002 10799615
-0.031285714 0.18701905 0.73000002 9615348
-0.029936191 0.18727525 0.73100001 8628735
-0.028621906 0.18778764 0.73300004 8628735
-0.027262859 0.18804382 0.73400003 8953855
-0.02593524 0.18855619 0.73600006 9809151
-0.024533335 0.18855619 0.73600006 11846143
-0.023194287 0.18906857 0.73800004 11451391
-0.021818096 0.18932477 0.73900002 8759295
-0.020465717 0.18983716 0.74100006 4022210
-0.01908 0.19009334 0.74200004 2514661
-0.017666668 0.19009334 0.74200004 5541119
-0.016253335 0.19009334 0.74200004 9083114
-0.01484 0.19009334 0.74200004 11780607
-0.078440003 0.19150668 0.74200004 6651585
-0.076922864 0.1912486 0.74100006 3493521
-0.075307623 0.19073239 0.73900002 1988319
-0.073600002 0.18995811 0.73600006 3633144
-0.072001912 0.1894419 0.73400003 5274607
-0.07060381 0.1894419 0.73400003 5603572
-0.069111429 0.18918382 0.73300004 4620031
-0.067715243 0.18918382 0.73300004 4685823
-0.066138096 0.18866761 0.73100001 6656255
-0.064657144 0.18840952 0.73000002 8301055
-0.063093334 0.18789335 0.72800004 11977727
-0.061706673 0.18789335 0.72800004 14412031
-0.060320001 0.18789335 0.72800004 15462654
-0.058852386 0.18763524 0.72700006 15067896
-0.057467621 0.18763524 0.72700006 14542842
-0.05608286 0.18763524 0.72700006 12503259
-0.054547619 0.18711905 0.72500002 11124223
-0.053166665 0.18711905 0.72500002 11453183
-0.051785715 0.18711905 0.72500002 11912447
-0.050404765 0.18711905 0.72500002 12175615
-0.049023811 0.18711905 0.72500002 12241663
-0.047642857 0.18711905 0.72500002 13228543
-0.046261907 0.18711905 0.72500002 13490687
-0.044880953 0.18711905 0.72500002 13622271
-0.043500002 0.18711905 0.72500002 13096447
-0.042119049 0.18711905 0.72500002 12504312
-0.040850475 0.18763524 0.72700006 11519743
-0.039465718 0.18763524 0.72700006 12901375
-0.038080957 0.18763524 0.72700006 13623038
-0.03674667 0.18789335 0.72800004 14280959
-0.035360001 0.18789335 0.72800004 13491967
-0.033973332 0.18789335 0.72800004 13294589
-0.03267619 0.18840952 0.73000002 11915263
-0.03132857 0.18866761 0.73100001 11388924
-0.029936191 0.18866761 0.73100001 10137599
-0.028621906 0.18918382 0.73300004 10269183
-0.027337145 0.18995811 0.73600006 9939967
-0.02593524 0.18995811 0.73600006 10663679
-0.024533335 0.18995811 0.73600006 10928383
-0.023194287 0.1904743 0.73800004 9809910
-0.021818096 0.19073239 0.73900002 8103423
-0.020465717 0.1912486 0.74100006 3629510
-0.01908 0.19150668 0.74200004 2450937
-0.017714286 0.19202286 0.74400002 5411583
-0.016297143 0.19202286 0.74400002 9148907
-0.078440003 0.19292001 0.74200004 6979780
-0.076922864 0.19266002 0.74100006 3755923
-0.075307623 0.19214001 0.73900002 2249942
-0.073800005 0.19188002 0.73800004 3960560
-0.0721981 0.19136001 0.73600006 5668341
-0.07060381 0.19084001 0.73400003 5536755
-0.069205716 0.19084001 0.73400003 4816383
-0.067715243 0.19058001 0.73300004 5013759
-0.066138096 0.19006 0.73100001 6918911
-0.064657144 0.18980001 0.73000002 8563711
-0.063266665 0.18980001 0.73000002 11911935
-0.061706673 0.18928002 0.72800004 14346239
-0.060320001 0.18928002 0.72800004 15266303
-0.058933336 0.18928002 0.72800004 14082030
-0.057467621 0.18902001 0.72700006 12044542
-0.05608286 0.18902001 0.72700006 11189233
-0.054698102 0.18902001 0.72700006 10729471
-0.053166665 0.1885 0.72500002 11124223
-0.051785715 0.1885 0.72500002 11978239
-0.050404765 0.1885 0.72500002 11715071
-0.049023811 0.1885 0.72500002 10862847
-0.047642857 0.1885 0.72500002 12244479
-0.046261907 0.1885 0.72500002 12966143
-0.045004766 0.18902001 0.72700006 13097727
-0.043620002 0.18902001 0.72700006 12637439
-0.04223524 0.18902001 0.72700006 12308475
-0.040850475 0.18902001 0.72700006 11388415
-0.039465718 0.18902001 0.72700006 12309503
-0.038133334 0.18928002 0.72800004 12833535
-0.03674667 0.18928002 0.72800004 13096703
-0.035360001 0.18928002 0.72800004 13623038
-0.034066666 0.18980001 0.73000002 13359866
-0.03267619 0.18980001 0.73000002 12439807
-0.03132857 0.19006 0.73100001 12045055
-0.030018097 0.19058001 0.73300004 11318527
-0.028621906 0.19058001 0.73300004 11581695
-0.027337145 0.19136001 0.73600006 11254015
-0.02593524 0.19136001 0.73600006 11254015
-0.024533335 0.19136001 0.73600006 10141695
-0.023194287 0.19188002 0.73800004 9089015
-0.021818096 0.19214001 0.73900002 6660607
-0.020465717 0.19266002 0.74100006 2910418
-0.019131429 0.19343999 0.74400002 1597161
-0.017714286 0.19343999 0.74400002 5281535
-0.016297143 0.19343999 0.74400002 9148905
-0.078440003 0.19433334 0.74200004 7307973
-0.076922864 0.19407144 0.74100006 3623565
-0.075307623 0.19354762 0.73900002 2184151
-0.073800005 0.19328572 0.73800004 3434218
-0.0721981 0.19276193 0.73600006 4288244
-0.07060381 0.19223809 0.73400003 4551416
-0.069205716 0.19223809 0.73400003 5013503
-0.067715243 0.1919762 0.73300004 5803007
-0.066319048 0.1919762 0.73300004 7181567
-0.064657144 0.19119048 0.73000002 8826367
-0.063266665 0.19119048 0.73000002 11255295
-0.061876193 0.19119048 0.73000002 12768511
-0.060320001 0.19066668 0.72800004 13029631
-0.058933336 0.19066668 0.72800004 12108534
-0.057546668 0.19066668 0.72800004 10993149
-0.05608286 0.19040477 0.72700006 9348324
-0.054698102 0.19040477 0.72700006 10007807
-0.053313337 0.19040477 0.72700006 10205183
-0.051928576 0.19040477 0.72700006 11191295
-0.050543811 0.19040477 0.72700006 11125503
-0.04915905 0.19040477 0.72700006 10863615
-0.047774293 0.19040477 0.72700006 11916287
-0.046389528 0.19040477 0.72700006 12506367
-0.045004766 0.19040477 0.72700006 12769535
-0.043620002 0.19040477 0.72700006 12637183
-0.04223524 0.19040477 0.72700006 12505597
-0.040906668 0.19066668 0.72800004 12375295
-0.039520003 0.19066668 0.72800004 12638463
-0.038133334 0.19066668 0.72800004 12310527
-0.036847621 0.19119048 0.73000002 11586805
-0.035457142 0.19119048 0.73000002 12439807
-0.034066666 0.19119048 0.73000002 13558271
-0.03272095 0.19145238 0.73100001 14476027
-0.031414285 0.1919762 0.73300004 14015476
-0.030018097 0.1919762 0.73300004 13159162
-0.028660953 0.19223809 0.73400003 12830197
-0.027411429 0.19328572 0.73800004 10991871
-0.026005715 0.19328572 0.73800004 10926079
-0.024600001 0.19328572 0.73800004 10142207
-0.023225715 0.19354762 0.73900002 9550077
-0.021877145 0.19407144 0.74100006 9221887
-0.020493334 0.19433334 0.74200004 5142730
-0.019182859 0.19538096 0.74600005 4222714
-0.017785715 0.19564286 0.74700004 6525439
-0.016362859 0.19564286 0.74700004 9082853
-0.078651428 0.19627428 0.74400002 7766977
-0.077026673 0.19574668 0.74200004 4082569
-0.075511433 0.19548288 0.74100006 2642894
-0.073899999 0.19495524 0.73900002 3498203
-0.072394282 0.19469143 0.73800004 3695344
-0.070796199 0.19416381 0.73600006 4616446
-0.069205716 0.19363619 0.73400003 5538047
-0.067807622 0.19363619 0.73400003 5932799
-0.066319048 0.1933724 0.73300004 6722047
-0.064922862 0.1933724 0.73300004 7774719
-0.063353337 0.19284476 0.73100001 9677567
-0.061876193 0.19258095 0.73000002 11519743
-0.060485717 0.19258095 0.73000002 12241663
-0.059095241 0.19258095 0.73000002 11978495
-0.057546668 0.19205333 0.72800004 11454719
-0.056160003 0.19205333 0.72800004 10862589
-0.054773338 0.19205333 0.72800004 10534911
-0.053313337 0.19178954 0.72700006 10929663
-0.051928576 0.19178954 0.72700006 11389183
-0.050543811 0.19178954 0.72700006 11323391
-0.04915905 0.19178954 0.72700006 11324671
-0.047774293 0.19178954 0.72700006 11851007
-0.046389528 0.19178954 0.72700006 11981567
-0.045004766 0.19178954 0.72700006 12442111
-0.043620002 0.19178954 0.72700006 12573183
-0.042293333 0.19205333 0.72800004 12441599
-0.040906668 0.19205333 0.72800004 12705279
-0.039520003 0.19205333 0.72800004 12507903
-0.038133334 0.19205333 0.72800004 11459071
-0.03674667 0.19205333 0.72800004 10077423
-0.035360001 0.19205333 0.72800004 11257854
-0.034066666 0.19258095 0.73000002 13428991
-0.03272095 0.19284476 0.73100001 15264253
-0.031414285 0.1933724 0.73300004 14408944
-0.030018097 0.1933724 0.73300004 13421816
-0.028660953 0.19363619 0.73400003 12632300
-0.027411429 0.19469143 0.73800004 10663167
-0.026005715 0.19469143 0.73800004 10202623
-0.024600001 0.19469143 0.73800004 9617407
-0.023225715 0.19495524 0.73900002 9814783
-0.021906666 0.19574668 0.74200004 9615359
-0.020493334 0.19574668 0.74200004 5799374
-0.019182859 0.19680192 0.74600005 4287721
-0.017833333 0.19759333 0.74900001 6261503
-0.016406668 0.19759333 0.74900001 9082601
-0.080283813 0.19822288 0.74600005 10263483
-0.078862861 0.19822288 0.74600005 7964352
-0.077234283 0.19769143 0.74400002 4082565
-0.075613335 0.19716001 0.74200004 1855940
-0.07410001 0.1968943 0.74100006 2711249
-0.072492383 0.19636285 0.73900002 3630836
-0.070796199 0.19556573 0.73600006 4354559
-0.06939429 0.19556573 0.73600006 5406975
-0.067807622 0.1950343 0.73400003 4880631
-0.066319048 0.19476858 0.73300004 4291839
-0.064922862 0.19476858 0.73300004 5607679
-0.063353337 0.19423714 0.73100001 8693503
-0.06196095 0.19423714 0.73100001 9877759
-0.060485717 0.19397143 0.73000002 10666495
-0.059095241 0.19397143 0.73000002 11061247
-0.057546668 0.19344001 0.72800004 11062015
-0.056160003 0.19344001 0.72800004 10864639
-0.054773338 0.19344001 0.72800004 10997247
-0.05338667 0.19344001 0.72800004 11457791
-0.052000001 0.19344001 0.72800004 11588863
-0.050613336 0.19344001 0.72800004 11654655
-0.049226668 0.19344001 0.72800004 11523583
-0.047840003 0.19344001 0.72800004 11589375
-0.046453338 0.19344001 0.72800004 11325951
-0.04506667 0.19344001 0.72800004 11325951
-0.043680001 0.19344001 0.72800004 10209791
-0.042293333 0.19344001 0.72800004 10078207
-0.040906668 0.19344001 0.72800004 11260671
-0.039520003 0.19344001 0.72800004 11458047
-0.038238097 0.19397143 0.73000002 11327743
-0.03674667 0.19344001 0.72800004 10011889
-0.035360001 0.19344001 0.72800004 11192315
-0.034066666 0.19397143 0.73000002 13626623
-0.032810476 0.19476858 0.73300004 15263992
-0.031414285 0.19476858 0.73300004 13816546
-0.030059047 0.1950343 0.73400003 12566773
-0.02873905 0.19556573 0.73600006 11974636
-0.027448572 0.19636285 0.73900002 9614335
-0.026040953 0.19636285 0.73900002 9877503
-0.024633335 0.19636285 0.73900002 10734335
-0.023288572 0.1968943 0.74100006 10997503
-0.021906666 0.19716001 0.74200004 10206207
-0.020548571 0.19769143 0.74400002 6061256
-0.019208571 0.19848858 0.74700004 4090615
-0.017833333 0.19902001 0.74900001 6064383
-0.016406668 0.19902001 0.74900001 9213935
-0.081704766 0.19964382 0.74600005 10263226
-0.080068566 0.19910859 0.74400002 10394812
-0.078651428 0.19910859 0.74400002 8358590
-0.077026673 0.19857335 0.74200004 4608389
-0.075613335 0.19857335 0.74200004 2249926
-0.07410001 0.19830573 0.74100006 3039442
-0.07268858 0.19830573 0.74100006 3630573
-0.070988573 0.19750287 0.73800004 4288503
-0.069582857 0.19750287 0.73800004 3634687
-0.067807622 0.1964324 0.73400003 3568895
-0.066409528 0.1964324 0.73400003 4094719
-0.064922862 0.19616477 0.73300004 5213183
-0.063526668 0.19616477 0.73300004 7578111
-0.06196095 0.19562952 0.73100001 8696575
-0.060568571 0.19562952 0.73100001 8894975
-0.059176192 0.19562952 0.73100001 9289727
-0.057704762 0.19536191 0.73000002 9946367
-0.056160003 0.19482668 0.72800004 10077951
-0.054773338 0.19482668 0.72800004 10341887
-0.05338667 0.19482668 0.72800004 10473471
-0.052000001 0.19482668 0.72800004 10736383
-0.050613336 0.19482668 0.72800004 10867967
-0.049226668 0.19482668 0.72800004 10999551
-0.047840003 0.19482668 0.72800004 10736383
-0.046453338 0.19482668 0.72800004 9686015
-0.04506667 0.19482668 0.72800004 9686015
-0.043680001 0.19482668 0.72800004 8962559
-0.042293333 0.19482668 0.72800004 9159935
-0.040906668 0.19482668 0.72800004 10670591
-0.039628573 0.19536191 0.73000002 11591679
-0.038238097 0.19536191 0.73000002 12313343
-0.036847621 0.19536191 0.73000002 10339557
-0.035457142 0.19536191 0.73000002 10206207
-0.034113333 0.19562952 0.73100001 13364223
-0.032810476 0.19616477 0.73300004 15264505
-0.031457145 0.1964324 0.73400003 13553887
-0.030059047 0.1964324 0.73400003 12304375
-0.02873905 0.19696763 0.73600006 11646445
-0.027448572 0.19777049 0.73900002 8761087
-0.026040953 0.19777049 0.73900002 9155839
-0.024633335 0.19777049 0.73900002 10865919
-0.023288572 0.19830573 0.74100006 11392255
-0.021965714 0.19910859 0.74400002 10534911
-0.02060381 0.19964382 0.74600005 5600444
-0.019259999 0.20044668 0.74900001 3565543
-0.017857144 0.20071431 0.75000006 5539327
-0.016472382 0.20124954 0.75200003 9279721
-0.01508 0.20178477 0.75400001 12174591
-0.081704766 0.20106477 0.74600005 10131638
-0.080283813 0.20106477 0.74600005 10460603
-0.078651428 0.20052572 0.74400002 8687809
-0.077026673 0.19998667 0.74200004 4937608
-0.075613335 0.19998667 0.74200004 1594313
-0.07410001 0.19971716 0.74100006 2120657
-0.07268858 0.19971716 0.74100006 3237609
-0.07108476 0.1991781 0.73900002 3961332
-0.069582857 0.19890857 0.73800004 3896319
-0.067992389 0.19836955 0.73600006 3962111
-0.066409528 0.19783047 0.73400003 2652159
-0.065011427 0.19783047 0.73400003 3967999
-0.063526668 0.19756097 0.73300004 6725119
-0.06196095 0.1970219 0.73100001 7580415
-0.060568571 0.1970219 0.73100001 9681663
-0.059176192 0.1970219 0.73100001 9813247
-0.057704762 0.19675238 0.73000002 10076671
-0.056314286 0.19675238 0.73000002 9945087
-0.054773338 0.19621335 0.72800004 8107519
-0.05338667 0.19621335 0.72800004 7778559
-0.052000001 0.19621335 0.72800004 7451903
-0.050613336 0.19621335 0.72800004 7649279
-0.049226668 0.19621335 0.72800004 9027839
-0.047840003 0.19621335 0.72800004 9619967
-0.046453338 0.19621335 0.72800004 10079231
-0.04506667 0.19621335 0.72800004 10737151
-0.043680001 0.19621335 0.72800004 10672383
-0.042293333 0.19621335 0.72800004 10935551
-0.041019049 0.19675238 0.73000002 11919615
-0.039628573 0.19675238 0.73000002 13235455
-0.038238097 0.19675238 0.73000002 13100799
-0.036847621 0.19675238 0.73000002 10929632
-0.035457142 0.19675238 0.73000002 11913983
-0.03420667 0.19756097 0.73300004 14019327
-0.032855239 0.19783047 0.73400003 14737909
-0.031457145 0.19783047 0.73400003 13027291
-0.030140955 0.19836955 0.73600006 12567286
-0.028817143 0.19890857 0.73800004 12962044
-0.027448572 0.1991781 0.73900002 11453695
-0.026040953 0.1991781 0.73900002 10927358
-0.024700001 0.19971716 0.74100006 11323903
-0.023288572 0.19971716 0.74100006 12047615
-0.021965714 0.20052572 0.74400002 10797055
-0.02060381 0.20106477 0.74600005 5599415
-0.019259999 0.20187335 0.74900001 3500281
-0.017904762 0.20268191 0.75200003 5145087
-0.016472382 0.20268191 0.75200003 8885985
-0.01508 0.20322095 0.75400001 12044031
-0.01364381 0.20322095 0.75400001 12436218
-0.012207619 0.20322095 0.75400001 12304632
-0.080283813 0.20248573 0.74600005 10395323
-0.078651428 0.20194286 0.74400002 8950720
-0.077234283 0.20194286 0.74400002 5200519
-0.075817145 0.20194286 0.74400002 1988046
-0.074200004 0.20140001 0.74200004 2711769
-0.07268858 0.20112859 0.74100006 3631849
-0.07108476 0.20058572 0.73900002 4026607
-0.069582857 0.2003143 0.73800004 3174911
-0.067992389 0.19977143 0.73600006 3569663
-0.066409528 0.19922857 0.73400003 2587135
-0.065011427 0.19922857 0.73400003 3837183
-0.063526668 0.19895716 0.73300004 5214719
-0.062130481 0.19895716 0.73300004 6662143
-0.060734287 0.19895716 0.73300004 8105727
-0.059176192 0.1984143 0.73100001 8961023
-0.057783809 0.1984143 0.73100001 9288703
-0.056314286 0.19814286 0.73000002 9157119
-0.05492381 0.19814286 0.73000002 7779071
-0.053533334 0.19814286 0.73000002 7121151
-0.052142855 0.19814286 0.73000002 6139135
-0.050752383 0.19814286 0.73000002 6599679
-0.049361907 0.19814286 0.73000002 8830975
-0.047971431 0.19814286 0.73000002 9094143
-0.046580952 0.19814286 0.73000002 9027839
-0.045190476 0.19814286 0.73000002 10212095
-0.0438 0.19814286 0.73000002 10868991
-0.042409524 0.19814286 0.73000002 11000575
-0.041019049 0.19814286 0.73000002 11788287
-0.039628573 0.19814286 0.73000002 12446207
-0.038290478 0.1984143 0.73100001 12969727
-0.036898095 0.1984143 0.73100001 11785454
-0.035505716 0.1984143 0.73100001 12898298
-0.034253333 0.19922857 0.73400003 14345727
-0.032855239 0.19922857 0.73400003 14474226
-0.03154286 0.19977143 0.73600006 13026780
-0.030222857 0.2003143 0.73800004 13026036
-0.028817143 0.2003143 0.73800004 13552380
-0.027522858 0.20112859 0.74100006 13094654
-0.02611143 0.20112859 0.74100006 12831482
-0.024700001 0.20112859 0.74100006 12373503
-0.023320002 0.20140001 0.74200004 12505087
-0.022024764 0.20248573 0.74600005 10797055
-0.020631431 0.20275715 0.74700004 5862587
-0.019285716 0.20357144 0.75000006 2844132
-0.017904762 0.20411429 0.75200003 3831027
-0.016472382 0.20411429 0.75200003 9343972
-0.01508 0.20465714 0.75400001 12436223
-0.01364381 0.20465714 0.75400001 12370425
-0.012207619 0.20465714 0.75400001 12370425
-0.080283813 0.20390669 0.74600005 10394808
-0.078862861 0.20390669 0.74600005 9147583
-0.077441908 0.20390669 0.74600005 5726347
-0.075817145 0.20335999 0.74400002 2251216
-0.074200004 0.20281334 0.74200004 2777560
-0.07268858 0.20254003 0.74100006 3500774
-0.071277149 0.20254003 0.74100006 3698153
-0.069677144 0.20199333 0.73900002 2321151
-0.067992389 0.20117335 0.73600006 2979071
-0.066590481 0.20117335 0.73600006 4030463
-0.065011427 0.20062667 0.73400003 5806847
-0.063526668 0.20035335 0.73300004 6265855
-0.062130481 0.20035335 0.73300004 6002687
-0.060734287 0.20035335 0.73300004 4624639
-0.0593381 0.20035335 0.73300004 4624639
-0.057783809 0.19980666 0.73100001 6266879
-0.056391429 0.19980666 0.73100001 7187967
-0.05492381 0.19953334 0.73000002 7122175
-0.053533334 0.19953334 0.73000002 5345777
-0.052142855 0.19953334 0.73000002 4431359
-0.050752383 0.19953334 0.73000002 6141951
-0.049361907 0.19953334 0.73000002 9289983
-0.047971431 0.19953334 0.73000002 9684735
-0.046580952 0.19953334 0.73000002 9552127
-0.045252379 0.19980666 0.73100001 10407423
-0.04386 0.19980666 0.73100001 11785727
-0.042467616 0.19980666 0.73100001 11917311
-0.041075241 0.19980666 0.73100001 12835323
-0.039682858 0.19980666 0.73100001 12901116
-0.038395241 0.20035335 0.73300004 13228537
-0.036999051 0.20035335 0.73300004 13689087
-0.03560286 0.20035335 0.73300004 14410486
-0.034253333 0.20062667 0.73400003 14542072
-0.032944765 0.20117335 0.73600006 14342640
-0.031628575 0.20172001 0.73800004 13092573
-0.030222857 0.20172001 0.73800004 13288697
-0.028856192 0.20199333 0.73900002 14275583
-0.027522858 0.20254003 0.74100006 13948918
-0.02611143 0.20254003 0.74100006 13883125
-0.024733335 0.20281334 0.74200004 13226747
-0.023382857 0.20335999 0.74400002 12437231
-0.022054287 0.20418 0.74700004 11058943
-0.020686667 0.20472667 0.74900001 6913992
-0.019285716 0.20500001 0.75000006 1205485
-0.017904762 0.20554666 0.75200003 1008106
-0.016472382 0.20554666 0.75200003 8031971
-0.01508 0.20609333 0.75400001 11847935
-0.01364381 0.20609333 0.75400001 12502263
-0.012207619 0.20609333 0.75400001 12370677
-0.080283813 0.20532763 0.74600005 10394299
-0.078862861 0.20532763 0.74600005 9279167
-0.077441908 0.20532763 0.74600005 6450068
-0.076020956 0.20532763 0.74600005 3236301
-0.0744 0.20477715 0.74400002 3038922
-0.072786666 0.20422669 0.74200004 3040482
-0.071277149 0.20395145 0.74100006 3369447
-0.069677144 0.20340095 0.73900002 2649087
-0.068177149 0.20312573 0.73800004 3307007
-0.066590481 0.20257525 0.73600006 3965951
-0.065011427 0.20202477 0.73400003 6071295
-0.063613333 0.20202477 0.73400003 7710975
-0.062130481 0.20174953 0.73300004 5868784
-0.060734287 0.20174953 0.73300004 2063871
-0.0593381 0.20174953 0.73300004 3050751
-0.05794191 0.20174953 0.73300004 5217279
-0.056391429 0.20119905 0.73100001 6072575
-0.054999046 0.20119905 0.73100001 6138111
-0.053606667 0.20119905 0.73100001 4888056
-0.052214287 0.20119905 0.73100001 3315711
-0.050821904 0.20119905 0.73100001 5552639
-0.049361907 0.20092382 0.73000002 9485311
-0.047971431 0.20092382 0.73000002 9945855
-0.046580952 0.20092382 0.73000002 10141695
-0.045252379 0.20119905 0.73100001 10996991
-0.04386 0.20119905 0.73100001 12965113
-0.042467616 0.20119905 0.73100001 13096699
-0.041075241 0.20119905 0.73100001 13621236
-0.039682858 0.20119905 0.73100001 13687029
-0.038395241 0.20174953 0.73300004 13883377
-0.036999051 0.20174953 0.73300004 15001855
-0.03560286 0.20174953 0.73300004 15527929
-0.03434667 0.20257525 0.73600006 14212069
-0.033034287 0.20312573 0.73800004 14012912
-0.031628575 0.20312573 0.73800004 13618154
-0.030263809 0.20340095 0.73900002 13815286
-0.028856192 0.20340095 0.73900002 14473215
-0.027522858 0.20395145 0.74100006 14342903
-0.02611143 0.20395145 0.74100006 14211317
-0.024733335 0.20422669 0.74200004 13554683
-0.023382857 0.20477715 0.74400002 13225718
-0.022054287 0.20560287 0.74700004 11978239
-0.020714287 0.20642859 0.75000006 9083353
-0.019285716 0.20642859 0.75000006 4224488
-0.017904762 0.20697905 0.75200003 1987526
-0.016472382 0.20697905 0.75200003 7440345
-0.01508 0.20752953 0.75400001 11716863
-0.01364381 0.20752953 0.75400001 12436218
-0.078862861 0.20674857 0.74600005 9410237
-0.076020956 0.20674857 0.74600005 3760333
-0.0744 0.20619428 0.74400002 2576059
-0.072786666 0.20564 0.74200004 2121697
-0.071277149 0.20536287 0.74100006 2911213
-0.069865718 0.20536287 0.74100006 2452223
-0.068177149 0.20453143 0.73800004 3636479
-0.066590481 0.20397717 0.73600006 4753663
-0.065188579 0.20397717 0.73600006 6793215
-0.063613333 0.20342286 0.73400003 7053823
-0.062215243 0.20342286 0.73400003 4816873
-0.060734287 0.20314573 0.73300004 3704831
-0.0593381 0.20314573 0.73300004 6731263
-0.05794191 0.20314573 0.73300004 11062015
-0.05654572 0.20314573 0.73300004 11193599
-0.054999046 0.20259143 0.73100001 10535679
-0.053606667 0.20259143 0.73100001 9614585
-0.052214287 0.20259143 0.73100001 9614847
-0.050821904 0.20259143 0.73100001 11128063
-0.049429525 0.20259143 0.73100001 12570875
-0.048037142 0.20259143 0.73100001 12899839
-0.046644762 0.20259143 0.73100001 13884917
-0.045252379 0.20259143 0.73100001 14345468
-0.043979999 0.20314573 0.73300004 14476790
-0.042583812 0.20314573 0.73300004 14410997
-0.041187622 0.20314573 0.73300004 14805235
-0.039791431 0.20314573 0.73300004 14871028
-0.038395241 0.20314573 0.73300004 15198964
-0.036999051 0.20314573 0.73300004 15527929
-0.03565143 0.20342286 0.73400003 15461623
-0.03434667 0.20397717 0.73600006 14014177
-0.033034287 0.20453143 0.73800004 13486832
-0.031628575 0.20453143 0.73800004 13618418
-0.030263809 0.20480858 0.73900002 13749493
-0.028856192 0.20480858 0.73900002 14012665
-0.027522858 0.20536287 0.74100006 13750514
-0.026146669 0.20564 0.74200004 13750514
-0.024733335 0.20564 0.74200004 13554422
-0.023445716 0.20674857 0.74600005 14014973
-0.022054287 0.20702572 0.74700004 14016255
-0.020714287 0.20785716 0.75000006 11647710
-0.019285716 0.20785716 0.75000006 3898111
-0.017904762 0.20841144 0.75200003 1529569
-0.016472382 0.20841144 0.75200003 6457829
-0.01508 0.20896572 0.75400001 10800127
-0.01364381 0.20896572 0.75400001 12633849
-0.076020956 0.20816953 0.74600005 4153803
-0.074600004 0.20816953 0.74600005 3298494
-0.072982863 0.20761143 0.74400002 3170778
-0.071373336 0.20705333 0.74200004 3762915
-0.069865718 0.20677431 0.74100006 2452223
-0.068269521 0.2062162 0.73900002 3175935
-0.066771425 0.20593715 0.73800004 5475071
-0.065365717 0.20593715 0.73800004 7054079
-0.063613333 0.20482096 0.73400003 6594559
-0.062215243 0.20482096 0.73400003 4357610
-0.060817145 0.20482096 0.73400003 4293887
-0.0593381 0.20454192 0.73300004 8965119
-0.05794191 0.20454192 0.73300004 12309247
-0.05654572 0.20454192 0.73300004 12769791
-0.055149525 0.20454192 0.73300004 13292287
-0.053753335 0.20454192 0.73300004 12700153
-0.052357145 0.20454192 0.73300004 12765435
-0.050960954 0.20454192 0.73300004 13291775
-0.049429525 0.2039838 0.73100001 13620215
-0.048037142 0.2039838 0.73100001 14080766
-0.046644762 0.2039838 0.73100001 15001333
-0.045376193 0.20454192 0.73300004 15198712
-0.043979999 0.20454192 0.73300004 15593463
-0.042583812 0.20454192 0.73300004 15396084
-0.041187622 0.20454192 0.73300004 15330548
-0.039791431 0.20454192 0.73300004 15593720
-0.038447622 0.20482096 0.73400003 15790840
-0.037049524 0.20482096 0.73400003 15856633
-0.035748575 0.20537905 0.73600006 15592950
-0.034440003 0.20593715 0.73800004 13750746
-0.033034287 0.20593715 0.73800004 13091311
-0.031671431 0.2062162 0.73900002 13420276
-0.030263809 0.2062162 0.73900002 13486069
-0.028856192 0.2062162 0.73900002 13617655
-0.027560001 0.20705333 0.74200004 13421298
-0.026146669 0.20705333 0.74200004 13816056
-0.024800001 0.20761143 0.74400002 13883125
-0.023445716 0.20816953 0.74600005 13948918
-0.022113333 0.20900667 0.74900001 14015743
-0.020714287 0.20928572 0.75000006 12699885
-0.019337144 0.20984381 0.75200003 7576829
-0.017904762 0.20984381 0.75200003 2247596
-0.016472382 0.20984381 0.75200003 7636182
-0.015100001 0.21068096 0.75500005 11846911
-0.013661906 0.21068096 0.75500005 12634103
-0.076020956 0.20959049 0.74600005 4219080
-0.074600004 0.20959049 0.74600005 3034806
-0.072982863 0.20902859 0.74400002 1924577
-0.071373336 0.20846668 0.74200004 3240437
-0.069865718 0.20818573 0.74100006 2649343
-0.068454288 0.20818573 0.74100006 3109887
-0.066861905 0.20762381 0.73900002 6132223
-0.065365717 0.20734286 0.73800004 7184895
-0.063613333 0.20621906 0.73400003 7117823
-0.062215243 0.20621906 0.73400003 6130941
-0.060817145 0.20621906 0.73400003 7246335
