# .PCD v0.7 - Point Cloud Data file format
VERSION 0.7
FIELDS x y z rgba
SIZE 4 4 4 4
TYPE F F F U
COUNT 1 1 1 1
WIDTH 1105
HEIGHT 1
VIEWPOINT 0 0 0 1 0 0 0
POINTS 1105
DATA ascii
-0.051142856 0.19161524 0.71600002 9611263
-0.04977905 0.19161524 0.71600002 9940223
-0.04841524 0.19161524 0.71600002 9547263
-0.04705143 0.19161524 0.71600002 10073599
-0.04568762 0.19161524 0.71600002 10074879
-0.044385713 0.19188286 0.71700001 11193343
-0.042960003 0.19161524 0.71600002 11783935
-0.041596193 0.19161524 0.71600002 11652351
-0.040288571 0.19188286 0.71700001 11652095
-0.038922857 0.19188286 0.71700001 11717887
-0.037661906 0.19241811 0.71900004 11914751
-0.036292382 0.19241811 0.71900004 11651583
-0.034922861 0.19241811 0.71900004 10928383
-0.033553336 0.19241811 0.71900004 10204668
-0.03222857 0.19268572 0.72000003 9480959
-0.030857144 0.19268572 0.72000003 9941503
-0.029567622 0.19322097 0.72200006 9284351
-0.028192384 0.19322097 0.72200006 9744895
-0.026928572 0.19402382 0.72500002 9352447
-0.025618097 0.19455907 0.72700006 8233976
-0.024233334 0.19455907 0.72700006 6790399
-0.022880001 0.19482668 0.72800004 5540346
-0.021552382 0.19536191 0.73000002 6000383
-0.020189524 0.19562952 0.73100001 3697642
-0.018848572 0.19616477 0.73300004 2253311
-0.017571429 0.19750287 0.73800004 674297
-0.016165715 0.19750287 0.73800004 1658341
-0.01478 0.19777049 0.73900002 7842815
-0.076092385 0.19756097 0.73300004 5989258
-0.074696198 0.19756097 0.73300004 1002698
-0.073099993 0.1970219 0.73100001 2450144
-0.071609527 0.19675238 0.73000002 3762663
-0.070026673 0.19621335 0.72800004 3960042
-0.068545721 0.19594382 0.72700006 5733119
-0.06679143 0.19486572 0.72300005 7838463
-0.065323815 0.1945962 0.72200006 9217535
-0.063948572 0.1945962 0.72200006 9414911
-0.062573336 0.1945962 0.72200006 9021695
-0.061028574 0.19405715 0.72000003 9153279
-0.059657145 0.19405715 0.72000003 9350911
-0.058285713 0.19405715 0.72000003 9548287
-0.056914289 0.19405715 0.72000003 10797055
-0.055465717 0.19378762 0.71900004 10731263
-0.054096192 0.19378762 0.71900004 10928383
-0.052726667 0.19378762 0.71900004 11191551
-0.051214285 0.19324857 0.71700001 11192063
-0.049848571 0.19324857 0.71700001 11323647
-0.048482858 0.19324857 0.71700001 10996223
-0.04711714 0.19324857 0.71700001 10996223
-0.04575143 0.19324857 0.71700001 10996735
-0.044385713 0.19324857 0.71700001 11325695
-0.043020003 0.19324857 0.71700001 11194367
-0.041654285 0.19324857 0.71700001 10404857
-0.040400952 0.19378762 0.71900004 11126271
-0.039031431 0.19378762 0.71900004 12244735
-0.037661906 0.19378762 0.71900004 13358335
-0.036342856 0.19405715 0.72000003 12897786
-0.034971431 0.19405715 0.72000003 12569343
-0.033600003 0.19405715 0.72000003 11779830
-0.03222857 0.19405715 0.72000003 10861055
-0.030857144 0.19405715 0.72000003 10926847
-0.029567622 0.1945962 0.72200006 10074879
-0.028192384 0.1945962 0.72200006 9680127
-0.02700286 0.19594382 0.72700006 9353727
-0.025618097 0.19594382 0.72700006 8366841
-0.024233334 0.19594382 0.72700006 6791423
-0.022942858 0.19675238 0.73000002 4028129
-0.021552382 0.19675238 0.73000002 3703039
-0.020244764 0.19756097 0.73300004 3374079
-0.018874286 0.19783047 0.73400003 2188031
-0.017571429 0.19890857 0.73800004 674813
-0.016187619 0.1991781 0.73900002 1000941
-0.01478 0.1991781 0.73900002 7251199
-0.076092385 0.19895716 0.73300004 6647442
-0.074696198 0.19895716 0.73300004 2183111
-0.073300004 0.19895716 0.73300004 2775248
-0.071707621 0.1984143 0.73100001 3892961
-0.070026673 0.19760001 0.72800004 3629789
-0.068545721 0.1973286 0.72700006 4353785
-0.066976197 0.19678572 0.72500002 6656511
-0.065414287 0.19624287 0.72300005 8364031
-0.063948572 0.19597144 0.72200006 8758783
-0.062573336 0.19597144 0.72200006 8957183
-0.061198097 0.19597144 0.72200006 8957183
-0.059822865 0.19597144 0.72200006 9484031
-0.058285713 0.19542858 0.72000003 9681407
-0.056914289 0.19542858 0.72000003 10469887
-0.05554286 0.19542858 0.72000003 10469887
-0.054171428 0.19542858 0.72000003 10995711
-0.052726667 0.19515716 0.71900004 11061503
-0.051357146 0.19515716 0.71900004 11588095
-0.049987622 0.19515716 0.71900004 11259135
-0.048482858 0.19461429 0.71700001 10998527
-0.04711714 0.19461429 0.71700001 10603775
-0.045879051 0.19515716 0.71900004 10472703
-0.044509526 0.19515716 0.71900004 10604287
-0.043140002 0.19515716 0.71900004 10275839
-0.041770477 0.19515716 0.71900004 9157366
-0.040400952 0.19515716 0.71900004 10075391
-0.039085716 0.19542858 0.72000003 12114943
-0.037714288 0.19542858 0.72000003 13949439
-0.036342856 0.19542858 0.72000003 13094130
-0.034971431 0.19542858 0.72000003 13092860
-0.033600003 0.19542858 0.72000003 12763895
-0.032318097 0.19597144 0.72200006 11320319
-0.030942859 0.19597144 0.72200006 10991359
-0.029567622 0.19597144 0.72200006 9813247
-0.028192384 0.19597144 0.72200006 9352703
-0.02700286 0.1973286 0.72700006 7909887
-0.025653334 0.19760001 0.72800004 7712511
-0.024266668 0.19760001 0.72800004 7185919
-0.022942858 0.19814286 0.73000002 4883177
-0.021581903 0.1984143 0.73100001 2718975
-0.020244764 0.19895716 0.73300004 2587391
-0.018874286 0.19922857 0.73400003 3895807
-0.01752381 0.19977143 0.73600006 1395691
-0.016187619 0.20058572 0.73900002 934625
-0.014820001 0.20112859 0.74100006 7053311
-0.013408572 0.20112859 0.74100006 11449834
-0.076196194 0.20062667 0.73400003 7239064
-0.0747981 0.20062667 0.73400003 2707663
-0.073300004 0.20035335 0.73300004 2247112
-0.07190381 0.20035335 0.73300004 1726691
-0.070315242 0.19980666 0.73100001 2845172
-0.068545721 0.19871335 0.72700006 3830271
-0.066976197 0.19816668 0.72500002 5211903
-0.065414287 0.19762 0.72300005 8364287
-0.064037152 0.19762 0.72300005 8890623
-0.062573336 0.19734669 0.72200006 9417215
-0.061198097 0.19734669 0.72200006 9219839
-0.059822865 0.19734669 0.72200006 9419007
-0.058447625 0.19734669 0.72200006 9550591
-0.056914289 0.19680001 0.72000003 9419519
-0.05554286 0.19680001 0.72000003 9024767
-0.054171428 0.19680001 0.72000003 8893183
-0.052726667 0.19652668 0.71900004 8893183
-0.051357146 0.19652668 0.71900004 8565247
-0.049987622 0.19652668 0.71900004 8367871
-0.048618097 0.19652668 0.71900004 8894975
-0.047248576 0.19652668 0.71900004 8829183
-0.045879051 0.19652668 0.71900004 9815039
-0.044509526 0.19652668 0.71900004 10012415
-0.043200001 0.19680001 0.72000003 9618943
-0.041828573 0.19680001 0.72000003 8434676
-0.040457144 0.19680001 0.72000003 9811967
-0.039085716 0.19680001 0.72000003 12509439
-0.037714288 0.19680001 0.72000003 14146302
-0.036443811 0.19734669 0.72200006 12896235
-0.035068572 0.19734669 0.72200006 12632570
-0.033693336 0.19734669 0.72200006 12632570
-0.032318097 0.19734669 0.72200006 10598911
-0.030942859 0.19734669 0.72200006 8954095
-0.029608574 0.19762 0.72300005 8105983
-0.028231429 0.19762 0.72300005 8829695
-0.02700286 0.19871335 0.72700006 9223167
-0.025653334 0.19898668 0.72800004 9486335
-0.024266668 0.19898668 0.72800004 9682943
-0.022942858 0.19953334 0.73000002 8038126
-0.021640953 0.20035335 0.73300004 6592767
-0.020272382 0.20062667 0.73400003 4026855
-0.018925715 0.20117335 0.73600006 3304959
-0.01752381 0.20117335 0.73600006 1331189
-0.016187619 0.20199333 0.73900002 1001193
-0.014820001 0.20254003 0.74100006 6527743
-0.013408572 0.20254003 0.74100006 11252709
-0.076196194 0.20202477 0.73400003 7370650
-0.0747981 0.20202477 0.73400003 3626189
-0.073399998 0.20202477 0.73400003 2968259
-0.07190381 0.20174953 0.73300004 1660376
-0.070315242 0.20119905 0.73100001 3107822
-0.068640009 0.20037334 0.72800004 3765247
-0.067160957 0.2000981 0.72700006 5081087
-0.065595239 0.19954762 0.72500002 6984959
-0.064037152 0.19899715 0.72300005 8037631
-0.062660009 0.19899715 0.72300005 8038143
-0.061198097 0.19872192 0.72200006 8630271
-0.059822865 0.19872192 0.72200006 8303103
-0.058447625 0.19872192 0.72200006 7908351
-0.057072386 0.19872192 0.72200006 7186431
-0.05554286 0.19817142 0.72000003 7252223
-0.054171428 0.19817142 0.72000003 7449343
-0.052726667 0.1978962 0.71900004 7515135
-0.051357146 0.1978962 0.71900004 7187199
-0.049987622 0.1978962 0.71900004 7910911
-0.048618097 0.1978962 0.71900004 9223679
-0.047248576 0.1978962 0.71900004 9684223
-0.045879051 0.1978962 0.71900004 10734591
-0.044509526 0.1978962 0.71900004 11063551
-0.043200001 0.19817142 0.72000003 11128831
-0.041828573 0.19817142 0.72000003 9220840
-0.040457144 0.19817142 0.72000003 8826367
-0.039085716 0.19817142 0.72000003 11984383
-0.03781905 0.19872192 0.72200006 14015231
-0.036443811 0.19872192 0.72200006 12633579
-0.035068572 0.19872192 0.72200006 12303610
-0.033693336 0.19872192 0.72200006 12632575
-0.032318097 0.19872192 0.72200006 10337023
-0.030942859 0.19872192 0.72200006 8429034
-0.029608574 0.19899715 0.72300005 7449855
-0.028231429 0.19899715 0.72300005 8963071
-0.02700286 0.2000981 0.72700006 10143743
-0.025653334 0.20037334 0.72800004 10275327
-0.024266668 0.20037334 0.72800004 9682431
-0.022942858 0.20092382 0.73000002 8103408
-0.021640953 0.20174953 0.73300004 7642879
-0.020272382 0.20202477 0.73400003 4879586
-0.018925715 0.20257525 0.73600006 2910719
-0.017571429 0.20312573 0.73800004 1200119
-0.016187619 0.20340095 0.73900002 1721824
-0.014820001 0.20395145 0.74100006 7051007
-0.013408572 0.20395145 0.74100006 10924519
-0.07500191 0.20397717 0.73600006 3627209
-0.073399998 0.20342286 0.73400003 2442935
-0.07190381 0.20314573 0.73300004 1004511
-0.070507623 0.20314573 0.73300004 2912508
-0.068640009 0.20176001 0.72800004 4552959
-0.067160957 0.20148288 0.72700006 5408255
-0.065595239 0.20092857 0.72500002 5079295
-0.064037152 0.20037431 0.72300005 4618751
-0.062660009 0.20037431 0.72300005 3833855
-0.061198097 0.20009716 0.72200006 5478655
-0.059822865 0.20009716 0.72200006 6002943
-0.058447625 0.20009716 0.72200006 4752890
-0.057072386 0.20009716 0.72200006 4165631
-0.05554286 0.19954287 0.72000003 6139391
-0.054171428 0.19954287 0.72000003 8107519
-0.052800003 0.19954287 0.72000003 8107519
-0.051428575 0.19954287 0.72000003 7976703
-0.050057143 0.19954287 0.72000003 9095167
-0.048685715 0.19954287 0.72000003 9882623
-0.047314286 0.19954287 0.72000003 10540543
-0.045942858 0.19954287 0.72000003 11196159
-0.044571429 0.19954287 0.72000003 12248831
-0.043200001 0.19954287 0.72000003 12115199
-0.041828573 0.19954287 0.72000003 9680862
-0.040457144 0.19954287 0.72000003 10009087
-0.03919429 0.20009716 0.72200006 12706559
-0.03781905 0.20009716 0.72200006 13949180
-0.036443811 0.20009716 0.72200006 12435941
-0.035068572 0.20009716 0.72200006 11645178
-0.033740003 0.20037431 0.72300005 12171519
-0.03236286 0.20037431 0.72300005 10337023
-0.030985717 0.20037431 0.72300005 8757999
-0.029690476 0.20092857 0.72500002 7975167
-0.028309524 0.20092857 0.72500002 9356799
-0.027040001 0.20176001 0.72800004 10997759
-0.025653334 0.20176001 0.72800004 11260927
-0.024333334 0.20231429 0.73000002 9747455
-0.022974286 0.20259143 0.73100001 6984157
-0.021670477 0.20342286 0.73400003 6460671
-0.02032762 0.20397717 0.73600006 4750067
-0.018925715 0.20397717 0.73600006 2583295
-0.017571429 0.20453143 0.73800004 806901
-0.016187619 0.20480858 0.73900002 1067496
-0.014820001 0.20536287 0.74100006 5804543
-0.013408572 0.20536287 0.74100006 10924512
-0.075205714 0.20593715 0.73800004 4021699
-0.073600002 0.20537905 0.73600006 2442667
-0.072001912 0.20482096 0.73400003 938709
-0.070507623 0.20454192 0.73300004 3899391
-0.068922862 0.2039838 0.73100001 5473279
-0.067253336 0.20314668 0.72800004 5144318
-0.065776192 0.20286763 0.72700006 3307007
-0.064214289 0.20230952 0.72500002 3438591
-0.062833332 0.20230952 0.72500002 3440639
-0.061282866 0.20175144 0.72300005 5217023
-0.059822865 0.2014724 0.72200006 5347071
-0.058447625 0.2014724 0.72200006 4228604
-0.057072386 0.2014724 0.72200006 2920447
-0.055697147 0.2014724 0.72200006 5354751
-0.054321911 0.2014724 0.72200006 7189503
-0.052800003 0.20091429 0.72000003 7057919
-0.051428575 0.20091429 0.72000003 6927871
-0.050057143 0.20091429 0.72000003 8046335
-0.048685715 0.20091429 0.72000003 9030143
-0.047314286 0.20091429 0.72000003 9424895
-0.045942858 0.20091429 0.72000003 10473983
-0.044571429 0.20091429 0.72000003 11131903
-0.043200001 0.20091429 0.72000003 11393279
-0.041944765 0.2014724 0.72200006 10143218
-0.040569525 0.2014724 0.72200006 11257087
-0.03919429 0.2014724 0.72200006 12967679
-0.03781905 0.2014724 0.72200006 14014713
-0.036494289 0.20175144 0.72300005 12501474
-0.035117142 0.20175144 0.72300005 11513846
-0.033833336 0.20230952 0.72500002 12105983
-0.032452382 0.20230952 0.72500002 10337023
-0.031071428 0.20230952 0.72500002 9284343
-0.029690476 0.20230952 0.72500002 7910911
-0.028309524 0.20230952 0.72500002 9095167
-0.027040001 0.20314668 0.72800004 11456767
-0.025723809 0.20370476 0.73000002 11456767
-0.024333334 0.20370476 0.73000002 9813247
-0.022974286 0.2039838 0.73100001 6063055
-0.021670477 0.20482096 0.73400003 5147391
-0.02032762 0.20537905 0.73600006 4621055
-0.018977143 0.20593715 0.73800004 4223487
-0.017571429 0.20593715 0.73800004 1854952
-0.016231429 0.20677431 0.74100006 1527777
-0.014820001 0.20677431 0.74100006 5935871
-0.013408572 0.20677431 0.74100006 10398695
-0.075205714 0.20734286 0.73800004 3890873
-0.073399998 0.20621906 0.73400003 2246048
-0.072001912 0.20621906 0.73400003 1071321
-0.070507623 0.2059381 0.73300004 4492543
-0.068828575 0.20509525 0.73000002 5800956
-0.067253336 0.20453334 0.72800004 5077233
-0.065776192 0.20425239 0.72700006 3831295
-0.064391434 0.20425239 0.72700006 4686591
-0.063006669 0.20425239 0.72700006 6787839
-0.061282866 0.20312859 0.72300005 8301055
-0.059905719 0.20312859 0.72300005 7578111
-0.058447625 0.20284763 0.72200006 6657021
-0.057072386 0.20284763 0.72200006 5937151
-0.055697147 0.20284763 0.72200006 7581951
-0.054321911 0.20284763 0.72200006 8433663
-0.052800003 0.20228572 0.72000003 8631039
-0.051428575 0.20228572 0.72000003 8565247
-0.050196193 0.20284763 0.72200006 9552127
-0.048820958 0.20284763 0.72200006 10273791
-0.047314286 0.20228572 0.72000003 10602751
-0.045942858 0.20228572 0.72000003 11455231
-0.044695243 0.20284763 0.72200006 11718399
-0.043320004 0.20284763 0.72200006 11783421
-0.041944765 0.20284763 0.72200006 12243967
-0.040569525 0.20284763 0.72200006 13557503
-0.03919429 0.20284763 0.72200006 13754879
-0.037871432 0.20312859 0.72300005 13751801
-0.036494289 0.20312859 0.72300005 12238562
-0.035117142 0.20312859 0.72300005 11712247
-0.033833336 0.20369047 0.72500002 13028095
-0.032452382 0.20369047 0.72500002 12899327
-0.031071428 0.20369047 0.72500002 12636159
-0.029772382 0.20425239 0.72700006 12046335
-0.028387621 0.20425239 0.72700006 11980543
-0.027040001 0.20453334 0.72800004 11652095
-0.025723809 0.20509525 0.73000002 11454719
-0.024333334 0.20509525 0.73000002 9484799
-0.023037143 0.2059381 0.73300004 5076676
-0.021670477 0.20621906 0.73400003 4557311
-0.020382857 0.20734286 0.73800004 4886271
-0.018977143 0.20734286 0.73800004 4225023
-0.017595239 0.20762381 0.73900002 1593320
-0.016231429 0.20818573 0.74100006 1002990
-0.01484 0.20846668 0.74200004 5740031
-0.013426667 0.20846668 0.74200004 10332900
-0.076196194 0.20761715 0.73400003 7765923
-0.0747981 0.20761715 0.73400003 4350647
-0.073399998 0.20761715 0.73400003 2442650
-0.072001912 0.20761715 0.73400003 1398735
-0.070507623 0.20733429 0.73300004 4425213
-0.068828575 0.20648572 0.73000002 5735165
-0.067253336 0.20592001 0.72800004 4814063
-0.065866672 0.20592001 0.72800004 3831032
-0.064479999 0.20592001 0.72800004 6265343
-0.063006669 0.20563716 0.72700006 8692735
-0.061621908 0.20563716 0.72700006 9350655
-0.060071427 0.20507143 0.72500002 9021695
-0.058528576 0.20450573 0.72300005 8297983
-0.057151429 0.20450573 0.72300005 8036607
-0.05577429 0.20450573 0.72300005 8891903
-0.054321911 0.20422287 0.72200006 10400511
-0.052946672 0.20422287 0.72200006 10466303
-0.051571433 0.20422287 0.72200006 11517439
-0.050196193 0.20422287 0.72200006 11649023
-0.048820958 0.20422287 0.72200006 12437503
-0.047445718 0.20422287 0.72200006 12569087
-0.046070479 0.20422287 0.72200006 12766716
-0.044695243 0.20422287 0.72200006 12700923
-0.043320004 0.20422287 0.72200006 12569337
-0.041944765 0.20422287 0.72200006 13424639
-0.040569525 0.20422287 0.72200006 14344702
-0.039248575 0.20450573 0.72300005 13818358
-0.037871432 0.20450573 0.72300005 13159416
-0.036494289 0.20450573 0.72300005 12238314
-0.035117142 0.20450573 0.72300005 11843579
-0.033833336 0.20507143 0.72500002 13422591
-0.032541908 0.20563716 0.72700006 13687295
-0.031157147 0.20563716 0.72700006 13687295
-0.029772382 0.20563716 0.72700006 13884159
-0.028387621 0.20563716 0.72700006 13094645
-0.027114287 0.20648572 0.73000002 11977983
-0.025723809 0.20648572 0.73000002 11912191
-0.024366667 0.20676856 0.73100001 9287935
-0.023037143 0.20733429 0.73300004 5537742
-0.021670477 0.20761715 0.73400003 4686335
-0.020382857 0.20874858 0.73800004 4225791
-0.018977143 0.20874858 0.73800004 5143807
-0.017595239 0.20903143 0.73900002 2314717
-0.016231429 0.20959716 0.74100006 935146
-0.01484 0.20988001 0.74200004 5869567
-0.013426667 0.20988001 0.74200004 10003685
-0.075205714 0.21015429 0.73800004 4416445
-0.073800005 0.21015429 0.73800004 2574241
-0.0721981 0.20958479 0.73600006 1005528
-0.070507623 0.20873047 0.73300004 4031999
-0.068828575 0.20787619 0.73000002 5997308
-0.067253336 0.20730668 0.72800004 4747241
-0.065866672 0.20730668 0.72800004 5930489
-0.064479999 0.20730668 0.72800004 9220095
-0.063006669 0.20702192 0.72700006 10990328
-0.061621908 0.20702192 0.72700006 11450879
-0.060237147 0.20702192 0.72700006 11319551
-0.058690481 0.20645238 0.72500002 11187967
-0.057309527 0.20645238 0.72500002 11715071
-0.05577429 0.20588288 0.72300005 11912447
-0.054397147 0.20588288 0.72300005 12700669
-0.052946672 0.20559812 0.72200006 13029631
-0.051571433 0.20559812 0.72200006 13095677
-0.050196193 0.20559812 0.72200006 13095677
-0.048820958 0.20559812 0.72200006 13819128
-0.047445718 0.20559812 0.72200006 13884921
-0.046070479 0.20559812 0.72200006 13949940
-0.044695243 0.20559812 0.72200006 14015733
-0.043320004 0.20559812 0.72200006 14081526
-0.041944765 0.20559812 0.72200006 14278905
-0.040569525 0.20559812 0.72200006 14541561
-0.039248575 0.20588288 0.72300005 13488873
-0.037871432 0.20588288 0.72300005 12895738
-0.036494289 0.20588288 0.72300005 12237808
-0.035117142 0.20588288 0.72300005 12040953
-0.033833336 0.20645238 0.72500002 13619967
-0.032452382 0.20645238 0.72500002 13818367
-0.031157147 0.20702192 0.72700006 13555196
-0.029772382 0.20702192 0.72700006 13423610
-0.028387621 0.20702192 0.72700006 12634094
-0.027114287 0.20787619 0.73000002 11780350
-0.025759049 0.20816095 0.73100001 12043519
-0.024366667 0.20816095 0.73100001 10600703
-0.023068571 0.20901524 0.73400003 8824299
-0.021670477 0.20901524 0.73400003 7447039
-0.020382857 0.21015429 0.73800004 3960022
-0.019002859 0.21043906 0.73900002 3043837
-0.017595239 0.21043906 0.73900002 1201633
-0.016231429 0.21100859 0.74100006 1658619
-0.01484 0.21129335 0.74200004 6000895
-0.013426667 0.21129335 0.74200004 10135271
-0.077234283 0.21327999 0.74400002 7896226
-0.075205714 0.21156001 0.73800004 5664951
-0.073800005 0.21156001 0.73800004 3099024
-0.0721981 0.21098667 0.73600006 1070288
-0.07060381 0.21041334 0.73400003 4030973
-0.068922862 0.20955333 0.73100001 5800438
-0.067253336 0.20869334 0.72800004 4945129
-0.065866672 0.20869334 0.72800004 6981355
-0.064479999 0.20869334 0.72800004 9876223
-0.063093334 0.20869334 0.72800004 11645684
-0.061621908 0.20840667 0.72700006 12303614
-0.060237147 0.20840667 0.72700006 12303871
-0.058690481 0.20783333 0.72500002 12764415
-0.057309527 0.20783333 0.72500002 12830463
-0.055928573 0.20783333 0.72500002 13159423
-0.054547619 0.20783333 0.72500002 13291007
-0.053020004 0.20726001 0.72300005 13883135
-0.051642857 0.20726001 0.72300005 13687548
-0.050265718 0.20726001 0.72300005 13687548
-0.048820958 0.20697336 0.72200006 14015735
-0.047445718 0.20697336 0.72200006 14081528
-0.046070479 0.20697336 0.72200006 14147319
-0.044695243 0.20697336 0.72200006 14344698
-0.043320004 0.20697336 0.72200006 14476279
-0.041944765 0.20697336 0.72200006 14673658
-0.040569525 0.20697336 0.72200006 14804729
-0.039248575 0.20726001 0.72300005 12962525
-0.037871432 0.20726001 0.72300005 12894454
-0.036494289 0.20726001 0.72300005 12631282
-0.035117142 0.20726001 0.72300005 12237306
-0.033833336 0.20783333 0.72500002 13487359
-0.032452382 0.20783333 0.72500002 13489662
-0.031157147 0.20840667 0.72700006 13226490
-0.029772382 0.20840667 0.72700006 12897786
-0.028387621 0.20840667 0.72700006 12568821
-0.027114287 0.20926668 0.73000002 12567806
-0.025829526 0.21012667 0.73300004 12830975
-0.024433333 0.21012667 0.73300004 12438783
-0.023068571 0.21041334 0.73400003 11649273
-0.021729525 0.21098667 0.73600006 8497919
-0.020382857 0.21156001 0.73800004 4287179
-0.019002859 0.21184668 0.73900002 2058745
-0.017642858 0.21242002 0.74100006 742885
-0.016253335 0.21270667 0.74200004 1461490
-0.014880001 0.21327999 0.74400002 6001151
-0.013462857 0.21327999 0.74400002 10201064
-0.077234283 0.21469715 0.74400002 7501468
-0.075817145 0.21469715 0.74400002 4284852
-0.07410001 0.21383144 0.74100006 2705820
-0.072394282 0.21296573 0.73800004 1529560
-0.070796199 0.21238859 0.73600006 3898108
-0.069111429 0.21152286 0.73300004 6258157
-0.067253336 0.21008001 0.72800004 7771391
-0.065866672 0.21008001 0.72800004 9017062
-0.064479999 0.21008001 0.72800004 10332922
-0.063093334 0.21008001 0.72800004 11118568
-0.061621908 0.20979145 0.72700006 12237049
-0.060237147 0.20979145 0.72700006 12368639
-0.058852386 0.20979145 0.72700006 13618687
-0.057467621 0.20979145 0.72700006 13620223
-0.055928573 0.20921429 0.72500002 14014975
-0.054547619 0.20921429 0.72500002 14081276
-0.053020004 0.20863715 0.72300005 14673407
-0.051642857 0.20863715 0.72300005 14608124
-0.050265718 0.20863715 0.72300005 14739710
-0.048820958 0.20834859 0.72200006 14542583
-0.047445718 0.20834859 0.72200006 14476790
-0.046070479 0.20834859 0.72200006 14410997
-0.044695243 0.20834859 0.72200006 14476790
-0.043320004 0.20834859 0.72200006 14541557
-0.04200286 0.20863715 0.72300005 14738936
-0.040625714 0.20863715 0.72300005 14870265
-0.039248575 0.20863715 0.72300005 12830682
-0.037871432 0.20863715 0.72300005 11842550
-0.036494289 0.20863715 0.72300005 12039929
-0.035117142 0.20863715 0.72300005 11974136
-0.033833336 0.20921429 0.72500002 12500479
-0.032452382 0.20921429 0.72500002 12502265
-0.031157147 0.20979145 0.72700006 12765437
-0.029772382 0.20979145 0.72700006 13686518
-0.028426668 0.21008001 0.72800004 14015483
-0.027151428 0.21094571 0.73100001 13950203
-0.025829526 0.21152286 0.73300004 13884410
-0.024433333 0.21152286 0.73300004 13228031
-0.023068571 0.21181144 0.73400003 12570105
-0.021729525 0.21238859 0.73600006 10797823
-0.020382857 0.21296573 0.73800004 5271218
-0.019002859 0.21325429 0.73900002 2058491
-0.017642858 0.21383144 0.74100006 874217
-0.016253335 0.21412002 0.74200004 2839293
-0.014920001 0.21527429 0.74600005 6194687
-0.013499049 0.21527429 0.74600005 9543134
-0.077441908 0.21669525 0.74600005 7567261
-0.075817145 0.21611428 0.74400002 4743858
-0.07410001 0.21524288 0.74100006 3099033
-0.072394282 0.21437144 0.73800004 1660369
-0.070796199 0.21379049 0.73600006 3502573
-0.069111429 0.21291906 0.73300004 6650339
-0.067530476 0.21233809 0.73100001 9216255
-0.065866672 0.21146667 0.72800004 10593003
-0.064479999 0.21146667 0.72800004 10856175
-0.063093334 0.21146667 0.72800004 10854883
-0.061706673 0.21146667 0.72800004 12236536
-0.060237147 0.2111762 0.72700006 12237306
-0.058852386 0.2111762 0.72700006 13355775
-0.057467621 0.2111762 0.72700006 12963839
-0.05608286 0.2111762 0.72700006 13292799
-0.054547619 0.21059524 0.72500002 13425405
-0.053166665 0.21059524 0.72500002 14017535
-0.051785715 0.21059524 0.72500002 14279675
-0.050265718 0.2100143 0.72300005 14411261
-0.048888575 0.2100143 0.72300005 14477560
-0.047445718 0.20972383 0.72200006 14411767
-0.046070479 0.20972383 0.72200006 14476790
-0.044695243 0.20972383 0.72200006 14542583
-0.043320004 0.20972383 0.72200006 14607350
-0.041944765 0.20972383 0.72200006 14344178
-0.040625714 0.2100143 0.72300005 14080758
-0.039248575 0.2100143 0.72300005 12567519
-0.03797619 0.21059524 0.72500002 11908341
-0.03659524 0.21059524 0.72500002 12105720
-0.035214286 0.21059524 0.72500002 11842300
-0.033833336 0.21059524 0.72500002 12631807
-0.032541908 0.2111762 0.72700006 12568056
-0.031157147 0.2111762 0.72700006 13028607
-0.029813336 0.21146667 0.72800004 13949431
-0.028426668 0.21146667 0.72800004 14081017
-0.027151428 0.21233809 0.73100001 14213114
-0.025829526 0.21291906 0.73300004 13752563
-0.024466667 0.21320952 0.73400003 12702207
-0.023068571 0.21320952 0.73400003 12833791
-0.021729525 0.21379049 0.73600006 11126271
-0.020382857 0.21437144 0.73800004 6454974
-0.018977143 0.21437144 0.73800004 4154616
-0.017642858 0.21524288 0.74100006 2312412
-0.016253335 0.21553335 0.74200004 3691248
-0.014920001 0.21669525 0.74600005 5467647
-0.013499049 0.21669525 0.74600005 9080284
-0.078862861 0.21811621 0.74600005 9738430
-0.077441908 0.21811621 0.74600005 8159398
-0.075817145 0.21753143 0.74400002 4809663
-0.07410001 0.2166543 0.74100006 2967459
-0.072394282 0.21577714 0.73800004 1791703
-0.070796199 0.21519241 0.73600006 3436528
-0.069111429 0.21431524 0.73300004 6584285
-0.067530476 0.21373048 0.73100001 9413375
-0.066047616 0.21343809 0.73000002 10329833
-0.064479999 0.21285334 0.72800004 10987763
-0.063093334 0.21285334 0.72800004 11052773
-0.061706673 0.21285334 0.72800004 11579117
-0.060237147 0.21256097 0.72700006 11777259
-0.058852386 0.21256097 0.72700006 12040431
-0.057467621 0.21256097 0.72700006 11975167
-0.05608286 0.21256097 0.72700006 12172543
-0.054698102 0.21256097 0.72700006 11910653
-0.053166665 0.2119762 0.72500002 12634367
-0.051785715 0.2119762 0.72500002 13292022
-0.050265718 0.21139143 0.72300005 14147327
-0.048888575 0.21139143 0.72300005 14805753
-0.047445718 0.21109907 0.72200006 15003132
-0.046070479 0.21109907 0.72200006 14805753
-0.044695243 0.21109907 0.72200006 14805753
-0.043320004 0.21109907 0.72200006 14870522
-0.041944765 0.21109907 0.72200006 13949420
-0.040625714 0.21139143 0.72300005 13817073
-0.039248575 0.21139143 0.72300005 12501213
-0.03797619 0.2119762 0.72500002 12237812
-0.03659524 0.2119762 0.72500002 12895742
-0.035214286 0.2119762 0.72500002 13619955
-0.033926666 0.21256097 0.72700006 13948920
-0.032541908 0.21256097 0.72700006 14476025
-0.031157147 0.21256097 0.72700006 15002367
-0.029813336 0.21285334 0.72800004 14805501
-0.028426668 0.21285334 0.72800004 13818606
-0.027151428 0.21373048 0.73100001 12832507
-0.025864763 0.21460763 0.73400003 12832507
-0.024466667 0.21460763 0.73400003 12766973
-0.02313143 0.21519241 0.73600006 13227519
-0.021729525 0.21519241 0.73600006 12635903
-0.020382857 0.21577714 0.73800004 9280466
-0.018977143 0.21577714 0.73800004 4024829
-0.017642858 0.2166543 0.74100006 1985246
-0.016253335 0.21694668 0.74200004 2511088
-0.014920001 0.21811621 0.74600005 3826943
-0.013499049 0.21811621 0.74600005 8161758
-0.078862861 0.21953717 0.74600005 9607101
-0.077234283 0.21894857 0.74400002 8028069
-0.075613335 0.21836001 0.74200004 5466298
-0.07410001 0.21806574 0.74100006 3229336
-0.072492383 0.21747716 0.73900002 2314958
-0.070988573 0.21718286 0.73800004 3499232
-0.069205716 0.21600573 0.73400003 6780886
-0.067715243 0.21571143 0.73300004 9609983
-0.066138096 0.21512285 0.73100001 10198252
-0.064745717 0.21512285 0.73100001 10987768
-0.063266665 0.21482858 0.73000002 11118834
-0.061706673 0.21424001 0.72800004 11316213
-0.060320001 0.21424001 0.72800004 11053806
-0.058933336 0.21424001 0.72800004 11645943
-0.057546668 0.21424001 0.72800004 12040181
-0.05608286 0.21394573 0.72700006 12171767
-0.054698102 0.21394573 0.72700006 12237819
-0.053313337 0.21394573 0.72700006 12500991
-0.051785715 0.21335715 0.72500002 13224948
-0.050404765 0.21335715 0.72500002 14146047
-0.048888575 0.21276858 0.72300005 14608122
-0.047511432 0.21276858 0.72300005 14608122
-0.046134286 0.21276858 0.72300005 14674424
-0.044757146 0.21276858 0.72300005 14542838
-0.043380003 0.21276858 0.72300005 14738936
-0.042119049 0.21335715 0.72500002 13949420
-0.040738095 0.21335715 0.72500002 13290739
-0.039357144 0.21335715 0.72500002 12567016
-0.03797619 0.21335715 0.72500002 12369396
-0.036696192 0.21394573 0.72700006 13422079
-0.035311431 0.21394573 0.72700006 13883897
-0.033926666 0.21394573 0.72700006 14147069
-0.032586671 0.21424001 0.72800004 14410745
-0.031200001 0.21424001 0.72800004 14476538
-0.029895239 0.21482858 0.73000002 14542331
-0.028504763 0.21482858 0.73000002 13358057
-0.027225716 0.21571143 0.73300004 12635128
-0.025864763 0.21600573 0.73400003 13227263
-0.024466667 0.21600573 0.73400003 13687039
-0.02313143 0.21659429 0.73600006 13621246
-0.021729525 0.21659429 0.73600006 13226495
-0.020382857 0.21718286 0.73800004 9410505
-0.019002859 0.21747716 0.73900002 5008378
-0.017666668 0.21836001 0.74200004 2508244
-0.016253335 0.21836001 0.74200004 1264616
-0.014920001 0.21953717 0.74600005 2383097
-0.013499049 0.21953717 0.74600005 7636452
-0.012078096 0.21953717 0.74600005 11189247
-0.078862861 0.2209581 0.74600005 9541821
-0.077234283 0.22036572 0.74400002 7896996
-0.075613335 0.21977334 0.74200004 5335230
-0.07410001 0.21947716 0.74100006 2900889
-0.072492383 0.21888477 0.73900002 2970830
-0.07108476 0.21888477 0.73900002 3891932
-0.06939429 0.21799621 0.73600006 6583246
-0.067807622 0.21740381 0.73400003 9807103
-0.066319048 0.21710762 0.73300004 10592753
-0.064745717 0.21651524 0.73100001 11316476
-0.063266665 0.21621904 0.73000002 11776505
-0.061876193 0.21621904 0.73000002 11579126
-0.060320001 0.21562669 0.72800004 11448314
-0.058933336 0.21562669 0.72800004 11645693
-0.057546668 0.21562669 0.72800004 11843052
-0.05608286 0.21533048 0.72700006 11974638
-0.054698102 0.21533048 0.72700006 12172026
-0.053313337 0.21533048 0.72700006 12435198
-0.051928576 0.21533048 0.72700006 12698870
-0.050404765 0.2147381 0.72500002 12896249
-0.049023811 0.2147381 0.72500002 13094391
-0.047511432 0.21414572 0.72300005 13094391
-0.046134286 0.21414572 0.72300005 12963318
-0.044757146 0.21414572 0.72300005 13489662
-0.043380003 0.21414572 0.72300005 13883130
-0.042119049 0.2147381 0.72500002 13422579
-0.040738095 0.2147381 0.72500002 12896240
-0.039357144 0.2147381 0.72500002 13027826
-0.038080957 0.21533048 0.72700006 13752054
-0.036696192 0.21533048 0.72700006 14475775
-0.035311431 0.21533048 0.72700006 14607611
-0.033926666 0.21533048 0.72700006 14870783
-0.032586671 0.21562669 0.72800004 14541818
-0.031200001 0.21562669 0.72800004 13818095
-0.029895239 0.21621904 0.73000002 13292024
-0.028504763 0.21621904 0.73000002 12305129
-0.027225716 0.21710762 0.73300004 12370938
-0.025864763 0.21740381 0.73400003 14015743
-0.024533335 0.21799621 0.73600006 14212863
-0.02313143 0.21799621 0.73600006 13094384
-0.021729525 0.21799621 0.73600006 12634103
-0.020410476 0.21888477 0.73900002 8949695
-0.019054288 0.21947716 0.74100006 5730303
-0.017666668 0.21977334 0.74200004 3032798
-0.016297143 0.22036572 0.74400002 1395689
-0.014920001 0.2209581 0.74600005 1987826
-0.013499049 0.2209581 0.74600005 7242215
-0.012078096 0.2209581 0.74600005 11058175
-0.078651428 0.22178286 0.74400002 9607616
-0.077026673 0.22118668 0.74200004 8028584
-0.075511433 0.22088858 0.74100006 6254517
-0.07410001 0.22088858 0.74100006 3820176
-0.072492383 0.22029239 0.73900002 3363008
-0.07108476 0.22029239 0.73900002 4415696
-0.06939429 0.21939811 0.73600006 6581445
-0.067807622 0.2188019 0.73400003 9936888
-0.066319048 0.21850382 0.73300004 10396912
-0.064745717 0.21790762 0.73100001 11054842
-0.063266665 0.21760952 0.73000002 11710966
-0.061876193 0.21760952 0.73000002 11645173
-0.060320001 0.21701334 0.72800004 11974647
-0.058933336 0.21701334 0.72800004 12040440
-0.057546668 0.21701334 0.72800004 12106494
-0.056160003 0.21701334 0.72800004 12172287
-0.054773338 0.21701334 0.72800004 12368892
-0.053313337 0.21671526 0.72700006 12829439
-0.051928576 0.21671526 0.72700006 13093110
-0.050543811 0.21671526 0.72700006 13093110
-0.049023811 0.21611905 0.72500002 12962037
-0.047642857 0.21611905 0.72500002 12633072
-0.046261907 0.21611905 0.72500002 12567284
-0.044880953 0.21611905 0.72500002 13027835
-0.043500002 0.21611905 0.72500002 13685238
-0.042119049 0.21611905 0.72500002 13487859
-0.040738095 0.21611905 0.72500002 12567286
-0.039465718 0.21671526 0.72700006 13554175
-0.038080957 0.21671526 0.72700006 14081528
-0.036696192 0.21671526 0.72700006 14344700
-0.035311431 0.21671526 0.72700006 14279159
-0.033973332 0.21701334 0.72800004 14476538
-0.032586671 0.21701334 0.72800004 14673143
-0.031285714 0.21760952 0.73000002 13488869
-0.029895239 0.21760952 0.73000002 13225205
-0.028543809 0.21790762 0.73100001 12501482
-0.027262859 0.2188019 0.73400003 12568058
-0.025864763 0.2188019 0.73400003 13291775
-0.024533335 0.21939811 0.73600006 13423103
-0.02313143 0.21939811 0.73600006 12699381
-0.021788571 0.21999431 0.73800004 10531583
-0.020410476 0.22029239 0.73900002 8557799
-0.019054288 0.22088858 0.74100006 7570943
-0.017666668 0.22118668 0.74200004 3754952
-0.016297143 0.22178286 0.74400002 1461490
-0.014920001 0.22237906 0.74600005 1329904
-0.013499049 0.22237906 0.74600005 6453987
-0.012094286 0.22267714 0.74700004 10796287
-0.078651428 0.22319999 0.74400002 9738689
-0.077026673 0.22260001 0.74200004 8093864
-0.075511433 0.22230002 0.74100006 6188976
-0.07410001 0.22230002 0.74100006 4017807
-0.072492383 0.2217 0.73900002 4870848
-0.07108476 0.2217 0.73900002 5989329
-0.069582857 0.22140001 0.73800004 7038909
-0.067992389 0.22080003 0.73600006 9275871
-0.066409528 0.2202 0.73400003 11248346
-0.064922862 0.21990001 0.73300004 11643104
-0.063353337 0.2193 0.73100001 11972828
-0.061876193 0.21900001 0.73000002 12038621
-0.060485717 0.21900001 0.73000002 12106224
-0.058933336 0.2184 0.72800004 12237810
-0.057546668 0.2184 0.72800004 12303615
-0.056160003 0.2184 0.72800004 13027327
-0.054773338 0.2184 0.72800004 13357052
-0.053313337 0.21810001 0.72700006 14080767
-0.051928576 0.21810001 0.72700006 14344187
-0.050543811 0.21810001 0.72700006 14212601
-0.04915905 0.21810001 0.72700006 13818356
-0.047642857 0.2175 0.72500002 12041945
-0.046261907 0.2175 0.72500002 11909624
-0.044880953 0.2175 0.72500002 12633343
-0.043500002 0.2175 0.72500002 13159155
-0.04223524 0.21810001 0.72700006 13488120
-0.040850475 0.21810001 0.72700006 13751541
-0.039465718 0.21810001 0.72700006 14672639
-0.038080957 0.21810001 0.72700006 14870524
-0.036696192 0.21810001 0.72700006 14607352
-0.035360001 0.2184 0.72800004 14279159
-0.033973332 0.2184 0.72800004 14410745
-0.03267619 0.21900001 0.73000002 14541561
-0.031285714 0.21900001 0.73000002 13159908
-0.029895239 0.21900001 0.73000002 11975417
-0.028543809 0.2193 0.73100001 11712245
-0.027262859 0.2202 0.73400003 11909626
-0.02593524 0.22080003 0.73600006 12172798
-0.024533335 0.22080003 0.73600006 11910655
-0.023194287 0.22140001 0.73800004 11252725
-0.021788571 0.22140001 0.73800004 10662143
-0.020465717 0.22230002 0.74100006 9017321
-0.019054288 0.22230002 0.74100006 7309055
-0.017666668 0.22260001 0.74200004 3624647
-0.016297143 0.22319999 0.74400002 2118143
-0.014920001 0.22380002 0.74600005 1131248
-0.013499049 0.22380002 0.74600005 6060003
-0.012094286 0.22410001 0.74700004 10599679
-0.010671429 0.22410001 0.74700004 11385079
-0.078862861 0.22522096 0.74600005 9738437
-0.077026673 0.22401334 0.74200004 8027819
-0.075613335 0.22401334 0.74200004 6319540
-0.07410001 0.22371145 0.74100006 4214164
-0.072492383 0.22310762 0.73900002 5656756
-0.07108476 0.22310762 0.73900002 6906823
-0.069582857 0.22280572 0.73800004 7824571
-0.067992389 0.22220191 0.73600006 9732568
-0.066409528 0.2215981 0.73400003 10128845
-0.064922862 0.22129619 0.73300004 11181533
-0.063353337 0.22069238 0.73100001 11116762
-0.061876193 0.22039048 0.73000002 11577313
-0.060485717 0.22039048 0.73000002 11316197
-0.058933336 0.21978667 0.72800004 11316197
-0.057546668 0.21978667 0.72800004 11646202
-0.056160003 0.21978667 0.72800004 12764671
-0.054773338 0.21978667 0.72800004 12964093
-0.053313337 0.21948478 0.72700006 14016767
-0.051928576 0.21948478 0.72700006 14411774
-0.050543811 0.21948478 0.72700006 14280188
-0.04915905 0.21948478 0.72700006 13885178
-0.047774293 0.21948478 0.72700006 12240353
-0.046389528 0.21948478 0.72700006 11318264
-0.045004766 0.21948478 0.72700006 12436735
-0.043620002 0.21948478 0.72700006 13290741
-0.04223524 0.21948478 0.72700006 13619706
-0.040850475 0.21948478 0.72700006 14211317
-0.039465718 0.21948478 0.72700006 14737661
-0.038080957 0.21948478 0.72700006 14476536
-0.03674667 0.21978667 0.72800004 14213364
-0.035360001 0.21978667 0.72800004 14147319
-0.033973332 0.21978667 0.72800004 14278905
-0.03267619 0.22039048 0.73000002 14409464
-0.031285714 0.22039048 0.73000002 12633053
-0.029936191 0.22069238 0.73100001 12105972
-0.028621906 0.22129619 0.73300004 12171765
-0.027262859 0.2215981 0.73400003 12237567
-0.02593524 0.22220191 0.73600006 12434943
-0.024533335 0.22220191 0.73600006 12041983
-0.023194287 0.22280572 0.73800004 11252473
-0.021818096 0.22310762 0.73900002 10531327
-0.020465717 0.22371145 0.74100006 9412854
-0.01908 0.22401334 0.74200004 7112703
-0.017666668 0.22401334 0.74200004 3296713
-0.016340952 0.22522096 0.74600005 1986815
-0.014920001 0.22522096 0.74600005 1065714
-0.013499049 0.22522096 0.74600005 5731817
-0.012094286 0.22552286 0.74700004 10534655
-0.010671429 0.22552286 0.74700004 11320058
-0.078862861 0.22664192 0.74600005 9738696
-0.077026673 0.22542667 0.74200004 7830699
-0.075613335 0.22542667 0.74200004 5990589
-0.07410001 0.22512287 0.74100006 4016799
-0.07268858 0.22512287 0.74100006 5197491
-0.07108476 0.22451524 0.73900002 6184386
-0.069582857 0.22421144 0.73800004 7625913
-0.067992389 0.22360383 0.73600006 8283843
-0.066409528 0.22299621 0.73400003 9467035
-0.064922862 0.22269239 0.73300004 10124965
-0.063353337 0.22208476 0.73100001 10257860
-0.06196095 0.22208476 0.73100001 10915790
-0.060485717 0.22178096 0.73000002 10721741
-0.059095241 0.22178096 0.73000002 11116499
-0.057546668 0.22117335 0.72800004 10659057
-0.056160003 0.22117335 0.72800004 12632831
-0.054773338 0.22117335 0.72800004 13029887
-0.05338667 0.22117335 0.72800004 14016767
-0.051928576 0.22086954 0.72700006 14476797
-0.050543811 0.22086954 0.72700006 14674175
-0.04915905 0.22086954 0.72700006 14279416
-0.047774293 0.22086954 0.72700006 14082037
-0.046389528 0.22086954 0.72700006 13949944
-0.045004766 0.22086954 0.72700006 13818358
-0.043620002 0.22086954 0.72700006 14212342
-0.04223524 0.22086954 0.72700006 14607100
-0.040850475 0.22086954 0.72700006 14278389
-0.039465718 0.22086954 0.72700006 13423080
-0.038133334 0.22117335 0.72800004 12700146
-0.03674667 0.22117335 0.72800004 12831732
-0.035360001 0.22117335 0.72800004 13094902
-0.034066666 0.22178096 0.73000002 13160695
-0.03267619 0.22178096 0.73000002 12699385
-0.031285714 0.22178096 0.73000002 11580904
-0.029936191 0.22208476 0.73100001 11645680
-0.028621906 0.22269239 0.73300004 12303610
-0.027262859 0.22299621 0.73400003 12040447
-0.02593524 0.22360383 0.73600006 11843071
-0.024600001 0.22421144 0.73800004 11318527
-0.023194287 0.22421144 0.73800004 11450111
-0.021818096 0.22451524 0.73900002 11714047
-0.020465717 0.22512287 0.74100006 10135023
-0.01908 0.22542667 0.74200004 7309055
-0.017714286 0.22603428 0.74400002 3427275
-0.016340952 0.22664192 0.74600005 1987839
-0.014920001 0.22664192 0.74600005 869362
-0.013517143 0.22694573 0.74700004 4943083
-0.012094286 0.22694573 0.74700004 10338047
-0.010671429 0.22694573 0.74700004 11451385
-0.078862861 0.22806287 0.74600005 9804491
-0.077026673 0.22684 0.74200004 7830701
-0.075613335 0.22684 0.74200004 6055612
-0.07410001 0.22653431 0.74100006 4081822
-0.07268858 0.22653431 0.74100006 5065628
-0.07108476 0.22592287 0.73900002 6447281
-0.069582857 0.22561716 0.73800004 7822002
-0.067992389 0.22500572 0.73600006 8677311
-0.066409528 0.22439429 0.73400003 9134759
-0.065011427 0.22439429 0.73400003 9068966
-0.063526668 0.22408858 0.73300004 9727412
-0.06196095 0.22347714 0.73100001 10385342
-0.060485717 0.22317143 0.73000002 10586321
-0.059095241 0.22317143 0.73000002 10323149
-0.057546668 0.22256002 0.72800004 11248087
-0.056160003 0.22256002 0.72800004 13485049
-0.054773338 0.22256002 0.72800004 13160703
-0.05338667 0.22256002 0.72800004 13950207
-0.052000001 0.22256002 0.72800004 14345211
-0.050543811 0.22225431 0.72700006 14279418
-0.04915905 0.22225431 0.72700006 14279159
-0.047774293 0.22225431 0.72700006 14344952
-0.046389528 0.22225431 0.72700006 14542329
-0.045004766 0.22225431 0.72700006 14410743
-0.043620002 0.22225431 0.72700006 14147832
-0.04223524 0.22225431 0.72700006 14279418
-0.040906668 0.22256002 0.72800004 14016248
-0.039520003 0.22256002 0.72800004 13226732
-0.038133334 0.22256002 0.72800004 12173300
-0.03674667 0.22256002 0.72800004 12962815
-0.035360001 0.22256002 0.72800004 13357302
-0.034066666 0.22317143 0.73000002 13357302
-0.03267619 0.22317143 0.73000002 12370427
-0.03132857 0.22347714 0.73100001 11580911
-0.029936191 0.22347714 0.73100001 11382258
-0.028621906 0.22408858 0.73300004 11908602
-0.027337145 0.22500572 0.73600006 11842815
-0.02593524 0.22500572 0.73600006 11448062
-0.024600001 0.22561716 0.73800004 10857983
-0.023225715 0.22592287 0.73900002 11779071
-0.021877145 0.22653431 0.74100006 12109055
-0.020465717 0.22653431 0.74100006 10201064
-0.01908 0.22684 0.74200004 7243519
-0.017714286 0.22745143 0.74400002 3230150
-0.016340952 0.22806287 0.74600005 1856767
-0.014920001 0.22806287 0.74600005 1001459
-0.013517143 0.22836858 0.74700004 3957741
-0.012126666 0.22898 0.74900001 9681663
-0.010714287 0.22928573 0.75000006 11582458
-0.074200004 0.22825335 0.74200004 2900119
-0.07268858 0.22794573 0.74100006 4017305
-0.071277149 0.22794573 0.74100006 6122681
-0.069582857 0.22702286 0.73800004 7824309
-0.067992389 0.22640765 0.73600006 8482239
-0.066409528 0.22579239 0.73400003 9135284
-0.065011427 0.22579239 0.73400003 8806319
-0.063526668 0.22548477 0.73300004 8805567
-0.062130481 0.22548477 0.73300004 10187220
-0.060568571 0.22486953 0.73100001 10256347
-0.059095241 0.22456191 0.73000002 9335245
-0.057704762 0.22456191 0.73000002 8812501
-0.056160003 0.22394668 0.72800004 13549567
-0.054773338 0.22394668 0.72800004 13751807
-0.05338667 0.22394668 0.72800004 14278143
-0.052000001 0.22394668 0.72800004 14608124
-0.050543811 0.22363906 0.72700006 14542331
-0.04915905 0.22363906 0.72700006 14476538
-0.047774293 0.22363906 0.72700006 14542331
-0.046389528 0.22363906 0.72700006 14607865
-0.045004766 0.22363906 0.72700006 14739451
-0.043680001 0.22394668 0.72800004 14542329
-0.042293333 0.22394668 0.72800004 14805501
-0.040906668 0.22394668 0.72800004 14345720
-0.039520003 0.22394668 0.72800004 13950962
-0.038133334 0.22394668 0.72800004 14016246
-0.03674667 0.22394668 0.72800004 14082039
-0.035457142 0.22456191 0.73000002 14213623
-0.034066666 0.22456191 0.73000002 13884658
-0.03267619 0.22456191 0.73000002 12700923
-0.03132857 0.22486953 0.73100001 11911407
-0.029936191 0.22486953 0.73100001 11449599
-0.028621906 0.22548477 0.73300004 11581183
-0.027337145 0.22640765 0.73600006 11384319
-0.026005715 0.22702286 0.73800004 10792190
-0.024633335 0.22733048 0.73900002 10727679
-0.023288572 0.22794573 0.74100006 11977727
-0.021877145 0.22794573 0.74100006 12239359
-0.020493334 0.22825335 0.74200004 10397162
-0.01908 0.22825335 0.74200004 7375359
-0.017714286 0.22886857 0.74400002 3296195
-0.016362859 0.22979143 0.74700004 1070334
-0.014940001 0.22979143 0.74700004 543990
-0.013517143 0.22979143 0.74700004 3235313
-0.012126666 0.23040667 0.74900001 9090815
-0.010714287 0.23071429 0.75000006 11582458
-0.072786666 0.22966668 0.74200004 3690623
-0.071277149 0.22935715 0.74100006 5861792
-0.069677144 0.2287381 0.73900002 7891872
-0.068177149 0.22842857 0.73800004 8484009
-0.066590481 0.22780953 0.73600006 9267124
-0.065011427 0.22719048 0.73400003 9003952
-0.063526668 0.22688095 0.73300004 8938164
-0.062130481 0.22688095 0.73300004 10517196
-0.060568571 0.2262619 0.73100001 10518738
-0.059095241 0.22595237 0.73000002 9729222
-0.057704762 0.22595237 0.73000002 9402569
-0.056160003 0.22533335 0.72800004 14008063
-0.054773338 0.22533335 0.72800004 13751807
-0.05338667 0.22533335 0.72800004 14014975
-0.052000001 0.22533335 0.72800004 13884410
-0.050543811 0.22502384 0.72700006 13884410
-0.04915905 0.22502384 0.72700006 14081528
-0.047774293 0.22502384 0.72700006 14015735
-0.046389528 0.22502384 0.72700006 13818358
-0.04506667 0.22533335 0.72800004 14015737
-0.043680001 0.22533335 0.72800004 13951223
-0.042293333 0.22533335 0.72800004 14543359
-0.040906668 0.22533335 0.72800004 14544378
-0.039520003 0.22533335 0.72800004 14346999
-0.038133334 0.22533335 0.72800004 14149370
-0.036847621 0.22595237 0.73000002 14149370
-0.035457142 0.22595237 0.73000002 14345979
-0.034066666 0.22595237 0.73000002 14280186
-0.03267619 0.22595237 0.73000002 13227774
-0.03132857 0.2262619 0.73100001 12109293
-0.030018097 0.22688095 0.73300004 12370429
-0.028660953 0.22719048 0.73400003 12370429
-0.027337145 0.22780953 0.73600006 11189503
-0.026005715 0.22842857 0.73800004 10202615
-0.024633335 0.2287381 0.73900002 10596607
-0.023288572 0.22935715 0.74100006 11978239
-0.021877145 0.22935715 0.74100006 12501503
-0.020493334 0.22966668 0.74200004 10396133
-0.01908 0.22966668 0.74200004 7506173
-0.017714286 0.23028572 0.74400002 3361214
-0.016362859 0.23121428 0.74700004 1726461
-0.014940001 0.23121428 0.74700004 1134324
-0.013517143 0.23121428 0.74700004 3628285
-0.012126666 0.23183334 0.74900001 9089023
-0.077441908 0.23232573 0.74600005 7831210
-0.076020956 0.23232573 0.74600005 5401536
-0.074200004 0.23108001 0.74200004 3888297
-0.072786666 0.23108001 0.74200004 3695486
-0.071277149 0.23076859 0.74100006 5208725
-0.069677144 0.23014571 0.73900002 7632785
-0.068177149 0.22983429 0.73800004 8619680
-0.066590481 0.22921145 0.73600006 9599930
-0.065011427 0.22858858 0.73400003 9270965
-0.063526668 0.22827715 0.73300004 9532095
-0.062130481 0.22827715 0.73300004 10584783
-0.060734287 0.22827715 0.73300004 10191045
-0.059176192 0.22765428 0.73100001 9796287
-0.057704762 0.22734286 0.73000002 9928931
-0.056160003 0.22672001 0.72800004 12626431
-0.054773338 0.22672001 0.72800004 12566253
-0.05338667 0.22672001 0.72800004 12697839
-0.052000001 0.22672001 0.72800004 12173055
-0.050543811 0.22640859 0.72700006 11909883
-0.04915905 0.22640859 0.72700006 11713276
-0.047774293 0.22640859 0.72700006 11515897
-0.046389528 0.22640859 0.72700006 11318766
-0.045004766 0.22640859 0.72700006 11713524
-0.043680001 0.22672001 0.72800004 12963575
-0.042293333 0.22672001 0.72800004 14345215
-0.040906668 0.22672001 0.72800004 14937850
-0.039520003 0.22672001 0.72800004 14872057
-0.038133334 0.22672001 0.72800004 14806521
-0.036847621 0.22734286 0.73000002 14872314
-0.035505716 0.22765428 0.73100001 14543101
-0.034113333 0.22765428 0.73100001 14543101
-0.03272095 0.22765428 0.73100001 13556479
-0.03132857 0.22765428 0.73100001 12569585
-0.030018097 0.22827715 0.73300004 11845887
-0.028660953 0.22858858 0.73400003 12043263
-0.027337145 0.22921145 0.73600006 12043263
-0.026005715 0.22983429 0.73800004 11911679
-0.024633335 0.23014571 0.73900002 12042495
-0.023288572 0.23076859 0.74100006 12634623
-0.021877145 0.23076859 0.74100006 12633343
-0.020493334 0.23108001 0.74200004 10133215
-0.019131429 0.23170286 0.74400002 6783992
-0.017761907 0.23232573 0.74600005 3099584
-0.016362859 0.23263715 0.74700004 1137663
-0.014940001 0.23263715 0.74700004 1663999
-0.013517143 0.23263715 0.74700004 4549119
-0.012142858 0.23357144 0.75000006 8891391
-0.077441908 0.23374668 0.74600005 7699367
-0.076020956 0.23374668 0.74600005 4810426
-0.074200004 0.23249334 0.74200004 4349875
-0.072786666 0.23249334 0.74200004 5011327
-0.071277149 0.23218001 0.74100006 5932429
-0.069677144 0.23155335 0.73900002 7373452
