# .PCD v0.7 - Point Cloud Data file format
VERSION 0.7
FIELDS x y z rgba
SIZE 4 4 4 4
TYPE F F F U
COUNT 1 1 1 1
WIDTH 1076
HEIGHT 1
VIEWPOINT 0 0 0 1 0 0 0
POINTS 1076
DATA ascii
-0.026037144 0.04339524 0.70100003 13870162
-0.024666667 0.043333337 0.70000005 13804369
-0.023333335 0.043333337 0.70000005 13870668
-0.022000002 0.043333337 0.70000005 13870668
-0.020666666 0.043333337 0.70000005 13870152
-0.019333335 0.043333337 0.70000005 13804359
-0.018000001 0.043333337 0.70000005 13672766
-0.016690478 0.04339524 0.70100003 13738559
-0.015355239 0.04339524 0.70100003 13606994
-0.014020001 0.04339524 0.70100003 13475408
-0.012666668 0.043333337 0.70000005 13278538
-0.011333333 0.043333337 0.70000005 13541710
-0.010000001 0.043333337 0.70000005 13608025
-0.0086666672 0.043333337 0.70000005 13805404
-0.0073333341 0.043333337 0.70000005 11767143
-0.10615143 0.044730477 0.70100003 11439226
-0.10466667 0.044666667 0.70000005 11899777
-0.10333334 0.044666667 0.70000005 13015134
-0.10200001 0.044666667 0.70000005 13870443
-0.10066667 0.044666667 0.70000005 13869895
-0.099333346 0.044666667 0.70000005 13672516
-0.098000005 0.044666667 0.70000005 13671763
-0.096666671 0.044666667 0.70000005 13671763
-0.095333338 0.044666667 0.70000005 13605720
-0.094000004 0.044666667 0.70000005 13605720
-0.092799053 0.044730477 0.70100003 13737817
-0.091463812 0.044730477 0.70100003 13737817
-0.090128571 0.044730477 0.70100003 13672524
-0.088793337 0.044730477 0.70100003 13475145
-0.087458096 0.044730477 0.70100003 13540655
-0.086122856 0.044730477 0.70100003 13803827
-0.084666677 0.044666667 0.70000005 13540403
-0.083333343 0.044666667 0.70000005 13343024
-0.082351431 0.044858098 0.70300001 13540165
-0.081012383 0.044858098 0.70300001 13671751
-0.079446673 0.044730477 0.70100003 13606975
-0.078111432 0.044730477 0.70100003 13738561
-0.076776192 0.044730477 0.70100003 13475905
-0.075440958 0.044730477 0.70100003 13212733
-0.074105717 0.044730477 0.70100003 13278018
-0.072978094 0.044858098 0.70300001 12883260
-0.071639046 0.044858098 0.70300001 12096530
-0.070299998 0.044858098 0.70300001 12886046
-0.068960957 0.044858098 0.70300001 13284771
-0.067621902 0.044858098 0.70300001 16775912
-0.066282853 0.044858098 0.70300001 16711422
-0.064943813 0.044858098 0.70300001 16711422
-0.063604765 0.044858098 0.70300001 16645629
-0.062354293 0.044921909 0.70400006 16514043
-0.059453338 0.043773334 0.68600005 16514043
-0.05814667 0.043773334 0.68600005 16514043
-0.056840003 0.043773334 0.68600005 16514043
-0.055533338 0.043773334 0.68600005 16514043
-0.05422667 0.043773334 0.68600005 16514043
-0.052920006 0.043773334 0.68600005 16514043
-0.051613338 0.043773334 0.68600005 16514043
-0.050306667 0.043773334 0.68600005 16514043
-0.048857145 0.043645717 0.68400002 16514043
-0.047554284 0.043645717 0.68400002 16514043
-0.046251431 0.043645717 0.68400002 16711422
-0.045868572 0.044539049 0.69800001 16711422
-0.044539049 0.044539049 0.69800001 16645118
-0.043209527 0.044539049 0.69800001 13618640
-0.04188 0.044539049 0.69800001 13807453
-0.04066667 0.044666667 0.70000005 13149523
-0.039333336 0.044666667 0.70000005 14067277
-0.038000003 0.044666667 0.70000005 14396242
-0.036666669 0.044666667 0.70000005 14133070
-0.035333335 0.044666667 0.70000005 13935691
-0.034048576 0.044730477 0.70100003 13935945
-0.032713335 0.044730477 0.70100003 14001738
-0.031378098 0.044730477 0.70100003 14001750
-0.030000001 0.044666667 0.70000005 14067543
-0.028666668 0.044666667 0.70000005 14133075
-0.027333336 0.044666667 0.70000005 14133075
-0.026000001 0.044666667 0.70000005 14133075
-0.024666667 0.044666667 0.70000005 14133075
-0.023333335 0.044666667 0.70000005 14067272
-0.022000002 0.044666667 0.70000005 14001479
-0.020666666 0.044666667 0.70000005 14001743
-0.019333335 0.044666667 0.70000005 13870157
-0.018000001 0.044666667 0.70000005 13804100
-0.016666668 0.044666667 0.70000005 13738307
-0.015289525 0.044539049 0.69800001 13541441
-0.01396 0.044539049 0.69800001 13541441
-0.012630476 0.044539049 0.69800001 13344070
-0.011300952 0.044539049 0.69800001 13212484
-0.0099714287 0.044539049 0.69800001 13278769
-0.0086419052 0.044539049 0.69800001 13147183
-0.0073333341 0.044666667 0.70000005 11963491
-0.10600001 0.046000004 0.70000005 11372653
-0.10436761 0.045868572 0.69800001 12030583
-0.10303809 0.045868572 0.69800001 12554324
-0.10170857 0.045868572 0.69800001 13014875
-0.10037905 0.045868572 0.69800001 13080130
-0.099333346 0.046000004 0.70000005 13145923
-0.098000005 0.046000004 0.70000005 13276489
-0.096666671 0.046000004 0.70000005 13342282
-0.095333338 0.046000004 0.70000005 13474132
-0.094000004 0.046000004 0.70000005 13408339
-0.092666671 0.046000004 0.70000005 13606742
-0.091333345 0.046000004 0.70000005 13475156
-0.090000004 0.046000004 0.70000005 13606735
-0.08866667 0.046000004 0.70000005 13409356
-0.087333336 0.046000004 0.70000005 13540144
-0.086000003 0.046000004 0.70000005 13605937
-0.084424764 0.045868572 0.69800001 13540155
-0.083095238 0.045868572 0.69800001 13474362
-0.082000002 0.046000004 0.70000005 13474118
-0.080666669 0.046000004 0.70000005 13605704
-0.079333335 0.046000004 0.70000005 13540679
-0.078000009 0.046000004 0.70000005 13606472
-0.076666676 0.046000004 0.70000005 13541192
-0.075333342 0.046000004 0.70000005 13606985
-0.074000001 0.046000004 0.70000005 13606733
-0.072666667 0.046000004 0.70000005 12817217
-0.071435243 0.046065718 0.70100003 11898881
-0.070100002 0.046065718 0.70100003 15320117
-0.068960957 0.046197142 0.70300001 14735565
-0.067621902 0.046197142 0.70300001 16776690
-0.066282853 0.046197142 0.70300001 16711422
-0.064943813 0.046197142 0.70300001 16645629
-0.063604765 0.046197142 0.70300001 16514043
-0.060760003 0.045080002 0.68600005 16514043
-0.059280004 0.04494857 0.68400002 16514043
-0.05797714 0.04494857 0.68400002 16514043
-0.056840003 0.045080002 0.68600005 16514043
-0.055533338 0.045080002 0.68600005 16514043
-0.054068573 0.04494857 0.68400002 16514043
-0.052765712 0.04494857 0.68400002 16514043
-0.051462859 0.04494857 0.68400002 16514043
-0.050159998 0.04494857 0.68400002 16514043
-0.048857145 0.04494857 0.68400002 16514043
-0.047554284 0.04494857 0.68400002 16514043
-0.046251431 0.04494857 0.68400002 16514043
-0.04494857 0.04494857 0.68400002 16711422
-0.044539049 0.045868572 0.69800001 16711422
-0.043209527 0.045868572 0.69800001 16250871
-0.04188 0.045868572 0.69800001 14731472
-0.040550474 0.045868572 0.69800001 11968166
-0.039333336 0.046000004 0.70000005 13672000
-0.037891429 0.045868572 0.69800001 14461516
-0.036561903 0.045868572 0.69800001 14134099
-0.03523238 0.045868572 0.69800001 13936720
-0.034048576 0.046065718 0.70100003 13871178
-0.032713335 0.046065718 0.70100003 13936971
-0.031333335 0.046000004 0.70000005 14002513
-0.029914286 0.045868572 0.69800001 14002513
-0.028584762 0.045868572 0.69800001 14067795
-0.027333336 0.046000004 0.70000005 14002002
-0.025925715 0.045868572 0.69800001 14133067
-0.02459619 0.045868572 0.69800001 14198860
-0.023266668 0.045868572 0.69800001 14132551
-0.021937143 0.045868572 0.69800001 14066758
-0.020607619 0.045868572 0.69800001 13869653
-0.019278096 0.045868572 0.69800001 13803860
-0.017948572 0.045868572 0.69800001 13540928
-0.016619049 0.045868572 0.69800001 13475135
-0.015289525 0.045868572 0.69800001 13277492
-0.013940001 0.045802858 0.69700003 13277492
-0.012612381 0.045802858 0.69700003 13211449
-0.011284763 0.045802858 0.69700003 13540414
-0.0099571431 0.045802858 0.69700003 13344053
-0.0086295241 0.045802858 0.69700003 13080881
-0.10600001 0.047333337 0.70000005 11306862
-0.1042181 0.04713048 0.69700003 12162171
-0.10289048 0.04713048 0.69700003 12818266
-0.10170857 0.047198098 0.69800001 12949852
-0.10037905 0.047198098 0.69800001 13015114
-0.099049523 0.047198098 0.69800001 13015114
-0.097720005 0.047198098 0.69800001 13145428
-0.096390471 0.047198098 0.69800001 13211221
-0.095060952 0.047198098 0.69800001 13211475
-0.093731426 0.047198098 0.69800001 13343061
-0.092666671 0.047333337 0.70000005 13475156
-0.091333345 0.047333337 0.70000005 13475156
-0.089742862 0.047198098 0.69800001 13408339
-0.088413335 0.047198098 0.69800001 13276753
-0.087083809 0.047198098 0.69800001 13473859
-0.085754283 0.047198098 0.69800001 13737031
-0.084424764 0.047198098 0.69800001 13671763
-0.083095238 0.047198098 0.69800001 13737556
-0.081765719 0.047198098 0.69800001 13803862
-0.080436192 0.047198098 0.69800001 13869655
-0.079106666 0.047198098 0.69800001 13869655
-0.07777714 0.047198098 0.69800001 13869655
-0.076447621 0.047198098 0.69800001 13869907
-0.075118095 0.047198098 0.69800001 13935700
-0.073788576 0.047198098 0.69800001 13738585
-0.07245905 0.047198098 0.69800001 12554311
-0.071129531 0.047198098 0.69800001 12228948
-0.069799997 0.047198098 0.69800001 16776118
-0.068470478 0.047198098 0.69800001 16711422
-0.065794282 0.046251431 0.68400002 16711422
-0.064491428 0.046251431 0.68400002 16645629
-0.063096188 0.046183813 0.68300003 16514043
-0.061795238 0.046183813 0.68300003 16514043
-0.060494285 0.046183813 0.68300003 16514043
-0.059193335 0.046183813 0.68300003 16514043
-0.057892382 0.046183813 0.68300003 16514043
-0.056674287 0.046251431 0.68400002 16514043
-0.055371426 0.046251431 0.68400002 16514043
-0.054068573 0.046251431 0.68400002 16514043
-0.052765712 0.046251431 0.68400002 16514043
-0.051462859 0.046251431 0.68400002 16514043
-0.050159998 0.046251431 0.68400002 16514043
-0.048857145 0.046251431 0.68400002 16514043
-0.047554284 0.046251431 0.68400002 16514043
-0.046183813 0.046183813 0.68300003 16514043
-0.04488286 0.046183813 0.68300003 16579836
-0.043581907 0.046183813 0.68300003 16711422
-0.04314762 0.04713048 0.69700003 16711422
-0.041820001 0.04713048 0.69700003 16711422
-0.040492382 0.04713048 0.69700003 10855845
-0.039164763 0.04713048 0.69700003 12684331
-0.037837144 0.04713048 0.69700003 14197570
-0.036509525 0.04713048 0.69700003 13803601
-0.035181906 0.04713048 0.69700003 13737808
-0.033854287 0.04713048 0.69700003 13935424
-0.032573331 0.047198098 0.69800001 14001217
-0.031199049 0.04713048 0.69700003 13935422
-0.02987143 0.04713048 0.69700003 13869629
-0.028543809 0.04713048 0.69700003 13606472
-0.027255237 0.047198098 0.69800001 13409093
-0.025925715 0.047198098 0.69800001 13671208
-0.02459619 0.047198098 0.69800001 13868587
-0.023266668 0.047198098 0.69800001 13670967
-0.021937143 0.047198098 0.69800001 13736760
-0.020607619 0.047198098 0.69800001 13276230
-0.019278096 0.047198098 0.69800001 13144644
-0.017922858 0.04713048 0.69700003 13407529
-0.016595239 0.04713048 0.69700003 13407529
-0.015245715 0.047062859 0.69600004 13472827
-0.01388 0.04692762 0.69400001 13538620
-0.012558095 0.04692762 0.69400001 13540144
-0.011268572 0.047062859 0.69600004 13737523
-0.0099142855 0.04692762 0.69400001 13475121
-0.0085923811 0.04692762 0.69400001 13146156
-0.0072704758 0.04692762 0.69400001 12094307
-0.10600001 0.048666667 0.70000005 11174506
-0.10406857 0.048388574 0.69600004 12885124
-0.10274286 0.048388574 0.69600004 13082715
-0.10141715 0.048388574 0.69600004 12951129
-0.10009144 0.048388574 0.69600004 13016138
-0.09890762 0.048458096 0.69700003 13016138
-0.097580008 0.048458096 0.69700003 13015386
-0.096252382 0.048458096 0.69700003 12949593
-0.094924763 0.048458096 0.69700003 13277007
-0.093597144 0.048458096 0.69700003 13277007
-0.092401907 0.048527621 0.69800001 13277007
-0.091072381 0.048527621 0.69800001 13342800
-0.089614287 0.048458096 0.69700003 13275976
-0.088286668 0.048458096 0.69700003 13539148
-0.086959057 0.048458096 0.69700003 13540179
-0.08563143 0.048458096 0.69700003 13671765
-0.084303811 0.048458096 0.69700003 13672276
-0.082976192 0.048458096 0.69700003 13672276
-0.081648573 0.048458096 0.69700003 13935446
-0.080320954 0.048458096 0.69700003 13935446
-0.078993335 0.048458096 0.69700003 13935189
-0.077665716 0.048458096 0.69700003 13935189
-0.076338097 0.048458096 0.69700003 13804112
-0.075010478 0.048458096 0.69700003 13804112
-0.07368286 0.048458096 0.69700003 13475658
-0.072355241 0.048458096 0.69700003 12554556
-0.071027622 0.048458096 0.69700003 12623507
-0.069600001 0.048388574 0.69600004 16774634
-0.067293338 0.047693335 0.68600005 16711422
-0.065794282 0.047554284 0.68400002 16645629
-0.064397149 0.047484763 0.68300003 16514043
-0.063096188 0.047484763 0.68300003 16514043
-0.061704762 0.047415242 0.68200004 16514043
-0.060405716 0.047415242 0.68200004 16514043
-0.05910667 0.047415242 0.68200004 16514043
-0.057807621 0.047415242 0.68200004 16514043
-0.056674287 0.047554284 0.68400002 16514043
-0.055371426 0.047554284 0.68400002 16514043
-0.054068573 0.047554284 0.68400002 16514043
-0.052688573 0.047484763 0.68300003 16514043
-0.051387619 0.047484763 0.68300003 16514043
-0.05008667 0.047484763 0.68300003 16514043
-0.048785716 0.047484763 0.68300003 16514043
-0.047484763 0.047484763 0.68300003 16514043
-0.046116196 0.047415242 0.68200004 16514043
-0.044817146 0.047415242 0.68200004 16514043
-0.043581907 0.047484763 0.68300003 16579836
-0.042776193 0.048040956 0.69100004 16711422
-0.041760001 0.048388574 0.69600004 16711422
-0.040434286 0.048388574 0.69600004 11513775
-0.039108574 0.048388574 0.69600004 12487454
-0.037782859 0.048388574 0.69600004 14066486
-0.036457144 0.048388574 0.69600004 13671219
-0.035131428 0.048388574 0.69600004 13539633
-0.033805717 0.048388574 0.69600004 13670447
-0.032480001 0.048388574 0.69600004 13670447
-0.031154288 0.048388574 0.69600004 13670447
-0.029828573 0.048388574 0.69600004 13670447
-0.028502857 0.048388574 0.69600004 13474353
-0.027177144 0.048388574 0.69600004 13342767
-0.025888572 0.048458096 0.69700003 13407518
-0.024560954 0.048458096 0.69700003 13407518
-0.023233334 0.048458096 0.69700003 13538084
-0.021874286 0.048388574 0.69600004 13735463
-0.020548573 0.048388574 0.69600004 13406764
-0.019167619 0.04824952 0.69400001 13472557
-0.017845714 0.04824952 0.69400001 13670190
-0.01652381 0.04824952 0.69400001 13538604
-0.015201905 0.04824952 0.69400001 13799982
-0.01388 0.04824952 0.69400001 14260533
-0.012558095 0.04824952 0.69400001 13932842
-0.011236191 0.04824952 0.69400001 14064428
-0.0099142855 0.04824952 0.69400001 13540664
-0.0085923811 0.04824952 0.69400001 13145906
-0.0072704758 0.04824952 0.69400001 12094807
-0.10362 0.049500003 0.69300002 13606802
-0.1023 0.049500003 0.69300002 14000982
-0.10112571 0.049571428 0.69400001 13803603
-0.099803805 0.049571428 0.69400001 13343561
-0.098481901 0.049571428 0.69400001 13343561
-0.097440004 0.04971429 0.69600004 13409370
-0.096114293 0.04971429 0.69600004 13146198
-0.094788581 0.04971429 0.69600004 13277007
-0.093462862 0.04971429 0.69600004 13408593
-0.092269525 0.049785715 0.69700003 13474386
-0.090941906 0.049785715 0.69700003 13605972
-0.089614287 0.049785715 0.69700003 13540436
-0.088286668 0.049785715 0.69700003 13672022
-0.086834289 0.04971429 0.69600004 13737324
-0.085508578 0.04971429 0.69600004 13605738
-0.084182858 0.04971429 0.69600004 13606483
-0.082857147 0.04971429 0.69600004 13606483
-0.081648573 0.049785715 0.69700003 13804359
-0.080320954 0.049785715 0.69700003 13935945
-0.078993335 0.049785715 0.69700003 13869898
-0.077665716 0.049785715 0.69700003 13935691
-0.076338097 0.049785715 0.69700003 13869893
-0.075010478 0.049785715 0.69700003 13606721
-0.073577143 0.04971429 0.69600004 13080890
-0.072251432 0.04971429 0.69600004 13673027
-0.070721909 0.049571428 0.69400001 13083877
-0.068600006 0.049000002 0.68600005 16772351
-0.066999055 0.048785716 0.68300003 16711422
-0.065698095 0.048785716 0.68300003 16514043
-0.064302862 0.048714288 0.68200004 16514043
-0.063003816 0.048714288 0.68200004 16514043
-0.061704762 0.048714288 0.68200004 16514043
-0.060405716 0.048714288 0.68200004 16514043
-0.05910667 0.048714288 0.68200004 16514043
-0.057807621 0.048714288 0.68200004 16514043
-0.056508575 0.048714288 0.68200004 16514043
-0.055209529 0.048714288 0.68200004 16514043
-0.053989526 0.048785716 0.68300003 16514043
-0.052611433 0.048714288 0.68200004 16514043
-0.051312383 0.048714288 0.68200004 16514043
-0.050013337 0.048714288 0.68200004 16514043
-0.048714288 0.048714288 0.68200004 16514043
-0.047415242 0.048714288 0.68200004 16514043
-0.045980949 0.048571426 0.68000001 16514043
-0.044685714 0.048571426 0.68000001 16514043
-0.043390475 0.048571426 0.68000001 16514043
-0.042776193 0.049357146 0.69100004 16711422
-0.041639999 0.049571428 0.69400001 16711422
-0.040318094 0.049571428 0.69400001 11908533
-0.039108574 0.04971429 0.69600004 12487204
-0.037782859 0.04971429 0.69600004 14066236
-0.036352381 0.049571428 0.69400001 14130748
-0.035030477 0.049571428 0.69400001 13735990
-0.033708572 0.049571428 0.69400001 13735983
-0.032386668 0.049571428 0.69400001 13670190
-0.031064762 0.049571428 0.69400001 13670447
-0.029742856 0.049571428 0.69400001 13670447
-0.028420953 0.049571428 0.69400001 13736494
-0.027177144 0.04971429 0.69600004 13868080
-0.025851429 0.04971429 0.69600004 13801006
-0.024525715 0.04971429 0.69600004 13603627
-0.0232 0.04971429 0.69600004 13866029
-0.021811429 0.049571428 0.69400001 14458166
-0.020489523 0.049571428 0.69400001 14064430
-0.019167619 0.049571428 0.69400001 13867051
-0.017820001 0.049500003 0.69300002 13801006
-0.0165 0.049500003 0.69300002 13603627
-0.015201905 0.049571428 0.69400001 13799982
-0.01386 0.049500003 0.69300002 14326326
-0.01254 0.049500003 0.69300002 13932835
-0.01122 0.049500003 0.69300002 14064421
-0.0098999999 0.049500003 0.69300002 13409317
-0.0085800001 0.049500003 0.69300002 13146145
-0.0072599999 0.049500003 0.69300002 12095579
-0.10317144 0.050600003 0.69000006 14328196
-0.10185716 0.050600003 0.69000006 14591831
-0.10068858 0.050673336 0.69100004 14065487
-0.099372379 0.050673336 0.69100004 13408064
-0.098056197 0.050673336 0.69100004 13473857
-0.09702 0.05082 0.69300002 13539148
-0.095838092 0.050893333 0.69400001 13407562
-0.094516195 0.050893333 0.69400001 13210435
-0.093194291 0.050893333 0.69400001 13539400
-0.092137143 0.051040001 0.69600004 13408845
-0.090811431 0.051040001 0.69600004 13540431
-0.08948572 0.051040001 0.69600004 13475667
-0.087906666 0.050893333 0.69400001 13278288
-0.086584762 0.050893333 0.69400001 13409104
-0.085508578 0.051040001 0.69600004 13606483
-0.083940953 0.050893333 0.69400001 13408841
-0.082619049 0.050893333 0.69400001 13474634
-0.081297144 0.050893333 0.69400001 13606994
-0.07997524 0.050893333 0.69400001 13409615
-0.078653328 0.050893333 0.69400001 13407804
-0.077554293 0.051040001 0.69600004 13605183
-0.076228574 0.051040001 0.69600004 13671480
-0.074687615 0.050893333 0.69400001 13342515
-0.073365718 0.050893333 0.69400001 12554789
-0.071940005 0.05082 0.69300002 13804856
-0.07062 0.05082 0.69300002 14602194
-0.068300001 0.05008667 0.68300003 16775676
-0.066900954 0.050013337 0.68200004 16711422
-0.065601908 0.050013337 0.68200004 16514043
-0.064114287 0.049866665 0.68000001 16514043
-0.062819049 0.049866665 0.68000001 16514043
-0.061523806 0.049866665 0.68000001 16514043
-0.060405716 0.050013337 0.68200004 16514043
-0.058933333 0.049866665 0.68000001 16514043
-0.057638094 0.049866665 0.68000001 16514043
-0.056508575 0.050013337 0.68200004 16514043
-0.055209529 0.050013337 0.68200004 16514043
-0.053910479 0.050013337 0.68200004 16514043
-0.052611433 0.050013337 0.68200004 16514043
-0.051161904 0.049866665 0.68000001 16514043
-0.049866665 0.049866665 0.68000001 16514043
-0.048571426 0.049866665 0.68000001 16514043
-0.047276188 0.049866665 0.68000001 16514043
-0.045980949 0.049866665 0.68000001 16514043
-0.04462 0.049793333 0.67900002 16514043
-0.043326665 0.049793333 0.67900002 16514043
-0.04197143 0.04972 0.67800003 16711422
-0.040679999 0.04972 0.67800003 16711422
-0.040260002 0.05082 0.69300002 12105912
-0.038940001 0.05082 0.69300002 12552255
-0.037674285 0.050893333 0.69400001 13933908
-0.036352381 0.050893333 0.69400001 14393659
-0.035030477 0.050893333 0.69400001 13998901
-0.033660002 0.05082 0.69300002 13998637
-0.032340001 0.05082 0.69300002 14064430
-0.031019999 0.05082 0.69300002 13867569
-0.029700002 0.05082 0.69300002 13670190
-0.028380001 0.05082 0.69300002 14063917
-0.027099047 0.050893333 0.69400001 14195503
-0.025777142 0.050893333 0.69400001 14062888
-0.024455238 0.050893333 0.69400001 13799716
-0.0231 0.05082 0.69300002 14127393
-0.021780001 0.05082 0.69300002 14851116
-0.02046 0.05082 0.69300002 14391862
-0.01914 0.05082 0.69300002 14062897
-0.017820001 0.05082 0.69300002 13668902
-0.0165 0.05082 0.69300002 13668902
-0.01518 0.05082 0.69300002 13799975
-0.01382 0.050673336 0.69100004 13997354
-0.01250381 0.050673336 0.69100004 13866277
-0.01122 0.05082 0.69300002 13997863
-0.0098999999 0.05082 0.69300002 13079593
-0.0085800001 0.05082 0.69300002 12948007
-0.0072599999 0.05082 0.69300002 12030288
-0.0059400001 0.05082 0.69300002 12227667
-0.10317144 0.05191429 0.69000006 13079151
-0.10185716 0.05191429 0.69000006 13932070
-0.10054287 0.05191429 0.69000006 13932070
-0.099228583 0.05191429 0.69000006 13604645
-0.097914286 0.05191429 0.69000006 13736231
-0.09674 0.051989529 0.69100004 13604904
-0.095423818 0.051989529 0.69100004 13407525
-0.094379999 0.052140001 0.69300002 13472319
-0.093060002 0.052140001 0.69300002 13603905
-0.091740005 0.052140001 0.69300002 13669698
-0.090550475 0.052215237 0.69400001 13669698
-0.08922857 0.052215237 0.69400001 13669955
-0.087906666 0.052215237 0.69400001 13538369
-0.086584762 0.052215237 0.69400001 13539372
-0.085262857 0.052215237 0.69400001 13999923
-0.083940953 0.052215237 0.69400001 13670209
-0.082619049 0.052215237 0.69400001 13341244
-0.081297144 0.052215237 0.69400001 13472326
-0.079860002 0.052140001 0.69300002 13209154
-0.078540005 0.052140001 0.69300002 13274144
-0.077331424 0.052215237 0.69400001 13208351
-0.076009519 0.052215237 0.69400001 13142538
-0.074580006 0.052140001 0.69300002 12813573
-0.073260002 0.052140001 0.69300002 11633920
-0.071940005 0.052140001 0.69300002 14002458
-0.07062 0.052140001 0.69300002 14208710
-0.0682 0.051312383 0.68200004 16776436
-0.066704765 0.051161904 0.68000001 16711422
-0.065409526 0.051161904 0.68000001 16514043
-0.063925713 0.051011432 0.67800003 16514043
-0.062634289 0.051011432 0.67800003 16514043
-0.061433338 0.051086668 0.67900002 16514043
-0.060140003 0.051086668 0.67900002 16514043
-0.058760002 0.051011432 0.67800003 16514043
-0.057468574 0.051011432 0.67800003 16514043
-0.056260001 0.051086668 0.67900002 16514043
-0.055047616 0.051161904 0.68000001 16514043
-0.053752381 0.051161904 0.68000001 16514043
-0.052457143 0.051161904 0.68000001 16514043
-0.051161904 0.051161904 0.68000001 16514043
-0.049866665 0.051161904 0.68000001 16514043
-0.048500001 0.051086668 0.67900002 16514043
-0.047206666 0.051086668 0.67900002 16514043
-0.045913331 0.051086668 0.67900002 16514043
-0.044554286 0.051011432 0.67800003 16514043
-0.043262858 0.051011432 0.67800003 16514043
-0.04197143 0.051011432 0.67800003 16711422
-0.040679999 0.051011432 0.67800003 16711422
-0.039388571 0.051011432 0.67800003 12500670
-0.038771432 0.05191429 0.69000006 12814423
-0.037620001 0.052140001 0.69300002 13867111
-0.0363 0.052140001 0.69300002 14458909
-0.034979999 0.052140001 0.69300002 14524702
-0.033660002 0.052140001 0.69300002 14195757
-0.032246668 0.051989529 0.69100004 14195757
-0.030930476 0.051989529 0.69100004 14063917
-0.029614286 0.051989529 0.69100004 13669159
-0.028298097 0.051989529 0.69100004 13865761
-0.02706 0.052140001 0.69300002 13997347
-0.025739999 0.052140001 0.69300002 14062102
-0.024420001 0.052140001 0.69300002 14062102
-0.023033334 0.051989529 0.69100004 14061850
-0.021717144 0.051989529 0.69100004 14193436
-0.02037143 0.05191429 0.69000006 13931041
-0.019057145 0.05191429 0.69000006 13733662
-0.017742857 0.05191429 0.69000006 13668387
-0.016380953 0.05176381 0.68800002 13734180
-0.015070477 0.05176381 0.68800002 13734432
-0.01376 0.05176381 0.68800002 13734432
-0.012449524 0.05176381 0.68800002 13734180
-0.011139047 0.05176381 0.68800002 13865766
-0.0098285722 0.05176381 0.68800002 13210164
-0.0085180951 0.05176381 0.68800002 12618027
-0.0072285719 0.05191429 0.69000006 11832400
-0.0059142862 0.05191429 0.69000006 12621916
-0.10388 0.052920006 0.68600005 11698765
-0.10257334 0.052920006 0.68600005 12817246
-0.10141429 0.052997146 0.68700004 13471528
-0.099960007 0.052920006 0.68600005 13471528
-0.098653339 0.052920006 0.68600005 13471521
-0.097488575 0.052997146 0.68700004 13537314
-0.096180007 0.052997146 0.68700004 13537323
-0.094871432 0.052997146 0.68700004 13603116
-0.093562864 0.052997146 0.68700004 13733951
-0.092254288 0.052997146 0.68700004 13799744
-0.091078095 0.053074285 0.68800002 13865525
-0.090028577 0.053228576 0.69000006 13931318
-0.088714294 0.053228576 0.69000006 13866029
-0.087400004 0.053228576 0.69000006 13800236
-0.086085722 0.053228576 0.69000006 13932835
-0.084771439 0.053228576 0.69000006 13735456
-0.08345715 0.053228576 0.69000006 13603609
-0.082142867 0.053228576 0.69000006 13011472
-0.080945715 0.053305719 0.69100004 13339904
-0.079629533 0.053305719 0.69100004 13339904
-0.078313336 0.053305719 0.69100004 13274112
-0.076997146 0.053305719 0.69100004 13142528
-0.075680956 0.053305719 0.69100004 12945664
-0.074364766 0.053305719 0.69100004 13011456
-0.073048577 0.053305719 0.69100004 11174912
-0.071628578 0.053228576 0.69000006 12688131
-0.070314296 0.053228576 0.69000006 14272919
-0.0678 0.05230286 0.67800003 16777165
-0.066508569 0.05230286 0.67800003 16711422
-0.065217145 0.05230286 0.67800003 16514043
-0.063737147 0.052148577 0.67600006 16514043
-0.06244953 0.052148577 0.67600006 16514043
-0.061161913 0.052148577 0.67600006 16514043
-0.059874289 0.052148577 0.67600006 16514043
-0.058586672 0.052148577 0.67600006 16514043
-0.057299051 0.052148577 0.67600006 16514043
-0.056011431 0.052148577 0.67600006 16514043
-0.054723814 0.052148577 0.67600006 16514043
-0.053436194 0.052148577 0.67600006 16514043
-0.05230286 0.05230286 0.67800003 16514043
-0.051011432 0.05230286 0.67800003 16514043
-0.04972 0.05230286 0.67800003 16514043
-0.048428573 0.05230286 0.67800003 16514043
-0.046998098 0.052148577 0.67600006 16514043
-0.045710482 0.052148577 0.67600006 16514043
-0.044422861 0.052148577 0.67600006 16514043
-0.043135241 0.052148577 0.67600006 16514043
-0.04184762 0.052148577 0.67600006 16711422
-0.040560003 0.052148577 0.67600006 16711422
-0.039272383 0.052148577 0.67600006 12303291
-0.03854667 0.052920006 0.68600005 12880218
-0.037457146 0.053228576 0.69000006 13801320
-0.036195237 0.053305719 0.69100004 14523178
-0.034879047 0.053305719 0.69100004 14852143
-0.033562858 0.053305719 0.69100004 14392114
-0.032246668 0.053305719 0.69100004 14326321
-0.030930476 0.053305719 0.69100004 14064169
-0.029571431 0.053228576 0.69000006 13340446
-0.028257145 0.053228576 0.69000006 13732628
-0.02694286 0.053228576 0.69000006 13864214
-0.025554286 0.053074285 0.68800002 13798914
-0.024243811 0.053074285 0.68800002 13930500
-0.022933332 0.053074285 0.68800002 13732887
-0.021622857 0.053074285 0.68800002 14061852
-0.020312382 0.053074285 0.68800002 13865770
-0.019001907 0.053074285 0.68800002 13602598
-0.017691428 0.053074285 0.68800002 13602587
-0.016380953 0.053074285 0.68800002 13734173
-0.015070477 0.053074285 0.68800002 13734175
-0.013740001 0.052997146 0.68700004 13734175
-0.012431429 0.052997146 0.68700004 13602848
-0.011122858 0.052997146 0.68700004 13866020
-0.0098285722 0.053074285 0.68800002 13341225
-0.0085180951 0.053074285 0.68800002 12683295
-0.0072076195 0.053074285 0.68800002 11896894
-0.0058971434 0.053074285 0.68800002 12554824
-0.10357714 0.054068573 0.68400002 11764027
-0.10227428 0.054068573 0.68400002 12421957
-0.10126667 0.05422667 0.68600005 13471253
-0.099960007 0.05422667 0.68600005 13537046
-0.098653339 0.05422667 0.68600005 13207336
-0.097346671 0.05422667 0.68600005 13141543
-0.09604001 0.05422667 0.68600005 13141804
-0.094733343 0.05422667 0.68600005 13141804
-0.093426675 0.05422667 0.68600005 13207086
-0.092120007 0.05422667 0.68600005 13075500
-0.090945721 0.054305717 0.68700004 13206041
-0.089637145 0.054305717 0.68700004 13140248
-0.08832857 0.054305717 0.68700004 12812800
-0.087020002 0.054305717 0.68700004 12812800
-0.085711427 0.054305717 0.68700004 12879104
-0.084402859 0.054305717 0.68700004 12813312
-0.083094291 0.054305717 0.68700004 13075457
-0.081904761 0.054384761 0.68800002 13601801
-0.080828577 0.054542862 0.69000006 14328576
-0.079514287 0.054542862 0.69000006 16433927
-0.078200005 0.054542862 0.69000006 16046848
-0.076885715 0.054542862 0.69000006 16178432
-0.075571433 0.054542862 0.69000006 16316928
-0.07425715 0.054542862 0.69000006 16776960
-0.072731428 0.054384761 0.68800002 16317696
-0.071005717 0.054068573 0.68400002 14343936
-0.069295242 0.053752381 0.68000001 13552577
-0.0678 0.053594287 0.67800003 16776948
-0.066312388 0.053436194 0.67600006 16711422
-0.065024771 0.053436194 0.67600006 16514043
-0.063737147 0.053436194 0.67600006 16514043
-0.06244953 0.053436194 0.67600006 16514043
-0.061071429 0.053357143 0.67500001 16514043
-0.059785716 0.053357143 0.67500001 16514043
-0.058586672 0.053436194 0.67600006 16514043
-0.057299051 0.053436194 0.67600006 16514043
-0.056011431 0.053436194 0.67600006 16514043
-0.054642856 0.053357143 0.67500001 16514043
-0.053357143 0.053357143 0.67500001 16514043
-0.052148577 0.053436194 0.67600006 16514043
-0.050860956 0.053436194 0.67600006 16514043
-0.04957334 0.053436194 0.67600006 16514043
-0.048285719 0.053436194 0.67600006 16514043
-0.046998098 0.053436194 0.67600006 16514043
-0.045710482 0.053436194 0.67600006 16514043
-0.044357143 0.053357143 0.67500001 16514043
-0.04307143 0.053357143 0.67500001 16514043
-0.04184762 0.053436194 0.67600006 16711422
-0.040560003 0.053436194 0.67600006 16711422
-0.039272383 0.053436194 0.67600006 12237498
-0.038153335 0.053673334 0.67900002 13011804
-0.037131429 0.054068573 0.68400002 13538148
-0.03614286 0.054542862 0.69000006 14193184
-0.034828573 0.054542862 0.69000006 14390563
-0.033562858 0.054621909 0.69100004 14260008
-0.032200001 0.054542862 0.69000006 14325801
-0.030885719 0.054542862 0.69000006 14128922
-0.029485716 0.054384761 0.68800002 13536785
-0.028175239 0.054384761 0.68800002 13535772
-0.026825715 0.054305717 0.68700004 13404186
-0.025517143 0.054305717 0.68700004 13535490
-0.024208572 0.054305717 0.68700004 13732869
-0.022900002 0.054305717 0.68700004 13403686
-0.021591431 0.054305717 0.68700004 13337893
-0.020282857 0.054305717 0.68700004 13272600
-0.018974286 0.054305717 0.68700004 12943635
-0.017665716 0.054305717 0.68700004 13141248
-0.016357144 0.054305717 0.68700004 13272832
-0.015048572 0.054305717 0.68700004 13207043
-0.013740001 0.054305717 0.68700004 13404422
-0.012431429 0.054305717 0.68700004 13273354
-0.011122858 0.054305717 0.68700004 13602319
-0.0098142857 0.054305717 0.68700004 12946974
-0.0085057151 0.054305717 0.68700004 12025872
-0.007197143 0.054305717 0.68700004 11568197
-0.005888572 0.054305717 0.68700004 12489299
-0.10357714 0.055371426 0.68400002 11828763
-0.10227428 0.055371426 0.68400002 12618279
-0.10097143 0.055371426 0.68400002 13142038
-0.09966857 0.055371426 0.68400002 13142038
-0.098365717 0.055371426 0.68400002 13207588
-0.097062856 0.055371426 0.68400002 13141795
-0.095760003 0.055371426 0.68400002 13075741
-0.094733343 0.055533338 0.68600005 12680983
-0.093154289 0.055371426 0.68400002 13009664
-0.091851428 0.055371426 0.68400002 12878080
-0.090813339 0.055533338 0.68600005 12614144
-0.089506678 0.055533338 0.68600005 12745728
-0.08820001 0.055533338 0.68600005 12287232
-0.086893335 0.055533338 0.68600005 12550400
-0.085586667 0.055533338 0.68600005 12617216
-0.084279999 0.055533338 0.68600005 13998849
-0.082973339 0.055533338 0.68600005 14988032
-0.081785724 0.055614289 0.68700004 15185408
-0.080477148 0.055614289 0.68700004 15913216
-0.07916858 0.055614289 0.68700004 16439552
-0.077860005 0.055614289 0.68700004 16247874
-0.07655143 0.055614289 0.68700004 16777046
-0.075242862 0.055614289 0.68700004 16514932
-0.073826671 0.055533338 0.68600005 16580469
-0.072520003 0.055533338 0.68600005 16514941
-0.070798099 0.055209529 0.68200004 13226059
-0.069295242 0.055047616 0.68000001 13353371
-0.0678 0.054885715 0.67800003 16777177
-0.066312388 0.054723814 0.67600006 16711422
-0.065024771 0.054723814 0.67600006 16579836
-0.063642859 0.054642856 0.67500001 16514043
-0.062357143 0.054642856 0.67500001 16514043
-0.061071429 0.054642856 0.67500001 16514043
-0.059785716 0.054642856 0.67500001 16514043
-0.058499999 0.054642856 0.67500001 16514043
-0.057214286 0.054642856 0.67500001 16514043
-0.055928573 0.054642856 0.67500001 16514043
-0.054642856 0.054642856 0.67500001 16514043
-0.053357143 0.054642856 0.67500001 16514043
-0.052148577 0.054723814 0.67600006 16514043
-0.050785713 0.054642856 0.67500001 16514043
-0.049500003 0.054642856 0.67500001 16514043
-0.048214287 0.054642856 0.67500001 16514043
-0.046928573 0.054642856 0.67500001 16514043
-0.045642857 0.054642856 0.67500001 16514043
-0.044357143 0.054642856 0.67500001 16514043
-0.04307143 0.054642856 0.67500001 16579836
-0.04184762 0.054723814 0.67600006 16711422
-0.040560003 0.054723814 0.67600006 16711422
-0.039388571 0.054885715 0.67800003 12171705
-0.038153335 0.054966666 0.67900002 13208668
-0.037022859 0.055209529 0.68200004 13142875
-0.035933334 0.055533338 0.68600005 13601024
-0.034727618 0.055695239 0.68800002 14061568
-0.033514287 0.055857148 0.69000006 13995546
-0.032106668 0.055695239 0.68800002 14127132
-0.030751429 0.055614289 0.68700004 13799198
-0.029442858 0.055614289 0.68700004 13601819
-0.028134288 0.055614289 0.68700004 13535772
-0.026825715 0.055614289 0.68700004 13404186
-0.025517143 0.055614289 0.68700004 13273354
-0.024173334 0.055533338 0.68600005 13273354
-0.022866668 0.055533338 0.68600005 13140764
-0.021560002 0.055533338 0.68600005 13074971
-0.020253334 0.055533338 0.68600005 13206541
-0.018946668 0.055533338 0.68600005 13140748
-0.01764 0.055533338 0.68600005 13206541
-0.016333334 0.055533338 0.68600005 13338127
-0.015026667 0.055533338 0.68600005 13075482
-0.01368 0.055371426 0.68400002 13207068
-0.012377143 0.055371426 0.68400002 13076502
-0.011074286 0.055371426 0.68400002 13471260
-0.009800001 0.055533338 0.68600005 12946493
-0.0084933331 0.055533338 0.68600005 11959598
-0.0071866671 0.055533338 0.68600005 11567668
-0.005888572 0.055614289 0.68700004 12817735
-0.10342572 0.056591429 0.68300003 11432960
-0.10212477 0.056591429 0.68300003 12288269
-0.10082381 0.056591429 0.68300003 12745992
-0.09966857 0.056674287 0.68400002 12548613
-0.098221906 0.056591429 0.68300003 12284672
-0.09692096 0.056591429 0.68300003 12087296
-0.095760003 0.056674287 0.68400002 12087040
-0.094457142 0.056674287 0.68400002 12416000
-0.093154289 0.056674287 0.68400002 12679936
-0.091851428 0.056674287 0.68400002 15114259
-0.090548575 0.056674287 0.68400002 15515648
-0.089245714 0.056674287 0.68400002 16239360
-0.087942861 0.056674287 0.68400002 16250112
-0.08664 0.056674287 0.68400002 16381696
-0.085586667 0.056840003 0.68600005 16318208
-0.084279999 0.056840003 0.68600005 16776960
-0.082973339 0.056840003 0.68600005 16514901
-0.081785724 0.05692286 0.68700004 16580438
-0.080360003 0.056840003 0.68600005 16514906
-0.079053335 0.056840003 0.68600005 16580443
-0.077746667 0.056840003 0.68600005 16514930
-0.076440006 0.056840003 0.68600005 16580467
-0.075133339 0.056840003 0.68600005 16514948
-0.073503807 0.056591429 0.68300003 16514948
-0.072097145 0.056508575 0.68200004 16514930
-0.070798099 0.056508575 0.68200004 12963132
-0.069295242 0.056342855 0.68000001 12960703
-0.0678 0.056177147 0.67800003 16645111
-0.066312388 0.056011431 0.67600006 16711422
-0.065024771 0.056011431 0.67600006 16711422
-0.063642859 0.055928573 0.67500001 16514043
-0.062357143 0.055928573 0.67500001 16514043
-0.061071429 0.055928573 0.67500001 16514043
-0.059785716 0.055928573 0.67500001 16514043
-0.058499999 0.055928573 0.67500001 16514043
-0.05687524 0.055597141 0.671 16514043
-0.055597141 0.055597141 0.671 16514043
-0.054319046 0.055597141 0.671 16514043
-0.053120002 0.055680003 0.67200005 16514043
-0.051840004 0.055680003 0.67200005 16514043
-0.050710477 0.055845715 0.67400002 16514043
-0.049426667 0.055845715 0.67400002 16514043
-0.048142858 0.055845715 0.67400002 16514043
-0.046859052 0.055845715 0.67400002 16514043
-0.045575239 0.055845715 0.67400002 16514043
-0.044291429 0.055845715 0.67400002 16579836
-0.04300762 0.055845715 0.67400002 16645629
-0.041785713 0.055928573 0.67500001 16711422
-0.040560003 0.056011431 0.67600006 16645118
-0.039272383 0.056011431 0.67600006 12171194
-0.038153335 0.056260001 0.67900002 13010782
-0.036860004 0.056260001 0.67900002 13339747
-0.035566669 0.056260001 0.67900002 13469696
-0.034323812 0.056342855 0.68000001 13601280
-0.033320002 0.056840003 0.68600005 13470229
-0.032013334 0.056840003 0.68600005 13404436
-0.030706666 0.056840003 0.68600005 13404688
-0.029400002 0.056840003 0.68600005 13141516
-0.028093336 0.056840003 0.68600005 13272352
-0.026708571 0.056674287 0.68400002 13864489
-0.025405714 0.056674287 0.68400002 13734450
-0.024102857 0.056674287 0.68400002 13800243
-0.0228 0.056674287 0.68400002 13340220
-0.021497143 0.056674287 0.68400002 12879669
-0.020194286 0.056674287 0.68400002 13669183
-0.01889143 0.056674287 0.68400002 14656078
-0.017588571 0.056674287 0.68400002 14722663
-0.016285714 0.056674287 0.68400002 14920042
-0.014982858 0.056674287 0.68400002 14854769
-0.013660001 0.056591429 0.68300003 14854769
-0.012359047 0.056591429 0.68300003 14788965
-0.011058095 0.056591429 0.68300003 15052137
-0.009771429 0.056674287 0.68400002 14658382
-0.0084685711 0.056674287 0.68400002 11697697
-0.0071866671 0.056840003 0.68600005 11567668
-0.10426667 0.057638094 0.68000001 10254191
-0.10297143 0.057638094 0.68000001 11103744
-0.10167619 0.057638094 0.68000001 11959040
-0.10067619 0.057807621 0.68200004 12285952
-0.099377148 0.057807621 0.68200004 12022784
-0.098078102 0.057807621 0.68200004 11825152
-0.096779048 0.057807621 0.68200004 12154112
-0.095480002 0.057807621 0.68200004 12353024
-0.094180956 0.057807621 0.68200004 14129415
-0.0930181 0.057892382 0.68300003 15252224
-0.091717146 0.057892382 0.68300003 16041728
-0.090416193 0.057892382 0.68300003 16046336
-0.089115247 0.057892382 0.68300003 16774144
-0.087814286 0.057892382 0.68300003 16580449
-0.086513333 0.057892382 0.68300003 16580449
-0.085212387 0.057892382 0.68300003 16514901
-0.083911426 0.057892382 0.68300003 16580438
-0.082731433 0.05797714 0.68400002 16514906
-0.081666671 0.05814667 0.68600005 16449369
-0.080125719 0.05797714 0.68400002 16514889
-0.078822859 0.05797714 0.68400002 16777037
-0.077520005 0.05797714 0.68400002 16514937
-0.076217145 0.05797714 0.68400002 16318326
-0.074914292 0.05797714 0.68400002 16514899
-0.073396191 0.057807621 0.68200004 16777048
-0.07188572 0.057638094 0.68000001 16580512
-0.070590481 0.057638094 0.68000001 13423216
-0.069193333 0.057553336 0.67900002 12698551
-0.0678 0.057468574 0.67800003 15988201
-0.066312388 0.057299051 0.67600006 16711420
-0.064928576 0.057214286 0.67500001 16711420
-0.063642859 0.057214286 0.67500001 16645629
-0.062357143 0.057214286 0.67500001 16514043
-0.06098095 0.057129528 0.67400002 16514043
-0.059697144 0.057129528 0.67400002 16514043
-0.058413334 0.057129528 0.67400002 16514043
-0.05687524 0.05687524 0.671 16514043
-0.055597141 0.05687524 0.671 16514043
-0.054319046 0.05687524 0.671 16514043
-0.053040951 0.05687524 0.671 16514043
-0.051840004 0.056960005 0.67200005 16514043
-0.050560005 0.056960005 0.67200005 16514043
-0.049280003 0.056960005 0.67200005 16514043
-0.048142858 0.057129528 0.67400002 16514043
-0.046859052 0.057129528 0.67400002 16514043
-0.045575239 0.057129528 0.67400002 16514043
-0.044291429 0.057129528 0.67400002 16711422
-0.04300762 0.057129528 0.67400002 16711422
-0.041785713 0.057214286 0.67500001 16448250
-0.040560003 0.057299051 0.67600006 16314615
-0.039272383 0.057299051 0.67600006 11445933
-0.038153335 0.057553336 0.67900002 13273148
-0.036860004 0.057553336 0.67900002 13536320
-0.035566669 0.057553336 0.67900002 13601029
-0.034323812 0.057638094 0.68000001 15048475
-0.033174284 0.057892382 0.68300003 14327410
-0.031826667 0.057807621 0.68200004 13735273
-0.03052762 0.057807621 0.68200004 13996882
-0.029228574 0.057807621 0.68200004 13602124
-0.028011428 0.05797714 0.68400002 13601047
-0.026669525 0.057892382 0.68300003 14719528
-0.025368571 0.057892382 0.68300003 14787700
-0.02406762 0.057892382 0.68300003 14787700
-0.022766666 0.057892382 0.68300003 14330476
-0.021465715 0.057892382 0.68300003 13804132
-0.020164762 0.057892382 0.68300003 14197091
-0.01886381 0.057892382 0.68300003 14591849
-0.017562857 0.057892382 0.68300003 15118707
-0.016261905 0.057892382 0.68300003 15184500
-0.014960953 0.057892382 0.68300003 15317380
-0.013660001 0.057892382 0.68300003 15185794
-0.012359047 0.057892382 0.68300003 15448174
-0.011058095 0.057892382 0.68300003 15908725
-0.0097571434 0.057892382 0.68300003 15052673
-0.0084685711 0.05797714 0.68400002 12026195
-0.0071657142 0.05797714 0.68400002 11633703
-0.1055619 0.058933333 0.68000001 11307136
-0.10411333 0.058846667 0.67900002 9399139
-0.10282 0.058846667 0.67900002 10708224
-0.10167619 0.058933333 0.68000001 12879375
-0.10038095 0.058933333 0.68000001 14396672
-0.099085711 0.058933333 0.68000001 15712512
-0.097790472 0.058933333 0.68000001 16250624
-0.096353337 0.058846667 0.67900002 16448000
-0.095060006 0.058846667 0.67900002 16449280
-0.094180956 0.05910667 0.68200004 16776960
-0.092881911 0.05910667 0.68200004 16514901
-0.091582857 0.05910667 0.68200004 16580438
-0.090283811 0.05910667 0.68200004 16514910
-0.089115247 0.059193335 0.68300003 16514910
-0.087814286 0.059193335 0.68300003 16580440
-0.086513333 0.059193335 0.68300003 16580440
-0.08508762 0.05910667 0.68200004 16580440
-0.083788574 0.05910667 0.68200004 16580440
-0.08261048 0.059193335 0.68300003 16514908
-0.08130952 0.059193335 0.68300003 16383834
-0.080008574 0.059193335 0.68300003 16449333
-0.078707621 0.059193335 0.68300003 16645944
-0.077406667 0.059193335 0.68300003 16449318
-0.076105714 0.059193335 0.68300003 11385088
-0.074804768 0.059193335 0.68300003 12041636
-0.073396191 0.05910667 0.68200004 16383974
-0.07188572 0.058933333 0.68000001 16514937
-0.070486665 0.058846667 0.67900002 14081620
-0.069091432 0.058760002 0.67800003 13225165
-0.067600004 0.058586672 0.67600006 14541025
-0.066312388 0.058586672 0.67600006 16119528
-0.064928576 0.058499999 0.67500001 16711665
-0.063642859 0.058499999 0.67500001 16711422
-0.062264767 0.058413334 0.67400002 16579836
-0.060709521 0.058153335 0.671 16514043
-0.059431426 0.058153335 0.671 16514043
-0.058153335 0.058153335 0.671 16514043
-0.056790475 0.058066666 0.67000002 16514043
-0.055514287 0.058066666 0.67000002 16514043
-0.054319046 0.058153335 0.671 16514043
-0.053040951 0.058153335 0.671 16514043
-0.051762857 0.058153335 0.671 16514043
-0.050560005 0.058240004 0.67200005 16514043
-0.049280003 0.058240004 0.67200005 16514043
-0.047928572 0.058153335 0.671 16514043
-0.046650477 0.058153335 0.671 16514043
-0.04544 0.058240004 0.67200005 16579836
-0.044291429 0.058413334 0.67400002 16711422
-0.04300762 0.058413334 0.67400002 16711422
-0.041785713 0.058499999 0.67500001 16119285
-0.040560003 0.058586672 0.67600006 16115183
-0.039388571 0.058760002 0.67800003 10851743
-0.038209524 0.058933333 0.68000001 12680731
-0.036914289 0.058933333 0.68000001 13470247
-0.035723813 0.05910667 0.68200004 13469979
-0.034424767 0.05910667 0.68200004 16628043
-0.033125717 0.05910667 0.68200004 15973299
-0.031826667 0.05910667 0.68200004 16039092
-0.030438095 0.058933333 0.68000001 15907482
-0.029142857 0.058933333 0.68000001 15710103
-0.027970478 0.059193335 0.68300003 15248468
-0.026669525 0.059193335 0.68300003 16366949
-0.025368571 0.059193335 0.68300003 14985874
-0.02406762 0.059193335 0.68300003 14525323
-0.022766666 0.059193335 0.68300003 14067554
-0.021465715 0.059193335 0.68300003 13804382
-0.020164762 0.059193335 0.68300003 14065267
-0.018836193 0.05910667 0.68200004 13867888
-0.017537145 0.05910667 0.68200004 14000980
-0.016261905 0.059193335 0.68300003 14461531
-0.014939048 0.05910667 0.68200004 14593396
-0.01364 0.05910667 0.68200004 14856568
-0.012340954 0.05910667 0.68200004 14660181
-0.011041906 0.05910667 0.68200004 15252318
-0.0097571434 0.059193335 0.68300003 14198116
-0.008456191 0.059193335 0.68300003 11895361
-0.0071552387 0.059193335 0.68300003 11633715
-0.1055619 0.060228571 0.68000001 10716534
-0.10411333 0.060140003 0.67900002 9532260
-0.10282 0.060140003 0.67900002 11699456
-0.10167619 0.060228571 0.68000001 13344260
-0.10038095 0.060228571 0.68000001 15911168
-0.09894 0.060140003 0.67900002 16766720
-0.097646669 0.060140003 0.67900002 16383545
-0.096211433 0.060051434 0.67800003 15988787
-0.094920009 0.060051434 0.67800003 16449324
-0.093766667 0.060140003 0.67900002 16711472
-0.092473336 0.060140003 0.67900002 16449383
-0.091180004 0.060140003 0.67900002 16514920
-0.090019047 0.060228571 0.68000001 16580453
-0.088723809 0.060228571 0.68000001 16514916
-0.087685719 0.060405716 0.68200004 16514926
-0.086386673 0.060405716 0.68200004 16646000
-0.08508762 0.060405716 0.68200004 16580491
-0.083788574 0.060405716 0.68200004 16777102
-0.08261048 0.060494285 0.68300003 16646079
-0.081190482 0.060405716 0.68200004 16515005
-0.079891428 0.060405716 0.68200004 15264847
-0.078592382 0.060405716 0.68200004 16777067
-0.077293336 0.060405716 0.68200004 16187305
-0.07599429 0.060405716 0.68200004 9345345
-0.074695244 0.060405716 0.68200004 10336550
-0.073396191 0.060405716 0.68200004 15990652
-0.07188572 0.060228571 0.68000001 16580491
-0.070486665 0.060140003 0.67900002 15199606
-0.069091432 0.060051434 0.67800003 13356474
-0.067600004 0.059874289 0.67600006 13817025
-0.066312388 0.059874289 0.67600006 15000273
-0.064928576 0.059785716 0.67500001 16184547
-0.063548572 0.059697144 0.67400002 16579836
-0.061987616 0.059431426 0.671 16711422
-0.060709521 0.059431426 0.671 16645629
-0.059342857 0.059342857 0.67000002 16579836
-0.058066666 0.059342857 0.67000002 16579836
-0.056790475 0.059342857 0.67000002 16514043
-0.055514287 0.059342857 0.67000002 16514043
-0.054238096 0.059342857 0.67000002 16514043
-0.053040951 0.059431426 0.671 16514043
-0.051762857 0.059431426 0.671 16514043
-0.050484762 0.059431426 0.671 16514043
-0.049206667 0.059431426 0.671 16514043
-0.047928572 0.059431426 0.671 16514043
-0.046650477 0.059431426 0.671 16579836
-0.04544 0.059520006 0.67200005 16579836
-0.044160005 0.059520006 0.67200005 16711422
-0.042880002 0.059520006 0.67200005 16711422
-0.041785713 0.059785716 0.67500001 15329769
-0.040560003 0.059874289 0.67600006 15127761
-0.039388571 0.060051434 0.67800003 11245974
-0.038209524 0.060228571 0.68000001 13009950
-0.036914289 0.060228571 0.68000001 13865259
-0.03561905 0.060228571 0.68000001 13272371
-0.034323812 0.060228571 0.68000001 15575126
-0.033125717 0.060405716 0.68200004 15120001
-0.031733334 0.060228571 0.68000001 14922622
-0.030438095 0.060228571 0.68000001 15380861
-0.029142857 0.060228571 0.68000001 15051896
-0.027929526 0.060405716 0.68200004 14062923
-0.026630478 0.060405716 0.68200004 15115611
-0.02533143 0.060405716 0.68200004 14459500
-0.024032382 0.060405716 0.68200004 14064742
-0.022733334 0.060405716 0.68200004 13012304
-0.021434287 0.060405716 0.68200004 13012304
-0.020135241 0.060405716 0.68200004 13208409
-0.018836193 0.060405716 0.68200004 13076823
-0.017537145 0.060405716 0.68200004 13012034
-0.016238095 0.060405716 0.68200004 13275206
-0.014939048 0.060405716 0.68200004 13077836
-0.01364 0.060405716 0.68200004 13472594
-0.012340954 0.060405716 0.68200004 13145118
-0.011041906 0.060405716 0.68200004 15118908
-0.0097428579 0.060405716 0.68200004 13210737
-0.008456191 0.060494285 0.68300003 11829084
-0.0071552387 0.060494285 0.68300003 11699480
-0.1055619 0.061523806 0.68000001 11568751
-0.10411333 0.061433338 0.67900002 15845296
-0.10282 0.061433338 0.67900002 16383766
-0.10137715 0.061342862 0.67800003 16514840
-0.10008572 0.061342862 0.67800003 16449346
