# .PCD v0.7 - Point Cloud Data file format
VERSION 0.7
FIELDS x y z rgba
SIZE 4 4 4 4
TYPE F F F U
COUNT 1 1 1 1
WIDTH 1079
HEIGHT 1
VIEWPOINT 0 0 0 1 0 0 0
POINTS 1079
DATA ascii
-0.05509619 0.037837144 0.69700003 11702836
-0.053768571 0.037837144 0.69700003 14202970
-0.052516192 0.037891429 0.69800001 13677961
-0.051113334 0.037837144 0.69700003 12230515
-0.049785715 0.037837144 0.69700003 12557647
-0.048458096 0.037837144 0.69700003 14136679
-0.047198098 0.037891429 0.69800001 13679256
-0.045868572 0.037891429 0.69800001 13810842
-0.044539049 0.037891429 0.69800001 13811355
-0.04314762 0.037837144 0.69700003 12758667
-0.041820001 0.037837144 0.69700003 12956046
-0.040492382 0.037837144 0.69700003 13087632
-0.039164763 0.037837144 0.69700003 13284473
-0.037837144 0.037837144 0.69700003 13284473
-0.036509525 0.037837144 0.69700003 13086592
-0.03523238 0.037891429 0.69800001 12955006
-0.033902857 0.037891429 0.69800001 13085815
-0.032573331 0.037891429 0.69800001 11901541
-0.031243809 0.037891429 0.69800001 12360034
-0.029914286 0.037891429 0.69800001 13149550
-0.028584762 0.037891429 0.69800001 12032080
-0.027255237 0.037891429 0.69800001 13282147
-0.026000001 0.038000003 0.70000005 13282452
-0.024666667 0.038000003 0.70000005 13085073
-0.023266668 0.037891429 0.69800001 12888702
-0.021937143 0.037891429 0.69800001 12230772
-0.020607619 0.037891429 0.69800001 12098425
-0.019278096 0.037891429 0.69800001 11506288
-0.017948572 0.037891429 0.69800001 12163675
-0.016619049 0.037891429 0.69800001 12887398
-0.015289525 0.037891429 0.69800001 12228698
-0.01396 0.037891429 0.69800001 12360284
-0.012630476 0.037891429 0.69800001 12623724
-0.011300952 0.037891429 0.69800001 12689517
-0.010000001 0.038000003 0.70000005 12034433
-0.0086666672 0.038000003 0.70000005 11113331
-0.0073333341 0.038000003 0.70000005 10456708
-0.11101524 0.039220951 0.69800001 9997467
-0.10952857 0.039164763 0.69700003 9997467
-0.10804572 0.039108574 0.69600004 10914967
-0.10672001 0.039108574 0.69600004 10717588
-0.1053943 0.039108574 0.69600004 11306806
-0.10406857 0.039108574 0.69600004 11043634
-0.10274286 0.039108574 0.69600004 10846514
-0.10141715 0.039108574 0.69600004 12754511
-0.10009144 0.039108574 0.69600004 12625030
-0.098765716 0.039108574 0.69600004 12756616
-0.097440004 0.039108574 0.69600004 12560007
-0.096114293 0.039108574 0.69600004 13020558
-0.094788581 0.039108574 0.69600004 12889740
-0.093462862 0.039108574 0.69600004 12823947
-0.092137143 0.039108574 0.69600004 12428142
-0.090811431 0.039108574 0.69600004 11507040
-0.08948572 0.039108574 0.69600004 12296036
-0.088286668 0.039164763 0.69700003 13480310
-0.086834289 0.039108574 0.69600004 12294775
-0.085508578 0.039108574 0.69600004 10123606
-0.084182858 0.039108574 0.69600004 10451456
-0.082857147 0.039108574 0.69600004 13083168
-0.081531428 0.039108574 0.69600004 12426387
-0.080205716 0.039108574 0.69600004 11176320
-0.078880005 0.039108574 0.69600004 11834208
-0.077554293 0.039108574 0.69600004 13084275
-0.076228574 0.039108574 0.69600004 12033370
-0.074902862 0.039108574 0.69600004 13349230
-0.073577143 0.039108574 0.69600004 13415561
-0.072355241 0.039164763 0.69700003 13283975
-0.071027622 0.039164763 0.69700003 12755333
-0.069700003 0.039164763 0.69700003 12492161
-0.068372384 0.039164763 0.69700003 12557411
-0.067044765 0.039164763 0.69700003 12162653
-0.065717146 0.039164763 0.69700003 12360566
-0.064389527 0.039164763 0.69700003 11965808
-0.063061908 0.039164763 0.69700003 11901037
-0.061734285 0.039164763 0.69700003 14269585
-0.060406666 0.039164763 0.69700003 13020084
-0.059079047 0.039164763 0.69700003 12033189
-0.057751432 0.039164763 0.69700003 10714194
-0.056423813 0.039164763 0.69700003 10056264
-0.05509619 0.039164763 0.69700003 10648365
-0.053845715 0.039220951 0.69800001 13280085
-0.052516192 0.039220951 0.69800001 13150364
-0.05118667 0.039220951 0.69800001 13610915
-0.049857143 0.039220951 0.69800001 12623999
-0.048527621 0.039220951 0.69800001 12163448
-0.047198098 0.039220951 0.69800001 12360566
-0.045868572 0.039220951 0.69800001 12097394
-0.044539049 0.039220951 0.69800001 12889190
-0.04314762 0.039164763 0.69700003 12954983
-0.041820001 0.039164763 0.69700003 12890492
-0.040492382 0.039164763 0.69700003 13285250
-0.039164763 0.039164763 0.69700003 13480860
-0.037837144 0.039164763 0.69700003 13086102
-0.036509525 0.039164763 0.69700003 13217140
-0.03523238 0.039220951 0.69800001 13546105
-0.033902857 0.039220951 0.69800001 13677698
-0.032573331 0.039220951 0.69800001 13743491
-0.031243809 0.039220951 0.69800001 14072199
-0.029914286 0.039220951 0.69800001 14598543
-0.028584762 0.039220951 0.69800001 14138485
-0.027255237 0.039220951 0.69800001 12954211
-0.026000001 0.039333336 0.70000005 13215879
-0.024666667 0.039333336 0.70000005 13413258
-0.023266668 0.039220951 0.69800001 13348737
-0.021937143 0.039220951 0.69800001 13414530
-0.020607619 0.039220951 0.69800001 13349244
-0.019333335 0.039333336 0.70000005 13283451
-0.017948572 0.039220951 0.69800001 13348717
-0.016619049 0.039220951 0.69800001 13085545
-0.015289525 0.039220951 0.69800001 12820837
-0.01396 0.039220951 0.69800001 12886630
-0.012630476 0.039220951 0.69800001 12689265
-0.011300952 0.039220951 0.69800001 12228714
-0.0099714287 0.039220951 0.69800001 11442294
-0.0086666672 0.039333336 0.70000005 10784364
-0.0073333341 0.039333336 0.70000005 10456708
-0.11101524 0.040550474 0.69800001 9931924
-0.10952857 0.040492382 0.69700003 9734545
-0.10804572 0.040434286 0.69600004 10783379
-0.10672001 0.040434286 0.69600004 11309723
-0.1053943 0.040434286 0.69600004 11833951
-0.10406857 0.040434286 0.69600004 11702365
-0.10274286 0.040434286 0.69600004 11702086
-0.10141715 0.040434286 0.69600004 12623188
-0.10009144 0.040434286 0.69600004 12230006
-0.098765716 0.040434286 0.69600004 12690557
-0.097440004 0.040434286 0.69600004 12428671
-0.096114293 0.040434286 0.69600004 12757636
-0.094788581 0.040434286 0.69600004 12627322
-0.093462862 0.040434286 0.69600004 12495736
-0.092137143 0.040434286 0.69600004 12362846
-0.090811431 0.040434286 0.69600004 12099674
-0.08948572 0.040434286 0.69600004 12492390
-0.088160008 0.040434286 0.69600004 13413492
-0.086834289 0.040434286 0.69600004 12361338
-0.085508578 0.040434286 0.69600004 10913892
-0.084182858 0.040434286 0.69600004 11372825
-0.082857147 0.040434286 0.69600004 12688685
-0.081531428 0.040434286 0.69600004 12820855
-0.080205716 0.040434286 0.69600004 11636581
-0.078880005 0.040434286 0.69600004 11964754
-0.077554293 0.040434286 0.69600004 12030547
-0.076228574 0.040434286 0.69600004 11572001
-0.074902862 0.040434286 0.69600004 13940549
-0.073577143 0.040434286 0.69600004 13615248
-0.072355241 0.040492382 0.69700003 12694146
-0.071027622 0.040492382 0.69700003 12229995
-0.069700003 0.040492382 0.69700003 12493167
-0.068372384 0.040492382 0.69700003 13018230
-0.067044765 0.040492382 0.69700003 12689265
-0.065717146 0.040492382 0.69700003 12228709
-0.064389527 0.040492382 0.69700003 12031330
-0.063061908 0.040492382 0.69700003 11768942
-0.061822858 0.040550474 0.69800001 13479560
-0.060406666 0.040492382 0.69700003 12624311
-0.059079047 0.040492382 0.69700003 12229553
-0.057751432 0.040492382 0.69700003 11964807
-0.056423813 0.040492382 0.69700003 12359565
-0.055175241 0.040550474 0.69800001 12821119
-0.053845715 0.040550474 0.69800001 13413256
-0.052516192 0.040550474 0.69800001 13479872
-0.05118667 0.040550474 0.69800001 13348286
-0.049857143 0.040550474 0.69800001 12954014
-0.048527621 0.040550474 0.69800001 11835533
-0.047198098 0.040550474 0.69800001 12623394
-0.045868572 0.040550474 0.69800001 14202426
-0.044539049 0.040550474 0.69800001 14927032
-0.04314762 0.040492382 0.69700003 14663860
-0.041820001 0.040492382 0.69700003 14074296
-0.040492382 0.040492382 0.69700003 14074296
-0.039164763 0.040492382 0.69700003 14403009
-0.037837144 0.040492382 0.69700003 13942458
-0.036561903 0.040550474 0.69800001 13677434
-0.03523238 0.040550474 0.69800001 13874813
-0.033902857 0.040550474 0.69800001 14136463
-0.032573331 0.040550474 0.69800001 14465428
-0.031243809 0.040550474 0.69800001 14532246
-0.029914286 0.040550474 0.69800001 14598039
-0.028543809 0.040492382 0.69700003 14466444
-0.027216192 0.040492382 0.69700003 12953205
-0.025925715 0.040550474 0.69800001 13017710
-0.02459619 0.040550474 0.69800001 13609847
-0.023266668 0.040550474 0.69800001 13677950
-0.021937143 0.040550474 0.69800001 13743743
-0.020607619 0.040550474 0.69800001 14137990
-0.019278096 0.040550474 0.69800001 13874818
-0.017948572 0.040550474 0.69800001 14005620
-0.016619049 0.040550474 0.69800001 13479276
-0.015289525 0.040550474 0.69800001 13083746
-0.01396 0.040550474 0.69800001 12886367
-0.012630476 0.040550474 0.69800001 12623978
-0.011300952 0.040550474 0.69800001 12097634
-0.0099714287 0.040550474 0.69800001 11179374
-0.0086419052 0.040550474 0.69800001 10653030
-0.0073123807 0.040550474 0.69800001 10457478
-0.11133334 0.042000003 0.70000005 9866129
-0.10968572 0.04188 0.69800001 9537164
-0.10820096 0.041820001 0.69700003 10520459
-0.10687333 0.041820001 0.69700003 11309975
-0.1053943 0.041760001 0.69600004 11964790
-0.10406857 0.041760001 0.69600004 12885892
-0.10274286 0.041760001 0.69600004 12558701
-0.10141715 0.041760001 0.69600004 12756080
-0.10009144 0.041760001 0.69600004 12625264
-0.098765716 0.041760001 0.69600004 12691057
-0.097440004 0.041760001 0.69600004 12625525
-0.096114293 0.041760001 0.69600004 12691318
-0.094788581 0.041760001 0.69600004 12757341
-0.093462862 0.041760001 0.69600004 12888927
-0.092137143 0.041760001 0.69600004 13151840
-0.090811431 0.041760001 0.69600004 13546598
-0.08948572 0.041760001 0.69600004 13940363
-0.088160008 0.041760001 0.69600004 14795672
-0.086834289 0.041760001 0.69600004 14663853
-0.085508578 0.041760001 0.69600004 14269095
-0.084182858 0.041760001 0.69600004 14400639
-0.082857147 0.041760001 0.69600004 14466432
-0.081531428 0.041760001 0.69600004 14203778
-0.080205716 0.041760001 0.69600004 14203778
-0.078880005 0.041760001 0.69600004 14664606
-0.077554293 0.041760001 0.69600004 14467227
-0.076228574 0.041760001 0.69600004 14598786
-0.074902862 0.041760001 0.69600004 15190923
-0.073577143 0.041760001 0.69600004 14600578
-0.072355241 0.041820001 0.69700003 13416304
-0.071027622 0.041820001 0.69700003 13349755
-0.069700003 0.041820001 0.69700003 13481341
-0.068372384 0.041820001 0.69700003 14863750
-0.067044765 0.041820001 0.69700003 15258508
-0.065717146 0.041820001 0.69700003 14799291
-0.064389527 0.041820001 0.69700003 15128256
-0.063061908 0.041820001 0.69700003 16380370
-0.061822858 0.04188 0.69800001 16777184
-0.060406666 0.041820001 0.69700003 16645629
-0.059079047 0.041820001 0.69700003 16645629
-0.057751432 0.041820001 0.69700003 16711422
-0.056423813 0.041820001 0.69700003 16711422
-0.055175241 0.04188 0.69800001 16711422
-0.053845715 0.04188 0.69800001 16711422
-0.052516192 0.04188 0.69800001 16645118
-0.051113334 0.041820001 0.69700003 16250360
-0.049785715 0.041820001 0.69700003 14998737
-0.048458096 0.041820001 0.69700003 11314329
-0.04713048 0.041820001 0.69700003 11309645
-0.045868572 0.04188 0.69800001 15783569
-0.044475239 0.041820001 0.69700003 16113384
-0.04314762 0.041820001 0.69700003 15587040
-0.041760001 0.041760001 0.69600004 14534093
-0.040434286 0.041760001 0.69600004 14402507
-0.039164763 0.041820001 0.69700003 14863308
-0.037837144 0.041820001 0.69700003 14665929
-0.036561903 0.04188 0.69800001 15058812
-0.03523238 0.04188 0.69800001 15387777
-0.033902857 0.04188 0.69800001 15387032
-0.032573331 0.04188 0.69800001 15452825
-0.031243809 0.04188 0.69800001 14532241
-0.029914286 0.04188 0.69800001 13019002
-0.028543809 0.041820001 0.69700003 12820826
-0.027216192 0.041820001 0.69700003 12689240
-0.025925715 0.04188 0.69800001 12755026
-0.02459619 0.04188 0.69800001 12952405
-0.023266668 0.04188 0.69800001 12886862
-0.021937143 0.04188 0.69800001 12886862
-0.020607619 0.04188 0.69800001 12886612
-0.019278096 0.04188 0.69800001 12820819
-0.017948572 0.04188 0.69800001 12821069
-0.016619049 0.04188 0.69800001 12886862
-0.015289525 0.04188 0.69800001 12755026
-0.01396 0.04188 0.69800001 12557647
-0.012630476 0.04188 0.69800001 12557663
-0.011284763 0.041820001 0.69700003 12557663
-0.0099571431 0.041820001 0.69700003 11771495
-0.0086419052 0.04188 0.69800001 10718807
-0.0073123807 0.04188 0.69800001 10522501
-0.10968572 0.043209527 0.69800001 9602700
-0.10820096 0.04314762 0.69700003 10322567
-0.10687333 0.04314762 0.69700003 11112083
-0.10554572 0.04314762 0.69700003 11767915
-0.1042181 0.04314762 0.69700003 12689017
-0.10274286 0.043085717 0.69600004 12362335
-0.10141715 0.043085717 0.69600004 12822886
-0.10009144 0.043085717 0.69600004 12822380
-0.098765716 0.043085717 0.69600004 12756587
-0.097440004 0.043085717 0.69600004 12953716
-0.096114293 0.043085717 0.69600004 12953716
-0.094788581 0.043085717 0.69600004 13085277
-0.093462862 0.043085717 0.69600004 13414242
-0.092137143 0.043085717 0.69600004 13479274
-0.090811431 0.043085717 0.69600004 13676653
-0.08948572 0.043085717 0.69600004 14071424
-0.088160008 0.043085717 0.69600004 14992526
-0.086834289 0.043085717 0.69600004 14927006
-0.085508578 0.043085717 0.69600004 14729627
-0.084182858 0.043085717 0.69600004 14926724
-0.082857147 0.043085717 0.69600004 15124103
-0.081531428 0.043085717 0.69600004 15322005
-0.080205716 0.043085717 0.69600004 15387798
-0.078880005 0.043085717 0.69600004 15586238
-0.077554293 0.043085717 0.69600004 14994101
-0.076228574 0.043085717 0.69600004 15320987
-0.074902862 0.043085717 0.69600004 15452573
-0.073577143 0.043085717 0.69600004 15124124
-0.072355241 0.04314762 0.69700003 14729366
-0.071027622 0.04314762 0.69700003 14140034
-0.069700003 0.04314762 0.69700003 14140034
-0.068372384 0.04314762 0.69700003 14273733
-0.067044765 0.04314762 0.69700003 15063249
-0.065717146 0.04314762 0.69700003 15064537
-0.064389527 0.04314762 0.69700003 15525088
-0.063061908 0.04314762 0.69700003 16381685
-0.061734285 0.04314762 0.69700003 16776700
-0.060406666 0.04314762 0.69700003 16711422
-0.059079047 0.04314762 0.69700003 16711422
-0.057751432 0.04314762 0.69700003 16711422
-0.056423813 0.04314762 0.69700003 16711422
-0.055175241 0.043209527 0.69800001 16711422
-0.053845715 0.043209527 0.69800001 16711422
-0.052516192 0.043209527 0.69800001 16711422
-0.051113334 0.04314762 0.69700003 16711422
-0.049785715 0.04314762 0.69700003 15790322
-0.048458096 0.04314762 0.69700003 13224395
-0.04713048 0.04314762 0.69700003 11179193
-0.045802858 0.04314762 0.69700003 14074085
-0.044475239 0.04314762 0.69700003 15522510
-0.043085717 0.043085717 0.69600004 14996166
-0.041760001 0.043085717 0.69600004 13875616
-0.040434286 0.043085717 0.69600004 13875616
-0.039164763 0.04314762 0.69700003 14466466
-0.037837144 0.04314762 0.69700003 14466466
-0.036509525 0.04314762 0.69700003 14005881
-0.035181906 0.04314762 0.69700003 14071674
-0.033854287 0.04314762 0.69700003 14070661
-0.032526664 0.04314762 0.69700003 14202247
-0.031199049 0.04314762 0.69700003 13940354
-0.02987143 0.04314762 0.69700003 12624494
-0.028543809 0.04314762 0.69700003 12755022
-0.027216192 0.04314762 0.69700003 12886608
-0.025888572 0.04314762 0.69700003 12623177
-0.024560954 0.04314762 0.69700003 12952142
-0.023233334 0.04314762 0.69700003 12951885
-0.021905715 0.04314762 0.69700003 12951885
-0.020578096 0.04314762 0.69700003 12885856
-0.019250477 0.04314762 0.69700003 12688477
-0.017922858 0.04314762 0.69700003 12491852
-0.016595239 0.04314762 0.69700003 12557645
-0.015267619 0.04314762 0.69700003 12492120
-0.013940001 0.04314762 0.69700003 12492120
-0.012612381 0.04314762 0.69700003 12360536
-0.011268572 0.043085717 0.69600004 12623708
-0.0099428575 0.043085717 0.69600004 12034165
-0.0086171431 0.043085717 0.69600004 10915684
-0.10968572 0.044539049 0.69800001 9602446
-0.10820096 0.044475239 0.69700003 10388103
-0.10687333 0.044475239 0.69700003 11177619
-0.1053943 0.044411432 0.69600004 12360806
-0.10406857 0.044411432 0.69600004 13216115
-0.10274286 0.044411432 0.69600004 13019218
-0.10141715 0.044411432 0.69600004 13150804
-0.10009144 0.044411432 0.69600004 13018975
-0.098765716 0.044411432 0.69600004 12953182
-0.097440004 0.044411432 0.69600004 13019750
-0.096114293 0.044411432 0.69600004 13019750
-0.094788581 0.044411432 0.69600004 13151324
-0.093462862 0.044411432 0.69600004 13414496
-0.092137143 0.044411432 0.69600004 13413222
-0.090811431 0.044411432 0.69600004 12886878
-0.08948572 0.044411432 0.69600004 13545291
-0.088160008 0.044411432 0.69600004 14466393
-0.086834289 0.044411432 0.69600004 14465919
-0.085508578 0.044411432 0.69600004 14334333
-0.084182858 0.044411432 0.69600004 14466164
-0.082857147 0.044411432 0.69600004 14860922
-0.081531428 0.044411432 0.69600004 14598259
-0.07997524 0.044283811 0.69400001 14269294
-0.078653328 0.044283811 0.69400001 14400401
-0.077331424 0.044283811 0.69400001 14531987
-0.076009519 0.044283811 0.69400001 13873557
-0.074687615 0.044283811 0.69400001 13478799
-0.073577143 0.044411432 0.69600004 13414038
-0.072355241 0.044475239 0.69700003 13479831
-0.071027622 0.044475239 0.69700003 12298332
-0.069700003 0.044475239 0.69700003 13351020
-0.068372384 0.044475239 0.69700003 15657185
-0.067140952 0.044539049 0.69800001 16776694
-0.064397149 0.043581907 0.68300003 16711422
-0.063003816 0.0435181 0.68200004 16711422
-0.061704762 0.0435181 0.68200004 16711422
-0.060405716 0.0435181 0.68200004 16645629
-0.05910667 0.0435181 0.68200004 16579834
-0.057807621 0.0435181 0.68200004 16514041
-0.056508575 0.0435181 0.68200004 16514043
-0.055209529 0.0435181 0.68200004 16514043
-0.053752381 0.043390475 0.68000001 16514043
-0.052457143 0.043390475 0.68000001 16514043
-0.052516192 0.044539049 0.69800001 16645629
-0.051113334 0.044475239 0.69700003 16711422
-0.049785715 0.044475239 0.69700003 16711422
-0.048458096 0.044475239 0.69700003 16711422
-0.04713048 0.044475239 0.69700003 15788798
-0.045802858 0.044475239 0.69700003 10656944
-0.044411432 0.044411432 0.69600004 11047192
-0.042961907 0.044283811 0.69400001 12099880
-0.041639999 0.044283811 0.69400001 12623940
-0.040318094 0.044283811 0.69400001 12821319
-0.039108574 0.044411432 0.69600004 13018705
-0.037782859 0.044411432 0.69600004 13150291
-0.036457144 0.044411432 0.69600004 12886360
-0.035131428 0.044411432 0.69600004 12754774
-0.033805717 0.044411432 0.69600004 12821069
-0.032480001 0.044411432 0.69600004 13018448
-0.031199049 0.044475239 0.69700003 12953427
-0.029828573 0.044411432 0.69600004 12953427
-0.028420953 0.044283811 0.69400001 12952923
-0.027099047 0.044283811 0.69400001 13018716
-0.025851429 0.044411432 0.69600004 13018457
-0.024525715 0.044411432 0.69600004 13084250
-0.0232 0.044411432 0.69600004 13018709
-0.021874286 0.044411432 0.69600004 13018709
-0.020548573 0.044411432 0.69600004 13082992
-0.019250477 0.044475239 0.69700003 12951406
-0.017897144 0.044411432 0.69600004 12623195
-0.01657143 0.044411432 0.69600004 12623195
-0.015245715 0.044411432 0.69600004 12754531
-0.01388 0.044283811 0.69400001 12951910
-0.012558095 0.044283811 0.69400001 12491600
-0.011236191 0.044283811 0.69400001 12360014
-0.0099142855 0.044283811 0.69400001 11704932
-0.0085923811 0.044283811 0.69400001 11112795
-0.10968572 0.045868572 0.69800001 9667978
-0.10820096 0.045802858 0.69700003 10388351
-0.10672001 0.045737144 0.69600004 11177867
-0.1053943 0.045737144 0.69600004 12689258
-0.10376953 0.045605715 0.69400001 12952430
-0.10244761 0.045605715 0.69400001 12951899
-0.10141715 0.045737144 0.69600004 13017692
-0.10009144 0.045737144 0.69600004 12886369
-0.098765716 0.045737144 0.69600004 13017955
-0.097440004 0.045737144 0.69600004 12886887
-0.096114293 0.045737144 0.69600004 12886887
-0.094788581 0.045737144 0.69600004 13018718
-0.093194291 0.045605715 0.69400001 13347683
-0.091872387 0.045605715 0.69400001 13281888
-0.090550475 0.045605715 0.69400001 12558165
-0.08922857 0.045605715 0.69400001 12688450
-0.087906666 0.045605715 0.69400001 13477966
-0.086584762 0.045605715 0.69400001 13414510
-0.085508578 0.045737144 0.69600004 12756580
-0.084182858 0.045737144 0.69600004 13018187
-0.082619049 0.045605715 0.69400001 13215566
-0.081297144 0.045605715 0.69400001 13084759
-0.07997524 0.045605715 0.69400001 13084759
-0.078540005 0.045540001 0.69300002 13414262
-0.07722 0.045540001 0.69300002 13348469
-0.075899996 0.045540001 0.69300002 13085043
-0.074580006 0.045540001 0.69300002 12558699
-0.073365718 0.045605715 0.69400001 12231258
-0.072251432 0.045737144 0.69600004 12165465
-0.069600955 0.04488286 0.68300003 11310969
-0.0682 0.044817146 0.68200004 14995377
-0.066704765 0.044685714 0.68000001 16381687
-0.065409526 0.044685714 0.68000001 16776702
-0.064114287 0.044685714 0.68000001 16711422
-0.062819049 0.044685714 0.68000001 16711422
-0.061523806 0.044685714 0.68000001 16645629
-0.060228571 0.044685714 0.68000001 16514043
-0.05910667 0.044817146 0.68200004 16514043
-0.057807621 0.044817146 0.68200004 16514043
-0.056508575 0.044817146 0.68200004 16514043
-0.054966666 0.04462 0.67900002 16514043
-0.053594287 0.044554286 0.67800003 16514043
-0.052148577 0.044422861 0.67600006 16514043
-0.050785713 0.044357143 0.67500001 16514043
-0.049500003 0.044357143 0.67500001 16579836
-0.048214287 0.044357143 0.67500001 16711422
-0.048458096 0.045802858 0.69700003 16711422
-0.04713048 0.045802858 0.69700003 16711422
-0.045802858 0.045802858 0.69700003 14145495
-0.044411432 0.045737144 0.69600004 10392743
-0.042961907 0.045605715 0.69400001 10458536
-0.041639999 0.045605715 0.69400001 12295236
-0.040318094 0.045605715 0.69400001 13150545
-0.03899619 0.045605715 0.69400001 13084759
-0.037674285 0.045605715 0.69400001 12887380
-0.036352381 0.045605715 0.69400001 12952401
-0.035030477 0.045605715 0.69400001 12952401
-0.033708572 0.045605715 0.69400001 12952914
-0.032340001 0.045540001 0.69300002 13018707
-0.031019999 0.045540001 0.69300002 13018975
-0.029700002 0.045540001 0.69300002 12953182
-0.028380001 0.045540001 0.69300002 12953182
-0.02706 0.045540001 0.69300002 13018975
-0.025777142 0.045605715 0.69400001 13018975
-0.024455238 0.045605715 0.69400001 12953182
-0.023133334 0.045605715 0.69400001 13018464
-0.021874286 0.045737144 0.69600004 12886878
-0.020548573 0.045737144 0.69600004 12820322
-0.019222859 0.045737144 0.69600004 12754529
-0.017897144 0.045737144 0.69600004 12622936
-0.01657143 0.045737144 0.69600004 12557143
-0.01518 0.045540001 0.69300002 12425287
-0.01386 0.045540001 0.69300002 12556873
-0.012558095 0.045605715 0.69400001 12491593
-0.01122 0.045540001 0.69300002 12360007
-0.0098999999 0.045540001 0.69300002 11704169
-0.0085800001 0.045540001 0.69300002 11177825
-0.10641333 0.04692762 0.69400001 11177605
-0.10509143 0.04692762 0.69400001 12427090
-0.10376953 0.04692762 0.69400001 12427090
-0.1023 0.046860002 0.69300002 12556893
-0.10098 0.046860002 0.69300002 12556893
-0.099803805 0.04692762 0.69400001 12491100
-0.098481901 0.04692762 0.69400001 12425307
-0.097159997 0.04692762 0.69400001 12425559
-0.095838092 0.04692762 0.69400001 12425559
-0.094516195 0.04692762 0.69400001 12491352
-0.093194291 0.04692762 0.69400001 12491352
-0.091872387 0.04692762 0.69400001 12688970
-0.090550475 0.04692762 0.69400001 12820556
-0.08922857 0.04692762 0.69400001 12425289
-0.087906666 0.04692762 0.69400001 12293703
-0.086584762 0.04692762 0.69400001 12491593
-0.085262857 0.04692762 0.69400001 12557386
-0.083940953 0.04692762 0.69400001 12360499
-0.082499996 0.046860002 0.69300002 12426292
-0.081180006 0.046860002 0.69300002 12623688
-0.079860002 0.046860002 0.69300002 12689481
-0.078540005 0.046860002 0.69300002 12558926
-0.07722 0.046860002 0.69300002 12624719
-0.075680956 0.046724766 0.69100004 12558669
-0.074364766 0.046724766 0.69100004 12032325
-0.073048577 0.046724766 0.69100004 11244580
-0.071732387 0.046724766 0.69100004 13415749
-0.069600955 0.046183813 0.68300003 14275048
-0.068000004 0.045980949 0.68000001 16775679
-0.066704765 0.045980949 0.68000001 16711422
-0.065409526 0.045980949 0.68000001 16711422
-0.064114287 0.045980949 0.68000001 16514043
-0.062819049 0.045980949 0.68000001 16514043
-0.061523806 0.045980949 0.68000001 16514043
-0.060140003 0.045913331 0.67900002 16514043
-0.058846667 0.045913331 0.67900002 16514043
-0.057638094 0.045980949 0.68000001 16514043
-0.056342855 0.045980949 0.68000001 16514043
-0.054966666 0.045913331 0.67900002 16514043
-0.053594287 0.045845713 0.67800003 16514043
-0.052148577 0.045710482 0.67600006 16514043
-0.050785713 0.045642857 0.67500001 16514043
-0.049500003 0.045642857 0.67500001 16514043
-0.048214287 0.045642857 0.67500001 16514043
-0.046998098 0.045710482 0.67600006 16645629
-0.047198098 0.047198098 0.69800001 16711422
-0.045802858 0.04713048 0.69700003 16711422
-0.044411432 0.047062859 0.69600004 16315391
-0.042961907 0.04692762 0.69400001 10920366
-0.041579999 0.046860002 0.69300002 11900755
-0.040260002 0.046860002 0.69300002 13348201
-0.038940001 0.046860002 0.69300002 13413726
-0.037620001 0.046860002 0.69300002 13150554
-0.0363 0.046860002 0.69300002 13084498
-0.034979999 0.046860002 0.69300002 13084498
-0.033660002 0.046860002 0.69300002 13084502
-0.032340001 0.046860002 0.69300002 13150295
-0.031019999 0.046860002 0.69300002 12886630
-0.029700002 0.046860002 0.69300002 12557665
-0.028298097 0.046724766 0.69100004 12754772
-0.026981905 0.046724766 0.69100004 13017944
-0.025739999 0.046860002 0.69300002 12820567
-0.024420001 0.046860002 0.69300002 12688981
-0.0231 0.046860002 0.69300002 12688731
-0.021780001 0.046860002 0.69300002 12557145
-0.02046 0.046860002 0.69300002 12227656
-0.01914 0.046860002 0.69300002 12161863
-0.017768573 0.046724766 0.69100004 12161615
-0.016452381 0.046724766 0.69100004 11964236
-0.015136191 0.046724766 0.69100004 12425506
-0.01382 0.046724766 0.69100004 12688678
-0.01250381 0.046724766 0.69100004 12491325
-0.01118762 0.046724766 0.69100004 12228153
-0.0098714288 0.046724766 0.69100004 11439977
-0.0085552391 0.046724766 0.69100004 11176805
-0.10580001 0.047971431 0.69000006 11309959
-0.10448572 0.047971431 0.69000006 12427097
-0.10317144 0.047971431 0.69000006 12427097
-0.10200477 0.048040956 0.69100004 12295002
-0.10068858 0.048040956 0.69100004 12097623
-0.099372379 0.048040956 0.69100004 12228696
-0.098056197 0.048040956 0.69100004 12228696
-0.09702 0.048179999 0.69300002 12425044
-0.095700003 0.048179999 0.69300002 12425044
-0.094379999 0.048179999 0.69300002 12425046
-0.093060002 0.048179999 0.69300002 12359253
-0.091740005 0.048179999 0.69300002 12425550
-0.09042 0.048179999 0.69300002 12557136
-0.088842861 0.048040956 0.69100004 12688202
-0.087526672 0.048040956 0.69100004 12688202
-0.086460002 0.048179999 0.69300002 12622427
-0.085140005 0.048179999 0.69300002 12622427
-0.08382 0.048179999 0.69300002 12623690
-0.082499996 0.048179999 0.69300002 12689483
-0.081180006 0.048179999 0.69300002 12821330
-0.079629533 0.048040956 0.69100004 12755537
-0.078313336 0.048040956 0.69100004 12689753
-0.076997146 0.048040956 0.69100004 12623960
-0.075680956 0.048040956 0.69100004 12689233
-0.074364766 0.048040956 0.69100004 11833924
-0.073048577 0.048040956 0.69100004 10587203
-0.071005717 0.047554284 0.68400002 16442780
-0.069499053 0.047415242 0.68200004 16053499
-0.068000004 0.047276188 0.68000001 16645631
-0.066606671 0.047206666 0.67900002 16711422
-0.065313332 0.047206666 0.67900002 16514043
-0.06402 0.047206666 0.67900002 16514043
-0.062726662 0.047206666 0.67900002 16514043
-0.061433338 0.047206666 0.67900002 16514043
-0.060140003 0.047206666 0.67900002 16514043
-0.058846667 0.047206666 0.67900002 16514043
-0.057553336 0.047206666 0.67900002 16514043
-0.056260001 0.047206666 0.67900002 16514043
-0.054966666 0.047206666 0.67900002 16514043
-0.053594287 0.047137145 0.67800003 16514043
-0.05230286 0.047137145 0.67800003 16514043
-0.050860956 0.046998098 0.67600006 16514043
-0.04957334 0.046998098 0.67600006 16514043
-0.048285719 0.046998098 0.67600006 16514043
-0.046998098 0.046998098 0.67600006 16514043
-0.045642857 0.046928573 0.67500001 16711422
-0.044357143 0.046928573 0.67500001 16711422
-0.044283811 0.04824952 0.69400001 16711422
-0.0429 0.048179999 0.69300002 11645361
-0.041579999 0.048179999 0.69300002 11506522
-0.040260002 0.048179999 0.69300002 12756589
-0.038940001 0.048179999 0.69300002 13084250
-0.037620001 0.048179999 0.69300002 12952664
-0.036195237 0.048040956 0.69100004 12623438
-0.034879047 0.048040956 0.69100004 12689231
-0.033562858 0.048040956 0.69100004 12951894
-0.032246668 0.048040956 0.69100004 12951894
-0.030930476 0.048040956 0.69100004 12689231
-0.029614286 0.048040956 0.69100004 12557645
-0.028298097 0.048040956 0.69100004 12754506
-0.026981905 0.048040956 0.69100004 12491334
-0.025665715 0.048040956 0.69100004 12621881
-0.024349526 0.048040956 0.69100004 12556088
-0.0231 0.048179999 0.69300002 12556348
-0.021780001 0.048179999 0.69300002 12622141
-0.02046 0.048179999 0.69300002 12227901
-0.01914 0.048179999 0.69300002 12096315
-0.017768573 0.048040956 0.69100004 12029495
-0.016428573 0.047971431 0.69000006 12358460
-0.015114286 0.047971431 0.69000006 12622129
-0.013800002 0.047971431 0.69000006 12819508
-0.012485715 0.047971431 0.69000006 12687682
-0.011171429 0.047971431 0.69000006 12424510
-0.0098571433 0.047971431 0.69000006 11505509
-0.0085428581 0.047971431 0.69000006 11176544
-0.10664857 0.049071431 0.68700004 10255990
-0.10534 0.049071431 0.68700004 11703436
-0.10403144 0.049071431 0.68700004 12558417
-0.10272286 0.049071431 0.68700004 12492624
-0.10156191 0.04914286 0.68800002 12295000
-0.10025143 0.04914286 0.68800002 12229207
-0.098940954 0.04914286 0.68800002 12294489
-0.097914286 0.049285717 0.69000006 12294489
-0.09674 0.049357146 0.69100004 12425557
-0.095423818 0.049357146 0.69100004 12425557
-0.09410762 0.049357146 0.69100004 12359766
-0.092791438 0.049357146 0.69100004 12359766
-0.091475241 0.049357146 0.69100004 12425048
-0.090159051 0.049357146 0.69100004 12490841
-0.088842861 0.049357146 0.69100004 12490837
-0.087526672 0.049357146 0.69100004 12819802
-0.086210482 0.049357146 0.69100004 12819820
-0.084894292 0.049357146 0.69100004 12622441
-0.083578095 0.049357146 0.69100004 12754524
-0.082261913 0.049357146 0.69100004 13149282
-0.080945715 0.049357146 0.69100004 12887123
-0.079629533 0.049357146 0.69100004 12887123
-0.078313336 0.049357146 0.69100004 12821096
-0.076997146 0.049357146 0.69100004 12689510
-0.075571433 0.049285717 0.69000006 12492624
-0.07425715 0.049285717 0.69000006 11176764
-0.072097145 0.048714288 0.68200004 11246196
-0.070590481 0.048571426 0.68000001 16776663
-0.069295242 0.048571426 0.68000001 16711422
-0.067900002 0.048500001 0.67900002 16711422
-0.066606671 0.048500001 0.67900002 16579836
-0.065217145 0.048428573 0.67800003 16514043
-0.063925713 0.048428573 0.67800003 16514043
-0.062634289 0.048428573 0.67800003 16514043
-0.061342862 0.048428573 0.67800003 16514043
-0.060051434 0.048428573 0.67800003 16514043
-0.058760002 0.048428573 0.67800003 16514043
-0.057468574 0.048428573 0.67800003 16514043
-0.056177147 0.048428573 0.67800003 16514043
-0.054885715 0.048428573 0.67800003 16514043
-0.053594287 0.048428573 0.67800003 16514043
-0.05230286 0.048428573 0.67800003 16514043
-0.050860956 0.048285719 0.67600006 16514043
-0.04957334 0.048285719 0.67600006 16514043
-0.048285719 0.048285719 0.67600006 16514043
-0.046998098 0.048285719 0.67600006 16514043
-0.045642857 0.048214287 0.67500001 16514043
-0.044028569 0.047857143 0.67000002 16711422
-0.042752381 0.047857143 0.67000002 16711422
-0.0429 0.049500003 0.69300002 12500670
-0.04146 0.049357146 0.69100004 11373932
-0.04014381 0.049357146 0.69100004 11505518
-0.03882762 0.049357146 0.69100004 12490051
-0.037511431 0.049357146 0.69100004 12753223
-0.036195237 0.049357146 0.69100004 12555344
-0.034879047 0.049357146 0.69100004 12489551
-0.033562858 0.049357146 0.69100004 12425037
-0.032246668 0.049357146 0.69100004 12425037
-0.030885719 0.049285717 0.69000006 12556345
-0.029571431 0.049285717 0.69000006 12753724
-0.028257145 0.049285717 0.69000006 12621378
-0.02694286 0.049285717 0.69000006 12489792
-0.025665715 0.049357146 0.69100004 12424230
-0.024349526 0.049357146 0.69100004 12424230
-0.023033334 0.049357146 0.69100004 12424977
-0.021685716 0.049285717 0.69000006 12753942
-0.02037143 0.049285717 0.69000006 12555324
-0.019057145 0.049285717 0.69000006 12489531
-0.017742857 0.049285717 0.69000006 12555074
-0.016380953 0.04914286 0.68800002 12620867
-0.015070477 0.04914286 0.68800002 12884022
-0.01376 0.04914286 0.68800002 13015608
-0.012449524 0.04914286 0.68800002 12818740
-0.011139047 0.04914286 0.68800002 12752947
-0.0098285722 0.04914286 0.68800002 11506022
-0.0085428581 0.049285717 0.69000006 11374436
-0.10664857 0.050380003 0.68700004 10255213
-0.10534 0.050380003 0.68700004 12360589
-0.10403144 0.050380003 0.68700004 12755022
-0.10272286 0.050380003 0.68700004 12557643
-0.10156191 0.050453335 0.68800002 12229459
-0.10010572 0.050380003 0.68700004 12032080
-0.09879715 0.050380003 0.68700004 12228691
-0.097488575 0.050380003 0.68700004 12294484
-0.096320003 0.050453335 0.68800002 12426059
-0.095009528 0.050453335 0.68800002 12426059
-0.09410762 0.050673336 0.69100004 12425546
-0.092791438 0.050673336 0.69100004 12491339
-0.091475241 0.050673336 0.69100004 12359262
-0.090159051 0.050673336 0.69100004 12425055
-0.088842861 0.050673336 0.69100004 12491600
-0.087526672 0.050673336 0.69100004 12688979
-0.086210482 0.050673336 0.69100004 12622947
-0.084771439 0.050600003 0.69000006 12557154
-0.08345715 0.050600003 0.69000006 12622929
-0.082142867 0.050600003 0.69000006 13017687
-0.080828577 0.050600003 0.69000006 12756057
-0.079514287 0.050600003 0.69000006 12690264
-0.078200005 0.050600003 0.69000006 12755303
-0.076885715 0.050600003 0.69000006 12623717
-0.075571433 0.050600003 0.69000006 12294986
-0.07404191 0.050453335 0.68800002 11439677
-0.072097145 0.050013337 0.68200004 11510947
-0.070590481 0.049866665 0.68000001 16776186
-0.069091432 0.04972 0.67800003 16711422
-0.0678 0.04972 0.67800003 16645629
-0.066508569 0.04972 0.67800003 16514043
-0.065024771 0.04957334 0.67600006 16514043
-0.063737147 0.04957334 0.67600006 16514043
-0.06244953 0.04957334 0.67600006 16514043
-0.061161913 0.04957334 0.67600006 16514043
-0.059874289 0.04957334 0.67600006 16514043
-0.058586672 0.04957334 0.67600006 16514043
-0.057299051 0.04957334 0.67600006 16514043
-0.056011431 0.04957334 0.67600006 16514043
-0.054723814 0.04957334 0.67600006 16514043
-0.053436194 0.04957334 0.67600006 16514043
-0.052148577 0.04957334 0.67600006 16514043
-0.050860956 0.04957334 0.67600006 16514043
-0.04957334 0.04957334 0.67600006 16514043
-0.048285719 0.04957334 0.67600006 16514043
-0.046928573 0.049500003 0.67500001 16514043
-0.045642857 0.049500003 0.67500001 16514043
-0.044028569 0.049133334 0.67000002 16711422
-0.042752381 0.049133334 0.67000002 16711422
-0.042714287 0.050600003 0.69000006 12829635
-0.041400004 0.050600003 0.69000006 12028808
-0.040085718 0.050600003 0.69000006 11699843
-0.038659051 0.050453335 0.68800002 12489001
-0.037348572 0.050453335 0.68800002 13015345
-0.03614286 0.050600003 0.69000006 12817985
-0.034828573 0.050600003 0.69000006 12620606
-0.033514287 0.050600003 0.69000006 12489792
-0.032106668 0.050453335 0.68800002 12555585
-0.030796193 0.050453335 0.68800002 12622644
-0.029485716 0.050453335 0.68800002 12688437
-0.028175239 0.050453335 0.68800002 12489523
-0.026864761 0.050453335 0.68800002 12489523
-0.025628572 0.050600003 0.69000006 12423973
-0.024314288 0.050600003 0.69000006 12555559
-0.022933332 0.050453335 0.68800002 12686900
-0.021622857 0.050453335 0.68800002 12686900
-0.020312382 0.050453335 0.68800002 12751671
-0.019001907 0.050453335 0.68800002 12751671
-0.017691428 0.050453335 0.68800002 12817215
-0.016380953 0.050453335 0.68800002 12817215
-0.015048572 0.050380003 0.68700004 13013807
-0.013740001 0.050380003 0.68700004 13145393
-0.012431429 0.050380003 0.68700004 12685624
-0.011122858 0.050380003 0.68700004 12883003
-0.0098285722 0.050453335 0.68800002 11506263
-0.0085180951 0.050453335 0.68800002 11374677
-0.10780001 0.051613338 0.68600005 9337968
-0.10649334 0.051613338 0.68600005 10713970
-0.10534 0.051688574 0.68700004 13082518
-0.10388 0.051613338 0.68600005 13148487
-0.10257334 0.051613338 0.68600005 12885315
-0.10126667 0.051613338 0.68600005 12556614
-0.099960007 0.051613338 0.68600005 12425028
-0.098653339 0.051613338 0.68600005 12425800
-0.097346671 0.051613338 0.68600005 12360007
-0.09604001 0.051613338 0.68600005 12491332
-0.094871432 0.051688574 0.68700004 12557125
-0.093562864 0.051688574 0.68700004 12622920
-0.092657149 0.05191429 0.69000006 12820299
-0.091342866 0.05191429 0.69000006 12687977
-0.090028577 0.05191429 0.69000006 12556391
-0.088714294 0.05191429 0.69000006 12623440
-0.087400004 0.05191429 0.69000006 12689233
-0.086085722 0.05191429 0.69000006 12688468
-0.084771439 0.05191429 0.69000006 12556882
-0.08345715 0.05191429 0.69000006 12688207
-0.082142867 0.05191429 0.69000006 12688207
-0.080828577 0.05191429 0.69000006 12557647
-0.079283811 0.05176381 0.68800002 12623440
-0.077973336 0.05176381 0.68800002 12359260
-0.076662861 0.05176381 0.68800002 12161881
-0.075352386 0.05176381 0.68800002 11636039
-0.073934287 0.051688574 0.68700004 11767625
-0.07188572 0.051161904 0.68000001 12563142
-0.070382856 0.051011432 0.67800003 16775423
-0.068887629 0.050860956 0.67600006 16711422
-0.067600004 0.050860956 0.67600006 16514043
-0.066312388 0.050860956 0.67600006 16514043
-0.064928576 0.050785713 0.67500001 16514043
-0.063642859 0.050785713 0.67500001 16514043
-0.062357143 0.050785713 0.67500001 16514043
-0.06098095 0.050710477 0.67400002 16514043
-0.059697144 0.050710477 0.67400002 16514043
-0.058499999 0.050785713 0.67500001 16514043
-0.057214286 0.050785713 0.67500001 16514043
-0.055928573 0.050785713 0.67500001 16514043
-0.054642856 0.050785713 0.67500001 16514043
-0.053357143 0.050785713 0.67500001 16514043
-0.052071426 0.050785713 0.67500001 16514043
-0.050785713 0.050785713 0.67500001 16514043
-0.049500003 0.050785713 0.67500001 16514043
-0.048214287 0.050785713 0.67500001 16514043
-0.046928573 0.050785713 0.67500001 16514043
-0.045575239 0.050710477 0.67400002 16514043
-0.044094287 0.050484762 0.671 16711422
-0.042816192 0.050484762 0.671 16711422
-0.042714287 0.05191429 0.69000006 14277081
-0.041400004 0.05191429 0.69000006 12295600
-0.039969526 0.05176381 0.68800002 11506084
-0.038659051 0.05176381 0.68800002 12884261
-0.037348572 0.05176381 0.68800002 13476398
-0.036038093 0.05176381 0.68800002 13212978
-0.034727618 0.05176381 0.68800002 12949806
-0.033417143 0.05176381 0.68800002 12819007
-0.032106668 0.05176381 0.68800002 12819007
-0.030751429 0.051688574 0.68700004 12950828
-0.029442858 0.051688574 0.68700004 13016621
-0.028134288 0.051688574 0.68700004 12751666
-0.026825715 0.051688574 0.68700004 12751666
-0.025554286 0.05176381 0.68800002 12620591
-0.024243811 0.05176381 0.68800002 12752177
-0.022933332 0.05176381 0.68800002 13014344
-0.021591431 0.051688574 0.68700004 12948551
-0.020282857 0.051688574 0.68700004 12816943
-0.018974286 0.051688574 0.68700004 12751150
-0.017665716 0.051688574 0.68700004 12882736
-0.016333334 0.051613338 0.68600005 13014322
-0.015026667 0.051613338 0.68600005 12882475
-0.013720001 0.051613338 0.68600005 12816682
-0.012377143 0.051462859 0.68400002 12750896
-0.011074286 0.051462859 0.68400002 12882482
-0.009800001 0.051613338 0.68600005 11439943
-0.0085057151 0.051688574 0.68700004 11439943
-0.10780001 0.052920006 0.68600005 9469045
-0.10649334 0.052920006 0.68600005 10845031
-0.10518667 0.052920006 0.68600005 13147786
-0.10327429 0.052611433 0.68200004 13279308
-0.10197524 0.052611433 0.68200004 13016136
-0.10097143 0.052765712 0.68400002 12489272
-0.09966857 0.052765712 0.68400002 12620858
-0.098221906 0.052688573 0.68300003 12687682
-0.09692096 0.052688573 0.68300003 12621889
-0.095760003 0.052765712 0.68400002 12358961
-0.094457142 0.052765712 0.68400002 12753719
-0.093426675 0.052920006 0.68600005 12622657
-0.092120007 0.052920006 0.68600005 12688450
-0.090813339 0.052920006 0.68600005 12556373
-0.089637145 0.052997146 0.68700004 12490580
-0.08820001 0.052920006 0.68600005 12622668
-0.086893335 0.052920006 0.68600005 12622668
-0.085586667 0.052920006 0.68600005 12753223
-0.084034286 0.052765712 0.68400002 12621637
-0.082731433 0.052765712 0.68400002 12621639
-0.081666671 0.052920006 0.68600005 12555846
-0.080360003 0.052920006 0.68600005 12490051
-0.079053335 0.052920006 0.68600005 12358465
-0.077746667 0.052920006 0.68600005 12161858
-0.076440006 0.052920006 0.68600005 11767100
-0.075133339 0.052920006 0.68600005 10781952
-0.073826671 0.052920006 0.68600005 11703040
-0.07188572 0.052457143 0.68000001 13220289
-0.070175245 0.052148577 0.67600006 16775423
-0.068785712 0.052071426 0.67500001 16711422
-0.067500003 0.052071426 0.67500001 16514043
-0.066116191 0.051994286 0.67400002 16514043
-0.064832382 0.051994286 0.67400002 16514043
-0.063548572 0.051994286 0.67400002 16514043
-0.062264767 0.051994286 0.67400002 16514043
-0.060800005 0.051840004 0.67200005 16514043
-0.059520006 0.051840004 0.67200005 16514043
-0.058240004 0.051840004 0.67200005 16514043
-0.05687524 0.051762857 0.671 16514043
-0.055597141 0.051762857 0.671 16514043
-0.054319046 0.051762857 0.671 16514043
-0.053040951 0.051762857 0.671 16514043
-0.051762857 0.051762857 0.671 16514043
-0.050560005 0.051840004 0.67200005 16514043
-0.049280003 0.051840004 0.67200005 16514043
-0.048000004 0.051840004 0.67200005 16514043
-0.046720002 0.051840004 0.67200005 16514043
-0.04544 0.051840004 0.67200005 16514043
-0.044094287 0.051762857 0.671 16711422
-0.042816192 0.051762857 0.671 16711422
-0.041538097 0.051762857 0.671 13882323
-0.041220002 0.052997146 0.68700004 12625585
-0.039853338 0.052920006 0.68600005 11375518
-0.03854667 0.052920006 0.68600005 13080865
-0.037240002 0.052920006 0.68600005 13738795
-0.035933334 0.052920006 0.68600005 13278521
-0.034677144 0.052997146 0.68700004 12949556
-0.033368573 0.052997146 0.68700004 13015354
-0.032060001 0.052997146 0.68700004 13015354
-0.030706666 0.052920006 0.68600005 13146933
-0.029400002 0.052920006 0.68600005 13212726
-0.028093336 0.052920006 0.68600005 12882482
-0.026786668 0.052920006 0.68600005 12882482
-0.025480002 0.052920006 0.68600005 12685605
-0.024102857 0.052765712 0.68400002 12882984
-0.0228 0.052765712 0.68400002 13080130
-0.021465715 0.052688573 0.68300003 13080130
-0.020164762 0.052688573 0.68300003 12816421
-0.01889143 0.052765712 0.68400002 12750628
-0.017588571 0.052765712 0.68400002 12750628
-0.016285714 0.052765712 0.68400002 12816421
-0.014960953 0.052688573 0.68300003 12750124
-0.013660001 0.052688573 0.68300003 12750124
-0.012359047 0.052688573 0.68300003 12750647
-0.011058095 0.052688573 0.68300003 12882233
-0.0097571434 0.052688573 0.68300003 10979115
-0.008456191 0.052688573 0.68300003 11439666
-0.10732858 0.053989526 0.68300003 9533816
-0.10602762 0.053989526 0.68300003 10844508
-0.10472667 0.053989526 0.68300003 11765610
-0.10327429 0.053910479 0.68200004 12751389
-0.10197524 0.053910479 0.68200004 12817182
-0.10082381 0.053989526 0.68300003 12554021
-0.099522859 0.053989526 0.68300003 12488228
-0.098221906 0.053989526 0.68300003 12555046
-0.09692096 0.053989526 0.68300003 12555046
-0.095619999 0.053989526 0.68300003 12424475
-0.094457142 0.054068573 0.68400002 12490268
-0.093154289 0.054068573 0.68400002 12621602
-0.091851428 0.054068573 0.68400002 12621602
-0.090548575 0.054068573 0.68400002 12357937
-0.089245714 0.054068573 0.68400002 12357937
-0.087814286 0.053989526 0.68300003 12489029
-0.086513333 0.053989526 0.68300003 12554822
-0.085212387 0.053989526 0.68300003 12489514
-0.083911426 0.053989526 0.68300003 12226342
-0.08261048 0.053989526 0.68300003 12225318
-0.081428573 0.054068573 0.68400002 12093732
-0.080125719 0.054068573 0.68400002 11961355
-0.078822859 0.054068573 0.68400002 11698183
-0.077520005 0.054068573 0.68400002 11830035
-0.076105714 0.053989526 0.68300003 11830035
-0.074695244 0.053910479 0.68200004 11109903
-0.072535239 0.053278096 0.67400002 12162591
-0.071040004 0.053120002 0.67200005 12563887
-0.06976001 0.053120002 0.67200005 16776438
-0.068480007 0.053120002 0.67200005 16711422
-0.067200005 0.053120002 0.67200005 16514043
-0.065920003 0.053120002 0.67200005 16514043
-0.06464 0.053120002 0.67200005 16514043
-0.063360006 0.053120002 0.67200005 16514043
-0.062080003 0.053120002 0.67200005 16514043
-0.060800005 0.053120002 0.67200005 16514043
-0.059431426 0.053040951 0.671 16514043
-0.058153335 0.053040951 0.671 16514043
-0.056790475 0.052961905 0.67000002 16514043
-0.055514287 0.052961905 0.67000002 16514043
-0.054238096 0.052961905 0.67000002 16514043
-0.053040951 0.053040951 0.671 16514043
-0.051762857 0.053040951 0.671 16514043
-0.050484762 0.053040951 0.671 16514043
-0.049206667 0.053040951 0.671 16514043
-0.047928572 0.053040951 0.671 16514043
-0.046650477 0.053040951 0.671 16514043
-0.045372378 0.053040951 0.671 16514043
-0.044094287 0.053040951 0.671 16711422
-0.042816192 0.053040951 0.671 16711422
-0.041538097 0.053040951 0.671 13684944
-0.040560003 0.053436194 0.67600006 12888235
-0.039737143 0.054068573 0.68400002 11374996
-0.038434289 0.054068573 0.68400002 12949020
-0.037131429 0.054068573 0.68400002 13541157
-0.035828575 0.054068573 0.68400002 13343526
-0.034626666 0.05422667 0.68600005 13146147
-0.033320002 0.05422667 0.68600005 13015086
-0.032013334 0.05422667 0.68600005 12949293
-0.030617146 0.054068573 0.68400002 12816943
-0.029314285 0.054068573 0.68400002 12553771
-0.028011428 0.054068573 0.68400002 12750628
-0.026708571 0.054068573 0.68400002 12750628
-0.025405714 0.054068573 0.68400002 12685335
-0.02406762 0.053989526 0.68300003 12619542
-0.022766666 0.053989526 0.68300003 12619301
-0.021465715 0.053989526 0.68300003 12487715
-0.020164762 0.053989526 0.68300003 12684324
-0.01886381 0.053989526 0.68300003 12815910
-0.017562857 0.053989526 0.68300003 12684833
-0.016261905 0.053989526 0.68300003 12816419
-0.014939048 0.053910479 0.68200004 12684592
-0.01364 0.053910479 0.68200004 12553006
-0.012340954 0.053910479 0.68200004 12684592
-0.011041906 0.053910479 0.68200004 12881971
-0.0097428579 0.053910479 0.68200004 11109445
-0.00844381 0.053910479 0.68200004 11504203
-0.10717143 0.055209529 0.68200004 9730432
-0.10587239 0.055209529 0.68200004 10779210
-0.10457334 0.055209529 0.68200004 11831898
-0.10327429 0.055209529 0.68200004 12421150
-0.10167619 0.055047616 0.68000001 12486943
-0.10038095 0.055047616 0.68000001 12421665
-0.099085711 0.055047616 0.68000001 12355872
-0.098078102 0.055209529 0.68200004 12553256
-0.096779048 0.055209529 0.68200004 12553256
-0.095619999 0.055290479 0.68300003 12487706
-0.094319053 0.055290479 0.68300003 12421913
-0.0930181 0.055290479 0.68300003 12684835
-0.091582857 0.055209529 0.68200004 12750628
-0.090283811 0.055209529 0.68200004 12421915
-0.088984765 0.055209529 0.68200004 12224536
-0.087685719 0.055209529 0.68200004 12357120
-0.086386673 0.055209529 0.68200004 12554496
-0.08508762 0.055209529 0.68200004 12490240
-0.083788574 0.055209529 0.68200004 12095488
-0.082489528 0.055209529 0.68200004 12027392
-0.08130952 0.055290479 0.68300003 12158976
-0.079891428 0.055209529 0.68200004 12290816
-0.078592382 0.055209529 0.68200004 12619776
-0.077293336 0.055209529 0.68200004 12818432
-0.075771429 0.055047616 0.68000001 14068480
-0.073490478 0.054319046 0.671 13614080
-0.072212376 0.054319046 0.671 12890368
-0.070934288 0.054319046 0.671 12498552
-0.069656193 0.054319046 0.671 16777157
-0.068378091 0.054319046 0.671 16711422
-0.067100003 0.054319046 0.671 16514043
-0.065821901 0.054319046 0.671 16514043
-0.064543813 0.054319046 0.671 16514043
-0.063265711 0.054319046 0.671 16514043
-0.061987616 0.054319046 0.671 16514043
-0.060709521 0.054319046 0.671 16514043
-0.059431426 0.054319046 0.671 16514043
-0.058153335 0.054319046 0.671 16514043
-0.056790475 0.054238096 0.67000002 16514043
-0.055348575 0.054076191 0.66800004 16514043
-0.054076191 0.054076191 0.66800004 16514043
