# .PCD v0.7 - Point Cloud Data file format
VERSION 0.7
FIELDS x y z rgb
SIZE 4 4 4 4
TYPE F F F F
COUNT 1 1 1 1
WIDTH 1016
HEIGHT 1
VIEWPOINT 0 0 0 1 0 0 0
POINTS 1016
DATA ascii
-0.11452381 0.17519048 0.65000004 7.7509167e-39
-0.11363429 0.17572953 0.65200001 7.6580204e-39
-0.11239238 0.17572953 0.65200001 9.2253461e-39
-0.18432666 0.17452857 0.64300001 8.5785194e-39
-0.18310191 0.17452857 0.64300001 8.5767243e-39
-0.18131144 0.17398572 0.64100003 8.2079418e-39
-0.17980954 0.1737143 0.64000005 7.8413075e-39
-0.17803238 0.17317143 0.63800001 8.947655e-39
-0.17654 0.17290001 0.63700002 8.9494599e-39
-0.17505144 0.17262858 0.63600004 8.0275036e-39
-0.17356667 0.17235716 0.63500005 8.5767243e-39
-0.17208572 0.17208572 0.634 8.4845287e-39
-0.17033905 0.17154287 0.63200003 7.7487587e-39
-0.16886762 0.17127143 0.63100004 7.7487587e-39
-0.16740002 0.17100002 0.63000005 8.1150427e-39
-0.16593619 0.17072856 0.62900001 8.4838252e-39
-0.1647381 0.17072856 0.62900001 9.1295352e-39
-0.16328 0.17045715 0.62800002 9.4061221e-39
-0.1620838 0.17045715 0.62800002 1.0420643e-38
-0.16088763 0.17045715 0.62800002 1.0420643e-38
-0.15969144 0.17045715 0.62800002 9.8707156e-39
-0.15849523 0.17045715 0.62800002 1.1069259e-38
-0.15654762 0.16964285 0.625 1.116217e-38
-0.15535714 0.16964285 0.625 1.116217e-38
-0.15490668 0.17045715 0.62800002 1.1529161e-38
-0.15346572 0.17018571 0.62700003 1.1344769e-38
-0.15227143 0.17018571 0.62700003 1.1345123e-38
-0.15107715 0.17018571 0.62700003 1.1529514e-38
-0.14940476 0.16964285 0.625 1.1438041e-38
-0.14821428 0.16964285 0.625 1.1530237e-38
-0.14749429 0.17018571 0.62700003 1.1713549e-38
-0.14583333 0.16964285 0.625 1.1344767e-38
-0.14464286 0.16964285 0.625 1.0700827e-38
-0.14345238 0.16964285 0.625 1.1622783e-38
-0.14226191 0.16964285 0.625 1.217525e-38
-0.14107142 0.16964285 0.625 1.1990859e-38
-0.14032857 0.17018571 0.62700003 1.1899029e-38
-0.13913429 0.17018571 0.62700003 1.1991225e-38
-0.13794 0.17018571 0.62700003 1.1991581e-38
-0.13674572 0.17018571 0.62700003 1.1991581e-38
-0.13598381 0.17072856 0.62900001 1.1991575e-38
-0.13478573 0.17072856 0.62900001 1.189938e-38
-0.13358761 0.17072856 0.62900001 1.1899382e-38
-0.13260001 0.17100002 0.63000005 1.1899382e-38
-0.13140002 0.17100002 0.63000005 1.1715354e-38
-0.13040666 0.17127143 0.63100004 1.1623158e-38
-0.12940952 0.17154287 0.63200003 1.1622795e-38
-0.12820573 0.17154287 0.63200003 1.15306e-38
-0.12740381 0.17208572 0.634 1.1438404e-38
-0.12639524 0.17235716 0.63500005 1.1346209e-38
-0.12538287 0.17262858 0.63600004 1.1254732e-38
-0.12436667 0.17290001 0.63700002 1.1254732e-38
-0.12334667 0.17317143 0.63800001 1.1346927e-38
-0.1225143 0.1737143 0.64000005 1.0978145e-38
-0.12148476 0.17398572 0.64100003 1.1161815e-38
-0.12026381 0.17398572 0.64100003 1.1069619e-38
-0.11941428 0.17452857 0.64300001 1.0976707e-38
-0.11837334 0.17480001 0.64400005 7.6576645e-39
-0.11751048 0.17534286 0.64600003 6.4644589e-39
-0.11646 0.17561428 0.64700001 9.1381321e-39
-0.11540572 0.17588572 0.648 1.0148016e-38
-0.11487619 0.17697144 0.65200001 8.3041031e-39
-0.11380858 0.17724286 0.65300006 8.4856231e-39
-0.11256477 0.17724286 0.65300006 9.5919707e-39
-0.11132096 0.17724286 0.65300006 9.4100877e-39
-0.18131144 0.17520668 0.64100003 7.379979e-39
-0.17980954 0.17493334 0.64000005 7.3803293e-39
-0.17803238 0.17438667 0.63800001 8.3022856e-39
-0.17654 0.17411333 0.63700002 8.670715e-39
-0.17505144 0.17384002 0.63600004 8.8551063e-39
-0.17356667 0.17356667 0.63500005 9.3160844e-39
-0.17208572 0.17329334 0.634 9.7770626e-39
-0.17033905 0.17274667 0.63200003 9.4097178e-39
-0.16886762 0.17247334 0.63100004 8.856544e-39
-0.16766572 0.17247334 0.63100004 8.1179392e-39
-0.16593619 0.17192666 0.62900001 7.7491567e-39
-0.1647381 0.17192666 0.62900001 8.2093893e-39
-0.16353999 0.17192666 0.62900001 8.1171937e-39
-0.1620838 0.17165335 0.62800002 7.9349703e-39
-0.16088763 0.17165335 0.62800002 9.0413178e-39
-0.15969144 0.17165335 0.62800002 9.0413178e-39
-0.15849523 0.17165335 0.62800002 8.3037528e-39
-0.15729904 0.17165335 0.62800002 7.5669038e-39
-0.15610287 0.17165335 0.62800002 7.3825125e-39
-0.15490668 0.17165335 0.62800002 7.4743579e-39
-0.15371048 0.17165335 0.62800002 7.5665535e-39
-0.15251428 0.17165335 0.62800002 7.6594526e-39
-0.15107715 0.17138 0.62700003 7.7516482e-39
-0.14988287 0.17138 0.62700003 7.6594624e-39
-0.14868857 0.17138 0.62700003 7.751658e-39
-0.14749429 0.17138 0.62700003 7.7513049e-39
-0.1463 0.17138 0.62700003 7.1059355e-39
-0.14510572 0.17138 0.62700003 7.751658e-39
-0.14391144 0.17138 0.62700003 1.1162896e-38
-0.14271715 0.17138 0.62700003 1.2175969e-38
-0.14152287 0.17138 0.62700003 1.1899382e-38
-0.14055239 0.17165335 0.62800002 1.1991225e-38
-0.1393562 0.17165335 0.62800002 1.1991225e-38
-0.13816001 0.17165335 0.62800002 1.1900101e-38
-0.13696381 0.17165335 0.62800002 1.1807906e-38
-0.13598381 0.17192666 0.62900001 1.1807903e-38
-0.13500002 0.17220001 0.63000005 1.1807903e-38
-0.1338 0.17220001 0.63000005 1.180755e-38
-0.13260001 0.17220001 0.63000005 1.180755e-38
-0.13140002 0.17220001 0.63000005 1.171571e-38
-0.13061334 0.17274667 0.63200003 1.1623514e-38
-0.12981905 0.17329334 0.634 1.1623514e-38
-0.12861143 0.17329334 0.634 1.1531319e-38
-0.12760478 0.17356667 0.63500005 1.1531316e-38
-0.12659429 0.17384002 0.63600004 1.1346925e-38
-0.12558001 0.17411333 0.63700002 1.1254729e-38
-0.12456191 0.17438667 0.63800001 1.143912e-38
-0.12373334 0.17493334 0.64000005 1.1622798e-38
-0.1225143 0.17493334 0.64000005 1.0793038e-38
-0.12148476 0.17520668 0.64100003 8.8580322e-39
-0.12026381 0.17520668 0.64100003 7.3829021e-39
-0.11941428 0.17575333 0.64300001 7.3843202e-39
-0.11837334 0.17602669 0.64400005 4.2496688e-39
-0.11751048 0.17657334 0.64600003 3.059745e-39
-0.11646 0.17684667 0.64700001 7.7617221e-39
-0.11522762 0.17684667 0.64700001 1.0240214e-38
-0.11487619 0.17821334 0.65200001 9.8714316e-39
-0.11363429 0.17821334 0.65200001 9.6866844e-39
-0.11239238 0.17821334 0.65200001 9.5022932e-39
-0.18131144 0.17642762 0.64100003 7.6565659e-39
-0.17980954 0.17615238 0.64000005 7.6565631e-39
-0.17803238 0.1756019 0.63800001 8.0253456e-39
-0.17654 0.17532666 0.63700002 8.3941281e-39
-0.17505144 0.17505144 0.63600004 8.5785194e-39
-0.17356667 0.1747762 0.63500005 9.0405793e-39
-0.17208572 0.17450094 0.634 9.4093619e-39
-0.1708781 0.17450094 0.634 9.3189711e-39
-0.16913524 0.17395048 0.63200003 9.2267755e-39
-0.16766572 0.17367524 0.63100004 9.2257063e-39
-0.16620001 0.17340001 0.63000005 9.041315e-39
-0.1647381 0.17312476 0.62900001 8.9487565e-39
-0.16353999 0.17312476 0.62900001 8.3955827e-39
-0.16234191 0.17312476 0.62900001 7.9349605e-39
-0.16114381 0.17312476 0.62900001 9.2256993e-39
-0.15994573 0.17312476 0.62900001 9.6863243e-39
-0.15874761 0.17312476 0.62900001 8.4877811e-39
-0.15754953 0.17312476 0.62900001 7.5647458e-39
-0.15635143 0.17312476 0.62900001 7.9335283e-39
-0.15515333 0.17312476 0.62900001 7.6576701e-39
-0.15371048 0.17284952 0.62800002 7.934257e-39
-0.15251428 0.17284952 0.62800002 8.1186427e-39
-0.1513181 0.17284952 0.62800002 8.2108383e-39
-0.15012191 0.17284952 0.62800002 8.0264498e-39
-0.14892572 0.17284952 0.62800002 8.1186455e-39
-0.14772953 0.17284952 0.62800002 7.8438564e-39
-0.14653333 0.17284952 0.62800002 7.6594652e-39
-0.14533715 0.17284952 0.62800002 8.0293043e-39
-0.14414096 0.17284952 0.62800002 1.1348347e-38
-0.14294477 0.17284952 0.62800002 1.1899748e-38
-0.14174856 0.17284952 0.62800002 1.1807552e-38
-0.14055239 0.17284952 0.62800002 1.1807552e-38
-0.1393562 0.17284952 0.62800002 1.1807552e-38
-0.13816001 0.17284952 0.62800002 1.1716073e-38
-0.13696381 0.17284952 0.62800002 1.1716073e-38
-0.13598381 0.17312476 0.62900001 1.1531679e-38
-0.13500002 0.17340001 0.63000005 1.1623874e-38
-0.1338 0.17340001 0.63000005 1.1715357e-38
-0.13281047 0.17367524 0.63100004 1.1715357e-38
-0.13160858 0.17367524 0.63100004 1.1623514e-38
-0.13061334 0.17395048 0.63200003 1.1623514e-38
-0.12981905 0.17450094 0.634 1.1531319e-38
-0.12881429 0.1747762 0.63500005 1.1531319e-38
-0.12780572 0.17505144 0.63600004 1.143912e-38
-0.12679334 0.17532666 0.63700002 1.1346925e-38
-0.12577716 0.1756019 0.63800001 1.1346572e-38
-0.12495239 0.17615238 0.64000005 1.1254376e-38
-0.12373334 0.17615238 0.64000005 1.1530234e-38
-0.12270571 0.17642762 0.64100003 1.097706e-38
-0.12148476 0.17642762 0.64100003 8.3988253e-39
-0.12045144 0.17670286 0.64200002 7.1080865e-39
-0.11960001 0.17725335 0.64400005 7.1088221e-39
-0.11837334 0.17725335 0.64400005 4.896127e-39
-0.11751048 0.17780383 0.64600003 4.8060768e-39
-0.11646 0.17807905 0.64700001 8.8626845e-39
-0.11522762 0.17807905 0.64700001 1.0055823e-38
-0.11452381 0.17890477 0.65000004 9.6870404e-39
-0.11328572 0.17890477 0.65000004 9.68669e-39
-0.11342667 0.18110669 0.65800005 9.5022988e-39
-0.11217334 0.18110669 0.65800005 9.4097346e-39
-0.18395619 0.17903429 0.64600003 8.5796012e-39
-0.18216002 0.17848001 0.64400005 7.8420361e-39
-0.17980954 0.17737144 0.64000005 8.0253484e-39
-0.17803238 0.17681715 0.63800001 8.0253484e-39
-0.17654 0.17654 0.63700002 8.117544e-39
-0.17505144 0.17626286 0.63600004 8.3019353e-39
-0.17356667 0.17598572 0.63500005 8.5796012e-39
-0.17235716 0.17598572 0.63500005 8.8561881e-39
-0.1708781 0.17570858 0.634 9.3185956e-39
-0.16913524 0.17515428 0.63200003 9.5029868e-39
-0.16793142 0.17515428 0.63200003 9.4108066e-39
-0.16646382 0.17487715 0.63100004 1.0240567e-38
-0.16500001 0.17460002 0.63000005 1.0791596e-38
-0.16380002 0.17460002 0.63000005 1.0515009e-38
-0.16234191 0.17432286 0.62900001 1.0238769e-38
-0.16114381 0.17432286 0.62900001 1.0423161e-38
-0.15994573 0.17432286 0.62900001 1.0331694e-38
-0.15874761 0.17432286 0.62900001 9.7785199e-39
-0.15754953 0.17432286 0.62900001 9.3179075e-39
-0.15635143 0.17432286 0.62900001 9.3179075e-39
-0.15515333 0.17432286 0.62900001 9.5026491e-39
-0.15395524 0.17432286 0.62900001 9.6870404e-39
-0.15275714 0.17432286 0.62900001 1.0147663e-38
-0.15155905 0.17432286 0.62900001 1.0147663e-38
-0.15012191 0.17404571 0.62800002 1.0239861e-38
-0.14892572 0.17404571 0.62800002 1.0332057e-38
-0.14772953 0.17404571 0.62800002 1.0700476e-38
-0.14653333 0.17404571 0.62800002 1.0884867e-38
-0.14533715 0.17404571 0.62800002 1.088523e-38
-0.14414096 0.17404571 0.62800002 1.1899382e-38
-0.14294477 0.17404571 0.62800002 1.1899748e-38
-0.14174856 0.17404571 0.62800002 1.1715357e-38
-0.14077619 0.17432286 0.62900001 1.1715354e-38
-0.1395781 0.17432286 0.62900001 1.180755e-38
-0.13837999 0.17432286 0.62900001 1.180755e-38
-0.13718191 0.17432286 0.62900001 1.180755e-38
-0.13620001 0.17460002 0.63000005 1.1807906e-38
-0.13521428 0.17487715 0.63100004 1.171571e-38
-0.13401239 0.17487715 0.63100004 1.1807202e-38
-0.13281047 0.17487715 0.63100004 1.1715007e-38
-0.13160858 0.17487715 0.63100004 1.171571e-38
-0.13102667 0.17570858 0.634 1.1623514e-38
-0.12981905 0.17570858 0.634 1.1532035e-38
-0.12881429 0.17598572 0.63500005 1.1716426e-38
-0.12780572 0.17626286 0.63600004 1.1807903e-38
-0.12679334 0.17654 0.63700002 1.1162533e-38
-0.12577716 0.17681715 0.63800001 1.1068918e-38
-0.12495239 0.17737144 0.64000005 9.5015925e-39
-0.12373334 0.17737144 0.64000005 9.4111695e-39
-0.12270571 0.17764857 0.64100003 1.0425321e-38
-0.12148476 0.17764857 0.64100003 8.6754024e-39
-0.12045144 0.17792572 0.64200002 7.5690548e-39
-0.11960001 0.17848001 0.64400005 7.6616498e-39
-0.11874096 0.17903429 0.64600003 6.6474979e-39
-0.11751048 0.17903429 0.64600003 7.2914478e-39
-0.11646 0.17931144 0.64700001 9.6885341e-39
-0.11540572 0.17958856 0.648 1.0148016e-38
-0.11452381 0.18014286 0.65000004 9.7792332e-39
-0.11398286 0.18125144 0.65400004 9.9629112e-39
-0.11342667 0.18236001 0.65800005 9.5941287e-39
-0.11217334 0.18236001 0.65800005 9.5019302e-39
-0.18699428 0.18082285 0.648 9.0402318e-39
-0.18576001 0.18082285 0.648 8.8558406e-39
-0.18338668 0.17970668 0.64400005 8.6717968e-39
-0.18216002 0.17970668 0.64400005 8.0264274e-39
-0.18065238 0.17942762 0.64300001 8.2097397e-39
-0.17886953 0.17886953 0.64100003 8.117544e-39
-0.17681715 0.17803238 0.63800001 8.1171937e-39
-0.17505144 0.17747429 0.63600004 8.301585e-39
-0.17356667 0.17719525 0.63500005 8.2104683e-39
-0.17235716 0.17719525 0.63500005 8.7636421e-39
-0.1708781 0.17691618 0.634 8.8561881e-39
-0.16967048 0.17691618 0.634 9.132775e-39
-0.16793142 0.1763581 0.63200003 9.1335008e-39
-0.16646382 0.17607905 0.63100004 9.9632615e-39
-0.16526191 0.17607905 0.63100004 9.8725134e-39
-0.16380002 0.17580001 0.63000005 9.8725134e-39
-0.16260001 0.17580001 0.63000005 1.0424242e-38
-0.16114381 0.17552094 0.62900001 1.0608634e-38
-0.15994573 0.17552094 0.62900001 1.0792672e-38
-0.15874761 0.17552094 0.62900001 1.0147302e-38
-0.15754953 0.17552094 0.62900001 1.0055823e-38
-0.15635143 0.17552094 0.62900001 9.9636272e-39
-0.15515333 0.17552094 0.62900001 9.1356715e-39
-0.15395524 0.17552094 0.62900001 9.7810409e-39
-0.15275714 0.17552094 0.62900001 1.0057277e-38
-0.15155905 0.17552094 0.62900001 1.0149473e-38
-0.15012191 0.17524192 0.62800002 1.0517167e-38
-0.14892572 0.17524192 0.62800002 1.0517167e-38
-0.14772953 0.17524192 0.62800002 1.0977063e-38
-0.14653333 0.17524192 0.62800002 1.1991215e-38
-0.14533715 0.17524192 0.62800002 1.1716423e-38
-0.14437048 0.17552094 0.62900001 1.1624228e-38
-0.14317238 0.17552094 0.62900001 1.1807552e-38
-0.14197429 0.17552094 0.62900001 1.1715357e-38
-0.14077619 0.17552094 0.62900001 1.1623158e-38
-0.1395781 0.17552094 0.62900001 1.1623158e-38
-0.13837999 0.17552094 0.62900001 1.1715357e-38
-0.13718191 0.17552094 0.62900001 1.1715357e-38
-0.13620001 0.17580001 0.63000005 1.171571e-38
-0.13521428 0.17607905 0.63100004 1.171571e-38
-0.13401239 0.17607905 0.63100004 1.1623161e-38
-0.13302097 0.1763581 0.63200003 1.1623161e-38
-0.13181715 0.1763581 0.63200003 1.1623874e-38
-0.13102667 0.17691618 0.634 1.1623874e-38
-0.13002382 0.17719525 0.63500005 1.1348369e-38
-0.12881429 0.17719525 0.63500005 1.1532761e-38
-0.12800667 0.17775334 0.63700002 1.1899392e-38
-0.12699237 0.17803238 0.63800001 1.0977436e-38
-0.12577716 0.17803238 0.63800001 1.0516445e-38
-0.12495239 0.17859049 0.64000005 8.9491194e-39
-0.12373334 0.17859049 0.64000005 8.94909e-39
-0.12270571 0.17886953 0.64100003 9.8710463e-39
-0.12148476 0.17886953 0.64100003 8.2140711e-39
-0.12045144 0.17914857 0.64200002 8.7672449e-39
-0.11960001 0.17970668 0.64400005 8.6768667e-39
-0.11874096 0.18026477 0.64600003 8.5846711e-39
-0.11769238 0.18054381 0.64700001 9.1353239e-39
-0.11664 0.18082285 0.648 9.6884977e-39
-0.11558381 0.18110192 0.64900005 9.7803178e-39
-0.11487619 0.18193904 0.65200001 9.7803178e-39
-0.11398286 0.18249714 0.65400004 1.0146947e-38
-0.11342667 0.18361335 0.65800005 9.5937727e-39
-0.11268476 0.18445048 0.66100001 9.9614664e-39
-0.1115943 0.18472955 0.66200006 8.9473145e-39
-0.18670571 0.1817762 0.64700001 9.2231853e-39
-0.18518668 0.18149525 0.64600003 9.2231853e-39
-0.18338668 0.18093334 0.64400005 9.0409353e-39
-0.18216002 0.18093334 0.64400005 8.4877615e-39
-0.18065238 0.18065238 0.64300001 8.2101152e-39
-0.17886953 0.18009049 0.64100003 8.025724e-39
-0.17737144 0.17980954 0.64000005 8.025724e-39
-0.1756019 0.17924762 0.63800001 8.2101152e-39
-0.17384002 0.17868572 0.63600004 8.3023108e-39
-0.17235716 0.17840478 0.63500005 8.6710934e-39
-0.17114763 0.17840478 0.63500005 8.8561881e-39
-0.16967048 0.1781238 0.634 8.6717968e-39
-0.16846286 0.1781238 0.634 8.6728758e-39
-0.16672763 0.17756191 0.63200003 8.5806802e-39
-0.16552381 0.17756191 0.63200003 8.3966617e-39
-0.16406001 0.17728096 0.63100004 8.4888573e-39
-0.1628581 0.17728096 0.63100004 9.0413206e-39
-0.16140002 0.17700002 0.63000005 9.68669e-39
-0.16020001 0.17700002 0.63000005 9.9632643e-39
-0.15900001 0.17700002 0.63000005 9.8710687e-39
-0.15780002 0.17700002 0.63000005 1.005546e-38
-0.1566 0.17700002 0.63000005 1.0424242e-38
-0.15515333 0.17671905 0.62900001 1.0239851e-38
-0.15395524 0.17671905 0.62900001 1.0332047e-38
-0.15275714 0.17671905 0.62900001 1.0424618e-38
-0.15155905 0.17671905 0.62900001 1.0609009e-38
-0.15036094 0.17671905 0.62900001 1.0424249e-38
-0.14916286 0.17671905 0.62900001 1.0332054e-38
-0.14796476 0.17671905 0.62900001 1.0424249e-38
-0.14676666 0.17671905 0.62900001 1.1807184e-38
-0.14556856 0.17671905 0.62900001 1.1992291e-38
-0.14437048 0.17671905 0.62900001 1.18079e-38
-0.14317238 0.17671905 0.62900001 1.180755e-38
-0.14197429 0.17671905 0.62900001 1.180755e-38
-0.14100002 0.17700002 0.63000005 1.1807906e-38
-0.13980001 0.17700002 0.63000005 1.171571e-38
-0.13860001 0.17700002 0.63000005 1.1807552e-38
-0.13740002 0.17700002 0.63000005 1.1991944e-38
-0.1364162 0.17728096 0.63100004 1.2083774e-38
-0.13521428 0.17728096 0.63100004 1.2083774e-38
-0.13422476 0.17756191 0.63200003 1.2084492e-38
-0.13302097 0.17756191 0.63200003 1.1900101e-38
-0.13223429 0.1781238 0.634 1.1715707e-38
-0.13102667 0.1781238 0.634 1.1715707e-38
-0.13002382 0.17840478 0.63500005 1.1070703e-38
-0.12901714 0.17868572 0.63600004 9.5955734e-39
-0.12800667 0.17896667 0.63700002 9.4130108e-39
-0.12699237 0.17924762 0.63800001 7.4769026e-39
-0.12577716 0.17924762 0.63800001 6.9243987e-39
-0.12495239 0.17980954 0.64000005 6.832203e-39
-0.12373334 0.17980954 0.64000005 7.1995436e-39
-0.12270571 0.18009049 0.64100003 9.3200431e-39
-0.12148476 0.18009049 0.64100003 9.5026491e-39
-0.12063904 0.18065238 0.64300001 9.8714316e-39
-0.11997144 0.18149525 0.64600003 1.0701552e-38
-0.11874096 0.18149525 0.64600003 1.0701552e-38
-0.11769238 0.1817762 0.64700001 1.0424615e-38
-0.11664 0.18205714 0.648 1.0240224e-38
-0.11576191 0.18261907 0.65000004 1.0332054e-38
-0.11487619 0.18318094 0.65200001 1.0055467e-38
-0.11415715 0.18402381 0.65500003 9.8710757e-39
-0.11342667 0.18486668 0.65800005 9.5944888e-39
-0.11234381 0.18514763 0.65900004 9.4100877e-39
-0.11142571 0.18570954 0.66100001 8.4881314e-39
-0.18641715 0.18272573 0.64600003 9.315381e-39
-0.18461335 0.18216002 0.64400005 9.315381e-39
-0.18338668 0.18216002 0.64400005 9.131696e-39
-0.18216002 0.18216002 0.64400005 8.5785222e-39
-0.18065238 0.18187715 0.64300001 8.5781719e-39
-0.17914857 0.1815943 0.64200002 8.3937806e-39
-0.17764857 0.18131144 0.64100003 8.3937806e-39
-0.1756019 0.18046287 0.63800001 8.3937806e-39
-0.17411333 0.18018001 0.63700002 8.4867049e-39
-0.17262858 0.17989716 0.63600004 8.6710962e-39
-0.17114763 0.17961431 0.63500005 8.5803299e-39
-0.1699381 0.17961431 0.63500005 8.4881342e-39
-0.16846286 0.17933144 0.634 8.856544e-39
-0.16725524 0.17933144 0.634 8.856544e-39
-0.16604762 0.17933144 0.634 8.6714465e-39
-0.16432001 0.17876573 0.63200003 8.9480334e-39
-0.16311619 0.17876573 0.63200003 9.0409549e-39
-0.16140002 0.17820001 0.63000005 9.5941287e-39
-0.16020001 0.17820001 0.63000005 9.5948447e-39
-0.15900001 0.17820001 0.63000005 9.5948447e-39
-0.15780002 0.17820001 0.63000005 1.0054381e-38
-0.1566 0.17820001 0.63000005 1.0515359e-38
-0.15515333 0.17791714 0.62900001 1.01473e-38
-0.15395524 0.17791714 0.62900001 1.0239495e-38
-0.15275714 0.17791714 0.62900001 1.0239508e-38
-0.15155905 0.17791714 0.62900001 1.0055117e-38
-0.15036094 0.17791714 0.62900001 1.0239498e-38
-0.14916286 0.17791714 0.62900001 1.0423889e-38
-0.14796476 0.17791714 0.62900001 1.0055467e-38
-0.14676666 0.17791714 0.62900001 1.1530597e-38
-0.14556856 0.17791714 0.62900001 1.1900461e-38
-0.14460002 0.17820001 0.63000005 1.171607e-38
-0.1434 0.17820001 0.63000005 1.1807552e-38
-0.14220001 0.17820001 0.63000005 1.1807552e-38
-0.14100002 0.17820001 0.63000005 1.1715354e-38
-0.13980001 0.17820001 0.63000005 1.180755e-38
-0.13860001 0.17820001 0.63000005 1.208342e-38
-0.13740002 0.17820001 0.63000005 1.208342e-38
-0.1364162 0.17848286 0.63100004 1.2268518e-38
-0.13521428 0.17848286 0.63100004 1.2084127e-38
-0.13422476 0.17876573 0.63200003 1.1991928e-38
-0.1334419 0.17933144 0.634 1.1346559e-38
-0.13223429 0.17933144 0.634 1.0332776e-38
-0.13123335 0.17961431 0.63500005 1.0332776e-38
-0.13022858 0.17989716 0.63600004 9.9643657e-39
-0.12921999 0.18018001 0.63700002 9.3189963e-39
-0.12800667 0.18018001 0.63700002 9.411922e-39
-0.12699237 0.18046287 0.63800001 7.936792e-39
-0.12577716 0.18046287 0.63800001 6.0960925e-39
-0.12495239 0.18102859 0.64000005 5.5429188e-39
-0.12373334 0.18102859 0.64000005 5.635815e-39
-0.12270571 0.18131144 0.64100003 8.8626621e-39
-0.12148476 0.18131144 0.64100003 9.9625553e-39
-0.12063904 0.18187715 0.64300001 1.0331338e-38
-0.11997144 0.18272573 0.64600003 1.097671e-38
-0.11892476 0.18300858 0.64700001 1.0884514e-38
-0.11769238 0.18300858 0.64700001 1.0516811e-38
-0.11682001 0.1835743 0.64900005 1.033242e-38
-0.11576191 0.18385714 0.65000004 1.0239861e-38
-0.11487619 0.18442285 0.65200001 9.8710785e-39
-0.11398286 0.18498857 0.65400004 9.7788829e-39
-0.11342667 0.18612 0.65800005 9.3179047e-39
-0.11234381 0.18640286 0.65900004 9.3182424e-39
-0.18641715 0.18395619 0.64600003 9.4079325e-39
-0.18461335 0.18338668 0.64400005 9.4079325e-39
-0.18338668 0.18338668 0.64400005 9.1331309e-39
-0.18216002 0.18338668 0.64400005 8.3955659e-39
-0.18093334 0.18338668 0.64400005 8.4870552e-39
-0.17970668 0.18338668 0.64400005 8.6714465e-39
-0.17764857 0.18253238 0.64100003 8.4867021e-39
-0.17615238 0.18224764 0.64000005 8.3945065e-39
-0.17411333 0.18139334 0.63700002 8.3030339e-39
-0.17262858 0.18110858 0.63600004 8.3952295e-39
-0.17141715 0.18110858 0.63600004 8.3033898e-39
-0.1699381 0.18082383 0.63500005 8.3033898e-39
-0.16872858 0.18082383 0.63500005 8.3048094e-39
-0.16725524 0.18053904 0.634 8.9501788e-39
-0.16604762 0.18053904 0.634 9.5937531e-39
-0.16484 0.18053904 0.634 9.5015575e-39
-0.16311619 0.17996952 0.63200003 9.317539e-39
-0.1616562 0.17968477 0.63100004 9.5941259e-39
-0.16045429 0.17968477 0.63100004 9.2257119e-39
-0.15900001 0.17940001 0.63000005 9.0413206e-39
-0.15780002 0.17940001 0.63000005 9.4093815e-39
-0.1566 0.17940001 0.63000005 9.778164e-39
-0.15540001 0.17940001 0.63000005 9.5941259e-39
-0.15420002 0.17940001 0.63000005 9.5941259e-39
-0.15300001 0.17940001 0.63000005 9.5952105e-39
-0.15180001 0.17940001 0.63000005 9.5030148e-39
-0.15036094 0.17911524 0.62900001 1.0239498e-38
-0.14916286 0.17911524 0.62900001 1.0331694e-38
-0.14796476 0.17911524 0.62900001 9.8721575e-39
-0.14676666 0.17911524 0.62900001 1.0794114e-38
-0.14580001 0.17940001 0.63000005 1.1991575e-38
-0.14460002 0.17940001 0.63000005 1.189938e-38
-0.1434 0.17940001 0.63000005 1.1807552e-38
-0.14220001 0.17940001 0.63000005 1.1715357e-38
-0.14100002 0.17940001 0.63000005 1.171571e-38
-0.13980001 0.17940001 0.63000005 1.2176688e-38
-0.13882001 0.17968477 0.63100004 1.1991944e-38
-0.13761809 0.17968477 0.63100004 9.5948573e-39
-0.1364162 0.17968477 0.63100004 9.7810311e-39
-0.13542858 0.17996952 0.63200003 1.0518596e-38
-0.13422476 0.17996952 0.63200003 9.1356644e-39
-0.1334419 0.18053904 0.634 7.9371213e-39
-0.13244288 0.18082383 0.63500005 7.385765e-39
-0.13123335 0.18082383 0.63500005 5.3574611e-39
-0.13022858 0.18110858 0.63600004 4.9915961e-39
-0.12921999 0.18139334 0.63700002 5.8213568e-39
-0.12820761 0.1816781 0.63800001 8.0293365e-39
-0.12699237 0.1816781 0.63800001 8.1215321e-39
-0.12617144 0.18224764 0.64000005 7.9371283e-39
-0.12495239 0.18224764 0.64000005 7.9371283e-39
-0.12392667 0.18253238 0.64100003 9.0434688e-39
-0.12270571 0.18253238 0.64100003 1.070299e-38
-0.12167428 0.18281715 0.64200002 1.1161464e-38
-0.12063904 0.18310191 0.64300001 1.0884877e-38
-0.11997144 0.18395619 0.64600003 1.0793754e-38
-0.11892476 0.18424095 0.64700001 1.0517167e-38
-0.11787428 0.18452571 0.648 1.0792316e-38
-0.11682001 0.18481049 0.64900005 1.0515729e-38
-0.11576191 0.18509524 0.65000004 1.0239858e-38
-0.11487619 0.18566476 0.65200001 9.7788801e-39
-0.11398286 0.18623431 0.65400004 9.8703652e-39
-0.11342667 0.18737336 0.65800005 8.3952352e-39
-0.18584001 0.18461335 0.64400005 9.3168131e-39
-0.18461335 0.18461335 0.64400005 9.2246175e-39
-0.18395619 0.18518668 0.64600003 9.3160872e-39
-0.18216002 0.18461335 0.64400005 8.8551091e-39
-0.18093334 0.18461335 0.64400005 8.7636421e-39
-0.17970668 0.18461335 0.64400005 8.9480334e-39
-0.17792572 0.18404 0.64200002 8.8569168e-39
-0.17642762 0.18375334 0.64100003 8.7647211e-39
-0.17493334 0.18346667 0.64000005 8.6721696e-39
-0.17317143 0.18289334 0.63800001 8.4877783e-39
-0.17141715 0.18232 0.63600004 8.2108383e-39
-0.17020571 0.18232 0.63600004 8.2108383e-39
-0.16872858 0.18203335 0.63500005 8.4881342e-39
-0.16751906 0.18203335 0.63500005 8.9491124e-39
-0.16630954 0.18203335 0.63500005 9.1331477e-39
-0.16484 0.18174666 0.634 9.317539e-39
-0.16363238 0.18174666 0.634 9.2249902e-39
-0.1616562 0.18088669 0.63100004 9.4093815e-39
-0.16045429 0.18088669 0.63100004 9.2257091e-39
-0.15925239 0.18088669 0.63100004 9.0413178e-39
-0.15805049 0.18088669 0.63100004 9.4093843e-39
-0.1566 0.18060002 0.63000005 9.4093843e-39
-0.15540001 0.18060002 0.63000005 9.4100905e-39
-0.15420002 0.18060002 0.63000005 9.6866774e-39
-0.15300001 0.18060002 0.63000005 9.6866844e-39
-0.15180001 0.18060002 0.63000005 1.0055467e-38
-0.15060002 0.18060002 0.63000005 1.0975984e-38
-0.14940001 0.18060002 0.63000005 1.106818e-38
-0.14796476 0.18031333 0.62900001 1.097706e-38
-0.14676666 0.18031333 0.62900001 1.1161452e-38
-0.14580001 0.18060002 0.63000005 1.1991215e-38
-0.14460002 0.18060002 0.63000005 1.2083411e-38
-0.1434 0.18060002 0.63000005 1.1715357e-38
-0.14220001 0.18060002 0.63000005 1.1715357e-38
-0.14100002 0.18060002 0.63000005 1.2083774e-38
-0.13980001 0.18060002 0.63000005 1.2175969e-38
-0.13882001 0.18088669 0.63100004 1.1347641e-38
-0.13761809 0.18088669 0.63100004 8.1207937e-39
-0.1364162 0.18088669 0.63100004 8.1229292e-39
-0.13542858 0.18117334 0.63200003 8.8604943e-39
-0.13422476 0.18117334 0.63200003 8.3062415e-39
-0.1334419 0.18174666 0.634 8.675024e-39
-0.13244288 0.18203335 0.63500005 8.8612299e-39
-0.13123335 0.18203335 0.63500005 5.7265785e-39
-0.13022858 0.18232 0.63600004 3.7001412e-39
-0.12921999 0.18260668 0.63700002 6.005032e-39
-0.12820761 0.18289334 0.63800001 8.1200874e-39
-0.12699237 0.18289334 0.63800001 8.6732612e-39
-0.12617144 0.18346667 0.64000005 9.1345925e-39
-0.12514763 0.18375334 0.64100003 9.8721575e-39
-0.12392667 0.18375334 0.64100003 1.0977063e-38
-0.12289715 0.18404 0.64200002 1.1161454e-38
-0.12167428 0.18404 0.64200002 1.079448e-38
-0.12063904 0.18432666 0.64300001 1.0702284e-38
-0.12015714 0.18547334 0.64700001 1.0609725e-38
-0.11892476 0.18547334 0.64700001 1.0425334e-38
-0.11787428 0.18576001 0.648 1.0516811e-38
-0.11682001 0.18604667 0.64900005 1.033242e-38
-0.11576191 0.18633334 0.65000004 1.0332054e-38
-0.11487619 0.18690667 0.65200001 9.6866844e-39
-0.11398286 0.18748002 0.65400004 9.68669e-39
-0.18584001 0.18584001 0.64400005 9.5012044e-39
-0.18461335 0.18584001 0.64400005 9.2246175e-39
-0.18338668 0.18584001 0.64400005 9.1324246e-39
-0.18216002 0.18584001 0.64400005 8.9480334e-39
-0.18093334 0.18584001 0.64400005 8.4877783e-39
-0.17970668 0.18584001 0.64400005 8.8565608e-39
-0.17820287 0.18555142 0.64300001 9.3171662e-39
-0.17670286 0.18526286 0.64200002 9.3171662e-39
-0.17493334 0.18468572 0.64000005 9.1331477e-39
-0.17317143 0.18410859 0.63800001 9.0409521e-39
-0.17168668 0.18381999 0.63700002 8.3948792e-39
-0.17047334 0.18381999 0.63700002 8.3026836e-39
-0.16899429 0.18353143 0.63600004 8.487428e-39
-0.16751906 0.18324287 0.63500005 8.7640149e-39
-0.16630954 0.18324287 0.63500005 8.6718192e-39
-0.16510001 0.18324287 0.63500005 8.8562105e-39
-0.16363238 0.18295428 0.634 8.8558574e-39
-0.1619124 0.18237714 0.63200003 9.1324443e-39
-0.16070858 0.18237714 0.63200003 9.3171886e-39
-0.15925239 0.18208858 0.63100004 9.4093843e-39
-0.15805049 0.18208858 0.63100004 9.4097472e-39
-0.15684858 0.18208858 0.63100004 9.225356e-39
-0.15540001 0.18180001 0.63000005 9.3179047e-39
-0.15420002 0.18180001 0.63000005 9.8710785e-39
-0.15300001 0.18180001 0.63000005 1.0147665e-38
-0.15180001 0.18180001 0.63000005 1.0608644e-38
-0.15060002 0.18180001 0.63000005 1.1346193e-38
-0.14940001 0.18180001 0.63000005 1.162278e-38
-0.14820002 0.18180001 0.63000005 1.1253294e-38
-0.147 0.18180001 0.63000005 1.1161098e-38
-0.14580001 0.18180001 0.63000005 1.1715344e-38
-0.14460002 0.18180001 0.63000005 1.1715344e-38
-0.1434 0.18180001 0.63000005 1.180755e-38
-0.14220001 0.18180001 0.63000005 1.1991941e-38
-0.14100002 0.18180001 0.63000005 1.2084492e-38
-0.13980001 0.18180001 0.63000005 9.8717974e-39
-0.13882001 0.18208858 0.63100004 4.9022549e-39
-0.13761809 0.18208858 0.63100004 1.9519947e-39
-0.1364162 0.18208858 0.63100004 4.1639248e-39
-0.13542858 0.18237714 0.63200003 5.9156417e-39
-0.13464953 0.18295428 0.634 6.9233168e-39
-0.13365239 0.18324287 0.63500005 8.3062513e-39
-0.13244288 0.18324287 0.63500005 8.1236677e-39
-0.13123335 0.18324287 0.63500005 8.7690371e-39
-0.13022858 0.18353143 0.63600004 9.3190103e-39
-0.12921999 0.18381999 0.63700002 9.2268147e-39
-0.12820761 0.18410859 0.63800001 1.0333126e-38
-0.12699237 0.18410859 0.63800001 1.1162886e-38
-0.12617144 0.18468572 0.64000005 1.1438404e-38
-0.12514763 0.1849743 0.64100003 1.15306e-38
-0.12392667 0.1849743 0.64100003 1.1346574e-38
-0.12289715 0.18526286 0.64200002 1.1162183e-38
-0.12186381 0.18555142 0.64300001 1.0885956e-38
-0.12082668 0.18584001 0.64400005 1.0701565e-38
-0.12015714 0.18670571 0.64700001 1.0885233e-38
-0.11892476 0.18670571 0.64700001 1.0700842e-38
-0.11787428 0.18699428 0.648 1.0517167e-38
-0.11682001 0.18728288 0.64900005 1.0332776e-38
-0.11576191 0.18757144 0.65000004 1.0240211e-38
-0.11487619 0.18814857 0.65200001 9.5026463e-39
-0.18461335 0.18706667 0.64400005 9.2246203e-39
-0.18338668 0.18706667 0.64400005 9.4075766e-39
-0.18216002 0.18706667 0.64400005 9.2231853e-39
-0.18093334 0.18706667 0.64400005 8.9480334e-39
-0.17970668 0.18706667 0.64400005 9.1324246e-39
-0.17848001 0.18706667 0.64400005 9.133854e-39
-0.17670286 0.18648572 0.64200002 9.133854e-39
-0.17520668 0.18619524 0.64100003 9.2256965e-39
-0.1737143 0.18590477 0.64000005 9.2256965e-39
-0.1719562 0.1853238 0.63800001 9.1331477e-39
-0.17047334 0.18503334 0.63700002 9.0409521e-39
-0.16872858 0.1844524 0.63500005 9.0409521e-39
-0.16751906 0.1844524 0.63500005 8.8565608e-39
-0.16630954 0.1844524 0.63500005 8.7636449e-39
-0.16510001 0.1844524 0.63500005 9.0402318e-39
-0.16389048 0.1844524 0.63500005 9.0395228e-39
-0.16242476 0.1841619 0.634 9.3161096e-39
-0.16070858 0.18358096 0.63200003 9.6848852e-39
-0.15950477 0.18358096 0.63200003 9.8692764e-39
-0.15830095 0.18358096 0.63200003 9.9625553e-39
-0.15684858 0.1832905 0.63100004 1.0423533e-38
-0.15540001 0.18300001 0.63000005 1.0332773e-38
-0.15420002 0.18300001 0.63000005 1.0517164e-38
-0.15300001 0.18300001 0.63000005 1.0517164e-38
-0.15180001 0.18300001 0.63000005 1.0885946e-38
-0.15060002 0.18300001 0.63000005 1.1530597e-38
-0.14940001 0.18300001 0.63000005 1.1438401e-38
-0.14820002 0.18300001 0.63000005 1.1254013e-38
-0.147 0.18300001 0.63000005 1.1161817e-38
-0.14580001 0.18300001 0.63000005 1.1438404e-38
-0.14460002 0.18300001 0.63000005 1.1807187e-38
-0.1434 0.18300001 0.63000005 1.171571e-38
-0.14242573 0.1832905 0.63100004 1.2084492e-38
-0.14100002 0.18300001 0.63000005 1.2176688e-38
-0.13980001 0.18300001 0.63000005 8.4888629e-39
-0.13882001 0.1832905 0.63100004 5.084086e-39
-0.13761809 0.1832905 0.63100004 4.4387166e-39
-0.13663238 0.18358096 0.63200003 5.2677514e-39
-0.13585714 0.1841619 0.634 6.4662946e-39
-0.13464953 0.1841619 0.634 6.832203e-39
-0.13365239 0.1844524 0.63500005 7.846355e-39
-0.13265143 0.18474287 0.63600004 8.5817718e-39
-0.13144001 0.18474287 0.63600004 1.0794467e-38
-0.13043334 0.18503334 0.63700002 1.143877e-38
-0.12942286 0.1853238 0.63800001 1.1162183e-38
-0.12820761 0.1853238 0.63800001 1.1254376e-38
-0.12699237 0.1853238 0.63800001 1.1530963e-38
-0.12617144 0.18590477 0.64000005 1.134729e-38
-0.12514763 0.18619524 0.64100003 1.1162899e-38
-0.12412 0.18648572 0.64200002 1.107035e-38
-0.12289715 0.18648572 0.64200002 1.0885959e-38
-0.12186381 0.18677619 0.64300001 1.0793763e-38
-0.12082668 0.18706667 0.64400005 1.0701568e-38
-0.12015714 0.18793809 0.64700001 1.0701202e-38
-0.11910857 0.18822856 0.648 1.0516811e-38
-0.11805619 0.18851905 0.64900005 1.0516814e-38
-0.11700001 0.18880953 0.65000004 1.0148031e-38
-0.1161181 0.18939048 0.65200001 1.005582e-38
-0.11487619 0.18939048 0.65200001 9.1338638e-39
-0.18149525 0.1888781 0.64600003 8.8569168e-39
-0.18026477 0.1888781 0.64600003 8.9491124e-39
-0.17848001 0.18829335 0.64400005 9.041308e-39
-0.1769781 0.18800095 0.64300001 9.3178949e-39
-0.17548001 0.18770857 0.64200002 1.0055084e-38
-0.1737143 0.18712382 0.64000005 1.0239476e-38
-0.1719562 0.18653904 0.63800001 9.9632615e-39
-0.17074095 0.18653904 0.63800001 9.9632615e-39
-0.16872858 0.18566193 0.63500005 1.005546e-38
-0.16751906 0.18566193 0.63500005 9.9632643e-39
-0.16630954 0.18566193 0.63500005 1.0146577e-38
-0.16510001 0.18566193 0.63500005 1.0238772e-38
-0.16389048 0.18566193 0.63500005 9.6863243e-39
-0.16242476 0.18536952 0.634 9.3175418e-39
-0.16121714 0.18536952 0.634 9.1331603e-39
-0.15950477 0.18478476 0.63200003 9.5941385e-39
-0.15830095 0.18478476 0.63200003 1.0239142e-38
-0.15684858 0.18449239 0.63100004 1.0792316e-38
-0.15540001 0.18420002 0.63000005 1.0884514e-38
-0.15420002 0.18420002 0.63000005 1.1345493e-38
-0.15300001 0.18420002 0.63000005 1.1253647e-38
-0.15180001 0.18420002 0.63000005 1.1345843e-38
-0.15060002 0.18420002 0.63000005 1.1438051e-38
-0.14940001 0.18420002 0.63000005 1.125366e-38
-0.14820002 0.18420002 0.63000005 1.1069269e-38
-0.147 0.18420002 0.63000005 1.1069269e-38
-0.14603144 0.18449239 0.63100004 1.1254379e-38
-0.14482954 0.18449239 0.63100004 1.1715357e-38
-0.14362763 0.18449239 0.63100004 1.1623512e-38
-0.14242573 0.18449239 0.63100004 1.1900098e-38
-0.14122382 0.18449239 0.63100004 1.1623521e-38
-0.14002192 0.18449239 0.63100004 7.7513049e-39
-0.13882001 0.18449239 0.63100004 7.5730023e-39
-0.13761809 0.18449239 0.63100004 8.8637411e-39
-0.13663238 0.18478476 0.63200003 1.0149451e-38
-0.13585714 0.18536952 0.634 1.0610429e-38
-0.13486192 0.18566193 0.63500005 1.0977779e-38
-0.13386287 0.1859543 0.63600004 1.1254366e-38
-0.13244288 0.18566193 0.63500005 1.15306e-38
-0.13123335 0.18566193 0.63500005 1.1807187e-38
-0.13043334 0.18624666 0.63700002 1.1715354e-38
-0.12942286 0.18653904 0.63800001 1.1715354e-38
-0.12820761 0.18653904 0.63800001 1.1623171e-38
-0.12699237 0.18653904 0.63800001 1.1254388e-38
-0.12617144 0.18712382 0.64000005 1.1162543e-38
-0.12534286 0.18770857 0.64200002 1.1162543e-38
-0.12412 0.18770857 0.64200002 1.1070348e-38
-0.12308857 0.18800095 0.64300001 1.0885956e-38
-0.12205334 0.18829335 0.64400005 1.0793763e-38
-0.12120191 0.1888781 0.64600003 1.0701568e-38
-0.12034286 0.18946286 0.648 1.088523e-38
-0.11910857 0.18946286 0.648 1.0516448e-38
-0.11805619 0.18975525 0.64900005 1.0332069e-38
-0.11700001 0.19004764 0.65000004 9.3179173e-39
-0.18205714 0.19069713 0.648 8.7643652e-39
-0.18054381 0.19040287 0.64700001 8.6721696e-39
-0.17903429 0.19010858 0.64600003 8.8572671e-39
-0.17725335 0.18952002 0.64400005 9.5026365e-39
-0.17575333 0.1892257 0.64300001 9.595558e-39
-0.17398572 0.18863715 0.64100003 9.7799492e-39
-0.17276478 0.18863715 0.64100003 9.8721477e-39
-0.1712762 0.18834287 0.64000005 9.9643433e-39
-0.16926001 0.18746001 0.63700002 1.0148019e-38
-0.16804667 0.18746001 0.63700002 1.0055823e-38
-0.16657144 0.18716572 0.63600004 1.01473e-38
-0.16510001 0.18687144 0.63500005 9.9629084e-39
-0.16389048 0.18687144 0.63500005 9.6870404e-39
-0.16242476 0.18657714 0.634 9.779236e-39
-0.16121714 0.18657714 0.634 9.9629084e-39
-0.16000952 0.18657714 0.634 1.01473e-38
-0.15830095 0.18598858 0.63200003 1.0883791e-38
-0.15709715 0.18598858 0.63200003 1.0791596e-38
-0.15589334 0.18598858 0.63200003 1.0700123e-38
-0.15444477 0.18569431 0.63100004 1.097671e-38
-0.15324287 0.18569431 0.63100004 1.0976707e-38
-0.15204096 0.18569431 0.63100004 1.1068903e-38
-0.15083906 0.18569431 0.63100004 1.12533e-38
-0.14963715 0.18569431 0.63100004 1.1161104e-38
-0.14843525 0.18569431 0.63100004 1.0884877e-38
-0.14723335 0.18569431 0.63100004 1.0977073e-38
-0.14626285 0.18598858 0.63200003 1.1069987e-38
-0.14482954 0.18569431 0.63100004 1.1623161e-38
-0.14362763 0.18569431 0.63100004 1.1623514e-38
-0.14242573 0.18569431 0.63100004 1.1807906e-38
-0.14122382 0.18569431 0.63100004 1.0888833e-38
-0.14024381 0.18598858 0.63200003 9.1371162e-39
-0.13904001 0.18598858 0.63200003 9.7803248e-39
-0.1378362 0.18598858 0.63200003 1.1071064e-38
-0.13706475 0.18657714 0.634 1.1531316e-38
-0.13607144 0.18687144 0.63500005 1.1531316e-38
-0.13486192 0.18687144 0.63500005 1.1531319e-38
-0.13386287 0.18716572 0.63600004 1.1900101e-38
-0.13244288 0.18687144 0.63500005 1.1716073e-38
-0.13123335 0.18687144 0.63500005 1.1531682e-38
-0.13043334 0.18746001 0.63700002 1.1072145e-38
-0.12942286 0.18775429 0.63800001 1.1164341e-38
-0.12820761 0.18775429 0.63800001 1.143878e-38
-0.12739049 0.18834287 0.64000005 1.1346584e-38
-0.12636858 0.18863715 0.64100003 1.1162549e-38
-0.1255381 0.1892257 0.64300001 1.1162549e-38
-0.12431334 0.1892257 0.64300001 1.1069987e-38
-0.12328001 0.18952002 0.64400005 1.1069987e-38
-0.12205334 0.18952002 0.64400005 1.0793761e-38
-0.12120191 0.19010858 0.64600003 1.0793761e-38
-0.12034286 0.19069713 0.648 1.1069269e-38
-0.11910857 0.19069713 0.648 1.0331704e-38
-0.11805619 0.19099145 0.64900005 9.964709e-39
-0.18205714 0.19193143 0.648 8.8565636e-39
-0.18082285 0.19193143 0.648 8.4877811e-39
-0.17931144 0.19163525 0.64700001 8.6728758e-39
-0.17780383 0.19133905 0.64600003 9.5948321e-39
-0.17602669 0.19074668 0.64400005 9.962886e-39
-0.17425714 0.19015428 0.64200002 9.962886e-39
-0.17276478 0.18985811 0.64100003 9.9632643e-39
-0.1712762 0.1895619 0.64000005 1.005546e-38
-0.16952571 0.18896952 0.63800001 9.9632713e-39
-0.16831048 0.18896952 0.63800001 1.0239858e-38
-0.16657144 0.18837714 0.63600004 1.0516801e-38
-0.16536 0.18837714 0.63600004 1.0424605e-38
-0.16414857 0.18837714 0.63600004 1.0885215e-38
-0.16268097 0.18808097 0.63500005 1.1069606e-38
-0.16121714 0.18778476 0.634 1.0884865e-38
-0.16000952 0.18778476 0.634 1.0884865e-38
-0.15880191 0.18778476 0.634 1.0884512e-38
-0.15709715 0.18719238 0.63200003 1.0792316e-38
-0.15589334 0.18719238 0.63200003 1.0700123e-38
-0.15468954 0.18719238 0.63200003 1.0792319e-38
-0.15348572 0.18719238 0.63200003 1.0516811e-38
-0.15228191 0.18719238 0.63200003 1.033242e-38
-0.15107809 0.18719238 0.63200003 1.0792682e-38
-0.14963715 0.1868962 0.63100004 1.0884877e-38
-0.14843525 0.1868962 0.63100004 1.079341e-38
-0.14723335 0.1868962 0.63100004 1.1069997e-38
-0.14626285 0.18719238 0.63200003 1.1254379e-38
-0.14482954 0.1868962 0.63100004 1.1623161e-38
-0.14362763 0.1868962 0.63100004 1.1623514e-38
-0.14242573 0.1868962 0.63100004 1.171571e-38
-0.14122382 0.1868962 0.63100004 1.1531331e-38
-0.14024381 0.18719238 0.63200003 1.1531331e-38
-0.13947999 0.18778476 0.634 1.1532054e-38
-0.13827239 0.18778476 0.634 1.1532054e-38
-0.13706475 0.18778476 0.634 1.2084492e-38
-0.13607144 0.18808097 0.63500005 1.2084492e-38
-0.13486192 0.18808097 0.63500005 1.1991588e-38
-0.13386287 0.18837714 0.63600004 1.1807197e-38
-0.13244288 0.18808097 0.63500005 1.180755e-38
-0.13123335 0.18808097 0.63500005 1.1530963e-38
-0.13063809 0.18896952 0.63800001 1.1530966e-38
-0.12942286 0.18896952 0.63800001 1.1530966e-38
-0.12820761 0.18896952 0.63800001 1.1438417e-38
-0.12739049 0.1895619 0.64000005 1.1346221e-38
-0.12636858 0.18985811 0.64100003 1.1254026e-38
-0.1255381 0.19045047 0.64300001 1.116183e-38
-0.12450667 0.19074668 0.64400005 1.1254376e-38
-0.12328001 0.19074668 0.64400005 1.116218e-38
-0.12243238 0.19133905 0.64600003 1.0885593e-38
-0.12138952 0.19163525 0.64700001 1.0240224e-38
-0.12034286 0.19193143 0.648 1.0331001e-38
-0.17958856 0.19316572 0.648 8.6714493e-39
-0.17780383 0.19256954 0.64600003 9.3168187e-39
-0.17602669 0.19197336 0.64400005 9.6870277e-39
-0.17425714 0.19137713 0.64200002 9.7792234e-39
-0.17276478 0.19107905 0.64100003 9.9632643e-39
-0.17154381 0.19107905 0.64100003 1.0147656e-38
-0.17005715 0.19078095 0.64000005 9.9632713e-39
-0.16831048 0.19018476 0.63800001 1.0424249e-38
-0.16683334 0.18988667 0.63700002 1.0424968e-38
-0.16536 0.18958858 0.63600004 1.060936e-38
-0.16414857 0.18958858 0.63600004 1.0702274e-38
-0.16268097 0.18929049 0.63500005 1.0702274e-38
-0.16147144 0.18929049 0.63500005 1.0701555e-38
-0.16026191 0.18929049 0.63500005 1.0793751e-38
-0.15880191 0.18899238 0.634 1.0885233e-38
-0.15759428 0.18899238 0.634 1.0977429e-38
-0.15638666 0.18899238 0.634 1.0977429e-38
-0.15517905 0.18899238 0.634 1.116182e-38
-0.15397142 0.18899238 0.634 1.116218e-38
-0.15276381 0.18899238 0.634 1.116218e-38
-0.15155619 0.18899238 0.634 1.1346927e-38
-0.1498743 0.1883962 0.63200003 1.1346927e-38
-0.14867048 0.1883962 0.63200003 1.1254739e-38
-0.14746667 0.1883962 0.63200003 1.1346934e-38
-0.14626285 0.1883962 0.63200003 1.1530963e-38
-0.14505906 0.1883962 0.63200003 1.1623158e-38
-0.14385524 0.1883962 0.63200003 1.1714638e-38
-0.14265144 0.1883962 0.63200003 1.1806834e-38
-0.14144762 0.1883962 0.63200003 1.1807202e-38
-0.14068761 0.18899238 0.634 1.1807202e-38
-0.13947999 0.18899238 0.634 1.1715367e-38
-0.13849048 0.18929049 0.63500005 1.1715367e-38
-0.13728096 0.18929049 0.63500005 1.1532054e-38
-0.13607144 0.18929049 0.63500005 1.1532054e-38
-0.13486192 0.18929049 0.63500005 1.1624603e-38
-0.13386287 0.18958858 0.63600004 1.1348016e-38
-0.13244288 0.18929049 0.63500005 1.1623161e-38
-0.13123335 0.18929049 0.63500005 1.1530966e-38
-0.13063809 0.19018476 0.63800001 1.1622442e-38
-0.12942286 0.19018476 0.63800001 1.1530247e-38
-0.12860952 0.19078095 0.64000005 1.134694e-38
-0.12758954 0.19107905 0.64100003 1.1254744e-38
-0.12656571 0.19137713 0.64200002 1.1254026e-38
-0.12573333 0.19197336 0.64400005 1.1254026e-38
-0.12450667 0.19197336 0.64400005 1.1162543e-38
-0.12366287 0.19256954 0.64600003 1.0978152e-38
-0.17657334 0.1938 0.64600003 9.2256965e-39
-0.17452857 0.1929 0.64300001 9.8710659e-39
-0.1730343 0.19260001 0.64200002 1.0146927e-38
-0.17154381 0.19230001 0.64100003 1.0331318e-38
-0.17032287 0.19230001 0.64100003 1.0239495e-38
-0.16883811 0.19200002 0.64000005 1.0608278e-38
-0.16709523 0.19140001 0.63800001 1.0700476e-38
-0.16562 0.19110002 0.63700002 1.0700476e-38
-0.16440667 0.19110002 0.63700002 1.0701558e-38
-0.16293715 0.19080001 0.63600004 1.0793754e-38
-0.16147144 0.19050001 0.63500005 1.0977426e-38
-0.16026191 0.19050001 0.63500005 1.1069622e-38
-0.15880191 0.1902 0.634 1.1069624e-38
-0.15759428 0.1902 0.634 1.1254016e-38
-0.15638666 0.1902 0.634 1.1346209e-38
-0.15542382 0.19050001 0.63500005 1.1346209e-38
-0.15397142 0.1902 0.634 1.1530597e-38
-0.15276381 0.1902 0.634 1.1530597e-38
-0.15155619 0.1902 0.634 1.1439483e-38
-0.15034857 0.1902 0.634 1.1347288e-38
-0.1493762 0.19050001 0.63500005 1.1623158e-38
-0.14816667 0.19050001 0.63500005 1.1623158e-38
-0.14672571 0.1902 0.634 1.1715357e-38
-0.14551809 0.1902 0.634 1.1623161e-38
-0.14431047 0.1902 0.634 1.1715004e-38
-0.14310285 0.1902 0.634 1.1807199e-38
-0.14189523 0.1902 0.634 1.1807211e-38
-0.14090954 0.19050001 0.63500005 1.1622819e-38
-0.13970001 0.19050001 0.63500005 1.1715723e-38
-0.13849048 0.19050001 0.63500005 1.1715723e-38
-0.13749716 0.19080001 0.63600004 1.153241e-38
-0.13650002 0.19110002 0.63700002 1.153241e-38
-0.13528667 0.19110002 0.63700002 1.1623521e-38
-0.13407335 0.19110002 0.63700002 1.1531326e-38
-0.13244288 0.19050001 0.63500005 1.1623161e-38
-0.13123335 0.19050001 0.63500005 1.1530966e-38
-0.13063809 0.19140001 0.63800001 1.1530612e-38
-0.12942286 0.19140001 0.63800001 1.1438417e-38
-0.12860952 0.19200002 0.64000005 1.143878e-38
-0.12758954 0.19230001 0.64100003 1.1346584e-38
-0.12656571 0.19260001 0.64200002 1.1346934e-38
-0.12573333 0.19320001 0.64400005 1.0978152e-38
-0.17357334 0.19442667 0.64400005 1.0146927e-38
-0.17207904 0.19412477 0.64300001 1.0239123e-38
-0.17032287 0.19352096 0.64100003 1.0240214e-38
-0.16910191 0.19352096 0.64100003 1.0424605e-38
-0.16761906 0.19321907 0.64000005 1.0424605e-38
-0.16587999 0.19261524 0.63800001 1.0516801e-38
-0.16466478 0.19261524 0.63800001 1.060936e-38
-0.16293715 0.19201145 0.63600004 1.0793751e-38
-0.16147144 0.19170953 0.63500005 1.1161815e-38
-0.16026191 0.19170953 0.63500005 1.1069619e-38
-0.1590524 0.19170953 0.63500005 1.1069624e-38
-0.15784287 0.19170953 0.63500005 1.1069624e-38
-0.15663335 0.19170953 0.63500005 1.1253297e-38
-0.15542382 0.19170953 0.63500005 1.1345493e-38
-0.15421431 0.19170953 0.63500005 1.1346927e-38
-0.15300478 0.19170953 0.63500005 1.1439123e-38
-0.15179525 0.19170953 0.63500005 1.1347288e-38
-0.15058571 0.19170953 0.63500005 1.1439483e-38
-0.1493762 0.19170953 0.63500005 1.1439486e-38
-0.14816667 0.19170953 0.63500005 1.1439486e-38
-0.14695714 0.19170953 0.63500005 1.1623161e-38
-0.14574763 0.19170953 0.63500005 1.1623161e-38
-0.1445381 0.19170953 0.63500005 1.1622808e-38
-0.14310285 0.19140762 0.634 1.1715004e-38
-0.14189523 0.19140762 0.634 1.1623175e-38
-0.14090954 0.19170953 0.63500005 1.1623175e-38
-0.13970001 0.19170953 0.63500005 1.1623527e-38
-0.13870858 0.19201145 0.63600004 1.1715723e-38
-0.13771333 0.19231333 0.63700002 1.1623527e-38
-0.13650002 0.19231333 0.63700002 1.1623527e-38
-0.13528667 0.19231333 0.63700002 1.1531331e-38
-0.13428381 0.19261524 0.63800001 1.1531331e-38
-0.13286 0.19231333 0.63700002 1.1531326e-38
-0.13164666 0.19231333 0.63700002 1.143913e-38
-0.13063809 0.19261524 0.63800001 1.134694e-38
-0.12982857 0.19321907 0.64000005 1.134694e-38
-0.12860952 0.19321907 0.64000005 1.1255823e-38
-0.12778857 0.19382286 0.64200002 1.0979237e-38
-0.12676285 0.19412477 0.64300001 1.0795561e-38
-0.17207904 0.19534953 0.64300001 1.005546e-38
-0.17058858 0.19504571 0.64200002 1.0332044e-38
-0.16910191 0.1947419 0.64100003 1.0516435e-38
-0.16761906 0.19443811 0.64000005 1.0517154e-38
-0.16640002 0.19443811 0.64000005 1.0517154e-38
-0.16466478 0.19383048 0.63800001 1.0792669e-38
-0.16344953 0.19383048 0.63800001 1.097706e-38
-0.16172573 0.19322287 0.63600004 1.1069975e-38
-0.1605143 0.19322287 0.63600004 1.1069975e-38
-0.15930286 0.19322287 0.63600004 1.125401e-38
-0.15809143 0.19322287 0.63600004 1.125401e-38
-0.15688001 0.19322287 0.63600004 1.1254016e-38
-0.15542382 0.19291906 0.63500005 1.1254016e-38
-0.15421431 0.19291906 0.63500005 1.1622793e-38
-0.15300478 0.19291906 0.63500005 1.1530597e-38
-0.15179525 0.19291906 0.63500005 1.1531316e-38
-0.15058571 0.19291906 0.63500005 1.1531316e-38
-0.1493762 0.19291906 0.63500005 1.1530963e-38
-0.14816667 0.19291906 0.63500005 1.1530963e-38
-0.14695714 0.19291906 0.63500005 1.1623161e-38
-0.14574763 0.19291906 0.63500005 1.1623161e-38
-0.1445381 0.19291906 0.63500005 1.1715357e-38
-0.14332858 0.19291906 0.63500005 1.1715357e-38
-0.14211905 0.19291906 0.63500005 1.1715723e-38
-0.14113143 0.19322287 0.63600004 1.1623527e-38
-0.13992001 0.19322287 0.63600004 1.1715717e-38
-0.13892667 0.19352667 0.63700002 1.1623521e-38
-0.13771333 0.19352667 0.63700002 1.1623527e-38
-0.13650002 0.19352667 0.63700002 1.1623527e-38
-0.13549905 0.19383048 0.63800001 1.1532763e-38
-0.13428381 0.19383048 0.63800001 1.1440568e-38
-0.13286 0.19352667 0.63700002 1.1440562e-38
-0.13164666 0.19352667 0.63700002 1.1256171e-38
-0.13063809 0.19383048 0.63800001 1.1348372e-38
-0.12982857 0.19443811 0.64000005 1.0795198e-38
-0.12881048 0.1947419 0.64100003 1.107035e-38
-0.16788095 0.19596288 0.64100003 1.0424603e-38
-0.16640002 0.19565716 0.64000005 1.0608994e-38
-0.16518097 0.19565716 0.64000005 1.0700473e-38
-0.16344953 0.19504571 0.63800001 1.0884865e-38
-0.16223429 0.19504571 0.63800001 1.0977423e-38
-0.16101906 0.19504571 0.63800001 1.1069619e-38
-0.15955333 0.19474 0.63700002 1.1161817e-38
-0.15809143 0.19443429 0.63600004 1.1254013e-38
-0.15688001 0.19443429 0.63600004 1.125401e-38
-0.15542382 0.19412859 0.63500005 1.125401e-38
-0.15421431 0.19412859 0.63500005 1.1530597e-38
-0.15300478 0.19412859 0.63500005 1.1530597e-38
-0.15179525 0.19412859 0.63500005 1.143912e-38
-0.15058571 0.19412859 0.63500005 1.143912e-38
-0.1493762 0.19412859 0.63500005 1.1439123e-38
-0.14816667 0.19412859 0.63500005 1.1531319e-38
-0.14695714 0.19412859 0.63500005 1.1530963e-38
