# .PCD v0.7 - Point Cloud Data file format
VERSION 0.7
FIELDS x y z rgb
SIZE 4 4 4 4
TYPE F F F F
COUNT 1 1 1 1
WIDTH 945
HEIGHT 1
VIEWPOINT 0 0 0 1 0 0 0
POINTS 945
DATA ascii
-0.053116191 -0.012369525 0.76400006 8.1243333e-39
-0.051525716 -0.012337144 0.76200002 8.0332069e-39
-0.049877148 -0.012288572 0.75900006 7.9410113e-39
-0.048431434 -0.012288572 0.75900006 6.6535347e-39
-0.046985716 -0.012288572 0.75900006 6.4691434e-39
-0.045540005 -0.012288572 0.75900006 6.6517368e-39
-0.044210479 -0.012320952 0.76100004 6.4673455e-39
-0.042760953 -0.012320952 0.76100004 5.6386415e-39
-0.041311432 -0.012320952 0.76100004 4.255707e-39
-0.039914284 -0.012337144 0.76200002 2.6962972e-39
-0.038462859 -0.012337144 0.76200002 2.7884929e-39
-0.037011426 -0.012337144 0.76200002 2.3285839e-39
-0.035560001 -0.012337144 0.76200002 2.2363883e-39
-0.034108575 -0.012337144 0.76200002 2.5119158e-39
-0.032657143 -0.012337144 0.76200002 2.2353289e-39
-0.031287622 -0.012369525 0.76400006 3.33665e-39
-0.029832384 -0.012369525 0.76400006 2.0459112e-39
-0.028377144 -0.012369525 0.76400006 1.7674942e-39
-0.02702762 -0.012418096 0.76700002 8.5899708e-39
-0.081294291 -0.010985715 0.76900005 1.0045429e-38
-0.079829529 -0.010985715 0.76900005 1.4563015e-38
-0.078364767 -0.010985715 0.76900005 1.3369108e-38
-0.076900005 -0.010985715 0.76900005 3.6885665e-39
-0.075435244 -0.010985715 0.76900005 4.8070143e-40
-0.073681906 -0.010942858 0.76600003 2.7855852e-39
-0.071845718 -0.010885715 0.76200002 2.4164607e-39
-0.070394285 -0.010885715 0.76200002 2.1398738e-39
-0.068852387 -0.010871429 0.76100004 3.0618161e-39
-0.067402862 -0.010871429 0.76100004 2.7852292e-39
-0.065953337 -0.010871429 0.76100004 2.7866614e-39
-0.064503811 -0.010871429 0.76100004 3.3398351e-39
-0.063054286 -0.010871429 0.76100004 3.3387688e-39
-0.061604768 -0.010871429 0.76100004 3.8919425e-39
-0.060234286 -0.010885715 0.76200002 5.4549761e-39
-0.058782857 -0.010885715 0.76200002 5.2705848e-39
-0.057256192 -0.010871429 0.76100004 4.9050421e-39
-0.055660002 -0.010842858 0.75900006 4.9050421e-39
-0.054214288 -0.010842858 0.75900006 4.8131968e-39
-0.052629523 -0.010814286 0.75700003 5.0897837e-39
-0.05118762 -0.010814286 0.75700003 5.5504087e-39
-0.049614292 -0.010785715 0.75500005 5.3660174e-39
-0.048176192 -0.010785715 0.75500005 4.8157331e-39
-0.046738099 -0.010785715 0.75500005 3.7093856e-39
-0.045420002 -0.010814286 0.75700003 3.2491235e-39
-0.044094287 -0.010842858 0.75900006 3.1569279e-39
-0.042648572 -0.010842858 0.75900006 3.0650924e-39
-0.041202862 -0.010842858 0.75900006 2.1431361e-39
-0.039861906 -0.010871429 0.76100004 2.0516537e-39
-0.038412381 -0.010871429 0.76100004 1.9594581e-39
-0.036962859 -0.010871429 0.76100004 2.2360379e-39
-0.035513334 -0.010871429 0.76100004 2.4204292e-39
-0.034108575 -0.010885715 0.76200002 3.6132215e-39
-0.032657143 -0.010885715 0.76200002 3.4288302e-39
-0.031205716 -0.010885715 0.76200002 3.5210258e-39
-0.029754287 -0.010885715 0.76200002 2.1380914e-39
-0.028302858 -0.010885715 0.76200002 9.3988731e-40
-0.026921906 -0.010914287 0.76400006 6.748212e-39
-0.079829529 -0.0095209526 0.76900005 1.6778173e-38
-0.078364767 -0.0095209526 0.76900005 1.2541858e-38
-0.076700002 -0.0094961906 0.76700002 2.8613169e-39
-0.075239047 -0.0094961906 0.76700002 4.7962523e-40
-0.073489532 -0.0094590485 0.76400006 2.6923175e-39
-0.071845718 -0.0094342856 0.76200002 2.4161132e-39
-0.070301905 -0.0094219055 0.76100004 2.4161132e-39
-0.068852387 -0.0094219055 0.76100004 3.1536656e-39
-0.067402862 -0.0094219055 0.76100004 3.6146438e-39
-0.065780006 -0.0093971435 0.75900006 3.3384198e-39
-0.064334288 -0.0093971435 0.75900006 3.6150067e-39
-0.062888578 -0.0093971435 0.75900006 3.6143033e-39
-0.061442863 -0.0093971435 0.75900006 3.3377164e-39
-0.059997149 -0.0093971435 0.75900006 2.8806717e-39
-0.058551431 -0.0093971435 0.75900006 3.0650629e-39
-0.056804765 -0.0093476195 0.75500005 3.4327763e-39
-0.055366673 -0.0093476195 0.75500005 3.98595e-39
-0.053928573 -0.0093476195 0.75500005 4.1688966e-39
-0.05249048 -0.0093476195 0.75500005 4.4454835e-39
-0.051052384 -0.0093476195 0.75500005 4.7217298e-39
-0.049614292 -0.0093476195 0.75500005 4.9061211e-39
-0.048176192 -0.0093476195 0.75500005 4.5384176e-39
-0.046738099 -0.0093476195 0.75500005 3.7086569e-39
-0.045420002 -0.0093723815 0.75700003 2.8810514e-39
-0.043978095 -0.0093723815 0.75700003 3.2498339e-39
-0.042536192 -0.0093723815 0.75700003 3.5253418e-39
-0.041202862 -0.0093971435 0.75900006 2.6955812e-39
-0.039757144 -0.0093971435 0.75900006 2.2364233e-39
-0.038311433 -0.0093971435 0.75900006 2.3286189e-39
-0.036962859 -0.0094219055 0.76100004 2.3275245e-39
-0.035513334 -0.0094219055 0.76100004 2.5119158e-39
-0.034063812 -0.0094219055 0.76100004 3.2465899e-39
-0.032614287 -0.0094219055 0.76100004 3.2465899e-39
-0.031205716 -0.0094342856 0.76200002 3.4288302e-39
-0.029754287 -0.0094342856 0.76200002 2.3224826e-39
-0.028302858 -0.0094342856 0.76200002 1.4927066e-39
-0.026921906 -0.0094590485 0.76400006 6.2868793e-39
-0.079829529 -0.0080561908 0.76900005 1.6044951e-38
-0.078364767 -0.0080561908 0.76900005 1.1531306e-38
-0.076700002 -0.0080352379 0.76700002 2.1273518e-39
-0.075239047 -0.0080352379 0.76700002 4.7962523e-40
-0.07329715 -0.0079828566 0.76200002 2.6001219e-39
-0.071751431 -0.0079723811 0.76100004 2.5083088e-39
-0.070301905 -0.0079723811 0.76100004 2.3239176e-39
-0.068671428 -0.0079514291 0.75900006 2.6012177e-39
-0.067225717 -0.0079514291 0.75900006 2.9700002e-39
-0.065780006 -0.0079514291 0.75900006 1.6839404e-39
-0.064334288 -0.0079514291 0.75900006 2.3293098e-39
-0.062888578 -0.0079514291 0.75900006 2.8803284e-39
-0.061442863 -0.0079514291 0.75900006 2.8803284e-39
-0.059997149 -0.0079514291 0.75900006 2.6962972e-39
-0.058397144 -0.0079304771 0.75700003 2.9728841e-39
-0.056804765 -0.0079095243 0.75500005 3.8926698e-39
-0.055366673 -0.0079095243 0.75500005 3.8926698e-39
-0.053928573 -0.0079095243 0.75500005 3.2494682e-39
-0.05249048 -0.0079095243 0.75500005 3.3416638e-39
-0.051052384 -0.0079095243 0.75500005 3.8008525e-39
-0.049614292 -0.0079095243 0.75500005 3.8008525e-39
-0.048176192 -0.0079095243 0.75500005 3.6175403e-39
-0.046738099 -0.0079095243 0.75500005 3.1565621e-39
-0.045300003 -0.0079095243 0.75500005 3.2480319e-39
-0.043861907 -0.0079095243 0.75500005 3.4324231e-39
-0.042423811 -0.0079095243 0.75500005 3.5242684e-39
-0.041094288 -0.0079304771 0.75700003 3.0632903e-39
-0.039652381 -0.0079304771 0.75700003 2.6037667e-39
-0.038210478 -0.0079304771 0.75700003 2.5115711e-39
-0.036865719 -0.0079514291 0.75900006 2.1438493e-39
-0.035420001 -0.0079514291 0.75900006 2.0516537e-39
-0.034063812 -0.0079723811 0.76100004 2.9700129e-39
-0.032614287 -0.0079723811 0.76100004 3.0622085e-39
-0.031205716 -0.0079828566 0.76200002 3.2451578e-39
-0.029754287 -0.0079828566 0.76200002 2.3232015e-39
-0.028302858 -0.0079828566 0.76200002 1.216861e-39
-0.026921906 -0.0080038095 0.76400006 4.8124905e-39
-0.025566667 -0.0080352379 0.76700002 1.2908076e-38
-0.078364767 -0.006591429 0.76900005 1.1990486e-38
-0.076700002 -0.0065742861 0.76700002 2.4943365e-39
-0.075239047 -0.0065742861 0.76700002 4.7892037e-40
-0.07329715 -0.0065314285 0.76200002 2.6916155e-39
-0.071751431 -0.0065228576 0.76100004 2.5083088e-39
-0.070301905 -0.0065228576 0.76100004 2.5083088e-39
-0.068671428 -0.0065057147 0.75900006 2.4168363e-39
-0.067225717 -0.0065057147 0.75900006 2.6012275e-39
-0.065780006 -0.0065057147 0.75900006 2.3260784e-39
-0.064334288 -0.0065057147 0.75900006 2.6026653e-39
-0.062888578 -0.0065057147 0.75900006 2.3282336e-39
-0.061442863 -0.0065057147 0.75900006 2.4204292e-39
-0.059839047 -0.0064885714 0.75700003 2.3282336e-39
-0.058397144 -0.0064885714 0.75700003 2.4204292e-39
-0.056804765 -0.006471429 0.75500005 3.4327763e-39
-0.055366673 -0.006471429 0.75500005 3.5249719e-39
-0.053928573 -0.006471429 0.75500005 2.8810514e-39
-0.05249048 -0.006471429 0.75500005 2.9732471e-39
-0.051052384 -0.006471429 0.75500005 3.0650924e-39
-0.049614292 -0.006471429 0.75500005 3.0650924e-39
-0.048176192 -0.006471429 0.75500005 3.2491235e-39
-0.046738099 -0.006471429 0.75500005 3.0647322e-39
-0.045300003 -0.006471429 0.75500005 3.0640106e-39
-0.043861907 -0.006471429 0.75500005 3.1562062e-39
-0.042423811 -0.006471429 0.75500005 3.4324259e-39
-0.041094288 -0.0064885714 0.75700003 3.0636434e-39
-0.039652381 -0.0064885714 0.75700003 2.3278804e-39
-0.038210478 -0.0064885714 0.75700003 2.4200761e-39
-0.036865719 -0.0065057147 0.75900006 2.3282336e-39
-0.035420001 -0.0065057147 0.75900006 2.2360379e-39
-0.034063812 -0.0065228576 0.76100004 2.7856216e-39
-0.032657143 -0.0065314285 0.76200002 2.693426e-39
-0.031205716 -0.0065314285 0.76200002 3.0611169e-39
-0.029754287 -0.0065314285 0.76200002 2.1391606e-39
-0.028377144 -0.0065485719 0.76400006 3.8600868e-40
-0.026992382 -0.0065657143 0.76600003 2.3221169e-39
-0.025566667 -0.0065742861 0.76700002 1.0880867e-38
-0.078772388 -0.0051533333 0.77300006 1.2267429e-38
-0.077100001 -0.00514 0.77100003 2.4024968e-39
-0.075239047 -0.0051133335 0.76700002 3.8636181e-40
-0.07329715 -0.00508 0.76200002 2.7834482e-39
-0.071751431 -0.0050733336 0.76100004 2.7834734e-39
-0.070301905 -0.0050733336 0.76100004 2.5990821e-39
-0.068671428 -0.0050600008 0.75900006 2.6008674e-39
-0.067225717 -0.0050600008 0.75900006 2.9696499e-39
-0.065780006 -0.0050600008 0.75900006 2.0520068e-39
-0.064334288 -0.0050600008 0.75900006 2.3285937e-39
-0.062888578 -0.0050600008 0.75900006 2.3282336e-39
-0.061442863 -0.0050600008 0.75900006 2.4204292e-39
-0.059839047 -0.0050466671 0.75700003 2.3282336e-39
-0.058397144 -0.0050466671 0.75700003 2.5126248e-39
-0.056955241 -0.0050466671 0.75700003 2.5129878e-39
-0.055366673 -0.0050333338 0.75500005 2.7895747e-39
-0.053928573 -0.0050333338 0.75500005 2.8810514e-39
-0.05249048 -0.0050333338 0.75500005 2.8810514e-39
-0.051052384 -0.0050333338 0.75500005 3.1572782e-39
-0.049614292 -0.0050333338 0.75500005 3.3416694e-39
-0.048176192 -0.0050333338 0.75500005 3.1572782e-39
-0.046738099 -0.0050333338 0.75500005 3.1572782e-39
-0.045300003 -0.0050333338 0.75500005 2.8810514e-39
-0.043978095 -0.0050466671 0.75700003 2.9732471e-39
-0.042536192 -0.0050466671 0.75700003 3.2480319e-39
-0.041094288 -0.0050466671 0.75700003 3.1558362e-39
-0.039652381 -0.0050466671 0.75700003 2.6041016e-39
-0.038311433 -0.0050600008 0.75900006 2.511906e-39
-0.036865719 -0.0050600008 0.75900006 2.5119158e-39
-0.035513334 -0.0050733336 0.76100004 2.3275245e-39
-0.034063812 -0.0050733336 0.76100004 2.8778172e-39
-0.032657143 -0.00508 0.76200002 2.9700129e-39
-0.031205716 -0.00508 0.76200002 3.887663e-39
-0.029832384 -0.0050933338 0.76400006 1.2139897e-39
-0.028377144 -0.0050933338 0.76400006 2.8985578e-40
-0.02702762 -0.0051133335 0.76700002 8.6796497e-39
-0.07887429 -0.0036857147 0.77400005 1.309719e-38
-0.077100001 -0.0036714287 0.77100003 2.3103012e-39
-0.075435244 -0.0036619049 0.76900005 4.7747844e-40
-0.073489532 -0.0036380955 0.76400006 2.9667604e-39
-0.071845718 -0.0036285715 0.76200002 2.7834734e-39
-0.070301905 -0.0036238097 0.76100004 2.5068865e-39
-0.068671428 -0.003614286 0.75900006 2.4164888e-39
-0.067225717 -0.003614286 0.75900006 3.0618582e-39
-0.065780006 -0.003614286 0.75900006 2.8781676e-39
-0.064334288 -0.003614286 0.75900006 2.6937763e-39
-0.062888578 -0.003614286 0.75900006 2.3278804e-39
-0.061442863 -0.003614286 0.75900006 2.5122717e-39
-0.059997149 -0.003614286 0.75900006 2.236761e-39
-0.058397144 -0.003604762 0.75700003 2.5133479e-39
-0.056955241 -0.003604762 0.75700003 2.6051834e-39
-0.055513334 -0.003604762 0.75700003 2.697379e-39
-0.05407143 -0.003604762 0.75700003 2.697379e-39
-0.05249048 -0.0035952383 0.75500005 2.6051834e-39
-0.051052384 -0.0035952383 0.75500005 2.6970287e-39
-0.049614292 -0.0035952383 0.75500005 3.0658112e-39
-0.048176192 -0.0035952383 0.75500005 3.1572726e-39
-0.046738099 -0.0035952383 0.75500005 3.0650769e-39
-0.045420002 -0.003604762 0.75700003 2.6055365e-39
-0.043978095 -0.003604762 0.75700003 2.7899278e-39
-0.042536192 -0.003604762 0.75700003 2.9736002e-39
-0.041094288 -0.003604762 0.75700003 2.512622e-39
-0.039757144 -0.003614286 0.75900006 2.2360379e-39
-0.038311433 -0.003614286 0.75900006 2.4204292e-39
-0.036865719 -0.003614286 0.75900006 3.2458809e-39
-0.035513334 -0.0036238097 0.76100004 2.969294e-39
-0.034063812 -0.0036238097 0.76100004 2.6934386e-39
-0.032657143 -0.0036285715 0.76200002 2.7856342e-39
-0.031205716 -0.0036285715 0.76200002 2.2331961e-39
-0.029832384 -0.0036380955 0.76400006 1.5459125e-41
-0.02845143 -0.0036476192 0.76600003 3.8348494e-40
-0.02702762 -0.003652381 0.76700002 1.9006994e-38
-0.079281911 -0.0022228572 0.77800006 1.3834752e-38
-0.077799998 -0.0022228572 0.77800006 2.0337115e-39
-0.075631432 -0.0022028573 0.77100003 4.7604911e-40
-0.073489532 -0.0021828574 0.76400006 2.8731355e-39
-0.071845718 -0.0021771428 0.76200002 2.4161132e-39
-0.070301905 -0.0021742857 0.76100004 2.3239176e-39
-0.068852387 -0.0021742857 0.76100004 1.5899399e-39
-0.067402862 -0.0021742857 0.76100004 2.5118962e-39
-0.065953337 -0.0021742857 0.76100004 3.0621987e-39
-0.064334288 -0.0021685716 0.75900006 2.970003e-39
-0.062888578 -0.0021685716 0.75900006 2.4197201e-39
-0.061442863 -0.0021685716 0.75900006 2.4197201e-39
-0.059997149 -0.0021685716 0.75900006 2.3289566e-39
-0.058551431 -0.0021685716 0.75900006 2.5133479e-39
-0.05710572 -0.0021685716 0.75900006 2.6051834e-39
-0.055513334 -0.0021628572 0.75700003 2.697379e-39
-0.05407143 -0.0021628572 0.75700003 2.3296853e-39
-0.05249048 -0.0021571429 0.75500005 2.2374897e-39
-0.051052384 -0.0021571429 0.75500005 2.8810514e-39
-0.049614292 -0.0021571429 0.75500005 3.1576383e-39
-0.048176192 -0.0021571429 0.75500005 3.1572782e-39
-0.046861906 -0.0021628572 0.75700003 3.1572782e-39
-0.045420002 -0.0021628572 0.75700003 2.9732471e-39
-0.043978095 -0.0021628572 0.75700003 2.9732471e-39
-0.042536192 -0.0021628572 0.75700003 3.0650924e-39
-0.041202862 -0.0021685716 0.75900006 2.7885055e-39
-0.039757144 -0.0021685716 0.75900006 2.0520068e-39
-0.038311433 -0.0021685716 0.75900006 2.3285937e-39
-0.036865719 -0.0021685716 0.75900006 3.4302623e-39
-0.035513334 -0.0021742857 0.76100004 2.9692842e-39
-0.034063812 -0.0021742857 0.76100004 2.9689311e-39
-0.032657143 -0.0021771428 0.76200002 2.6001485e-39
-0.031287622 -0.0021828574 0.76400006 8.5308388e-40
-0.029910479 -0.0021885715 0.76600003 1.6142958e-41
-0.028488571 -0.0021914286 0.76700002 3.604965e-39
-0.027344763 -0.0022171428 0.77600002 1.9554809e-38
-0.026033334 -0.0022314284 0.78100002 2.3050705e-38
-0.024545714 -0.0022314284 0.78100002 2.2497532e-38
-0.081075244 -0.00074380951 0.78100002 1.6318614e-38
-0.079281911 -0.00074095244 0.77800006 1.4018064e-38
-0.077799998 -0.00074095244 0.77800006 7.8409571e-39
-0.075827621 -0.00073619053 0.77300006 6.6344616e-40
-0.073489532 -0.0007276191 0.76400006 7.5564179e-40
-0.071845718 -0.00072571432 0.76200002 6.6941429e-40
-0.070301905 -0.00072476192 0.76100004 1.2225881e-39
-0.068852387 -0.00072476192 0.76100004 1.037492e-39
-0.067402862 -0.00072476192 0.76100004 1.9594483e-39
-0.065953337 -0.00072476192 0.76100004 1.9594735e-39
-0.064503811 -0.00072476192 0.76100004 2.0516691e-39
-0.063054286 -0.00072476192 0.76100004 2.1438493e-39
-0.061442863 -0.00072285719 0.75900006 2.236045e-39
-0.059997149 -0.00072285719 0.75900006 2.3278804e-39
-0.058551431 -0.00072285719 0.75900006 2.696663e-39
-0.05710572 -0.00072285719 0.75900006 2.4211579e-39
-0.055660002 -0.00072285719 0.75900006 2.6055491e-39
-0.054214288 -0.00072285719 0.75900006 2.7892243e-39
-0.052629523 -0.0007209524 0.75700003 2.5126374e-39
-0.05118762 -0.0007209524 0.75700003 2.6970287e-39
-0.049745716 -0.0007209524 0.75700003 3.0658112e-39
-0.048303809 -0.0007209524 0.75700003 3.5242684e-39
-0.046861906 -0.0007209524 0.75700003 3.4320728e-39
-0.045420002 -0.0007209524 0.75700003 2.7892243e-39
-0.044094287 -0.00072285719 0.75900006 2.7892243e-39
-0.042648572 -0.00072285719 0.75900006 2.7885181e-39
-0.041202862 -0.00072285719 0.75900006 2.2353443e-39
-0.039757144 -0.00072285719 0.75900006 1.4070186e-39
-0.038311433 -0.00072285719 0.75900006 1.4992142e-39
-0.036865719 -0.00072285719 0.75900006 1.1311323e-39
-0.035513334 -0.00072476192 0.76100004 6.7015417e-40
-0.034063812 -0.00072476192 0.76100004 1.6796496e-39
-0.032657143 -0.00072571432 0.76200002 2.5094103e-39
-0.031287622 -0.0007276191 0.76400006 2.4164495e-39
-0.029949524 -0.00073047623 0.76700002 8.0403829e-39
-0.028748574 -0.00073714292 0.77400005 9.870752e-39
-0.027344763 -0.00073904765 0.77600002 1.6047859e-38
-0.026000001 -0.00074285717 0.78000003 2.001036e-38
-0.024545714 -0.00074380951 0.78100002 2.0102556e-38
-0.023176191 -0.00074761908 0.78500003 2.212767e-38
-0.021791428 -0.0007514286 0.78900003 2.2773039e-38
-0.020288572 -0.0007514286 0.78900003 2.0926648e-38
-0.08245714 0.00074285717 0.78000003 1.6226428e-38
-0.080971435 0.00074285717 0.78000003 1.5673254e-38
-0.079485722 0.00074285717 0.78000003 1.3834039e-38
-0.078000002 0.00074285717 0.78000003 1.0330605e-38
-0.0763181 0.00074095244 0.77800006 8.3062639e-39
-0.074162856 0.00073428574 0.77100003 3.6964824e-39
-0.072034292 0.0007276191 0.76400006 6.6800318e-40
-0.070394285 0.00072571432 0.76200002 9.4459007e-40
-0.068942852 0.00072571432 0.76200002 7.6124138e-40
-0.067402862 0.00072476192 0.76100004 1.4066108e-39
-0.065953337 0.00072476192 0.76100004 1.223328e-39
-0.064503811 0.00072476192 0.76100004 1.4999148e-39
-0.063054286 0.00072476192 0.76100004 2.6937763e-39
-0.061604768 0.00072476192 0.76100004 2.8781676e-39
-0.060155239 0.00072476192 0.76100004 2.7863222e-39
-0.058551431 0.00072285719 0.75900006 3.0629091e-39
-0.05710572 0.00072285719 0.75900006 3.248385e-39
-0.055660002 0.00072285719 0.75900006 3.248385e-39
-0.054214288 0.00072285719 0.75900006 3.1572782e-39
-0.052768577 0.00072285719 0.75900006 2.9728869e-39
-0.051322859 0.00072285719 0.75900006 2.8810514e-39
-0.049745716 0.0007209524 0.75700003 2.9732471e-39
-0.048303809 0.0007209524 0.75700003 3.0650924e-39
-0.046861906 0.0007209524 0.75700003 2.7885055e-39
-0.045540005 0.00072285719 0.75900006 2.5119158e-39
-0.044094287 0.00072285719 0.75900006 2.2353289e-39
-0.042648572 0.00072285719 0.75900006 1.7772178e-39
-0.041202862 0.00072285719 0.75900006 1.224044e-39
-0.039861906 0.00072476192 0.76100004 8.5595374e-40
-0.038412381 0.00072476192 0.76100004 8.5595374e-40
-0.036962859 0.00072476192 0.76100004 7.6302663e-40
-0.035513334 0.00072476192 0.76100004 9.4741789e-40
-0.034108575 0.00072571432 0.76200002 2.8777934e-39
-0.032742858 0.0007276191 0.76400006 4.0763366e-39
-0.031369522 0.00072952383 0.76600003 6.5566321e-39
-0.030183813 0.00073619053 0.77300006 1.0797631e-38
-0.028748574 0.00073714292 0.77400005 1.3371979e-38
-0.027415238 0.00074095244 0.77800006 1.5953457e-38
-0.025933335 0.00074095244 0.77800006 1.6965443e-38
-0.024545714 0.00074380951 0.78100002 1.78874e-38
-0.023117144 0.00074571435 0.78300005 1.9542972e-38
-0.021736192 0.00074952387 0.78700006 2.1018102e-38
-0.020237144 0.00074952387 0.78700006 2.0927354e-38
-0.08394286 0.0022285716 0.78000003 1.4566912e-38
-0.08245714 0.0022285716 0.78000003 1.4016254e-38
-0.080971435 0.0022285716 0.78000003 1.4385036e-38
-0.079485722 0.0022285716 0.78000003 1.3924802e-38
-0.078000002 0.0022285716 0.78000003 1.3648215e-38
-0.0763181 0.0022228572 0.77800006 9.6903166e-39
-0.074451432 0.0022114285 0.77400005 7.3854258e-39
-0.072694287 0.0022028573 0.77100003 4.2583008e-39
-0.070579059 0.0021828574 0.76400006 4.6270833e-39
-0.069123812 0.0021828574 0.76400006 2.0509657e-39
-0.067491435 0.0021771428 0.76200002 1.8665744e-39
-0.066040002 0.0021771428 0.76200002 1.0396556e-39
-0.064503811 0.0021742857 0.76100004 4.8648178e-40
-0.063054286 0.0021742857 0.76100004 7.6232038e-40
-0.061604768 0.0021742857 0.76100004 9.4671164e-40
-0.060155239 0.0021742857 0.76100004 8.5557679e-40
-0.058705717 0.0021742857 0.76100004 9.4777102e-40
-0.057256192 0.0021742857 0.76100004 7.6302383e-40
-0.055660002 0.0021685716 0.75900006 7.6302383e-40
-0.054214288 0.0021685716 0.75900006 8.5523207e-40
-0.052768577 0.0021685716 0.75900006 7.6303644e-40
-0.051322859 0.0021685716 0.75900006 7.6232038e-40
-0.049877148 0.0021685716 0.75900006 8.5451601e-40
-0.048431434 0.0021685716 0.75900006 8.5382937e-40
-0.046985716 0.0021685716 0.75900006 5.7724248e-40
-0.045540005 0.0021685716 0.75900006 7.6129323e-40
-0.044094287 0.0021685716 0.75900006 1.8676408e-39
-0.042648572 0.0021685716 0.75900006 2.0516537e-39
-0.041311432 0.0021742857 0.76100004 3.6189794e-39
-0.039861906 0.0021742857 0.76100004 5.6386667e-39
-0.038412381 0.0021742857 0.76100004 7.4825793e-39
-0.036962859 0.0021742857 0.76100004 9.3224715e-39
-0.035560001 0.0021771428 0.76200002 9.8756453e-39
-0.03428762 0.0021885715 0.76600003 1.0887325e-38
-0.032828573 0.0021885715 0.76600003 1.1532695e-38
-0.031410474 0.0021914286 0.76700002 1.2084462e-38
-0.030183813 0.0022085716 0.77300006 1.3651787e-38
-0.028748574 0.0022114285 0.77400005 1.3742226e-38
-0.027415238 0.0022228572 0.77800006 1.5586138e-38
-0.025933335 0.0022228572 0.77800006 1.632116e-38
-0.024514288 0.0022285716 0.78000003 1.5767986e-38
-0.023058096 0.0022314284 0.78100002 1.5858027e-38
-0.021570476 0.0022314284 0.78100002 1.5765831e-38
-0.020134287 0.002237143 0.78300005 1.6410109e-38
-0.085428573 0.0037142858 0.78000003 1.5859446e-38
-0.08394286 0.0037142858 0.78000003 1.3554555e-38
-0.08245714 0.0037142858 0.78000003 1.3003187e-38
-0.080971435 0.0037142858 0.78000003 1.4017338e-38
-0.079485722 0.0037142858 0.78000003 1.4385418e-38
-0.077799998 0.0037047621 0.77800006 1.3832244e-38
-0.076121904 0.0036952381 0.77600002 1.3187966e-38
-0.074451432 0.0036857147 0.77400005 1.0514293e-38
-0.072882861 0.0036809526 0.77300006 9.4111541e-39
-0.071040951 0.0036619049 0.76900005 8.5813934e-39
-0.069304764 0.0036476192 0.76600003 6.6531843e-39
-0.067845717 0.0036476192 0.76600003 6.6531843e-39
-0.066213332 0.0036380955 0.76400006 6.0099673e-39
-0.064588569 0.0036285715 0.76200002 4.350446e-39
-0.063054286 0.0036238097 0.76100004 1.2258363e-39
-0.061604768 0.0036238097 0.76100004 7.6485813e-40
-0.060155239 0.0036238097 0.76100004 8.5595094e-40
-0.058705717 0.0036238097 0.76100004 5.7936405e-40
-0.057256192 0.0036238097 0.76100004 6.697534e-40
-0.05580667 0.0036238097 0.76100004 9.4633609e-40
-0.054214288 0.003614286 0.75900006 7.6304205e-40
-0.052768577 0.003614286 0.75900006 6.7084642e-40
-0.051322859 0.003614286 0.75900006 7.6267631e-40
-0.049877148 0.003614286 0.75900006 1.2236545e-39
-0.048431434 0.003614286 0.75900006 9.4961233e-40
-0.046985716 0.003614286 0.75900006 1.2261992e-39
-0.045540005 0.003614286 0.75900006 3.984162e-39
-0.044094287 0.003614286 0.75900006 5.9202702e-39
-0.042760953 0.0036238097 0.76100004 7.9406609e-39
-0.041311432 0.0036238097 0.76100004 8.2172478e-39
-0.039914284 0.0036285715 0.76200002 9.321457e-39
-0.038462859 0.0036285715 0.76200002 9.9668264e-39
-0.037011426 0.0036285715 0.76200002 1.2634373e-38
-0.035746668 0.0036476192 0.76600003 1.2818764e-38
-0.03428762 0.0036476192 0.76600003 1.2085183e-38
-0.032871429 0.003652381 0.76700002 1.2546161e-38
-0.031492382 0.0036619049 0.76900005 1.2822761e-38
-0.030183813 0.0036809526 0.77300006 1.346813e-38
-0.028748574 0.0036857147 0.77400005 1.4848201e-38
-0.027415238 0.0037047621 0.77800006 1.5862352e-38
-0.025933335 0.0037047621 0.77800006 1.5769078e-38
-0.024451429 0.0037047621 0.77800006 1.5400295e-38
-0.022969525 0.0037047621 0.77800006 1.5400293e-38
-0.021487622 0.0037047621 0.77800006 1.4754923e-38
-0.020005716 0.0037047621 0.77800006 1.5397765e-38
-0.01852381 0.0037047621 0.77800006 1.5766547e-38
-0.085428573 0.0052 0.78000003 1.327942e-38
-0.08394286 0.0052 0.78000003 1.3371616e-38
-0.082245722 0.0051866672 0.77800006 1.3372698e-38
-0.080763817 0.0051866672 0.77800006 1.4294654e-38
-0.079281911 0.0051866672 0.77800006 1.5031147e-38
-0.077799998 0.0051866672 0.77800006 1.539993e-38
-0.076121904 0.0051733335 0.77600002 1.4663456e-38
-0.074451432 0.0051600002 0.77400005 1.3833696e-38
-0.072882861 0.0051533333 0.77300006 1.2731288e-38
-0.071040951 0.0051266667 0.76900005 1.2454702e-38
-0.069395244 0.0051133335 0.76700002 1.2823111e-38
-0.067845717 0.0051066671 0.76600003 1.3191894e-38
-0.06638667 0.0051066671 0.76600003 1.3560661e-38
-0.0647581 0.0050933338 0.76400006 1.3652857e-38
-0.063137144 0.00508 0.76200002 1.3562443e-38
-0.061685719 0.00508 0.76200002 1.383903e-38
-0.060234286 0.00508 0.76200002 1.3470251e-38
-0.058782857 0.00508 0.76200002 1.3009272e-38
-0.057331428 0.00508 0.76200002 1.3378055e-38
-0.05580667 0.0050733336 0.76100004 1.3839033e-38
-0.054357145 0.0050733336 0.76100004 1.374684e-38
-0.05290762 0.0050733336 0.76100004 1.3654645e-38
-0.051322859 0.0050600008 0.75900006 1.4207097e-38
-0.049877148 0.0050600008 0.75900006 1.476027e-38
-0.048431434 0.0050600008 0.75900006 1.4668794e-38
-0.046985716 0.0050600008 0.75900006 1.4760989e-38
-0.04566 0.0050733336 0.76100004 1.5036863e-38
-0.044210479 0.0050733336 0.76100004 1.531345e-38
-0.042760953 0.0050733336 0.76100004 1.5128352e-38
-0.041365717 0.00508 0.76200002 1.4851765e-38
-0.04001905 0.0050933338 0.76400006 1.5034727e-38
-0.038563814 0.0050933338 0.76400006 1.5126923e-38
-0.037108574 0.0050933338 0.76400006 1.5309882e-38
-0.035746668 0.0051066671 0.76600003 1.5309882e-38
-0.03428762 0.0051066671 0.76600003 1.5493923e-38
-0.032871429 0.0051133335 0.76700002 1.5586119e-38
-0.031492382 0.0051266667 0.76900005 1.5402451e-38
-0.030105716 0.00514 0.77100003 1.5494646e-38
-0.028711431 0.0051533333 0.77300006 1.5494299e-38
-0.027344763 0.0051733335 0.77600002 1.5863081e-38
-0.025866667 0.0051733335 0.77600002 1.5586842e-38
-0.024451429 0.0051866672 0.77800006 1.5218059e-38
-0.022969525 0.0051866672 0.77800006 1.5308826e-38
-0.021487622 0.0051866672 0.77800006 1.521663e-38
-0.020005716 0.0051866672 0.77800006 1.5122992e-38
-0.01852381 0.0051866672 0.77800006 1.4662014e-38
-0.017041905 0.0051866672 0.77800006 1.5213711e-38
-0.015620001 0.0052066664 0.78100002 1.6227863e-38
-0.085428573 0.0066857147 0.78000003 1.3001029e-38
-0.08394286 0.0066857147 0.78000003 1.4291767e-38
-0.082245722 0.0066685718 0.77800006 1.4017001e-38
-0.080763817 0.0066685718 0.77800006 1.466237e-38
-0.079281911 0.0066685718 0.77800006 1.4663812e-38
-0.077799998 0.0066685718 0.77800006 1.4940399e-38
-0.076121904 0.0066514285 0.77600002 1.4665254e-38
-0.074451432 0.0066342861 0.77400005 1.3927689e-38
-0.072882861 0.0066257147 0.77300006 1.3928039e-38
-0.071040951 0.006591429 0.76900005 1.3835844e-38
-0.069395244 0.0065742861 0.76700002 1.3468493e-38
-0.067845717 0.0065657143 0.76600003 1.3652885e-38
-0.06638667 0.0065657143 0.76600003 1.4204967e-38
-0.0647581 0.0065485719 0.76400006 1.4573749e-38
-0.06330286 0.0065485719 0.76400006 1.4482633e-38
-0.06184762 0.0065485719 0.76400006 1.5128002e-38
-0.060234286 0.0065314285 0.76200002 1.5129081e-38
-0.058782857 0.0065314285 0.76200002 1.5129081e-38
-0.057331428 0.0065314285 0.76200002 1.5496422e-38
-0.055880003 0.0065314285 0.76200002 1.6049595e-38
-0.054357145 0.0065228576 0.76100004 1.6049958e-38
-0.05290762 0.0065228576 0.76100004 1.6049958e-38
-0.051458098 0.0065228576 0.76100004 1.6233987e-38
-0.049877148 0.0065057147 0.75900006 1.6233987e-38
-0.048431434 0.0065057147 0.75900006 1.6050318e-38
-0.047109526 0.0065228576 0.76100004 1.5865927e-38
-0.04566 0.0065228576 0.76100004 1.5589706e-38
-0.044210479 0.0065228576 0.76100004 1.549751e-38
-0.042817142 0.0065314285 0.76200002 1.5312406e-38
-0.041365717 0.0065314285 0.76200002 1.5128015e-38
-0.04001905 0.0065485719 0.76400006 1.4943986e-38
-0.038563814 0.0065485719 0.76400006 1.4759595e-38
-0.037205715 0.0065657143 0.76600003 1.4575207e-38
-0.035746668 0.0065657143 0.76600003 1.4759598e-38
-0.03428762 0.0065657143 0.76600003 1.5035469e-38
-0.032871429 0.0065742861 0.76700002 1.5127664e-38
-0.031410474 0.0065742861 0.76700002 1.5494649e-38
-0.030027622 0.006591429 0.76900005 1.5586845e-38
-0.028637143 0.0066085714 0.77100003 1.5494299e-38
-0.027274288 0.0066342861 0.77400005 1.5586494e-38
-0.025800001 0.0066342861 0.77400005 1.5495015e-38
-0.024388572 0.0066514285 0.77600002 1.5310623e-38
-0.022910476 0.0066514285 0.77600002 1.4941838e-38
-0.021432383 0.0066514285 0.77600002 1.4941838e-38
-0.019954285 0.0066514285 0.77600002 1.4848203e-38
-0.01852381 0.0066685718 0.77800006 1.4110638e-38
-0.017041905 0.0066685718 0.77800006 1.4476512e-38
-0.015600001 0.0066857147 0.78000003 1.493749e-38
-0.014114286 0.0066857147 0.78000003 1.6593416e-38
-0.085428573 0.008171428 0.78000003 1.2634792e-38
-0.083727628 0.008150477 0.77800006 1.4478705e-38
-0.082245722 0.008150477 0.77800006 1.4847487e-38
-0.080763817 0.008150477 0.77800006 1.521627e-38
-0.079281911 0.008150477 0.77800006 1.5216983e-38
-0.077600002 0.0081295241 0.77600002 1.5677961e-38
-0.076121904 0.0081295241 0.77600002 1.5494293e-38
-0.074355245 0.0080980957 0.77300006 1.5586489e-38
-0.072694287 0.0080771428 0.77100003 1.5678684e-38
-0.071040951 0.0080561908 0.76900005 1.577088e-38
-0.069304764 0.0080247624 0.76600003 1.5587561e-38
-0.067845717 0.0080247624 0.76600003 1.5495365e-38
-0.06638667 0.0080247624 0.76600003 1.5587205e-38
-0.0647581 0.0080038095 0.76400006 1.5771596e-38
-0.06330286 0.0080038095 0.76400006 1.5680119e-38
-0.061685719 0.0079828566 0.76200002 1.5587924e-38
-0.060234286 0.0079828566 0.76200002 1.5680838e-38
-0.058782857 0.0079828566 0.76200002 1.5957425e-38
-0.057331428 0.0079828566 0.76200002 1.5957422e-38
-0.055880003 0.0079828566 0.76200002 1.6234009e-38
-0.054357145 0.0079723811 0.76100004 1.6233293e-38
-0.05290762 0.0079723811 0.76100004 1.6325489e-38
-0.051458098 0.0079723811 0.76100004 1.6049621e-38
-0.050008573 0.0079723811 0.76100004 1.6049621e-38
-0.048559051 0.0079723811 0.76100004 1.6049265e-38
-0.047109526 0.0079723811 0.76100004 1.6049265e-38
-0.04566 0.0079723811 0.76100004 1.5865592e-38
-0.044210479 0.0079723811 0.76100004 1.6049984e-38
-0.042817142 0.0079828566 0.76200002 1.5773397e-38
-0.04147429 0.0080038095 0.76400006 1.5773397e-38
-0.040123809 0.0080247624 0.76600003 1.5680482e-38
-0.038664766 0.0080247624 0.76600003 1.5680482e-38
-0.037205715 0.0080247624 0.76600003 1.586451e-38
-0.035746668 0.0080247624 0.76600003 1.6048902e-38
-0.03428762 0.0080247624 0.76600003 1.6232214e-38
-0.032828573 0.0080247624 0.76600003 1.6232214e-38
-0.031410474 0.0080352379 0.76700002 1.6323331e-38
-0.029949524 0.0080352379 0.76700002 1.6323331e-38
-0.028562859 0.0080561908 0.76900005 1.6231135e-38
-0.027239049 0.0080980957 0.77300006 1.5862352e-38
-0.025766669 0.0080980957 0.77300006 1.558721e-38
-0.024325715 0.0081085721 0.77400005 1.5495015e-38
-0.02285143 0.0081085721 0.77400005 1.5494649e-38
-0.021377144 0.0081085721 0.77400005 1.5033671e-38
-0.019954285 0.0081295241 0.77600002 1.5032242e-38
-0.01852381 0.008150477 0.77800006 1.4386872e-38
-0.017041905 0.008150477 0.77800006 1.4016282e-38
-0.015560001 0.008150477 0.77800006 1.3647499e-38
-0.014114286 0.008171428 0.78000003 1.4659128e-38
-0.086914286 0.0096571427 0.78000003 1.3368719e-38
-0.085209534 0.0096323816 0.77800006 1.2452206e-38
-0.083727628 0.0096323816 0.77800006 1.4111727e-38
-0.08203429 0.0096076196 0.77600002 1.4296118e-38
-0.080556192 0.0096076196 0.77600002 1.4849292e-38
-0.079078101 0.0096076196 0.77600002 1.4757457e-38
-0.077400006 0.0095828576 0.77400005 1.5218435e-38
-0.075925723 0.0095828576 0.77400005 1.5402453e-38
-0.074355245 0.0095704766 0.77300006 1.5586845e-38
-0.072694287 0.0095457146 0.77100003 1.5586491e-38
-0.071040951 0.0095209526 0.76900005 1.5770883e-38
-0.069304764 0.0094838096 0.76600003 1.5771602e-38
-0.067845717 0.0094838096 0.76600003 1.558721e-38
-0.066213332 0.0094590485 0.76400006 1.5036197e-38
-0.0647581 0.0094590485 0.76400006 1.5220589e-38
-0.063137144 0.0094342856 0.76200002 1.5404974e-38
-0.061685719 0.0094342856 0.76200002 1.5312779e-38
-0.060234286 0.0094342856 0.76200002 1.5129106e-38
-0.058782857 0.0094342856 0.76200002 1.5313498e-38
-0.057331428 0.0094342856 0.76200002 1.5130185e-38
-0.055880003 0.0094342856 0.76200002 1.5130185e-38
-0.054357145 0.0094219055 0.76100004 1.5129829e-38
-0.05290762 0.0094219055 0.76100004 1.5129829e-38
-0.051458098 0.0094219055 0.76100004 1.5129829e-38
-0.050008573 0.0094219055 0.76100004 1.5222025e-38
-0.048559051 0.0094219055 0.76100004 1.5222025e-38
-0.047109526 0.0094219055 0.76100004 1.5222025e-38
-0.04566 0.0094219055 0.76100004 1.5130548e-38
-0.044210479 0.0094219055 0.76100004 1.5130548e-38
-0.042817142 0.0094342856 0.76200002 1.5314223e-38
-0.041365717 0.0094342856 0.76200002 1.5314223e-38
-0.04001905 0.0094590485 0.76400006 1.5404258e-38
-0.038664766 0.0094838096 0.76600003 1.5588649e-38
-0.037205715 0.0094838096 0.76600003 1.5772678e-38
-0.035746668 0.0094838096 0.76600003 1.5864873e-38
-0.03428762 0.0094838096 0.76600003 1.6231858e-38
-0.032828573 0.0094838096 0.76600003 1.6231858e-38
-0.031369522 0.0094838096 0.76600003 1.6139665e-38
-0.029949524 0.0094961906 0.76700002 1.6139665e-38
-0.028488571 0.0094961906 0.76700002 1.6140384e-38
-0.027168572 0.0095457146 0.77100003 1.5955993e-38
-0.025700001 0.0095457146 0.77100003 1.5587936e-38
-0.024294289 0.0095704766 0.77300006 1.5495741e-38
-0.022821905 0.0095704766 0.77300006 1.5403182e-38
-0.021377144 0.0095828576 0.77400005 1.4942204e-38
-0.019902857 0.0095828576 0.77400005 1.4940043e-38
-0.018476192 0.0096076196 0.77600002 1.4294674e-38
-0.017041905 0.0096323816 0.77800006 1.3832604e-38
-0.015560001 0.0096323816 0.77800006 1.327943e-38
-0.014078096 0.0096323816 0.77800006 1.4476146e-38
-0.012644762 0.0096695237 0.78100002 1.6873232e-38
-0.088740006 0.011185715 0.78300005 1.2909906e-38
-0.086914286 0.011142857 0.78000003 1.3186493e-38
-0.085209534 0.011114286 0.77800006 1.3187976e-38
-0.083512381 0.011085714 0.77600002 1.457091e-38
-0.081822865 0.011057143 0.77400005 1.4388311e-38
-0.080348574 0.011057143 0.77400005 1.5218072e-38
-0.07887429 0.011057143 0.77400005 1.5218435e-38
-0.077300005 0.011042858 0.77300006 1.5956e-38
-0.075827621 0.011042858 0.77300006 1.6231488e-38
-0.074162856 0.011014286 0.77100003 1.6323684e-38
-0.07250572 0.010985715 0.76900005 1.6231864e-38
-0.070763811 0.010942858 0.76600003 1.6416255e-38
-0.069123812 0.010914287 0.76400006 1.6508451e-38
-0.067668572 0.010914287 0.76400006 1.6508451e-38
-0.066213332 0.010914287 0.76400006 1.6508448e-38
-0.0647581 0.010914287 0.76400006 1.6508448e-38
-0.063137144 0.010885715 0.76200002 1.6509161e-38
-0.061685719 0.010885715 0.76200002 1.6601357e-38
-0.060234286 0.010885715 0.76200002 1.6693908e-38
-0.058782857 0.010885715 0.76200002 1.6786104e-38
-0.057331428 0.010885715 0.76200002 1.6602078e-38
-0.055880003 0.010885715 0.76200002 1.6602078e-38
-0.054428574 0.010885715 0.76200002 1.6693918e-38
-0.05290762 0.010871429 0.76100004 1.6693918e-38
-0.051458098 0.010871429 0.76100004 1.6694274e-38
-0.050008573 0.010871429 0.76100004 1.6694274e-38
-0.048559051 0.010871429 0.76100004 1.6786464e-38
-0.047109526 0.010871429 0.76100004 1.6786464e-38
-0.04566 0.010871429 0.76100004 1.6602438e-38
-0.044210479 0.010871429 0.76100004 1.6602438e-38
-0.042760953 0.010871429 0.76100004 1.6786114e-38
-0.041311432 0.010871429 0.76100004 1.6786114e-38
-0.039914284 0.010885715 0.76200002 1.6877946e-38
-0.038563814 0.010914287 0.76400006 1.6877946e-38
-0.037108574 0.010914287 0.76400006 1.6877581e-38
-0.035560001 0.010885715 0.76200002 1.6877581e-38
-0.034108575 0.010885715 0.76200002 1.687723e-38
-0.032742858 0.010914287 0.76400006 1.687723e-38
-0.031287622 0.010914287 0.76400006 1.6785037e-38
-0.029910479 0.010942858 0.76600003 1.6600646e-38
-0.02845143 0.010942858 0.76600003 1.6324775e-38
-0.027098097 0.010985715 0.76900005 1.623258e-38
-0.025633333 0.010985715 0.76900005 1.6140381e-38
-0.024231428 0.011014286 0.77100003 1.5679403e-38
-0.022821905 0.011042858 0.77300006 1.5586854e-38
-0.021349525 0.011042858 0.77300006 1.5125876e-38
-0.019902857 0.011057143 0.77400005 1.4757084e-38
-0.018476192 0.011085714 0.77600002 1.4019519e-38
-0.016998095 0.011085714 0.77600002 1.3741843e-38
-0.015520001 0.011085714 0.77600002 1.2635496e-38
-0.014078096 0.011114286 0.77800006 1.3278341e-38
-0.012644762 0.011157143 0.78100002 1.6505188e-38
-0.092191435 0.012741906 0.78700006 1.6318626e-38
-0.090461902 0.012709524 0.78500003 1.3829344e-38
-0.088513337 0.012644762 0.78100002 1.2542534e-38
-0.086914286 0.012628571 0.78000003 1.346449e-38
-0.085209534 0.012596191 0.77800006 1.3740424e-38
-0.083297148 0.01253143 0.77400005 1.4846771e-38
-0.081822865 0.01253143 0.77400005 1.4572342e-38
-0.080348574 0.01253143 0.77400005 1.5402103e-38
-0.07887429 0.01253143 0.77400005 1.5126958e-38
-0.077300005 0.012515238 0.77300006 1.5772327e-38
-0.075631432 0.012482857 0.77100003 1.604782e-38
-0.073970482 0.012450477 0.76900005 1.6140016e-38
-0.072222859 0.012401905 0.76600003 1.6231858e-38
-0.070579059 0.012369525 0.76400006 1.6416249e-38
-0.068942852 0.012337144 0.76200002 1.6416252e-38
-0.067491435 0.012337144 0.76200002 1.6692839e-38
-0.066040002 0.012337144 0.76200002 1.6968347e-38
-0.064588569 0.012337144 0.76200002 1.6876151e-38
-0.063137144 0.012337144 0.76200002 1.6692836e-38
-0.061685719 0.012337144 0.76200002 1.6877227e-38
-0.060234286 0.012337144 0.76200002 1.7060543e-38
-0.058782857 0.012337144 0.76200002 1.7152738e-38
-0.057331428 0.012337144 0.76200002 1.6877233e-38
-0.055880003 0.012337144 0.76200002 1.6877233e-38
-0.054357145 0.012320952 0.76100004 1.67854e-38
-0.05290762 0.012320952 0.76100004 1.6969792e-38
-0.051458098 0.012320952 0.76100004 1.6969423e-38
-0.050008573 0.012320952 0.76100004 1.6969423e-38
-0.048559051 0.012320952 0.76100004 1.6878665e-38
-0.047109526 0.012320952 0.76100004 1.678647e-38
-0.04566 0.012320952 0.76100004 1.6877946e-38
-0.044210479 0.012320952 0.76100004 1.6970142e-38
-0.042760953 0.012320952 0.76100004 1.6970145e-38
-0.041311432 0.012320952 0.76100004 1.6877949e-38
-0.039861906 0.012320952 0.76100004 1.6877593e-38
-0.038462859 0.012337144 0.76200002 1.6969789e-38
-0.037011426 0.012337144 0.76200002 1.6969426e-38
-0.035513334 0.012320952 0.76100004 1.6969426e-38
-0.034063812 0.012320952 0.76100004 1.6969429e-38
-0.032657143 0.012337144 0.76200002 1.6877233e-38
-0.031287622 0.012369525 0.76400006 1.6693921e-38
-0.029910479 0.012401905 0.76600003 1.6601725e-38
-0.02845143 0.012401905 0.76600003 1.6232943e-38
-0.027098097 0.012450477 0.76900005 1.6232943e-38
-0.025633333 0.012450477 0.76900005 1.5864523e-38
-0.024168573 0.012450477 0.76900005 1.5680132e-38
-0.022762857 0.012482857 0.77100003 1.5586854e-38
-0.021349525 0.012515238 0.77300006 1.5310268e-38
-0.019902857 0.01253143 0.77400005 1.4848926e-38
-0.018476192 0.01256381 0.77600002 1.392697e-38
-0.016998095 0.01256381 0.77600002 1.401843e-38
-0.015520001 0.01256381 0.77600002 1.25433e-38
-0.014041905 0.01256381 0.77600002 1.2542183e-38
-0.012628571 0.012628571 0.78000003 1.6137813e-38
-0.091957144 0.014204763 0.78500003 1.622715e-38
-0.09000095 0.014132381 0.78100002 1.327689e-38
-0.088400006 0.014114286 0.78000003 1.1990802e-38
-0.08646857 0.014041905 0.77600002 1.3650323e-38
-0.084771432 0.014005715 0.77400005 1.3925528e-38
-0.083189532 0.01398762 0.77300006 1.5031876e-38
-0.081505716 0.013951428 0.77100003 1.4941122e-38
-0.080037147 0.013951428 0.77100003 1.604747e-38
-0.07856857 0.013951428 0.77100003 1.595599e-38
-0.076900005 0.013915239 0.76900005 1.6232577e-38
-0.075239047 0.013879048 0.76700002 1.632477e-38
-0.073489532 0.013824763 0.76400006 1.6877944e-38
-0.072034292 0.013824763 0.76400006 1.6970132e-38
-0.070394285 0.013788572 0.76200002 1.7062328e-38
-0.068942852 0.013788572 0.76200002 1.7061975e-38
-0.067402862 0.013770477 0.76100004 1.7338562e-38
-0.065953337 0.013770477 0.76100004 1.7338208e-38
-0.064503811 0.013770477 0.76100004 1.7614795e-38
-0.063054286 0.013770477 0.76100004 1.7798108e-38
-0.061604768 0.013770477 0.76100004 1.7890303e-38
-0.060155239 0.013770477 0.76100004 1.7890306e-38
-0.058705717 0.013770477 0.76100004 1.7982502e-38
-0.057256192 0.013770477 0.76100004 1.7614445e-38
-0.05580667 0.013770477 0.76100004 1.7522249e-38
-0.054214288 0.013734287 0.75900006 1.7891382e-38
-0.052768577 0.013734287 0.75900006 1.8075773e-38
-0.051322859 0.013734287 0.75900006 1.7891735e-38
-0.049877148 0.013734287 0.75900006 1.779954e-38
-0.048431434 0.013734287 0.75900006 1.7799184e-38
-0.046985716 0.013734287 0.75900006 1.7799184e-38
-0.045540005 0.013734287 0.75900006 1.7799184e-38
-0.044094287 0.013734287 0.75900006 1.7799184e-38
-0.042648572 0.013734287 0.75900006 1.779954e-38
-0.041202862 0.013734287 0.75900006 1.7707344e-38
-0.039757144 0.013734287 0.75900006 1.7615158e-38
-0.038311433 0.013734287 0.75900006 1.7707354e-38
-0.036865719 0.013734287 0.75900006 1.743077e-38
-0.035513334 0.013770477 0.76100004 1.743077e-38
-0.034063812 0.013770477 0.76100004 1.7154896e-38
-0.032614287 0.013770477 0.76100004 1.7062701e-38
-0.031164765 0.013770477 0.76100004 1.6878312e-38
-0.029754287 0.013788572 0.76200002 1.6786116e-38
-0.028377144 0.013824763 0.76400006 1.6601722e-38
-0.026992382 0.013860953 0.76600003 1.6601722e-38
-0.025566667 0.013879048 0.76700002 1.5957069e-38
-0.024168573 0.013915239 0.76900005 1.5680482e-38
-0.02270381 0.013915239 0.76900005 1.5771602e-38
-0.021294286 0.013951428 0.77100003 1.5310623e-38
-0.019877145 0.01398762 0.77300006 1.4664901e-38
-0.018476192 0.014041905 0.77600002 1.383514e-38
-0.016998095 0.014041905 0.77600002 1.4202465e-38
-0.015480001 0.014005715 0.77400005 1.2450748e-38
-0.014005715 0.014005715 0.77400005 1.2450007e-38
-0.01253143 0.014005715 0.77400005 1.5492463e-38
-0.091371432 0.015600001 0.78000003 1.6410822e-38
-0.089885719 0.015600001 0.78000003 1.3091779e-38
-0.087946668 0.015520001 0.77600002 1.0884088e-38
-0.086245723 0.015480001 0.77400005 1.3557762e-38
-0.084661908 0.015460001 0.77300006 1.3926244e-38
-0.083189532 0.015460001 0.77300006 1.5216983e-38
-0.081505716 0.01542 0.77100003 1.5217709e-38
-0.080037147 0.01542 0.77100003 1.5863078e-38
-0.078364767 0.015380002 0.76900005 1.5771962e-38
-0.076700002 0.01534 0.76700002 1.623294e-38
-0.075140953 0.01532 0.76600003 1.623294e-38
-0.073489532 0.015280001 0.76400006 1.6786114e-38
-0.071845718 0.015240001 0.76200002 1.6970495e-38
-0.070301905 0.01522 0.76100004 1.7062691e-38
-0.068852387 0.01522 0.76100004 1.715417e-38
-0.067402862 0.01522 0.76100004 1.7246366e-38
-0.065953337 0.01522 0.76100004 1.706234e-38
-0.064503811 0.01522 0.76100004 1.7338927e-38
-0.062888578 0.015180001 0.75900006 1.7431123e-38
-0.061442863 0.015180001 0.75900006 1.7523319e-38
-0.059997149 0.015180001 0.75900006 1.7430767e-38
-0.058551431 0.015180001 0.75900006 1.7522963e-38
-0.05710572 0.015180001 0.75900006 1.7522963e-38
-0.055660002 0.015180001 0.75900006 1.7707354e-38
-0.054214288 0.015180001 0.75900006 1.779955e-38
-0.052768577 0.015180001 0.75900006 1.7891745e-38
-0.051322859 0.015180001 0.75900006 1.7799905e-38
-0.049877148 0.015180001 0.75900006 1.7799905e-38
-0.048431434 0.015180001 0.75900006 1.7799903e-38
-0.046861906 0.01514 0.75700003 1.7707707e-38
-0.045420002 0.01514 0.75700003 1.7799184e-38
-0.044094287 0.015180001 0.75900006 1.7799184e-38
-0.042648572 0.015180001 0.75900006 1.7891382e-38
-0.041202862 0.015180001 0.75900006 1.7799187e-38
-0.039757144 0.015180001 0.75900006 1.7522965e-38
-0.038311433 0.015180001 0.75900006 1.7522965e-38
-0.036865719 0.015180001 0.75900006 1.7155265e-38
-0.035420001 0.015180001 0.75900006 1.7155265e-38
-0.03397429 0.015180001 0.75900006 1.7063066e-38
-0.032614287 0.01522 0.76100004 1.6970871e-38
-0.031164765 0.01522 0.76100004 1.6786479e-38
-0.029754287 0.015240001 0.76200002 1.6694284e-38
-0.028302858 0.015240001 0.76200002 1.6234024e-38
-0.026992382 0.01532 0.76600003 1.6234024e-38
-0.025566667 0.01534 0.76700002 1.5865242e-38
-0.024105715 0.01534 0.76700002 1.5680851e-38
-0.02270381 0.015380002 0.76900005 1.5496094e-38
-0.021294286 0.01542 0.77100003 1.5035116e-38
-0.019877145 0.015460001 0.77300006 1.4664185e-38
-0.018476192 0.015520001 0.77600002 1.4018815e-38
-0.016998095 0.015520001 0.77600002 1.4570525e-38
-0.015480001 0.015480001 0.77400005 1.2911004e-38
-0.014005715 0.015480001 0.77400005 1.2448555e-38
-0.01253143 0.015480001 0.77400005 1.5491011e-38
-0.091371432 0.017085714 0.78000003 1.6135314e-38
-0.089885719 0.017085714 0.78000003 1.2539685e-38
-0.087946668 0.016998095 0.77600002 1.0883426e-38
-0.086245723 0.016954288 0.77400005 1.3464903e-38
-0.084661908 0.016932381 0.77300006 1.3926244e-38
-0.082974285 0.016888572 0.77100003 1.5309179e-38
-0.081294291 0.016844762 0.76900005 1.5217706e-38
-0.079829529 0.016844762 0.76900005 1.577088e-38
-0.078160949 0.016800953 0.76700002 1.567905e-38
-0.076700002 0.016800953 0.76700002 1.6508811e-38
-0.075140953 0.016779048 0.76600003 1.650953e-38
-0.07329715 0.01669143 0.76200002 1.6878312e-38
-0.071845718 0.01669143 0.76200002 1.6970142e-38
-0.070301905 0.016669523 0.76100004 1.7246729e-38
-0.068852387 0.016669523 0.76100004 1.7431473e-38
-0.067225717 0.016625715 0.75900006 1.7615865e-38
-0.065780006 0.016625715 0.75900006 1.7615865e-38
-0.064334288 0.016625715 0.75900006 1.7615865e-38
-0.062888578 0.016625715 0.75900006 1.7615158e-38
-0.061280955 0.016581906 0.75700003 1.8168332e-38
-0.059839047 0.016581906 0.75700003 1.8168322e-38
-0.058397144 0.016581906 0.75700003 1.8168322e-38
-0.056955241 0.016581906 0.75700003 1.8260165e-38
-0.055366673 0.016538097 0.75500005 1.8721143e-38
-0.053928573 0.016538097 0.75500005 1.8537468e-38
-0.052629523 0.016581906 0.75700003 1.8537468e-38
-0.05118762 0.016581906 0.75700003 1.872114e-38
-0.049745716 0.016581906 0.75700003 1.8813336e-38
-0.048303809 0.016581906 0.75700003 1.86293e-38
-0.046861906 0.016581906 0.75700003 1.8537105e-38
-0.045420002 0.016581906 0.75700003 1.8536752e-38
-0.043978095 0.016581906 0.75700003 1.8536752e-38
-0.042648572 0.016625715 0.75900006 1.8536749e-38
-0.041202862 0.016625715 0.75900006 1.8260162e-38
-0.039757144 0.016625715 0.75900006 1.7983941e-38
-0.038311433 0.016625715 0.75900006 1.7891745e-38
-0.036865719 0.016625715 0.75900006 1.7615877e-38
-0.035420001 0.016625715 0.75900006 1.7431486e-38
-0.03397429 0.016625715 0.75900006 1.7338571e-38
-0.032528572 0.016625715 0.75900006 1.715418e-38
-0.031164765 0.016669523 0.76100004 1.6786482e-38
-0.02971524 0.016669523 0.76100004 1.6694287e-38
-0.028302858 0.01669143 0.76200002 1.6509893e-38
-0.026992382 0.016779048 0.76600003 1.6233306e-38
-0.025566667 0.016800953 0.76700002 1.5957084e-38
-0.024105715 0.016800953 0.76700002 1.5772693e-38
-0.02270381 0.016844762 0.76900005 1.5404251e-38
-0.02123905 0.016844762 0.76900005 1.5035469e-38
-0.019825716 0.016888572 0.77100003 1.4573071e-38
-0.018428572 0.016954288 0.77400005 1.374331e-38
-0.016954288 0.016954288 0.77400005 1.411027e-38
-0.015480001 0.016954288 0.77400005 1.263514e-38
-0.014005715 0.016954288 0.77400005 1.2450013e-38
-0.01253143 0.016954288 0.77400005 1.4939295e-38
-0.09297619 0.018595237 0.78100002 1.6502302e-38
-0.091371432 0.018571429 0.78000003 1.6134954e-38
-0.089885719 0.018571429 0.78000003 1.263152e-38
-0.087946668 0.018476192 0.77600002 1.0424568e-38
-0.086134292 0.018404763 0.77300006 1.3098241e-38
-0.084661908 0.018404763 0.77300006 1.3834402e-38
-0.082974285 0.018357145 0.77100003 1.5125141e-38
-0.081294291 0.018309526 0.76900005 1.5401374e-38
-0.079829529 0.018309526 0.76900005 1.6046744e-38
-0.078160949 0.018261906 0.76700002 1.5679053e-38
-0.0766 0.018238096 0.76600003 1.6508814e-38
-0.074944772 0.018190479 0.76400006 1.6601362e-38
-0.07329715 0.018142859 0.76200002 1.6970145e-38
-0.071751431 0.018119048 0.76100004 1.6970142e-38
-0.070301905 0.018119048 0.76100004 1.743112e-38
-0.068671428 0.01807143 0.75900006 1.743112e-38
-0.067225717 0.01807143 0.75900006 1.7707707e-38
-0.065780006 0.01807143 0.75900006 1.77999e-38
-0.064334288 0.01807143 0.75900006 1.7707704e-38
-0.062722854 0.018023811 0.75700003 1.7431483e-38
-0.061280955 0.018023811 0.75700003 1.8076852e-38
-0.059839047 0.018023811 0.75700003 1.8352358e-38
-0.058397144 0.018023811 0.75700003 1.8352358e-38
-0.056955241 0.018023811 0.75700003 1.8168688e-38
-0.055366673 0.017976193 0.75500005 1.8537471e-38
-0.053928573 0.017976193 0.75500005 1.826196e-38
