# .PCD v0.7 - Point Cloud Data file format
VERSION 0.7
FIELDS x y z rgba
SIZE 4 4 4 4
TYPE F F F U
COUNT 1 1 1 1
WIDTH 1115
HEIGHT 1
VIEWPOINT 0 0 0 1 0 0 0
POINTS 1115
DATA ascii
-0.068417147 0.071925715 0.61400002 10532513
-0.067247622 0.071925715 0.61400002 11909553
-0.06597048 0.071808569 0.61300004 15330789
-0.064802863 0.071808569 0.61300004 15659747
-0.063220002 0.071340002 0.60900003 3027491
-0.062060002 0.071340002 0.60900003 807235
-0.16224284 0.073214285 0.61500001 11777440
-0.16080953 0.07309524 0.61400002 11446639
-0.15964001 0.07309524 0.61400002 7762231
-0.15847048 0.07309524 0.61400002 6061419
-0.15730095 0.07309524 0.61400002 5929833
-0.15613143 0.07309524 0.61400002 5863797
-0.15470953 0.072976194 0.61300004 5995383
-0.15354191 0.072976194 0.61300004 5733249
-0.15212572 0.072857149 0.61200005 5667456
-0.15096001 0.072857149 0.61200005 6062468
-0.15028381 0.07309524 0.61400002 5996675
-0.14887144 0.072976194 0.61300004 5996671
-0.14770381 0.072976194 0.61300004 5996671
-0.1465362 0.072976194 0.61300004 6127496
-0.14536858 0.072976194 0.61300004 6127496
-0.14420097 0.072976194 0.61300004 6522767
-0.14303334 0.072976194 0.61300004 6325388
-0.1416343 0.072857149 0.61200005 6588301
-0.14046857 0.072857149 0.61200005 6983059
-0.13930286 0.072857149 0.61200005 8099471
-0.13813715 0.072857149 0.61200005 7967885
-0.13719524 0.072976194 0.61300004 7968912
-0.13602763 0.072976194 0.61300004 7903119
-0.13486001 0.072976194 0.61300004 7837074
-0.13347429 0.072857149 0.61200005 7639695
-0.13230859 0.072857149 0.61200005 7770767
-0.13114287 0.072857149 0.61200005 7836560
-0.12636667 0.070833333 0.59500003 9998206
-0.12523334 0.070833333 0.59500003 11577238
-0.12430857 0.070952378 0.59600002 14005863
-0.12317333 0.070952378 0.59600002 16571790
-0.1220381 0.070952378 0.59600002 16510401
-0.12090286 0.070952378 0.59600002 16775115
-0.11976762 0.070952378 0.59600002 16579013
-0.11863238 0.070952378 0.59600002 16776392
-0.11749715 0.070952378 0.59600002 16579545
-0.11616667 0.070833333 0.59500003 16447959
-0.11503334 0.070833333 0.59500003 16448724
-0.11390001 0.070833333 0.59500003 16448724
-0.11276667 0.070833333 0.59500003 16447947
-0.11163334 0.070833333 0.59500003 16513740
-0.11050001 0.070833333 0.59500003 16513742
-0.10936667 0.070833333 0.59500003 16777172
-0.10823333 0.070833333 0.59500003 16711652
-0.10728 0.070952378 0.59600002 16646115
-0.10632285 0.071071431 0.597 16646115
-0.10518571 0.071071431 0.597 16580322
-0.10404857 0.071071431 0.597 16710627
-0.10291143 0.071071431 0.597 16315869
-0.10177428 0.071071431 0.597 14341307
-0.10080572 0.071190484 0.59800005 11906966
-0.099666677 0.071190484 0.59800005 11839609
-0.098362856 0.071071431 0.597 10523749
-0.097225711 0.071071431 0.597 10785872
-0.098502867 0.072857149 0.61200005 13088627
-0.097337149 0.072857149 0.61200005 12237748
-0.096171439 0.072857149 0.61200005 12237748
-0.095005721 0.072857149 0.61200005 11583420
-0.093993343 0.072976194 0.61300004 10662318
-0.092825718 0.072976194 0.61300004 9875880
-0.0916581 0.072976194 0.61300004 9546915
-0.090490483 0.072976194 0.61300004 8955039
-0.089322865 0.072976194 0.61300004 8626074
-0.08815524 0.072976194 0.61300004 7969950
-0.086987622 0.072976194 0.61300004 7969950
-0.085820004 0.072976194 0.61300004 8166813
-0.084652379 0.072976194 0.61300004 8232606
-0.083484761 0.072976194 0.61300004 8363668
-0.082317151 0.072976194 0.61300004 8429461
-0.081149533 0.072976194 0.61300004 8626076
-0.079981908 0.072976194 0.61300004 8691869
-0.07881429 0.072976194 0.61300004 8692896
-0.077646673 0.072976194 0.61300004 8627103
-0.076479048 0.072976194 0.61300004 8758176
-0.07531143 0.072976194 0.61300004 9284520
-0.074143812 0.072976194 0.61300004 9480620
-0.072976194 0.072976194 0.61300004 10006964
-0.071808569 0.072976194 0.61300004 10007468
-0.070640959 0.072976194 0.61300004 9612710
-0.069473341 0.072976194 0.61300004 9677981
-0.068305716 0.072976194 0.61300004 10006946
-0.067138098 0.072976194 0.61300004 11384497
-0.065862864 0.072857149 0.61200005 14739940
-0.06459143 0.072738096 0.611 16120307
-0.063220002 0.072499998 0.60900003 4935497
-0.062060002 0.072499998 0.60900003 4547080
-0.060800005 0.07238096 0.60800004 12508033
-0.059445713 0.072142854 0.60600001 13753047
-0.058291428 0.072142854 0.60600001 11384499
-0.16224284 0.074385718 0.61500001 11382682
-0.16080953 0.074264765 0.61400002 7831168
-0.15964001 0.074264765 0.61400002 7041652
-0.15821239 0.074143812 0.61300004 6192233
-0.15704477 0.074143812 0.61300004 5205338
-0.15587714 0.074143812 0.61300004 5864565
-0.15445715 0.074022859 0.61200005 6325116
-0.15329143 0.074022859 0.61200005 5601665
-0.15187714 0.073901907 0.611 5141114
-0.15071332 0.073901907 0.611 5799296
-0.1497943 0.074022859 0.61200005 5799296
-0.14862858 0.074022859 0.61200005 5996675
-0.14746287 0.074022859 0.61200005 5996675
-0.14629716 0.074022859 0.61200005 5996421
-0.14513144 0.074022859 0.61200005 5996421
-0.14396574 0.074022859 0.61200005 6062216
-0.14280002 0.074022859 0.61200005 5996423
-0.1416343 0.074022859 0.61200005 6127755
-0.14046857 0.074022859 0.61200005 6654099
-0.13930286 0.074022859 0.61200005 7508363
-0.13813715 0.074022859 0.61200005 7376777
-0.13697143 0.074022859 0.61200005 7902349
-0.13580573 0.074022859 0.61200005 7968142
-0.13464001 0.074022859 0.61200005 7114130
-0.1332562 0.073901907 0.611 6653579
-0.13187619 0.073780954 0.61000001 7179666
-0.13071428 0.073780954 0.61000001 7771803
-0.12955238 0.073780954 0.61000001 9605517
-0.12607525 0.072450481 0.59900004 9671310
-0.1249343 0.072450481 0.59900004 12560986
-0.12317333 0.072087623 0.59600002 13218916
-0.12183333 0.07196667 0.59500003 14731644
-0.12070001 0.07196667 0.59500003 16047504
-0.11956667 0.07196667 0.59500003 16446355
-0.11843333 0.07196667 0.59500003 16775577
-0.1173 0.07196667 0.59500003 16512187
-0.11616667 0.07196667 0.59500003 16512187
-0.11503334 0.07196667 0.59500003 16578513
-0.11390001 0.07196667 0.59500003 16512720
-0.11276667 0.07196667 0.59500003 16645328
-0.11163334 0.07196667 0.59500003 16711121
-0.11050001 0.07196667 0.59500003 16645576
-0.10936667 0.07196667 0.59500003 16777163
-0.10823333 0.07196667 0.59500003 16711624
-0.10728 0.072087623 0.59600002 15922364
-0.10614476 0.072087623 0.59600002 15196345
-0.10518571 0.072208568 0.597 13551520
-0.10404857 0.072208568 0.597 12233362
-0.10291143 0.072208568 0.597 11575432
-0.10177428 0.072208568 0.597 11509629
-0.10080572 0.072329529 0.59800005 10851699
-0.099666677 0.072329529 0.59800005 10525028
-0.098527625 0.072329529 0.59800005 9932891
-0.09738858 0.072329529 0.59800005 10655333
-0.097215243 0.073055245 0.60400003 11708021
-0.097178094 0.073901907 0.611 11185051
-0.096014284 0.073901907 0.611 10856086
-0.094850481 0.073901907 0.611 9217954
-0.093840003 0.074022859 0.61200005 8691610
-0.092674293 0.074022859 0.61200005 8429474
-0.091508575 0.074022859 0.61200005 8363681
-0.090342864 0.074022859 0.61200005 8231582
-0.089177154 0.074022859 0.61200005 8099996
-0.088011436 0.074022859 0.61200005 8100509
-0.086845718 0.074022859 0.61200005 8034716
-0.08568 0.074022859 0.61200005 8297877
-0.08451429 0.074022859 0.61200005 8363670
-0.08334858 0.074022859 0.61200005 8494992
-0.082182862 0.074022859 0.61200005 8626578
-0.081017151 0.074022859 0.61200005 8298390
-0.079851434 0.074022859 0.61200005 8101011
-0.078685716 0.074022859 0.61200005 8298649
-0.077520005 0.074022859 0.61200005 8496028
-0.076354288 0.074022859 0.61200005 8888987
-0.075188577 0.074022859 0.61200005 9415331
-0.074022859 0.074022859 0.61200005 9743022
-0.072857149 0.074022859 0.61200005 10400952
-0.071574286 0.073901907 0.611 9940903
-0.070410475 0.073901907 0.611 9085594
-0.069246665 0.073901907 0.611 9217693
-0.068082854 0.073901907 0.611 10073002
-0.066809528 0.073780954 0.61000001 11122356
-0.065647617 0.073780954 0.61000001 12569802
-0.064485714 0.073780954 0.61000001 12372916
-0.063220002 0.073660001 0.60900003 4148791
-0.062060002 0.073660001 0.60900003 5864565
-0.060700003 0.073418096 0.60700005 11983314
-0.059445713 0.073297143 0.60600001 13226944
-0.058291428 0.073297143 0.60600001 12569014
-0.16224284 0.075557142 0.61500001 9803643
-0.16028573 0.075188577 0.61200005 7175523
-0.15886 0.075065717 0.611 6846558
-0.15769619 0.075065717 0.611 6126710
-0.15653238 0.075065717 0.611 6192503
-0.15536857 0.075065717 0.611 6193019
-0.15420476 0.075065717 0.611 6193019
-0.15279049 0.074942857 0.61000001 5601665
-0.15162857 0.074942857 0.61000001 5667458
-0.15046667 0.074942857 0.61000001 5930369
-0.14954951 0.075065717 0.611 5930369
-0.14838572 0.075065717 0.611 5734530
-0.14722191 0.075065717 0.611 5800323
-0.1460581 0.075065717 0.611 6062216
-0.14489429 0.075065717 0.611 5996423
-0.14373048 0.075065717 0.611 6061957
-0.14256667 0.075065717 0.611 6259336
-0.14140286 0.075065717 0.611 6258821
-0.14023906 0.075065717 0.611 6916751
-0.13907525 0.075065717 0.611 7376532
-0.13791144 0.075065717 0.611 7442325
-0.13674763 0.075065717 0.611 7508363
-0.13558382 0.075065717 0.611 7442570
-0.13420001 0.074942857 0.61000001 6917257
-0.1330381 0.074942857 0.61000001 6719878
-0.13166001 0.074820004 0.60900003 6983050
-0.13028571 0.074697152 0.60800004 7246222
-0.12912764 0.074697152 0.60800004 8752772
-0.12796953 0.074697152 0.60800004 8752772
-0.12451714 0.073345713 0.597 11050327
-0.12317333 0.073222861 0.59600002 11905636
-0.12183333 0.073100001 0.59500003 12692824
-0.12070001 0.073100001 0.59500003 14403442
-0.11956667 0.073100001 0.59500003 15782544
-0.11843333 0.073100001 0.59500003 16771238
-0.1173 0.073100001 0.59500003 16443584
-0.11597144 0.072977148 0.59400004 16772549
-0.11484001 0.072977148 0.59400004 16644321
-0.11370858 0.072977148 0.59400004 16578528
-0.11257715 0.072977148 0.59400004 16645609
-0.11144572 0.072977148 0.59400004 16448230
-0.11031429 0.072977148 0.59400004 16644062
-0.10918286 0.072977148 0.59400004 16380890
-0.10805143 0.072977148 0.59400004 16248517
-0.1071 0.073100001 0.59500003 15985345
-0.10614476 0.073222861 0.59600002 14407344
-0.10500953 0.073222861 0.59600002 12565140
-0.10404857 0.073345713 0.597 12036725
-0.10291143 0.073345713 0.597 11247209
-0.10177428 0.073345713 0.597 11050868
-0.10080572 0.073468573 0.59800005 10458731
-0.099666677 0.073468573 0.59800005 10459501
-0.098857142 0.073714286 0.60000002 9933157
-0.098040007 0.073960006 0.60200006 10458983
-0.097215243 0.074205711 0.60400003 11511671
-0.096700951 0.074697152 0.60800004 10726821
-0.095542863 0.074697152 0.60800004 10134684
-0.09469524 0.074942857 0.61000001 8626590
-0.09368667 0.075065717 0.611 8297625
-0.09252286 0.075065717 0.611 7969691
-0.091359049 0.075065717 0.611 7838105
-0.090195239 0.075065717 0.611 7837848
-0.089031428 0.075065717 0.611 7903641
-0.087867618 0.075065717 0.611 7508890
-0.086703807 0.075065717 0.611 7706269
-0.085540004 0.075065717 0.611 8099994
-0.084376194 0.075065717 0.611 7836822
-0.083212383 0.075065717 0.611 7902855
-0.082048573 0.075065717 0.611 8231820
-0.080884762 0.075065717 0.611 7904152
-0.079720952 0.075065717 0.611 7706773
-0.078557141 0.075065717 0.611 7904411
-0.077393331 0.075065717 0.611 8167583
-0.07622952 0.075065717 0.611 9020314
-0.074942857 0.074942857 0.61000001 9480865
-0.073780954 0.074942857 0.61000001 9874090
-0.072619043 0.074942857 0.61000001 9808297
-0.07145714 0.074942857 0.61000001 9610907
-0.070295244 0.074942857 0.61000001 9479321
-0.069133334 0.074942857 0.61000001 9479832
-0.067971431 0.074942857 0.61000001 9874590
-0.066700004 0.074820004 0.60900003 10794933
-0.065540001 0.074820004 0.60900003 11847621
-0.064380005 0.074820004 0.60900003 11520176
-0.063220002 0.074820004 0.60900003 7506803
-0.062060002 0.074820004 0.60900003 7377781
-0.060700003 0.074574292 0.60700005 11720119
-0.059445713 0.074451432 0.60600001 12766145
-0.058291428 0.074451432 0.60600001 12437180
-0.16324762 0.076104768 0.61000001 16646120
-0.16182001 0.075980008 0.60900003 16448451
-0.16066001 0.075980008 0.60900003 7829568
-0.1595 0.075980008 0.60900003 6321536
-0.1586 0.076104768 0.61000001 6255743
-0.15743808 0.076104768 0.61000001 6060163
-0.15627618 0.076104768 0.61000001 6389128
-0.15511429 0.076104768 0.61000001 6061948
-0.15395239 0.076104768 0.61000001 6061948
-0.15279049 0.076104768 0.61000001 5798279
-0.15138 0.075980008 0.60900003 5995658
-0.15022001 0.075980008 0.60900003 5865089
-0.14930476 0.076104768 0.61000001 5865089
-0.14814286 0.076104768 0.61000001 5668737
-0.14698096 0.076104768 0.61000001 5866116
-0.14581905 0.076104768 0.61000001 5930117
-0.14465714 0.076104768 0.61000001 5403773
-0.14349523 0.076104768 0.61000001 6258814
-0.14256667 0.07622952 0.611 6785158
-0.14140286 0.07622952 0.611 6718852
-0.14023906 0.07622952 0.611 7376782
-0.13884762 0.076104768 0.61000001 7704220
-0.13768572 0.076104768 0.61000001 7967392
-0.13652381 0.076104768 0.61000001 7574413
-0.13536191 0.076104768 0.61000001 7377034
-0.13420001 0.076104768 0.61000001 7180427
-0.13282001 0.075980008 0.60900003 6983048
-0.13166001 0.075980008 0.60900003 7179909
-0.13028571 0.07585524 0.60800004 7311495
-0.12912764 0.07585524 0.60800004 8686977
-0.12796953 0.07585524 0.60800004 8752770
-0.12451714 0.074482858 0.597 10919761
-0.12296667 0.074233338 0.59500003 11051347
-0.12183333 0.074233338 0.59500003 11509327
-0.12070001 0.074233338 0.59500003 12035671
-0.11956667 0.074233338 0.59500003 12559982
-0.11843333 0.074233338 0.59500003 12559982
-0.11710286 0.074108571 0.59400004 13283712
-0.11597144 0.074108571 0.59400004 13875849
-0.11484001 0.074108571 0.59400004 13417601
-0.11370858 0.074108571 0.59400004 13286015
-0.11257715 0.074108571 0.59400004 13088902
-0.1112581 0.073983818 0.59300005 13023109
-0.11012858 0.073983818 0.59300005 12759950
-0.10899906 0.073983818 0.59300005 12233606
-0.10786953 0.073983818 0.59300005 11971420
-0.10692 0.074108571 0.59400004 12037213
-0.10596667 0.074233338 0.59500003 11707760
-0.10500953 0.074358098 0.59600002 11378795
-0.10404857 0.074482858 0.597 11378288
-0.10291143 0.074482858 0.597 11246702
-0.10177428 0.074482858 0.597 10919518
-0.10080572 0.074607626 0.59800005 10393174
-0.099833339 0.074732378 0.59900004 9998708
-0.099186674 0.075106673 0.60200006 9932915
-0.098202862 0.075231433 0.60300004 10131047
-0.097537145 0.075605713 0.60600001 10460012
-0.096700951 0.07585524 0.60800004 9148818
-0.095542863 0.07585524 0.60800004 8556681
-0.094540007 0.075980008 0.60900003 7509651
-0.09353333 0.076104768 0.61000001 7509651
-0.092371434 0.076104768 0.61000001 7247244
-0.091209523 0.076104768 0.61000001 6589314
-0.09004762 0.076104768 0.61000001 7378326
-0.088885717 0.076104768 0.61000001 7641498
-0.087723807 0.076104768 0.61000001 7574685
-0.086561903 0.076104768 0.61000001 7574685
-0.085400008 0.076104768 0.61000001 7639963
-0.084238097 0.076104768 0.61000001 7376791
-0.083076194 0.076104768 0.61000001 7837326
-0.081914283 0.076104768 0.61000001 7903119
-0.080884762 0.07622952 0.611 7575187
-0.079720952 0.07622952 0.611 7377808
-0.078557141 0.07622952 0.611 7574935
-0.077393331 0.07622952 0.611 7706521
-0.076104768 0.076104768 0.61000001 9151126
-0.074820004 0.075980008 0.60900003 9282712
-0.073660001 0.075980008 0.60900003 9216669
-0.07238096 0.07585524 0.60800004 9216669
-0.071222864 0.07585524 0.60800004 9151126
-0.070064768 0.07585524 0.60800004 8624782
-0.068906672 0.07585524 0.60800004 8625563
-0.067748569 0.07585524 0.60800004 9349286
-0.066590481 0.07585524 0.60800004 10663347
-0.065432385 0.07585524 0.60800004 11058105
-0.064380005 0.075980008 0.60900003 10861714
-0.063220002 0.075980008 0.60900003 9216889
-0.062060002 0.075980008 0.60900003 10268837
-0.060700003 0.07573048 0.60700005 13558487
-0.059543811 0.07573048 0.60700005 14147012
-0.16271238 0.077013336 0.60800004 16645870
-0.16155429 0.077013336 0.60800004 15265713
-0.1603962 0.077013336 0.60800004 6646830
-0.1592381 0.077013336 0.60800004 5993852
-0.15834001 0.077140003 0.60900003 6257024
-0.15718 0.077140003 0.60900003 6059645
-0.15602002 0.077140003 0.60900003 6257024
-0.15486 0.077140003 0.60900003 6192251
-0.15395239 0.077266671 0.61000001 6060665
-0.15254 0.077140003 0.60900003 5732479
-0.15138 0.077140003 0.60900003 5798272
-0.15022001 0.077140003 0.60900003 5340031
-0.14906 0.077140003 0.60900003 5076859
-0.14814286 0.077266671 0.61000001 5274238
-0.14698096 0.077266671 0.61000001 5405824
-0.14581905 0.077266671 0.61000001 5733251
-0.14465714 0.077266671 0.61000001 5667458
-0.14349523 0.077266671 0.61000001 6389882
-0.14233333 0.077266671 0.61000001 6389882
-0.14117144 0.077266671 0.61000001 6520189
-0.13978001 0.077140003 0.60900003 6914947
-0.13862 0.077140003 0.60900003 7572618
-0.13746001 0.077140003 0.60900003 8164755
-0.1363 0.077140003 0.60900003 8297625
-0.13514 0.077140003 0.60900003 7442316
-0.13376001 0.077013336 0.60800004 7246222
-0.13260192 0.077013336 0.60800004 6983050
-0.13122763 0.076886676 0.60700005 6917255
-0.12985715 0.076760001 0.60600001 6325118
-0.12870285 0.076760001 0.60600001 8094054
-0.12754856 0.076760001 0.60600001 8620398
-0.12451714 0.075620003 0.597 10194782
-0.12296667 0.075366668 0.59500003 10194782
-0.12183333 0.075366668 0.59500003 10195273
-0.12070001 0.075366668 0.59500003 10853203
-0.11956667 0.075366668 0.59500003 11839348
-0.11843333 0.075366668 0.59500003 11707762
-0.11710286 0.075240009 0.59400004 11707240
-0.11597144 0.075240009 0.59400004 11904619
-0.11484001 0.075240009 0.59400004 12101739
-0.11370858 0.075240009 0.59400004 11838567
-0.11257715 0.075240009 0.59400004 11772522
-0.1112581 0.075113341 0.59300005 11838315
-0.11012858 0.075113341 0.59300005 11641206
-0.10899906 0.075113341 0.59300005 11443827
-0.10786953 0.075113341 0.59300005 11379047
-0.10692 0.075240009 0.59400004 11050082
-0.10596667 0.075366668 0.59500003 11246689
-0.10500953 0.075493336 0.59600002 11049310
-0.10404857 0.075620003 0.597 11114596
-0.10291143 0.075620003 0.597 11114596
-0.10177428 0.075620003 0.597 10590553
-0.10097429 0.075873338 0.59900004 10393174
-0.10000001 0.076000005 0.60000002 9933659
-0.099186674 0.07625334 0.60200006 9867866
-0.098365717 0.076506667 0.60400003 9605466
-0.097537145 0.076760001 0.60600001 10197603
-0.096541911 0.076886676 0.60700005 8624534
-0.095385723 0.076886676 0.60700005 8098190
-0.094229534 0.076886676 0.60700005 7444371
-0.093226671 0.077013336 0.60800004 7444371
-0.092220001 0.077140003 0.60900003 7247242
-0.091060005 0.077140003 0.60900003 6589312
-0.089900002 0.077140003 0.60900003 7377808
-0.088739999 0.077140003 0.60900003 7180429
-0.087580003 0.077140003 0.60900003 7047826
-0.086420007 0.077140003 0.60900003 7245205
-0.085260004 0.077140003 0.60900003 7770781
-0.084100001 0.077140003 0.60900003 7836574
-0.082940005 0.077140003 0.60900003 7706251
-0.081780002 0.077140003 0.60900003 7706251
-0.08075238 0.077266671 0.61000001 7575187
-0.079460002 0.077140003 0.60900003 7509394
-0.078299999 0.077140003 0.60900003 7771535
-0.077140003 0.077140003 0.60900003 7903121
-0.07585524 0.077013336 0.60800004 8757403
-0.074697152 0.077013336 0.60800004 9086368
-0.073539048 0.077013336 0.60800004 9020575
-0.072261915 0.076886676 0.60700005 9020575
-0.071105719 0.076886676 0.60700005 8955032
-0.06994953 0.076886676 0.60700005 8428688
-0.068793342 0.076886676 0.60700005 8297109
-0.067637146 0.076886676 0.60700005 8362902
-0.066480957 0.076886676 0.60700005 10399394
-0.065324761 0.076886676 0.60700005 10991531
-0.064274289 0.077013336 0.60800004 10400650
-0.063116193 0.077013336 0.60800004 11782303
-0.062161908 0.077266671 0.61000001 12898488
-0.16244477 0.078042865 0.60700005 16119528
-0.16128857 0.078042865 0.60700005 15396985
-0.16013239 0.078042865 0.60700005 6317568
-0.1592381 0.078171432 0.60800004 5665916
-0.15808001 0.078171432 0.60800004 6060674
-0.15692191 0.078171432 0.60800004 5929086
-0.15576382 0.078171432 0.60800004 5994879
-0.15460573 0.078171432 0.60800004 5996155
-0.15370001 0.078299999 0.60900003 5667190
-0.15254 0.078299999 0.60900003 5666936
-0.15113144 0.078171432 0.60800004 5798522
-0.14997335 0.078171432 0.60800004 5536383
-0.14881524 0.078171432 0.60800004 5339004
-0.14790002 0.078299999 0.60900003 5601922
-0.14674 0.078299999 0.60900003 5667715
-0.14558001 0.078299999 0.60900003 6061705
-0.14418288 0.078171432 0.60800004 5930119
-0.14302477 0.078171432 0.60800004 6258546
-0.14186667 0.078171432 0.60800004 6324339
-0.14070857 0.078171432 0.60800004 6389378
-0.13955049 0.078171432 0.60800004 6257792
-0.13839239 0.078171432 0.60800004 7638141
-0.13723429 0.078171432 0.60800004 8493450
-0.1360762 0.078171432 0.60800004 8296330
-0.13491811 0.078171432 0.60800004 6980470
-0.13376001 0.078171432 0.60800004 6851464
-0.13238381 0.078042865 0.60700005 6719878
-0.13101143 0.077914283 0.60600001 7113603
-0.12942858 0.077657141 0.60400003 6192501
-0.12806572 0.077528574 0.60300004 6450276
-0.12628572 0.077142857 0.60000002 6713448
-0.12451714 0.07675714 0.597 9208414
-0.12317333 0.076628573 0.59600002 9866344
-0.12183333 0.076500006 0.59500003 10259294
-0.12070001 0.076500006 0.59500003 10851431
-0.11956667 0.076500006 0.59500003 10983517
-0.11843333 0.076500006 0.59500003 10983517
-0.11710286 0.076371431 0.59400004 10983769
-0.11597144 0.076371431 0.59400004 11378527
-0.11484001 0.076371431 0.59400004 11312223
-0.11370858 0.076371431 0.59400004 10785879
-0.11257715 0.076371431 0.59400004 11312484
-0.1112581 0.076242864 0.59300005 11444070
-0.11012858 0.076242864 0.59300005 11180905
-0.10899906 0.076242864 0.59300005 11049319
-0.10786953 0.076242864 0.59300005 11181940
-0.10692 0.076371431 0.59400004 10721389
-0.10596667 0.076500006 0.59500003 10326361
-0.10500953 0.076628573 0.59600002 10392154
-0.10404857 0.07675714 0.597 10522716
-0.10291143 0.07675714 0.597 10588509
-0.10194477 0.076885715 0.59800005 10393426
-0.10097429 0.07701429 0.59900004 10459219
-0.10000001 0.077142857 0.60000002 9868604
-0.099186674 0.077400006 0.60200006 8355365
-0.098202862 0.077528574 0.60300004 7765077
-0.097215243 0.077657141 0.60400003 8686179
-0.096064761 0.077657141 0.60400003 7835790
-0.095228568 0.077914283 0.60600001 7572618
-0.094074287 0.077914283 0.60600001 7114641
-0.092919998 0.077914283 0.60600001 7180434
-0.091765717 0.077914283 0.60600001 7115397
-0.090910487 0.078171432 0.60800004 6654846
-0.089752384 0.078171432 0.60800004 6983055
-0.088594295 0.078171432 0.60800004 6917262
-0.087436199 0.078171432 0.60800004 6982544
-0.086278096 0.078171432 0.60800004 7114130
-0.085120007 0.078171432 0.60800004 7903135
-0.083961904 0.078171432 0.60800004 7771549
-0.082803816 0.078171432 0.60800004 7312006
-0.08164572 0.078171432 0.60800004 7114627
-0.080619998 0.078299999 0.60900003 7246222
-0.079329528 0.078171432 0.60800004 6983050
-0.078171432 0.078171432 0.60800004 7310989
-0.077013336 0.078171432 0.60800004 7771540
-0.07573048 0.078042865 0.60700005 8362391
-0.074574292 0.078042865 0.60700005 8362391
-0.073418096 0.078042865 0.60700005 9085333
-0.072142854 0.077914283 0.60600001 9282712
-0.070988573 0.077914283 0.60600001 8955021
-0.069834292 0.077914283 0.60600001 8428677
-0.068793342 0.078042865 0.60700005 8165787
-0.067637146 0.078042865 0.60700005 7968408
-0.066371433 0.077914283 0.60600001 10530964
-0.065217145 0.077914283 0.60600001 11386273
-0.06416858 0.078042865 0.60700005 11450250
-0.063116193 0.078171432 0.60800004 13555626
-0.16217713 0.079068571 0.60600001 15527391
-0.16102286 0.079068571 0.60600001 12962951
-0.15986857 0.079068571 0.60600001 6581030
-0.15897621 0.079199053 0.60700005 6126208
-0.15782002 0.079199053 0.60700005 5994622
-0.15666382 0.079199053 0.60700005 5666684
-0.15576382 0.079329528 0.60800004 5864063
-0.15460573 0.079329528 0.60800004 5995910
-0.15344763 0.079329528 0.60800004 5666945
-0.15228952 0.079329528 0.60800004 5798783
-0.15113144 0.079329528 0.60800004 5732990
-0.14997335 0.079329528 0.60800004 5930369
-0.14881524 0.079329528 0.60800004 5930369
-0.14765716 0.079329528 0.60800004 5930369
-0.1462581 0.079199053 0.60700005 5864576
-0.14510192 0.079199053 0.60700005 5996169
-0.14394574 0.079199053 0.60700005 5864583
-0.14278954 0.079199053 0.60700005 5996153
-0.14163335 0.079199053 0.60700005 6127739
-0.14047715 0.079199053 0.60700005 6520446
-0.13932097 0.079199053 0.60700005 6520446
-0.13816477 0.079199053 0.60700005 7834244
-0.13700858 0.079199053 0.60700005 8360588
-0.1358524 0.079199053 0.60700005 7769232
-0.1346962 0.079199053 0.60700005 7177095
-0.13354 0.079199053 0.60700005 7310989
-0.13238381 0.079199053 0.60700005 6982024
-0.13101143 0.079068571 0.60600001 7310984
-0.12942858 0.078807622 0.60400003 5139815
-0.12806572 0.078677148 0.60300004 5988156
-0.12628572 0.078285716 0.60000002 6317121
-0.12514286 0.078285716 0.60000002 9272912
-0.12338 0.077894285 0.597 10194014
-0.1220381 0.077763811 0.59600002 10456412
-0.12090286 0.077763811 0.59600002 10916963
-0.11956667 0.077633336 0.59500003 10852435
-0.11843333 0.077633336 0.59500003 10786642
-0.1173 0.077633336 0.59500003 10786399
-0.11597144 0.077502862 0.59400004 10852192
-0.11484001 0.077502862 0.59400004 11180898
-0.11370858 0.077502862 0.59400004 11049312
-0.11257715 0.077502862 0.59400004 11378036
-0.11144572 0.077502862 0.59400004 11246450
-0.11012858 0.077372387 0.59300005 11246448
-0.10899906 0.077372387 0.59300005 11312241
-0.10786953 0.077372387 0.59300005 11444086
-0.10692 0.077502862 0.59400004 10720363
-0.10596667 0.077633336 0.59500003 10129750
-0.10500953 0.077763811 0.59600002 10261336
-0.10404857 0.077894285 0.597 10196063
-0.10308381 0.078024767 0.59800005 9932891
-0.10194477 0.078024767 0.59800005 9997662
-0.10114286 0.078285716 0.60000002 10063455
-0.10016667 0.078416191 0.60100001 9866328
-0.099351436 0.078677148 0.60300004 7958331
-0.098202862 0.078677148 0.60300004 6515780
-0.097215243 0.078807622 0.60400003 8226398
-0.096064761 0.078807622 0.60400003 7376786
-0.094914287 0.078807622 0.60400003 7310993
-0.093763813 0.078807622 0.60400003 7048337
-0.092919998 0.079068571 0.60600001 7048337
-0.091765717 0.079068571 0.60600001 7180931
-0.090760961 0.079199053 0.60700005 7115138
-0.089604765 0.079199053 0.60700005 7180434
-0.088448577 0.079199053 0.60700005 6983055
-0.087292388 0.079199053 0.60700005 7179923
-0.086278096 0.079329528 0.60800004 7179923
-0.085120007 0.079329528 0.60800004 7903387
-0.083961904 0.079329528 0.60800004 7574422
-0.082803816 0.079329528 0.60800004 6917764
-0.08151143 0.079199053 0.60700005 6983557
-0.080355242 0.079199053 0.60700005 7640206
-0.079068571 0.079068571 0.60600001 7442827
-0.077914283 0.079068571 0.60600001 7442827
-0.076760001 0.079068571 0.60600001 7837585
-0.075605713 0.079068571 0.60600001 8493459
-0.074451432 0.079068571 0.60600001 8230287
-0.073297143 0.079068571 0.60600001 8230028
-0.071904771 0.078807622 0.60400003 8230028
-0.07075429 0.078807622 0.60400003 8099471
-0.069603816 0.078807622 0.60400003 7770506
-0.068679996 0.079068571 0.60600001 7180425
-0.067525715 0.079068571 0.60600001 8693664
-0.066371433 0.079068571 0.60600001 11121329
-0.065217145 0.079068571 0.60600001 11516087
-0.064062856 0.079068571 0.60600001 11710338
-0.16217713 0.08022286 0.60600001 14343117
-0.16102286 0.08022286 0.60600001 12435576
-0.15986857 0.08022286 0.60600001 6579999
-0.15871429 0.08022286 0.60600001 5404025
-0.15756001 0.08022286 0.60600001 5601404
-0.15640572 0.08022286 0.60600001 5535863
-0.15550764 0.080355242 0.60700005 5535863
-0.15435144 0.080355242 0.60700005 5535620
-0.15319525 0.080355242 0.60700005 5338241
-0.15203905 0.080355242 0.60700005 5141889
-0.15088287 0.080355242 0.60700005 5339268
-0.14972667 0.080355242 0.60700005 5799035
-0.14832571 0.08022286 0.60600001 5864828
-0.14717142 0.08022286 0.60600001 5799035
-0.14601715 0.08022286 0.60600001 5535863
-0.14486286 0.08022286 0.60600001 5733249
-0.14370857 0.08022286 0.60600001 5601663
-0.1425543 0.08022286 0.60600001 5403523
-0.14139999 0.08022286 0.60600001 5337730
-0.14024571 0.08022286 0.60600001 6520446
-0.13909143 0.08022286 0.60600001 6520446
-0.13816477 0.080355242 0.60700005 7177858
-0.13700858 0.080355242 0.60700005 7901581
-0.1358524 0.080355242 0.60700005 7507861
-0.1346962 0.080355242 0.60700005 6718345
-0.13354 0.080355242 0.60700005 6522499
-0.13238381 0.080355242 0.60700005 6588292
-0.13057905 0.079958096 0.60400003 7112065
-0.12921429 0.079825722 0.60300004 5335654
-0.12785335 0.07969334 0.60200006 4806201
-0.12649618 0.07956095 0.60100001 4871994
-0.12514286 0.079428568 0.60000002 7826734
-0.12379333 0.079296194 0.59900004 9537352
-0.12224285 0.07903143 0.597 10325078
-0.12090286 0.078899048 0.59600002 10390871
-0.11976762 0.078899048 0.59600002 10260028
-0.11843333 0.078766666 0.59500003 10457407
-0.1173 0.078766666 0.59500003 10325859
-0.11597144 0.078634292 0.59400004 9996894
-0.11484001 0.078634292 0.59400004 10391904
-0.11370858 0.078634292 0.59400004 10852455
-0.11276667 0.078766666 0.59500003 10851442
-0.11144572 0.078634292 0.59400004 10588270
-0.11031429 0.078634292 0.59400004 10324585
-0.10918286 0.078634292 0.59400004 10258792
-0.10805143 0.078634292 0.59400004 10259544
-0.1071 0.078766666 0.59500003 10259544
-0.10614476 0.078899048 0.59600002 10128982
-0.10500953 0.078899048 0.59600002 10260568
-0.10404857 0.07903143 0.597 10128982
-0.10308381 0.07916382 0.59800005 9997396
-0.10194477 0.07916382 0.59800005 9273958
-0.10114286 0.079428568 0.60000002 8616028
-0.10033335 0.07969334 0.60200006 7499859
-0.099351436 0.079825722 0.60300004 6447171
-0.098202862 0.079825722 0.60300004 5598299
-0.097215243 0.079958096 0.60400003 7637882
-0.096064761 0.079958096 0.60400003 7507859
-0.094914287 0.079958096 0.60400003 7442066
-0.093763813 0.079958096 0.60400003 7179673
-0.092613332 0.079958096 0.60400003 6719122
-0.091462858 0.079958096 0.60400003 7049341
-0.090611428 0.08022286 0.60600001 7115134
-0.089457139 0.08022286 0.60600001 7048843
-0.088011429 0.079958096 0.60400003 6654085
-0.086860955 0.079958096 0.60400003 7113871
-0.0861362 0.080355242 0.60700005 7245457
-0.08484 0.08022286 0.60600001 6851462
-0.083685718 0.08022286 0.60600001 6522497
-0.082531422 0.08022286 0.60600001 6522999
-0.081377141 0.08022286 0.60600001 6720378
-0.08022286 0.08022286 0.60600001 7114375
-0.078807622 0.079958096 0.60400003 7509133
-0.077657141 0.079958096 0.60400003 7640206
-0.076506667 0.079958096 0.60400003 8100757
-0.075356193 0.079958096 0.60400003 8165514
-0.074205711 0.079958096 0.60400003 7573377
-0.072934292 0.079825722 0.60300004 7310989
-0.071785718 0.079825722 0.60300004 7442575
-0.070637152 0.079825722 0.60300004 7246227
-0.069488578 0.079825722 0.60300004 6785676
-0.068340003 0.079825722 0.60300004 9541259
-0.067191429 0.079825722 0.60300004 13554632
-0.066152386 0.079958096 0.60400003 14208449
-0.065001912 0.079958096 0.60400003 13024175
-0.063851431 0.079958096 0.60400003 11316376
-0.16312857 0.080705717 0.60100001 16646129
-0.16198382 0.080705717 0.60100001 16711665
-0.16110668 0.080840006 0.60200006 11382432
-0.16022572 0.080974288 0.60300004 11314042
-0.15934096 0.08110857 0.60400003 7103290
-0.15819047 0.08110857 0.60400003 5207164
-0.15704001 0.08110857 0.60400003 5404543
-0.15640572 0.081377141 0.60600001 5470579
-0.15525143 0.081377141 0.60600001 5404786
-0.15409714 0.081377141 0.60600001 5207936
-0.15294285 0.081377141 0.60600001 5076350
-0.15178858 0.081377141 0.60600001 4748153
-0.15063429 0.081377141 0.60600001 5011325
-0.14948 0.081377141 0.60600001 5470331
-0.14783619 0.08110857 0.60400003 5601917
-0.14668572 0.08110857 0.60400003 5536381
-0.14553525 0.08110857 0.60400003 5404795
-0.14438476 0.08110857 0.60400003 5601665
-0.1432343 0.08110857 0.60400003 5601665
-0.14208381 0.08110857 0.60400003 5599869
-0.14093335 0.08110857 0.60400003 5665662
-0.13978286 0.08110857 0.60400003 6651773
-0.13863239 0.08110857 0.60400003 6585980
-0.13793714 0.081377141 0.60600001 6061955
-0.13678285 0.081377141 0.60600001 7048850
-0.13562857 0.081377141 0.60600001 7180429
-0.13447428 0.081377141 0.60600001 6719878
-0.13332 0.081377141 0.60600001 6719106
-0.13216572 0.081377141 0.60600001 6719106
-0.13057905 0.08110857 0.60400003 7111304
-0.12921429 0.080974288 0.60300004 4282205
-0.12785335 0.080840006 0.60200006 4412204
-0.12649618 0.080705717 0.60100001 4346411
-0.12535143 0.080705717 0.60100001 5986563
-0.12379333 0.080437146 0.59900004 8223525
-0.12265238 0.080437146 0.59900004 9536082
-0.12110572 0.080168575 0.597 9733461
-0.11996857 0.080168575 0.597 9865783
-0.11863238 0.080034286 0.59600002 10457920
-0.11749715 0.080034286 0.59600002 10260836
-0.11616667 0.079900004 0.59500003 9931871
-0.11503334 0.079900004 0.59500003 10128991
-0.11390001 0.079900004 0.59500003 10457956
-0.11276667 0.079900004 0.59500003 10457963
-0.11163334 0.079900004 0.59500003 10128998
-0.11050001 0.079900004 0.59500003 10061915
-0.10936667 0.079900004 0.59500003 10127708
-0.10823333 0.079900004 0.59500003 10259544
-0.10728 0.080034286 0.59600002 10062165
-0.10632285 0.080168575 0.597 10062167
-0.10518571 0.080168575 0.597 10127960
-0.10422286 0.080302864 0.59800005 10258792
-0.10308381 0.080302864 0.59800005 10258792
-0.10211524 0.080437146 0.59900004 8879970
-0.10131142 0.080705717 0.60100001 8156247
-0.10033335 0.080840006 0.60200006 6188096
-0.099351436 0.080974288 0.60300004 5990717
-0.098202862 0.080974288 0.60300004 5270120
-0.097054288 0.080974288 0.60300004 7375496
-0.095905714 0.080974288 0.60300004 7310730
-0.094757155 0.080974288 0.60300004 7508109
-0.093608581 0.080974288 0.60300004 7377045
-0.092613332 0.08110857 0.60400003 6916494
-0.091462858 0.08110857 0.60400003 7246218
-0.090312384 0.08110857 0.60400003 7114632
-0.08916191 0.08110857 0.60400003 6588558
-0.088011429 0.08110857 0.60400003 6588558
-0.086860955 0.08110857 0.60400003 6653581
-0.085710481 0.08110857 0.60400003 6521995
-0.084559999 0.08110857 0.60400003 6653059
-0.083409525 0.08110857 0.60400003 6455680
-0.082259052 0.08110857 0.60400003 6586491
-0.08110857 0.08110857 0.60400003 7178628
-0.079958096 0.08110857 0.60400003 7048069
-0.078677148 0.080974288 0.60300004 7508620
-0.077528574 0.080974288 0.60300004 7640208
-0.076380007 0.080974288 0.60300004 7574415
-0.075231433 0.080974288 0.60300004 7311495
-0.073960006 0.080840006 0.60200006 7179909
-0.07281334 0.080840006 0.60200006 7049354
-0.071666673 0.080840006 0.60200006 7049354
-0.070520006 0.080840006 0.60200006 6589837
-0.069488578 0.080974288 0.60300004 6195079
-0.068340003 0.080974288 0.60300004 10656647
-0.067191429 0.080974288 0.60300004 16117466
-0.066042863 0.080974288 0.60300004 15920098
-0.064894289 0.080974288 0.60300004 11906725
-0.063851431 0.08110857 0.60400003 9672556
-0.16312857 0.081850477 0.60100001 16646131
-0.16198382 0.081850477 0.60100001 16711665
-0.16110668 0.081986673 0.60200006 10921881
-0.15996002 0.081986673 0.60200006 7436687
-0.15881334 0.081986673 0.60200006 5791862
-0.15766668 0.081986673 0.60200006 4681851
-0.15652001 0.081986673 0.60200006 4616058
-0.15588953 0.082259052 0.60400003 5010280
-0.15473905 0.082259052 0.60400003 5141866
-0.15358858 0.082259052 0.60400003 4945275
-0.1524381 0.082259052 0.60400003 5340033
-0.15128762 0.082259052 0.60400003 5404538
-0.15013716 0.082259052 0.60400003 5338745
-0.14898667 0.082259052 0.60400003 5536124
-0.14759144 0.082122862 0.60300004 5536124
-0.14644288 0.082122862 0.60300004 5535870
-0.14529429 0.082122862 0.60300004 5470077
-0.14414573 0.082122862 0.60300004 5535870
-0.14299716 0.082122862 0.60300004 5601663
-0.14184858 0.082122862 0.60300004 5535359
-0.14070001 0.082122862 0.60300004 5601152
-0.13955143 0.082122862 0.60300004 6520441
-0.13840286 0.082122862 0.60300004 6323062
-0.13725428 0.082122862 0.60300004 6061955
-0.13610572 0.082122862 0.60300004 7114643
-0.13495716 0.082122862 0.60300004 7377027
-0.13380858 0.082122862 0.60300004 6982269
-0.13266002 0.082122862 0.60300004 7309955
-0.13151143 0.082122862 0.60300004 6980990
-0.13036287 0.082122862 0.60300004 6847621
-0.12900001 0.081986673 0.60200006 3952729
-0.12785335 0.081986673 0.60200006 3887920
-0.12649618 0.081850477 0.60100001 3229990
-0.12535143 0.081850477 0.60100001 5396992
-0.12379333 0.081578098 0.59900004 5528576
-0.12265238 0.081578098 0.59900004 7892270
-0.12130858 0.081441909 0.59800005 9010751
-0.12016953 0.081441909 0.59800005 9799729
-0.11863238 0.081169531 0.59600002 10457659
-0.11749715 0.081169531 0.59600002 10194525
-0.11616667 0.081033342 0.59500003 9931353
-0.11503334 0.081033342 0.59500003 9800287
-0.11390001 0.081033342 0.59500003 9734494
-0.1129562 0.081169531 0.59600002 9930838
-0.11182095 0.081169531 0.59600002 9930838
-0.11050001 0.081033342 0.59500003 10259287
-0.10936667 0.081033342 0.59500003 10588252
-0.10841525 0.081169531 0.59600002 10325589
-0.10746 0.081305712 0.597 9865038
-0.10632285 0.081305712 0.597 9602647
-0.10518571 0.081305712 0.597 9339475
-0.10422286 0.081441909 0.59800005 8748132
-0.1032562 0.081578098 0.59900004 7498065
-0.10228571 0.081714287 0.60000002 5789003
-0.10131142 0.081850477 0.60100001 5460038
-0.10033335 0.081986673 0.60200006 4740658
-0.099186674 0.081986673 0.60200006 6648655
-0.098040007 0.081986673 0.60200006 6519174
-0.097054288 0.082122862 0.60300004 7440276
-0.095746674 0.081986673 0.60200006 7375746
-0.094600007 0.081986673 0.60200006 7573125
-0.093608581 0.082122862 0.60300004 6851464
-0.092460006 0.082122862 0.60300004 6193534
-0.091311432 0.082122862 0.60300004 6456974
-0.090162858 0.082122862 0.60300004 6522767
-0.089014292 0.082122862 0.60300004 6588301
-0.087865725 0.082122862 0.60300004 6588301
-0.086717151 0.082122862 0.60300004 6588301
-0.085426673 0.081986673 0.60200006 6390922
-0.084280007 0.081986673 0.60200006 6456461
-0.08313334 0.081986673 0.60200006 6390668
-0.081986673 0.081986673 0.60200006 6456204
-0.080705717 0.081850477 0.60100001 7179927
-0.07956095 0.081850477 0.60100001 7506321
-0.078416191 0.081850477 0.60100001 7703700
-0.077142857 0.081714287 0.60000002 7836560
-0.076000005 0.081714287 0.60000002 7704974
-0.074857146 0.081714287 0.60000002 7377288
-0.073714286 0.081714287 0.60000002 6785151
-0.072571434 0.081714287 0.60000002 6260622
-0.071428567 0.081714287 0.60000002 6655380
-0.070285715 0.081714287 0.60000002 7638407
-0.069142863 0.081714287 0.60000002 9546404
-0.068000004 0.081714287 0.60000002 12825006
-0.066745721 0.081578098 0.59900004 16641000
-0.065604761 0.081578098 0.59900004 16114871
-0.064894289 0.082122862 0.60300004 11969912
-0.063745722 0.082122862 0.60300004 9082766
-0.061455239 0.080624759 0.59200001 9938075
-0.060327619 0.080624759 0.59200001 9939622
-0.0592 0.080624759 0.59200001 10202794
-0.16312857 0.082995243 0.60100001 16646129
-0.16198382 0.082995243 0.60100001 16646118
-0.16083904 0.082995243 0.60100001 9474937
-0.15969428 0.082995243 0.60100001 7174249
-0.15854953 0.082995243 0.60100001 6121561
-0.15740477 0.082995243 0.60100001 5599869
-0.15626 0.082995243 0.60100001 5336697
-0.15537335 0.08313334 0.60200006 5337453
-0.15422668 0.08313334 0.60200006 5271660
-0.15308 0.08313334 0.60200006 4681849
-0.15193334 0.08313334 0.60200006 4681849
-0.15103714 0.083271429 0.60300004 5208186
-0.14988858 0.083271429 0.60300004 5208186
-0.14874001 0.083271429 0.60300004 5469818
-0.14759144 0.083271429 0.60300004 5535611
-0.1462 0.08313334 0.60200006 5469566
-0.14505334 0.08313334 0.60200006 5535359
-0.14390668 0.08313334 0.60200006 5470079
-0.14299716 0.083271429 0.60300004 5470079
-0.14184858 0.083271429 0.60300004 5535361
-0.14046669 0.08313334 0.60200006 5535361
-0.13932002 0.08313334 0.60200006 6323835
-0.13817334 0.08313334 0.60200006 6323835
-0.13679905 0.082995243 0.60100001 5996155
-0.13565429 0.082995243 0.60100001 6851464
-0.13450952 0.082995243 0.60100001 7048321
-0.13336477 0.082995243 0.60100001 7048321
-0.132 0.082857139 0.60000002 7966856
-0.13085715 0.082857139 0.60000002 6782582
-0.12993048 0.082995243 0.60100001 6387318
-0.12857142 0.082857139 0.60000002 3887184
-0.12742858 0.082857139 0.60000002 3953715
-0.12628572 0.082857139 0.60000002 4085301
-0.12514286 0.082857139 0.60000002 4609804
-0.12379333 0.08271905 0.59900004 3886081
-0.12265238 0.08271905 0.59900004 5196297
-0.12130858 0.082580961 0.59800005 7104294
-0.12016953 0.082580961 0.59800005 8746809
-0.11903048 0.082580961 0.59800005 9996876
-0.11769429 0.082442857 0.597 9669215
-0.1163619 0.082304768 0.59600002 9735008
-0.11522667 0.082304768 0.59600002 9997165
-0.11409143 0.082304768 0.59600002 9865579
-0.1129562 0.082304768 0.59600002 9996644
-0.11200857 0.082442857 0.597 10062437
-0.11087143 0.082442857 0.597 10324084
-0.10955048 0.082304768 0.59600002 10258291
-0.10841525 0.082304768 0.59600002 9865066
-0.10764001 0.082580961 0.59800005 9536101
-0.10650096 0.082580961 0.59800005 8879970
-0.10536192 0.082580961 0.59800005 8551005
-0.10422286 0.082580961 0.59800005 7435361
-0.1032562 0.08271905 0.59900004 5790536
-0.10245619 0.082995243 0.60100001 4477728
-0.10131142 0.082995243 0.60100001 4543521
-0.10016667 0.082995243 0.60100001 4280869
-0.099021904 0.082995243 0.60100001 6781003
-0.097877145 0.082995243 0.60100001 7177097
-0.096732378 0.082995243 0.60100001 7177097
-0.095428571 0.082857139 0.60000002 6719104
-0.094285719 0.082857139 0.60000002 6653311
-0.0932981 0.082995243 0.60100001 6194304
-0.092153333 0.082995243 0.60100001 6062718
-0.091160007 0.08313334 0.60200006 6391170
-0.09001334 0.08313334 0.60200006 6259584
-0.088866673 0.08313334 0.60200006 5996164
-0.087574288 0.082995243 0.60100001 6127750
-0.086429521 0.082995243 0.60100001 6521995
-0.085284762 0.082995243 0.60100001 6456202
-0.084140003 0.082995243 0.60100001 6390922
-0.082995243 0.082995243 0.60100001 6390922
-0.081850477 0.082995243 0.60100001 6850188
-0.080571435 0.082857139 0.60000002 7310739
-0.079428568 0.082857139 0.60000002 7637898
-0.078285716 0.082857139 0.60000002 7769484
-0.077142857 0.082857139 0.60000002 7704972
-0.076000005 0.082857139 0.60000002 7639179
-0.074857146 0.082857139 0.60000002 7574413
-0.073714286 0.082857139 0.60000002 6784897
-0.072571434 0.082857139 0.60000002 6128768
-0.071428567 0.082857139 0.60000002 6326147
-0.070285715 0.082857139 0.60000002 8358762
-0.069142863 0.082857139 0.60000002 12240549
-0.068000004 0.082857139 0.60000002 14863791
-0.066745721 0.08271905 0.59900004 16442823
-0.065604761 0.08271905 0.59900004 15786417
-0.064463809 0.08271905 0.59900004 11641458
-0.062582858 0.081752382 0.59200001 8952184
-0.061455239 0.081752382 0.59200001 9412735
-0.060327619 0.081752382 0.59200001 9216403
-0.0592 0.081752382 0.59200001 10137505
-0.16312857 0.084140003 0.60100001 16645870
-0.16198382 0.084140003 0.60100001 16448190
-0.16083904 0.084140003 0.60100001 7895100
-0.15942858 0.084000006 0.60000002 5597811
-0.15828572 0.084000006 0.60000002 5663604
-0.15714286 0.084000006 0.60000002 5009278
-0.156 0.084000006 0.60000002 5075071
-0.15485714 0.084000006 0.60000002 5009526
-0.1537143 0.084000006 0.60000002 5009526
-0.15257144 0.084000006 0.60000002 4616056
-0.15142857 0.084000006 0.60000002 4484470
-0.15053619 0.084140003 0.60100001 5404786
-0.14939143 0.084140003 0.60100001 5602165
-0.14849335 0.084280007 0.60200006 5273209
-0.14734669 0.084280007 0.60200006 5207416
-0.1462 0.084280007 0.60200006 5141123
-0.14481239 0.084140003 0.60100001 5075330
-0.14366761 0.084140003 0.60100001 5207168
-0.14252286 0.084140003 0.60100001 4812410
-0.1413781 0.084140003 0.60100001 4878469
-0.14023332 0.084140003 0.60100001 4615297
-0.13908857 0.084140003 0.60100001 6060663
-0.1379438 0.084140003 0.60100001 6389628
-0.13657144 0.084000006 0.60000002 6258812
-0.13542858 0.084000006 0.60000002 6785156
-0.13428572 0.084000006 0.60000002 7310207
-0.13314286 0.084000006 0.60000002 7441793
-0.132 0.084000006 0.60000002 7702910
-0.13085715 0.084000006 0.60000002 6387050
-0.1297143 0.084000006 0.60000002 5926751
-0.12857142 0.084000006 0.60000002 3821375
-0.12742858 0.084000006 0.60000002 4019508
-0.12628572 0.084000006 0.60000002 4085301
-0.12514286 0.084000006 0.60000002 4018955
-0.12379333 0.08386001 0.59900004 3887369
-0.12265238 0.08386001 0.59900004 4410668
-0.12130858 0.083720006 0.59800005 4805426
-0.12016953 0.083720006 0.59800005 6445356
-0.11903048 0.083720006 0.59800005 7234872
-0.11789144 0.083720006 0.59800005 7694900
-0.1163619 0.083439998 0.59600002 8155451
-0.11522667 0.083439998 0.59600002 8024397
-0.1144743 0.083720006 0.59800005 8353362
-0.11314572 0.083580002 0.597 8221020
-0.11200857 0.083580002 0.597 8089434
-0.11087143 0.083580002 0.597 7826026
-0.10973428 0.083580002 0.597 7497061
-0.10859714 0.083580002 0.597 6578505
-0.10764001 0.083720006 0.59800005 5986368
-0.10650096 0.083720006 0.59800005 5593141
-0.1055381 0.08386001 0.59900004 5329969
-0.10439715 0.08386001 0.59900004 4476988
-0.10342857 0.084000006 0.60000002 3687472
-0.10228571 0.084000006 0.60000002 3951897
-0.10114286 0.084000006 0.60000002 4017690
-0.10000001 0.084000006 0.60000002 4019776
-0.098857142 0.084000006 0.60000002 6322531
-0.09771429 0.084000006 0.60000002 7308411
-0.096571431 0.084000006 0.60000002 7308411
-0.095428571 0.084000006 0.60000002 7046270
-0.094285719 0.084000006 0.60000002 6914684
-0.09314286 0.084000006 0.60000002 6521984
-0.092153333 0.084140003 0.60100001 6390398
-0.091008566 0.084140003 0.60100001 6259064
-0.089863814 0.084140003 0.60100001 6127478
-0.088719048 0.084140003 0.60100001 5930117
-0.087574288 0.084140003 0.60100001 5666945
-0.086429521 0.084140003 0.60100001 6390409
-0.085284762 0.084140003 0.60100001 6521995
-0.084140003 0.084140003 0.60100001 6456202
-0.082995243 0.084140003 0.60100001 6456202
-0.081714287 0.084000006 0.60000002 6784395
-0.080571435 0.084000006 0.60000002 7244946
-0.079428568 0.084000006 0.60000002 7835016
-0.078155242 0.08386001 0.59900004 7835016
-0.07701429 0.08386001 0.59900004 6916235
-0.075873338 0.08386001 0.59900004 6718856
-0.074732378 0.08386001 0.59900004 7572866
-0.073591433 0.08386001 0.59900004 6980729
-0.072450481 0.08386001 0.59900004 6521482
-0.071309529 0.08386001 0.59900004 7047826
-0.07016857 0.08386001 0.59900004 10525054
-0.069027625 0.08386001 0.59900004 14472634
-0.067886673 0.08386001 0.59900004 15782306
-0.06663429 0.083720006 0.59800005 16769458
-0.065276191 0.083439998 0.59600002 15851931
-0.063925713 0.083160006 0.59400004 11641179
-0.062582858 0.082879998 0.59200001 8690059
-0.061455239 0.082879998 0.59200001 9742747
-0.060327619 0.082879998 0.59200001 9479584
-0.16312857 0.085284762 0.60100001 16645872
-0.16198382 0.085284762 0.60100001 15200170
-0.16083904 0.085284762 0.60100001 6318115
-0.15942858 0.085142858 0.60000002 4419172
-0.15828572 0.085142858 0.60000002 4682344
-0.15688096 0.085000955 0.59900004 4418420
-0.15574001 0.085000955 0.59900004 4681592
-0.15459906 0.085000955 0.59900004 5205363
-0.1534581 0.085000955 0.59900004 5139570
-0.15257144 0.085142858 0.60000002 4024173
-0.15142857 0.085142858 0.60000002 4682103
-0.15028572 0.085142858 0.60000002 5272689
-0.14939143 0.085284762 0.60100001 5272689
-0.14824666 0.085284762 0.60100001 4682603
-0.14710191 0.085284762 0.60100001 4616810
-0.14595714 0.085284762 0.60100001 4616319
-0.14481239 0.085284762 0.60100001 4747905
-0.14366761 0.085284762 0.60100001 5469827
-0.14252286 0.085284762 0.60100001 4943483
-0.1413781 0.085284762 0.60100001 4812926
-0.14 0.085142858 0.60000002 4944512
-0.13885714 0.085142858 0.60000002 5928563
-0.1377143 0.085142858 0.60000002 5994356
-0.13657144 0.085142858 0.60000002 6652023
-0.13542858 0.085142858 0.60000002 7178367
-0.13428572 0.085142858 0.60000002 7440769
-0.13292095 0.085000955 0.59900004 7638148
-0.13178 0.085000955 0.59900004 7768187
-0.13063905 0.085000955 0.59900004 5860190
-0.12949809 0.085000955 0.59900004 5267549
-0.12835716 0.085000955 0.59900004 4214861
-0.12721621 0.085000955 0.59900004 4084799
-0.12607525 0.085000955 0.59900004 4084799
-0.1249343 0.085000955 0.59900004 3691042
-0.12379333 0.085000955 0.59900004 3493663
-0.12265238 0.085000955 0.59900004 3032881
-0.12151143 0.085000955 0.59900004 3427639
-0.12016953 0.084859051 0.59800005 5133870
-0.11903048 0.084859051 0.59800005 5726007
-0.11789144 0.084859051 0.59800005 6579006
-0.11675239 0.084859051 0.59800005 5921076
-0.11561334 0.084859051 0.59800005 6247981
-0.1144743 0.084859051 0.59800005 6642739
-0.11314572 0.084717147 0.597 7300695
-0.11200857 0.084717147 0.597 7103316
