# .PCD v0.7 - Point Cloud Data file format
VERSION 0.7
FIELDS x y z rgba
SIZE 4 4 4 4
TYPE F F F U
COUNT 1 1 1 1
WIDTH 1134
HEIGHT 1
VIEWPOINT 0 0 0 1 0 0 0
POINTS 1134
DATA ascii
-0.073214285 0.23154762 0.625 3819878
-0.071908571 0.23117715 0.62400001 3951464
-0.070720002 0.23117715 0.62400001 5066865
-0.069531433 0.23117715 0.62400001 5066865
-0.068342857 0.23117715 0.62400001 4871280
-0.067261904 0.23154762 0.625 5068659
-0.066071428 0.23154762 0.625 5462125
-0.064880952 0.23154762 0.625 5462125
-0.063894287 0.23228858 0.62700003 5265777
-0.062700003 0.23228858 0.62700003 5331570
-0.061505716 0.23228858 0.62700003 5725047
-0.06040762 0.23265906 0.62800002 5725047
-0.059211429 0.23265906 0.62800002 5725045
-0.058107618 0.23302951 0.62900001 5790838
-0.056909524 0.23302951 0.62900001 5856631
-0.05571143 0.23302951 0.62900001 5790838
-0.054513335 0.23302951 0.62900001 5856876
-0.053400002 0.23340002 0.63000005 5067360
-0.052282859 0.23377049 0.63100004 5131870
-0.051080953 0.23377049 0.63100004 5395042
-0.049879052 0.23377049 0.63100004 5460839
-0.048754286 0.23414096 0.63200003 5526632
-0.047700949 0.23488191 0.634 5395819
-0.046566669 0.2352524 0.63500005 5395819
-0.045428574 0.23562287 0.63600004 5264487
-0.044286668 0.23599334 0.63700002 5461866
-0.043276191 0.23710477 0.64000005 5332072
-0.04212286 0.23747525 0.64100003 5397865
-0.040901907 0.23747525 0.64100003 5594992
-0.039804764 0.23821619 0.64300001 4937062
-0.038760003 0.23932762 0.64600003 2901599
-0.037529524 0.23932762 0.64600003 927809
-0.03629905 0.23932762 0.64600003 1585497
-0.096460007 0.23720668 0.63700002 5002065
-0.095246665 0.23720668 0.63700002 3357240
-0.09388572 0.23683429 0.63600004 2438744
-0.092674293 0.23683429 0.63600004 1912400
-0.091462858 0.23683429 0.63600004 993887
-0.090109527 0.23646192 0.63500005 928094
-0.088759996 0.23608951 0.634 732523
-0.087552384 0.23608951 0.634 1587832
-0.085936196 0.2349724 0.63100004 2178661
-0.084734291 0.2349724 0.63100004 2244454
-0.083267614 0.23422763 0.62900001 1784943
-0.082069524 0.23422763 0.62900001 1127013
-0.080742866 0.23385523 0.62800002 1981284
-0.079420008 0.23348287 0.62700003 4020867
-0.078225717 0.23348287 0.62700003 5069150
-0.077031434 0.23348287 0.62700003 5069150
-0.075595237 0.23273809 0.625 5134441
-0.074404761 0.23273809 0.625 5068648
-0.073214285 0.23273809 0.625 5134443
-0.072023809 0.23273809 0.625 5266029
-0.070720002 0.23236573 0.62400001 5331570
-0.069531433 0.23236573 0.62400001 5528949
-0.068452381 0.23273809 0.625 5990002
-0.067261904 0.23273809 0.625 5990002
-0.066071428 0.23273809 0.625 5923957
-0.064880952 0.23273809 0.625 5923957
-0.063894287 0.23348287 0.62700003 5792121
-0.062700003 0.23348287 0.62700003 5792121
-0.061603814 0.23385523 0.62800002 6055543
-0.06040762 0.23385523 0.62800002 6121336
-0.059211429 0.23385523 0.62800002 5792891
-0.058107618 0.23422763 0.62900001 5727098
-0.057000004 0.23460001 0.63000005 6120053
-0.055800002 0.23460001 0.63000005 5791088
-0.054600004 0.23460001 0.63000005 5987683
-0.053400002 0.23460001 0.63000005 5132374
-0.052282859 0.2349724 0.63100004 5131620
-0.051080953 0.2349724 0.63100004 5263206
-0.049879052 0.2349724 0.63100004 5263206
-0.048754286 0.23534477 0.63200003 5394792
-0.047700949 0.23608951 0.634 5395569
-0.046566669 0.23646192 0.63500005 5921913
-0.045500003 0.23720668 0.63700002 5725547
-0.04435619 0.23757905 0.63800001 5659754
-0.043276191 0.23832382 0.64000005 5332072
-0.04212286 0.2386962 0.64100003 5266279
-0.040965714 0.23906857 0.64200002 5332322
-0.039804764 0.23944096 0.64300001 5134943
-0.038760003 0.2405581 0.64600003 3360608
-0.037529524 0.2405581 0.64600003 1255232
-0.03629905 0.2405581 0.64600003 1716322
-0.096308582 0.23804572 0.63600004 4871249
-0.095097147 0.23804572 0.63600004 3292217
-0.09388572 0.23804572 0.63600004 2372955
-0.092674293 0.23804572 0.63600004 1715025
-0.091462858 0.23804572 0.63600004 993887
-0.090109527 0.23767145 0.63500005 928094
-0.088900007 0.23767145 0.63500005 796776
-0.087552384 0.23729715 0.634 1783671
-0.086072385 0.23654857 0.63200003 1851238
-0.084734291 0.2361743 0.63100004 1851238
-0.083267614 0.23542571 0.62900001 1719400
-0.082069524 0.23542571 0.62900001 1390435
-0.080742866 0.23505142 0.62800002 2375261
-0.079546668 0.23505142 0.62800002 4217465
-0.078225717 0.23467715 0.62700003 5264996
-0.077031434 0.23467715 0.62700003 5199203
-0.075595237 0.23392858 0.625 5264744
-0.074404761 0.23392858 0.625 5527916
-0.073214285 0.23392858 0.625 5331820
-0.072023809 0.23392858 0.625 5397613
-0.070720002 0.23355429 0.62400001 5332592
-0.069531433 0.23355429 0.62400001 5793143
-0.068452381 0.23392858 0.625 5924993
-0.067261904 0.23392858 0.625 5859200
-0.066071428 0.23392858 0.625 5793911
-0.06508857 0.23467715 0.62700003 5793911
-0.063894287 0.23467715 0.62700003 5596282
-0.062700003 0.23467715 0.62700003 5662075
-0.061603814 0.23505142 0.62800002 5924477
-0.06040762 0.23505142 0.62800002 5924477
-0.059305713 0.23542571 0.62900001 5858684
-0.058107618 0.23542571 0.62900001 5924477
-0.056909524 0.23542571 0.62900001 5792373
-0.055800002 0.23580003 0.63000005 5266029
-0.054600004 0.23580003 0.63000005 5724011
-0.053484764 0.2361743 0.63100004 5131874
-0.052282859 0.2361743 0.63100004 5066077
-0.051161904 0.23654857 0.63200003 5263456
-0.049958095 0.23654857 0.63200003 5329253
-0.048754286 0.23654857 0.63200003 5395046
-0.047776196 0.23767145 0.63500005 5396080
-0.046640005 0.23804572 0.63600004 5790838
-0.045500003 0.23841999 0.63700002 5529451
-0.04435619 0.2387943 0.63800001 5332072
-0.043276191 0.23954287 0.64000005 5266027
-0.04212286 0.23991714 0.64100003 5331820
-0.040965714 0.24029145 0.64200002 5265777
-0.039804764 0.24066572 0.64300001 5002605
-0.038760003 0.24178858 0.64600003 3949915
-0.037529524 0.24178858 0.64600003 1910332
-0.036355238 0.24216287 0.64700001 1649748
-0.035122856 0.24216287 0.64700001 3820917
-0.095097147 0.23925716 0.63600004 3028788
-0.09388572 0.23925716 0.63600004 2306908
-0.092674293 0.23925716 0.63600004 1583185
-0.091462858 0.23925716 0.63600004 1189983
-0.090109527 0.23888096 0.63500005 1189983
-0.088900007 0.23888096 0.63500005 928614
-0.087552384 0.23850477 0.634 1849716
-0.086344764 0.23850477 0.634 2375011
-0.084734291 0.2373762 0.63100004 2243425
-0.083267614 0.23662381 0.62900001 2769512
-0.082069524 0.23662381 0.62900001 3559028
-0.080742866 0.23624763 0.62800002 4149084
-0.079546668 0.23624763 0.62800002 4609635
-0.078225717 0.23587143 0.62700003 5199196
-0.077031434 0.23587143 0.62700003 5264989
-0.07583715 0.23587143 0.62700003 5462625
-0.074404761 0.23511904 0.625 5725797
-0.073214285 0.23511904 0.625 5857133
-0.072023809 0.23511904 0.625 5922926
-0.070833333 0.23511904 0.625 5858164
-0.069642857 0.23511904 0.625 6121336
-0.068452381 0.23511904 0.625 6252682
-0.067261904 0.23511904 0.625 6186889
-0.066282853 0.23587143 0.62700003 5990522
-0.06508857 0.23587143 0.62700003 5924729
-0.063894287 0.23587143 0.62700003 5793659
-0.062700003 0.23587143 0.62700003 5859452
-0.061603814 0.23624763 0.62800002 6056065
-0.06040762 0.23624763 0.62800002 6056065
-0.059305713 0.23662381 0.62900001 5990522
-0.058107618 0.23662381 0.62900001 5858936
-0.056909524 0.23662381 0.62900001 5988467
-0.055800002 0.23700002 0.63000005 5264744
-0.054600004 0.23700002 0.63000005 5132651
-0.053484764 0.2373762 0.63100004 4935272
-0.052282859 0.2373762 0.63100004 5000288
-0.051161904 0.23775239 0.63200003 5460839
-0.049958095 0.23775239 0.63200003 5593452
-0.048908573 0.23850477 0.634 5659245
-0.047776196 0.23888096 0.63500005 5725045
-0.046640005 0.23925716 0.63600004 5856631
-0.045500003 0.23963334 0.63700002 5791340
-0.04435619 0.24000953 0.63800001 5528168
-0.043276191 0.24076192 0.64000005 5462123
-0.04212286 0.2411381 0.64100003 5659502
-0.040965714 0.2415143 0.64200002 5922426
-0.039804764 0.24189048 0.64300001 5396082
-0.038640004 0.24226668 0.64400005 3623512
-0.037529524 0.24301906 0.64600003 1583929
-0.03629905 0.24301906 0.64600003 1322075
-0.035068572 0.24301906 0.64600003 3098486
-0.095097147 0.24046859 0.63600004 3226167
-0.09388572 0.24046859 0.63600004 2438748
-0.092674293 0.24046859 0.63600004 1583439
-0.091462858 0.24046859 0.63600004 1189983
-0.090251438 0.24046859 0.63600004 1189983
-0.088900007 0.24009049 0.63500005 1125223
-0.08769048 0.24009049 0.63500005 1783153
-0.086344764 0.23971237 0.634 2177634
-0.08486858 0.2389562 0.63200003 2769771
-0.083267614 0.23782191 0.62900001 3359327
-0.082069524 0.23782191 0.62900001 4346222
-0.080742866 0.23744382 0.62800002 5001817
-0.079546668 0.23744382 0.62800002 5067610
-0.078225717 0.23706572 0.62700003 5263456
-0.077031434 0.23706572 0.62700003 5460835
-0.07583715 0.23706572 0.62700003 5461866
-0.074404761 0.23630953 0.625 5790831
-0.073214285 0.23630953 0.625 5660785
-0.072023809 0.23630953 0.625 5792371
-0.070833333 0.23630953 0.625 5727350
-0.069642857 0.23630953 0.625 5793143
-0.068452381 0.23630953 0.625 6186881
-0.067261904 0.23630953 0.625 6252674
-0.066282853 0.23706572 0.62700003 6056315
-0.06508857 0.23706572 0.62700003 5924729
-0.063996188 0.23744382 0.62800002 6056315
-0.062800005 0.23744382 0.62800002 5990522
-0.061603814 0.23744382 0.62800002 6056061
-0.060503807 0.23782191 0.62900001 6056061
-0.059305713 0.23782191 0.62900001 6252924
-0.058200005 0.23820001 0.63000005 5989752
-0.057000004 0.23820001 0.63000005 6054512
-0.055800002 0.23820001 0.63000005 5133410
-0.054600004 0.23820001 0.63000005 5132647
-0.053484764 0.23857811 0.63100004 4935268
-0.052282859 0.23857811 0.63100004 4935522
-0.051161904 0.2389562 0.63200003 5527659
-0.049958095 0.2389562 0.63200003 5725297
-0.048908573 0.23971237 0.634 5791090
-0.047851432 0.24046859 0.63600004 5726578
-0.046713337 0.24084668 0.63700002 5397613
-0.045500003 0.24084668 0.63700002 5593709
-0.04435619 0.24122477 0.63800001 5462123
-0.043276191 0.24198097 0.64000005 5396325
-0.04212286 0.24235906 0.64100003 5791083
-0.040965714 0.24273714 0.64200002 6381941
-0.039804764 0.24311523 0.64300001 5592425
-0.038640004 0.24349335 0.64400005 3886425
-0.037529524 0.24424952 0.64600003 1846842
-0.03629905 0.24424952 0.64600003 993369
-0.035068572 0.24424952 0.64600003 2440815
-0.096611425 0.24244002 0.63800001 5002578
-0.095246665 0.24206001 0.63700002 3291960
-0.094033331 0.24206001 0.63700002 2372955
-0.092820004 0.24206001 0.63700002 1583439
-0.091462858 0.24168001 0.63600004 1124190
-0.090251438 0.24168001 0.63600004 1124190
-0.089040004 0.24168001 0.63600004 927846
-0.08769048 0.24130002 0.63500005 1322604
-0.08648096 0.24130002 0.63500005 2439264
-0.085137136 0.24092001 0.634 3360366
-0.083400004 0.23940003 0.63000005 4213337
-0.082200006 0.23940003 0.63000005 4542302
-0.080871426 0.23902 0.62900001 4870231
-0.079546668 0.23864001 0.62800002 4936024
-0.078350477 0.23864001 0.62800002 5263456
-0.077031434 0.23826002 0.62700003 5395042
-0.07583715 0.23826002 0.62700003 5396575
-0.074642867 0.23826002 0.62700003 5462368
-0.073448576 0.23826002 0.62700003 5396330
-0.072023809 0.2375 0.625 5396330
-0.070833333 0.2375 0.625 5462125
-0.069642857 0.2375 0.625 5462125
-0.068452381 0.2375 0.625 5659252
-0.067477144 0.23826002 0.62700003 5659252
-0.066282853 0.23826002 0.62700003 5594742
-0.065192387 0.23864001 0.62800002 5792121
-0.063996188 0.23864001 0.62800002 6121588
-0.062800005 0.23864001 0.62800002 6253174
-0.061701905 0.23902 0.62900001 6056313
-0.060503807 0.23902 0.62900001 6056313
-0.059305713 0.23902 0.62900001 6121336
-0.058200005 0.23940003 0.63000005 5923957
-0.057000004 0.23940003 0.63000005 5923176
-0.055800002 0.23940003 0.63000005 4936281
-0.054600004 0.23940003 0.63000005 5067117
-0.053484764 0.23978001 0.63100004 5461875
-0.052282859 0.23978001 0.63100004 5527916
-0.051161904 0.24016002 0.63200003 5791088
-0.049958095 0.24016002 0.63200003 5792623
-0.048908573 0.24092001 0.634 5792623
-0.047851432 0.24168001 0.63600004 5857133
-0.046713337 0.24206001 0.63700002 5593961
-0.045571432 0.24244002 0.63800001 5462118
-0.04435619 0.24244002 0.63800001 5330532
-0.043276191 0.24320002 0.64000005 5396575
-0.04212286 0.24358001 0.64100003 5528161
-0.040965714 0.24396002 0.64200002 5658970
-0.039804764 0.24434 0.64300001 4935247
-0.038760003 0.24548 0.64600003 4148050
-0.037529524 0.24548 0.64600003 2108467
-0.036355238 0.24586001 0.64700001 1255526
-0.035122856 0.24586001 0.64700001 2308214
-0.096611425 0.24365523 0.63800001 5068369
-0.095396191 0.24365523 0.63800001 3686716
-0.094033331 0.24327335 0.63700002 2372955
-0.092820004 0.24327335 0.63700002 1583439
-0.091462858 0.24289143 0.63600004 1124444
-0.090251438 0.24289143 0.63600004 1058651
-0.089040004 0.24289143 0.63600004 1452896
-0.087828577 0.24289143 0.63600004 1584482
-0.08648096 0.24250954 0.63500005 2044769
-0.085137136 0.24212763 0.634 3294836
-0.083400004 0.24060002 0.63000005 3952218
-0.082200006 0.24060002 0.63000005 4346976
-0.080871426 0.2402181 0.62900001 4936024
-0.079673328 0.2402181 0.62900001 4936024
-0.078350477 0.23983619 0.62800002 5263456
-0.077154286 0.23983619 0.62800002 5329249
-0.075958095 0.23983619 0.62800002 5198946
-0.074642867 0.2394543 0.62700003 5264739
-0.073448576 0.2394543 0.62700003 5526628
-0.072254293 0.2394543 0.62700003 5460835
-0.071060002 0.2394543 0.62700003 5395819
-0.069865711 0.2394543 0.62700003 5395819
-0.068671428 0.2394543 0.62700003 5593202
-0.067477144 0.2394543 0.62700003 5593202
-0.066282853 0.2394543 0.62700003 5593711
-0.065192387 0.23983619 0.62800002 5725297
-0.063996188 0.23983619 0.62800002 5660787
-0.062800005 0.23983619 0.62800002 5989752
-0.061701905 0.2402181 0.62900001 5859450
-0.060503807 0.2402181 0.62900001 5793657
-0.059400007 0.24060002 0.63000005 5990522
-0.058200005 0.24060002 0.63000005 5793143
-0.057000004 0.24060002 0.63000005 5791340
-0.055800002 0.24060002 0.63000005 5133410
-0.054600004 0.24060002 0.63000005 5132397
-0.053484764 0.24098192 0.63100004 5658741
-0.052282859 0.24098192 0.63100004 5397363
-0.051080953 0.24098192 0.63100004 5594742
-0.049958095 0.24136381 0.63200003 5726580
-0.048908573 0.24212763 0.634 5594994
-0.047851432 0.24289143 0.63600004 5791340
-0.046713337 0.24327335 0.63700002 5199203
-0.045571432 0.24365523 0.63800001 5329249
-0.04435619 0.24365523 0.63800001 5460835
-0.043276191 0.24441905 0.64000005 5330532
-0.04212286 0.24480097 0.64100003 5330532
-0.040965714 0.24518287 0.64200002 5133660
-0.039866671 0.24594668 0.64400005 4738902
-0.038760003 0.24671049 0.64600003 3555159
-0.037529524 0.24671049 0.64600003 1910334
-0.036355238 0.24709237 0.64700001 1057622
-0.035122856 0.24709237 0.64700001 2176103
-0.095396191 0.24487048 0.63800001 3949890
-0.094033331 0.24448666 0.63700002 2569823
-0.092820004 0.24448666 0.63700002 1648721
-0.091606669 0.24448666 0.63700002 928094
-0.090251438 0.24410287 0.63600004 1059680
-0.089040004 0.24410287 0.63600004 1453661
-0.087828577 0.24410287 0.63600004 1519454
-0.08648096 0.24371906 0.63500005 1847904
-0.085271433 0.24371906 0.63500005 3295350
-0.083532386 0.24218382 0.63100004 4344916
-0.082200006 0.24180001 0.63000005 4608088
-0.081000008 0.24180001 0.63000005 5001817
-0.079673328 0.24141619 0.62900001 5001817
-0.078350477 0.24103239 0.62800002 5001315
-0.077154286 0.24103239 0.62800002 5132901
-0.075958095 0.24103239 0.62800002 5132901
-0.074642867 0.24064858 0.62700003 5132901
-0.073448576 0.24064858 0.62700003 5067360
-0.072254293 0.24064858 0.62700003 5198946
-0.071060002 0.24064858 0.62700003 5198444
-0.069865711 0.24064858 0.62700003 5330030
-0.068671428 0.24064858 0.62700003 5461616
-0.067477144 0.24064858 0.62700003 5461616
-0.06638857 0.24103239 0.62800002 5330539
-0.065192387 0.24103239 0.62800002 5330539
-0.063996188 0.24103239 0.62800002 5265779
-0.062899999 0.24141619 0.62900001 5331572
-0.061701905 0.24141619 0.62900001 5331570
-0.060600005 0.24180001 0.63000005 5463156
-0.059400007 0.24180001 0.63000005 5528949
-0.058200005 0.24180001 0.63000005 5528949
-0.057000004 0.24180001 0.63000005 5659754
-0.055800002 0.24180001 0.63000005 5330789
-0.054686669 0.24218382 0.63100004 5395830
-0.053484764 0.24218382 0.63100004 6185346
-0.052282859 0.24218382 0.63100004 6055291
-0.051080953 0.24218382 0.63100004 5989498
-0.049958095 0.24256763 0.63200003 6120053
-0.048908573 0.24333523 0.634 5856881
-0.047851432 0.24410287 0.63600004 5791331
-0.046713337 0.24448666 0.63700002 5199194
-0.045571432 0.24487048 0.63800001 5329253
-0.04435619 0.24487048 0.63800001 5329253
-0.043276191 0.2456381 0.64000005 5133403
-0.04212286 0.2460219 0.64100003 5067610
-0.040965714 0.24640572 0.64200002 5001815
-0.039866671 0.24717334 0.64400005 4804436
-0.038760003 0.24794096 0.64600003 3884122
-0.037587617 0.24832475 0.64700001 1712953
-0.036355238 0.24832475 0.64700001 861529
-0.035122856 0.24832475 0.64700001 2111596
-0.095844768 0.24724287 0.64100003 3884097
-0.094180949 0.24608572 0.63800001 2767452
-0.092965715 0.24608572 0.63800001 1517385
-0.091606669 0.24570002 0.63700002 862812
-0.090393335 0.24570002 0.63700002 928605
-0.089040004 0.2453143 0.63600004 1387866
-0.087828577 0.2453143 0.63600004 1387866
-0.08648096 0.24492858 0.63500005 1912413
-0.085271433 0.24492858 0.63500005 3491445
-0.083532386 0.24338573 0.63100004 4083541
-0.08233048 0.24338573 0.63100004 4478299
-0.081000008 0.24300002 0.63000005 4804958
-0.079673328 0.2426143 0.62900001 5068130
-0.078475237 0.2426143 0.62900001 5067867
-0.077154286 0.24222858 0.62800002 5133660
-0.075958095 0.24222858 0.62800002 5199203
-0.074761905 0.24222858 0.62800002 5067617
-0.073448576 0.24184287 0.62700003 4805208
-0.072254293 0.24184287 0.62700003 5068380
-0.071060002 0.24184287 0.62700003 5264487
-0.069865711 0.24184287 0.62700003 5396073
-0.068671428 0.24184287 0.62700003 5395819
-0.067477144 0.24184287 0.62700003 5527405
-0.06638857 0.24222858 0.62800002 5461612
-0.065192387 0.24222858 0.62800002 5461612
-0.063996188 0.24222858 0.62800002 5461873
-0.062899999 0.2426143 0.62900001 5330287
-0.061701905 0.2426143 0.62900001 5330280
-0.060600005 0.24300002 0.63000005 5461866
-0.059400007 0.24300002 0.63000005 5658991
-0.058200005 0.24300002 0.63000005 5658991
-0.057000004 0.24300002 0.63000005 5527916
-0.055888575 0.24338573 0.63100004 5527916
-0.054686669 0.24338573 0.63100004 5397615
-0.053484764 0.24338573 0.63100004 5858166
-0.052282859 0.24338573 0.63100004 5793143
-0.051161904 0.24377143 0.63200003 5727350
-0.050116193 0.24454284 0.634 5726578
-0.04898572 0.24492858 0.63500005 5529199
-0.047851432 0.2453143 0.63600004 5462375
-0.046713337 0.24570002 0.63700002 4936031
-0.045571432 0.24608572 0.63800001 5197667
-0.04435619 0.24608572 0.63800001 5197667
-0.043276191 0.24685715 0.64000005 5001817
-0.04212286 0.24724287 0.64100003 4936024
-0.040965714 0.24762858 0.64200002 4673118
-0.039866671 0.2484 0.64400005 4936290
-0.038760003 0.24917144 0.64600003 3820378
-0.037587617 0.24955714 0.64700001 1583416
-0.036355238 0.24955714 0.64700001 598359
-0.03523143 0.2503286 0.64900005 1453668
-0.033995241 0.2503286 0.64900005 3622497
-0.095695242 0.2480762 0.64000005 3752511
-0.094476193 0.2480762 0.64000005 3094107
-0.092965715 0.24730097 0.63800001 1844040
-0.091606669 0.24691333 0.63700002 993115
-0.090393335 0.24691333 0.63700002 1124701
-0.089040004 0.24652573 0.63600004 1583959
-0.087828577 0.24652573 0.63600004 1715545
-0.08648096 0.2461381 0.63500005 2567261
-0.085271433 0.2461381 0.63500005 3751535
-0.083664767 0.24497524 0.63200003 4673615
-0.08233048 0.24458763 0.63100004 4936787
-0.081000008 0.24420004 0.63000005 5001817
-0.07980001 0.24420004 0.63000005 5199196
-0.078475237 0.24381237 0.62900001 5264989
-0.077277139 0.24381237 0.62900001 5330782
-0.076079048 0.24381237 0.62900001 5330789
-0.074761905 0.24342477 0.62800002 5462375
-0.073565714 0.24342477 0.62800002 5462625
-0.072369523 0.24342477 0.62800002 5462625
-0.071060002 0.24303715 0.62700003 5725547
-0.069865711 0.24303715 0.62700003 5988719
-0.068780951 0.24342477 0.62800002 6054260
-0.067584768 0.24342477 0.62800002 6120053
-0.06638857 0.24342477 0.62800002 5792373
-0.065192387 0.24342477 0.62800002 5397615
-0.063996188 0.24342477 0.62800002 5331570
-0.062899999 0.24381237 0.62900001 4805226
-0.061800007 0.24420004 0.63000005 5001824
-0.060600005 0.24420004 0.63000005 5330789
-0.059400007 0.24420004 0.63000005 5527405
-0.058200005 0.24420004 0.63000005 5658991
-0.057000004 0.24420004 0.63000005 5725297
-0.055888575 0.24458763 0.63100004 5725297
-0.054686669 0.24458763 0.63100004 5529201
-0.053484764 0.24458763 0.63100004 5594994
-0.052282859 0.24458763 0.63100004 5594992
-0.051161904 0.24497524 0.63200003 5594992
-0.050116193 0.24575047 0.634 5791340
-0.04898572 0.2461381 0.63500005 5396582
-0.047851432 0.24652573 0.63600004 5462368
-0.046713337 0.24691333 0.63700002 4804438
-0.045571432 0.24730097 0.63800001 5066081
-0.04435619 0.24730097 0.63800001 5131874
-0.043276191 0.2480762 0.64000005 4804188
-0.04212286 0.24846382 0.64100003 4804188
-0.041029524 0.24923903 0.64300001 4804438
-0.039990477 0.25040191 0.64600003 4870231
-0.038820002 0.25078952 0.64700001 4475732
-0.037645712 0.25117713 0.648 2370356
-0.036411427 0.25117713 0.648 1189733
-0.03523143 0.25156477 0.64900005 1518698
-0.033995241 0.25156477 0.64900005 3425123
-0.095396191 0.2485162 0.63800001 3620923
-0.094180949 0.2485162 0.63800001 3159898
-0.092965715 0.2485162 0.63800001 2107210
-0.09175048 0.2485162 0.63800001 1451869
-0.090393335 0.24812669 0.63700002 1451869
-0.08918 0.24812669 0.63700002 2239059
-0.087828577 0.24773717 0.63600004 2239059
-0.086617149 0.24773717 0.63600004 2632532
-0.085271433 0.24734764 0.63500005 3816806
-0.083664767 0.24617904 0.63200003 4082257
-0.08233048 0.24578953 0.63100004 4674394
-0.081128575 0.24578953 0.63100004 4936024
-0.07980001 0.24540001 0.63000005 5199196
-0.078600004 0.24540001 0.63000005 5199453
-0.077400006 0.24540001 0.63000005 5199453
-0.076079048 0.2450105 0.62900001 5199203
-0.074761905 0.24462096 0.62800002 5396582
-0.073565714 0.24462096 0.62800002 5462625
-0.072369523 0.24462096 0.62800002 5462625
-0.071173333 0.24462096 0.62800002 5594992
-0.069977149 0.24462096 0.62800002 5923957
-0.068780951 0.24462096 0.62800002 5793143
-0.067584768 0.24462096 0.62800002 5924729
-0.066494286 0.2450105 0.62900001 5859202
-0.065296195 0.2450105 0.62900001 5661823
-0.064098097 0.2450105 0.62900001 5463926
-0.063000008 0.24540001 0.63000005 4805996
-0.061800007 0.24540001 0.63000005 5067360
-0.060600005 0.24540001 0.63000005 5462118
-0.059400007 0.24540001 0.63000005 5527659
-0.058200005 0.24540001 0.63000005 5659245
-0.05709048 0.24578953 0.63100004 5791090
-0.055888575 0.24578953 0.63100004 5725297
-0.054686669 0.24578953 0.63100004 5922676
-0.053484764 0.24578953 0.63100004 5659504
-0.052365717 0.24617904 0.63200003 5528168
-0.051323809 0.24695809 0.634 5725547
-0.050116193 0.24695809 0.634 5856881
-0.049062859 0.24773717 0.63600004 5462123
-0.047851432 0.24773717 0.63600004 5330280
-0.046713337 0.24812669 0.63700002 4803936
-0.045500003 0.24812669 0.63700002 5000284
-0.04435619 0.2485162 0.63800001 5066077
-0.043276191 0.24929525 0.64000005 4803934
-0.04212286 0.24968477 0.64100003 4738141
-0.041029524 0.25046381 0.64300001 4804188
-0.039990477 0.25163239 0.64600003 5067360
-0.038820002 0.25202191 0.64700001 4804438
-0.037645712 0.25241143 0.648 2699062
-0.036411427 0.25241143 0.648 1584734
-0.03523143 0.25280097 0.64900005 1321562
-0.033995241 0.25280097 0.64900005 3030365
-0.094476193 0.2505143 0.64000005 2830683
-0.093257144 0.2505143 0.64000005 2238546
-0.09175048 0.24973144 0.63800001 1452121
-0.090393335 0.24934 0.63700002 1452121
-0.08918 0.24934 0.63700002 2435155
-0.087828577 0.24894859 0.63600004 2632534
-0.086617149 0.24894859 0.63600004 3156558
-0.085271433 0.24855715 0.63500005 3353937
-0.083664767 0.24738286 0.63200003 4144457
-0.08233048 0.24699143 0.63100004 4736594
-0.081128575 0.24699143 0.63100004 5066063
-0.07980001 0.24660002 0.63000005 5131856
-0.078600004 0.24660002 0.63000005 5066583
-0.077400006 0.24660002 0.63000005 5000790
-0.076200008 0.24660002 0.63000005 4869981
-0.07488095 0.24620858 0.62900001 5001567
-0.073565714 0.24581714 0.62800002 5001567
-0.072369523 0.24581714 0.62800002 5198946
-0.071173333 0.24581714 0.62800002 5002353
-0.069977149 0.24581714 0.62800002 5726076
-0.068780951 0.24581714 0.62800002 5727348
-0.067692384 0.24620858 0.62900001 5858934
-0.066494286 0.24620858 0.62900001 5990534
-0.065296195 0.24620858 0.62900001 5858948
-0.064098097 0.24620858 0.62900001 5728118
-0.063000008 0.24660002 0.63000005 5596532
-0.061800007 0.24660002 0.63000005 5792371
-0.060600005 0.24660002 0.63000005 5792371
-0.059400007 0.24660002 0.63000005 6054260
-0.058292385 0.24699143 0.63100004 6185846
-0.05709048 0.24699143 0.63100004 5988719
-0.055888575 0.24699143 0.63100004 5791340
-0.054773334 0.24738286 0.63200003 5397363
-0.053569525 0.24738286 0.63200003 5134191
-0.052365717 0.24738286 0.63200003 5199453
-0.051323809 0.24816571 0.634 5396832
-0.050195243 0.24855715 0.63500005 5528168
-0.049062859 0.24894859 0.63600004 5067617
-0.047851432 0.24894859 0.63600004 5066854
-0.046713337 0.24934 0.63700002 4737889
-0.045500003 0.24934 0.63700002 4672336
-0.04435619 0.24973144 0.63800001 4869715
-0.043276191 0.2505143 0.64000005 4672861
-0.04218857 0.25129715 0.64200002 4541275
-0.041029524 0.25168857 0.64300001 4607840
-0.039990477 0.25286287 0.64600003 5199977
-0.038820002 0.25325426 0.64700001 4673363
-0.037703812 0.25403714 0.64900005 2633780
-0.036467623 0.25403714 0.64900005 1584482
-0.03523143 0.25403714 0.64900005 1255517
-0.033995241 0.25403714 0.64900005 2308441
-0.098277152 0.25527334 0.64900005 5002830
-0.097040959 0.25527334 0.64900005 3358005
-0.094623812 0.25212666 0.64100003 2567513
-0.093402863 0.25212666 0.64100003 2106962
-0.092038102 0.25173333 0.64000005 2172762
-0.090393335 0.25055334 0.63700002 2172762
-0.08918 0.25055334 0.63700002 2697039
-0.087828577 0.25016004 0.63600004 2828625
-0.086617149 0.25016004 0.63600004 3418960
-0.085271433 0.24976669 0.63500005 3616339
-0.083929524 0.24937335 0.634 3485757
-0.082460955 0.24858668 0.63200003 4406859
-0.081128575 0.24819335 0.63100004 4407109
-0.07992667 0.24819335 0.63100004 4736074
-0.078724764 0.24819335 0.63100004 4868180
-0.077400006 0.24780002 0.63000005 5065559
-0.076200008 0.24780002 0.63000005 5000790
-0.07488095 0.24740668 0.62900001 5132376
-0.073565714 0.24701335 0.62800002 5264212
-0.072369523 0.24701335 0.62800002 5330005
-0.071173333 0.24701335 0.62800002 5132908
-0.069977149 0.24701335 0.62800002 5988217
-0.068890475 0.24740668 0.62900001 5662071
-0.067692384 0.24740668 0.62900001 5793657
-0.066494286 0.24740668 0.62900001 5793409
-0.065296195 0.24740668 0.62900001 5727616
-0.064200006 0.24780002 0.63000005 5662582
-0.063000008 0.24780002 0.63000005 5728375
-0.061800007 0.24780002 0.63000005 5858934
-0.060600005 0.24780002 0.63000005 5858934
-0.059494291 0.24819335 0.63100004 5924209
-0.058292385 0.24819335 0.63100004 5924209
-0.05709048 0.24819335 0.63100004 5792373
-0.055977143 0.24858668 0.63200003 5594994
-0.054773334 0.24858668 0.63200003 5397615
-0.053569525 0.24858668 0.63200003 5068650
-0.052531429 0.24937335 0.634 4740194
-0.051404767 0.24976669 0.63500005 5200745
-0.050195243 0.24976669 0.63500005 5593961
-0.049062859 0.25016004 0.63600004 5199203
-0.047851432 0.25016004 0.63600004 5001315
-0.046713337 0.25055334 0.63700002 4803936
-0.045500003 0.25055334 0.63700002 4934997
-0.04435619 0.25094667 0.63800001 5000790
-0.043343812 0.25212666 0.64100003 4542045
-0.04218857 0.25251999 0.64200002 4344666
-0.041093335 0.25330669 0.64400005 4214877
-0.039990477 0.25409335 0.64600003 4807014
-0.038880002 0.25487998 0.648 4083541
-0.037703812 0.25527334 0.64900005 2307130
-0.036467623 0.25527334 0.64900005 1257563
-0.035285715 0.25566667 0.65000004 862805
-0.034047622 0.25566667 0.65000004 1978974
-0.099666677 0.25690475 0.65000004 5199194
-0.098277152 0.25650954 0.64900005 5068110
-0.097040959 0.25650954 0.64900005 3160113
-0.095804766 0.25650954 0.64900005 2764381
-0.093402863 0.25334764 0.64100003 2435416
-0.092038102 0.2529524 0.64000005 2238807
-0.090535238 0.25216192 0.63800001 2173014
-0.08918 0.25176668 0.63700002 2697290
-0.087966673 0.25176668 0.63700002 2697290
-0.086617149 0.25137141 0.63600004 3549758
-0.085271433 0.2509762 0.63500005 3549758
-0.083929524 0.25058097 0.634 3878205
-0.082460955 0.24979047 0.63200003 4470342
-0.081128575 0.24939525 0.63100004 4338749
-0.07992667 0.24939525 0.63100004 4338749
-0.078724764 0.24939525 0.63100004 4471112
-0.077400006 0.24900001 0.63000005 4734284
-0.076200008 0.24900001 0.63000005 4736074
-0.075000003 0.24900001 0.63000005 4736074
-0.07368286 0.24860476 0.62900001 4867910
-0.072484761 0.24860476 0.62900001 5657426
-0.071173333 0.24820952 0.62800002 5396082
-0.069977149 0.24820952 0.62800002 6251391
-0.068890475 0.24860476 0.62900001 5990520
-0.067692384 0.24860476 0.62900001 5924727
-0.06660001 0.24900001 0.63000005 5859450
-0.065400004 0.24900001 0.63000005 5727864
-0.064200006 0.24900001 0.63000005 5793911
-0.063000008 0.24900001 0.63000005 5859704
-0.061800007 0.24900001 0.63000005 5925243
-0.060696192 0.24939525 0.63100004 5859450
-0.059494291 0.24939525 0.63100004 6055795
-0.058292385 0.24939525 0.63100004 6055795
-0.057180952 0.24979047 0.63200003 5858166
-0.055977143 0.24979047 0.63200003 5726580
-0.054946665 0.25058097 0.634 5727350
-0.053739045 0.25058097 0.634 5858936
-0.052614287 0.2509762 0.63500005 5858416
-0.051404767 0.2509762 0.63500005 5726830
-0.050195243 0.2509762 0.63500005 5726830
-0.049062859 0.25137141 0.63600004 5397865
-0.047851432 0.25137141 0.63600004 5593954
-0.046713337 0.25176668 0.63700002 5330782
-0.045571432 0.25216192 0.63800001 4935781
-0.04435619 0.25216192 0.63800001 4869988
-0.043343812 0.25334764 0.64100003 4673120
-0.04218857 0.25374287 0.64200002 4607327
-0.041093335 0.25453335 0.64400005 4804958
-0.039990477 0.2553238 0.64600003 5068130
-0.038880002 0.2561143 0.648 4542547
-0.037703812 0.25650954 0.64900005 2634550
-0.036467623 0.25650954 0.64900005 1519704
-0.035285715 0.25690475 0.65000004 1453911
-0.034047622 0.25690475 0.65000004 2045798
-0.099666677 0.25814286 0.65000004 5264987
-0.098277152 0.25774574 0.64900005 5068110
-0.097040959 0.25774574 0.64900005 3028527
-0.095361911 0.25655431 0.64600003 2175070
-0.093548574 0.25496572 0.64200002 1714519
-0.092181914 0.25456861 0.64100003 2369110
-0.090819053 0.25417143 0.64000005 2369110
-0.089320004 0.25337714 0.63800001 2565704
-0.087966673 0.25297999 0.63700002 2565704
-0.086753339 0.25297999 0.63700002 3417672
-0.085405715 0.25258285 0.63600004 3549258
-0.083929524 0.25178856 0.634 3679561
-0.082721904 0.25178856 0.634 3811147
-0.08125715 0.25099429 0.63200003 4204853
-0.07992667 0.25059715 0.63100004 4204853
-0.078724764 0.25059715 0.63100004 4533312
-0.077522859 0.25059715 0.63100004 4664898
-0.076200008 0.2502 0.63000005 4468032
-0.075000003 0.2502 0.63000005 4665411
-0.07368286 0.24980286 0.62900001 4010811
-0.072484761 0.24980286 0.62900001 5326671
-0.071286663 0.24980286 0.62900001 5462118
-0.070088573 0.24980286 0.62900001 6251634
-0.069000006 0.2502 0.63000005 6056315
-0.0678 0.2502 0.63000005 5990522
-0.06660001 0.2502 0.63000005 5990522
-0.065400004 0.2502 0.63000005 5858936
-0.064200006 0.2502 0.63000005 5662584
-0.063100003 0.25059715 0.63100004 5728377
-0.061898097 0.25059715 0.63100004 5793659
-0.060696192 0.25059715 0.63100004 5793659
-0.059494291 0.25059715 0.63100004 6055543
-0.058384765 0.25099429 0.63200003 6252922
-0.057180952 0.25099429 0.63200003 6252924
-0.056154288 0.25178856 0.634 6055545
-0.054946665 0.25178856 0.634 5596278
-0.053823814 0.25218573 0.63500005 5793657
-0.052614287 0.25218573 0.63500005 5859450
-0.051404767 0.25218573 0.63500005 5727864
-0.050274286 0.25258285 0.63600004 5661555
-0.049062859 0.25258285 0.63600004 5332590
-0.047926668 0.25297999 0.63700002 5462125
-0.046713337 0.25297999 0.63700002 5198953
-0.045571432 0.25337714 0.63800001 5067367
-0.044495244 0.25417143 0.64000005 5001574
-0.043343812 0.25456861 0.64100003 4870499
-0.04218857 0.25496572 0.64200002 4870499
-0.041093335 0.25576004 0.64400005 5001824
-0.039990477 0.25655431 0.64600003 5199203
-0.038820002 0.25695145 0.64700001 4936281
-0.037703812 0.25774574 0.64900005 2896698
-0.036467623 0.25774574 0.64900005 1585497
-0.035285715 0.25814286 0.65000004 1453911
-0.034047622 0.25814286 0.65000004 2044517
-0.099666677 0.25938097 0.65000004 5395546
-0.098277152 0.25898194 0.64900005 5002065
-0.096891426 0.25858286 0.648 2830896
-0.095361911 0.25778478 0.64600003 1780827
-0.093548574 0.25618857 0.64200002 1451862
-0.092181914 0.25578952 0.64100003 1123667
-0.090819053 0.2553905 0.64000005 1255253
-0.089320004 0.25459236 0.63800001 2302279
-0.087966673 0.25419334 0.63700002 2631244
-0.086753339 0.25419334 0.63700002 3221581
-0.085405715 0.25379428 0.63600004 3353167
-0.084061913 0.25339526 0.63500005 3745102
-0.082721904 0.25299618 0.634 3679309
-0.081514291 0.25299618 0.634 3417141
-0.080053337 0.2521981 0.63200003 3746106
-0.078724764 0.25179905 0.63100004 3811401
-0.077522859 0.25179905 0.63100004 4206159
-0.076200008 0.25140002 0.63000005 4533316
-0.075000003 0.25140002 0.63000005 4664902
-0.073800005 0.25140002 0.63000005 4141395
-0.0726 0.25140002 0.63000005 5259876
-0.071400009 0.25140002 0.63000005 5264462
-0.070200004 0.25140002 0.63000005 6251357
-0.069000006 0.25140002 0.63000005 6055543
-0.0678 0.25140002 0.63000005 5989750
-0.06660001 0.25140002 0.63000005 5726578
-0.065400004 0.25140002 0.63000005 5331820
-0.064301908 0.25179905 0.63100004 5199984
-0.063100003 0.25179905 0.63100004 5134191
-0.061898097 0.25179905 0.63100004 5068398
-0.060696192 0.25179905 0.63100004 5068398
-0.059588574 0.2521981 0.63200003 5199483
-0.058384765 0.2521981 0.63200003 6054792
-0.057361905 0.25299618 0.634 5990522
-0.056154288 0.25299618 0.634 5858936
-0.055033337 0.25339526 0.63500005 5793143
-0.053823814 0.25339526 0.63500005 5858936
-0.052614287 0.25339526 0.63500005 6187131
-0.051404767 0.25339526 0.63500005 5923959
-0.050274286 0.25379428 0.63600004 5726830
-0.049062859 0.25379428 0.63600004 5266279
-0.047926668 0.25419334 0.63700002 5264494
-0.046786666 0.25459236 0.63800001 5132908
-0.045714289 0.2553905 0.64000005 5067115
-0.044564765 0.25578952 0.64100003 5067115
-0.04341143 0.25618857 0.64200002 5067365
-0.042254284 0.25658759 0.64300001 5067365
-0.041093335 0.25698668 0.64400005 5067617
-0.039990477 0.25778478 0.64600003 5133410
-0.038820002 0.25818384 0.64700001 4673874
-0.037703812 0.25898194 0.64900005 2831670
-0.036523812 0.25938097 0.65000004 2240865
-0.035285715 0.25938097 0.65000004 2043486
-0.034047622 0.25938097 0.65000004 2044267
-0.098277152 0.26021811 0.64900005 4871501
-0.096891426 0.25981715 0.648 2700332
-0.095361911 0.25901523 0.64600003 1978202
-0.093548574 0.25741145 0.64200002 1386065
-0.092325717 0.25741145 0.64200002 1647947
-0.090819053 0.25660956 0.64000005 1713740
-0.089600012 0.25660956 0.64000005 1845291
-0.088104762 0.25580761 0.63800001 2042670
-0.086753339 0.25540668 0.63700002 3157562
-0.085405715 0.25500572 0.63600004 3223355
-0.084061913 0.25460479 0.63500005 3747137
-0.082852393 0.25460479 0.63500005 3747137
-0.081514291 0.2542038 0.634 3746612
-0.080053337 0.25340194 0.63200003 3812405
-0.078724764 0.25300097 0.63100004 3877953
-0.077522859 0.25300097 0.63100004 4206918
-0.076320961 0.25300097 0.63100004 4206918
-0.075119056 0.25300097 0.63100004 4206918
-0.073800005 0.25260001 0.63000005 4337491
-0.0726 0.25260001 0.63000005 5390179
-0.071400009 0.25260001 0.63000005 5132374
-0.070200004 0.25260001 0.63000005 6250855
-0.069000006 0.25260001 0.63000005 5858936
-0.0678 0.25260001 0.63000005 5595764
-0.06660001 0.25260001 0.63000005 5791090
-0.065400004 0.25260001 0.63000005 5330539
-0.064301908 0.25300097 0.63100004 5264237
-0.063100003 0.25300097 0.63100004 5198444
-0.061898097 0.25300097 0.63100004 5329755
-0.060696192 0.25300097 0.63100004 5395548
-0.059588574 0.25340194 0.63200003 5133158
-0.058384765 0.25340194 0.63200003 6120053
-0.057361905 0.2542038 0.634 5858934
-0.056154288 0.2542038 0.634 5793141
-0.055033337 0.25460479 0.63500005 5661555
-0.053823814 0.25460479 0.63500005 5793141
-0.052614287 0.25460479 0.63500005 6121084
-0.051404767 0.25460479 0.63500005 5923705
-0.050274286 0.25500572 0.63600004 5594994
-0.049062859 0.25500572 0.63600004 5266029
-0.047926668 0.25540668 0.63700002 5002603
-0.046786666 0.25580761 0.63800001 5002603
-0.045714289 0.25660956 0.64000005 4871782
-0.044564765 0.25701049 0.64100003 4871782
-0.04341143 0.25741145 0.64200002 4937575
-0.042254284 0.25781238 0.64300001 4937575
-0.041093335 0.25821334 0.64400005 5199453
-0.039990477 0.25901523 0.64600003 4804695
-0.038760003 0.25901523 0.64600003 4081751
-0.037645712 0.25981715 0.648 3094856
-0.036636192 0.26142097 0.65200001 2569823
-0.035448574 0.26182193 0.65300006 2306651
-0.034309525 0.26262382 0.65500003 2240613
-0.033061903 0.26262382 0.65500003 3885438
-0.098277152 0.26145428 0.64900005 4805456
-0.096891426 0.26105142 0.648 2502701
-0.095361911 0.26024574 0.64600003 1453659
-0.093694285 0.25903717 0.64300001 993108
-0.092325717 0.2586343 0.64200002 1321800
-0.090960957 0.25823143 0.64100003 2111316
-0.089600012 0.25782859 0.64000005 2373404
-0.088104762 0.25702286 0.63800001 2176025
-0.086753339 0.25662002 0.63700002 2895923
-0.085405715 0.25621715 0.63600004 3093302
-0.084061913 0.25581428 0.63500005 3485757
-0.082852393 0.25581428 0.63500005 3617343
-0.081514291 0.25541145 0.634 3878723
-0.080053337 0.25460571 0.63200003 3747137
-0.078849532 0.25460571 0.63200003 3746635
-0.077522859 0.25420287 0.63100004 4075600
-0.076320961 0.25420287 0.63100004 4076102
-0.075119056 0.25420287 0.63100004 4076102
-0.073800005 0.2538 0.63000005 4141143
-0.0726 0.2538 0.63000005 4272729
-0.071400009 0.2538 0.63000005 4407129
-0.070200004 0.2538 0.63000005 5525610
-0.069000006 0.2538 0.63000005 5198951
-0.0678 0.2538 0.63000005 5067365
-0.06660001 0.2538 0.63000005 5133160
-0.065503813 0.25420287 0.63100004 4935781
-0.064301908 0.25420287 0.63100004 4803686
-0.063100003 0.25420287 0.63100004 4343135
-0.061898097 0.25420287 0.63100004 4212056
-0.060792383 0.25460571 0.63200003 5133158
-0.059588574 0.25460571 0.63200003 5461873
-0.058569524 0.25541145 0.634 6251389
-0.057361905 0.25541145 0.634 5990252
-0.056154288 0.25541145 0.634 5727080
-0.055033337 0.25581428 0.63500005 5660785
-0.053823814 0.25581428 0.63500005 5594992
-0.052614287 0.25581428 0.63500005 5397363
-0.051404767 0.25581428 0.63500005 5134191
-0.050274286 0.25621715 0.63600004 5002353
-0.049062859 0.25621715 0.63600004 4870767
-0.047926668 0.25662002 0.63700002 5002603
-0.046933334 0.25782859 0.64000005 5068396
-0.045785714 0.25823143 0.64100003 5264996
-0.044564765 0.25823143 0.64100003 5264996
-0.04341143 0.2586343 0.64200002 5330789
-0.042254284 0.25903717 0.64300001 5330789
-0.041093335 0.25944 0.64400005 5133914
-0.039990477 0.26024574 0.64600003 4475984
-0.038760003 0.26024574 0.64600003 4409437
-0.037645712 0.26105142 0.648 3290956
-0.036636192 0.26266286 0.65200001 3028316
-0.035502858 0.26346859 0.65400004 2765144
-0.034309525 0.26387143 0.65500003 2371940
-0.033061903 0.26387143 0.65500003 3819386
-0.099513337 0.26269048 0.64900005 5265500
-0.098277152 0.26269048 0.64900005 4805456
-0.096891426 0.26228571 0.648 2502701
-0.095361911 0.26147622 0.64600003 1453911
-0.093840003 0.26066667 0.64400005 993360
-0.092325717 0.25985715 0.64200002 1257291
-0.090960957 0.2594524 0.64100003 1849428
-0.089600012 0.25904766 0.64000005 2244387
-0.088380955 0.25904766 0.64000005 2244387
-0.086753339 0.25783333 0.63700002 2767406
-0.085540004 0.25783333 0.63700002 2767406
-0.084061913 0.25702384 0.63500005 3421999
-0.082852393 0.25702384 0.63500005 3948343
-0.081514291 0.25661907 0.634 4209982
-0.080306664 0.25661907 0.634 3552052
-0.078849532 0.25580952 0.63200003 3484719
-0.077522859 0.25540477 0.63100004 3879477
-0.076320961 0.25540477 0.63100004 4339776
-0.075119056 0.25540477 0.63100004 4339776
-0.073800005 0.25500003 0.63000005 4404819
-0.0726 0.25500003 0.63000005 4273233
-0.071400009 0.25500003 0.63000005 3945552
-0.070200004 0.25500003 0.63000005 5458791
-0.069000006 0.25500003 0.63000005 5396073
-0.0678 0.25500003 0.63000005 5330280
-0.066705719 0.25540477 0.63100004 5330280
-0.065503813 0.25540477 0.63100004 5067108
-0.064301908 0.25540477 0.63100004 5066081
-0.063100003 0.25540477 0.63100004 4802909
-0.061898097 0.25540477 0.63100004 4606543
-0.060792383 0.25580952 0.63200003 5461852
-0.059588574 0.25580952 0.63200003 5856624
-0.058569524 0.25661907 0.634 6251382
-0.057361905 0.25661907 0.634 5990002
-0.056242861 0.25702384 0.63500005 5726830
-0.055033337 0.25702384 0.63500005 5397865
-0.053823814 0.25702384 0.63500005 5332072
-0.052614287 0.25702384 0.63500005 5266029
-0.051404767 0.25702384 0.63500005 5134443
-0.050274286 0.25742859 0.63600004 4609387
-0.049062859 0.25742859 0.63600004 4477801
-0.048001904 0.25823808 0.63800001 4675178
-0.046933334 0.25904766 0.64000005 4806764
-0.045785714 0.2594524 0.64100003 5264744
-0.044634286 0.25985715 0.64200002 5264744
-0.04341143 0.25985715 0.64200002 5199453
-0.042254284 0.26026189 0.64300001 5265246
-0.041093335 0.26066667 0.64400005 5330780
-0.039866671 0.26066667 0.64400005 4607057
-0.038760003 0.26147622 0.64600003 4605528
-0.037587617 0.26188096 0.64700001 3618633
-0.036636192 0.26390475 0.65200001 3028314
-0.035557143 0.26511905 0.65500003 2765142
-0.034414288 0.26592857 0.65700001 2306658
-0.033162855 0.26592857 0.65700001 3359346
-0.099513337 0.26392668 0.64900005 5134166
-0.098277152 0.26392668 0.64900005 4673870
-0.096891426 0.26352 0.648 2305322
-0.095509529 0.26311335 0.64700001 1387866
-0.093840003 0.26189336 0.64400005 1058901
-0.092325717 0.26108 0.64200002 1125705
-0.090960957 0.26067334 0.64100003 1915221
-0.089600012 0.26026669 0.64000005 2375460
-0.088380955 0.26026669 0.64000005 2441253
-0.086753339 0.25904667 0.63700002 2965030
-0.085540004 0.25904667 0.63700002 2965030
-0.084061913 0.25823334 0.63500005 3227180
-0.082852393 0.25823334 0.63500005 3753524
-0.081514291 0.25782666 0.634 4343871
-0.080306664 0.25782666 0.634 4146492
-0.078849532 0.25701335 0.63200003 4145711
-0.077522859 0.25660667 0.63100004 4277297
-0.076320961 0.25660667 0.63100004 4276545
-0.075119056 0.25660667 0.63100004 4210752
-0.073800005 0.25620002 0.63000005 4210250
-0.0726 0.25620002 0.63000005 4012871
-0.071400009 0.25620002 0.63000005 3618640
-0.070200004 0.25620002 0.63000005 5066086
-0.069000006 0.25620002 0.63000005 5593709
-0.067907616 0.25660667 0.63100004 5593709
-0.066705719 0.25660667 0.63100004 5527916
-0.065503813 0.25660667 0.63100004 5462123
-0.064301908 0.25660667 0.63100004 5593452
-0.063199997 0.25701335 0.63200003 5593452
-0.061996192 0.25701335 0.63200003 5462625
-0.060792383 0.25701335 0.63200003 5528418
-0.059777141 0.25782666 0.634 5462123
-0.058661908 0.25823334 0.63500005 5462123
-0.057452384 0.25823334 0.63500005 5266029
-0.056242861 0.25823334 0.63500005 5134443
-0.055033337 0.25823334 0.63500005 5068900
-0.053823814 0.25823334 0.63500005 5266279
-0.052614287 0.25823334 0.63500005 5331820
-0.051404767 0.25823334 0.63500005 5266027
-0.050274286 0.25864002 0.63600004 5200236
-0.049139999 0.25904667 0.63700002 5068650
-0.048001904 0.25945333 0.63800001 5002603
-0.046933334 0.26026669 0.64000005 5068396
-0.045785714 0.26067334 0.64100003 5330789
-0.044634286 0.26108 0.64200002 5396582
-0.04341143 0.26108 0.64200002 5462366
-0.042254284 0.26148668 0.64300001 5330780
-0.041093335 0.26189336 0.64400005 5395796
-0.039866671 0.26189336 0.64400005 4803659
-0.038760003 0.26270667 0.64600003 4409939
-0.037587617 0.26311335 0.64700001 3291458
-0.036523812 0.26433334 0.65000004 2830935
-0.035285715 0.26433334 0.65000004 2765142
-0.099666677 0.26557145 0.65000004 5133914
-0.098428577 0.26557145 0.65000004 4411211
-0.097040959 0.26516289 0.64900005 2174249
-0.095509529 0.26434574 0.64700001 1256282
-0.093840003 0.26312003 0.64400005 1058903
-0.092325717 0.26230285 0.64200002 1453381
-0.091102861 0.26230285 0.64200002 2111311
-0.089740001 0.26189429 0.64100003 2376214
-0.088380955 0.26148573 0.64000005 2639386
-0.08688952 0.26066858 0.63800001 2638632
-0.085540004 0.26026002 0.63700002 2638632
-0.084194295 0.25985146 0.63600004 3228202
-0.082852393 0.25944287 0.63500005 3425581
-0.081514291 0.25903428 0.634 3491122
-0.080306664 0.25903428 0.634 3556915
-0.078849532 0.25821716 0.63200003 3820071
-0.077522859 0.25780857 0.63100004 3885864
-0.076320961 0.25780857 0.63100004 3885110
-0.075119056 0.25780857 0.63100004 3819317
-0.07391715 0.25780857 0.63100004 4146492
-0.0726 0.25740001 0.63000005 3949113
-0.071400009 0.25740001 0.63000005 3358264
-0.070311435 0.25780857 0.63100004 4805710
-0.069109522 0.25780857 0.63100004 5593709
-0.067907616 0.25780857 0.63100004 5527916
-0.066705719 0.25780857 0.63100004 5397111
-0.065503813 0.25780857 0.63100004 5397111
-0.06440381 0.25821716 0.63200003 5331822
-0.063199997 0.25821716 0.63200003 5266029
-0.061996192 0.25821716 0.63200003 5200234
-0.060984757 0.25903428 0.634 5200234
-0.059777141 0.25903428 0.634 5200236
-0.058661908 0.25944287 0.63500005 5200236
-0.057452384 0.25944287 0.63500005 5134443
-0.056242861 0.25944287 0.63500005 5200236
-0.055033337 0.25944287 0.63500005 5069168
-0.053823814 0.25944287 0.63500005 4937582
-0.052614287 0.25944287 0.63500005 5200236
-0.051404767 0.25944287 0.63500005 5200236
-0.050274286 0.25985146 0.63600004 5200236
-0.049139999 0.26026002 0.63700002 5134443
-0.048152387 0.26148573 0.64000005 5264744
-0.046933334 0.26148573 0.64000005 5264744
-0.045785714 0.26189429 0.64100003 5264996
-0.044634286 0.26230285 0.64200002 5330789
-0.04341143 0.26230285 0.64200002 5462368
-0.042254284 0.26271144 0.64300001 4936024
-0.041093335 0.26312003 0.64400005 4409689
-0.039866671 0.26312003 0.64400005 4475482
-0.038760003 0.26393715 0.64600003 4475732
-0.037587617 0.26434574 0.64700001 3423044
-0.036523812 0.26557145 0.65000004 2372953
-0.035285715 0.26557145 0.65000004 2372953
-0.098277152 0.26639906 0.64900005 4477004
-0.097040959 0.26639906 0.64900005 1845284
-0.095657147 0.26598856 0.648 993367
-0.094131432 0.26516765 0.64600003 993367
-0.092469528 0.26393619 0.64300001 994119
-0.091102861 0.26352569 0.64200002 1454670
-0.089740001 0.26311526 0.64100003 1916423
-0.088380955 0.26270479 0.64000005 2508560
-0.08688952 0.2618838 0.63800001 2968089
-0.085540004 0.26147333 0.63700002 2968089
-0.084194295 0.26106289 0.63600004 2901804
-0.082852393 0.26065239 0.63500005 2901804
-0.081642859 0.26065239 0.63500005 2967840
-0.080306664 0.2602419 0.634 2967840
-0.078849532 0.25942096 0.63200003 3360791
-0.077645719 0.25942096 0.63200003 3426584
-0.076320961 0.25901049 0.63100004 3033892
-0.075119056 0.25901049 0.63100004 3099685
-0.07391715 0.25901049 0.63100004 3755048
-0.072715245 0.25901049 0.63100004 3689255
-0.07151334 0.25901049 0.63100004 3425581
-0.070311435 0.25901049 0.63100004 4741441
-0.069109522 0.25901049 0.63100004 5528672
-0.067907616 0.25901049 0.63100004 5528672
-0.066811427 0.25942096 0.63200003 5397113
-0.065607622 0.25942096 0.63200003 5265527
-0.06440381 0.25942096 0.63200003 5068398
-0.0634 0.2602419 0.634 5002605
-0.06219238 0.2602419 0.634 4806764
-0.060984757 0.2602419 0.634 4872557
-0.059777141 0.2602419 0.634 5134443
-0.058661908 0.26065239 0.63500005 5200236
-0.057452384 0.26065239 0.63500005 5200236
-0.056242861 0.26065239 0.63500005 5200236
-0.055033337 0.26065239 0.63500005 5265527
-0.053823814 0.26065239 0.63500005 5133941
-0.052614287 0.26065239 0.63500005 5134443
-0.051404767 0.26065239 0.63500005 5134443
-0.050274286 0.26106289 0.63600004 5264746
-0.049139999 0.26147333 0.63700002 5264746
-0.048152387 0.26270479 0.64000005 5330537
-0.046933334 0.26270479 0.64000005 5330537
-0.045785714 0.26311526 0.64100003 5462368
-0.044634286 0.26352569 0.64200002 5330782
-0.043479048 0.26393619 0.64300001 5263960
-0.042254284 0.26393619 0.64300001 4671823
-0.041093335 0.26434669 0.64400005 4671321
-0.039990477 0.26516765 0.64600003 4671321
-0.038760003 0.26516765 0.64600003 4344146
-0.037587617 0.26557809 0.64700001 3554630
