# .PCD v0.7 - Point Cloud Data file format
VERSION 0.7
FIELDS x y z rgba
SIZE 4 4 4 4
TYPE F F F U
COUNT 1 1 1 1
WIDTH 1128
HEIGHT 1
VIEWPOINT 0 0 0 1 0 0 0
POINTS 1128
DATA ascii
-0.078498095 0.20335335 0.64900005 1652076
-0.07726191 0.20335335 0.64900005 1520490
-0.075908571 0.20304 0.648 2045798
-0.07444381 0.20241334 0.64600003 2374763
-0.073213331 0.20241334 0.64600003 4079467
-0.071760006 0.20178668 0.64400005 3553123
-0.070423812 0.20147333 0.64300001 2956359
-0.069199048 0.20147333 0.64300001 3482703
-0.067868568 0.20116 0.64200002 5189972
-0.06654191 0.20084667 0.64100003 5847902
-0.065320954 0.20084667 0.64100003 4996956
-0.064099997 0.20084667 0.64100003 6312816
-0.062879048 0.20084667 0.64100003 6183809
-0.061658099 0.20084667 0.64100003 5986430
-0.060437147 0.20084667 0.64100003 6051439
-0.059123814 0.20053335 0.64000005 5722474
-0.057904765 0.20053335 0.64000005 6050673
-0.056685716 0.20053335 0.64000005 6050673
-0.055466671 0.20053335 0.64000005 5524325
-0.054247621 0.20053335 0.64000005 5787497
-0.052862857 0.19990668 0.63800001 6182775
-0.051647618 0.19990668 0.63800001 6577533
-0.050432384 0.19990668 0.63800001 6380938
-0.049217142 0.19990668 0.63800001 5854594
-0.048001904 0.19990668 0.63800001 5854590
-0.046786666 0.19990668 0.63800001 5854590
-0.045714289 0.20053335 0.64000005 6050951
-0.044495244 0.20053335 0.64000005 5919365
-0.043276191 0.20053335 0.64000005 5590648
-0.042057145 0.20053335 0.64000005 5656441
-0.0408381 0.20053335 0.64000005 5787765
-0.039680954 0.20084667 0.64100003 5524593
-0.038460001 0.20084667 0.64100003 5193831
-0.037239049 0.20084667 0.64100003 5193831
-0.036074288 0.20116 0.64200002 4996193
-0.034905713 0.20147333 0.64300001 4996193
-0.033680953 0.20147333 0.64300001 4931691
-0.032506671 0.20178668 0.64400005 4602726
-0.031377144 0.20241334 0.64600003 4931938
-0.030193334 0.20272668 0.64700001 5655661
-0.029050479 0.20335335 0.64900005 5198440
-0.027857145 0.20366667 0.65000004 5856370
-0.026700953 0.20429334 0.65200001 6056061
-0.025459047 0.20429334 0.65200001 6121854
-0.024217142 0.20429334 0.65200001 5267584
-0.023010477 0.20460668 0.65300006 3820138
-0.0218 0.20492001 0.65400004 3164527
-0.020585716 0.20523334 0.65500003 2506597
-0.019397143 0.20586 0.65700001 3490932
-0.018145714 0.20586 0.65700001 5333136
-0.016894286 0.20586 0.65700001 5857374
-0.083957151 0.2058505 0.65300006 5594204
-0.082713336 0.2058505 0.65300006 5659997
-0.081344761 0.20553523 0.65200001 5069400
-0.079857148 0.20490476 0.65000004 3095610
-0.078619048 0.20490476 0.65000004 1783405
-0.07726191 0.20458953 0.64900005 1849198
-0.076025717 0.20458953 0.64900005 2176878
-0.074559048 0.20395905 0.64700001 2440050
-0.073213331 0.20364381 0.64600003 3751526
-0.071982861 0.20364381 0.64600003 3751526
-0.070533335 0.20301335 0.64400005 3616351
-0.069306672 0.20301335 0.64400005 2826835
-0.067974284 0.2026981 0.64300001 3809124
-0.066645719 0.20238285 0.64200002 4927605
-0.065422855 0.20238285 0.64200002 4601437
-0.064200006 0.20238285 0.64200002 5193574
-0.062879048 0.20206763 0.64100003 4997230
-0.061658099 0.20206763 0.64100003 4734058
-0.060437147 0.20206763 0.64100003 4734310
-0.05921619 0.20206763 0.64100003 4865896
-0.057904765 0.20175239 0.64000005 5193831
-0.056685716 0.20175239 0.64000005 5193831
-0.055466671 0.20175239 0.64000005 5061727
-0.054247621 0.20175239 0.64000005 5193313
-0.053028576 0.20175239 0.64000005 5127537
-0.051647618 0.20112191 0.63800001 5456502
-0.050432384 0.20112191 0.63800001 5061996
-0.049371433 0.20175239 0.64000005 4667238
-0.048152387 0.20175239 0.64000005 4339300
-0.046933334 0.20175239 0.64000005 4207714
-0.045714289 0.20175239 0.64000005 4601452
-0.044495244 0.20175239 0.64000005 4733038
-0.043276191 0.20175239 0.64000005 4800105
-0.042057145 0.20175239 0.64000005 4800105
-0.040901907 0.20206763 0.64100003 4866666
-0.039680954 0.20206763 0.64100003 4866666
-0.038460001 0.20206763 0.64100003 5063783
-0.037297145 0.20238285 0.64200002 5326955
-0.036130477 0.2026981 0.64300001 4999782
-0.034905713 0.2026981 0.64300001 5065575
-0.033680953 0.2026981 0.64300001 4672620
-0.032607622 0.20364381 0.64600003 3685725
-0.031425714 0.20395905 0.64700001 4671865
-0.030240001 0.2042743 0.648 6645655
-0.029050479 0.20458953 0.64900005 6580608
-0.027857145 0.20490476 0.65000004 6580608
-0.026700953 0.20553523 0.65200001 6384517
-0.025498098 0.2058505 0.65300006 6318724
-0.024254289 0.2058505 0.65300006 5135731
-0.023045715 0.20616573 0.65400004 3556699
-0.021833334 0.20648097 0.65500003 2966900
-0.020648571 0.20711142 0.65700001 2769521
-0.019397143 0.20711142 0.65700001 3425389
-0.018145714 0.20711142 0.65700001 5267593
-0.016894286 0.20711142 0.65700001 5857374
-0.082840003 0.20741144 0.65400004 5791583
-0.081594288 0.20741144 0.65400004 5267033
-0.080225721 0.2070943 0.65300006 3161657
-0.078860953 0.20677714 0.65200001 1914989
-0.077380955 0.20614287 0.65000004 1849196
-0.076025717 0.20582573 0.64900005 2111591
-0.074674278 0.20550856 0.648 2308970
-0.07332667 0.20519143 0.64700001 2767720
-0.071982861 0.20487429 0.64600003 2767720
-0.070752382 0.20487429 0.64600003 4143976
-0.069306672 0.20424001 0.64400005 3157081
-0.067974284 0.20392285 0.64300001 3414614
-0.066749521 0.20392285 0.64300001 4730474
-0.065524764 0.20392285 0.64300001 4863835
-0.064200006 0.20360573 0.64200002 5258593
-0.062977143 0.20360573 0.64200002 5193064
-0.061754286 0.20360573 0.64200002 4929892
-0.060437147 0.20328858 0.64100003 4929379
-0.05921619 0.20328858 0.64100003 5126758
-0.057995241 0.20328858 0.64100003 5324396
-0.056685716 0.20297144 0.64000005 5192810
-0.055466671 0.20297144 0.64000005 4995169
-0.054247621 0.20297144 0.64000005 5060962
-0.053028576 0.20297144 0.64000005 4995172
-0.051809527 0.20297144 0.64000005 4929379
-0.050590478 0.20297144 0.64000005 5058914
-0.049371433 0.20297144 0.64000005 5322086
-0.048152387 0.20297144 0.64000005 4797790
-0.046933334 0.20297144 0.64000005 4797790
-0.045714289 0.20297144 0.64000005 4798313
-0.044495244 0.20297144 0.64000005 5390450
-0.043343812 0.20328858 0.64100003 5194611
-0.04212286 0.20328858 0.64100003 5194611
-0.040901907 0.20328858 0.64100003 5195892
-0.039742857 0.20360573 0.64200002 5130099
-0.038520001 0.20360573 0.64200002 4540011
-0.037355237 0.20392285 0.64300001 4803183
-0.036130477 0.20392285 0.64300001 4345963
-0.034960002 0.20424001 0.64400005 4280170
-0.033733334 0.20424001 0.64400005 4149886
-0.032607622 0.20487429 0.64600003 2636647
-0.031425714 0.20519143 0.64700001 3558759
-0.030240001 0.20550856 0.648 5598342
-0.029050479 0.20582573 0.64900005 6319751
-0.027942857 0.20677714 0.65200001 6056579
-0.026741907 0.2070943 0.65300006 5925247
-0.025537144 0.20741144 0.65400004 5925247
-0.024291432 0.20741144 0.65400004 4742004
-0.023080952 0.20772858 0.65500003 3097179
-0.021833334 0.20772858 0.65500003 2573160
-0.020648571 0.20836286 0.65700001 2309988
-0.019397143 0.20836286 0.65700001 3425389
-0.018145714 0.20836286 0.65700001 5333386
-0.082713336 0.20833811 0.65300006 5791583
-0.081469528 0.20833811 0.65300006 5267029
-0.080225721 0.20833811 0.65300006 3359032
-0.078981914 0.20833811 0.65300006 1849196
-0.077380955 0.20738097 0.65000004 1914989
-0.076142862 0.20738097 0.65000004 1914469
-0.074789532 0.20706193 0.64900005 2046055
-0.07344 0.20674285 0.648 2242671
-0.072094291 0.20642382 0.64700001 2440050
-0.070752382 0.20610477 0.64600003 3685483
-0.069521904 0.20610477 0.64600003 4540792
-0.068080008 0.20546669 0.64400005 4275558
-0.066853337 0.20546669 0.64400005 3617628
-0.065524764 0.20514761 0.64300001 3880030
-0.064300001 0.20514761 0.64300001 4603753
-0.062977143 0.20482858 0.64200002 4734561
-0.061754286 0.20482858 0.64200002 4800354
-0.060437147 0.20450954 0.64100003 4603496
-0.05921619 0.20450954 0.64100003 4406117
-0.057995241 0.20450954 0.64100003 4472430
-0.056685716 0.20419048 0.64000005 4932981
-0.055466671 0.20419048 0.64000005 5459313
-0.054247621 0.20419048 0.64000005 5656692
-0.053028576 0.20419048 0.64000005 5723757
-0.051809527 0.20419048 0.64000005 5855343
-0.050590478 0.20419048 0.64000005 6248829
-0.049371433 0.20419048 0.64000005 6512001
-0.048152387 0.20419048 0.64000005 6380910
-0.047006667 0.20450954 0.64100003 5591394
-0.045785714 0.20450954 0.64100003 6051700
-0.044564765 0.20450954 0.64100003 6907009
-0.043343812 0.20450954 0.64100003 6249357
-0.04218857 0.20482858 0.64200002 5986185
-0.041029524 0.20514761 0.64300001 5856130
-0.039804764 0.20514761 0.64300001 5066614
-0.038579997 0.20514761 0.64300001 3751528
-0.037355237 0.20514761 0.64300001 3751528
-0.036186669 0.20546669 0.64400005 2964066
-0.034960002 0.20546669 0.64400005 3095652
-0.033733334 0.20546669 0.64400005 3095922
-0.032607622 0.20610477 0.64600003 1714269
-0.031425714 0.20642382 0.64700001 2703191
-0.030240001 0.20674285 0.648 4676981
-0.029050479 0.20706193 0.64900005 6384258
-0.027942857 0.20801905 0.65200001 6252672
-0.026741907 0.20833811 0.65300006 5924979
-0.025576191 0.20897619 0.65500003 5990772
-0.024402859 0.20961429 0.65700001 4872816
-0.023151428 0.20961429 0.65700001 3030612
-0.0219 0.20961429 0.65700001 1652076
-0.020648571 0.20961429 0.65700001 1454697
-0.019426668 0.20993336 0.65800005 3359598
-0.018173333 0.20993336 0.65800005 5399181
-0.01692 0.20993336 0.65800005 5791581
-0.080348574 0.20990287 0.65400004 3687997
-0.078981914 0.20958193 0.65300006 1784166
-0.077619046 0.20926096 0.65200001 1718373
-0.076142862 0.20861906 0.65000004 2111591
-0.074789532 0.2082981 0.64900005 2045798
-0.07344 0.20797715 0.648 2111085
-0.072205715 0.20797715 0.648 2242671
-0.070861906 0.20765619 0.64700001 2898291
-0.069521904 0.20733525 0.64600003 3490428
-0.068291426 0.20733525 0.64600003 4279669
-0.066853337 0.20669335 0.64400005 3950704
-0.065626673 0.20669335 0.64400005 4341856
-0.064400002 0.20669335 0.64400005 5197165
-0.063075244 0.2063724 0.64300001 5460333
-0.061754286 0.20605142 0.64200002 5526126
-0.06053143 0.20605142 0.64200002 5329538
-0.05921619 0.20573048 0.64100003 4671608
-0.057995241 0.20573048 0.64100003 4014947
-0.056774288 0.20573048 0.64100003 5133428
-0.055466671 0.20540953 0.64000005 5725577
-0.054247621 0.20540953 0.64000005 5528198
-0.053028576 0.20540953 0.64000005 5332609
-0.051809527 0.20540953 0.64000005 5398402
-0.050590478 0.20540953 0.64000005 5661307
-0.049371433 0.20540953 0.64000005 5792893
-0.048152387 0.20540953 0.64000005 5923457
-0.047006667 0.20573048 0.64100003 5199734
-0.045785714 0.20573048 0.64100003 5330565
-0.044564765 0.20573048 0.64100003 5659530
-0.04341143 0.20605142 0.64200002 5462653
-0.04218857 0.20605142 0.64200002 5331067
-0.041029524 0.2063724 0.64300001 5397900
-0.039804764 0.2063724 0.64300001 5003142
-0.038579997 0.2063724 0.64300001 2177384
-0.037355237 0.2063724 0.64300001 2243177
-0.036186669 0.20669335 0.64400005 2961758
-0.034960002 0.20669335 0.64400005 3817067
-0.033733334 0.20669335 0.64400005 3948907
-0.032658096 0.20765619 0.64700001 3619942
-0.031474285 0.20797715 0.648 3491422
-0.030286668 0.2082981 0.64900005 4741489
-0.029095238 0.20861906 0.65000004 5332604
-0.027985716 0.20958193 0.65300006 5464190
-0.026782859 0.20990287 0.65400004 5595512
-0.025654286 0.21086571 0.65700001 5727098
-0.024440002 0.21118668 0.65800005 4742004
-0.023221906 0.21150762 0.65900004 2899800
-0.022033334 0.21214953 0.66100001 1981032
-0.020774284 0.21214953 0.66100001 1783653
-0.019544763 0.2124705 0.66200006 3360107
-0.079102859 0.21114857 0.65400004 1849196
-0.077738099 0.21082573 0.65300006 1454438
-0.076377138 0.21050285 0.65200001 1716842
-0.074904762 0.20985715 0.65000004 1914221
-0.073553339 0.2095343 0.64900005 1979503
-0.072317146 0.2095343 0.64900005 2111089
-0.070971422 0.20921142 0.648 2242164
-0.06962952 0.20888858 0.64700001 2900094
-0.068291426 0.20856571 0.64600003 3490428
-0.067060955 0.20856571 0.64600003 4608909
-0.065626673 0.20792001 0.64400005 5265777
-0.064400002 0.20792001 0.64400005 6450051
-0.063173339 0.20792001 0.64400005 6646397
-0.061850477 0.20759715 0.64300001 6843776
-0.06053143 0.20727429 0.64200002 6778766
-0.059308574 0.20727429 0.64200002 5528699
-0.057995241 0.20695144 0.64100003 4542323
-0.056774288 0.20695144 0.64100003 5660804
-0.055553336 0.20695144 0.64100003 5660041
-0.054247621 0.20662859 0.64000005 4146802
-0.053028576 0.20662859 0.64000005 3688831
-0.051809527 0.20662859 0.64000005 3820417
-0.050590478 0.20662859 0.64000005 3688542
-0.049448572 0.20695144 0.64100003 4214886
-0.048227623 0.20695144 0.64100003 4345719
-0.047006667 0.20695144 0.64100003 3621996
-0.045785714 0.20695144 0.64100003 3885692
-0.044564765 0.20695144 0.64100003 3425141
-0.04341143 0.20727429 0.64200002 3294043
-0.04218857 0.20727429 0.64200002 3820387
-0.041029524 0.20759715 0.64300001 5464444
-0.039804764 0.20759715 0.64300001 5661823
-0.038579997 0.20759715 0.64300001 3820676
-0.037413336 0.20792001 0.64400005 2965367
-0.036186669 0.20792001 0.64400005 3688313
-0.034960002 0.20792001 0.64400005 4609415
-0.033838097 0.20856571 0.64600003 4280170
-0.032658096 0.20888858 0.64700001 3490654
-0.031474285 0.20921142 0.648 3623018
-0.030286668 0.2095343 0.64900005 3688811
-0.029095238 0.20985715 0.65000004 4214627
-0.028028574 0.21114857 0.65400004 4675178
-0.026823809 0.21147144 0.65500003 4740467
-0.025693335 0.21244001 0.65800005 4740467
-0.024440002 0.21244001 0.65800005 4609387
-0.023221906 0.21276288 0.65900004 3293527
-0.022033334 0.21340857 0.66100001 2177398
-0.020774284 0.21340857 0.66100001 1716847
-0.019544763 0.21373144 0.66200006 3426152
-0.01828381 0.21373144 0.66200006 5268356
-0.079102859 0.2123943 0.65400004 2507621
-0.077738099 0.21206954 0.65300006 1323347
-0.076377138 0.21174476 0.65200001 1257577
-0.075135238 0.21174476 0.65200001 1586542
-0.073666669 0.21109524 0.65000004 1847663
-0.072317146 0.21077049 0.64900005 1781870
-0.070971422 0.21044572 0.648 2045044
-0.06962952 0.21012095 0.64700001 2439802
-0.068397142 0.21012095 0.64700001 2506356
-0.067060955 0.20979621 0.64600003 3624837
-0.065830477 0.20979621 0.64600003 4348278
-0.064599998 0.20979621 0.64600003 5729931
-0.063173339 0.20914668 0.64400005 6188417
-0.061946671 0.20914668 0.64400005 6320003
-0.060625713 0.20882191 0.64300001 6385297
-0.059308574 0.20849715 0.64200002 5266816
-0.058085714 0.20849715 0.64200002 3755376
-0.056774288 0.20817238 0.64100003 4676478
-0.055553336 0.20817238 0.64100003 5003910
-0.054332383 0.20817238 0.64100003 3556464
-0.05311143 0.20817238 0.64100003 3294071
-0.051890481 0.20817238 0.64100003 3491450
-0.050669525 0.20817238 0.64100003 2962521
-0.049448572 0.20817238 0.64100003 4409967
-0.048227623 0.20817238 0.64100003 4148853
-0.047006667 0.20817238 0.64100003 3754095
-0.045785714 0.20817238 0.64100003 3950200
-0.044564765 0.20817238 0.64100003 4015993
-0.04341143 0.20849715 0.64200002 3688041
-0.04218857 0.20849715 0.64200002 4477557
-0.041029524 0.20882191 0.64300001 5464195
-0.039804764 0.20882191 0.64300001 5529988
-0.038640004 0.20914668 0.64400005 5069962
-0.037413336 0.20914668 0.64400005 4477825
-0.036186669 0.20914668 0.64400005 4149886
-0.035068572 0.20979621 0.64600003 4215679
-0.033838097 0.20979621 0.64600003 3887475
-0.032658096 0.21012095 0.64700001 3426924
-0.031522859 0.21077049 0.64900005 3229291
-0.030333335 0.21109524 0.65000004 3624049
-0.029095238 0.21109524 0.65000004 4148584
-0.028028574 0.2123943 0.65400004 4543342
-0.026905714 0.21336856 0.65700001 4280952
-0.025693335 0.21369335 0.65800005 4215159
-0.024477145 0.21401811 0.65900004 3821171
-0.023221906 0.21401811 0.65900004 2768483
-0.022033334 0.21466762 0.66100001 2439791
-0.020774284 0.21466762 0.66100001 2045033
-0.019515239 0.21466762 0.66100001 3491945
-0.01828381 0.2149924 0.66200006 5202563
-0.079223812 0.21396667 0.65500003 2901346
-0.077857152 0.21364002 0.65400004 1388107
-0.076494291 0.21331336 0.65300006 1257577
-0.075135238 0.21298666 0.65200001 1586542
-0.073666669 0.21233334 0.65000004 1586287
-0.072317146 0.21200667 0.64900005 1520494
-0.071080953 0.21200667 0.64900005 1979251
-0.069737144 0.21168001 0.648 2110837
-0.068397142 0.21135333 0.64700001 2702972
-0.067060955 0.21102667 0.64600003 3689867
-0.065830477 0.21102667 0.64600003 4610426
-0.064599998 0.21102667 0.64600003 5728907
-0.063173339 0.21037334 0.64400005 6122622
-0.061946671 0.21037334 0.64400005 6122622
-0.060625713 0.21004666 0.64300001 6057081
-0.059400953 0.21004666 0.64300001 5399151
-0.058085714 0.20972 0.64200002 4346493
-0.056774288 0.20939334 0.64100003 4412286
-0.055553336 0.20939334 0.64100003 4346493
-0.054332383 0.20939334 0.64100003 4083321
-0.05311143 0.20939334 0.64100003 4609656
-0.051890481 0.20939334 0.64100003 4938621
-0.050669525 0.20939334 0.64100003 5462904
-0.049448572 0.20939334 0.64100003 5660283
-0.048227623 0.20939334 0.64100003 5398150
-0.047006667 0.20939334 0.64100003 5266564
-0.045785714 0.20939334 0.64100003 5069948
-0.044634286 0.20972 0.64200002 5069948
-0.043479048 0.21004666 0.64300001 5462664
-0.042254284 0.21004666 0.64300001 5660043
-0.041093335 0.21037334 0.64400005 5596030
-0.039866671 0.21037334 0.64400005 5990788
-0.038640004 0.21037334 0.64400005 5858951
-0.037529524 0.21102667 0.64600003 4872056
-0.03629905 0.21102667 0.64600003 4609402
-0.035068572 0.21102667 0.64600003 4412023
-0.033838097 0.21102667 0.64600003 4280948
-0.032708574 0.21168001 0.648 4083569
-0.031571429 0.21233334 0.65000004 3820651
-0.030333335 0.21233334 0.65000004 3886444
-0.029184762 0.21298666 0.65200001 4148335
-0.02807143 0.21396667 0.65500003 4345714
-0.026946669 0.21494667 0.65800005 3953014
-0.025693335 0.21494667 0.65800005 3755635
-0.024477145 0.21527335 0.65900004 3296376
-0.023292381 0.21592668 0.66100001 2243688
-0.022033334 0.21592668 0.66100001 2177650
-0.020805717 0.21625336 0.66200006 2375029
-0.019544763 0.21625336 0.66200006 3491945
-0.01828381 0.21625336 0.66200006 5202563
-0.076611437 0.21488573 0.65400004 1388906
-0.075135238 0.21422857 0.65200001 1586285
-0.073893331 0.21422857 0.65200001 1783405
-0.072428577 0.21357144 0.65000004 1783405
-0.071080953 0.21324287 0.64900005 1979251
-0.069844767 0.21324287 0.64900005 2439802
-0.068502858 0.21291429 0.648 3294332
-0.067164764 0.21258572 0.64700001 3689090
-0.065932386 0.21258572 0.64700001 4675706
-0.064599998 0.21225715 0.64600003 5925773
-0.063369527 0.21225715 0.64600003 6122885
-0.061946671 0.21160002 0.64400005 5859713
-0.060720004 0.21160002 0.64400005 5465214
-0.059493337 0.21160002 0.64400005 5136249
-0.05826667 0.21160002 0.64400005 4281974
-0.056951426 0.21127144 0.64300001 4216181
-0.055640001 0.21094286 0.64200002 4411512
-0.054417145 0.21094286 0.64200002 4411512
-0.053194284 0.21094286 0.64200002 4280952
-0.051971432 0.21094286 0.64200002 4741503
-0.050748575 0.21094286 0.64200002 5596030
-0.049525715 0.21094286 0.64200002 5398651
-0.048302859 0.21094286 0.64200002 5004412
-0.047080003 0.21094286 0.64200002 4938619
-0.045857143 0.21094286 0.64200002 4938371
-0.044703808 0.21127144 0.64300001 4938371
-0.043546669 0.21160002 0.64400005 5003910
-0.042320006 0.21160002 0.64400005 5135496
-0.041093335 0.21160002 0.64400005 5595779
-0.039866671 0.21160002 0.64400005 5858951
-0.038760003 0.21225715 0.64600003 6055051
-0.037529524 0.21225715 0.64600003 5199742
-0.03629905 0.21225715 0.64600003 5002874
-0.035122856 0.21258572 0.64700001 4871288
-0.033890475 0.21258572 0.64700001 4805487
-0.032759052 0.21324287 0.64900005 4608108
-0.031571429 0.21357144 0.65000004 3951464
-0.030333335 0.21357144 0.65000004 4148843
-0.029184762 0.21422857 0.65200001 4280432
-0.028157143 0.21587144 0.65700001 4214639
-0.02698762 0.21652858 0.65900004 3690621
-0.025732381 0.21652858 0.65900004 3624828
-0.024551429 0.21718571 0.66100001 2706808
-0.023292381 0.21718571 0.66100001 1522534
-0.022033334 0.21718571 0.66100001 1653607
-0.020805717 0.21751429 0.66200006 1653607
-0.019544763 0.21751429 0.66200006 3360107
-0.01828381 0.21751429 0.66200006 5268104
-0.017022859 0.21751429 0.66200006 5726301
-0.076728575 0.21646191 0.65500003 1323370
-0.075250484 0.21580097 0.65300006 1454956
-0.073893331 0.21547048 0.65200001 1652076
-0.072651431 0.21547048 0.65200001 1717869
-0.071190484 0.21480954 0.65000004 1914739
-0.069844767 0.21447906 0.64900005 2638462
-0.068608582 0.21447906 0.64900005 3098484
-0.067268573 0.21414857 0.648 3098484
-0.066034287 0.21414857 0.648 4806773
-0.064700007 0.21381809 0.64700001 6122633
-0.063369527 0.21348763 0.64600003 6122374
-0.061946671 0.21282668 0.64400005 5332858
-0.060720004 0.21282668 0.64400005 4675449
-0.059493337 0.21282668 0.64400005 3754347
-0.05826667 0.21282668 0.64400005 3427171
-0.057040006 0.21282668 0.64400005 3690343
-0.055726666 0.21249619 0.64300001 3886964
-0.054417145 0.21216571 0.64200002 3755378
-0.053194284 0.21216571 0.64200002 3689583
-0.051971432 0.21216571 0.64200002 3689583
-0.050748575 0.21216571 0.64200002 4938357
-0.049602855 0.21249619 0.64300001 4872564
-0.048378095 0.21249619 0.64300001 4216430
-0.047153335 0.21249619 0.64300001 4413809
-0.045928571 0.21249619 0.64300001 4675458
-0.044703808 0.21249619 0.64300001 4675458
-0.043546669 0.21282668 0.64400005 4741508
-0.042320006 0.21282668 0.64400005 4873094
-0.041093335 0.21282668 0.64400005 5004164
-0.039866671 0.21282668 0.64400005 4938371
-0.038760003 0.21348763 0.64600003 5069183
-0.037529524 0.21348763 0.64600003 5003390
-0.036355238 0.21381809 0.64700001 5068667
-0.035122856 0.21381809 0.64700001 5068667
-0.033890475 0.21381809 0.64700001 5330539
-0.032759052 0.21447906 0.64900005 5198953
-0.031571429 0.21480954 0.65000004 4608619
-0.030333335 0.21480954 0.65000004 4542826
-0.029184762 0.21547048 0.65200001 4412018
-0.028157143 0.21712285 0.65700001 4412018
-0.02698762 0.21778382 0.65900004 3887487
-0.025732381 0.21778382 0.65900004 3755901
-0.024477145 0.21778382 0.65900004 3690871
-0.023292381 0.21844476 0.66100001 2309218
-0.022033334 0.21844476 0.66100001 1653607
-0.020805717 0.21877526 0.66200006 1916779
-0.019544763 0.21877526 0.66200006 3295084
-0.01828381 0.21877526 0.66200006 5137288
-0.079707623 0.21903905 0.65900004 3820128
-0.077080004 0.21870668 0.65800005 1125995
-0.075480953 0.21770954 0.65500003 1389167
-0.07412 0.21737716 0.65400004 1782635
-0.072762862 0.21704477 0.65300006 1914221
-0.071409523 0.21671239 0.65200001 1914739
-0.069952384 0.21604763 0.65000004 2441083
-0.068608582 0.21571526 0.64900005 2835832
-0.067268573 0.21538286 0.648 2901625
-0.066034287 0.21538286 0.648 4280952
-0.064800002 0.21538286 0.648 5465226
-0.063467614 0.21505049 0.64700001 5727626
-0.062139049 0.2147181 0.64600003 5069696
-0.060908575 0.2147181 0.64600003 3887221
-0.059493337 0.21405335 0.64400005 3755635
-0.05826667 0.21405335 0.64400005 3689065
-0.057040006 0.21405335 0.64400005 3754858
-0.055813335 0.21405335 0.64400005 3755378
-0.054501906 0.21372095 0.64300001 3886964
-0.053277142 0.21372095 0.64300001 3821169
-0.052052379 0.21372095 0.64300001 3952755
-0.050827619 0.21372095 0.64300001 5135225
-0.049602855 0.21372095 0.64300001 4937846
-0.048378095 0.21372095 0.64300001 4281972
-0.047153335 0.21372095 0.64300001 4610937
-0.045928571 0.21372095 0.64300001 4807303
-0.044703808 0.21372095 0.64300001 4807303
-0.043546669 0.21405335 0.64400005 4873096
-0.042320006 0.21405335 0.64400005 4807303
-0.041093335 0.21405335 0.64400005 4807305
-0.039990477 0.2147181 0.64600003 4544133
-0.038760003 0.2147181 0.64600003 4609665
-0.037529524 0.2147181 0.64600003 4807044
-0.036355238 0.21505049 0.64700001 5265527
-0.035177141 0.21538286 0.648 5331320
-0.033942856 0.21538286 0.648 5396332
-0.032809526 0.21604763 0.65000004 5264746
-0.031571429 0.21604763 0.65000004 5133160
-0.030426666 0.21671239 0.65200001 4869988
-0.029229525 0.21704477 0.65300006 4477811
-0.028157143 0.21837428 0.65700001 4412018
-0.026946669 0.21870668 0.65800005 3953284
-0.025693335 0.21870668 0.65800005 3953284
-0.024477145 0.21903905 0.65900004 4019327
-0.023292381 0.21970382 0.66100001 2769260
-0.022033334 0.21970382 0.66100001 2375013
-0.020805717 0.22003621 0.66200006 2046048
-0.019544763 0.22003621 0.66200006 3294314
-0.01828381 0.22003621 0.66200006 5136518
-0.079707623 0.2202943 0.65900004 3951966
-0.078452386 0.2202943 0.65900004 1715004
-0.077080004 0.21996002 0.65800005 994155
-0.075711429 0.21962571 0.65700001 1191534
-0.074233338 0.21895716 0.65500003 1257581
-0.072874293 0.21862286 0.65400004 1454960
-0.071409523 0.21795429 0.65200001 1717358
-0.069952384 0.21728572 0.65000004 1651565
-0.068608582 0.21695143 0.64900005 1981302
-0.067372382 0.21695143 0.64900005 2441853
-0.066136196 0.21695143 0.64900005 3493235
-0.064800002 0.21661714 0.648 3822200
-0.063467614 0.21628286 0.64700001 4149886
-0.062139049 0.21594857 0.64600003 4084093
-0.060908575 0.21594857 0.64600003 4149886
-0.059678096 0.21594857 0.64600003 4215679
-0.05826667 0.21528001 0.64400005 3887741
-0.057040006 0.21528001 0.64400005 3756155
-0.055813335 0.21528001 0.64400005 4085370
-0.054586671 0.21528001 0.64400005 4216956
-0.053277142 0.21494572 0.64300001 4479864
-0.052052379 0.21494572 0.64300001 4545657
-0.050827619 0.21494572 0.64300001 5202301
-0.049602855 0.21494572 0.64300001 5202301
-0.048378095 0.21494572 0.64300001 5136257
-0.047226671 0.21528001 0.64400005 5202050
-0.046000004 0.21528001 0.64400005 5202322
-0.044773336 0.21528001 0.64400005 4873357
-0.043546669 0.21528001 0.64400005 4545419
-0.042320006 0.21528001 0.64400005 4413833
-0.041220952 0.21594857 0.64600003 4150668
-0.039990477 0.21594857 0.64600003 3690117
-0.038760003 0.21594857 0.64600003 3690371
-0.037587617 0.21628286 0.64700001 4348301
-0.036411427 0.21661714 0.648 5660535
-0.035177141 0.21661714 0.648 5660535
-0.033942856 0.21661714 0.648 5528168
-0.032809526 0.21728572 0.65000004 5264996
-0.031571429 0.21728572 0.65000004 4609121
-0.030426666 0.21795429 0.65200001 4477535
-0.029229525 0.21828859 0.65300006 4084082
-0.02807143 0.21895716 0.65500003 4215668
-0.026946669 0.21996002 0.65800005 4019075
-0.025693335 0.21996002 0.65800005 3953282
-0.024477145 0.2202943 0.65900004 3953784
-0.023292381 0.22096285 0.66100001 3164268
-0.022033334 0.22096285 0.66100001 2506356
-0.020805717 0.22129716 0.66200006 1980012
-0.019574286 0.22163144 0.66300005 3425900
-0.018394286 0.22263429 0.66600001 5136518
-0.017125715 0.22263429 0.66600001 5791581
-0.081577145 0.22323048 0.66400003 5462618
-0.079707623 0.22154954 0.65900004 4149084
-0.078452386 0.22154954 0.65900004 1846329
-0.077080004 0.22121334 0.65800005 1191266
-0.075711429 0.22087714 0.65700001 1388645
-0.074233338 0.22020477 0.65500003 1323370
-0.072874293 0.21986859 0.65400004 1389163
-0.071519054 0.2195324 0.65300006 1520494
-0.069952384 0.21852382 0.65000004 1454701
-0.068714283 0.21852382 0.65000004 1783155
-0.067372382 0.21818763 0.64900005 2441085
-0.066136196 0.21818763 0.64900005 2901623
-0.064800002 0.21785143 0.648 3493760
-0.063467614 0.21751525 0.64700001 3690623
-0.062235236 0.21751525 0.64700001 3888002
-0.060908575 0.21717906 0.64600003 3953534
-0.059678096 0.21717906 0.64600003 3953534
-0.058447622 0.21717906 0.64600003 3822720
-0.057040006 0.21650667 0.64400005 3954306
-0.055813335 0.21650667 0.64400005 3823240
-0.054586671 0.21650667 0.64400005 3954826
-0.053360004 0.21650667 0.64400005 4414085
-0.052133337 0.21650667 0.64400005 4479878
-0.050906669 0.21650667 0.64400005 5136779
-0.049680006 0.21650667 0.64400005 5136779
-0.048453335 0.21650667 0.64400005 4874634
-0.047226671 0.21650667 0.64400005 4611462
-0.046000004 0.21650667 0.64400005 4611471
-0.044773336 0.21650667 0.64400005 4479885
-0.043681905 0.21717906 0.64600003 4283019
-0.04245143 0.21717906 0.64600003 4283019
-0.041220952 0.21717906 0.64600003 4085129
-0.039990477 0.21717906 0.64600003 3295613
-0.038820002 0.21751525 0.64700001 2638444
-0.037645712 0.21785143 0.648 4480648
-0.036467623 0.21818763 0.64900005 5661053
-0.03523143 0.21818763 0.64900005 5529467
-0.033995241 0.21818763 0.64900005 5462125
-0.032809526 0.21852382 0.65000004 5198953
-0.031571429 0.21852382 0.65000004 5067365
-0.030426666 0.2191962 0.65200001 4409435
-0.029229525 0.2195324 0.65300006 3360629
-0.02807143 0.22020477 0.65500003 4347524
-0.02698762 0.22154954 0.65900004 4545417
-0.025732381 0.22154954 0.65900004 4413831
-0.024477145 0.22154954 0.65900004 3953784
-0.023327621 0.22255811 0.66200006 3032682
-0.022100002 0.2228943 0.66300005 2638194
-0.020868571 0.22323048 0.66400003 2046057
-0.019603811 0.22323048 0.66400003 3162728
-0.018394286 0.22390287 0.66600001 5136518
-0.017125715 0.22390287 0.66600001 5725790
-0.081577145 0.22449525 0.66400003 5462870
-0.080312386 0.22449525 0.66400003 4215381
-0.078690477 0.22348095 0.66100001 1846833
-0.077431425 0.22348095 0.66100001 1125725
-0.076172382 0.22348095 0.66100001 1388897
-0.07446 0.22212857 0.65700001 1388906
-0.072985716 0.22145239 0.65500003 1388906
-0.071519054 0.2207762 0.65300006 1126768
-0.070167623 0.22043809 0.65200001 1126768
-0.068714283 0.21976192 0.65000004 1389429
-0.067372382 0.21942383 0.64900005 2047359
-0.066136196 0.21942383 0.64900005 2506876
-0.064900003 0.21942383 0.64900005 3230599
-0.063467614 0.21874763 0.64700001 3887741
-0.062235236 0.21874763 0.64700001 4019327
-0.060908575 0.21840954 0.64600003 3954306
-0.059678096 0.21840954 0.64600003 3888513
-0.058447622 0.21840954 0.64600003 3954563
-0.057040006 0.21773335 0.64400005 4020356
-0.055813335 0.21773335 0.64400005 4216974
-0.054586671 0.21773335 0.64400005 4085388
-0.053360004 0.21773335 0.64400005 3691400
-0.052133337 0.21773335 0.64400005 3757193
-0.050906669 0.21773335 0.64400005 3625609
-0.049680006 0.21773335 0.64400005 3559816
-0.048453335 0.21773335 0.64400005 3494532
-0.047373332 0.21840954 0.64600003 3494532
-0.046142858 0.21840954 0.64600003 4216972
-0.044912383 0.21840954 0.64600003 4216972
-0.043681905 0.21840954 0.64600003 5006472
-0.04245143 0.21840954 0.64600003 5203851
-0.041220952 0.21840954 0.64600003 4874634
-0.04005238 0.21874763 0.64700001 3098223
-0.038880002 0.21908571 0.648 3295870
-0.037645712 0.21908571 0.648 5006488
-0.036467623 0.21942383 0.64900005 5923709
-0.03523143 0.21942383 0.64900005 5528951
-0.033995241 0.21942383 0.64900005 5198953
-0.032809526 0.21976192 0.65000004 5133160
-0.031571429 0.21976192 0.65000004 4412267
-0.030426666 0.22043809 0.65200001 3556958
-0.029274289 0.22111429 0.65400004 3295872
-0.02807143 0.22145239 0.65500003 4348560
-0.026946669 0.22246668 0.65800005 5136009
-0.025732381 0.22280477 0.65900004 5136009
-0.024551429 0.22348095 0.66100001 4150134
-0.023327621 0.22381906 0.66200006 2900067
-0.022100002 0.22415715 0.66300005 2572149
-0.020868571 0.22449525 0.66400003 2111598
-0.019603811 0.22449525 0.66400003 2900330
-0.018394286 0.22517143 0.66600001 4939913
-0.017125715 0.22517143 0.66600001 5660508
-0.081577145 0.22576001 0.66400003 5528159
-0.080312386 0.22576001 0.66400003 4478037
-0.079047628 0.22576001 0.66400003 2175282
-0.077431425 0.22474 0.66100001 1257311
-0.075941913 0.22406001 0.65900004 1323104
-0.07446 0.22338 0.65700001 1125991
-0.072985716 0.2227 0.65500003 1125991
-0.071628578 0.22236001 0.65400004 995184
-0.070167623 0.22168 0.65200001 995184
-0.068714283 0.22100002 0.65000004 996213
-0.067476198 0.22100002 0.65000004 1522557
-0.066238098 0.22100002 0.65000004 1785209
-0.064900003 0.22066002 0.64900005 2772104
-0.063565716 0.22032 0.648 2903422
-0.062235236 0.21998 0.64700001 3363973
-0.061002858 0.21998 0.64700001 3560838
-0.059678096 0.21964 0.64600003 3626631
-0.058447622 0.21964 0.64600003 3692170
-0.057217143 0.21964 0.64600003 3626377
-0.055813335 0.21896002 0.64400005 3430799
-0.054586671 0.21896002 0.64400005 3101834
-0.053360004 0.21896002 0.64400005 3297928
-0.052133337 0.21896002 0.64400005 3363721
-0.051064763 0.21964 0.64600003 3362696
-0.049834289 0.21964 0.64600003 3428489
-0.04860381 0.21964 0.64600003 3494534
-0.047373332 0.21964 0.64600003 3757706
-0.046142858 0.21964 0.64600003 4282765
-0.044912383 0.21964 0.64600003 4480144
-0.043681905 0.21964 0.64600003 5202833
-0.042517144 0.21998 0.64700001 5531798
-0.041284762 0.21998 0.64700001 5268878
-0.04005238 0.21998 0.64700001 3163502
-0.038880002 0.22032 0.648 3296124
-0.037703812 0.22066002 0.64900005 5006742
-0.036467623 0.22066002 0.64900005 5923709
-0.03523143 0.22066002 0.64900005 5265779
-0.034047622 0.22100002 0.65000004 5067367
-0.032809526 0.22100002 0.65000004 5198953
-0.03166857 0.22168 0.65200001 4150383
-0.030473337 0.22202002 0.65300006 3229281
-0.029274289 0.22236001 0.65400004 3165047
-0.02807143 0.2227 0.65500003 4151942
-0.026946669 0.22372001 0.65800005 5004412
-0.025810476 0.22474 0.66100001 5070205
-0.024551429 0.22474 0.66100001 3888241
-0.023362858 0.22542001 0.66300005 2375002
-0.022133335 0.22576001 0.66400003 2047347
-0.020868571 0.22576001 0.66400003 1784175
-0.019603811 0.22576001 0.66400003 2505584
-0.018394286 0.22644001 0.66600001 4742546
-0.017125715 0.22644001 0.66600001 5594715
-0.015857141 0.22644001 0.66600001 5660508
-0.080312386 0.22702476 0.66400003 4478037
-0.079047628 0.22702476 0.66400003 2175282
-0.077431425 0.22599906 0.66100001 1454179
-0.075941913 0.22531524 0.65900004 1585765
-0.074573338 0.22497335 0.65800005 1060200
-0.07320857 0.22463143 0.65700001 1125993
-0.071738102 0.22394761 0.65500003 929391
-0.070275247 0.22326383 0.65300006 1060977
-0.068925716 0.22292191 0.65200001 1062260
-0.067476198 0.22223809 0.65000004 1457018
-0.066238098 0.22223809 0.65000004 2310010
-0.064900003 0.2218962 0.64900005 2704768
-0.063663818 0.2218962 0.64900005 2968186
-0.062331427 0.22155429 0.648 2968186
-0.061002858 0.22121239 0.64700001 2640513
-0.059678096 0.22087049 0.64600003 2574720
-0.058447622 0.22087049 0.64600003 2378118
-0.057217143 0.22087049 0.64600003 2114946
-0.055986669 0.22087049 0.64600003 2049927
-0.054756194 0.22087049 0.64600003 1984134
-0.053525716 0.22087049 0.64600003 2837129
-0.052295242 0.22087049 0.64600003 3297680
-0.051064763 0.22087049 0.64600003 3560073
-0.049834289 0.22087049 0.64600003 3625866
-0.04860381 0.22087049 0.64600003 3888520
-0.047373332 0.22087049 0.64600003 4151692
-0.046142858 0.22087049 0.64600003 4413835
-0.044912383 0.22087049 0.64600003 4742800
-0.043681905 0.22087049 0.64600003 5399190
-0.042517144 0.22121239 0.64700001 5399190
-0.041284762 0.22121239 0.64700001 5203076
-0.04005238 0.22121239 0.64700001 4150388
-0.038880002 0.22155429 0.648 4544133
-0.037703812 0.2218962 0.64900005 5531028
-0.036467623 0.2218962 0.64900005 5988210
-0.035285715 0.22223809 0.65000004 5330280
-0.034047622 0.22223809 0.65000004 5067115
-0.032910477 0.22292191 0.65200001 5264494
-0.031717144 0.22326383 0.65300006 5134191
-0.030520001 0.22360572 0.65400004 5002605
-0.02931905 0.22394761 0.65500003 4675698
-0.02807143 0.22394761 0.65500003 4807284
-0.026946669 0.22497335 0.65800005 4873070
-0.025810476 0.22599906 0.66100001 4741484
-0.024551429 0.22599906 0.66100001 4084333
-0.023398096 0.22702476 0.66400003 2307922
-0.022133335 0.22702476 0.66400003 1587060
-0.020931428 0.22770858 0.66600001 1258095
-0.019662857 0.22770858 0.66600001 2176878
-0.018421907 0.22805049 0.66700006 4677012
-0.017151428 0.22805049 0.66700006 5725788
-0.080312386 0.22828953 0.66400003 4543830
-0.079047628 0.22828953 0.66400003 2306868
-0.077431425 0.2272581 0.66100001 1454179
-0.075941913 0.22657049 0.65900004 1322593
-0.074573338 0.22622669 0.65800005 1125473
-0.07320857 0.22588286 0.65700001 1191266
-0.071738102 0.22519526 0.65500003 929643
-0.070275247 0.22450763 0.65300006 1192815
-0.068925716 0.22416382 0.65200001 1521267
-0.067476198 0.2234762 0.65000004 1916025
-0.066238098 0.2234762 0.65000004 1916795
-0.064900003 0.2231324 0.64900005 2245760
-0.063663818 0.2231324 0.64900005 2574459
-0.062331427 0.22278856 0.648 2442873
-0.061002858 0.22244476 0.64700001 2442623
-0.05977048 0.22244476 0.64700001 2705795
-0.058447622 0.22210096 0.64600003 2246021
-0.057217143 0.22210096 0.64600003 1917056
-0.055986669 0.22210096 0.64600003 1917569
-0.054756194 0.22210096 0.64600003 2246534
-0.053525716 0.22210096 0.64600003 2706052
-0.052295242 0.22210096 0.64600003 3035017
-0.05114381 0.22244476 0.64700001 3494534
-0.049911428 0.22244476 0.64700001 3626120
-0.04867905 0.22244476 0.64700001 3888518
-0.047446668 0.22244476 0.64700001 4085897
-0.046214286 0.22244476 0.64700001 4479624
-0.044981908 0.22244476 0.64700001 4677003
-0.043749522 0.22244476 0.64700001 4808075
-0.042582858 0.22278856 0.648 4939661
-0.041348573 0.22278856 0.648 5267837
-0.040114284 0.22278856 0.648 4807286
-0.038940005 0.2231324 0.64900005 5461626
-0.037703812 0.2231324 0.64900005 6119556
-0.036523812 0.2234762 0.65000004 6315374
-0.035285715 0.2234762 0.65000004 5460065
-0.034047622 0.2234762 0.65000004 5328999
-0.032910477 0.22416382 0.65200001 5592171
-0.031717144 0.22450763 0.65300006 5461875
-0.030566668 0.22519526 0.65500003 5593461
-0.02931905 0.22519526 0.65500003 5593711
-0.028157143 0.22588286 0.65700001 5462125
-0.02698762 0.22657049 0.65900004 5200236
-0.025810476 0.2272581 0.66100001 5331822
-0.024588574 0.22760193 0.66200006 4084585
-0.023398096 0.22828953 0.66400003 2571346
-0.0222 0.22897714 0.66600001 2045296
-0.020931428 0.22897714 0.66600001 1453159
-0.019662857 0.22897714 0.66600001 1914203
-0.018421907 0.22932097 0.66700006 4545923
-0.017151428 0.22932097 0.66700006 5987935
-0.078690477 0.22851714 0.66100001 2699573
-0.077431425 0.22851714 0.66100001 1454179
-0.075826667 0.22748001 0.65800005 1388386
-0.074573338 0.22748001 0.65800005 1059932
-0.07320857 0.22713429 0.65700001 1059932
-0.071738102 0.22644287 0.65500003 929643
-0.070382863 0.22609717 0.65400004 1192815
-0.06903144 0.22575144 0.65300006 1653105
-0.067683809 0.22540572 0.65200001 2311035
-0.066238098 0.22471429 0.65000004 2048885
-0.064999998 0.22471429 0.65000004 1654127
-0.063663818 0.22436859 0.64900005 1390462
-0.062331427 0.22402285 0.648 1258876
-0.061097141 0.22402285 0.648 2311296
-0.05977048 0.22367714 0.64700001 2574468
-0.058538094 0.22367714 0.64700001 2181252
-0.057217143 0.22333144 0.64600003 1786494
-0.055986669 0.22333144 0.64600003 1917567
-0.054756194 0.22333144 0.64600003 2180739
-0.053525716 0.22333144 0.64600003 2706052
-0.052376192 0.22367714 0.64700001 2969224
-0.05114381 0.22367714 0.64700001 3625350
-0.049911428 0.22367714 0.64700001 3888522
-0.04867905 0.22367714 0.64700001 4281477
-0.04752 0.22402285 0.648 4413063
-0.046214286 0.22367714 0.64700001 4741251
-0.044981908 0.22367714 0.64700001 4872837
-0.04381714 0.22402285 0.648 5201023
-0.042582858 0.22402285 0.648 5201023
-0.041348573 0.22402285 0.648 5332340
-0.04017619 0.22436859 0.64900005 5463926
-0.038940005 0.22436859 0.64900005 5790838
-0.037703812 0.22436859 0.64900005 5922424
-0.036523812 0.22471429 0.65000004 5987179
-0.035285715 0.22471429 0.65000004 5197663
-0.034152381 0.22540572 0.65200001 5132397
-0.032960951 0.22575144 0.65300006 5592948
-0.031765718 0.22609717 0.65400004 5987706
-0.030566668 0.22644287 0.65500003 5921913
-0.02931905 0.22644287 0.65500003 5725547
-0.028157143 0.22713429 0.65700001 5462375
-0.02698762 0.22782572 0.65900004 5200236
-0.025849525 0.22886287 0.66200006 5331822
-0.024625717 0.22920859 0.66300005 4807016
-0.023398096 0.2295543 0.66400003 3885914
-0.0222 0.23024571 0.66600001 1653107
-0.020962859 0.23059145 0.66700006 600419
-0.019692382 0.23059145 0.66700006 1322071
-0.018421907 0.23059145 0.66700006 4216963
-0.017151428 0.23059145 0.66700006 5791331
-0.077080004 0.22873335 0.65800005 1454179
-0.075826667 0.22873335 0.65800005 1322593
-0.074573338 0.22873335 0.65800005 1059680
-0.07320857 0.22838572 0.65700001 1059680
-0.071738102 0.22769049 0.65500003 1191788
-0.070382863 0.22734287 0.65400004 1389167
-0.06903144 0.22699524 0.65300006 1587312
-0.067683809 0.22664763 0.65200001 2376828
-0.066238098 0.22595239 0.65000004 2377591
-0.064999998 0.22595239 0.65000004 1588075
-0.063663818 0.22560479 0.64900005 1455474
-0.062427621 0.22560479 0.64900005 1652853
-0.061097141 0.22525714 0.648 1851504
-0.059862856 0.22525714 0.648 2377848
-0.058538094 0.22490951 0.64700001 2903676
-0.057305716 0.22490951 0.64700001 2179953
-0.056073334 0.22490951 0.64700001 1720949
-0.054840952 0.22490951 0.64700001 1984121
-0.053608574 0.22490951 0.64700001 2837113
-0.052376192 0.22490951 0.64700001 3100285
-0.05114381 0.22490951 0.64700001 4149886
-0.049911428 0.22490951 0.64700001 4281472
-0.048754286 0.22525714 0.648 4543863
-0.04752 0.22525714 0.648 4807035
-0.046214286 0.22490951 0.64700001 5200251
-0.044981908 0.22490951 0.64700001 5331837
-0.04381714 0.22525714 0.648 5462906
-0.042582858 0.22525714 0.648 5594492
-0.041412383 0.22560479 0.64900005 5791090
-0.04017619 0.22560479 0.64900005 5856883
-0.038940005 0.22560479 0.64900005 5988469
-0.037761904 0.22595239 0.65000004 5791090
-0.036523812 0.22595239 0.65000004 5921390
-0.035394285 0.22664763 0.65200001 5395046
-0.034152381 0.22664763 0.65200001 5460585
-0.032960951 0.22699524 0.65300006 5723757
-0.031765718 0.22734287 0.65400004 5856374
-0.030566668 0.22769049 0.65500003 5790581
-0.02940857 0.22838572 0.65700001 5724784
-0.028200002 0.22873335 0.65800005 5593198
-0.027069524 0.22977619 0.66100001 5462125
-0.025849525 0.23012383 0.66200006 5527918
-0.024625717 0.23047143 0.66300005 5070197
-0.023468571 0.23151428 0.66600001 4543853
-0.022233333 0.23186192 0.66700006 3163498
-0.020962859 0.23186192 0.66700006 1189708
-0.019692382 0.23186192 0.66700006 1386837
-0.018421907 0.23186192 0.66700006 4610694
-0.017151428 0.23186192 0.66700006 5594204
-0.077080004 0.22998668 0.65800005 1519972
-0.075826667 0.22998668 0.65800005 1388386
-0.074573338 0.22998668 0.65800005 798048
-0.07320857 0.22963715 0.65700001 798048
-0.071738102 0.2289381 0.65500003 994157
-0.070382863 0.2285886 0.65400004 1191536
-0.06903144 0.22823906 0.65300006 2047599
-0.067787625 0.22823906 0.65300006 2442357
-0.066441901 0.22788952 0.65200001 1918834
-0.064999998 0.22719049 0.65000004 1195111
-0.063761905 0.22719049 0.65000004 1521519
-0.062427621 0.22684096 0.64900005 3100551
-0.061191436 0.22684096 0.64900005 4676200
-0.059862856 0.22649142 0.648 4807786
-0.05862857 0.22649142 0.648 4807023
-0.057305716 0.2261419 0.64700001 4214886
-0.056073334 0.2261419 0.64700001 4346995
-0.054840952 0.2261419 0.64700001 4544374
-0.053608574 0.2261419 0.64700001 4806771
-0.052376192 0.2261419 0.64700001 5135736
-0.05114381 0.2261419 0.64700001 5266811
-0.049911428 0.2261419 0.64700001 5332604
-0.048754286 0.22649142 0.648 5595514
-0.04752 0.22649142 0.648 5661307
-0.046285711 0.22649142 0.648 5792121
-0.045051429 0.22649142 0.648 5923707
-0.04381714 0.22649142 0.648 5923707
-0.042648572 0.22684096 0.64900005 5857914
-0.041412383 0.22684096 0.64900005 6055543
-0.04017619 0.22684096 0.64900005 6121336
-0.038940005 0.22684096 0.64900005 6186098
-0.037761904 0.22719049 0.65000004 5791340
-0.036523812 0.22719049 0.65000004 5659497
-0.035394285 0.22788952 0.65200001 5198946
-0.034152381 0.22788952 0.65200001 5395046
-0.033011429 0.2285886 0.65400004 5592425
-0.031814288 0.2289381 0.65500003 5395819
-0.030566668 0.2289381 0.65500003 5527405
-0.02940857 0.22963715 0.65700001 5462125
-0.028200002 0.22998668 0.65800005 5593711
-0.027069524 0.23103525 0.66100001 5397615
-0.025849525 0.23138478 0.66200006 5594994
-0.024662858 0.23208383 0.66400003 5595514
-0.023468571 0.23278286 0.66600001 5069170
-0.022233333 0.23313239 0.66700006 3230570
-0.020962859 0.23313239 0.66700006 730436
-0.019692382 0.23313239 0.66700006 1321839
-0.018421907 0.23313239 0.66700006 4479903
-0.017151428 0.23313239 0.66700006 5726040
-0.077197149 0.23159145 0.65900004 1586017
-0.075941913 0.23159145 0.65900004 1322845
-0.074686669 0.23159145 0.65900004 1125473
-0.07320857 0.23088856 0.65700001 993887
-0.071738102 0.23018572 0.65500003 994157
-0.070382863 0.2298343 0.65400004 1652087
-0.069137141 0.2298343 0.65400004 2311019
-0.067787625 0.22948287 0.65300006 2245226
-0.066543818 0.22948287 0.65300006 1589363
-0.064999998 0.22842857 0.65000004 865640
-0.063761905 0.22842857 0.65000004 1520740
-0.062523812 0.22842857 0.65000004 4218253
-0.061191436 0.22807716 0.64900005 5397615
-0.059955239 0.22807716 0.64900005 5463408
-0.058719054 0.22807716 0.64900005 5725045
-0.057394285 0.22772571 0.648 5396080
-0.056159999 0.22772571 0.648 5395819
-0.054925714 0.22772571 0.648 5527405
-0.053691428 0.22772571 0.648 5527666
-0.052457143 0.22772571 0.648 5988217
-0.051222857 0.22772571 0.648 5791871
-0.049988572 0.22772571 0.648 5726078
-0.048754286 0.22772571 0.648 5727100
-0.04752 0.22772571 0.648 5661307
-0.046285711 0.22772571 0.648 5595512
-0.045051429 0.22772571 0.648 5924477
-0.04381714 0.22772571 0.648 5990268
-0.042648572 0.22807716 0.64900005 5924475
-0.041412383 0.22807716 0.64900005 5924475
-0.04017619 0.22807716 0.64900005 5990268
-0.038940005 0.22807716 0.64900005 6317432
-0.037761904 0.22842857 0.65000004 5593709
-0.036523812 0.22842857 0.65000004 5658218
-0.035394285 0.22913143 0.65200001 5395046
-0.034152381 0.22913143 0.65200001 5395042
-0.033011429 0.2298343 0.65400004 5460835
-0.031814288 0.23018572 0.65500003 5330280
-0.030566668 0.23018572 0.65500003 5659245
-0.02940857 0.23088856 0.65700001 5593709
-0.028200002 0.23124002 0.65800005 5725295
-0.027069524 0.23229429 0.66100001 5529199
-0.025849525 0.23264572 0.66200006 5463406
-0.024662858 0.23334858 0.66400003 5594742
-0.023468571 0.23405142 0.66600001 5594742
-0.022233333 0.23440287 0.66700006 4084585
-0.020962859 0.23440287 0.66700006 1189693
-0.019692382 0.23440287 0.66700006 1584734
-0.018421907 0.23440287 0.66700006 4413833
-0.078928575 0.23426002 0.66300005 3159861
-0.077431425 0.23355334 0.66100001 2044769
-0.076172382 0.23355334 0.66100001 1650011
-0.074686669 0.23284668 0.65900004 1059430
-0.073320009 0.23249336 0.65800005 993637
-0.071957141 0.23214 0.65700001 798318
-0.070490479 0.23143333 0.65500003 1785213
-0.069137141 0.23108001 0.65400004 2377064
-0.067787625 0.23072667 0.65300006 2245478
-0.066543818 0.23072667 0.65300006 1786224
-0.065200001 0.23037332 0.65200001 1325673
-0.063761905 0.22966668 0.65000004 2965621
-0.062523812 0.22966668 0.65000004 4807825
-0.061285719 0.22966668 0.65000004 5462118
-0.059955239 0.22931336 0.64900005 5462118
-0.058719054 0.22931336 0.64900005 5593711
-0.057482861 0.22931336 0.64900005 5791090
-0.056246672 0.22931336 0.64900005 6054762
-0.055010479 0.22931336 0.64900005 6054762
-0.05377429 0.22931336 0.64900005 6317684
-0.052538101 0.22931336 0.64900005 6778235
-0.051301908 0.22931336 0.64900005 6581385
-0.050065719 0.22931336 0.64900005 6384006
-0.048829526 0.22931336 0.64900005 5925247
-0.047593337 0.22931336 0.64900005 5859454
-0.046357144 0.22931336 0.64900005 5990270
-0.045120955 0.22931336 0.64900005 6056063
-0.043884765 0.22931336 0.64900005 6056063
-0.042648572 0.22931336 0.64900005 6056063
-0.041412383 0.22931336 0.64900005 6056061
-0.04017619 0.22931336 0.64900005 5990268
-0.038940005 0.22931336 0.64900005 6120555
-0.037761904 0.22966668 0.65000004 5396832
-0.036636192 0.23037332 0.65200001 5198444
-0.035394285 0.23037332 0.65200001 5132651
-0.034204766 0.23072667 0.65300006 5198167
-0.033011429 0.23108001 0.65400004 5395546
-0.031814288 0.23143333 0.65500003 5395569
-0.03066 0.23214 0.65700001 5724534
-0.029453335 0.23249336 0.65800005 5856881
-0.02824286 0.23284668 0.65900004 5791088
-0.02711048 0.23390669 0.66200006 5463406
-0.025888573 0.23426002 0.66300005 5331820
-0.024662858 0.23461334 0.66400003 5463406
-0.023468571 0.23532 0.66600001 5594992
-0.022233333 0.23567335 0.66700006 4477535
-0.020962859 0.23567335 0.66700006 1648436
-0.019692382 0.23567335 0.66700006 1715052
-0.018421907 0.23567335 0.66700006 4280979
-0.078928575 0.23552287 0.66300005 3094581
-0.077665716 0.23552287 0.66300005 2176355
-0.076172382 0.23481239 0.66100001 1715804
-0.074686669 0.23410192 0.65900004 1125473
-0.073320009 0.23374668 0.65800005 928094
-0.071957141 0.23339143 0.65700001 732271
-0.070490479 0.23268096 0.65500003 1521787
-0.069137141 0.23232573 0.65400004 2179687
-0.067787625 0.23197049 0.65300006 2311273
-0.066543818 0.23197049 0.65300006 2113642
-0.065200001 0.23161523 0.65200001 2837365
-0.063761905 0.23090477 0.65000004 4412267
-0.062523812 0.23090477 0.65000004 5004404
-0.061285719 0.23090477 0.65000004 5396325
