# .PCD v0.7 - Point Cloud Data file format
VERSION 0.7
FIELDS x y z rgba
SIZE 4 4 4 4
TYPE F F F U
COUNT 1 1 1 1
WIDTH 1122
HEIGHT 1
VIEWPOINT 0 0 0 1 0 0 0
POINTS 1122
DATA ascii
-0.028800001 0.18496001 0.67200005 11703280
-0.027642857 0.18578571 0.67500001 11965180
-0.026396191 0.18606097 0.67600006 10517734
-0.025220001 0.18688667 0.67900002 10383063
-0.023961904 0.18716191 0.68000001 8869824
-0.022766666 0.18798763 0.68300003 6247101
-0.021497143 0.18826286 0.68400002 7431375
-0.020194286 0.18826286 0.68400002 5732328
-0.01889143 0.18826286 0.68400002 4548054
-0.017665716 0.18908858 0.68700004 6781913
-0.083788574 0.18901142 0.68200004 9869752
-0.08212667 0.18818 0.67900002 7701700
-0.080833331 0.18818 0.67900002 3622534
-0.079422861 0.18790285 0.67800003 4741320
-0.077900954 0.18734859 0.67600006 5596629
-0.076386668 0.18679428 0.67400002 7623841
-0.075102858 0.18679428 0.67400002 8413357
-0.073600002 0.18624002 0.67200005 9461691
-0.072212376 0.18596286 0.671 10317000
-0.070934288 0.18596286 0.671 11241693
-0.069552377 0.18568571 0.67000002 12162795
-0.068276189 0.18568571 0.67000002 11570928
-0.066999994 0.18568571 0.67000002 10847205
-0.065527618 0.18513145 0.66800004 11042277
-0.064159051 0.1848543 0.66700006 10910691
-0.062888578 0.1848543 0.66700006 10843614
-0.061618101 0.1848543 0.66700006 10580442
-0.060257144 0.18457714 0.66600001 10908124
-0.058988571 0.18457714 0.66600001 11039710
-0.057546668 0.18402287 0.66400003 10842590
-0.056281909 0.18402287 0.66400003 10842590
-0.055017143 0.18402287 0.66400003 10973665
-0.053752381 0.18402287 0.66400003 11105251
-0.052487623 0.18402287 0.66400003 11039465
-0.051222861 0.18402287 0.66400003 11039465
-0.049958095 0.18402287 0.66400003 10844139
-0.048693337 0.18402287 0.66400003 12028413
-0.047428574 0.18402287 0.66400003 12822015
-0.046163812 0.18402287 0.66400003 13611519
-0.044899046 0.18402287 0.66400003 13349631
-0.043634288 0.18402287 0.66400003 11836399
-0.042369526 0.18402287 0.66400003 11767295
-0.04122857 0.18457714 0.66600001 11833087
-0.039960001 0.18457714 0.66600001 12688383
-0.038691428 0.18457714 0.66600001 12885759
-0.03747905 0.1848543 0.66700006 12689919
-0.036208577 0.1848543 0.66700006 13282047
-0.034990478 0.18513145 0.66800004 13217023
-0.033718098 0.18513145 0.66800004 13151231
-0.032542858 0.18568571 0.67000002 13151743
-0.031313334 0.18596286 0.671 12362234
-0.030035239 0.18596286 0.671 11638250
-0.028800001 0.18624002 0.67200005 12361973
-0.027642857 0.18707143 0.67500001 12755691
-0.026396191 0.18734859 0.67600006 10058178
-0.025257142 0.18845715 0.68000001 8935890
-0.024032382 0.18901142 0.68200004 9264855
-0.022766666 0.18928857 0.68300003 7960277
-0.021497143 0.18956572 0.68400002 7631312
-0.020194286 0.18956572 0.68400002 5469415
-0.018946668 0.19012001 0.68600005 4745692
-0.017665716 0.19039714 0.68700004 7176153
-0.083542861 0.18975239 0.68000001 9804221
-0.08212667 0.18947333 0.67900002 8095427
-0.080833331 0.18947333 0.67900002 4411019
-0.079422861 0.18919429 0.67800003 4280508
-0.077900954 0.18863621 0.67600006 5596368
-0.076500006 0.18835714 0.67500001 7952829
-0.075102858 0.18807811 0.67400002 8216001
-0.073819049 0.18807811 0.67400002 8737189
-0.072320007 0.18752001 0.67200005 9724084
-0.070934288 0.18724094 0.671 11241441
-0.069656193 0.18724094 0.671 11833578
-0.068276189 0.1869619 0.67000002 11045877
-0.066999994 0.1869619 0.67000002 11506428
-0.065723814 0.1869619 0.67000002 11310847
-0.064255238 0.18640383 0.66800004 10850297
-0.062982857 0.18640383 0.66800004 10847217
-0.061618101 0.18612477 0.66700006 10978803
-0.060257144 0.18584572 0.66600001 11109101
-0.058988571 0.18584572 0.66600001 11109101
-0.057719998 0.18584572 0.66600001 11371510
-0.056451429 0.18584572 0.66600001 11305717
-0.055182859 0.18584572 0.66600001 11174133
-0.053752381 0.18528764 0.66400003 11305719
-0.052487623 0.18528764 0.66400003 11437567
-0.051222861 0.18528764 0.66400003 11371775
-0.049958095 0.18528764 0.66400003 11110143
-0.048693337 0.18528764 0.66400003 11504895
-0.047428574 0.18528764 0.66400003 12297471
-0.046163812 0.18528764 0.66400003 13021183
-0.044899046 0.18528764 0.66400003 12694783
-0.043634288 0.18528764 0.66400003 12036860
-0.042497143 0.18584572 0.66600001 11770623
-0.04122857 0.18584572 0.66600001 12362751
-0.040020004 0.18612477 0.66700006 12626687
-0.038749527 0.18612477 0.66700006 12297727
-0.03747905 0.18612477 0.66700006 12166655
-0.036262862 0.18640383 0.66800004 12627199
-0.035095241 0.1869619 0.67000002 12299007
-0.03381905 0.1869619 0.67000002 12167423
-0.032591429 0.18724094 0.671 12495871
-0.031313334 0.18724094 0.671 11245811
-0.030080002 0.18752001 0.67200005 10255582
-0.028885717 0.18807811 0.67400002 12360958
-0.027683811 0.18863621 0.67600006 12887804
-0.026474288 0.18919429 0.67800003 9400775
-0.02533143 0.19031049 0.68200004 8673731
-0.024032382 0.19031049 0.68200004 10055384
-0.0228 0.19086857 0.68400002 7962347
-0.021560002 0.19142668 0.68600005 6449108
-0.020253334 0.19142668 0.68600005 5205210
-0.018946668 0.19142668 0.68600005 5336796
-0.017665716 0.19170573 0.68700004 7635418
-0.083542861 0.19104762 0.68000001 9870267
-0.08212667 0.19076668 0.67900002 9082808
-0.080833331 0.19076668 0.67900002 5135228
-0.079422861 0.19048572 0.67800003 3429071
-0.077900954 0.18992382 0.67600006 5139689
-0.076500006 0.18964286 0.67500001 7825613
-0.075214282 0.18964286 0.67500001 6641339
-0.073819049 0.1893619 0.67400002 7421093
-0.072320007 0.18880002 0.67200005 9394883
-0.070934288 0.18851905 0.671 10057410
-0.069656193 0.18851905 0.671 11702235
-0.068378091 0.18851905 0.671 11705079
-0.066999994 0.1882381 0.67000002 12494591
-0.065723814 0.1882381 0.67000002 12494591
-0.064255238 0.18767621 0.66800004 11639288
-0.062982857 0.18767621 0.66800004 12032255
-0.061710481 0.18767621 0.66800004 13019135
-0.060347624 0.18739524 0.66700006 11900668
-0.058988571 0.18711428 0.66600001 11769082
-0.057719998 0.18711428 0.66600001 12756479
-0.056451429 0.18711428 0.66600001 13217023
-0.055182859 0.18711428 0.66600001 12888319
-0.053914286 0.18711428 0.66600001 12888319
-0.052487623 0.18655239 0.66400003 13019903
-0.051222861 0.18655239 0.66400003 12888319
-0.049958095 0.18655239 0.66400003 12625663
-0.048840001 0.18711428 0.66600001 12165119
-0.047571428 0.18711428 0.66600001 12166399
-0.046302855 0.18711428 0.66600001 13219071
-0.045034286 0.18711428 0.66600001 12958463
-0.043765716 0.18711428 0.66600001 13155839
-0.042497143 0.18711428 0.66600001 13483775
-0.041290481 0.18739524 0.66700006 14010111
-0.040020004 0.18739524 0.66700006 13680383
-0.038749527 0.18739524 0.66700006 12232942
-0.037535239 0.18767621 0.66800004 12230655
-0.036262862 0.18767621 0.66800004 12888575
-0.035095241 0.1882381 0.67000002 12429311
-0.03381905 0.1882381 0.67000002 11047664
-0.032591429 0.18851905 0.671 10849023
-0.031313334 0.18851905 0.671 10454265
-0.030080002 0.18880002 0.67200005 9926619
-0.02892857 0.18964286 0.67500001 10321377
-0.027765715 0.19048572 0.67800003 10518240
-0.026513334 0.19076668 0.67900002 7886520
-0.02533143 0.19160953 0.68200004 7297223
-0.02406762 0.19189049 0.68300003 9402599
-0.0228 0.19217142 0.68400002 7241722
-0.021560002 0.19273335 0.68600005 3623107
-0.020253334 0.19273335 0.68600005 1791719
-0.018974286 0.19301429 0.68700004 4423423
-0.017665716 0.19301429 0.68700004 7898588
-0.01657143 0.19554286 0.69600004 10398719
-0.080952384 0.19234286 0.68000001 5792654
-0.079422861 0.19177715 0.67800003 2642624
-0.077900954 0.19121145 0.67600006 3892691
-0.076500006 0.19092858 0.67500001 6975444
-0.075214282 0.19092858 0.67500001 6251721
-0.073928572 0.19092858 0.67500001 7489459
-0.072535239 0.19064572 0.67400002 8410561
-0.071040004 0.19008002 0.67200005 9527221
-0.069656193 0.18979715 0.671 12158941
-0.068378091 0.18979715 0.671 11443449
-0.067100003 0.18979715 0.671 12035583
-0.065723814 0.18951429 0.67000002 12101375
-0.064447619 0.18951429 0.67000002 11311863
-0.063171431 0.18951429 0.67000002 11704061
-0.061710481 0.18894859 0.66800004 11704061
-0.060347624 0.18866573 0.66700006 11309546
-0.058988571 0.18838286 0.66600001 11638511
-0.057719998 0.18838286 0.66600001 12429055
-0.056451429 0.18838286 0.66600001 12823807
-0.055182859 0.18838286 0.66600001 12430335
-0.053914286 0.18838286 0.66600001 12496127
-0.052645713 0.18838286 0.66600001 13549823
-0.05137714 0.18838286 0.66600001 12957692
-0.050108574 0.18838286 0.66600001 12760575
-0.048840001 0.18838286 0.66600001 11839481
-0.047571428 0.18838286 0.66600001 11838207
-0.046302855 0.18838286 0.66600001 12759295
-0.045034286 0.18838286 0.66600001 12629759
-0.043765716 0.18838286 0.66600001 12498175
-0.042497143 0.18838286 0.66600001 12563455
-0.041290481 0.18866573 0.66700006 12826623
-0.040020004 0.18866573 0.66700006 13351679
-0.038807619 0.18894859 0.66800004 11838446
-0.037535239 0.18894859 0.66800004 11177197
-0.036371432 0.18951429 0.67000002 11835127
-0.035095241 0.18951429 0.67000002 12032767
-0.033869524 0.18979715 0.671 10980079
-0.032591429 0.18979715 0.671 10715890
-0.03136 0.19008002 0.67200005 10781683
-0.030169524 0.19064572 0.67400002 9926871
-0.02892857 0.19092858 0.67500001 10255836
-0.027765715 0.19177715 0.67800003 9664754
-0.026513334 0.19206001 0.67900002 8546273
-0.02533143 0.19290859 0.68200004 7302382
-0.02406762 0.19319144 0.68300003 7433968
-0.022866668 0.19404002 0.68600005 6192125
-0.021591431 0.19432287 0.68700004 2770889
-0.020282857 0.19432287 0.68700004 1265359
-0.018974286 0.19432287 0.68700004 4620799
-0.017665716 0.19432287 0.68700004 8095706
-0.01657143 0.19686857 0.69600004 10464254
-0.015245715 0.19686857 0.69600004 10856675
-0.080952384 0.1936381 0.68000001 6581647
-0.079422861 0.19306858 0.67800003 3561920
-0.077900954 0.19249907 0.67600006 3759299
-0.076500006 0.19221428 0.67500001 5859801
-0.075214282 0.19221428 0.67500001 6846696
-0.073928572 0.19221428 0.67500001 7756752
-0.072535239 0.19192952 0.67400002 6835650
-0.071040004 0.19136001 0.67200005 7685053
-0.06976001 0.19136001 0.67200005 10711531
-0.068378091 0.19107524 0.671 10124255
-0.067100003 0.19107524 0.671 9795290
-0.065821901 0.19107524 0.671 9664996
-0.064447619 0.19079047 0.67000002 10454512
-0.063171431 0.19079047 0.67000002 10848493
-0.061710481 0.19022097 0.66800004 10585321
-0.060347624 0.18993621 0.66700006 10519510
-0.059077147 0.18993621 0.66700006 11769577
-0.057719998 0.18965143 0.66600001 12099071
-0.056451429 0.18965143 0.66600001 11901692
-0.055182859 0.18965143 0.66600001 11506423
-0.053914286 0.18965143 0.66600001 11638009
-0.052645713 0.18965143 0.66600001 11769343
-0.05137714 0.18965143 0.66600001 11835135
-0.050108574 0.18965143 0.66600001 11637503
-0.048840001 0.18965143 0.66600001 11045375
-0.047571428 0.18965143 0.66600001 10914282
-0.046302855 0.18965143 0.66600001 12098556
-0.045034286 0.18965143 0.66600001 11376383
-0.043765716 0.18965143 0.66600001 10784255
-0.042560954 0.18993621 0.66700006 9600249
-0.041352384 0.19022097 0.66800004 9666042
-0.040080003 0.19022097 0.66800004 9927921
-0.038807619 0.19022097 0.66800004 9730542
-0.03764762 0.19079047 0.67000002 9795553
-0.036371432 0.19079047 0.67000002 9598174
-0.035095241 0.19079047 0.67000002 9928418
-0.033869524 0.19107524 0.671 9796832
-0.032591429 0.19107524 0.671 9469424
-0.03136 0.19136001 0.67200005 9864182
-0.030169524 0.19192952 0.67400002 10656484
-0.02892857 0.19221428 0.67500001 11840758
-0.027765715 0.19306858 0.67800003 11908095
-0.026552381 0.1936381 0.68000001 11381758
-0.025368571 0.19449238 0.68300003 9346047
-0.024102857 0.19477715 0.68400002 6780131
-0.022900002 0.19563143 0.68700004 4550655
-0.021591431 0.19563143 0.68700004 1655765
-0.020282857 0.19563143 0.68700004 804824
-0.018974286 0.19563143 0.68700004 4423423
-0.017665716 0.19563143 0.68700004 8161751
-0.01657143 0.1981943 0.69600004 10661885
-0.015245715 0.1981943 0.69600004 11054558
-0.081190482 0.19550668 0.68200004 7042195
-0.079540007 0.19464667 0.67900002 4284854
-0.07813143 0.19436 0.67800003 4021682
-0.076613337 0.19378668 0.67600006 4218826
-0.07532572 0.19378668 0.67600006 5139928
-0.073928572 0.1935 0.67500001 7630556
-0.072642855 0.1935 0.67500001 6841040
-0.07125143 0.19321334 0.67400002 7687604
-0.06976001 0.19264002 0.67200005 10253531
-0.068480007 0.19264002 0.67200005 9859545
-0.067100003 0.19235334 0.671 9464787
-0.065821901 0.19235334 0.671 9332949
-0.064543813 0.19235334 0.671 10319844
-0.063171431 0.19206667 0.67000002 10716392
-0.061895236 0.19206667 0.67000002 10453220
-0.060438097 0.19149333 0.66800004 10254548
-0.059077147 0.19120668 0.66700006 11109857
-0.057806671 0.19120668 0.66700006 11372275
-0.056536198 0.19120668 0.66700006 11109103
-0.055265717 0.19120668 0.66700006 10977515
-0.05399524 0.19120668 0.66700006 11240687
-0.052645713 0.19092 0.66600001 11109360
-0.05137714 0.19092 0.66600001 11240946
-0.050183814 0.19120668 0.66700006 11438079
-0.048913337 0.19120668 0.66700006 11174911
-0.047642861 0.19120668 0.66700006 10781160
-0.046372388 0.19120668 0.66700006 11373297
-0.045101907 0.19120668 0.66700006 11111167
-0.04383143 0.19120668 0.66700006 10650623
-0.042624764 0.19149333 0.66800004 9664756
-0.041352384 0.19149333 0.66800004 9664756
-0.040080003 0.19149333 0.66800004 9663212
-0.038807619 0.19149333 0.66800004 10518521
-0.03764762 0.19206667 0.67000002 10324455
-0.036371432 0.19206667 0.67000002 10258662
-0.035147619 0.19235334 0.671 9996532
-0.033869524 0.19235334 0.671 10325497
-0.032591429 0.19235334 0.671 10130943
-0.03136 0.19264002 0.67200005 10130943
-0.030169524 0.19321334 0.67400002 11382271
-0.02892857 0.1935 0.67500001 12369151
-0.027765715 0.19436 0.67800003 12110079
-0.026630478 0.19550668 0.68200004 10333674
-0.025368571 0.19579335 0.68300003 8362751
-0.024102857 0.19608 0.68400002 5928422
-0.022933332 0.19722667 0.68800002 4156927
-0.021622857 0.19722667 0.68800002 1656796
-0.020312382 0.19722667 0.68800002 1329614
-0.018974286 0.19694002 0.68700004 4685055
-0.017665716 0.19694002 0.68700004 8227544
-0.016357144 0.19694002 0.68700004 10727678
-0.08130952 0.19709429 0.68300003 7305367
-0.079891428 0.19680572 0.68200004 4218807
-0.078361906 0.19622858 0.68000001 3495084
-0.076840006 0.19565143 0.67800003 3562954
-0.075548574 0.19565143 0.67800003 4747228
-0.074038103 0.1950743 0.67600006 7173612
-0.072642855 0.19478571 0.67500001 8028921
-0.07125143 0.19449714 0.67400002 8812751
-0.06996762 0.19449714 0.67400002 9339095
-0.068480007 0.19392002 0.67200005 9272550
-0.067100003 0.19363143 0.671 9469929
-0.065821901 0.19363143 0.671 9011175
-0.064543813 0.19363143 0.671 8813796
-0.063265711 0.19363143 0.671 9535720
-0.061895236 0.19334286 0.67000002 9667306
-0.060619049 0.19334286 0.67000002 9864426
-0.059165716 0.19276571 0.66800004 9930219
-0.057806671 0.19247715 0.66700006 10126833
-0.056536198 0.19247715 0.66700006 10061040
-0.055265717 0.19247715 0.66700006 10390259
-0.05399524 0.19247715 0.66700006 10456052
-0.052724764 0.19247715 0.66700006 10323939
-0.051454291 0.19247715 0.66700006 10521318
-0.050183814 0.19247715 0.66700006 10982399
-0.048913337 0.19247715 0.66700006 10916607
-0.047642861 0.19247715 0.66700006 10917375
-0.046441909 0.19276571 0.66800004 11509503
-0.045169525 0.19276571 0.66800004 11314431
-0.043897144 0.19276571 0.66800004 10393339
-0.042624764 0.19276571 0.66800004 10394367
-0.04147619 0.19334286 0.67000002 10525951
-0.040200002 0.19334286 0.67000002 10722554
-0.038923811 0.19334286 0.67000002 10985726
-0.03764762 0.19334286 0.67000002 10788838
-0.036425717 0.19363143 0.671 11315182
-0.035147619 0.19363143 0.671 11053311
-0.033869524 0.19363143 0.671 13487615
-0.032640003 0.19392002 0.67200005 13686271
-0.03136 0.19392002 0.67200005 13357311
-0.030169524 0.19449714 0.67400002 13095423
-0.02892857 0.19478571 0.67500001 13292799
-0.027765715 0.19565143 0.67800003 12504063
-0.026630478 0.19680572 0.68200004 10069728
-0.025368571 0.19709429 0.68300003 7508479
-0.024173334 0.19796002 0.68600005 5929453
-0.022933332 0.19853714 0.68800002 4617471
-0.021622857 0.19853714 0.68800002 2577905
-0.020312382 0.19853714 0.68800002 2118108
-0.018974286 0.19824858 0.68700004 4881407
-0.017665716 0.19824858 0.68700004 8227546
-0.016357144 0.19824858 0.68700004 10793471
-0.08130952 0.19839524 0.68300003 7766178
-0.079891428 0.19810477 0.68200004 4942260
-0.078361906 0.19752382 0.68000001 3757986
-0.076953337 0.19723333 0.67900002 3300806
-0.075548574 0.19694287 0.67800003 3958736
-0.074038103 0.19636193 0.67600006 6255590
-0.072750486 0.19636193 0.67600006 6979313
-0.071357146 0.19607143 0.67500001 8290268
-0.06996762 0.19578096 0.67400002 10461437
-0.068480007 0.19520003 0.67200005 10003199
-0.067100003 0.19490953 0.671 9937407
-0.065821901 0.19490953 0.671 10461951
-0.064543813 0.19490953 0.671 9869823
-0.063265711 0.19490953 0.671 8817387
-0.061895236 0.19461904 0.67000002 9277938
-0.060619049 0.19461904 0.67000002 10526207
-0.059342857 0.19461904 0.67000002 10460415
-0.057893336 0.19403809 0.66800004 10330367
-0.056620955 0.19403809 0.66800004 10396159
-0.055348575 0.19403809 0.66800004 11119359
-0.054076191 0.19403809 0.66800004 10921983
-0.052803814 0.19403809 0.66800004 9344231
-0.05153143 0.19403809 0.66800004 9936368
-0.05025905 0.19403809 0.66800004 11644671
-0.04898667 0.19403809 0.66800004 11052543
-0.047714286 0.19403809 0.66800004 10463734
-0.046580952 0.19461904 0.67000002 11976959
-0.04530476 0.19461904 0.67000002 12043775
-0.044028569 0.19461904 0.67000002 9806819
-0.042752381 0.19461904 0.67000002 9084927
-0.04147619 0.19461904 0.67000002 8821757
-0.040200002 0.19461904 0.67000002 9213183
-0.038923811 0.19461904 0.67000002 8226293
-0.037703808 0.19490953 0.671 7633372
-0.036425717 0.19490953 0.671 8488681
-0.035147619 0.19490953 0.671 8096241
-0.033920001 0.19520003 0.67200005 12241151
-0.032640003 0.19520003 0.67200005 13425151
-0.031453334 0.19578096 0.67400002 12898811
-0.030169524 0.19578096 0.67400002 12570879
-0.02897143 0.19636193 0.67600006 12768255
-0.027765715 0.19694287 0.67800003 12373503
-0.026630478 0.19810477 0.68200004 8557515
-0.025405714 0.19868572 0.68400002 6981119
-0.024208572 0.19955714 0.68700004 5073126
-0.022933332 0.19984762 0.68800002 4683519
-0.021622857 0.19984762 0.68800002 2841320
-0.020312382 0.19984762 0.68800002 2838749
-0.018974286 0.19955714 0.68700004 5602047
-0.017665716 0.19955714 0.68700004 8293085
-0.016357144 0.19955714 0.68700004 10727423
-0.080008574 0.1996962 0.68300003 5467320
-0.078592382 0.19940382 0.68200004 3032979
-0.077066667 0.19881906 0.68000001 2314958
-0.075659998 0.19852667 0.67900002 3433439
-0.074257143 0.19823429 0.67800003 4679911
-0.072750486 0.19764954 0.67600006 5798392
-0.071357146 0.19735715 0.67500001 7373028
-0.06996762 0.19706477 0.67400002 10728447
-0.068683811 0.19706477 0.67400002 11975935
-0.067200005 0.19648001 0.67200005 12699647
-0.065821901 0.19618762 0.671 12896767
-0.064543813 0.19618762 0.671 12370429
-0.063265711 0.19618762 0.671 10463484
-0.061895236 0.19589524 0.67000002 10792447
-0.060619049 0.19589524 0.67000002 10858495
-0.059342857 0.19589524 0.67000002 10003194
-0.057893336 0.19531049 0.66800004 9675263
-0.056620955 0.19531049 0.66800004 9741055
-0.055348575 0.19531049 0.66800004 10463487
-0.054076191 0.19531049 0.66800004 10660863
-0.052803814 0.19531049 0.66800004 8950758
-0.05153143 0.19531049 0.66800004 9674481
-0.05025905 0.19531049 0.66800004 10332159
-0.049133334 0.19589524 0.67000002 8818929
-0.047857143 0.19589524 0.67000002 8361438
-0.046580952 0.19589524 0.67000002 11651071
-0.04530476 0.19589524 0.67000002 11913727
-0.044028569 0.19589524 0.67000002 5597605
-0.042752381 0.19589524 0.67000002 1138166
-0.04147619 0.19589524 0.67000002 2125055
-0.040200002 0.19589524 0.67000002 6914815
-0.038923811 0.19589524 0.67000002 6717439
-0.037703808 0.19618762 0.671 7110379
-0.036425717 0.19618762 0.671 8228860
-0.035147619 0.19618762 0.671 7768540
-0.033920001 0.19648001 0.67200005 11781887
-0.032737143 0.19706477 0.67400002 13423871
-0.031500001 0.19735715 0.67500001 12831739
-0.030214285 0.19735715 0.67500001 12372479
-0.02897143 0.19764954 0.67600006 12964607
-0.027806668 0.19852667 0.67900002 12372991
-0.026630478 0.19940382 0.68200004 8096451
-0.025405714 0.19998857 0.68400002 6128127
-0.024208572 0.20086573 0.68700004 3233239
-0.022933332 0.20115809 0.68800002 1728238
-0.021622857 0.20115809 0.68800002 1267687
-0.020312382 0.20115809 0.68800002 2446049
-0.019001907 0.20115809 0.68800002 5406719
-0.017691428 0.20115809 0.68800002 8490466
-0.016380953 0.20115809 0.68800002 10793215
-0.080125719 0.20129143 0.68400002 5993905
-0.078707621 0.20099716 0.68300003 3099013
-0.077293336 0.20070286 0.68200004 2577605
-0.075659998 0.19982 0.67900002 3235535
-0.074257143 0.19952573 0.67800003 4089822
-0.072750486 0.19893716 0.67600006 5339889
-0.071462862 0.19893716 0.67600006 6389995
-0.070071429 0.19864285 0.67500001 9482239
-0.068683811 0.19834858 0.67400002 10992639
-0.067200005 0.19776 0.67200005 11847935
-0.065920003 0.19776 0.67200005 12503807
-0.06464 0.19776 0.67200005 11714296
-0.063360006 0.19776 0.67200005 9018367
-0.062080003 0.19776 0.67200005 9807871
-0.060709521 0.19746572 0.671 10006271
-0.059431426 0.19746572 0.671 8361456
-0.058153335 0.19746572 0.671 7705855
-0.056790475 0.19717142 0.67000002 7508479
-0.055514287 0.19717142 0.67000002 7572981
-0.054238096 0.19717142 0.67000002 8033532
-0.052961905 0.19717142 0.67000002 6650598
-0.051685713 0.19717142 0.67000002 8492799
-0.050409522 0.19717142 0.67000002 8692223
-0.049206667 0.19746572 0.671 7507960
-0.047928572 0.19746572 0.671 7510233
-0.046650477 0.19746572 0.671 10799871
-0.045372378 0.19746572 0.671 11718911
-0.044094287 0.19746572 0.671 7113406
-0.042816192 0.19746572 0.671 3831293
-0.041538097 0.19746572 0.671 5015551
-0.040259998 0.19746572 0.671 9019903
-0.038981903 0.19746572 0.671 8954111
-0.037760001 0.19776 0.67200005 8229884
-0.036480006 0.19776 0.67200005 7900919
-0.035200004 0.19776 0.67200005 7438305
-0.034020953 0.19834858 0.67400002 11254271
-0.032785714 0.19864285 0.67500001 11649535
-0.031546671 0.19893716 0.67600006 11320575
-0.03025905 0.19893716 0.67600006 11648255
-0.029057145 0.19952573 0.67800003 12437759
-0.027929526 0.20070286 0.68200004 12306687
-0.026708571 0.20129143 0.68400002 7898563
-0.025480002 0.20188001 0.68600005 5996031
-0.024208572 0.20217429 0.68700004 3627486
-0.022933332 0.20246857 0.68800002 2645745
-0.021685716 0.20305716 0.69000006 1593057
-0.02037143 0.20305716 0.69000006 2444502
-0.019057145 0.20305716 0.69000006 5931519
-0.017742857 0.20305716 0.69000006 8622304
-0.016428573 0.20305716 0.69000006 10530301
-0.080360003 0.20318668 0.68600005 7044263
-0.078822859 0.20259428 0.68400002 3491441
-0.077406667 0.2022981 0.68300003 2511560
-0.07599429 0.20200193 0.68200004 2972111
-0.074366666 0.20111334 0.67900002 3957982
-0.072965719 0.20081715 0.67800003 5800186
-0.071462862 0.20022479 0.67600006 6980853
-0.070175245 0.20022479 0.67600006 8757247
-0.068785712 0.19992857 0.67500001 11319295
-0.067400001 0.19963239 0.67400002 12043007
-0.066116191 0.19963239 0.67400002 12174591
-0.064832382 0.19963239 0.67400002 11582460
-0.063360006 0.19904001 0.67200005 9084415
-0.062080003 0.19904001 0.67200005 8755455
-0.060800005 0.19904001 0.67200005 9019135
-0.059431426 0.19874381 0.671 8163837
-0.058153335 0.19874381 0.671 8757247
-0.05687524 0.19874381 0.671 8888831
-0.055597141 0.19874381 0.671 9545210
-0.054319046 0.19874381 0.671 9874175
-0.053040951 0.19874381 0.671 9019135
-0.051762857 0.19874381 0.671 8755967
-0.050484762 0.19874381 0.671 8888575
-0.049206667 0.19874381 0.671 8099071
-0.047928572 0.19874381 0.671 7969008
-0.046650477 0.19874381 0.671 10798079
-0.045372378 0.19874381 0.671 12177663
-0.044094287 0.19874381 0.671 10861808
-0.042816192 0.19874381 0.671 9351423
-0.041538097 0.19874381 0.671 8693503
-0.040259998 0.19874381 0.671 9285119
-0.038981903 0.19874381 0.671 9285119
-0.037760001 0.19904001 0.67200005 7966975
-0.036480006 0.19904001 0.67200005 7703807
-0.035200004 0.19904001 0.67200005 8161784
-0.034020953 0.19963239 0.67400002 8885503
-0.032785714 0.19992857 0.67500001 9543917
-0.031546671 0.20022479 0.67600006 10399226
-0.03025905 0.20022479 0.67600006 10990591
-0.029100001 0.20111334 0.67900002 11451135
-0.027929526 0.20200193 0.68200004 10860799
-0.026708571 0.20259428 0.68400002 7373775
-0.025480002 0.20318668 0.68600005 6128895
-0.024208572 0.20348287 0.68700004 3365597
-0.022933332 0.20377904 0.68800002 2383095
-0.021685716 0.20437144 0.69000006 935649
-0.02037143 0.20437144 0.69000006 869849
-0.019057145 0.20437144 0.69000006 5277951
-0.017742857 0.20437144 0.69000006 9346009
-0.080360003 0.20449334 0.68600005 7438262
-0.078822859 0.20389715 0.68400002 3819647
-0.077520005 0.20389715 0.68400002 2839742
-0.076105714 0.20359905 0.68300003 3431879
-0.074695244 0.20330097 0.68200004 3891678
-0.073073335 0.20240667 0.67900002 5733882
-0.071674287 0.20210858 0.67800003 8032503
-0.070175245 0.2015124 0.67600006 9150975
-0.068887629 0.2015124 0.67600006 10858495
-0.067500003 0.2012143 0.67500001 11647999
-0.066214286 0.2012143 0.67500001 11516927
-0.064832382 0.2009162 0.67400002 10990591
-0.063548572 0.2009162 0.67400002 8626175
-0.062264767 0.2009162 0.67400002 8428799
-0.060800005 0.20032001 0.67200005 9018623
-0.059520006 0.20032001 0.67200005 8755455
-0.058153335 0.20002189 0.671 9544703
-0.05687524 0.20002189 0.671 9807871
-0.055597141 0.20002189 0.671 10267391
-0.054319046 0.20002189 0.671 10267391
-0.053040951 0.20002189 0.671 10531839
-0.051762857 0.20002189 0.671 10268671
-0.050484762 0.20002189 0.671 10399999
-0.049206667 0.20002189 0.671 9742078
-0.047928572 0.20002189 0.671 8428542
-0.046720002 0.20032001 0.67200005 10731263
-0.04544 0.20032001 0.67200005 12964607
-0.044160005 0.20032001 0.67200005 11517165
-0.042816192 0.20002189 0.671 10598655
-0.041538097 0.20002189 0.671 10335487
-0.040259998 0.20002189 0.671 8826367
-0.039040003 0.20032001 0.67200005 8497407
-0.037760001 0.20032001 0.67200005 7244799
-0.036588576 0.2009162 0.67400002 7507967
-0.035304762 0.2009162 0.67400002 8229119
-0.034071431 0.2012143 0.67500001 8623871
-0.032834288 0.2015124 0.67600006 8558067
-0.031546671 0.2015124 0.67600006 9610751
-0.030348573 0.20210858 0.67800003 10399231
-0.029142857 0.20270476 0.68000001 10465023
-0.027970478 0.20359905 0.68300003 9349119
-0.026786668 0.20449334 0.68600005 7046376
-0.025480002 0.20449334 0.68600005 6391807
-0.024208572 0.20479143 0.68700004 3891689
-0.022933332 0.20508952 0.68800002 2383095
-0.021685716 0.20568573 0.69000006 1001442
-0.02037143 0.20568573 0.69000006 1196752
-0.019057145 0.20568573 0.69000006 5670655
-0.017742857 0.20568573 0.69000006 9543136
-0.080477148 0.20610002 0.68700004 7832250
-0.079053335 0.20580001 0.68600005 3095154
-0.077746667 0.20580001 0.68600005 1065920
-0.076217145 0.2052 0.68400002 2908124
-0.074804768 0.2049 0.68300003 3891678
-0.073396191 0.20460002 0.68200004 5207538
-0.071780004 0.20370001 0.67900002 7571439
-0.070382856 0.2034 0.67800003 8821503
-0.068887629 0.20280002 0.67600006 10727401
-0.067500003 0.2025 0.67500001 11253745
-0.066214286 0.2025 0.67500001 10596094
-0.064928576 0.2025 0.67500001 7174858
-0.063642859 0.2025 0.67500001 6784505
-0.062264767 0.20220001 0.67400002 7179263
-0.06098095 0.20220001 0.67400002 7572223
-0.059520006 0.20160002 0.67200005 7901183
-0.058240004 0.20160002 0.67200005 7770111
-0.056960005 0.20160002 0.67200005 9020159
-0.055680003 0.20160002 0.67200005 9809407
-0.054400001 0.20160002 0.67200005 9283071
-0.053120002 0.20160002 0.67200005 9349119
-0.051840004 0.20160002 0.67200005 9414911
-0.050560005 0.20160002 0.67200005 9808895
-0.049280003 0.20160002 0.67200005 10203647
-0.048000004 0.20160002 0.67200005 9020415
-0.046720002 0.20160002 0.67200005 10599423
-0.04544 0.20160002 0.67200005 11518463
-0.044160005 0.20160002 0.67200005 10663162
-0.042880002 0.20160002 0.67200005 10467327
-0.041600004 0.20160002 0.67200005 10598911
-0.040320002 0.20160002 0.67200005 9613055
-0.039040003 0.20160002 0.67200005 9020927
-0.037872382 0.20220001 0.67400002 9282047
-0.036588576 0.20220001 0.67400002 9216255
-0.035304762 0.20220001 0.67400002 9017343
-0.034071431 0.2025 0.67500001 9083135
-0.032834288 0.20280002 0.67600006 8558847
-0.031640001 0.2034 0.67800003 8822015
-0.030348573 0.2034 0.67800003 8756991
-0.029142857 0.204 0.68000001 8625407
-0.027970478 0.2049 0.68300003 8166655
-0.026786668 0.20580001 0.68600005 5798119
-0.025517143 0.20610002 0.68700004 5341695
-0.024208572 0.20610002 0.68700004 4157437
-0.022933332 0.20639999 0.68800002 2842623
-0.021685716 0.20700002 0.69000006 1132009
-0.02037143 0.20700002 0.69000006 1130970
-0.019057145 0.20700002 0.69000006 5473279
-0.017742857 0.20700002 0.69000006 9476823
-0.080477148 0.20740858 0.68700004 8160186
-0.079053335 0.20710668 0.68600005 3817848
-0.077746667 0.20710668 0.68600005 1065393
-0.076217145 0.20650285 0.68400002 2710218
-0.074804768 0.20620096 0.68300003 4283867
-0.073396191 0.20589906 0.68200004 5402348
-0.071780004 0.20499334 0.67900002 6191078
-0.070382856 0.20469144 0.67800003 7901695
-0.068887629 0.20408764 0.67600006 8952051
-0.067600004 0.20408764 0.67600006 9544188
-0.066214286 0.20378572 0.67500001 9674751
-0.064928576 0.20378572 0.67500001 7898351
-0.063642859 0.20378572 0.67500001 7309823
-0.062264767 0.20348381 0.67400002 7507199
-0.06098095 0.20348381 0.67400002 7571967
-0.059697144 0.20348381 0.67400002 7966719
-0.058413334 0.20348381 0.67400002 7245567
-0.056960005 0.20288001 0.67200005 8627199
-0.055680003 0.20288001 0.67200005 9154047
-0.054400001 0.20288001 0.67200005 8627711
-0.053120002 0.20288001 0.67200005 8758783
-0.051840004 0.20288001 0.67200005 8890367
-0.050560005 0.20288001 0.67200005 8362751
-0.049280003 0.20288001 0.67200005 8823295
-0.048000004 0.20288001 0.67200005 8954111
-0.046720002 0.20288001 0.67200005 10533119
-0.04544 0.20288001 0.67200005 11321599
-0.044160005 0.20288001 0.67200005 10532091
-0.042880002 0.20288001 0.67200005 10532607
-0.041600004 0.20288001 0.67200005 10532607
-0.040320002 0.20288001 0.67200005 10203391
-0.039156191 0.20348381 0.67400002 9611263
-0.037872382 0.20348381 0.67400002 10003455
-0.036588576 0.20348381 0.67400002 9871871
-0.035357144 0.20378572 0.67500001 9016831
-0.034071431 0.20378572 0.67500001 9345791
-0.032834288 0.20408764 0.67600006 8755967
-0.031640001 0.20469144 0.67800003 8624383
-0.030393332 0.20499334 0.67900002 8298239
-0.029142857 0.20529523 0.68000001 8166655
-0.028011428 0.20650285 0.68400002 6788607
-0.026825715 0.20740858 0.68700004 4683245
-0.025517143 0.20740858 0.68700004 4094207
-0.024208572 0.20740858 0.68700004 3502079
-0.022933332 0.20771047 0.68800002 4090623
-0.021780001 0.20921999 0.69300002 1985248
-0.020489523 0.2095219 0.69400001 1525458
-0.019167619 0.2095219 0.69400001 5407231
-0.017845714 0.2095219 0.69400001 9279194
-0.016595239 0.21042763 0.69700003 10726640
-0.080594286 0.20902096 0.68800002 8555196
-0.07916858 0.20871715 0.68700004 4278651
-0.077860005 0.20871715 0.68700004 1065913
-0.076440006 0.20841335 0.68600005 2381773
-0.074914292 0.20780571 0.68400002 3366617
-0.073503807 0.20750192 0.68300003 3695582
-0.07188572 0.20659047 0.68000001 3827170
-0.070486665 0.20628668 0.67900002 5669374
-0.069091432 0.20598286 0.67800003 7704303
-0.067600004 0.20537525 0.67600006 8164854
-0.066312388 0.20537525 0.67600006 8625407
-0.065024771 0.20537525 0.67600006 8164863
-0.063642859 0.20507142 0.67500001 8298239
-0.062357143 0.20507142 0.67500001 8298239
-0.061071429 0.20507142 0.67500001 8889087
-0.059697144 0.20476763 0.67400002 9086463
-0.058413334 0.20476763 0.67400002 9416447
-0.057129528 0.20476763 0.67400002 9416447
-0.055680003 0.20416 0.67200005 9286143
-0.054400001 0.20416 0.67200005 9154559
-0.053120002 0.20416 0.67200005 9943039
-0.051840004 0.20416 0.67200005 10206207
-0.050560005 0.20416 0.67200005 10271487
-0.049280003 0.20416 0.67200005 10008319
-0.048000004 0.20416 0.67200005 9943039
-0.046859052 0.20476763 0.67400002 10271999
-0.045575239 0.20476763 0.67400002 10403071
-0.044291429 0.20476763 0.67400002 9613563
-0.04300762 0.20476763 0.67400002 10006783
-0.04172381 0.20476763 0.67400002 10598911
-0.040440001 0.20476763 0.67400002 11254527
-0.039156191 0.20476763 0.67400002 11386111
-0.037872382 0.20476763 0.67400002 11450111
-0.036642861 0.20507142 0.67500001 10594811
-0.035357144 0.20507142 0.67500001 10134269
-0.034121908 0.20537525 0.67600006 10463231
-0.032931432 0.20598286 0.67800003 9545983
-0.031640001 0.20598286 0.67800003 9019647
-0.030438095 0.20659047 0.68000001 8364543
-0.029142857 0.20659047 0.68000001 8101375
-0.028011428 0.20780571 0.68400002 7642623
-0.026825715 0.20871715 0.68700004 6260982
-0.025517143 0.20871715 0.68700004 5736447
-0.024208572 0.20871715 0.68700004 3696879
-0.022933332 0.20902096 0.68800002 3631103
-0.021811429 0.2108438 0.69400001 1657314
-0.020489523 0.2108438 0.69400001 1001435
-0.019167619 0.2108438 0.69400001 4685823
-0.017922858 0.21175523 0.69700003 8950740
-0.016595239 0.21175523 0.69700003 10595565
-0.080594286 0.21033144 0.68800002 8884152
-0.07916858 0.21002571 0.68700004 4607607
-0.077860005 0.21002571 0.68700004 1460142
-0.076440006 0.20972 0.68600005 2776002
-0.074914292 0.20910858 0.68400002 2710227
-0.073503807 0.20880286 0.68300003 2710227
-0.07188572 0.20788571 0.68000001 3040734
-0.070486665 0.20758 0.67900002 4817145
-0.069193333 0.20758 0.67900002 6720498
-0.0678 0.2072743 0.67800003 7312635
-0.066312388 0.20666288 0.67600006 8232447
-0.065024771 0.20666288 0.67600006 8035071
-0.063642859 0.20635714 0.67500001 7839487
-0.062357143 0.20635714 0.67500001 8168447
-0.061071429 0.20635714 0.67500001 8365823
-0.059785716 0.20635714 0.67500001 8563199
-0.058499999 0.20635714 0.67500001 9614335
-0.057129528 0.20605142 0.67400002 9548543
-0.055845715 0.20605142 0.67400002 9943551
-0.054561906 0.20605142 0.67400002 9877759
-0.053278096 0.20605142 0.67400002 9812479
-0.051840004 0.20544001 0.67200005 10009855
-0.050560005 0.20544001 0.67200005 10075903
-0.049280003 0.20544001 0.67200005 9812735
-0.048000004 0.20544001 0.67200005 9747455
-0.046859052 0.20605142 0.67400002 9747455
-0.045575239 0.20605142 0.67400002 9549823
-0.044291429 0.20605142 0.67400002 8497144
-0.04300762 0.20605142 0.67400002 9283839
-0.04172381 0.20605142 0.67400002 10994431
-0.040440001 0.20605142 0.67400002 12108287
-0.039214283 0.20635714 0.67500001 11976703
-0.03792857 0.20635714 0.67500001 11843583
-0.036642861 0.20635714 0.67500001 11448831
-0.035357144 0.20635714 0.67500001 10462719
-0.034121908 0.20666288 0.67600006 10462719
-0.032980002 0.20758 0.67900002 9349119
-0.031733334 0.20788571 0.68000001 8888575
-0.030438095 0.20788571 0.68000001 8431359
-0.029228574 0.20849715 0.68200004 8299775
-0.028093336 0.20972 0.68600005 8102143
-0.026825715 0.21002571 0.68700004 7246846
-0.025517143 0.21002571 0.68700004 6130943
-0.024208572 0.21002571 0.68700004 4025583
-0.022933332 0.21033144 0.68800002 3761919
-0.021874286 0.21277715 0.69600004 1985509
-0.020548573 0.21277715 0.69600004 1590994
-0.019222859 0.21277715 0.69600004 4946431
-0.017922858 0.21308286 0.69700003 8555730
-0.016595239 0.21308286 0.69700003 10661106
-0.015267619 0.21308286 0.69700003 10791654
-0.080594286 0.21164192 0.68800002 9015728
-0.07916858 0.2113343 0.68700004 5068148
-0.077860005 0.2113343 0.68700004 1656751
-0.076440006 0.21102668 0.68600005 2512060
-0.074914292 0.21041143 0.68400002 1922253
-0.073503807 0.21010381 0.68300003 2251218
-0.07188572 0.20918095 0.68000001 2778087
-0.070590481 0.20918095 0.68000001 4159740
-0.069193333 0.20887333 0.67900002 6720234
-0.067900002 0.20887333 0.67900002 7641336
-0.066508569 0.20856571 0.67800003 8625663
-0.065024771 0.2079505 0.67600006 8296703
-0.063737147 0.2079505 0.67600006 8168447
-0.062357143 0.20764287 0.67500001 8497407
-0.061071429 0.20764287 0.67500001 8497151
-0.059785716 0.20764287 0.67500001 8562943
-0.058499999 0.20764287 0.67500001 8497151
-0.057129528 0.20733525 0.67400002 8233983
-0.055845715 0.20733525 0.67400002 7709695
-0.054561906 0.20733525 0.67400002 7578111
-0.053278096 0.20733525 0.67400002 7512831
-0.051994286 0.20733525 0.67400002 7381247
-0.050710477 0.20733525 0.67400002 7841023
-0.049426667 0.20733525 0.67400002 8104191
-0.048142858 0.20733525 0.67400002 8826367
-0.046859052 0.20733525 0.67400002 8892159
-0.045575239 0.20733525 0.67400002 8695551
-0.044291429 0.20733525 0.67400002 7577080
-0.04300762 0.20733525 0.67400002 8955391
-0.04172381 0.20733525 0.67400002 11060735
-0.0405 0.20764287 0.67500001 12567807
-0.039214283 0.20764287 0.67500001 12107262
-0.03792857 0.20764287 0.67500001 11711743
-0.036642861 0.20764287 0.67500001 11382780
-0.035357144 0.20764287 0.67500001 9937663
-0.034121908 0.2079505 0.67600006 9016565
-0.032980002 0.20887333 0.67900002 7707903
-0.031733334 0.20918095 0.68000001 8234239
-0.030438095 0.20918095 0.68000001 9023231
-0.029228574 0.20979621 0.68200004 9417983
-0.028093336 0.21102668 0.68600005 9548031
-0.026825715 0.2113343 0.68700004 8034801
-0.025517143 0.2113343 0.68700004 7050751
-0.024208572 0.2113343 0.68700004 5076976
-0.022933332 0.21164192 0.68800002 3238655
-0.021905715 0.21441048 0.69700003 1528045
-0.020578096 0.21441048 0.69700003 1920988
-0.019250477 0.21441048 0.69700003 4684287
-0.017922858 0.21441048 0.69700003 8358351
-0.016595239 0.21441048 0.69700003 10792692
-0.015267619 0.21441048 0.69700003 10857447
-0.080594286 0.21295239 0.68800002 9146801
-0.07916858 0.21264286 0.68700004 5593979
-0.077860005 0.21264286 0.68700004 1919666
-0.076440006 0.21233334 0.68600005 2314424
-0.075133339 0.21233334 0.68600005 2380999
-0.073611431 0.21171428 0.68400002 2973136
-0.072097145 0.21109524 0.68200004 3302884
-0.070590481 0.21047619 0.68000001 4223986
-0.069295242 0.21047619 0.68000001 5799407
-0.067900002 0.21016666 0.67900002 7049471
-0.066508569 0.20985715 0.67800003 7640575
-0.065217145 0.20985715 0.67800003 7903743
-0.063737147 0.20923811 0.67600006 8168703
-0.06244953 0.20923811 0.67600006 7971327
-0.061161913 0.20923811 0.67600006 7708927
-0.059785716 0.20892857 0.67500001 7577343
-0.058499999 0.20892857 0.67500001 7052543
-0.057214286 0.20892857 0.67500001 6986751
-0.055845715 0.20861904 0.67400002 6396159
-0.054561906 0.20861904 0.67400002 6922495
-0.053278096 0.20861904 0.67400002 7448063
-0.051994286 0.20861904 0.67400002 7448063
-0.050710477 0.20861904 0.67400002 7972095
-0.049426667 0.20861904 0.67400002 8498431
-0.048142858 0.20861904 0.67400002 9745663
-0.046859052 0.20861904 0.67400002 9943039
-0.045575239 0.20861904 0.67400002 9746687
-0.044357143 0.20892857 0.67500001 8233456
-0.04307143 0.20892857 0.67500001 9218047
-0.041785713 0.20892857 0.67500001 11323391
-0.0405 0.20892857 0.67500001 12568575
-0.039214283 0.20892857 0.67500001 11713272
-0.03792857 0.20892857 0.67500001 11317498
-0.036697146 0.20923811 0.67600006 11317498
-0.035409529 0.20923811 0.67600006 9544959
-0.03422286 0.20985715 0.67800003 8294895
-0.033028573 0.21047619 0.68000001 6723327
-0.031733334 0.21047619 0.68000001 7907583
-0.03052762 0.21109524 0.68200004 9154303
-0.029271429 0.21140477 0.68300003 9746431
-0.028093336 0.21233334 0.68600005 9876735
-0.026825715 0.21264286 0.68700004 7705575
-0.025517143 0.21264286 0.68700004 6787839
-0.024243811 0.21295239 0.68800002 5340407
-0.022933332 0.21295239 0.68800002 4092415
-0.021905715 0.2157381 0.69700003 1855456
-0.020578096 0.2157381 0.69700003 2379990
-0.019250477 0.2157381 0.69700003 4156401
-0.017922858 0.2157381 0.69700003 8226256
-0.016595239 0.2157381 0.69700003 10726390
-0.015267619 0.2157381 0.69700003 10791654
-0.07916858 0.21395144 0.68700004 6054784
-0.077860005 0.21395144 0.68700004 2116280
-0.07655143 0.21395144 0.68700004 1721522
-0.075133339 0.21364002 0.68600005 1199566
-0.073611431 0.21301714 0.68400002 2383840
-0.072097145 0.2123943 0.68200004 3565795
-0.070798099 0.2123943 0.68200004 4750069
-0.069295242 0.21177143 0.68000001 5799407
-0.068000004 0.21177143 0.68000001 5536235
-0.066606671 0.21146001 0.67900002 3634157
-0.065217145 0.21114857 0.67800003 4752638
-0.063737147 0.21052572 0.67600006 5737215
-0.06244953 0.21052572 0.67600006 5079295
-0.061161913 0.21052572 0.67600006 4359679
-0.059874289 0.21052572 0.67600006 4491263
-0.058499999 0.21021429 0.67500001 5410559
-0.057214286 0.21021429 0.67500001 6726399
-0.055928573 0.21021429 0.67500001 6988031
-0.054642856 0.21021429 0.67500001 7580159
-0.053357143 0.21021429 0.67500001 8697087
-0.052071426 0.21021429 0.67500001 8960255
-0.050785713 0.21021429 0.67500001 9287423
-0.049500003 0.21021429 0.67500001 9945343
-0.048214287 0.21021429 0.67500001 10601727
-0.046928573 0.21021429 0.67500001 11325439
-0.045642857 0.21021429 0.67500001 10931455
-0.044357143 0.21021429 0.67500001 8233949
-0.04307143 0.21021429 0.67500001 9415935
-0.041785713 0.21021429 0.67500001 11455487
-0.0405 0.21021429 0.67500001 12371199
-0.039214283 0.21021429 0.67500001 11121137
-0.03792857 0.21021429 0.67500001 10593521
-0.036697146 0.21052572 0.67600006 10922486
-0.035409529 0.21052572 0.67600006 9544703
-0.034273334 0.21146001 0.67900002 8755192
-0.033028573 0.21177143 0.68000001 7906303
-0.031733334 0.21177143 0.68000001 8432639
-0.03052762 0.2123943 0.68200004 9680127
-0.029271429 0.21270572 0.68300003 10535423
-0.028093336 0.21364002 0.68600005 10139903
-0.026825715 0.21395144 0.68700004 7113433
-0.025517143 0.21395144 0.68700004 5604607
-0.024243811 0.21426287 0.68800002 5275647
-0.023033334 0.21519716 0.69100004 4813823
-0.021905715 0.21706572 0.69700003 1984726
-0.020578096 0.21706572 0.69700003 1854945
-0.019250477 0.21706572 0.69700003 3631356
-0.017922858 0.21706572 0.69700003 7635155
-0.01657143 0.21675429 0.69600004 10464254
-0.015245715 0.21675429 0.69600004 10791908
-0.013920001 0.21675429 0.69600004 10660322
-0.07916858 0.21526001 0.68700004 6186376
-0.077860005 0.21526001 0.68700004 2969260
-0.07655143 0.21526001 0.68700004 2508709
-0.075133339 0.21494667 0.68600005 1395909
-0.073826671 0.21494667 0.68600005 2909148
-0.072202861 0.21400668 0.68300003 3696870
-0.070798099 0.21369334 0.68200004 4946937
-0.069295242 0.21306667 0.68000001 5471473
-0.068000004 0.21306667 0.68000001 4352992
-0.066704765 0.21306667 0.68000001 1403112
-0.065313332 0.21275334 0.67900002 3640063
-0.063925713 0.21244001 0.67800003 4950783
-0.06244953 0.21181335 0.67600006 4358655
-0.061161913 0.21181335 0.67600006 2785279
-0.059874289 0.21181335 0.67600006 3114239
-0.058586672 0.21181335 0.67600006 4689407
-0.057214286 0.21149999 0.67500001 6005247
-0.055928573 0.21149999 0.67500001 6725119
-0.054642856 0.21149999 0.67500001 7251455
-0.053357143 0.21149999 0.67500001 8040703
-0.052071426 0.21149999 0.67500001 8172287
-0.050785713 0.21149999 0.67500001 8565759
-0.049500003 0.21149999 0.67500001 9289471
-0.048214287 0.21149999 0.67500001 9880063
-0.046928573 0.21149999 0.67500001 10340607
-0.045642857 0.21149999 0.67500001 10078719
-0.044357143 0.21149999 0.67500001 8499695
-0.04307143 0.21149999 0.67500001 9547519
-0.041785713 0.21149999 0.67500001 11323903
-0.0405 0.21149999 0.67500001 12501503
-0.039272383 0.21181335 0.67600006 11251442
-0.037984762 0.21181335 0.67600006 10527460
-0.036697146 0.21181335 0.67600006 11119597
-0.035514288 0.21244001 0.67800003 9808383
-0.034273334 0.21275334 0.67900002 9084663
-0.033028573 0.21306667 0.68000001 7513855
-0.031826667 0.21369334 0.68200004 7908607
-0.03052762 0.21369334 0.68200004 9679871
-0.029271429 0.21400668 0.68300003 10271999
-0.028093336 0.21494667 0.68600005 10139903
-0.026825715 0.21526001 0.68700004 6718675
-0.025517143 0.21526001 0.68700004 5013247
-0.024243811 0.21557334 0.68800002 5276415
-0.023133334 0.21745333 0.69400001 5404669
-0.021905715 0.21839334 0.69700003 2509777
-0.020578096 0.21839334 0.69700003 1853660
-0.019250477 0.21839334 0.69700003 3103727
-0.017922858 0.21839334 0.69700003 7305422
-0.01657143 0.21808 0.69600004 10529279
-0.015245715 0.21808 0.69600004 10660068
-0.013920001 0.21808 0.69600004 10660068
-0.079283811 0.21688382 0.68800002 6383244
-0.077860005 0.21656859 0.68700004 2247586
-0.07655143 0.21656859 0.68700004 1655449
-0.075133339 0.21625334 0.68600005 1002950
-0.073826671 0.21625334 0.68600005 2976740
-0.072308578 0.21562286 0.68400002 4814054
-0.070798099 0.2149924 0.68200004 5011433
-0.069499053 0.2149924 0.68200004 3895278
-0.0682 0.2149924 0.68200004 2711004
-0.066704765 0.21436191 0.68000001 2321654
-0.065313332 0.21404667 0.67900002 4821759
-0.063925713 0.21373144 0.67800003 6131199
-0.062634289 0.21373144 0.67800003 5736447
-0.061161913 0.21310095 0.67600006 4753151
-0.059874289 0.21310095 0.67600006 4753151
-0.058586672 0.21310095 0.67600006 5737215
-0.057214286 0.21278572 0.67500001 6724095
-0.055928573 0.21278572 0.67500001 7379967
-0.054642856 0.21278572 0.67500001 7708927
-0.053357143 0.21278572 0.67500001 8432639
-0.052071426 0.21278572 0.67500001 8695807
-0.050785713 0.21278572 0.67500001 9154303
-0.049500003 0.21278572 0.67500001 9680639
-0.048214287 0.21278572 0.67500001 10337023
-0.046928573 0.21278572 0.67500001 10337023
-0.045642857 0.21278572 0.67500001 10271999
-0.044357143 0.21278572 0.67500001 10600959
-0.04307143 0.21278572 0.67500001 11715327
-0.041785713 0.21278572 0.67500001 12373247
-0.0405 0.21278572 0.67500001 12501503
-0.039272383 0.21310095 0.67600006 11185649
-0.037984762 0.21310095 0.67600006 10593773
-0.036697146 0.21310095 0.67600006 11580668
-0.035566669 0.21404667 0.67900002 11845119
-0.034323812 0.21436191 0.68000001 11779327
-0.033028573 0.21436191 0.68000001 10993151
-0.031826667 0.2149924 0.68200004 10664191
-0.03052762 0.2149924 0.68200004 10598655
-0.029271429 0.21530762 0.68300003 10664447
-0.028093336 0.21625334 0.68600005 9875967
-0.026825715 0.21656859 0.68700004 6323154
-0.025517143 0.21656859 0.68700004 4619007
-0.024314288 0.21751429 0.69000006 4947967
-0.023133334 0.21877524 0.69400001 4749049
-0.021905715 0.21972096 0.69700003 2512087
-0.020578096 0.21972096 0.69700003 1658600
-0.019250477 0.21972096 0.69700003 2513909
-0.017922858 0.21972096 0.69700003 6846670
-0.016595239 0.21972096 0.69700003 10267903
-0.015267619 0.21972096 0.69700003 10791908
-0.013940001 0.21972096 0.69700003 10660322
-0.080594286 0.21819429 0.68800002 8752305
-0.079283811 0.21819429 0.68800002 6515343
-0.077973336 0.21819429 0.68800002 2969512
-0.07655143 0.21787715 0.68700004 2179996
-0.075242862 0.21787715 0.68700004 1723843
-0.073826671 0.21756001 0.68600005 3895012
-0.072308578 0.21692571 0.68400002 5274346
-0.070901908 0.21660858 0.68300003 4879588
-0.069499053 0.21629144 0.68200004 2781165
-0.0682 0.21629144 0.68200004 1991649
-0.066704765 0.21565714 0.68000001 4092648
-0.065313332 0.21534 0.67900002 6658559
-0.063925713 0.21502288 0.67800003 7247615
-0.062634289 0.21502288 0.67800003 6655479
-0.061161913 0.21438858 0.67600006 5736446
-0.059874289 0.21438858 0.67600006 5670653
-0.058586672 0.21438858 0.67600006 7180543
-0.057299051 0.21438858 0.67600006 7772671
-0.055928573 0.21407144 0.67500001 8823295
-0.054642856 0.21407144 0.67500001 8691711
-0.053357143 0.21407144 0.67500001 9349631
-0.052071426 0.21407144 0.67500001 9810175
-0.050785713 0.21407144 0.67500001 10334719
-0.049500003 0.21407144 0.67500001 10663679
-0.048214287 0.21407144 0.67500001 11319295
-0.046928573 0.21407144 0.67500001 11319295
-0.045642857 0.21407144 0.67500001 11254015
-0.044422861 0.21438858 0.67600006 11977727
-0.043135241 0.21438858 0.67600006 12503295
-0.04184762 0.21438858 0.67600006 12305919
-0.040560003 0.21438858 0.67600006 12106751
-0.039272383 0.21438858 0.67600006 11119860
-0.038097143 0.21502288 0.67800003 10856425
-0.036805719 0.21502288 0.67800003 11909113
-0.035566669 0.21534 0.67900002 12173567
-0.034323812 0.21565714 0.68000001 12370943
-0.033125717 0.21629144 0.68200004 12633855
-0.031826667 0.21629144 0.68200004 11975930
-0.03052762 0.21629144 0.68200004 11516415
-0.029271429 0.21660858 0.68300003 11253247
-0.028093336 0.21756001 0.68600005 9875199
-0.026825715 0.21787715 0.68700004 7309281
-0.025517143 0.21787715 0.68700004 5470460
-0.024314288 0.21882859 0.69000006 5075702
-0.023133334 0.22009714 0.69400001 4485616
