# .PCD v0.7 - Point Cloud Data file format
VERSION 0.7
FIELDS x y z rgba
SIZE 4 4 4 4
TYPE F F F U
COUNT 1 1 1 1
WIDTH 1114
HEIGHT 1
VIEWPOINT 0 0 0 1 0 0 0
POINTS 1114
DATA ascii
-0.083504766 0.23344763 0.64000005 2247105
-0.082028575 0.2327181 0.63800001 1987015
-0.080560006 0.23198858 0.63600004 4289770
-0.079223812 0.23162383 0.63500005 5273815
-0.077645719 0.23052953 0.63200003 4615885
-0.076320961 0.23016478 0.63100004 4944609
-0.075119056 0.23016478 0.63100004 5799918
-0.073800005 0.22980002 0.63000005 7701975
-0.0726 0.22980002 0.63000005 9873144
-0.071286663 0.22943524 0.62900001 10462180
-0.070088573 0.22943524 0.62900001 10659559
-0.068890475 0.22943524 0.62900001 10791908
-0.067584768 0.22907047 0.62800002 10726115
-0.06638857 0.22907047 0.62800002 10660838
-0.065192387 0.22907047 0.62800002 11055596
-0.063996188 0.22907047 0.62800002 11712238
-0.062800005 0.22907047 0.62800002 12435961
-0.061505716 0.22870572 0.62700003 12698623
-0.060311433 0.22870572 0.62700003 12632831
-0.059211429 0.22907047 0.62800002 12698879
-0.057922859 0.22870572 0.62700003 12764671
-0.056728572 0.22870572 0.62700003 12763902
-0.055622861 0.22907047 0.62800002 12698109
-0.05442667 0.22907047 0.62800002 12961531
-0.053230479 0.22907047 0.62800002 13158910
-0.052034285 0.22907047 0.62800002 13093630
-0.050919048 0.22943524 0.62900001 13027837
-0.049800005 0.22980002 0.63000005 13092860
-0.048600003 0.22980002 0.63000005 11908586
-0.047400005 0.22980002 0.63000005 11642852
-0.046200003 0.22980002 0.63000005 11248094
-0.045071434 0.23016478 0.63100004 11248625
-0.043869525 0.23016478 0.63100004 11774969
-0.042735238 0.23052953 0.63200003 11316213
-0.041662857 0.23125905 0.634 11053041
-0.040519048 0.23162383 0.63500005 10922983
-0.039371431 0.23198858 0.63600004 11449327
-0.03822 0.23235334 0.63700002 12238573
-0.037006669 0.23235334 0.63700002 12567538
-0.035849527 0.2327181 0.63800001 12567804
-0.034742858 0.23344763 0.64000005 11975667
-0.033523809 0.23344763 0.64000005 11055871
-0.032405715 0.23417714 0.64200002 10200564
-0.03128 0.23490669 0.64400005 9084134
-0.030193334 0.23600096 0.64700001 3820694
-0.029050479 0.23673049 0.64900005 2051793
-0.027985716 0.23818953 0.65300006 933312
-0.026823809 0.23891905 0.65500003 3231163
-0.025654286 0.23964857 0.65700001 8363007
-0.088657148 0.23540001 0.64200002 8356005
-0.087434284 0.23540001 0.64200002 5858710
-0.086077146 0.23503335 0.64100003 3358576
-0.084856197 0.23503335 0.64100003 2181564
-0.083635241 0.23503335 0.64100003 2181564
-0.082028575 0.23393333 0.63800001 1789636
-0.080560006 0.23320001 0.63600004 4289770
-0.079223812 0.23283336 0.63500005 5339099
-0.077891432 0.23246667 0.634 4549583
-0.076441906 0.23173334 0.63200003 5468622
-0.075119056 0.23136668 0.63100004 7442412
-0.07391715 0.23136668 0.63100004 9541076
-0.0726 0.23100002 0.63000005 10264799
-0.071400009 0.23100002 0.63000005 10460638
-0.070200004 0.23100002 0.63000005 11052775
-0.068890475 0.23063333 0.62900001 11447274
-0.067692384 0.23063333 0.62900001 11578860
-0.066494286 0.23063333 0.62900001 11382512
-0.065192387 0.23026668 0.62800002 11711477
-0.063996188 0.23026668 0.62800002 11712508
-0.062800005 0.23026668 0.62800002 12765183
-0.061603814 0.23026668 0.62800002 13094655
-0.06040762 0.23026668 0.62800002 12897279
-0.059211429 0.23026668 0.62800002 12962303
-0.058015238 0.23026668 0.62800002 12830717
-0.056819052 0.23026668 0.62800002 12633086
-0.055622861 0.23026668 0.62800002 12698879
-0.054513335 0.23063333 0.62900001 12633597
-0.053315237 0.23063333 0.62900001 13094143
-0.052117143 0.23063333 0.62900001 13291518
-0.051000003 0.23100002 0.63000005 12962553
-0.049800005 0.23100002 0.63000005 13092095
-0.048600003 0.23100002 0.63000005 11842028
-0.047400005 0.23100002 0.63000005 11642343
-0.046200003 0.23100002 0.63000005 11379171
-0.045071434 0.23136668 0.63100004 11380202
-0.043869525 0.23136668 0.63100004 11511788
-0.042735238 0.23173334 0.63200003 11052012
-0.041662857 0.23246667 0.634 11380977
-0.040519048 0.23283336 0.63500005 11251444
-0.039371431 0.23320001 0.63600004 11843581
-0.03822 0.23356667 0.63700002 12501247
-0.037006669 0.23356667 0.63700002 12501247
-0.035849527 0.23393333 0.63800001 12239868
-0.034742858 0.23466669 0.64000005 11516145
-0.03357619 0.23503335 0.64100003 10924539
-0.032405715 0.23540001 0.64200002 10990332
-0.03128 0.23613335 0.64400005 9281011
-0.030193334 0.23723333 0.64700001 4083364
-0.029050479 0.23796669 0.64900005 2904526
-0.027985716 0.23943336 0.65300006 1588666
-0.026823809 0.24016668 0.65500003 1195189
-0.025654286 0.24090001 0.65700001 6984959
-0.024402859 0.24090001 0.65700001 10462955
-0.088933334 0.23736003 0.64400005 8356007
-0.087434284 0.23662287 0.64200002 6451095
-0.086211428 0.23662287 0.64200002 3293031
-0.084856197 0.2362543 0.64100003 2181310
-0.083635241 0.2362543 0.64100003 2510275
-0.082285725 0.23588574 0.64000005 2117829
-0.080560006 0.23441145 0.63600004 3894240
-0.079348572 0.23441145 0.63600004 4944091
-0.077891432 0.23367429 0.634 5536228
-0.076441906 0.23293716 0.63200003 7634887
-0.075238094 0.23293716 0.63200003 9082333
-0.07391715 0.23256859 0.63100004 9671374
-0.0726 0.23220003 0.63000005 10197718
-0.071400009 0.23220003 0.63000005 10329304
-0.070200004 0.23220003 0.63000005 10987234
-0.069000006 0.23220003 0.63000005 11381488
-0.067692384 0.23183143 0.62900001 12302590
-0.066494286 0.23183143 0.62900001 12237819
-0.065296195 0.23183143 0.62900001 12764159
-0.064098097 0.23183143 0.62900001 12698879
-0.062899999 0.23183143 0.62900001 13027839
-0.061603814 0.23146287 0.62800002 13159935
-0.06040762 0.23146287 0.62800002 13291519
-0.059211429 0.23146287 0.62800002 13422847
-0.058015238 0.23146287 0.62800002 13554431
-0.056819052 0.23146287 0.62800002 13554683
-0.055622861 0.23146287 0.62800002 13159925
-0.054513335 0.23183143 0.62900001 13028346
-0.053315237 0.23183143 0.62900001 13094139
-0.052117143 0.23183143 0.62900001 13225979
-0.051000003 0.23220003 0.63000005 12765428
-0.049800005 0.23220003 0.63000005 12829686
-0.048600003 0.23220003 0.63000005 11316447
-0.047400005 0.23220003 0.63000005 10721779
-0.046273336 0.23256859 0.63100004 10655986
-0.045071434 0.23256859 0.63100004 10723549
-0.043869525 0.23256859 0.63100004 11249893
-0.042735238 0.23293716 0.63200003 11448555
-0.041728575 0.23404288 0.63500005 12435450
-0.040519048 0.23404288 0.63500005 13093119
-0.039371431 0.23441145 0.63600004 13487871
-0.03822 0.23478001 0.63700002 13093631
-0.037006669 0.23478001 0.63700002 12106742
-0.035849527 0.23514858 0.63800001 11121135
-0.034742858 0.23588574 0.64000005 11121135
-0.03357619 0.2362543 0.64100003 11580913
-0.032456189 0.23699144 0.64300001 11383534
-0.03128 0.23736003 0.64400005 9412070
-0.030193334 0.23846573 0.64700001 4477595
-0.029050479 0.23920287 0.64900005 2379724
-0.027985716 0.24067716 0.65300006 800692
-0.026823809 0.24141429 0.65500003 669631
-0.025654286 0.24215142 0.65700001 6196223
-0.024402859 0.24215142 0.65700001 10265828
-0.090160005 0.23858668 0.64400005 8618925
-0.088933334 0.23858668 0.64400005 8684718
-0.087570474 0.23821619 0.64300001 6714269
-0.086211428 0.23784572 0.64200002 3358826
-0.084856197 0.23747525 0.64100003 2771900
-0.083635241 0.23747525 0.64100003 2969279
-0.082285725 0.23710477 0.64000005 1986754
-0.080813333 0.23636381 0.63800001 3368407
-0.079348572 0.23562287 0.63600004 5401810
-0.078014292 0.2352524 0.63500005 6980842
-0.076683804 0.23488191 0.634 8882637
-0.075238094 0.23414096 0.63200003 9737946
-0.07391715 0.23377049 0.63100004 9998281
-0.072715245 0.23377049 0.63100004 10590418
-0.071400009 0.23340002 0.63000005 10329304
-0.070200004 0.23340002 0.63000005 10921441
-0.069000006 0.23340002 0.63000005 11053543
-0.0678 0.23340002 0.63000005 11974645
-0.066494286 0.23302951 0.62900001 11975669
-0.065296195 0.23302951 0.62900001 12304634
-0.064098097 0.23302951 0.62900001 12238839
-0.063000008 0.23340002 0.63000005 12436218
-0.061701905 0.23302951 0.62900001 12370429
-0.060503807 0.23302951 0.62900001 12765183
-0.059305713 0.23302951 0.62900001 13291518
-0.058107618 0.23302951 0.62900001 13423103
-0.056909524 0.23302951 0.62900001 13423869
-0.05571143 0.23302951 0.62900001 13029111
-0.054513335 0.23302951 0.62900001 12962555
-0.053315237 0.23302951 0.62900001 12962555
-0.052200004 0.23340002 0.63000005 13093628
-0.051000003 0.23340002 0.63000005 12698870
-0.049800005 0.23340002 0.63000005 12105722
-0.048600003 0.23340002 0.63000005 10789862
-0.047475241 0.23377049 0.63100004 10524898
-0.046273336 0.23377049 0.63100004 10853863
-0.045071434 0.23377049 0.63100004 10789610
-0.04393905 0.23414096 0.63200003 11315954
-0.042735238 0.23414096 0.63200003 12039927
-0.041728575 0.2352524 0.63500005 12829439
-0.040519048 0.2352524 0.63500005 13027583
-0.039371431 0.23562287 0.63600004 13027583
-0.03822 0.23599334 0.63700002 12830463
-0.037064761 0.23636381 0.63800001 11514605
-0.035961907 0.23710477 0.64000005 11119856
-0.034797143 0.23747525 0.64100003 11646200
-0.033628572 0.23784572 0.64200002 12040959
-0.032456189 0.23821619 0.64300001 11317239
-0.03128 0.23858668 0.64400005 9346277
-0.030193334 0.2396981 0.64700001 5267111
-0.029050479 0.24043906 0.64900005 2904524
-0.027942857 0.24155048 0.65200001 1128113
-0.026823809 0.24266191 0.65500003 800190
-0.025654286 0.24340285 0.65700001 6260991
-0.024402859 0.24340285 0.65700001 10134249
-0.089209527 0.2405581 0.64600003 8619695
-0.087706678 0.23981334 0.64400005 6780312
-0.086345717 0.23944096 0.64300001 3359076
-0.084988572 0.23906857 0.64200002 2312639
-0.083635241 0.2386962 0.64100003 2773190
-0.082285725 0.23832382 0.64000005 2576831
-0.080813333 0.23757905 0.63800001 3695312
-0.079348572 0.23683429 0.63600004 5531858
-0.078014292 0.23646192 0.63500005 7505648
-0.076683804 0.23608951 0.634 9408198
-0.075238094 0.23534477 0.63200003 9934542
-0.07391715 0.2349724 0.63100004 10064331
-0.072715245 0.2349724 0.63100004 10327503
-0.071400009 0.23460001 0.63000005 10525906
-0.070200004 0.23460001 0.63000005 10657492
-0.069000006 0.23460001 0.63000005 10986707
-0.0678 0.23460001 0.63000005 11118293
-0.066494286 0.23422763 0.62900001 11052512
-0.065296195 0.23422763 0.62900001 11249891
-0.064098097 0.23422763 0.62900001 11250908
-0.063000008 0.23460001 0.63000005 11448287
-0.061701905 0.23422763 0.62900001 11645941
-0.060503807 0.23422763 0.62900001 12303871
-0.059305713 0.23422763 0.62900001 12962807
-0.058200005 0.23460001 0.63000005 13225979
-0.057000004 0.23460001 0.63000005 13357054
-0.05571143 0.23422763 0.62900001 13357054
-0.054513335 0.23422763 0.62900001 13291261
-0.053400002 0.23460001 0.63000005 13291261
-0.052200004 0.23460001 0.63000005 13487870
-0.051000003 0.23460001 0.63000005 12764147
-0.049800005 0.23460001 0.63000005 12039416
-0.048600003 0.23460001 0.63000005 10855142
-0.047475241 0.2349724 0.63100004 10788840
-0.046273336 0.2349724 0.63100004 11907321
-0.045071434 0.2349724 0.63100004 12698359
-0.04393905 0.23534477 0.63200003 13027324
-0.042870477 0.23608951 0.634 13093631
-0.041728575 0.23646192 0.63500005 13291007
-0.040582858 0.23683429 0.63600004 12962303
-0.039433334 0.23720668 0.63700002 12172789
-0.03822 0.23720668 0.63700002 11449073
-0.037064761 0.23757905 0.63800001 11251694
-0.035961907 0.23832382 0.64000005 11843572
-0.034797143 0.2386962 0.64100003 12633087
-0.033628572 0.23906857 0.64200002 12172287
-0.032456189 0.23944096 0.64300001 10724848
-0.03128 0.23981334 0.64400005 9280225
-0.030193334 0.24093048 0.64700001 6253747
-0.029095238 0.24204762 0.65000004 2970578
-0.027942857 0.24279238 0.65200001 1325753
-0.026823809 0.24390954 0.65500003 800976
-0.025654286 0.24465428 0.65700001 5932799
-0.024402859 0.24465428 0.65700001 9740254
-0.089347623 0.24216287 0.64700001 8685490
-0.087706678 0.24104002 0.64400005 6911900
-0.086480007 0.24104002 0.64400005 3424871
-0.084988572 0.24029145 0.64200002 2116532
-0.083635241 0.23991714 0.64100003 2313911
-0.082414292 0.23991714 0.64100003 2511549
-0.081066668 0.23954287 0.64000005 2708928
-0.079348572 0.23804572 0.63600004 5726910
-0.078014292 0.23767145 0.63500005 8161251
-0.076804765 0.23767145 0.63500005 9539788
-0.075476192 0.23729715 0.634 9934546
-0.074034289 0.23654857 0.63200003 9999051
-0.072715245 0.2361743 0.63100004 10262223
-0.07151334 0.2361743 0.63100004 10327762
-0.070311435 0.2361743 0.63100004 10656727
-0.069000006 0.23580003 0.63000005 10656729
-0.0678 0.23580003 0.63000005 10919901
-0.06660001 0.23580003 0.63000005 11051485
-0.065400004 0.23580003 0.63000005 11117278
-0.064200006 0.23580003 0.63000005 11381213
-0.063000008 0.23580003 0.63000005 11381213
-0.061800007 0.23580003 0.63000005 11645421
-0.060600005 0.23580003 0.63000005 12105972
-0.059400007 0.23580003 0.63000005 12567286
-0.058200005 0.23580003 0.63000005 13291007
-0.057000004 0.23580003 0.63000005 13291261
-0.055800002 0.23580003 0.63000005 13291261
-0.054600004 0.23580003 0.63000005 13553659
-0.053400002 0.23580003 0.63000005 13422073
-0.052200004 0.23580003 0.63000005 13553148
-0.051080953 0.2361743 0.63100004 12697839
-0.049879052 0.2361743 0.63100004 11907821
-0.048677146 0.2361743 0.63100004 11118305
-0.047475241 0.2361743 0.63100004 11182578
-0.046273336 0.2361743 0.63100004 12695807
-0.045142859 0.23654857 0.63200003 12764671
-0.044078097 0.23729715 0.634 13093631
-0.042870477 0.23729715 0.634 13028607
-0.041728575 0.23767145 0.63500005 12962815
-0.040582858 0.23804572 0.63600004 12831230
-0.039433334 0.23841999 0.63700002 11120612
-0.03822 0.23841999 0.63700002 11118055
-0.037064761 0.2387943 0.63800001 11710192
-0.035961907 0.23954287 0.64000005 12105722
-0.034797143 0.23991714 0.64100003 12237308
-0.033628572 0.24029145 0.64200002 11449599
-0.032456189 0.24066572 0.64300001 10265326
-0.031377144 0.24178858 0.64600003 9214437
-0.030193334 0.24216287 0.64700001 6451131
-0.029095238 0.24328573 0.65000004 3692752
-0.027857145 0.24328573 0.65000004 1324204
-0.026905714 0.2459057 0.65700001 800456
-0.025654286 0.2459057 0.65700001 5603327
-0.024402859 0.2459057 0.65700001 8622302
-0.023151428 0.2459057 0.65700001 10793471
-0.088933334 0.24226668 0.64400005 8817076
-0.087706678 0.24226668 0.64400005 7108514
-0.086345717 0.24189048 0.64300001 3226727
-0.084988572 0.2415143 0.64200002 1984435
-0.083635241 0.2411381 0.64100003 2839744
-0.082414292 0.2411381 0.64100003 3429303
-0.081066668 0.24076192 0.64000005 2902959
-0.079348572 0.23925716 0.63600004 5332391
-0.078137144 0.23925716 0.63600004 8227283
-0.076804765 0.23888096 0.63500005 9605581
-0.075476192 0.23850477 0.634 9934546
-0.074034289 0.23775239 0.63200003 10261962
-0.072715245 0.2373762 0.63100004 10393548
-0.07151334 0.2373762 0.63100004 10525395
-0.070311435 0.2373762 0.63100004 10591188
-0.069000006 0.23700002 0.63000005 10525150
-0.0678 0.23700002 0.63000005 10590943
-0.06660001 0.23700002 0.63000005 10722268
-0.065400004 0.23700002 0.63000005 10788061
-0.064200006 0.23700002 0.63000005 10722781
-0.063000008 0.23700002 0.63000005 11051746
-0.061800007 0.23700002 0.63000005 10987502
-0.060600005 0.23700002 0.63000005 11184881
-0.059400007 0.23700002 0.63000005 11646186
-0.058200005 0.23700002 0.63000005 11909358
-0.057000004 0.23700002 0.63000005 11711727
-0.055800002 0.23700002 0.63000005 11382762
-0.054600004 0.23700002 0.63000005 11448310
-0.053400002 0.23700002 0.63000005 12435199
-0.052200004 0.23700002 0.63000005 12829183
-0.051080953 0.2373762 0.63100004 11579117
-0.049879052 0.2373762 0.63100004 11381983
-0.048677146 0.2373762 0.63100004 11842534
-0.047475241 0.2373762 0.63100004 12302847
-0.046273336 0.2373762 0.63100004 13223935
-0.045142859 0.23775239 0.63200003 13290495
-0.044078097 0.23850477 0.634 13158910
-0.042870477 0.23850477 0.634 12633599
-0.041728575 0.23888096 0.63500005 12370427
-0.040582858 0.23925716 0.63600004 12435689
-0.039433334 0.23963334 0.63700002 10988243
-0.03822 0.23963334 0.63700002 11184359
-0.037064761 0.24000953 0.63800001 11842289
-0.035961907 0.24076192 0.64000005 11579126
-0.034797143 0.2411381 0.64100003 10789610
-0.033680953 0.24189048 0.64300001 10396387
-0.032456189 0.24189048 0.64300001 9606871
-0.031377144 0.24301906 0.64600003 9082083
-0.030193334 0.24339524 0.64700001 6516156
-0.029095238 0.24452381 0.65000004 3233489
-0.027857145 0.24452381 0.65000004 1391285
-0.026823809 0.24640477 0.65500003 932558
-0.025576191 0.24640477 0.65500003 5143295
-0.024402859 0.24715716 0.65700001 8490718
-0.023151428 0.24715716 0.65700001 10990847
-0.088933334 0.24349335 0.64400005 8817078
-0.087706678 0.24349335 0.64400005 7305379
-0.086345717 0.24311523 0.64300001 3226213
-0.084988572 0.24273714 0.64200002 2443180
-0.083765715 0.24273714 0.64200002 3495868
-0.082414292 0.24235906 0.64100003 4346802
-0.081193335 0.24235906 0.64100003 3886251
-0.079598099 0.24122477 0.63800001 5397668
-0.078137144 0.24046859 0.63600004 8160974
-0.076804765 0.24009049 0.63500005 9146570
-0.075476192 0.23971237 0.634 9804500
-0.074268572 0.23971237 0.634 10393555
-0.072715245 0.23857811 0.63100004 10393555
-0.07151334 0.23857811 0.63100004 10788826
-0.070311435 0.23857811 0.63100004 10657240
-0.069109522 0.23857811 0.63100004 10525404
-0.067907616 0.23857811 0.63100004 10656990
-0.066705719 0.23857811 0.63100004 10919651
-0.065400004 0.23820001 0.63000005 10985444
-0.064200006 0.23820001 0.63000005 10985190
-0.063000008 0.23820001 0.63000005 11248362
-0.061800007 0.23820001 0.63000005 11183848
-0.060600005 0.23820001 0.63000005 11644399
-0.059400007 0.23820001 0.63000005 11514098
-0.058200005 0.23820001 0.63000005 11448305
-0.057000004 0.23820001 0.63000005 11448296
-0.055800002 0.23820001 0.63000005 11316710
-0.054600004 0.23820001 0.63000005 11053797
-0.053484764 0.23857811 0.63100004 12238071
-0.052282859 0.23857811 0.63100004 12763391
-0.051080953 0.23857811 0.63100004 11842289
-0.049879052 0.23857811 0.63100004 11579367
-0.048677146 0.23857811 0.63100004 12237297
-0.047550477 0.2389562 0.63200003 12698367
-0.046346668 0.2389562 0.63200003 13093119
-0.045142859 0.2389562 0.63200003 13159421
-0.044078097 0.23971237 0.634 12896249
-0.042938098 0.24009049 0.63500005 12502015
-0.041794289 0.24046859 0.63600004 12238843
-0.040582858 0.24046859 0.63600004 12368626
-0.039433334 0.24084668 0.63700002 10921180
-0.03822 0.24084668 0.63700002 11182819
-0.037180953 0.24198097 0.64000005 11643370
-0.035961907 0.24198097 0.64000005 11381227
-0.034797143 0.24235906 0.64100003 10920676
-0.033680953 0.24311523 0.64300001 10396646
-0.032456189 0.24311523 0.64300001 9607130
-0.031425714 0.24462762 0.64700001 8818913
-0.030286668 0.24538381 0.64900005 6779330
-0.029095238 0.24576192 0.65000004 3888598
-0.027857145 0.24576192 0.65000004 1717429
-0.026823809 0.24765238 0.65500003 1589697
-0.025576191 0.24765238 0.65500003 5010933
-0.024402859 0.24840857 0.65700001 8686303
-0.023151428 0.24840857 0.65700001 11186431
-0.087570474 0.24434 0.64300001 7173793
-0.086345717 0.24434 0.64300001 3028834
-0.084988572 0.24396002 0.64200002 3229612
-0.083765715 0.24396002 0.64200002 4282300
-0.082414292 0.24358001 0.64100003 5002408
-0.081066668 0.24320002 0.64000005 4607650
-0.079598099 0.24244002 0.63800001 5789855
-0.078137144 0.24168001 0.63600004 7829438
-0.076804765 0.24130002 0.63500005 9604280
-0.075476192 0.24092001 0.634 10656968
-0.074268572 0.24092001 0.634 10787795
-0.072830476 0.24016002 0.63200003 10656209
-0.071626663 0.24016002 0.63200003 10854360
-0.070311435 0.23978001 0.63100004 11051739
-0.069109522 0.23978001 0.63100004 10723808
-0.067907616 0.23978001 0.63100004 11184359
-0.066705719 0.23978001 0.63100004 11709678
-0.065503813 0.23978001 0.63100004 11972850
-0.064301908 0.23978001 0.63100004 11907573
-0.063100003 0.23978001 0.63100004 12368124
-0.061898097 0.23978001 0.63100004 12435693
-0.060696192 0.23978001 0.63100004 12501486
-0.059494291 0.23978001 0.63100004 12435709
-0.058292385 0.23978001 0.63100004 11580400
-0.05709048 0.23978001 0.63100004 11252457
-0.055888575 0.23978001 0.63100004 11186664
-0.054686669 0.23978001 0.63100004 10988274
-0.053484764 0.23978001 0.63100004 11909375
-0.052282859 0.23978001 0.63100004 12236786
-0.051080953 0.23978001 0.63100004 11907821
-0.049879052 0.23978001 0.63100004 12237812
-0.048754286 0.24016002 0.63200003 13093119
-0.047550477 0.24016002 0.63200003 13159164
-0.046346668 0.24016002 0.63200003 13093371
-0.045285713 0.24092001 0.634 12962046
-0.044078097 0.24092001 0.634 12764667
-0.042938098 0.24130002 0.63500005 12895999
-0.041794289 0.24168001 0.63600004 12172278
-0.040582858 0.24168001 0.63600004 11842289
-0.039433334 0.24206001 0.63700002 10460636
-0.03822 0.24206001 0.63700002 10591193
-0.037180953 0.24320002 0.64000005 11051744
-0.035961907 0.24320002 0.64000005 10790105
-0.034797143 0.24358001 0.64100003 10592726
-0.033680953 0.24434 0.64300001 10396385
-0.032456189 0.24434 0.64300001 9935834
-0.031474285 0.24624 0.648 9870566
-0.030333335 0.24700001 0.65000004 7436225
-0.029095238 0.24700001 0.65000004 3758561
-0.027942857 0.24776001 0.65200001 1653185
-0.026823809 0.2489 0.65500003 868041
-0.025576191 0.2489 0.65500003 4091898
-0.024402859 0.24966 0.65700001 8095456
-0.023151428 0.24966 0.65700001 10858751
-0.087706678 0.24594668 0.64400005 7042209
-0.086480007 0.24594668 0.64400005 3160422
-0.084988572 0.24518287 0.64200002 3293867
-0.083765715 0.24518287 0.64200002 4280762
-0.082414292 0.24480097 0.64100003 5461156
-0.081066668 0.24441905 0.64000005 5263777
-0.079847619 0.24441905 0.64000005 6182812
-0.078137144 0.24289143 0.63600004 8025016
-0.076804765 0.24250954 0.63500005 8551596
-0.075595245 0.24250954 0.63500005 9999042
-0.074268572 0.24212763 0.634 10524880
-0.072830476 0.24136381 0.63200003 10524880
-0.071626663 0.24136381 0.63200003 10262732
-0.070311435 0.24098192 0.63100004 10854869
-0.069109522 0.24098192 0.63100004 10658526
-0.067907616 0.24098192 0.63100004 10987491
-0.066705719 0.24098192 0.63100004 11250663
-0.065503813 0.24098192 0.63100004 11250663
-0.064301908 0.24098192 0.63100004 11645171
-0.063100003 0.24098192 0.63100004 12829439
-0.061898097 0.24098192 0.63100004 12830463
-0.060696192 0.24098192 0.63100004 13093631
-0.059494291 0.24098192 0.63100004 13028863
-0.058292385 0.24098192 0.63100004 12370936
-0.05709048 0.24098192 0.63100004 11056383
-0.055888575 0.24098192 0.63100004 10530047
-0.054686669 0.24098192 0.63100004 9673707
-0.053484764 0.24098192 0.63100004 11515903
-0.052282859 0.24098192 0.63100004 12170751
-0.051080953 0.24098192 0.63100004 12236543
-0.049879052 0.24098192 0.63100004 12698111
-0.048754286 0.24136381 0.63200003 12895487
-0.047550477 0.24136381 0.63200003 12764926
-0.046346668 0.24136381 0.63200003 12633340
-0.045285713 0.24212763 0.634 12501500
-0.044147622 0.24250954 0.63500005 12698879
-0.042938098 0.24250954 0.63500005 13092606
-0.041794289 0.24289143 0.63600004 11710953
-0.040582858 0.24289143 0.63600004 11380459
-0.039433334 0.24327335 0.63700002 10656736
-0.03822 0.24327335 0.63700002 10525150
-0.037180953 0.24441905 0.64000005 10656736
-0.035961907 0.24441905 0.64000005 10526942
-0.034797143 0.24480097 0.64100003 10329563
-0.033733334 0.24594668 0.64400005 9738212
-0.032506671 0.24594668 0.64400005 10264556
-0.031474285 0.24747427 0.648 10265324
-0.030333335 0.24823812 0.65000004 7370432
-0.029095238 0.24823812 0.65000004 4874964
-0.027942857 0.24900191 0.65200001 2045865
-0.026782859 0.24976574 0.65400004 802246
-0.025576191 0.25014761 0.65500003 2973415
-0.024402859 0.25091141 0.65700001 7701211
-0.023151428 0.25091141 0.65700001 10859263
-0.087706678 0.24717334 0.64400005 7107748
-0.086480007 0.24717334 0.64400005 3357547
-0.085120954 0.24678952 0.64300001 3031976
-0.083765715 0.24640572 0.64200002 3360941
-0.082414292 0.2460219 0.64100003 5197214
-0.081193335 0.2460219 0.64100003 5460386
-0.079847619 0.2456381 0.64000005 6707103
-0.078260005 0.24448666 0.63700002 7299240
-0.076925717 0.24410287 0.63600004 8350596
-0.075595245 0.24371906 0.63500005 8942733
-0.074268572 0.24333523 0.634 10060729
-0.072830476 0.24256763 0.63200003 10323901
-0.071626663 0.24256763 0.63200003 10195378
-0.070422858 0.24256763 0.63200003 10524343
-0.069109522 0.24218382 0.63100004 10722513
-0.067907616 0.24218382 0.63100004 10656720
-0.066705719 0.24218382 0.63100004 10131673
-0.065503813 0.24218382 0.63100004 10658017
-0.064301908 0.24218382 0.63100004 11118825
-0.063100003 0.24218382 0.63100004 12763647
-0.061898097 0.24218382 0.63100004 13422335
-0.060696192 0.24218382 0.63100004 13751295
-0.059494291 0.24218382 0.63100004 13488639
-0.058292385 0.24218382 0.63100004 13422847
-0.05709048 0.24218382 0.63100004 12567807
-0.055888575 0.24218382 0.63100004 11844090
-0.054686669 0.24218382 0.63100004 11844085
-0.053484764 0.24218382 0.63100004 12436222
-0.052282859 0.24218382 0.63100004 13092860
-0.051080953 0.24218382 0.63100004 13027067
-0.049879052 0.24218382 0.63100004 12764159
-0.048754286 0.24256763 0.63200003 12303610
-0.047550477 0.24256763 0.63200003 11185401
-0.046493333 0.24333523 0.634 11053815
-0.045357145 0.24371906 0.63500005 11447799
-0.044147622 0.24371906 0.63500005 12105727
-0.043005716 0.24410287 0.63600004 12171506
-0.041794289 0.24410287 0.63600004 10724060
-0.040646669 0.24448666 0.63700002 10328298
-0.039433334 0.24448666 0.63700002 10328298
-0.038279999 0.24487048 0.63800001 10393832
-0.037180953 0.2456381 0.64000005 10393832
-0.036018096 0.2460219 0.64100003 10000859
-0.034797143 0.2460219 0.64100003 9869273
-0.033680953 0.24678952 0.64300001 10199267
-0.032506671 0.24717334 0.64400005 11120369
-0.031522859 0.2490924 0.64900005 10725609
-0.030333335 0.24947619 0.65000004 7435959
-0.029095238 0.24947619 0.65000004 4087753
-0.027942857 0.25024381 0.65200001 1982377
-0.026782859 0.25101143 0.65400004 870099
-0.025537144 0.25101143 0.65400004 2449131
-0.024328573 0.25139526 0.65500003 7176153
-0.023080952 0.25139526 0.65500003 10728959
-0.021833334 0.25139526 0.65500003 11186928
-0.087570474 0.24801429 0.64300001 7042471
-0.086345717 0.24801429 0.64300001 3292270
-0.085120954 0.24801429 0.64300001 3426474
-0.083765715 0.24762858 0.64200002 3689646
-0.082414292 0.24724287 0.64100003 5459357
-0.081193335 0.24724287 0.64100003 5590943
-0.079847619 0.24685715 0.64000005 7296405
-0.078260005 0.24570002 0.63700002 8020128
-0.076925717 0.2453143 0.63600004 8150417
-0.075595245 0.24492858 0.63500005 8939933
-0.074268572 0.24454284 0.634 9729465
-0.073060952 0.24454284 0.634 10255809
-0.071853332 0.24454284 0.634 9798077
-0.070422858 0.24377143 0.63200003 10324421
-0.069109522 0.24338573 0.63100004 10063813
-0.067907616 0.24338573 0.63100004 10063813
-0.066705719 0.24338573 0.63100004 10524364
-0.065503813 0.24338573 0.63100004 11708638
-0.064301908 0.24338573 0.63100004 11053293
-0.063100003 0.24338573 0.63100004 12566527
-0.061898097 0.24338573 0.63100004 13290750
-0.060696192 0.24338573 0.63100004 13224957
-0.059494291 0.24338573 0.63100004 13028348
-0.058292385 0.24338573 0.63100004 13028348
-0.05709048 0.24338573 0.63100004 12962303
-0.055888575 0.24338573 0.63100004 12633338
-0.054686669 0.24338573 0.63100004 12435711
-0.053484764 0.24338573 0.63100004 12567295
-0.052282859 0.24338573 0.63100004 12962044
-0.051080953 0.24338573 0.63100004 12830458
-0.049879052 0.24338573 0.63100004 12370175
-0.048754286 0.24377143 0.63200003 12172796
-0.047550477 0.24377143 0.63200003 11250922
-0.046493333 0.24454284 0.634 11250922
-0.045357145 0.24492858 0.63500005 11644919
-0.044147622 0.24492858 0.63500005 11842298
-0.043005716 0.2453143 0.63600004 11776246
-0.041860003 0.24570002 0.63700002 10723558
-0.040646669 0.24570002 0.63700002 10328800
-0.039433334 0.24570002 0.63700002 10394593
-0.038279999 0.24608572 0.63800001 10655975
-0.037239049 0.24724287 0.64100003 10721768
-0.036018096 0.24724287 0.64100003 9935584
-0.034905713 0.24801429 0.64300001 9803998
-0.033680953 0.24801429 0.64300001 9937642
-0.032607622 0.24917144 0.64600003 10792951
-0.031474285 0.24994285 0.648 10726890
-0.030286668 0.2503286 0.64900005 7042482
-0.029095238 0.25071427 0.65000004 4283338
-0.027857145 0.25071427 0.65000004 2375341
-0.026782859 0.25225717 0.65400004 1328851
-0.025537144 0.25225717 0.65400004 2644711
-0.024328573 0.25264287 0.65500003 6913753
-0.023080952 0.25264287 0.65500003 10663935
-0.021833334 0.25264287 0.65500003 11056116
-0.086211428 0.24885143 0.64200002 2897516
-0.084988572 0.24885143 0.64200002 2901165
-0.083765715 0.24885143 0.64200002 3559095
-0.082542859 0.24885143 0.64200002 4802719
-0.081193335 0.24846382 0.64100003 5131684
-0.079972379 0.24846382 0.64100003 7297173
-0.078382857 0.24730097 0.63800001 7362966
-0.076925717 0.24652573 0.63600004 7819415
-0.075595245 0.2461381 0.63500005 8082587
-0.074385718 0.2461381 0.63500005 8807091
-0.073060952 0.24575047 0.634 8872884
-0.071853332 0.24575047 0.634 8808888
-0.070422858 0.24497524 0.63200003 8808888
-0.069219045 0.24497524 0.63200003 8876207
-0.067907616 0.24458763 0.63100004 9270965
-0.066705719 0.24458763 0.63100004 8746706
-0.065503813 0.24458763 0.63100004 11904767
-0.064301908 0.24458763 0.63100004 12105713
-0.063100003 0.24458763 0.63100004 12697850
-0.061898097 0.24458763 0.63100004 13224957
-0.060696192 0.24458763 0.63100004 13093371
-0.059494291 0.24458763 0.63100004 12962557
-0.058292385 0.24458763 0.63100004 13028350
-0.05709048 0.24458763 0.63100004 13291007
-0.055888575 0.24458763 0.63100004 13488383
-0.054686669 0.24458763 0.63100004 13488639
-0.053484764 0.24458763 0.63100004 13291261
-0.052282859 0.24458763 0.63100004 13028348
-0.051080953 0.24458763 0.63100004 12896762
-0.049879052 0.24458763 0.63100004 12502015
-0.048908573 0.24575047 0.634 12370429
-0.047700949 0.24575047 0.634 12304114
-0.046493333 0.24575047 0.634 12633079
-0.045357145 0.2461381 0.63500005 12632829
-0.044147622 0.2461381 0.63500005 12238071
-0.043005716 0.24652573 0.63600004 12106235
-0.041860003 0.24691333 0.63700002 11250926
-0.040646669 0.24691333 0.63700002 11118820
-0.039495237 0.24730097 0.63800001 11118820
-0.038400002 0.2480762 0.64000005 11052775
-0.037239049 0.24846382 0.64100003 10723810
-0.036074288 0.24885143 0.64200002 9936111
-0.034905713 0.24923903 0.64300001 9870318
-0.033680953 0.24923903 0.64300001 10068967
-0.032607622 0.25040191 0.64600003 10792690
-0.031474285 0.25117713 0.648 10791654
-0.030286668 0.25156477 0.64900005 6975660
-0.029095238 0.25195241 0.65000004 3955913
-0.027857145 0.25195241 0.65000004 2245295
-0.026782859 0.25350288 0.65400004 1067744
-0.025576191 0.25389048 0.65500003 2186225
-0.02414286 0.25195241 0.65000004 6716124
-0.022904763 0.25195241 0.65000004 10597887
-0.021666668 0.25195241 0.65000004 11056116
-0.086480007 0.25085336 0.64400005 2831471
-0.084988572 0.2500743 0.64200002 2900136
-0.083765715 0.2500743 0.64200002 3558066
-0.082542859 0.2500743 0.64200002 4409733
-0.081320003 0.2500743 0.64200002 5067663
-0.079972379 0.24968477 0.64100003 7889562
-0.078382857 0.2485162 0.63800001 7823769
-0.076925717 0.24773717 0.63600004 7885973
-0.07571429 0.24773717 0.63600004 8017559
-0.074385718 0.24734764 0.63500005 8675246
-0.073060952 0.24695809 0.634 8477867
-0.071853332 0.24695809 0.634 8742304
-0.070645712 0.24695809 0.634 9202855
-0.0694381 0.24695809 0.634 9663926
-0.06801524 0.24617904 0.63200003 9005996
-0.066811427 0.24617904 0.63200003 8351921
-0.065503813 0.24578953 0.63100004 11838950
-0.064301908 0.24578953 0.63100004 12500219
-0.063100003 0.24578953 0.63100004 12763391
-0.061898097 0.24578953 0.63100004 12633599
-0.060696192 0.24578953 0.63100004 12896767
-0.059494291 0.24578953 0.63100004 12962814
-0.058292385 0.24578953 0.63100004 12962814
-0.05709048 0.24578953 0.63100004 13159934
-0.055888575 0.24578953 0.63100004 13225727
-0.054773334 0.24617904 0.63200003 13357311
-0.053484764 0.24578953 0.63100004 13291518
-0.052282859 0.24578953 0.63100004 13226749
-0.051161904 0.24617904 0.63200003 13226749
-0.049958095 0.24617904 0.63200003 13292029
-0.048908573 0.24695809 0.634 13028857
-0.047700949 0.24695809 0.634 12699903
-0.046493333 0.24695809 0.634 12765695
-0.045357145 0.24734764 0.63500005 12765183
-0.044147622 0.24734764 0.63500005 12699390
-0.043005716 0.24773717 0.63600004 12633599
-0.041860003 0.24812669 0.63700002 12173050
-0.040646669 0.24812669 0.63700002 11579891
-0.039495237 0.2485162 0.63800001 11053547
-0.038400002 0.24929525 0.64000005 10725613
-0.037239049 0.24968477 0.64100003 10462441
-0.036074288 0.2500743 0.64200002 9607914
-0.034905713 0.25046381 0.64300001 9805293
-0.033680953 0.25046381 0.64300001 10527980
-0.032607622 0.25163239 0.64600003 11054324
-0.031474285 0.25241143 0.648 10725861
-0.030286668 0.25280097 0.64900005 7041453
-0.029095238 0.25319049 0.65000004 4415698
-0.027857145 0.25319049 0.65000004 2770873
-0.026782859 0.25474858 0.65400004 1461471
-0.025576191 0.2551381 0.65500003 2448366
-0.02414286 0.25319049 0.65000004 6387678
-0.022904763 0.25319049 0.65000004 10335231
-0.086480007 0.25208002 0.64400005 2503537
-0.085253336 0.25208002 0.64400005 1918381
-0.084026672 0.25208002 0.64400005 2971069
-0.082800008 0.25208002 0.64400005 4084080
-0.081573337 0.25208002 0.64400005 4544631
-0.079972379 0.25090572 0.64100003 6839191
-0.078628577 0.2505143 0.64000005 7891879
-0.07704667 0.24934 0.63700002 8216219
-0.07571429 0.24894859 0.63600004 8347805
-0.074385718 0.24855715 0.63500005 8478124
-0.073176198 0.24855715 0.63500005 7754401
-0.07196667 0.24855715 0.63500005 8149386
-0.070645712 0.24816571 0.634 9399453
-0.0694381 0.24816571 0.634 9399741
-0.068230473 0.24816571 0.634 8610225
-0.066811427 0.24738286 0.63200003 8348589
-0.065607622 0.24738286 0.63200003 12361962
-0.064301908 0.24699143 0.63100004 12959473
-0.063100003 0.24699143 0.63100004 12893680
-0.061898097 0.24699143 0.63100004 12500471
-0.060792383 0.24738286 0.63200003 12434678
-0.059588574 0.24738286 0.63200003 11974908
-0.058384765 0.24738286 0.63200003 11777529
-0.057180952 0.24738286 0.63200003 11514875
-0.055977143 0.24738286 0.63200003 11185910
-0.054773334 0.24738286 0.63200003 10857715
-0.053569525 0.24738286 0.63200003 11581438
-0.052365717 0.24738286 0.63200003 11844863
-0.051161904 0.24738286 0.63200003 12963327
-0.049958095 0.24738286 0.63200003 13357565
-0.04898572 0.24855715 0.63500005 13291772
-0.047776196 0.24855715 0.63500005 13423358
-0.046566669 0.24855715 0.63500005 13489151
-0.045357145 0.24855715 0.63500005 13423103
-0.044147622 0.24855715 0.63500005 13357311
-0.043005716 0.24894859 0.63600004 13093375
-0.041860003 0.24934 0.63700002 12567036
-0.040646669 0.24934 0.63700002 11645178
-0.039495237 0.24973144 0.63800001 10921455
-0.038400002 0.2505143 0.64000005 10593773
-0.037239049 0.25090572 0.64100003 10659566
-0.036074288 0.25129715 0.64200002 10396910
-0.034905713 0.25168857 0.64300001 10396910
-0.033680953 0.25168857 0.64300001 10790895
-0.032506671 0.25208002 0.64400005 10922481
-0.031474285 0.25364572 0.648 10396639
-0.030286668 0.25403714 0.64900005 7238575
-0.029095238 0.2544286 0.65000004 4284630
-0.027857145 0.2544286 0.65000004 2968770
-0.026782859 0.25599429 0.65400004 2381296
-0.025576191 0.25638571 0.65500003 2710261
-0.024328573 0.25638571 0.65500003 5598941
-0.086748578 0.25409335 0.64600003 2503022
-0.085253336 0.25330669 0.64400005 1984920
-0.08389619 0.25291333 0.64300001 3563952
-0.082671426 0.25291333 0.64300001 5006957
-0.081446663 0.25291333 0.64300001 4414820
-0.080097146 0.25251999 0.64200002 5592171
-0.078628577 0.25173333 0.64000005 7368582
-0.07704667 0.25055334 0.63700002 8086152
-0.07571429 0.25016004 0.63600004 8217738
-0.074385718 0.24976669 0.63500005 8807341
-0.073176198 0.24976669 0.63500005 8215204
-0.07196667 0.24976669 0.63500005 8214173
-0.070645712 0.24937335 0.634 9003689
-0.0694381 0.24937335 0.634 9266881
-0.068230473 0.24937335 0.634 8740537
-0.066811427 0.24858668 0.63200003 8411815
-0.065607622 0.24858668 0.63200003 12359395
-0.064301908 0.24819335 0.63100004 12104166
-0.063100003 0.24819335 0.63100004 12564717
-0.061898097 0.24819335 0.63100004 12171767
-0.060792383 0.24858668 0.63200003 11908595
-0.059588574 0.24858668 0.63200003 11645684
-0.058384765 0.24858668 0.63200003 11514098
-0.057180952 0.24858668 0.63200003 11579378
-0.055977143 0.24858668 0.63200003 10921448
-0.054773334 0.24858668 0.63200003 10527199
-0.053569525 0.24858668 0.63200003 11777266
-0.052365717 0.24858668 0.63200003 11516159
-0.051161904 0.24858668 0.63200003 12831999
-0.050116193 0.24937335 0.634 13357565
-0.04898572 0.24976669 0.63500005 13357565
-0.047776196 0.24976669 0.63500005 13489149
-0.046566669 0.24976669 0.63500005 13291770
-0.045357145 0.24976669 0.63500005 12963839
-0.044147622 0.24976669 0.63500005 12898047
-0.043005716 0.25016004 0.63600004 12699391
-0.041860003 0.25055334 0.63700002 12107257
-0.040710479 0.25094667 0.63800001 11120894
-0.039495237 0.25094667 0.63800001 10528757
-0.038400002 0.25173333 0.64000005 10724596
-0.037239049 0.25212666 0.64100003 10987768
-0.036074288 0.25251999 0.64200002 11054574
-0.034905713 0.25291333 0.64300001 11120367
-0.033680953 0.25291333 0.64300001 11053041
-0.032506671 0.25330669 0.64400005 10724076
-0.031474285 0.25487998 0.648 9804750
-0.030286668 0.25527334 0.64900005 7107237
-0.029095238 0.25566667 0.65000004 4547291
-0.027857145 0.25566667 0.65000004 4086740
-0.026823809 0.25763336 0.65500003 3760873
-0.025576191 0.25763336 0.65500003 2971357
-0.024328573 0.25763336 0.65500003 4809693
-0.086748578 0.2553238 0.64600003 2371947
-0.085253336 0.25453335 0.64400005 1591460
-0.08389619 0.25413808 0.64300001 4157387
-0.082671426 0.25413808 0.64300001 5994343
-0.081446663 0.25413808 0.64300001 5731171
-0.080221906 0.25413808 0.64300001 6254946
-0.078628577 0.2529524 0.64000005 7044462
-0.077167623 0.25216192 0.63800001 8091776
-0.07571429 0.25137141 0.63600004 8354948
-0.074502863 0.25137141 0.63600004 8416185
-0.073176198 0.2509762 0.63500005 8087220
-0.07196667 0.2509762 0.63500005 8282046
-0.070757151 0.2509762 0.63500005 8611011
-0.069547623 0.2509762 0.63500005 9071056
-0.068230473 0.25058097 0.634 9071056
-0.06702286 0.25058097 0.634 8808626
-0.065607622 0.24979047 0.63200003 9729728
-0.06440381 0.24979047 0.63200003 9800130
-0.063199997 0.24979047 0.63200003 11379162
-0.061996192 0.24979047 0.63200003 11118314
-0.060792383 0.24979047 0.63200003 10986728
-0.059588574 0.24979047 0.63200003 10789610
-0.058384765 0.24979047 0.63200003 10723817
-0.057180952 0.24979047 0.63200003 10788336
-0.055977143 0.24979047 0.63200003 10261992
-0.054773334 0.24979047 0.63200003 10395102
-0.053569525 0.24979047 0.63200003 12368892
-0.052365717 0.24979047 0.63200003 12962047
-0.051323809 0.25058097 0.634 13488383
-0.050116193 0.25058097 0.634 13554685
-0.04898572 0.2509762 0.63500005 13554685
-0.047776196 0.2509762 0.63500005 13488638
-0.046566669 0.2509762 0.63500005 12633329
-0.045357145 0.2509762 0.63500005 12108284
-0.044217143 0.25137141 0.63600004 11252975
-0.043005716 0.25137141 0.63600004 10398463
-0.041860003 0.25176668 0.63700002 10135291
-0.040710479 0.25216192 0.63800001 10989819
-0.039619051 0.2529524 0.64000005 11121405
-0.038460001 0.25334764 0.64100003 11186430
-0.037297145 0.25374287 0.64200002 10857465
-0.036074288 0.25374287 0.64200002 10988261
-0.034905713 0.25413808 0.64300001 11448812
-0.033680953 0.25413808 0.64300001 11578867
-0.032506671 0.25453335 0.64400005 10394593
-0.031474285 0.2561143 0.648 9212604
-0.030286668 0.25650954 0.64900005 7107228
-0.029095238 0.25690475 0.65000004 5335526
-0.027857145 0.25690475 0.65000004 5335526
-0.026823809 0.25888097 0.65500003 4681705
-0.025654286 0.25967142 0.65700001 3234259
-0.024402859 0.25967142 0.65700001 4546787
-0.086748578 0.25655431 0.64600003 2371690
-0.085253336 0.25576004 0.64400005 1197205
-0.084026672 0.25576004 0.64400005 3894718
-0.082671426 0.25536287 0.64300001 5667186
-0.081446663 0.25536287 0.64300001 5798772
-0.080221906 0.25536287 0.64300001 5667942
-0.078628577 0.25417143 0.64000005 5931114
-0.077167623 0.25337714 0.63800001 7307132
-0.07571429 0.25258285 0.63600004 7899269
-0.074502863 0.25258285 0.63600004 8748952
-0.073291428 0.25258285 0.63600004 8551573
-0.072080001 0.25258285 0.63600004 8747181
-0.070757151 0.25218573 0.63500005 8944560
-0.069547623 0.25218573 0.63500005 9599930
-0.068338096 0.25218573 0.63500005 9270965
-0.067128576 0.25218573 0.63500005 8810151
-0.065919049 0.25218573 0.63500005 9204909
-0.064709529 0.25218573 0.63500005 8551099
-0.0634 0.25178856 0.634 11182819
-0.06219238 0.25178856 0.634 10987500
-0.060792383 0.25099429 0.63200003 10855914
-0.059588574 0.25099429 0.63200003 11052262
-0.058384765 0.25099429 0.63200003 11052262
-0.057361905 0.25178856 0.634 10853608
-0.056154288 0.25178856 0.634 10787815
-0.054946665 0.25178856 0.634 10657252
-0.053739045 0.25178856 0.634 12499455
-0.052531429 0.25178856 0.634 13225215
-0.051404767 0.25218573 0.63500005 13291007
-0.050195243 0.25218573 0.63500005 13093628
-0.04898572 0.25218573 0.63500005 13027835
-0.047776196 0.25218573 0.63500005 12896510
-0.046566669 0.25218573 0.63500005 12633338
-0.045428574 0.25258285 0.63600004 12436222
-0.044217143 0.25258285 0.63600004 11515120
-0.043005716 0.25258285 0.63600004 10136318
-0.041860003 0.25297999 0.63700002 10202111
-0.040646669 0.25297999 0.63700002 11055871
-0.039495237 0.25337714 0.63800001 10990078
-0.038400002 0.25417143 0.64000005 11120383
-0.037239049 0.25456861 0.64100003 11054590
-0.036074288 0.25496572 0.64200002 11118834
-0.034905713 0.25536287 0.64300001 11316213
-0.033680953 0.25536287 0.64300001 11710442
-0.032506671 0.25576004 0.64400005 10197203
-0.031474285 0.25734857 0.648 9014716
-0.030333335 0.25814286 0.65000004 7698856
-0.029095238 0.25814286 0.65000004 6190047
-0.027942857 0.25893715 0.65200001 5466324
-0.026905714 0.26092285 0.65700001 4681964
-0.025654286 0.26092285 0.65700001 3563483
-0.024402859 0.26092285 0.65700001 4612580
-0.023151428 0.26092285 0.65700001 8757503
-0.086480007 0.25698668 0.64400005 2043754
-0.085253336 0.25698668 0.64400005 868773
-0.084026672 0.25698668 0.64400005 3237321
-0.082671426 0.25658759 0.64300001 4616558
-0.081446663 0.25658759 0.64300001 5406074
-0.080221906 0.25658759 0.64300001 5931355
-0.078628577 0.2553905 0.64000005 5997148
-0.077167623 0.25459236 0.63800001 6586734
-0.07571429 0.25379428 0.63600004 6718320
-0.074502863 0.25379428 0.63600004 7307616
-0.073291428 0.25379428 0.63600004 8228718
-0.072080001 0.25379428 0.63600004 8686495
-0.070868574 0.25379428 0.63600004 9278632
-0.069657147 0.25379428 0.63600004 9474469
-0.068338096 0.25339526 0.63500005 8619160
-0.067128576 0.25339526 0.63500005 8551592
-0.065919049 0.25339526 0.63500005 8814764
-0.064709529 0.25339526 0.63500005 8947167
-0.0634 0.25299618 0.634 11249919
-0.06219238 0.25299618 0.634 11579882
-0.060792383 0.2521981 0.63200003 11579882
-0.059588574 0.2521981 0.63200003 11579882
-0.058384765 0.2521981 0.63200003 11711468
-0.057180952 0.2521981 0.63200003 11842539
-0.056154288 0.25299618 0.634 11974125
-0.054946665 0.25299618 0.634 11843061
-0.053739045 0.25299618 0.634 11843061
-0.052531429 0.25299618 0.634 11844083
-0.051323809 0.25299618 0.634 11844083
-0.050195243 0.25339526 0.63500005 11450102
-0.04898572 0.25339526 0.63500005 11318516
-0.047776196 0.25339526 0.63500005 11384318
-0.046640005 0.25379428 0.63600004 11515903
-0.045428574 0.25379428 0.63600004 11647487
-0.044217143 0.25379428 0.63600004 11581695
-0.043005716 0.25379428 0.63600004 11253503
-0.041860003 0.25419334 0.63700002 11121919
-0.040646669 0.25419334 0.63700002 10923775
-0.039495237 0.25459236 0.63800001 10923775
-0.038400002 0.2553905 0.64000005 11514107
-0.037239049 0.25578952 0.64100003 11777279
-0.036074288 0.25618857 0.64200002 11974138
-0.034905713 0.25658759 0.64300001 11382001
-0.033680953 0.25658759 0.64300001 11447258
-0.032506671 0.25698668 0.64400005 10065605
-0.031474285 0.25858286 0.648 9146048
-0.030286668 0.25898194 0.64900005 8159153
-0.029095238 0.25938097 0.65000004 6255579
-0.027857145 0.25938097 0.65000004 5334477
-0.026905714 0.26217428 0.65700001 4550380
-0.025654286 0.26217428 0.65700001 3826657
-0.024402859 0.26217428 0.65700001 4678375
-0.023151428 0.26217428 0.65700001 7441663
-0.089204758 0.26262382 0.65500003 6121637
-0.087151438 0.26021811 0.64900005 2239850
-0.085253336 0.25821334 0.64400005 867734
-0.084026672 0.25821334 0.64400005 3236282
-0.082800008 0.25821334 0.64400005 4091990
-0.081446663 0.25781238 0.64300001 5868401
-0.080221906 0.25781238 0.64300001 6260608
-0.07875143 0.25701049 0.64100003 5997436
-0.077409528 0.25660956 0.64000005 5931380
-0.075952381 0.25580761 0.63800001 5997173
-0.074737139 0.25580761 0.63800001 6325863
-0.073406667 0.25540668 0.63700002 6852207
-0.072080001 0.25500572 0.63600004 6982537
-0.070868574 0.25500572 0.63600004 7574674
-0.069657147 0.25500572 0.63600004 8230805
-0.068338096 0.25460479 0.63500005 8099219
-0.067128576 0.25460479 0.63500005 8622733
-0.065919049 0.25460479 0.63500005 8754319
-0.064709529 0.25460479 0.63500005 9935550
-0.0634 0.2542038 0.634 11317203
-0.06219238 0.2542038 0.634 11514614
-0.060984757 0.2542038 0.634 11448821
-0.059777141 0.2542038 0.634 11252723
-0.058384765 0.25340194 0.63200003 11384309
-0.057180952 0.25340194 0.63200003 11844085
-0.056154288 0.2542038 0.634 11844085
-0.054946665 0.2542038 0.634 11843581
-0.053739045 0.2542038 0.634 11777788
-0.052531429 0.2542038 0.634 11449850
-0.051323809 0.2542038 0.634 11318264
-0.050195243 0.25460479 0.63500005 11384829
-0.04898572 0.25460479 0.63500005 11319036
-0.047776196 0.25460479 0.63500005 11253502
-0.046640005 0.25500572 0.63600004 11319295
-0.045428574 0.25500572 0.63600004 11254015
-0.044217143 0.25500572 0.63600004 11319807
-0.043073334 0.25540668 0.63700002 11844607
-0.041860003 0.25540668 0.63700002 11384057
-0.040710479 0.25580761 0.63800001 11185653
-0.039619051 0.25660956 0.64000005 11383032
-0.038460001 0.25701049 0.64100003 11644667
-0.037297145 0.25741145 0.64200002 11842046
-0.036074288 0.25741145 0.64200002 11974136
-0.034905713 0.25781238 0.64300001 10789862
-0.033680953 0.25781238 0.64300001 10525652
-0.032506671 0.25821334 0.64400005 9999308
-0.031522859 0.26021811 0.64900005 9474245
-0.030286668 0.26021811 0.64900005 8355764
-0.029050479 0.26021811 0.64900005 6451929
-0.027857145 0.26061907 0.65000004 5399241
-0.026905714 0.26342574 0.65700001 4549610
-0.025654286 0.26342574 0.65700001 4023266
-0.024402859 0.26342574 0.65700001 4414951
-0.023186669 0.2638267 0.65800005 6257151
-0.090452388 0.26387143 0.65500003 7567527
-0.089204758 0.26387143 0.65500003 5662119
-0.087151438 0.26145428 0.64900005 2240883
-0.085915245 0.26145428 0.64900005 869545
-0.084026672 0.25944 0.64400005 3172300
-0.082671426 0.25903717 0.64300001 4223815
-0.081446663 0.25903717 0.64300001 6526570
-0.080097146 0.2586343 0.64200002 7180434
-0.07875143 0.25823143 0.64100003 6390918
-0.077409528 0.25782859 0.64000005 6129020
-0.075952381 0.25702286 0.63800001 6392192
-0.074737139 0.25702286 0.63800001 6589303
-0.073406667 0.25662002 0.63700002 6589303
-0.072080001 0.25621715 0.63600004 6589807
-0.070868574 0.25621715 0.63600004 6524014
-0.069657147 0.25621715 0.63600004 7115116
-0.06844572 0.25621715 0.63600004 7312495
-0.067128576 0.25581428 0.63500005 7376992
-0.065919049 0.25581428 0.63500005 7903336
-0.064709529 0.25581428 0.63500005 8754832
-0.0634 0.25541145 0.634 10531243
-0.06219238 0.25541145 0.634 11449073
-0.060984757 0.25541145 0.634 11185901
-0.059777141 0.25541145 0.634 11252721
-0.058569524 0.25541145 0.634 11318514
-0.057361905 0.25541145 0.634 11646963
-0.056154288 0.25541145 0.634 11646963
-0.054946665 0.25541145 0.634 11384057
-0.053739045 0.25541145 0.634 11252471
-0.052614287 0.25581428 0.63500005 11121151
-0.051404767 0.25581428 0.63500005 11121151
-0.050195243 0.25581428 0.63500005 11515902
-0.04898572 0.25581428 0.63500005 11713279
-0.047851432 0.25621715 0.63600004 11647740
-0.046640005 0.25621715 0.63600004 11581947
-0.045428574 0.25621715 0.63600004 11581688
-0.044217143 0.25621715 0.63600004 11515895
-0.043073334 0.25662002 0.63700002 11514614
-0.041860003 0.25662002 0.63700002 11185649
-0.040710479 0.25702286 0.63800001 11316467
-0.039619051 0.25782859 0.64000005 11908604
-0.038460001 0.25823143 0.64100003 12237047
