# .PCD v0.7 - Point Cloud Data file format
VERSION 0.7
FIELDS x y z rgba
SIZE 4 4 4 4
TYPE F F F U
COUNT 1 1 1 1
WIDTH 1109
HEIGHT 1
VIEWPOINT 0 0 0 1 0 0 0
POINTS 1109
DATA ascii
-0.06147429 0.24776001 0.65200001 8681404
-0.060047623 0.24700001 0.65000004 9536713
-0.058809526 0.24700001 0.65000004 10789855
-0.057571433 0.24700001 0.65000004 11447785
-0.056333333 0.24700001 0.65000004 11251711
-0.05509524 0.24700001 0.65000004 10922751
-0.053857144 0.24700001 0.65000004 10922992
-0.052619051 0.24700001 0.65000004 10330855
-0.051380955 0.24700001 0.65000004 10331880
-0.050142858 0.24700001 0.65000004 11779326
-0.048904765 0.24700001 0.65000004 12041983
-0.047666669 0.24700001 0.65000004 12897279
-0.046428576 0.24700001 0.65000004 13357565
-0.045190476 0.24700001 0.65000004 13225979
-0.044087619 0.24776001 0.65200001 12503807
-0.042845711 0.24776001 0.65200001 12109052
-0.041603811 0.24776001 0.65200001 11714559
-0.040423814 0.24814002 0.65300006 11254011
-0.039240003 0.24852002 0.65400004 11254015
-0.037994288 0.24852002 0.65400004 11056639
-0.036804762 0.2489 0.65500003 11582719
-0.035665717 0.24966 0.65700001 11845887
-0.034466669 0.25004002 0.65800005 11385087
-0.03326381 0.25042 0.65900004 11187711
-0.032008573 0.25042 0.65900004 11319039
-0.030846667 0.25118002 0.66100001 11516415
-0.029587621 0.25118002 0.66100001 11843071
-0.028371431 0.25156003 0.66200006 10527219
-0.027192382 0.25231999 0.66400003 10001627
-0.026005713 0.25308001 0.66600001 8225216
-0.024774287 0.25346002 0.66700006 5534186
-0.023644762 0.25498 0.671 5139428
-0.022400003 0.25536001 0.67200005 4551927
-0.021182857 0.25612 0.67400002 3762411
-0.019899048 0.25612 0.67400002 5075182
-0.082717143 0.25320286 0.66300005 3889581
-0.081454292 0.25320286 0.66300005 2244756
-0.080070481 0.252821 0.66200006 3497882
-0.078690477 0.25243905 0.66100001 5340086
-0.077431425 0.25243905 0.66100001 5735280
-0.075941913 0.25167525 0.65900004 6130038
-0.074573338 0.25129336 0.65800005 5933181
-0.073320009 0.25129336 0.65800005 6196353
-0.071957141 0.25091141 0.65700001 6982798
-0.070490479 0.25014761 0.65500003 7180177
-0.069242857 0.25014761 0.65500003 8754319
-0.067891434 0.24976574 0.65400004 8885905
-0.066645719 0.24976574 0.65400004 9342633
-0.065300003 0.24938384 0.65300006 9342633
-0.064056195 0.24938384 0.65300006 9472427
-0.062716186 0.24900191 0.65200001 9209255
-0.06147429 0.24900191 0.65200001 8618411
-0.060047623 0.24823812 0.65000004 10131650
-0.058809526 0.24823812 0.65000004 10856182
-0.057571433 0.24823812 0.65000004 11448319
-0.056333333 0.24823812 0.65000004 11317759
-0.05509524 0.24823812 0.65000004 11251967
-0.053857144 0.24823812 0.65000004 11317246
-0.052619051 0.24823812 0.65000004 11251453
-0.051380955 0.24823812 0.65000004 10726655
-0.050142858 0.24823812 0.65000004 11713535
-0.048904765 0.24823812 0.65000004 12305407
-0.047666669 0.24823812 0.65000004 12568575
-0.04657143 0.24900191 0.65200001 12633599
-0.045329522 0.24900191 0.65200001 12567806
-0.044087619 0.24900191 0.65200001 12437758
-0.042845711 0.24900191 0.65200001 11845621
-0.041667622 0.24938384 0.65300006 11385343
-0.040423814 0.24938384 0.65300006 11451135
-0.039240003 0.24976574 0.65400004 11451135
-0.037994288 0.24976574 0.65400004 11319551
-0.036804762 0.25014761 0.65500003 11713535
-0.035665717 0.25091141 0.65700001 11779327
-0.034466669 0.25129336 0.65800005 11516415
-0.03326381 0.25167525 0.65900004 11582207
-0.032008573 0.25167525 0.65900004 11844863
-0.030846667 0.25243905 0.66100001 11581695
-0.029587621 0.25243905 0.66100001 11777790
-0.028371431 0.252821 0.66200006 10198758
-0.027192382 0.25358477 0.66400003 9803996
-0.026005713 0.25434858 0.66600001 8619722
-0.024774287 0.25473049 0.66700006 6388707
-0.023644762 0.2562581 0.671 5533398
-0.022400003 0.25664002 0.67200005 4880122
-0.021182857 0.25740382 0.67400002 4222192
-0.019958096 0.25816762 0.67600006 5534447
-0.018725716 0.25893146 0.67800003 8955647
-0.083980009 0.25446573 0.66300005 6844317
-0.082717143 0.25446573 0.66300005 3167402
-0.081454292 0.25446573 0.66300005 1917335
-0.080070481 0.2540819 0.66200006 2711712
-0.078690477 0.25369808 0.66100001 4159158
-0.077431425 0.25369808 0.66100001 5603957
-0.075941913 0.25293049 0.65900004 6722438
-0.074686669 0.25293049 0.65900004 6721925
-0.073320009 0.25254667 0.65800005 6458753
-0.072066672 0.25254667 0.65800005 6721148
-0.070490479 0.25139526 0.65500003 6589562
-0.069242857 0.25139526 0.65500003 7245919
-0.067891434 0.25101143 0.65400004 7772263
-0.066645719 0.25101143 0.65400004 8032897
-0.065300003 0.25062764 0.65300006 8559241
-0.064056195 0.25062764 0.65300006 8492930
-0.062716186 0.25024381 0.65200001 8690309
-0.06147429 0.25024381 0.65200001 8688822
-0.060232379 0.25024381 0.65200001 10991577
-0.058809526 0.24947619 0.65000004 11975935
-0.057571433 0.24947619 0.65000004 11646975
-0.056333333 0.24947619 0.65000004 11187199
-0.05509524 0.24947619 0.65000004 11910911
-0.053857144 0.24947619 0.65000004 12569087
-0.052619051 0.24947619 0.65000004 12569087
-0.051380955 0.24947619 0.65000004 12109055
-0.050142858 0.24947619 0.65000004 11911679
-0.048904765 0.24947619 0.65000004 11845631
-0.047666669 0.24947619 0.65000004 11779839
-0.04657143 0.25024381 0.65200001 11648255
-0.045329522 0.25024381 0.65200001 11582463
-0.04415524 0.25062764 0.65300006 11517439
-0.042911433 0.25062764 0.65300006 11583231
-0.041667622 0.25062764 0.65300006 12109311
-0.040485717 0.25101143 0.65400004 12306687
-0.039240003 0.25101143 0.65400004 11780351
-0.037994288 0.25101143 0.65400004 11385599
-0.036804762 0.25139526 0.65500003 11516159
-0.035665717 0.25216284 0.65700001 11581951
-0.034466669 0.25254667 0.65800005 11647487
-0.03326381 0.25293049 0.65900004 12371199
-0.032008573 0.25293049 0.65900004 12436223
-0.030846667 0.25369808 0.66100001 11515127
-0.029587621 0.25369808 0.66100001 11317221
-0.028371431 0.2540819 0.66200006 10001361
-0.027192382 0.25484952 0.66400003 9869278
-0.026005713 0.25561714 0.66600001 8948176
-0.024774287 0.25600097 0.66700006 6322655
-0.023609525 0.25715238 0.67000002 5401553
-0.022400003 0.25792 0.67200005 5076474
-0.021182857 0.25868762 0.67400002 4747509
-0.019958096 0.25945523 0.67600006 5402868
-0.018670477 0.25945523 0.67600006 7639807
-0.08259239 0.25534287 0.66200006 3232675
-0.081331439 0.25534287 0.66200006 2114194
-0.080070481 0.25534287 0.66200006 3236257
-0.078690477 0.25495717 0.66100001 5078461
-0.077431425 0.25495717 0.66100001 5473402
-0.075941913 0.25418574 0.65900004 6526090
-0.074686669 0.25418574 0.65900004 6722188
-0.073320009 0.2538 0.65800005 6459016
-0.072066672 0.2538 0.65800005 6656384
-0.070490479 0.25264287 0.65500003 6524798
-0.069242857 0.25264287 0.65500003 6131303
-0.067891434 0.25225717 0.65400004 6723440
-0.066645719 0.25225717 0.65400004 6854285
-0.065400004 0.25225717 0.65400004 7183250
-0.064056195 0.25187144 0.65300006 6789244
-0.062716186 0.25148571 0.65200001 7118209
-0.06147429 0.25148571 0.65200001 7772566
-0.060232379 0.25148571 0.65200001 9812149
-0.058809526 0.25071427 0.65000004 10927090
-0.057571433 0.25071427 0.65000004 10927090
-0.056333333 0.25071427 0.65000004 10663167
-0.05509524 0.25071427 0.65000004 11255295
-0.053857144 0.25071427 0.65000004 11782399
-0.052619051 0.25071427 0.65000004 11585023
-0.051380955 0.25071427 0.65000004 11453183
-0.050142858 0.25071427 0.65000004 11387391
-0.048904765 0.25071427 0.65000004 11255295
-0.047666669 0.25071427 0.65000004 11189503
-0.04657143 0.25148571 0.65200001 11189759
-0.045329522 0.25148571 0.65200001 11123967
-0.04415524 0.25187144 0.65300006 11189759
-0.042911433 0.25187144 0.65300006 11321343
-0.041667622 0.25187144 0.65300006 12043775
-0.040485717 0.25225717 0.65400004 11977983
-0.039240003 0.25225717 0.65400004 11714559
-0.037994288 0.25225717 0.65400004 11451391
-0.036804762 0.25264287 0.65500003 11647487
-0.035557143 0.25264287 0.65500003 11647487
-0.034414288 0.25341427 0.65700001 11581695
-0.033213336 0.2538 0.65800005 12042239
-0.032008573 0.25418574 0.65900004 12436223
-0.030846667 0.25495717 0.66100001 10922990
-0.029587621 0.25495717 0.66100001 10264801
-0.028371431 0.25534287 0.66200006 9935836
-0.027192382 0.2561143 0.66400003 9803489
-0.026005713 0.25688571 0.66600001 9079766
-0.024737144 0.25688571 0.66600001 6650337
-0.02353905 0.25765714 0.66800004 5597649
-0.022400003 0.25920004 0.67200005 4682491
-0.021120002 0.25920004 0.67200005 4419319
-0.019958096 0.26074287 0.67600006 5336823
-0.018670477 0.26074287 0.67600006 6586879
-0.08259239 0.25660384 0.66200006 2050732
-0.081331439 0.25660384 0.66200006 1787560
-0.080070481 0.25660384 0.66200006 3368102
-0.078690477 0.2562162 0.66100001 5539271
-0.077431425 0.2562162 0.66100001 5998976
-0.075941913 0.25544095 0.65900004 6854285
-0.074686669 0.25544095 0.65900004 6657179
-0.073431432 0.25544095 0.65900004 6262421
-0.072066672 0.25505337 0.65800005 6526079
-0.070705712 0.25466573 0.65700001 6460286
-0.069242857 0.25389048 0.65500003 6460536
-0.067995243 0.25389048 0.65500003 7315845
-0.066645719 0.25350288 0.65400004 7775387
-0.065400004 0.25350288 0.65400004 7775387
-0.06415429 0.25350288 0.65400004 7710083
-0.062716186 0.25272763 0.65200001 7578497
-0.06147429 0.25272763 0.65200001 7511418
-0.060232379 0.25272763 0.65200001 8037762
-0.058990479 0.25272763 0.65200001 10072491
-0.057571433 0.25195241 0.65000004 10993593
-0.056333333 0.25195241 0.65000004 10925567
-0.05509524 0.25195241 0.65000004 10662396
-0.053857144 0.25195241 0.65000004 10794751
-0.052619051 0.25195241 0.65000004 10860543
-0.051539049 0.25272763 0.65200001 11057663
-0.050297141 0.25272763 0.65200001 11057663
-0.049055237 0.25272763 0.65200001 11320319
-0.047813334 0.25272763 0.65200001 11320319
-0.04657143 0.25272763 0.65200001 11583231
-0.045329522 0.25272763 0.65200001 11780607
-0.04415524 0.25311527 0.65300006 11714559
-0.042911433 0.25311527 0.65300006 11582975
-0.041731432 0.25350288 0.65400004 11648255
-0.040485717 0.25350288 0.65400004 11648255
-0.039240003 0.25350288 0.65400004 11844863
-0.037994288 0.25350288 0.65400004 11713279
-0.036804762 0.25389048 0.65500003 12041469
-0.035557143 0.25389048 0.65500003 12436223
-0.034414288 0.25466573 0.65700001 12502013
-0.033213336 0.25505337 0.65800005 11646704
-0.032008573 0.25544095 0.65900004 11120119
-0.030846667 0.2562162 0.66100001 9870052
-0.029587621 0.2562162 0.66100001 10000855
-0.028371431 0.25660384 0.66200006 10066648
-0.027192382 0.25737906 0.66400003 9934562
-0.026005713 0.2581543 0.66600001 9342425
-0.024737144 0.2581543 0.66600001 6716134
-0.02353905 0.25892952 0.66800004 5400274
-0.022400003 0.26048002 0.67200005 4616959
-0.021120002 0.26048002 0.67200005 4419582
-0.019899048 0.26125526 0.67400002 5206779
-0.018642858 0.26164287 0.67500001 6062079
-0.08259239 0.25786477 0.66200006 1853349
-0.081331439 0.25786477 0.66200006 1984935
-0.080070481 0.25786477 0.66200006 3499172
-0.07880953 0.25786477 0.66200006 5407169
-0.077431425 0.25747523 0.66100001 5867897
-0.075941913 0.25669619 0.65900004 6525827
-0.074686669 0.25669619 0.65900004 6591638
-0.073431432 0.25669619 0.65900004 6328466
-0.072176196 0.25669619 0.65900004 6526851
-0.070705712 0.25591716 0.65700001 6526851
-0.06945429 0.25591716 0.65700001 6330746
-0.067995243 0.2551381 0.65500003 6988676
-0.066747628 0.2551381 0.65500003 7447192
-0.065400004 0.25474858 0.65400004 7447192
-0.06415429 0.25474858 0.65400004 7710594
-0.06281238 0.25435907 0.65300006 7644801
-0.061568573 0.25435907 0.65300006 8169838
-0.060324769 0.25435907 0.65300006 8169838
-0.058990479 0.25396952 0.65200001 9021114
-0.057571433 0.25319049 0.65000004 10336974
-0.056333333 0.25319049 0.65000004 10596092
-0.05509524 0.25319049 0.65000004 10332920
-0.053857144 0.25319049 0.65000004 10858746
-0.052619051 0.25319049 0.65000004 10990332
-0.051380955 0.25319049 0.65000004 11450622
-0.050142858 0.25319049 0.65000004 11582207
-0.049055237 0.25396952 0.65200001 11714047
-0.047813334 0.25396952 0.65200001 11779839
-0.046642862 0.25435907 0.65300006 11779839
-0.045399051 0.25435907 0.65300006 11977215
-0.04415524 0.25435907 0.65300006 11976447
-0.042977147 0.25474858 0.65400004 11844863
-0.041731432 0.25474858 0.65400004 11844863
-0.040485717 0.25474858 0.65400004 11844863
-0.039240003 0.25474858 0.65400004 11779071
-0.038052384 0.2551381 0.65500003 11844863
-0.036804762 0.2551381 0.65500003 12172799
-0.035557143 0.2551381 0.65500003 12435967
-0.034414288 0.25591716 0.65700001 12567806
-0.033213336 0.25630668 0.65800005 11120360
-0.032008573 0.25669619 0.65900004 10396394
-0.030846667 0.25747523 0.66100001 10001636
-0.029587621 0.25747523 0.66100001 10263511
-0.028371431 0.25786477 0.66200006 10131925
-0.027192382 0.25864384 0.66400003 9869021
-0.026005713 0.25942287 0.66600001 9540056
-0.024774287 0.25981238 0.66700006 7241953
-0.02353905 0.2602019 0.66800004 5662921
-0.022400003 0.26176003 0.67200005 5142526
-0.021120002 0.26176003 0.67200005 5010940
-0.019899048 0.26253906 0.67400002 5469951
-0.018642858 0.26292858 0.67500001 5667327
-0.082717143 0.25951716 0.66300005 1918635
-0.081454292 0.25951716 0.66300005 2379186
-0.080191433 0.25951716 0.66300005 3498400
-0.07880953 0.25912574 0.66200006 5077432
-0.077431425 0.25873432 0.66100001 5670750
-0.076172382 0.25873432 0.66100001 6723438
-0.074686669 0.25795147 0.65900004 6788492
-0.073431432 0.25795147 0.65900004 6459527
-0.072176196 0.25795147 0.65900004 6329731
-0.070920952 0.25795147 0.65900004 6592903
-0.06945429 0.25716859 0.65700001 6527110
-0.067995243 0.25638571 0.65500003 6724489
-0.066747628 0.25638571 0.65500003 6790280
-0.065400004 0.25599429 0.65400004 6263936
-0.06415429 0.25599429 0.65400004 7119222
-0.06281238 0.25560287 0.65300006 7316601
-0.061568573 0.25560287 0.65300006 7052897
-0.060324769 0.25560287 0.65300006 8039792
-0.058990479 0.25521144 0.65200001 9283530
-0.057571433 0.2544286 0.65000004 10402011
-0.056333333 0.2544286 0.65000004 10529527
-0.05509524 0.2544286 0.65000004 10200562
-0.053857144 0.2544286 0.65000004 10595315
-0.052619051 0.2544286 0.65000004 10726901
-0.051380955 0.2544286 0.65000004 11187450
-0.050142858 0.2544286 0.65000004 11582207
-0.049055237 0.25521144 0.65200001 11647743
-0.047886673 0.25560287 0.65300006 11779327
-0.046642862 0.25560287 0.65300006 11910655
-0.045399051 0.25560287 0.65300006 11976447
-0.044222858 0.25599429 0.65400004 11976191
-0.042977147 0.25599429 0.65400004 11910399
-0.041731432 0.25599429 0.65400004 12042495
-0.040485717 0.25599429 0.65400004 12239871
-0.039240003 0.25599429 0.65400004 12568063
-0.037994288 0.25599429 0.65400004 12633855
-0.036804762 0.25638571 0.65500003 12764159
-0.035557143 0.25638571 0.65500003 11777270
-0.034414288 0.25716859 0.65700001 10461424
-0.033213336 0.25756001 0.65800005 9671908
-0.032008573 0.25795147 0.65900004 9737683
-0.030846667 0.25873432 0.66100001 10066648
-0.029587621 0.25873432 0.66100001 10197718
-0.028371431 0.25912574 0.66200006 9868753
-0.027192382 0.25990859 0.66400003 9934044
-0.026005713 0.26069143 0.66600001 9605079
-0.024774287 0.26108289 0.66700006 7242459
-0.02353905 0.26147428 0.66800004 5466048
-0.022400003 0.26304001 0.67200005 5142526
-0.021120002 0.26304001 0.67200005 5274111
-0.019899048 0.26382285 0.67400002 5601535
-0.018642858 0.26421431 0.67500001 5404158
-0.017382858 0.26460573 0.67600006 6522336
-0.016142858 0.26538858 0.67800003 10733055
-0.014873333 0.26578 0.67900002 11716607
-0.082717143 0.26078004 0.66300005 1721513
-0.081454292 0.26078004 0.66300005 2379443
-0.080191433 0.26078004 0.66300005 3760541
-0.07880953 0.26038671 0.66200006 5207987
-0.077431425 0.25999334 0.66100001 5275987
-0.076172382 0.25999334 0.66100001 6197089
-0.074686669 0.25920668 0.65900004 6526329
-0.073431432 0.25920668 0.65900004 6328950
-0.072176196 0.25920668 0.65900004 6132854
-0.070813335 0.25881335 0.65800005 6527612
-0.069559999 0.25881335 0.65800005 6592901
-0.068202853 0.25841999 0.65700001 6856073
-0.066747628 0.25763336 0.65500003 6791297
-0.065400004 0.25724003 0.65400004 6593918
-0.06415429 0.25724003 0.65400004 6790773
-0.06281238 0.2568467 0.65300006 6461808
-0.061568573 0.2568467 0.65300006 5805894
-0.060324769 0.2568467 0.65300006 7713891
-0.059080955 0.2568467 0.65300006 9218248
-0.057748571 0.25645334 0.65200001 10402522
-0.056506667 0.25645334 0.65200001 10923263
-0.05526476 0.25645334 0.65200001 10594300
-0.053857144 0.25566667 0.65000004 10988279
-0.052619051 0.25566667 0.65000004 11119865
-0.051618099 0.2568467 0.65300006 11383541
-0.050297141 0.25645334 0.65200001 11778299
-0.049055237 0.25645334 0.65200001 11516159
-0.047813334 0.25645334 0.65200001 11845119
-0.046642862 0.2568467 0.65300006 11910655
-0.045399051 0.2568467 0.65300006 11976447
-0.04415524 0.2568467 0.65300006 11976191
-0.042977147 0.25724003 0.65400004 11976191
-0.041731432 0.25724003 0.65400004 12239615
-0.040485717 0.25724003 0.65400004 12371199
-0.039240003 0.25724003 0.65400004 12765183
-0.037994288 0.25724003 0.65400004 12436222
-0.036804762 0.25763336 0.65500003 12500219
-0.035557143 0.25763336 0.65500003 11118566
-0.034414288 0.25841999 0.65700001 10262232
-0.033213336 0.25881335 0.65800005 10064853
-0.032008573 0.25920668 0.65900004 10196437
-0.030846667 0.25999334 0.66100001 10328023
-0.029587621 0.25999334 0.66100001 10131673
-0.028371431 0.26038671 0.66200006 10000087
-0.027192382 0.26117337 0.66400003 10065628
-0.026005713 0.26196 0.66600001 9802456
-0.024774287 0.26235333 0.66700006 7439834
-0.02353905 0.26274666 0.66800004 5531837
-0.022400003 0.26432002 0.67200005 5142267
-0.021120002 0.26432002 0.67200005 5405439
-0.019899048 0.26510668 0.67400002 5667327
-0.018642858 0.26549998 0.67500001 4877812
-0.017382858 0.26589334 0.67600006 5404642
-0.016142858 0.26668 0.67800003 10141695
-0.014851429 0.26668 0.67800003 11847935
-0.084866665 0.26480955 0.67000002 3293044
-0.083216198 0.26362383 0.66700006 1065391
-0.081945717 0.26362383 0.66700006 1789114
-0.080191433 0.26204288 0.66300005 3826838
-0.078928575 0.26204288 0.66300005 5011112
-0.077548578 0.26164761 0.66200006 4553545
-0.076172382 0.26125237 0.66100001 4685131
-0.074686669 0.26046193 0.65900004 5474388
-0.073431432 0.26046193 0.65900004 5540181
-0.072176196 0.26046193 0.65900004 5605495
-0.070813335 0.26006666 0.65800005 6789769
-0.069559999 0.26006666 0.65800005 7381381
-0.068202853 0.25967142 0.65700001 7315588
-0.066747628 0.25888097 0.65500003 7053688
-0.065400004 0.2584857 0.65400004 6922102
-0.06415429 0.2584857 0.65400004 6791288
-0.06281238 0.2580905 0.65300006 6330737
-0.061568573 0.2580905 0.65300006 5871696
-0.060324769 0.2580905 0.65300006 7977072
-0.059080955 0.2580905 0.65300006 10204356
-0.057837147 0.2580905 0.65300006 11849181
-0.056506667 0.25769526 0.65200001 12501503
-0.05526476 0.25769526 0.65200001 11777786
-0.053857144 0.25690475 0.65000004 11581183
-0.052619051 0.25690475 0.65000004 11515391
-0.051618099 0.2580905 0.65300006 11449852
-0.050297141 0.25769526 0.65200001 11778815
-0.049055237 0.25769526 0.65200001 11976447
-0.047813334 0.25769526 0.65200001 12173823
-0.046642862 0.2580905 0.65300006 12633855
-0.045399051 0.2580905 0.65300006 12699647
-0.04415524 0.2580905 0.65300006 12633855
-0.042977147 0.2584857 0.65400004 12765439
-0.041731432 0.2584857 0.65400004 12830975
-0.040485717 0.2584857 0.65400004 12633599
-0.039300002 0.25888097 0.65500003 12040959
-0.038052384 0.25888097 0.65500003 10461930
-0.036804762 0.25888097 0.65500003 9670629
-0.035665717 0.25967142 0.65700001 9802215
-0.034466669 0.26006666 0.65800005 9932752
-0.03326381 0.26046193 0.65900004 10130131
-0.032105718 0.26125237 0.66100001 10196439
-0.030846667 0.26125237 0.66100001 10262232
-0.029632382 0.26164761 0.66200006 10000598
-0.028371431 0.26164761 0.66200006 10000598
-0.027192382 0.26243812 0.66400003 9999837
-0.026044764 0.26362383 0.66700006 9868251
-0.024774287 0.26362383 0.66700006 7702747
-0.02353905 0.26401907 0.66800004 4742062
-0.022400003 0.26560003 0.67200005 4158207
-0.021120002 0.26560003 0.67200005 4881919
-0.019899048 0.2663905 0.67400002 5667327
-0.018642858 0.26678571 0.67500001 4680435
-0.017382858 0.26718098 0.67600006 4616684
-0.016142858 0.26797146 0.67800003 9419519
-0.014851429 0.26797146 0.67800003 11847935
-0.084866665 0.26608571 0.67000002 2701427
-0.083590478 0.26608571 0.67000002 604583
-0.081945717 0.26489431 0.66700006 1854650
-0.080312386 0.26370287 0.66400003 4089749
-0.078928575 0.26330572 0.66300005 5076644
-0.077548578 0.26290858 0.66200006 4816206
-0.07628762 0.26290858 0.66200006 5342550
-0.074913338 0.26251143 0.66100001 5998956
-0.073431432 0.26171714 0.65900004 5933163
-0.072176196 0.26171714 0.65900004 5605220
-0.070813335 0.26132002 0.65800005 6460529
-0.069559999 0.26132002 0.65800005 7314814
-0.068202853 0.26092285 0.65700001 7380607
-0.066747628 0.26012859 0.65500003 7053175
-0.065499999 0.26012859 0.65500003 7118968
-0.06415429 0.25973144 0.65400004 6856584
-0.062908575 0.25973144 0.65400004 6527619
-0.06166286 0.25973144 0.65400004 6200152
-0.060417145 0.25973144 0.65400004 8042356
-0.059080955 0.2593343 0.65300006 10335438
-0.057837147 0.2593343 0.65300006 11914470
-0.056593336 0.2593343 0.65300006 12305919
-0.055349529 0.2593343 0.65300006 11779580
-0.054105718 0.2593343 0.65300006 11779583
-0.05286191 0.2593343 0.65300006 11713791
-0.051618099 0.2593343 0.65300006 11713274
-0.050297141 0.25893715 0.65200001 11844860
-0.049055237 0.25893715 0.65200001 12239615
-0.047813334 0.25893715 0.65200001 12239615
-0.046642862 0.2593343 0.65300006 12699391
-0.045399051 0.2593343 0.65300006 12765183
-0.04415524 0.2593343 0.65300006 12633855
-0.042977147 0.25973144 0.65400004 12568063
-0.041731432 0.25973144 0.65400004 12830463
-0.040547621 0.26012859 0.65500003 12567293
-0.039300002 0.26012859 0.65500003 11055094
-0.038052384 0.26012859 0.65500003 9344476
-0.036917143 0.26092285 0.65700001 9997527
-0.035665717 0.26092285 0.65700001 10194906
-0.034466669 0.26132002 0.65800005 10195919
-0.03326381 0.26171714 0.65900004 10261712
-0.032008573 0.26171714 0.65900004 10196439
-0.030753333 0.26171714 0.65900004 10262232
-0.029632382 0.26290858 0.66200006 10065626
-0.028371431 0.26290858 0.66200006 10065626
-0.027274286 0.26449716 0.66600001 9869019
-0.026044764 0.26489431 0.66700006 10132191
-0.024774287 0.26489431 0.66700006 8162780
-0.023609525 0.26608571 0.67000002 5202095
-0.022400003 0.26688004 0.67200005 4354809
-0.021120002 0.26688004 0.67200005 5210111
-0.019899048 0.2676743 0.67400002 5733631
-0.018642858 0.26807144 0.67500001 4549358
-0.017434288 0.26926288 0.67800003 4222444
-0.016142858 0.26926288 0.67800003 9025279
-0.084866665 0.26736191 0.67000002 2372208
-0.083590478 0.26736191 0.67000002 868271
-0.081945717 0.26616478 0.66700006 2381510
-0.080312386 0.26496762 0.66400003 3892881
-0.079047628 0.26496762 0.66400003 4945569
-0.077782862 0.26496762 0.66400003 5144669
-0.07628762 0.26416954 0.66200006 6789494
-0.074913338 0.26377049 0.66100001 6854031
-0.073654287 0.26377049 0.66100001 6459273
-0.072176196 0.26297238 0.65900004 5737081
-0.070813335 0.26257336 0.65800005 5276530
-0.069559999 0.26257336 0.65800005 5869393
-0.068202853 0.26217428 0.65700001 6066772
-0.066747628 0.2613762 0.65500003 6067565
-0.065499999 0.2613762 0.65500003 6922874
-0.06415429 0.26097718 0.65400004 7316374
-0.062908575 0.26097718 0.65400004 6921616
-0.06166286 0.26097718 0.65400004 6331486
-0.060324769 0.26057813 0.65300006 7713139
-0.059080955 0.26057813 0.65300006 9744067
-0.057837147 0.26057813 0.65300006 11257306
-0.056593336 0.26057813 0.65300006 12107775
-0.05526476 0.26017907 0.65200001 11713022
-0.054022856 0.26017907 0.65200001 11844860
-0.052780952 0.26017907 0.65200001 11976446
-0.051539049 0.26017907 0.65200001 12107255
-0.050297141 0.26017907 0.65200001 12107255
-0.049055237 0.26017907 0.65200001 12172798
-0.047813334 0.26017907 0.65200001 12238591
-0.046642862 0.26057813 0.65300006 12106495
-0.045399051 0.26057813 0.65300006 11711743
-0.044222858 0.26097718 0.65400004 10724863
-0.042977147 0.26097718 0.65400004 10461695
-0.041731432 0.26097718 0.65400004 10330081
-0.040547621 0.2613762 0.65500003 10198495
-0.039300002 0.2613762 0.65500003 10263005
-0.038052384 0.2613762 0.65500003 9868247
-0.036917143 0.26217428 0.65700001 10063840
-0.035720002 0.26257336 0.65800005 10195426
-0.034466669 0.26257336 0.65800005 10260947
-0.03326381 0.26297238 0.65900004 10326740
-0.032008573 0.26297238 0.65900004 10130646
-0.030753333 0.26297238 0.65900004 10130646
-0.029632382 0.26416954 0.66200006 10131419
-0.028414289 0.2645686 0.66300005 9999833
-0.027274286 0.26576573 0.66600001 9868758
-0.026044764 0.26616478 0.66700006 10197723
-0.02481143 0.26656383 0.66800004 8491227
-0.023609525 0.26736191 0.67000002 5069991
-0.022400003 0.26816002 0.67200005 4288511
-0.021120002 0.26816002 0.67200005 5341183
-0.019899048 0.26895809 0.67400002 5733631
-0.018642858 0.26935714 0.67500001 4680944
-0.017434288 0.27055427 0.67800003 4354800
-0.016142858 0.27055427 0.67800003 8631295
-0.085626669 0.27104384 0.67600006 2306417
-0.083216198 0.26743528 0.66700006 1196202
-0.081945717 0.26743528 0.66700006 2775234
-0.080554284 0.26703429 0.66600001 3827090
-0.079047628 0.26623237 0.66400003 4945571
-0.077782862 0.26623237 0.66400003 5210723
-0.07628762 0.26543051 0.66200006 6394997
-0.074913338 0.26502952 0.66100001 6263945
-0.073654287 0.26502952 0.66100001 6198152
-0.072176196 0.26422763 0.65900004 6395513
-0.070920952 0.26422763 0.65900004 6263927
-0.069559999 0.2638267 0.65800005 6066539
-0.068202853 0.26342574 0.65700001 6000746
-0.066951431 0.26342574 0.65700001 5409372
-0.065499999 0.26262382 0.65500003 6198888
-0.06415429 0.26222286 0.65400004 6790516
-0.062908575 0.26222286 0.65400004 6329965
-0.06166286 0.26222286 0.65400004 6068305
-0.060324769 0.26182193 0.65300006 7844716
-0.059080955 0.26182193 0.65300006 9218238
-0.057837147 0.26182193 0.65300006 10928856
-0.056593336 0.26182193 0.65300006 11581951
-0.05526476 0.26142097 0.65200001 11055612
-0.054022856 0.26142097 0.65200001 11383028
-0.052780952 0.26142097 0.65200001 11514614
-0.051539049 0.26142097 0.65200001 11579887
-0.050297141 0.26142097 0.65200001 11579887
-0.049055237 0.26142097 0.65200001 11579889
-0.047813334 0.26142097 0.65200001 11645682
-0.046642862 0.26182193 0.65300006 11645432
-0.045399051 0.26182193 0.65300006 11184881
-0.044222858 0.26222286 0.65400004 10658544
-0.042977147 0.26222286 0.65400004 10263786
-0.041731432 0.26222286 0.65400004 10263005
-0.040547621 0.26262382 0.65500003 10065626
-0.039300002 0.26262382 0.65500003 10327773
-0.038052384 0.26262382 0.65500003 10261980
-0.036917143 0.26342574 0.65700001 10195167
-0.035720002 0.2638267 0.65800005 10195167
-0.034466669 0.2638267 0.65800005 10130133
-0.03326381 0.26422763 0.65900004 10130133
-0.032008573 0.26422763 0.65900004 10064853
-0.030846667 0.26502952 0.66100001 10130646
-0.029632382 0.26543051 0.66200006 10130658
-0.028414289 0.26583144 0.66300005 9999072
-0.027274286 0.26703429 0.66600001 9605849
-0.026044764 0.26743528 0.66700006 10066400
-0.02481143 0.26783621 0.66800004 8819679
-0.023644762 0.26903903 0.671 5793201
-0.022400003 0.26944003 0.67200005 3894517
-0.021120002 0.26944003 0.67200005 5144575
-0.019899048 0.27024189 0.67400002 5537279
-0.018642858 0.27064288 0.67500001 4418801
-0.017357143 0.27064288 0.67500001 4815090
-0.016071428 0.27064288 0.67500001 9091583
-0.086914293 0.27233145 0.67600006 7899592
-0.085626669 0.27233145 0.67600006 2241394
-0.083715238 0.27031714 0.671 1065393
-0.081945717 0.26870573 0.66700006 2973390
-0.080554284 0.26830286 0.66600001 3695761
-0.079047628 0.26749715 0.66400003 4945828
-0.077782862 0.26749715 0.66400003 5079146
-0.07628762 0.26669145 0.66200006 5868662
-0.074913338 0.26628858 0.66100001 6525829
-0.073654287 0.26628858 0.66100001 6460036
-0.072176196 0.26548287 0.65900004 6788981
-0.070920952 0.26548287 0.65900004 7315325
-0.069559999 0.26508 0.65800005 7446136
-0.068202853 0.26467714 0.65700001 6919792
-0.066951431 0.26467714 0.65700001 6067565
-0.065499999 0.26387143 0.65500003 5541221
-0.06415429 0.26346859 0.65400004 5148993
-0.062908575 0.26346859 0.65400004 5412165
-0.06166286 0.26346859 0.65400004 6133830
-0.060324769 0.26306573 0.65300006 8107620
-0.059080955 0.26306573 0.65300006 9480127
-0.057837147 0.26306573 0.65300006 10664401
-0.056593336 0.26306573 0.65300006 11121146
-0.055349529 0.26306573 0.65300006 10792181
-0.054105718 0.26306573 0.65300006 10397173
-0.052780952 0.26266286 0.65200001 10331380
-0.051539049 0.26266286 0.65200001 10329833
-0.050374292 0.26306573 0.65300006 9737696
-0.049130481 0.26306573 0.65300006 10066141
-0.047886673 0.26306573 0.65300006 10395106
-0.046714287 0.26346859 0.65400004 10395104
-0.045468576 0.26346859 0.65400004 10460897
-0.044222858 0.26346859 0.65400004 10592483
-0.042977147 0.26346859 0.65400004 10460897
-0.041795239 0.26387143 0.65500003 10525416
-0.040547621 0.26387143 0.65500003 10393830
-0.039300002 0.26387143 0.65500003 10394084
-0.038052384 0.26387143 0.65500003 10394084
-0.036917143 0.26467714 0.65700001 10195172
-0.035720002 0.26508 0.65800005 10129379
-0.03451905 0.26548287 0.65900004 9997786
-0.033364762 0.26628858 0.66100001 9997786
-0.032105718 0.26628858 0.66100001 9999060
-0.030846667 0.26628858 0.66100001 10196439
-0.029632382 0.26669145 0.66200006 10065639
-0.028414289 0.26709428 0.66300005 9934053
-0.027274286 0.26830286 0.66600001 9803480
-0.026044764 0.26870573 0.66700006 9803480
-0.02481143 0.26910859 0.66800004 8885467
-0.023644762 0.27031714 0.671 6187954
-0.022400003 0.27072001 0.67200005 4156921
-0.021120002 0.27072001 0.67200005 5604351
-0.01984 0.27072001 0.67200005 5406975
-0.018615238 0.27152574 0.67400002 3630575
-0.017357143 0.27192855 0.67500001 4685044
-0.086914293 0.27361906 0.67600006 7440329
-0.085626669 0.27361906 0.67600006 2045303
-0.083715238 0.27159521 0.671 736174
-0.082314283 0.27119046 0.67000002 2841550
-0.080554284 0.26957145 0.66600001 3498636
-0.079047628 0.2687619 0.66400003 5209254
-0.077782862 0.2687619 0.66400003 5340272
-0.076402865 0.26835716 0.66300005 5669237
-0.074913338 0.26754764 0.66100001 6722411
-0.073654287 0.26754764 0.66100001 6722411
-0.072176196 0.26673812 0.65900004 6919804
-0.070920952 0.26673812 0.65900004 7314562
-0.069559999 0.26633334 0.65800005 7315343
-0.068202853 0.26592857 0.65700001 6986378
-0.066951431 0.26592857 0.65700001 5805436
-0.065499999 0.26511905 0.65500003 5344885
-0.064252384 0.26511905 0.65500003 5017925
-0.062908575 0.2647143 0.65400004 4952132
-0.06166286 0.2647143 0.65400004 6329928
-0.060417145 0.2647143 0.65400004 8237925
-0.059080955 0.26430956 0.65300006 9611713
-0.057837147 0.26430956 0.65300006 10730194
-0.056593336 0.26430956 0.65300006 11186939
-0.055349529 0.26430956 0.65300006 10792181
-0.054105718 0.26430956 0.65300006 10528498
-0.05286191 0.26430956 0.65300006 10265326
-0.051618099 0.26430956 0.65300006 10592231
-0.050374292 0.26430956 0.65300006 10065887
-0.049130481 0.26430956 0.65300006 10130910
-0.047886673 0.26430956 0.65300006 10262496
-0.046714287 0.2647143 0.65400004 10788322
-0.045468576 0.2647143 0.65400004 10854115
-0.044222858 0.2647143 0.65400004 10919910
-0.042977147 0.2647143 0.65400004 10854117
-0.041795239 0.26511905 0.65500003 10525416
-0.040547621 0.26511905 0.65500003 10393830
-0.039300002 0.26511905 0.65500003 10525670
-0.038052384 0.26511905 0.65500003 10394084
-0.036973335 0.26633334 0.65800005 10260965
-0.035720002 0.26633334 0.65800005 10129379
-0.03451905 0.26673812 0.65900004 10064088
-0.033364762 0.26754764 0.66100001 9932502
-0.032105718 0.26754764 0.66100001 10064590
-0.030846667 0.26754764 0.66100001 10261969
-0.029632382 0.26795241 0.66200006 10000094
-0.028414289 0.26835716 0.66300005 9934301
-0.027274286 0.26957145 0.66600001 9934812
-0.026083812 0.27038097 0.66800004 9803226
-0.024885716 0.27119046 0.67000002 8819933
-0.023644762 0.27159521 0.671 6451385
-0.022400003 0.27200004 0.67200005 3564780
-0.021120002 0.27200004 0.67200005 5143807
-0.01984 0.27200004 0.67200005 5736191
-0.018615238 0.27280954 0.67400002 4157169
-0.017357143 0.27321428 0.67500001 4554737
-0.089886673 0.27612668 0.67900002 11254271
-0.08820191 0.27490669 0.67600006 9872621
-0.086914293 0.27490669 0.67600006 7966414
-0.085500002 0.27450001 0.67500001 2571388
-0.083715238 0.27287334 0.671 934336
-0.082314283 0.27246666 0.67000002 2513368
-0.080675244 0.27124667 0.66700006 3565708
-0.079285711 0.27083999 0.66600001 6263221
-0.077782862 0.27002668 0.66400003 6721380
-0.076402865 0.26962 0.66300005 4879176
-0.075026676 0.26921335 0.66200006 5013326
-0.073654287 0.26880667 0.66100001 5868635
-0.072395235 0.26880667 0.66100001 6393473
-0.070920952 0.26799333 0.65900004 6985610
-0.069559999 0.26758671 0.65800005 7577488
-0.068202853 0.26718 0.65700001 7511695
-0.066951431 0.26718 0.65700001 6790012
-0.065499999 0.26636669 0.65500003 6066289
-0.064252384 0.26636669 0.65500003 5738831
-0.063004769 0.26636669 0.65500003 5409866
-0.06166286 0.26596001 0.65400004 5408852
-0.060417145 0.26596001 0.65400004 7843193
-0.059171431 0.26596001 0.65400004 9545412
-0.057925716 0.26596001 0.65400004 10927065
-0.056680001 0.26596001 0.65400004 11252471
-0.055349529 0.26555336 0.65300006 10726127
-0.054105718 0.26555336 0.65300006 10660082
-0.05286191 0.26555336 0.65300006 10331117
-0.051618099 0.26555336 0.65300006 10527212
-0.050374292 0.26555336 0.65300006 10132454
-0.049130481 0.26555336 0.65300006 10262755
-0.047960002 0.26596001 0.65400004 10394341
-0.046714287 0.26596001 0.65400004 10657506
-0.045468576 0.26596001 0.65400004 10723299
-0.044222858 0.26596001 0.65400004 10657252
-0.042977147 0.26596001 0.65400004 10657252
-0.041795239 0.26636669 0.65500003 10787563
-0.040547621 0.26636669 0.65500003 10458598
-0.039300002 0.26636669 0.65500003 10590182
-0.038168572 0.26718 0.65700001 10655975
-0.036973335 0.26758671 0.65800005 10260965
-0.035720002 0.26758671 0.65800005 10129379
-0.03451905 0.26799333 0.65900004 10064088
-0.033364762 0.26880667 0.66100001 9669330
-0.032105718 0.26880667 0.66100001 9669834
-0.030846667 0.26880667 0.66100001 10130385
-0.029632382 0.26921335 0.66200006 9934040
-0.028414289 0.26962 0.66300005 10065626
-0.027274286 0.27083999 0.66600001 9869273
-0.026044764 0.27124667 0.66700006 9737687
-0.024885716 0.27246666 0.67000002 8885213
-0.023644762 0.27287334 0.671 6779837
-0.022400003 0.27328002 0.67200005 3499507
-0.021120002 0.27328002 0.67200005 4157437
-0.019899048 0.27409333 0.67400002 5604351
-0.018642858 0.27450001 0.67500001 4617461
-0.017357143 0.27450001 0.67500001 5802737
-0.088071428 0.27578571 0.67500001 9742062
-0.086657144 0.27537712 0.67400002 8426706
-0.085120007 0.27456003 0.67200005 3097473
-0.083715238 0.27415144 0.671 802998
-0.082314283 0.27374285 0.67000002 2382030
-0.080554284 0.27210855 0.66600001 3697792
-0.079285711 0.27210855 0.66600001 5934754
-0.077782862 0.27129143 0.66400003 6656636
-0.076518096 0.27129143 0.66400003 5472362
-0.075026676 0.27047428 0.66200006 4750152
-0.073654287 0.27006572 0.66100001 5868633
-0.072395235 0.27006572 0.66100001 5933170
-0.070920952 0.2692486 0.65900004 6525307
-0.069665715 0.2692486 0.65900004 6788992
-0.068202853 0.26843143 0.65700001 6854785
-0.066951431 0.26843143 0.65700001 7052153
-0.065700002 0.26843143 0.65700001 6262637
-0.064252384 0.26761431 0.65500003 6000729
-0.063004769 0.26761431 0.65500003 5671764
-0.061757144 0.26761431 0.65500003 5409094
-0.060417145 0.26720572 0.65400004 7975021
-0.059171431 0.26720572 0.65400004 9413828
-0.057925716 0.26720572 0.65400004 10532309
-0.056680001 0.26720572 0.65400004 11054326
-0.05543429 0.26720572 0.65400004 10791154
-0.054105718 0.26679716 0.65300006 10791154
-0.05286191 0.26679716 0.65300006 10527982
-0.051618099 0.26679716 0.65300006 10527212
-0.050374292 0.26679716 0.65300006 10198247
-0.049130481 0.26679716 0.65300006 10263005
-0.047960002 0.26720572 0.65400004 10328798
-0.046714287 0.26720572 0.65400004 10525666
-0.045468576 0.26720572 0.65400004 10591459
-0.044222858 0.26720572 0.65400004 10591459
-0.043042861 0.26761431 0.65500003 10657252
-0.041795239 0.26761431 0.65500003 10590957
-0.040547621 0.26761431 0.65500003 10393578
-0.039300002 0.26761431 0.65500003 10590182
-0.038168572 0.26843143 0.65700001 10590182
-0.036917143 0.26843143 0.65700001 10459105
-0.035720002 0.26884001 0.65800005 10261726
-0.03451905 0.2692486 0.65900004 10064088
-0.033364762 0.27006572 0.66100001 9735123
-0.032105718 0.27006572 0.66100001 9865930
-0.030846667 0.27006572 0.66100001 10392274
-0.029632382 0.27047428 0.66200006 9934040
-0.028414289 0.27088287 0.66300005 10065626
-0.027274286 0.27210855 0.66600001 9737944
-0.026044764 0.27251717 0.66700006 9803737
-0.024885716 0.27374285 0.67000002 9016290
-0.023644762 0.27415144 0.671 6910914
-0.022400003 0.27456003 0.67200005 3433957
-0.021120002 0.27456003 0.67200005 3894508
-0.019899048 0.27537712 0.67400002 5209596
-0.018642858 0.27578571 0.67500001 5275389
-0.088071428 0.27707145 0.67500001 9807080
-0.08640001 0.27584001 0.67200005 8098770
-0.085120007 0.27584001 0.67200005 3164295
-0.083715238 0.27542952 0.671 2052795
-0.082314283 0.27501905 0.67000002 2710725
-0.080554284 0.27337712 0.66600001 3368553
-0.079285711 0.27337712 0.66600001 5079171
-0.077782862 0.27255622 0.66400003 6064229
-0.076402865 0.27214572 0.66300005 6327401
-0.075026676 0.27173525 0.66200006 6064999
-0.073765725 0.27173525 0.66200006 5999206
-0.072395235 0.27132475 0.66100001 5867620
-0.071136191 0.27132475 0.66100001 5143897
-0.069665715 0.27050382 0.65900004 5145680
-0.068202853 0.26968285 0.65700001 5211473
-0.066951431 0.26968285 0.65700001 5474645
-0.065700002 0.26968285 0.65700001 5672024
-0.064252384 0.26886192 0.65500003 5737826
-0.063004769 0.26886192 0.65500003 5737826
-0.061757144 0.26886192 0.65500003 5802837
-0.060417145 0.26845145 0.65400004 8105592
-0.059171431 0.26845145 0.65400004 9544649
-0.057925716 0.26845145 0.65400004 10597337
-0.056680001 0.26845145 0.65400004 11119860
-0.05543429 0.26845145 0.65400004 10790895
-0.054188572 0.26845145 0.65400004 10725613
-0.052942861 0.26845145 0.65400004 10725613
-0.051697146 0.26845145 0.65400004 10790382
-0.050451431 0.26845145 0.65400004 10329831
-0.049205717 0.26845145 0.65400004 10131419
-0.047960002 0.26845145 0.65400004 10263005
-0.046714287 0.26845145 0.65400004 10590943
-0.045468576 0.26845145 0.65400004 10590943
-0.044222858 0.26845145 0.65400004 10590432
-0.043042861 0.26886192 0.65500003 10722018
-0.041795239 0.26886192 0.65500003 10722545
-0.040547621 0.26886192 0.65500003 10459373
-0.039300002 0.26886192 0.65500003 10524389
-0.038168572 0.26968285 0.65700001 10524389
-0.036917143 0.26968285 0.65700001 10459357
-0.035720002 0.27009335 0.65800005 10393564
-0.03451905 0.27050382 0.65900004 9998297
-0.033364762 0.27132475 0.66100001 9932504
-0.032105718 0.27132475 0.66100001 9933267
-0.030846667 0.27132475 0.66100001 10196439
-0.029632382 0.27173525 0.66200006 10000087
-0.028371431 0.27173525 0.66200006 10065880
-0.027192382 0.27255622 0.66400003 9803737
-0.026005713 0.27337712 0.66600001 9803737
-0.02481143 0.27419811 0.66800004 9016808
-0.023644762 0.27542952 0.671 7043018
-0.022400003 0.27584001 0.67200005 4946153
-0.021120002 0.27584001 0.67200005 5077739
-0.08640001 0.27712002 0.67200005 8230365
-0.085120007 0.27712002 0.67200005 3361683
-0.083715238 0.27670762 0.671 2772922
-0.082314283 0.27629524 0.67000002 3365059
-0.080554284 0.27464572 0.66600001 3564910
-0.079285711 0.27464572 0.66600001 5012356
-0.077782862 0.27382097 0.66400003 5341535
-0.076402865 0.27340859 0.66300005 6131051
-0.075026676 0.27299622 0.66200006 6196846
-0.073765725 0.27299622 0.66200006 6328432
-0.072395235 0.27258381 0.66100001 6459516
-0.071136191 0.27258381 0.66100001 5735793
-0.069665715 0.27175906 0.65900004 5473373
-0.068202853 0.27093428 0.65700001 5473373
-0.066951431 0.27093428 0.65700001 5343068
-0.065700002 0.27093428 0.65700001 5672033
-0.064252384 0.27010953 0.65500003 5737565
-0.063004769 0.27010953 0.65500003 5737565
-0.061757144 0.27010953 0.65500003 6000219
-0.060417145 0.26969716 0.65400004 7974009
-0.059171431 0.26969716 0.65400004 9544392
-0.057925716 0.26969716 0.65400004 10597080
-0.056680001 0.26969716 0.65400004 10791922
-0.05543429 0.26969716 0.65400004 10528750
-0.054188572 0.26969716 0.65400004 10659820
-0.052942861 0.26969716 0.65400004 10725613
-0.051697146 0.26969716 0.65400004 10856436
-0.050451431 0.26969716 0.65400004 10461678
-0.049205717 0.26969716 0.65400004 10197221
-0.047960002 0.26969716 0.65400004 10263014
-0.046714287 0.26969716 0.65400004 10590691
-0.045468576 0.26969716 0.65400004 10524898
-0.044290476 0.27010953 0.65500003 10459098
-0.043042861 0.27010953 0.65500003 10656477
-0.041795239 0.27010953 0.65500003 10920174
-0.040547621 0.27010953 0.65500003 10459623
-0.039300002 0.27010953 0.65500003 10328037
-0.038168572 0.27093428 0.65700001 10393830
-0.036917143 0.27093428 0.65700001 10394343
-0.035720002 0.27134669 0.65800005 10131171
-0.03451905 0.27175906 0.65900004 9605588
-0.033364762 0.27258381 0.66100001 9671381
-0.032105718 0.27258381 0.66100001 9802965
-0.030846667 0.27258381 0.66100001 9868758
-0.029632382 0.27299622 0.66200006 9869019
-0.028371431 0.27299622 0.66200006 9934812
-0.027192382 0.27382097 0.66400003 9935071
-0.026005713 0.27464572 0.66600001 10000864
-0.02481143 0.2754705 0.66800004 8820710
-0.023644762 0.27670762 0.671 6781127
-0.082437143 0.27798572 0.671 1660885
-0.080675244 0.27632859 0.66700006 3040384
-0.079285711 0.27591428 0.66600001 4290451
-0.077782862 0.27508575 0.66400003 5341544
-0.076518096 0.27508575 0.66400003 6394232
-0.075026676 0.27425718 0.66200006 6460027
-0.073765725 0.27425718 0.66200006 7052164
-0.072395235 0.27384287 0.66100001 6920074
-0.071136191 0.27384287 0.66100001 6788488
-0.069877148 0.27384287 0.66100001 6657413
-0.068410479 0.27301428 0.65900004 6525827
-0.06705334 0.2726 0.65800005 6526077
-0.065700002 0.27218571 0.65700001 6394491
-0.064252384 0.27135715 0.65500003 5804652
-0.063004769 0.27135715 0.65500003 5344101
-0.061757144 0.27135715 0.65500003 5999967
-0.060509525 0.27135715 0.65500003 7842171
-0.059261907 0.27135715 0.65500003 9478345
-0.057925716 0.27094287 0.65400004 10070482
-0.056680001 0.27094287 0.65400004 10922470
-0.05543429 0.27094287 0.65400004 10790884
-0.054188572 0.27094287 0.65400004 10725091
-0.052942861 0.27094287 0.65400004 10922470
-0.051697146 0.27094287 0.65400004 11053041
-0.050451431 0.27094287 0.65400004 10724076
-0.049205717 0.27094287 0.65400004 10591983
-0.047960002 0.27094287 0.65400004 10394604
-0.046714287 0.27094287 0.65400004 10262503
-0.045538098 0.27135715 0.65500003 10196710
-0.044290476 0.27135715 0.65500003 10262228
-0.043042861 0.27135715 0.65500003 10393814
-0.041795239 0.27135715 0.65500003 10590691
-0.040547621 0.27135715 0.65500003 10590691
-0.039300002 0.27135715 0.65500003 10393830
-0.038052384 0.27135715 0.65500003 10393830
-0.036917143 0.27218571 0.65700001 10459371
-0.035774291 0.27301428 0.65900004 9998820
-0.03451905 0.27301428 0.65900004 9801168
-0.033364762 0.27384287 0.66100001 10064340
-0.032105718 0.27384287 0.66100001 10064853
-0.030846667 0.27384287 0.66100001 10064853
-0.029587621 0.27384287 0.66100001 9933790
-0.028371431 0.27425718 0.66200006 10065376
-0.02715143 0.27467147 0.66300005 9935071
-0.026005713 0.27591428 0.66600001 10132450
-0.024774287 0.27632859 0.66700006 8951528
-0.080675244 0.27759907 0.66700006 2777491
-0.079404771 0.27759907 0.66700006 4159144
-0.078017138 0.27718285 0.66600001 5603453
-0.076518096 0.2763505 0.66400003 6458762
-0.075139999 0.27593431 0.66300005 6525566
-0.073765725 0.27551812 0.66200006 6722945
-0.072395235 0.2751019 0.66100001 6526851
-0.071136191 0.2751019 0.66100001 6526851
-0.069877148 0.2751019 0.66100001 6526849
-0.068410479 0.27426955 0.65900004 6658435
-0.06705334 0.27385336 0.65800005 6593664
-0.065700002 0.27343714 0.65700001 6593664
-0.064252384 0.27260476 0.65500003 6461828
-0.063004769 0.27260476 0.65500003 6132863
-0.061757144 0.27260476 0.65500003 6328680
-0.060509525 0.27260476 0.65500003 7907712
-0.059261907 0.27260476 0.65500003 9609679
-0.058014289 0.27260476 0.65500003 10070230
-0.056680001 0.27218857 0.65400004 10593001
-0.05543429 0.27218857 0.65400004 10395622
-0.054188572 0.27218857 0.65400004 10395363
-0.052942861 0.27218857 0.65400004 10987500
-0.051697146 0.27218857 0.65400004 11118834
-0.050451431 0.27218857 0.65400004 10658283
-0.049205717 0.27218857 0.65400004 10395120
-0.047960002 0.27218857 0.65400004 10329327
-0.046714287 0.27218857 0.65400004 9999846
-0.045538098 0.27260476 0.65500003 9868260
-0.044290476 0.27260476 0.65500003 9999835
-0.043042861 0.27260476 0.65500003 10131421
-0.041795239 0.27260476 0.65500003 10524900
-0.040547621 0.27260476 0.65500003 10656486
-0.039300002 0.27260476 0.65500003 10591463
-0.038052384 0.27260476 0.65500003 10459877
-0.036917143 0.27343714 0.65700001 10328037
-0.035720002 0.27385336 0.65800005 9604314
-0.03451905 0.27426955 0.65900004 9734605
-0.03326381 0.27426955 0.65900004 9931984
-0.032105718 0.2751019 0.66100001 10129363
-0.030846667 0.2751019 0.66100001 10129363
-0.029587621 0.2751019 0.66100001 9933783
-0.028371431 0.27551812 0.66200006 10131162
-0.02715143 0.27593431 0.66300005 10066146
-0.026005713 0.27718285 0.66600001 10131939
-0.024774287 0.27759907 0.66700006 9280230
-0.080675244 0.27886954 0.66700006 1530544
-0.079404771 0.27886954 0.66700006 3241162
-0.078017138 0.27845141 0.66600001 5143172
-0.076518096 0.27761525 0.66400003 6130067
-0.075139999 0.27719715 0.66300005 6459514
-0.073765725 0.27677906 0.66200006 6525307
-0.072395235 0.27636096 0.66100001 6591863
-0.071136191 0.27636096 0.66100001 6723449
-0.069665715 0.2755248 0.65900004 6854522
-0.068410479 0.2755248 0.65900004 6788729
-0.06705334 0.2751067 0.65800005 6724473
-0.065700002 0.27468857 0.65700001 7250817
-0.064252384 0.27385238 0.65500003 6920853
-0.063004769 0.27385238 0.65500003 6460302
-0.061757144 0.27385238 0.65500003 6656368
-0.060509525 0.27385238 0.65500003 8169607
-0.059261907 0.27385238 0.65500003 9872340
-0.057925716 0.27343431 0.65400004 10201305
-0.056680001 0.27343431 0.65400004 10461415
-0.05543429 0.27343431 0.65400004 10264036
-0.054188572 0.27343431 0.65400004 10395876
-0.052942861 0.27343431 0.65400004 10922220
-0.051697146 0.27343431 0.65400004 10921961
-0.050451431 0.27343431 0.65400004 10461410
-0.049205717 0.27343431 0.65400004 10658033
-0.047960002 0.27343431 0.65400004 10658033
-0.046714287 0.27343431 0.65400004 10328811
-0.045468576 0.27343431 0.65400004 10131432
-0.044290476 0.27385238 0.65500003 10262244
-0.043042861 0.27385238 0.65500003 10262244
-0.041795239 0.27385238 0.65500003 10394084
-0.040547621 0.27385238 0.65500003 10459877
-0.039300002 0.27385238 0.65500003 10460136
-0.038052384 0.27385238 0.65500003 10394343
-0.036917143 0.27468857 0.65700001 10328289
-0.035720002 0.2751067 0.65800005 9604566
-0.034466669 0.2751067 0.65800005 9603791
-0.03326381 0.2755248 0.65900004 9801170
-0.032105718 0.27636096 0.66100001 9998549
-0.030846667 0.27636096 0.66100001 9998549
-0.029587621 0.27636096 0.66100001 9934040
-0.028328571 0.27636096 0.66100001 9999833
-0.02715143 0.27719715 0.66300005 9935075
-0.02592762 0.27761525 0.66400003 10461419
-0.077782862 0.27888 0.66400003 4550309
-0.076402865 0.27846003 0.66300005 5339825
-0.075026676 0.27804002 0.66200006 6326928
-0.073654287 0.27762002 0.66100001 6590100
-0.072395235 0.27762002 0.66100001 6656870
-0.071136191 0.27762002 0.66100001 6985835
-0.069665715 0.27678001 0.65900004 7839870
-0.068410479 0.27678001 0.65900004 7050354
-0.06705334 0.27636001 0.65800005 6592374
-0.065700002 0.27594 0.65700001 6526581
-0.064252384 0.27509999 0.65500003 6527076
-0.063004769 0.27509999 0.65500003 6395490
-0.061757144 0.27509999 0.65500003 6459483
-0.060509525 0.27509999 0.65500003 8367480
-0.059171431 0.27468002 0.65400004 9938146
-0.057925716 0.27468002 0.65400004 10135525
-0.056680001 0.27468002 0.65400004 10264547
-0.05543429 0.27468002 0.65400004 10132961
-0.054188572 0.27468002 0.65400004 10264040
-0.052942861 0.27468002 0.65400004 10593005
-0.051697146 0.27468002 0.65400004 10724328
-0.050451431 0.27468002 0.65400004 10592742
