# .PCD v0.7 - Point Cloud Data file format
VERSION 0.7
FIELDS x y z rgba
SIZE 4 4 4 4
TYPE F F F U
COUNT 1 1 1 1
WIDTH 1135
HEIGHT 1
VIEWPOINT 0 0 0 1 0 0 0
POINTS 1135
DATA ascii
-0.070525721 0.11948572 0.61200005 8999339
-0.069246665 0.11929047 0.611 9261752
-0.067971431 0.11909524 0.61000001 9261752
-0.066700004 0.11890001 0.60900003 9722303
-0.065432385 0.11870477 0.60800004 9590717
-0.064274289 0.11870477 0.60800004 9721281
-0.063012384 0.11850954 0.60700005 9721281
-0.061856195 0.11850954 0.60700005 9653178
-0.060600001 0.11831429 0.60600001 10113729
-0.059445713 0.11831429 0.60600001 10180799
-0.058291428 0.11831429 0.60600001 10115006
-0.057231434 0.11850954 0.60700005 9983931
-0.056075241 0.11850954 0.60700005 9983931
-0.055009525 0.11870477 0.60800004 10180801
-0.053851429 0.11870477 0.60800004 10246594
-0.052693337 0.11870477 0.60800004 9785278
-0.051535241 0.11870477 0.60800004 10114243
-0.050377145 0.11870477 0.60800004 10377930
-0.049300004 0.11890001 0.60900003 10312137
-0.048140001 0.11890001 0.60900003 10048965
-0.046980001 0.11890001 0.60900003 10246344
-0.045820002 0.11890001 0.60900003 10246855
-0.044660002 0.11890001 0.60900003 10246855
-0.043500002 0.11890001 0.60900003 10247114
-0.042479049 0.11929047 0.611 10312907
-0.041315239 0.11929047 0.611 9918397
-0.040151428 0.11929047 0.611 10115776
-0.039051428 0.11948572 0.61200005 9984964
-0.038071431 0.12007143 0.61500001 9919171
-0.036960002 0.12026668 0.61600006 9264069
-0.03578667 0.12026668 0.61600006 9921999
-0.078280002 0.12183429 0.61800003 11117509
-0.077102862 0.12183429 0.61800003 11051450
-0.075557142 0.12124286 0.61500001 8156558
-0.074264765 0.12104572 0.61400002 7754653
-0.072976194 0.12084857 0.61300004 8149411
-0.071808569 0.12084857 0.61300004 8868007
-0.070525721 0.12065144 0.61200005 8933800
-0.069360003 0.12065144 0.61200005 9327795
-0.068082854 0.12045428 0.611 9327795
-0.066700004 0.12006 0.60900003 9590204
-0.065432385 0.11986287 0.60800004 9590204
-0.064274289 0.11986287 0.60800004 9720509
-0.063012384 0.11966572 0.60700005 9786302
-0.061856195 0.11966572 0.60700005 9653694
-0.060600001 0.11946857 0.60600001 9916866
-0.059445713 0.11946857 0.60600001 10246842
-0.058291428 0.11946857 0.60600001 10246842
-0.057231434 0.11966572 0.60700005 9983672
-0.056075241 0.11966572 0.60700005 10049465
-0.054919053 0.11966572 0.60700005 10576059
-0.053851429 0.11986287 0.60800004 10641852
-0.052693337 0.11986287 0.60800004 10113475
-0.051535241 0.11986287 0.60800004 10245061
-0.050377145 0.11986287 0.60800004 10443469
-0.049300004 0.12006 0.60900003 10246090
-0.048140001 0.12006 0.60900003 10114247
-0.046980001 0.12006 0.60900003 10377419
-0.045820002 0.12006 0.60900003 10312646
-0.044660002 0.12006 0.60900003 10181060
-0.043500002 0.12006 0.60900003 10246855
-0.042479049 0.12045428 0.611 10510027
-0.041315239 0.12045428 0.611 10050487
-0.040151428 0.12045428 0.611 10445245
-0.039115239 0.12084857 0.61300004 9919171
-0.038071431 0.12124286 0.61500001 9787585
-0.036960002 0.12144001 0.61600006 9526980
-0.03578667 0.12144001 0.61600006 10579668
-0.077102862 0.12301143 0.61800003 10920382
-0.075557142 0.12241429 0.61500001 8617627
-0.074264765 0.12221524 0.61400002 7886484
-0.07309524 0.12221524 0.61400002 7820691
-0.071808569 0.12201619 0.61300004 8802214
-0.070525721 0.12181716 0.61200005 8933800
-0.069360003 0.12181716 0.61200005 9393840
-0.068082854 0.12161809 0.611 9328047
-0.066809528 0.12141905 0.61000001 9523900
-0.065540001 0.12122001 0.60900003 9655486
-0.064274289 0.12102096 0.60800004 9786302
-0.063012384 0.12082192 0.60700005 9852095
-0.061856195 0.12082192 0.60700005 9851577
-0.060700003 0.12082192 0.60700005 9851577
-0.059543811 0.12082192 0.60700005 10311360
-0.058387626 0.12082192 0.60700005 10311360
-0.057231434 0.12082192 0.60700005 9982643
-0.056075241 0.12082192 0.60700005 10245815
-0.054919053 0.12082192 0.60700005 10773449
-0.053851429 0.12102096 0.60800004 10641863
-0.052693337 0.12102096 0.60800004 10113727
-0.051535241 0.12102096 0.60800004 10245313
-0.050377145 0.12102096 0.60800004 10377419
-0.049300004 0.12122001 0.60900003 10311626
-0.048140001 0.12122001 0.60900003 10114756
-0.046980001 0.12122001 0.60900003 10180549
-0.045820002 0.12122001 0.60900003 10312135
-0.044660002 0.12122001 0.60900003 10246342
-0.043500002 0.12122001 0.60900003 10312648
-0.042479049 0.12161809 0.611 10510027
-0.04138286 0.12181716 0.61200005 9852858
-0.040217146 0.12181716 0.61200005 10181823
-0.039179049 0.12221524 0.61400002 9853124
-0.038133338 0.12261335 0.61600006 9655745
-0.036960002 0.12261335 0.61600006 9395117
-0.075557142 0.12358572 0.61500001 9933230
-0.074264765 0.12338476 0.61400002 8546206
-0.072976194 0.12318381 0.61300004 6967174
-0.071808569 0.12318381 0.61300004 8405682
-0.070525721 0.12298286 0.61200005 9063612
-0.069360003 0.12298286 0.61200005 9459370
-0.068194285 0.12298286 0.61200005 9525163
-0.066919044 0.12278191 0.611 9590204
-0.065647617 0.12258096 0.61000001 9458618
-0.064380005 0.12238 0.60900003 9785789
-0.063116193 0.12217905 0.60800004 9785789
-0.061856195 0.1219781 0.60700005 9785012
-0.060700003 0.1219781 0.60700005 9916598
-0.059543811 0.1219781 0.60700005 10115008
-0.058387626 0.1219781 0.60700005 9983422
-0.057231434 0.1219781 0.60700005 9785005
-0.056075241 0.1219781 0.60700005 10113970
-0.055009525 0.12217905 0.60800004 10510277
-0.053851429 0.12217905 0.60800004 10115519
-0.052693337 0.12217905 0.60800004 9851323
-0.051535241 0.12217905 0.60800004 9982909
-0.050377145 0.12217905 0.60800004 10377415
-0.049300004 0.12238 0.60900003 10706380
-0.048140001 0.12238 0.60900003 9982659
-0.046980001 0.12238 0.60900003 9851073
-0.045820002 0.12238 0.60900003 10180551
-0.044733334 0.12258096 0.61000001 10180551
-0.043642856 0.12278191 0.611 10312396
-0.042548575 0.12298286 0.61200005 10707154
-0.04138286 0.12298286 0.61200005 10312896
-0.040282857 0.12318381 0.61300004 10576068
-0.039179049 0.12338476 0.61400002 9921227
-0.038133338 0.12378668 0.61600006 8802746
-0.075557142 0.12475713 0.61500001 9867183
-0.074264765 0.12455428 0.61400002 9271696
-0.072976194 0.12435143 0.61300004 6837355
-0.071808569 0.12435143 0.61300004 8142990
-0.070525721 0.12414857 0.61200005 9261471
-0.069360003 0.12414857 0.61200005 9460646
-0.068194285 0.12414857 0.61200005 9394853
-0.066919044 0.12394572 0.611 9655747
-0.065647617 0.12374286 0.61000001 9589954
-0.064380005 0.12354001 0.60900003 9851582
-0.063116193 0.12333716 0.60800004 9785789
-0.061958101 0.12333716 0.60800004 9522610
-0.060700003 0.1231343 0.60700005 9785782
-0.059543811 0.1231343 0.60700005 10246855
-0.058387626 0.1231343 0.60700005 9983683
-0.057231434 0.1231343 0.60700005 9719219
-0.056075241 0.1231343 0.60700005 9982391
-0.054919053 0.1231343 0.60700005 10377928
-0.053851429 0.12333716 0.60800004 10312135
-0.052693337 0.12333716 0.60800004 10048450
-0.051535241 0.12333716 0.60800004 10114243
-0.05046 0.12354001 0.60900003 10311883
-0.049300004 0.12354001 0.60900003 10377676
-0.048140001 0.12354001 0.60900003 10047425
-0.046980001 0.12354001 0.60900003 10244804
-0.045895241 0.12374286 0.61000001 10706895
-0.044806667 0.12394572 0.611 10443723
-0.043642856 0.12394572 0.611 10312396
-0.042548575 0.12414857 0.61200005 10707154
-0.041450478 0.12435143 0.61300004 10511288
-0.040348571 0.12455428 0.61400002 10642874
-0.03924286 0.12475713 0.61500001 9464251
-0.038133338 0.12496001 0.61600006 8543149
-0.075434282 0.12572382 0.61400002 8815008
-0.074264765 0.12572382 0.61400002 7627386
-0.072976194 0.12551905 0.61300004 6311526
-0.071808569 0.12551905 0.61300004 7357298
-0.070525721 0.1253143 0.61200005 8344193
-0.069360003 0.1253143 0.61200005 8869788
-0.068194285 0.1253143 0.61200005 9330339
-0.066919044 0.12510952 0.611 9788105
-0.065755233 0.12510952 0.611 10051277
-0.064485714 0.12490477 0.61000001 10313155
-0.063116193 0.12449524 0.60800004 10247362
-0.061958101 0.12449524 0.60800004 10181049
-0.060700003 0.12429048 0.60700005 10312635
-0.059543811 0.12429048 0.60700005 10510284
-0.058387626 0.12429048 0.60700005 10378698
-0.057231434 0.12429048 0.60700005 10378178
-0.056075241 0.12429048 0.60700005 10443971
-0.054919053 0.12429048 0.60700005 10576840
-0.053851429 0.12449524 0.60800004 10774219
-0.052693337 0.12449524 0.60800004 10707665
-0.051535241 0.12449524 0.60800004 10773458
-0.050377145 0.12449524 0.60800004 10905044
-0.049300004 0.12470001 0.60900003 10970837
-0.048140001 0.12470001 0.60900003 10839499
-0.047057141 0.12490477 0.61000001 11102671
-0.045895241 0.12490477 0.61000001 10710491
-0.044806667 0.12510952 0.611 10513112
-0.043642856 0.12510952 0.611 10185171
-0.042548575 0.1253143 0.61200005 9724620
-0.041450478 0.12551905 0.61300004 9462452
-0.040348571 0.12572382 0.61400002 9330866
-0.03924286 0.12592858 0.61500001 8612515
-0.038133338 0.12613335 0.61600006 9007273
-0.075434282 0.12689334 0.61400002 9276331
-0.074143812 0.12668668 0.61300004 6972804
-0.072976194 0.12668668 0.61300004 5656944
-0.071808569 0.12668668 0.61300004 6376314
-0.070525721 0.12648001 0.61200005 7034244
-0.069360003 0.12648001 0.61200005 8147087
-0.068194285 0.12648001 0.61200005 9068189
-0.066919044 0.12627333 0.611 9657010
-0.065647617 0.12606667 0.61000001 9985975
-0.064485714 0.12606667 0.61000001 10314422
-0.063116193 0.12565334 0.60800004 10446008
-0.061958101 0.12565334 0.60800004 10378930
-0.060800005 0.12565334 0.60800004 10576309
-0.059543811 0.12544668 0.60700005 10707397
-0.058387626 0.12544668 0.60700005 10641604
-0.057231434 0.12544668 0.60700005 10641343
-0.056075241 0.12544668 0.60700005 10772929
-0.054919053 0.12544668 0.60700005 10773706
-0.053851429 0.12565334 0.60800004 10905292
-0.052693337 0.12565334 0.60800004 10774221
-0.051535241 0.12565334 0.60800004 11037393
-0.050377145 0.12565334 0.60800004 11037391
-0.04921905 0.12565334 0.60800004 11300563
-0.048060957 0.12565334 0.60800004 10972618
-0.046902861 0.12565334 0.60800004 10906825
-0.045970477 0.12627333 0.611 10383311
-0.044806667 0.12627333 0.611 10449104
-0.043714289 0.12648001 0.61200005 9794765
-0.0426181 0.12668668 0.61300004 9005249
-0.041450478 0.12668668 0.61300004 8678324
-0.040414285 0.12710001 0.61500001 8744117
-0.03930667 0.12730667 0.61600006 8613825
-0.038133338 0.12730667 0.61600006 8811204
-0.074143812 0.12785429 0.61300004 7894200
-0.072976194 0.12785429 0.61300004 6117789
-0.071808569 0.12785429 0.61300004 6903950
-0.070525721 0.12764573 0.61200005 7759259
-0.069360003 0.12764573 0.61200005 8151185
-0.068194285 0.12764573 0.61200005 7888013
-0.066919044 0.12743714 0.611 8344723
-0.065647617 0.12722857 0.61000001 8344723
-0.064485714 0.12722857 0.61000001 8606630
-0.063220002 0.12702 0.60900003 9330353
-0.061958101 0.12681143 0.60800004 9330605
-0.060800005 0.12681143 0.60800004 9593777
-0.059641909 0.12681143 0.60800004 9724604
-0.058483813 0.12681143 0.60800004 10053569
-0.057325717 0.12681143 0.60800004 9922242
-0.056167625 0.12681143 0.60800004 10053828
-0.055009525 0.12681143 0.60800004 9922249
-0.053851429 0.12681143 0.60800004 9856456
-0.052693337 0.12681143 0.60800004 9725131
-0.051535241 0.12681143 0.60800004 9988303
-0.050377145 0.12681143 0.60800004 9661126
-0.04921905 0.12681143 0.60800004 9726919
-0.048060957 0.12681143 0.60800004 9596357
-0.046902861 0.12681143 0.60800004 9464771
-0.045970477 0.12743714 0.611 9268673
-0.044880003 0.12764573 0.61200005 9400259
-0.043714289 0.12764573 0.61200005 9665473
-0.0426181 0.12785429 0.61300004 10191817
-0.041518096 0.12806286 0.61400002 10324932
-0.040414285 0.12827143 0.61500001 10917069
-0.03930667 0.12848 0.61600006 10652377
-0.038133338 0.12848 0.61600006 9007552
-0.074264765 0.12923238 0.61400002 8882099
-0.072976194 0.12902191 0.61300004 5921414
-0.071808569 0.12902191 0.61300004 6970980
-0.070640959 0.12902191 0.61300004 8023668
-0.069360003 0.12881143 0.61200005 8087722
-0.068194285 0.12881143 0.61200005 7824550
-0.066919044 0.12860096 0.611 7691699
-0.065647617 0.12839048 0.61000001 7494320
-0.064485714 0.12839048 0.61000001 7624623
-0.063220002 0.12818 0.60900003 8216760
-0.062060002 0.12818 0.60900003 8217275
-0.060800005 0.12796953 0.60800004 8414654
-0.059641909 0.12796953 0.60800004 8676286
-0.058483813 0.12796953 0.60800004 9071044
-0.057325717 0.12796953 0.60800004 9071044
-0.056167625 0.12796953 0.60800004 9334216
-0.055009525 0.12796953 0.60800004 9268939
-0.053851429 0.12796953 0.60800004 9137353
-0.052693337 0.12796953 0.60800004 8744398
-0.051535241 0.12796953 0.60800004 9007570
-0.050377145 0.12796953 0.60800004 8746202
-0.04921905 0.12796953 0.60800004 8811995
-0.048140001 0.12818 0.60900003 9010139
-0.047057141 0.12839048 0.61000001 8812760
-0.045970477 0.12860096 0.611 8746456
-0.044880003 0.12881143 0.61200005 9207007
-0.043714289 0.12881143 0.61200005 9732840
-0.0426181 0.12902191 0.61300004 9864426
-0.041518096 0.12923238 0.61400002 10588631
-0.040414285 0.12944287 0.61500001 10325459
-0.03930667 0.12965335 0.61600006 10651080
-0.038133338 0.12965335 0.61600006 8479911
-0.074264765 0.13040191 0.61400002 9799325
-0.072976194 0.13018952 0.61300004 3943748
-0.071808569 0.13018952 0.61300004 5581410
-0.070640959 0.13018952 0.61300004 9265818
-0.069360003 0.12997715 0.61200005 9137853
-0.068194285 0.12997715 0.61200005 10716885
-0.066919044 0.12976477 0.611 10586593
-0.065755233 0.12976477 0.611 10455007
-0.064485714 0.12955238 0.61000001 10323417
-0.063220002 0.12934001 0.60900003 10126038
-0.062060002 0.12934001 0.60900003 9929683
-0.060800005 0.12912764 0.60800004 9929683
-0.059641909 0.12912764 0.60800004 9929681
-0.058483813 0.12912764 0.60800004 9995474
-0.057325717 0.12912764 0.60800004 10062039
-0.056260001 0.12934001 0.60900003 10325211
-0.055100001 0.12934001 0.60900003 10852057
-0.053851429 0.12912764 0.60800004 10983643
-0.052693337 0.12912764 0.60800004 11049452
-0.051535241 0.12912764 0.60800004 11575796
-0.050377145 0.12912764 0.60800004 11247359
-0.049300004 0.12934001 0.60900003 10984188
-0.048140001 0.12934001 0.60900003 11117053
-0.047057141 0.12955238 0.61000001 11577599
-0.045970477 0.12976477 0.611 11905023
-0.044880003 0.12997715 0.61200005 11839231
-0.043714289 0.12997715 0.61200005 11113215
-0.0426181 0.13018952 0.61300004 10257918
-0.041518096 0.13040191 0.61400002 9202903
-0.040414285 0.1306143 0.61500001 7294906
-0.03930667 0.13082668 0.61600006 5967757
-0.038133338 0.13082668 0.61600006 5704585
-0.037080001 0.13125144 0.61800003 5901392
-0.074264765 0.13157144 0.61400002 8613252
-0.072976194 0.13135715 0.61300004 3481398
-0.071808569 0.13135715 0.61300004 5376283
-0.070640959 0.13135715 0.61300004 9455449
-0.069360003 0.13114287 0.61200005 8937112
-0.068194285 0.13114287 0.61200005 10976695
-0.066919044 0.13092858 0.611 10061501
-0.065755233 0.13092858 0.611 10127294
-0.064485714 0.13071428 0.61000001 10916812
-0.063220002 0.1305 0.60900003 10785226
-0.062060002 0.1305 0.60900003 10391506
-0.060800005 0.13028571 0.60800004 10325713
-0.059641909 0.13028571 0.60800004 10393048
-0.058580004 0.1305 0.60900003 10261462
-0.057420004 0.1305 0.60900003 10129633
-0.056260001 0.1305 0.60900003 10524391
-0.055100001 0.1305 0.60900003 10459625
-0.053940002 0.1305 0.60900003 10591211
-0.052780002 0.1305 0.60900003 10919922
-0.051620003 0.1305 0.60900003 11117301
-0.05046 0.1305 0.60900003 11314431
-0.049300004 0.1305 0.60900003 11314431
-0.048140001 0.1305 0.60900003 11512319
-0.047134288 0.13092858 0.611 11446527
-0.046045717 0.13114287 0.61200005 11905272
-0.044880003 0.13114287 0.61200005 10918377
-0.043714289 0.13114287 0.61200005 10783709
-0.0426181 0.13135715 0.61300004 10059986
-0.041518096 0.13157144 0.61400002 8150696
-0.040414285 0.13178571 0.61500001 7426973
-0.03930667 0.132 0.61600006 6427518
-0.038133338 0.132 0.61600006 5901174
-0.037080001 0.13242857 0.61800003 6818901
-0.035960954 0.13264287 0.61900002 6160971
-0.034781903 0.13264287 0.61900002 4916992
-0.074385718 0.13295713 0.61500001 3670834
-0.07309524 0.13274096 0.61400002 4131385
-0.071925715 0.13274096 0.61400002 5375046
-0.070640959 0.13252476 0.61300004 5967183
-0.069473341 0.13252476 0.61300004 6165306
-0.068194285 0.13230859 0.61200005 6757443
-0.066919044 0.13209239 0.611 6167644
-0.065755233 0.13209239 0.611 8799364
-0.064485714 0.13187619 0.61000001 9002884
-0.063220002 0.13166001 0.60900003 10121365
-0.062060002 0.13166001 0.60900003 10716073
-0.060900003 0.13166001 0.60900003 10979245
-0.059739999 0.13166001 0.60900003 11442123
-0.058580004 0.13166001 0.60900003 11639502
-0.057420004 0.13166001 0.60900003 11442409
-0.056352381 0.13187619 0.61000001 11705581
-0.055100001 0.13166001 0.60900003 11509485
-0.053940002 0.13166001 0.60900003 11575278
-0.052780002 0.13166001 0.60900003 11705842
-0.051620003 0.13166001 0.60900003 11640049
-0.05046 0.13166001 0.60900003 11705079
-0.049300004 0.13166001 0.60900003 10849770
-0.048219047 0.13187619 0.61000001 9267945
-0.047134288 0.13209239 0.611 8017878
-0.046045717 0.13230859 0.61200005 6961316
-0.044880003 0.13230859 0.61200005 4263803
-0.043785717 0.13252476 0.61300004 5638229
-0.042687621 0.13274096 0.61400002 6888296
-0.041518096 0.13274096 0.61400002 7155829
-0.040480006 0.13317335 0.61600006 9261205
-0.03930667 0.13317335 0.61600006 8407947
-0.038257144 0.13360572 0.61800003 5315676
-0.037080001 0.13360572 0.61800003 6489686
-0.035960954 0.1338219 0.61900002 6621272
-0.034781903 0.1338219 0.61900002 5835051
-0.034091428 0.13576762 0.62800002 5111840
-0.073214285 0.13412857 0.61500001 5116425
-0.071925715 0.13391048 0.61400002 5834558
-0.070756197 0.13391048 0.61400002 5834558
-0.069473341 0.1336924 0.61300004 6295102
-0.068194285 0.13347429 0.61200005 6755653
-0.066919044 0.1332562 0.611 6753613
-0.065755233 0.1332562 0.611 8003680
-0.064485714 0.1330381 0.61000001 7478121
-0.063323803 0.1330381 0.61000001 7478121
-0.062060002 0.13282001 0.60900003 8862602
-0.060900003 0.13282001 0.60900003 10178462
-0.059739999 0.13282001 0.60900003 9856931
-0.058580004 0.13282001 0.60900003 11172791
-0.057514288 0.1330381 0.61000001 10519494
-0.056352381 0.1330381 0.61000001 10519494
-0.055190478 0.1330381 0.61000001 10651078
-0.054028571 0.1330381 0.61000001 10585285
-0.052866668 0.1330381 0.61000001 10715849
-0.051620003 0.13282001 0.60900003 10255298
-0.05046 0.13282001 0.60900003 10317761
-0.049380954 0.1330381 0.61000001 9330866
-0.048219047 0.1330381 0.61000001 8338336
-0.047134288 0.1332562 0.611 5772409
-0.046045717 0.13347429 0.61200005 6882679
-0.044953335 0.1336924 0.61300004 7014265
-0.043785717 0.1336924 0.61300004 7210872
-0.042687621 0.13391048 0.61400002 8855697
-0.041585714 0.13412857 0.61500001 7944057
-0.040480006 0.13434668 0.61600006 10641570
-0.039434288 0.13478287 0.61800003 9989055
-0.038257144 0.13478287 0.61800003 5580924
-0.037080001 0.13478287 0.61800003 6161733
-0.035960954 0.13500096 0.61900002 6622284
-0.034894288 0.13543716 0.62100005 6686776
-0.034037143 0.13674572 0.62700003 6292018
-0.032895237 0.13696381 0.62800002 4589056
-0.031699046 0.13696381 0.62800002 7352358
-0.030454287 0.13674572 0.62700003 9864344
-0.02926 0.13674572 0.62700003 12496064
-0.073333338 0.13552001 0.61600006 5247257
-0.07204286 0.1353 0.61500001 5834066
-0.070756197 0.13507999 0.61400002 5899859
-0.069473341 0.13486001 0.61300004 6492757
-0.068305716 0.13486001 0.61300004 8466547
-0.067028575 0.13464001 0.61200005 7877501
-0.065755233 0.13442001 0.611 7614329
-0.06459143 0.13442001 0.611 7543410
-0.063323803 0.13420001 0.61000001 6885480
-0.062161908 0.13420001 0.61000001 7014506
-0.060900003 0.13398001 0.60900003 6422625
-0.059739999 0.13398001 0.60900003 5572140
-0.058676191 0.13420001 0.61000001 5835312
-0.057608571 0.13442001 0.611 6030684
-0.056352381 0.13420001 0.61000001 6096477
-0.055190478 0.13420001 0.61000001 5834077
-0.054028571 0.13420001 0.61000001 5702491
-0.052866668 0.13420001 0.61000001 5768282
-0.051789526 0.13442001 0.611 5702489
-0.050625715 0.13442001 0.611 6489667
-0.049461905 0.13442001 0.611 7805527
-0.048298094 0.13442001 0.611 7279965
-0.047211431 0.13464001 0.61200005 6753621
-0.046120953 0.13486001 0.61300004 7547001
-0.044953335 0.13486001 0.61300004 10507686
-0.043785717 0.13486001 0.61300004 10185646
-0.042687621 0.13507999 0.61400002 10383025
-0.041585714 0.1353 0.61500001 10186397
-0.040480006 0.13552001 0.61600006 11239085
-0.039434288 0.13596001 0.61800003 10383063
-0.038257144 0.13596001 0.61800003 6501276
-0.037080001 0.13596001 0.61800003 6096470
-0.035960954 0.13618 0.61900002 6359642
-0.035119046 0.1375 0.625 6948680
-0.034037143 0.13794 0.62700003 7014473
-0.032895237 0.13816001 0.62800002 5178444
-0.031699046 0.13816001 0.62800002 5244237
-0.030454287 0.13794 0.62700003 6839200
-0.02926 0.13794 0.62700003 12168433
-0.076171428 0.13758096 0.62 3411968
-0.074869521 0.13735905 0.61900002 5113383
-0.073571429 0.13713714 0.61800003 5639727
-0.07204286 0.13647142 0.61500001 6030673
-0.070871428 0.13647142 0.61500001 6162259
-0.069473341 0.13602763 0.61300004 6425683
-0.068305716 0.13602763 0.61300004 8728438
-0.067028575 0.13580573 0.61200005 8075398
-0.065862864 0.13580573 0.61200005 7614847
-0.06459143 0.13558382 0.611 7611249
-0.063323803 0.13536191 0.61000001 9321867
-0.062161908 0.13536191 0.61000001 8734625
-0.061000001 0.13536191 0.61000001 5510768
-0.059838098 0.13536191 0.61000001 7013988
-0.058676191 0.13536191 0.61000001 7145574
-0.057608571 0.13558382 0.611 7341685
-0.05644476 0.13558382 0.611 7473271
-0.055190478 0.13536191 0.61000001 7144831
-0.054028571 0.13536191 0.61000001 7210624
-0.052953333 0.13558382 0.611 7341207
-0.051789526 0.13558382 0.611 7209621
-0.050625715 0.13558382 0.611 7210597
-0.049542859 0.13580573 0.61200005 9052801
-0.048377149 0.13580573 0.61200005 8138356
-0.047211431 0.13580573 0.61200005 8927872
-0.046120953 0.13602763 0.61300004 8865961
-0.044953335 0.13602763 0.61300004 10313407
-0.043785717 0.13602763 0.61300004 10186686
-0.042687621 0.13624953 0.61400002 9528756
-0.041518096 0.13624953 0.61400002 9001881
-0.040480006 0.13669334 0.61600006 9396639
-0.03930667 0.13669334 0.61600006 9527473
-0.038257144 0.13713714 0.61800003 6500995
-0.037140001 0.13735905 0.61900002 7342982
-0.036135238 0.13802478 0.62200004 7145603
-0.035062857 0.13846856 0.62400001 7145056
-0.034037143 0.13913429 0.62700003 7145056
-0.032895237 0.1393562 0.62800002 5375055
-0.031699046 0.1393562 0.62800002 5177676
-0.030454287 0.13913429 0.62700003 6445709
-0.02926 0.13913429 0.62700003 11972321
-0.079040006 0.13965714 0.62400001 7760010
-0.07760191 0.13920954 0.62200004 6567210
-0.076171428 0.13876191 0.62 4198662
-0.074869521 0.13853811 0.61900002 5769038
-0.073571429 0.13831429 0.61800003 6032210
-0.072160006 0.13786668 0.61600006 6555479
-0.070871428 0.13764286 0.61500001 6818651
-0.069586664 0.13741906 0.61400002 6818901
-0.068305716 0.13719524 0.61300004 9121656
-0.067028575 0.13697143 0.61200005 8534668
-0.065862864 0.13697143 0.61200005 7547773
-0.06459143 0.13674763 0.611 7283822
-0.063323803 0.13652381 0.61000001 10902437
-0.062161908 0.13652381 0.61000001 10449617
-0.061000001 0.13652381 0.61000001 9791687
-0.059838098 0.13652381 0.61000001 9986486
-0.058676191 0.13652381 0.61000001 9986486
-0.057608571 0.13674763 0.611 10446004
-0.05644476 0.13674763 0.611 11301313
-0.055280954 0.13674763 0.611 10777531
-0.054117143 0.13674763 0.611 9856429
-0.052953333 0.13674763 0.611 10379990
-0.051874291 0.13697143 0.61200005 9327302
-0.050708573 0.13697143 0.61200005 9523373
-0.049542859 0.13697143 0.61200005 10839233
-0.048377149 0.13697143 0.61200005 10578598
-0.047211431 0.13697143 0.61200005 12157630
-0.046120953 0.13719524 0.61300004 11041234
-0.044953335 0.13719524 0.61300004 10185925
-0.043785717 0.13719524 0.61300004 10316741
-0.042687621 0.13741906 0.61400002 8606123
-0.041518096 0.13741906 0.61400002 8074376
-0.040414285 0.13764286 0.61500001 8074376
-0.03930667 0.13786668 0.61600006 8470653
-0.038257144 0.13831429 0.61800003 9983892
-0.037140001 0.13853811 0.61900002 10182066
-0.036077145 0.13898572 0.62100005 8405655
-0.035062857 0.13965714 0.62400001 7866753
-0.033928569 0.13988096 0.625 7471995
-0.032842856 0.14032857 0.62700003 5571686
-0.031699046 0.14055239 0.62800002 6558581
-0.030454287 0.14032857 0.62700003 7036842
-0.02926 0.14032857 0.62700003 12102903
-0.078913331 0.14061999 0.62300003 3811917
-0.07760191 0.1403943 0.62200004 5768972
-0.076171428 0.13994285 0.62 6163730
-0.074869521 0.13971715 0.61900002 6359642
-0.073571429 0.13949142 0.61800003 6425435
-0.072160006 0.13904002 0.61600006 6753112
-0.070986666 0.13904002 0.61600006 6818905
-0.069586664 0.13858858 0.61400002 6949978
-0.068417147 0.13858858 0.61400002 8923768
-0.067138098 0.13836285 0.61300004 8205948
-0.065862864 0.13813715 0.61200005 7482225
-0.06459143 0.13791144 0.611 7152234
-0.063323803 0.13768572 0.61000001 10441884
-0.062161908 0.13768572 0.61000001 9990593
-0.061000001 0.13768572 0.61000001 9595835
-0.059838098 0.13768572 0.61000001 9791408
-0.058772378 0.13791144 0.611 9857201
-0.057608571 0.13791144 0.611 10251950
-0.05644476 0.13791144 0.611 11173052
-0.055280954 0.13791144 0.611 10911456
-0.054117143 0.13791144 0.611 10582491
-0.052953333 0.13791144 0.611 10911456
-0.051874291 0.13813715 0.61200005 8806080
-0.050708573 0.13813715 0.61200005 9327282
-0.049542859 0.13813715 0.61200005 10511556
-0.048377149 0.13813715 0.61200005 10250678
-0.047211431 0.13813715 0.61200005 10842815
-0.046120953 0.13836285 0.61300004 10515392
-0.044953335 0.13836285 0.61300004 9396911
-0.043785717 0.13836285 0.61300004 9657251
-0.042687621 0.13858858 0.61400002 8209805
-0.041518096 0.13858858 0.61400002 8003722
-0.040414285 0.13881429 0.61500001 9516961
-0.03930667 0.13904002 0.61600006 9322662
-0.038133338 0.13904002 0.61600006 10506936
-0.037080001 0.13949142 0.61800003 10970560
-0.035960954 0.13971715 0.61900002 8141461
-0.035006665 0.14061999 0.62300003 8721272
-0.033874284 0.14084572 0.62400001 8326514
-0.032842856 0.14152287 0.62700003 6688119
-0.031648573 0.14152287 0.62700003 7280256
-0.030502856 0.14174856 0.62800002 7823787
-0.029306667 0.14174856 0.62800002 11902953
-0.078913331 0.14180666 0.62300003 3088196
-0.07747715 0.14135143 0.62100005 4719687
-0.076171428 0.14112382 0.62 5640789
-0.074869521 0.1408962 0.61900002 6752610
-0.073571429 0.14066859 0.61800003 6752610
-0.072160006 0.14021334 0.61600006 6883676
-0.070986666 0.14021334 0.61600006 6949469
-0.069586664 0.1397581 0.61400002 7014749
-0.068417147 0.1397581 0.61400002 7014749
-0.067138098 0.13953048 0.61300004 7607901
-0.065862864 0.13930286 0.61200005 8002659
-0.06459143 0.13907525 0.611 7675750
-0.063323803 0.13884762 0.61000001 10570642
-0.062161908 0.13884762 0.61000001 10185109
-0.061000001 0.13884762 0.61000001 10119316
-0.059838098 0.13884762 0.61000001 10183845
-0.058772378 0.13907525 0.611 9920673
-0.057608571 0.13907525 0.611 9789602
-0.05644476 0.13907525 0.611 11105462
-0.055280954 0.13907525 0.611 10449367
-0.054117143 0.13907525 0.611 7949233
-0.052953333 0.13907525 0.611 8867517
-0.051874291 0.13930286 0.61200005 8801724
-0.050708573 0.13930286 0.61200005 9194674
-0.049542859 0.13930286 0.61200005 10247362
-0.048377149 0.13930286 0.61200005 9656508
-0.047211431 0.13930286 0.61200005 8209062
-0.046120953 0.13953048 0.61300004 7740559
-0.044953335 0.13953048 0.61300004 6490492
-0.043785717 0.13953048 0.61300004 7407197
-0.0426181 0.13953048 0.61300004 8065127
-0.041450478 0.13953048 0.61300004 8859299
-0.040348571 0.1397581 0.61400002 11556812
-0.03924286 0.13998571 0.61500001 10244559
-0.038133338 0.14021334 0.61600006 9389250
-0.037080001 0.14066859 0.61800003 9385121
-0.035960954 0.1408962 0.61900002 7082366
-0.034950476 0.14157905 0.62200004 7276376
-0.03382 0.14180666 0.62300003 9052787
-0.032685712 0.14203429 0.62400001 9397661
-0.031547617 0.14226191 0.625 10450349
-0.030454287 0.14271715 0.62700003 8550333
-0.029306667 0.14294477 0.62800002 10984674
-0.078786671 0.14276381 0.62200004 3746128
-0.07747715 0.1425343 0.62100005 5964920
-0.076171428 0.14230476 0.62 6359678
-0.074869521 0.14207524 0.61900002 7014758
-0.073571429 0.14184572 0.61800003 7080551
-0.072160006 0.14138667 0.61600006 7081055
-0.070986666 0.14138667 0.61600006 7146848
-0.069586664 0.14092761 0.61400002 7277921
-0.068417147 0.14092761 0.61400002 7212128
-0.067138098 0.14069809 0.61300004 7605346
-0.065862864 0.14046857 0.61200005 8263276
-0.064697146 0.14046857 0.61200005 7804013
-0.063323803 0.14000954 0.61000001 9119873
-0.062161908 0.14000954 0.61000001 8531588
-0.061000001 0.14000954 0.61000001 8400002
-0.059838098 0.14000954 0.61000001 9256072
-0.058772378 0.14023906 0.611 8861314
-0.057608571 0.14023906 0.611 9192857
-0.05644476 0.14023906 0.611 11561405
-0.055280954 0.14023906 0.611 10316757
-0.054117143 0.14023906 0.611 8145588
-0.052953333 0.14023906 0.611 8798396
-0.051789526 0.14023906 0.611 9324740
-0.050708573 0.14046857 0.61200005 9588179
-0.049542859 0.14046857 0.61200005 10311902
-0.048377149 0.14046857 0.61200005 9852883
-0.047211431 0.14046857 0.61200005 9129160
-0.046120953 0.14069809 0.61300004 8264861
-0.044953335 0.14069809 0.61300004 7277966
-0.043785717 0.14069809 0.61300004 8062826
-0.0426181 0.14069809 0.61300004 8391791
-0.041450478 0.14069809 0.61300004 9448858
-0.040348571 0.14092761 0.61400002 10896304
-0.03924286 0.14115714 0.61500001 9850035
-0.038133338 0.14138667 0.61600006 8731554
-0.037080001 0.14184572 0.61800003 8327324
-0.035960954 0.14207524 0.61900002 8129945
-0.034894288 0.1425343 0.62100005 7407025
-0.033765715 0.14276381 0.62200004 11551984
-0.032633334 0.14299333 0.62300003 10649840
-0.031497143 0.14322285 0.62400001 9860324
-0.030357143 0.14345238 0.625 8220319
-0.029306667 0.14414096 0.62800002 11049418
-0.078786671 0.14394858 0.62200004 7694478
-0.077352382 0.14348571 0.62 6169032
-0.076048575 0.14325429 0.61900002 5050551
-0.074869521 0.14325429 0.61900002 5702507
-0.073571429 0.14302287 0.61800003 6163058
-0.072160006 0.14256002 0.61600006 6948708
-0.070986666 0.14256002 0.61600006 7146087
-0.069586664 0.14209715 0.61400002 7277162
-0.068417147 0.14209715 0.61400002 7342955
-0.067138098 0.14186573 0.61300004 7539053
-0.065862864 0.1416343 0.61200005 7670639
-0.064697146 0.1416343 0.61200005 7735923
-0.063531436 0.1416343 0.61200005 7538544
-0.062263809 0.14140286 0.611 7603835
-0.061099999 0.14140286 0.611 7932800
-0.059936188 0.14140286 0.611 7801712
-0.058772378 0.14140286 0.611 7999091
-0.057514288 0.14117144 0.61000001 9455270
-0.056352381 0.14117144 0.61000001 12613334
-0.055190478 0.14117144 0.61000001 11502037
-0.054028571 0.14117144 0.61000001 10449349
-0.052866668 0.14117144 0.61000001 10512855
-0.051704761 0.14117144 0.61000001 11104992
-0.050625715 0.14140286 0.611 11498751
-0.049461905 0.14140286 0.611 11301375
-0.048377149 0.1416343 0.61200005 11104239
-0.047211431 0.1416343 0.61200005 9919965
-0.046045717 0.1416343 0.61200005 8991163
-0.044880003 0.1416343 0.61200005 7346338
-0.043785717 0.14186573 0.61300004 7997060
-0.0426181 0.14186573 0.61300004 7997060
-0.041450478 0.14186573 0.61300004 7669376
-0.040348571 0.14209715 0.61400002 7406204
-0.03924286 0.14232858 0.61500001 6686061
-0.038133338 0.14256002 0.61600006 6751854
-0.037080001 0.14302287 0.61800003 5704868
-0.035960954 0.14325429 0.61900002 8599760
-0.034838095 0.14348571 0.62 9006591
-0.03371143 0.14371715 0.62100005 12361983
-0.032580953 0.14394858 0.62200004 12431103
-0.031497143 0.14441143 0.62400001 10194150
-0.030308573 0.14441143 0.62400001 7960243
-0.079971433 0.14513335 0.62200004 10590146
-0.078660011 0.14490002 0.62100005 8024219
-0.077352382 0.14466666 0.62 7757260
-0.076048575 0.14443333 0.61900002 4204438
-0.074869521 0.14443333 0.61900002 5835700
-0.073571429 0.1442 0.61800003 6230458
-0.072160006 0.14373334 0.61600006 7145358
-0.070986666 0.14373334 0.61600006 7145358
-0.069699995 0.1435 0.61500001 7473521
-0.068417147 0.14326668 0.61400002 7605107
-0.067138098 0.14303334 0.61300004 7735923
-0.065862864 0.14280002 0.61200005 7933302
-0.064697146 0.14280002 0.61200005 7998080
-0.063531436 0.14280002 0.61200005 7932287
-0.062263809 0.14256667 0.611 8063105
-0.061099999 0.14256667 0.611 8655242
-0.059936188 0.14256667 0.611 8196479
-0.058772378 0.14256667 0.611 8788616
-0.057514288 0.14233333 0.61000001 9718433
-0.056352381 0.14233333 0.61000001 12547532
-0.055190478 0.14233333 0.61000001 11765725
-0.054028571 0.14233333 0.61000001 10976209
-0.052866668 0.14233333 0.61000001 11040210
-0.051704761 0.14233333 0.61000001 11303382
-0.050625715 0.14256667 0.611 12093168
-0.049461905 0.14256667 0.611 10908894
-0.048298094 0.14256667 0.611 10905816
-0.047211431 0.14280002 0.61200005 9918921
-0.046045717 0.14280002 0.61200005 8928683
-0.044880003 0.14280002 0.61200005 6757514
-0.043714289 0.14280002 0.61200005 7800708
-0.042548575 0.14280002 0.61200005 8063880
-0.04138286 0.14280002 0.61200005 7734686
-0.040348571 0.14326668 0.61400002 7866272
-0.039179049 0.14326668 0.61400002 6489525
-0.038133338 0.14373334 0.61600006 8858073
-0.037080001 0.1442 0.61800003 5787366
-0.035902858 0.1442 0.61800003 5392608
-0.034781903 0.14443333 0.61900002 7241215
-0.03371143 0.14490002 0.62100005 10136063
-0.032528572 0.14490002 0.62100005 11778559
-0.031497143 0.14560001 0.62400001 9475812
-0.030308573 0.14560001 0.62400001 7502258
-0.079971433 0.14631809 0.62200004 10393800
-0.078660011 0.14608286 0.62100005 8222631
-0.077352382 0.14584762 0.62 6643925
-0.076048575 0.14561239 0.61900002 5130686
-0.074748576 0.14537716 0.61800003 5390069
-0.073571429 0.14537716 0.61800003 4797932
-0.07204286 0.14467143 0.61500001 5578417
-0.070871428 0.14467143 0.61500001 4657315
-0.069586664 0.1444362 0.61400002 5964657
-0.068305716 0.14420097 0.61300004 6359415
-0.067028575 0.14396574 0.61200005 7079288
-0.065862864 0.14396574 0.61200005 7210874
-0.06459143 0.14373048 0.611 7603844
-0.06342762 0.14373048 0.611 7669637
-0.062161908 0.14349523 0.61000001 7866001
-0.061000001 0.14349523 0.61000001 8523931
-0.059936188 0.14373048 0.611 7997839
-0.058772378 0.14373048 0.611 8589976
-0.057514288 0.14349523 0.61000001 8860044
-0.056352381 0.14349523 0.61000001 9452181
-0.055190478 0.14349523 0.61000001 9257650
-0.054028571 0.14349523 0.61000001 9126064
-0.052866668 0.14349523 0.61000001 8796586
-0.051704761 0.14349523 0.61000001 8599207
-0.050542857 0.14349523 0.61000001 8466340
-0.049380954 0.14349523 0.61000001 7874203
-0.048219047 0.14349523 0.61000001 7804308
-0.047134288 0.14373048 0.611 7212171
-0.045970477 0.14373048 0.611 7013774
-0.044806667 0.14373048 0.611 6750602
-0.043714289 0.14396574 0.61200005 5899143
-0.042548575 0.14396574 0.61200005 6754452
-0.04138286 0.14396574 0.61200005 5513928
-0.040348571 0.1444362 0.61400002 8606199
-0.039179049 0.1444362 0.61400002 9078007
-0.038133338 0.14490667 0.61600006 9735935
-0.036960002 0.14490667 0.61600006 8492031
-0.035902858 0.14537716 0.61800003 7439355
-0.034725714 0.14537716 0.61800003 7769599
-0.033657141 0.14584762 0.62 9940735
-0.03247619 0.14584762 0.62 11383295
-0.031497143 0.14678858 0.62400001 9277927
-0.030308573 0.14678858 0.62400001 7305920
-0.079971433 0.14750285 0.62200004 9935298
-0.078660011 0.14726573 0.62100005 7171992
-0.077352382 0.14702858 0.62 5399248
-0.076048575 0.14679144 0.61900002 3557044
-0.074748576 0.14655429 0.61800003 2905328
-0.073333338 0.14608002 0.61600006 1918433
-0.07204286 0.14584287 0.61500001 4144849
-0.070871428 0.14584287 0.61500001 3223747
-0.069586664 0.14560571 0.61400002 5836726
-0.068305716 0.14536858 0.61300004 6034105
-0.067028575 0.14513144 0.61200005 7342256
-0.065862864 0.14513144 0.61200005 7473842
-0.06459143 0.14489429 0.611 7800493
-0.06342762 0.14489429 0.611 8063665
-0.062161908 0.14465714 0.61000001 8789684
-0.061000001 0.14465714 0.61000001 8526512
-0.059838098 0.14465714 0.61000001 8260276
-0.058676191 0.14465714 0.61000001 9444550
-0.057514288 0.14465714 0.61000001 8594872
-0.056260001 0.14442 0.60900003 8858044
-0.055100001 0.14442 0.60900003 8661437
-0.053940002 0.14442 0.60900003 8924609
-0.052780002 0.14442 0.60900003 9055432
-0.051620003 0.14442 0.60900003 8726467
-0.05046 0.14442 0.60900003 8461762
-0.049300004 0.14442 0.60900003 8922313
-0.048219047 0.14465714 0.61000001 8004041
-0.047057141 0.14465714 0.61000001 8135627
-0.045895241 0.14465714 0.61000001 7607252
-0.044733334 0.14465714 0.61000001 8265182
-0.043642856 0.14489429 0.611 6368226
-0.042548575 0.14513144 0.61200005 6236640
-0.04138286 0.14513144 0.61200005 2901747
-0.040282857 0.14536858 0.61300004 5862399
-0.039179049 0.14560571 0.61400002 6262271
-0.038133338 0.14608002 0.61600006 6328063
-0.036960002 0.14608002 0.61600006 5870335
-0.035902858 0.14655429 0.61800003 5278207
-0.034725714 0.14655429 0.61800003 7115263
-0.033657141 0.14702858 0.62 9352191
-0.03247619 0.14702858 0.62 11383807
-0.031446666 0.14773999 0.62300003 9804782
-0.03026 0.14773999 0.62300003 7044547
-0.079842865 0.14844859 0.62100005 9936060
-0.078533329 0.14820951 0.62 6383238
-0.077227622 0.14797048 0.61900002 3626959
-0.075925715 0.14773144 0.61800003 2837443
-0.074748576 0.14773144 0.61800003 1922796
-0.073214285 0.14701429 0.61500001 2054382
-0.07204286 0.14701429 0.61500001 4217072
-0.070756197 0.14677523 0.61400002 4875002
-0.069473341 0.1465362 0.61300004 5985779
-0.068194285 0.14629716 0.61200005 5722607
-0.066919044 0.1460581 0.611 6310889
-0.065755233 0.1460581 0.611 5981924
-0.064485714 0.14581905 0.61000001 6834651
-0.063323803 0.14581905 0.61000001 7097823
-0.062161908 0.14581905 0.61000001 7820760
-0.061000001 0.14581905 0.61000001 7754967
-0.059838098 0.14581905 0.61000001 8215264
-0.058676191 0.14581905 0.61000001 8412643
-0.057514288 0.14581905 0.61000001 8150506
-0.056260001 0.14558001 0.60900003 7887334
-0.055100001 0.14558001 0.60900003 7755748
-0.053940002 0.14558001 0.60900003 8808436
-0.052780002 0.14558001 0.60900003 8480505
-0.051620003 0.14558001 0.60900003 8151540
-0.05046 0.14558001 0.60900003 8021746
-0.049300004 0.14558001 0.60900003 8679676
-0.048219047 0.14581905 0.61000001 9997823
-0.047057141 0.14581905 0.61000001 10392575
-0.045895241 0.14581905 0.61000001 10065151
-0.044733334 0.14581905 0.61000001 9078268
-0.043642856 0.1460581 0.611 8227071
-0.042548575 0.14629716 0.61200005 6648054
-0.04138286 0.14629716 0.61200005 4813567
-0.040282857 0.1465362 0.61300004 6655743
-0.039179049 0.14677523 0.61400002 7445759
-0.038133338 0.14725335 0.61600006 6919423
-0.036960002 0.14725335 0.61600006 5936639
-0.035902858 0.14773144 0.61800003 5673471
-0.034725714 0.14773144 0.61800003 7837439
-0.033657141 0.14820951 0.62 10271743
-0.03247619 0.14820951 0.62 11448831
-0.031446666 0.14892666 0.62300003 10198765
-0.03026 0.14892666 0.62300003 7767756
-0.029073333 0.14892666 0.62300003 3030660
-0.079842865 0.14963144 0.62100005 9739718
-0.078533329 0.14939047 0.62 5792138
-0.077227622 0.14914954 0.61900002 3430868
-0.075925715 0.14890857 0.61800003 2838731
-0.074748576 0.14890857 0.61800003 1661423
-0.073214285 0.14818572 0.61500001 1661423
-0.071925715 0.14794476 0.61400002 1464562
-0.070640959 0.14770381 0.61300004 1990906
-0.069360003 0.14746287 0.61200005 2383354
-0.068082854 0.14722191 0.611 2383354
-0.066809528 0.14698096 0.61000001 2972922
-0.065647617 0.14698096 0.61000001 3104508
-0.064485714 0.14698096 0.61000001 3496959
-0.063323803 0.14698096 0.61000001 3628543
-0.062161908 0.14698096 0.61000001 4677887
-0.061000001 0.14698096 0.61000001 6322687
-0.059838098 0.14698096 0.61000001 6847743
-0.058676191 0.14698096 0.61000001 6979327
-0.057514288 0.14698096 0.61000001 7307775
-0.056260001 0.14674 0.60900003 7044607
-0.055100001 0.14674 0.60900003 6913279
-0.053940002 0.14674 0.60900003 7373823
-0.052780002 0.14674 0.60900003 7571711
-0.051620003 0.14674 0.60900003 6979583
-0.05046 0.14674 0.60900003 5471743
-0.049380954 0.14698096 0.61000001 6853375
-0.048219047 0.14698096 0.61000001 8102143
-0.047057141 0.14698096 0.61000001 8365311
-0.045895241 0.14698096 0.61000001 8300543
-0.044733334 0.14698096 0.61000001 6392557
-0.043571427 0.14698096 0.61000001 4295167
-0.042479049 0.14722191 0.611 2716151
-0.04138286 0.14746287 0.61200005 1667583
-0.040217146 0.14746287 0.61200005 4628223
-0.039179049 0.14794476 0.61400002 6396927
-0.038133338 0.14842667 0.61600006 6002175
-0.036960002 0.14842667 0.61600006 5740031
-0.035902858 0.14890857 0.61800003 5411071
-0.034781903 0.14914954 0.61900002 7641087
-0.033657141 0.14939047 0.62 9812223
-0.032528572 0.14963144 0.62100005 10791679
-0.031446666 0.15011333 0.62300003 10265343
-0.03026 0.15011333 0.62300003 8885465
-0.029073333 0.15011333 0.62300003 3753611
-0.027976191 0.15059523 0.625 4345759
-0.079842865 0.15081429 0.62100005 9410244
-0.078533329 0.15057144 0.62 5594250
-0.077227622 0.15032858 0.61900002 1920995
-0.075925715 0.15008572 0.61800003 2184167
-0.074748576 0.15008572 0.61800003 2120945
-0.073214285 0.14935714 0.61500001 2186738
-0.071925715 0.1491143 0.61400002 2384117
-0.070640959 0.14887144 0.61300004 2515703
-0.069360003 0.14862858 0.61200005 2580476
-0.068082854 0.14838572 0.611 2317304
-0.066809528 0.14814286 0.61000001 2384895
-0.065647617 0.14814286 0.61000001 3240191
-0.064485714 0.14814286 0.61000001 4091647
-0.063323803 0.14814286 0.61000001 4354815
-0.062161908 0.14814286 0.61000001 4814079
-0.061000001 0.14814286 0.61000001 7116799
-0.059838098 0.14814286 0.61000001 8954367
-0.058580004 0.14790002 0.60900003 9217535
-0.057420004 0.14790002 0.60900003 8955391
-0.056260001 0.14790002 0.60900003 8889599
-0.055100001 0.14790002 0.60900003 9349631
-0.053940002 0.14790002 0.60900003 10139135
-0.052780002 0.14790002 0.60900003 8692991
-0.051535241 0.14765716 0.60800004 7640314
-0.050377145 0.14765716 0.60800004 6197247
-0.049300004 0.14790002 0.60900003 7315711
-0.048140001 0.14790002 0.60900003 8233727
-0.046980001 0.14790002 0.60900003 8299519
-0.045820002 0.14790002 0.60900003 8301055
-0.044660002 0.14790002 0.60900003 6327277
-0.043571427 0.14814286 0.61000001 3573503
-0.042479049 0.14838572 0.611 2389246
-0.041315239 0.14838572 0.611 1668863
-0.040217146 0.14862858 0.61200005 4366335
-0.039179049 0.1491143 0.61400002 6265343
-0.038133338 0.14960001 0.61600006 5212669
-0.036960002 0.14960001 0.61600006 4098559
-0.035902858 0.15008572 0.61800003 4690687
-0.034781903 0.15032858 0.61900002 8559871
-0.033657141 0.15057144 0.62 10533631
-0.032528572 0.15081429 0.62100005 10987519
-0.031446666 0.1513 0.62300003 10658555
-0.03026 0.1513 0.62300003 9673189
-0.029073333 0.1513 0.62300003 5659816
-0.027976191 0.15178572 0.625 3954618
-0.079842865 0.15199715 0.62100005 8818616
-0.078533329 0.15175238 0.62 4936829
-0.077227622 0.15150763 0.61900002 2052833
-0.075925715 0.15126286 0.61800003 2381798
-0.074748576 0.15126286 0.61800003 2120945
-0.073214285 0.15052858 0.61500001 2252531
-0.071925715 0.15028381 0.61400002 2515190
-0.070640959 0.15003906 0.61300004 2317811
-0.069360003 0.1497943 0.61200005 1596667
-0.068082854 0.14954951 0.611 2188799
-0.066809528 0.14930476 0.61000001 2517247
-0.065540001 0.14906 0.60900003 2319871
-0.064380005 0.14906 0.60900003 1534975
-0.063220002 0.14906 0.60900003 1666559
-0.062060002 0.14906 0.60900003 1339135
-0.060900003 0.14906 0.60900003 3839231
-0.059838098 0.14930476 0.61000001 6921983
-0.058580004 0.14906 0.60900003 7316735
-0.057420004 0.14906 0.60900003 7185151
-0.056260001 0.14906 0.60900003 6987775
-0.055100001 0.14906 0.60900003 7579135
-0.053940002 0.14906 0.60900003 7644927
-0.052780002 0.14906 0.60900003 6397439
-0.051535241 0.14881524 0.60800004 5278971
-0.050377145 0.14881524 0.60800004 3377407
-0.049300004 0.14906 0.60900003 4759039
-0.048140001 0.14906 0.60900003 6986751
-0.046980001 0.14906 0.60900003 7447295
-0.045820002 0.14906 0.60900003 8038911
-0.044660002 0.14906 0.60900003 5736167
-0.043571427 0.14930476 0.61000001 2195711
-0.042479049 0.14954951 0.611 2195711
-0.041315239 0.14954951 0.611 3244799
-0.040217146 0.1497943 0.61200005 5284351
-0.039179049 0.15028381 0.61400002 6660351
-0.038133338 0.15077335 0.61600006 5607677
-0.036960002 0.15077335 0.61600006 3179519
-0.035902858 0.15126286 0.61800003 4100607
-0.034781903 0.15150763 0.61900002 8888575
-0.033657141 0.15175238 0.62 10533375
-0.032528572 0.15199715 0.62100005 10594302
-0.031396192 0.1522419 0.62200004 10725887
-0.03026 0.15248667 0.62300003 9740265
-0.029073333 0.15248667 0.62300003 6121650
-0.028065715 0.15346572 0.62700003 4279497
-0.027000003 0.15420002 0.63000005 5397978
-0.025800001 0.15420002 0.63000005 9474234
-0.02463905 0.15444477 0.63100004 11645403
-0.079714283 0.15293333 0.62 8161430
-0.078533329 0.15293333 0.62 4016471
-0.077227622 0.15268667 0.61900002 2184683
-0.075925715 0.15244001 0.61800003 2645234
-0.074506678 0.15194668 0.61600006 2646258
-0.073214285 0.1517 0.61500001 2514672
-0.071808569 0.15120667 0.61300004 2186997
-0.070640959 0.15120667 0.61300004 1660653
-0.069360003 0.15096001 0.61200005 1136890
-0.068082854 0.15071332 0.611 4952831
-0.066809528 0.15046667 0.61000001 6589951
-0.065540001 0.15022001 0.60900003 5471484
-0.064380005 0.15022001 0.60900003 4948735
-0.063220002 0.15022001 0.60900003 5343487
-0.062060002 0.15022001 0.60900003 3899135
-0.060900003 0.15022001 0.60900003 3833343
-0.059838098 0.15046667 0.61000001 6461695
-0.058676191 0.15046667 0.61000001 7119615
-0.057514288 0.15046667 0.61000001 6921727
-0.056352381 0.15046667 0.61000001 6198015
-0.055190478 0.15046667 0.61000001 6724607
-0.053940002 0.15022001 0.60900003 6790399
-0.052780002 0.15022001 0.60900003 6199551
-0.051620003 0.15022001 0.60900003 6199551
-0.05046 0.15022001 0.60900003 6003455
-0.049300004 0.15022001 0.60900003 5806079
-0.048140001 0.15022001 0.60900003 5870591
-0.046980001 0.15022001 0.60900003 6462719
-0.045820002 0.15022001 0.60900003 7776255
-0.044660002 0.15022001 0.60900003 6657785
-0.043571427 0.15046667 0.61000001 5740543
-0.042479049 0.15071332 0.611 5872127
-0.041315239 0.15071332 0.611 7052031
-0.040217146 0.15096001 0.61200005 8104703
-0.039179049 0.15145333 0.61400002 7249663
-0.038133338 0.15194668 0.61600006 7052287
-0.036960002 0.15194668 0.61600006 6002431
-0.035902858 0.15244001 0.61800003 5673471
-0.034781903 0.15268667 0.61900002 8888063
-0.033657141 0.15293333 0.62 10598655
-0.032528572 0.15318002 0.62100005 11118834
-0.031396192 0.15342668 0.62200004 11053041
-0.03026 0.15367334 0.62300003 10660068
-0.029073333 0.15367334 0.62300003 8225727
-0.028065715 0.15466 0.62700003 3561718
-0.027000003 0.15540001 0.63000005 929998
-0.025800001 0.15540001 0.63000005 4411837
-0.02463905 0.15564668 0.63100004 10596351
-0.079585716 0.15386572 0.61900002 7172267
-0.078406669 0.15386572 0.61900002 4606340
-0.077227622 0.15386572 0.61900002 2513900
-0.075925715 0.15361714 0.61800003 2842865
-0.074506678 0.15312001 0.61600006 2843639
-0.073214285 0.15287143 0.61500001 2448881
-0.071808569 0.1523743 0.61300004 1924341
-0.070525721 0.15212572 0.61200005 1332204
-0.069246665 0.15187714 0.611 1135609
-0.068082854 0.15187714 0.611 5017343
-0.066809528 0.15162857 0.61000001 7773183
-0.065540001 0.15138 0.60900003 7378431
-0.064380005 0.15138 0.60900003 7642623
-0.063220002 0.15138 0.60900003 7313663
-0.062060002 0.15138 0.60900003 4030975
-0.061000001 0.15162857 0.61000001 3833599
-0.059838098 0.15162857 0.61000001 6459903
-0.058676191 0.15162857 0.61000001 7644159
-0.057514288 0.15162857 0.61000001 7315455
-0.056352381 0.15162857 0.61000001 6789119
-0.055190478 0.15162857 0.61000001 6790399
-0.054028571 0.15162857 0.61000001 6921983
-0.052780002 0.15138 0.60900003 6920191
-0.051620003 0.15138 0.60900003 7775487
-0.05046 0.15138 0.60900003 7777279
-0.049300004 0.15138 0.60900003 6790395
-0.048140001 0.15138 0.60900003 5936639
-0.046980001 0.15138 0.60900003 6528767
-0.045820002 0.15138 0.60900003 7906815
-0.044660002 0.15138 0.60900003 7841023
-0.043571427 0.15162857 0.61000001 8367871
-0.042479049 0.15187714 0.611 7973119
-0.041315239 0.15187714 0.611 8037119
-0.040217146 0.15212572 0.61200005 7971327
-0.039179049 0.15262286 0.61400002 7510271
-0.038133338 0.15312001 0.61600006 7444479
-0.036960002 0.15312001 0.61600006 6526975
-0.035902858 0.15361714 0.61800003 6066431
-0.034781903 0.15386572 0.61900002 8428287
-0.033657141 0.15411429 0.62 10138879
