# .PCD v0.7 - Point Cloud Data file format
VERSION 0.7
FIELDS x y z rgba
SIZE 4 4 4 4
TYPE F F F U
COUNT 1 1 1 1
WIDTH 1114
HEIGHT 1
VIEWPOINT 0 0 0 1 0 0 0
POINTS 1114
DATA ascii
-0.058824759 0.19101523 0.69400001 9999851
-0.05742 0.19074 0.69300002 8552675
-0.056100003 0.19074 0.69300002 10065914
-0.05485905 0.19101523 0.69400001 10333695
-0.053537142 0.19101523 0.69400001 9346809
-0.05236572 0.19156572 0.69600004 9676280
-0.051040001 0.19156572 0.69600004 13229055
-0.04971429 0.19156572 0.69600004 13752831
-0.048388574 0.19156572 0.69600004 10002633
-0.04713048 0.19184096 0.69700003 10130431
-0.045802858 0.19184096 0.69700003 10525183
-0.044475239 0.19184096 0.69700003 10130943
-0.04314762 0.19184096 0.69700003 9867772
-0.04188 0.19211619 0.69800001 10726911
-0.040550474 0.19211619 0.69800001 8884715
-0.039220951 0.19211619 0.69800001 11709417
-0.038000003 0.19266668 0.70000005 13025277
-0.036719047 0.1929419 0.70100003 12237299
-0.035535242 0.19376762 0.70400006 13487359
-0.034194287 0.19376762 0.70400006 14870015
-0.032946669 0.1943181 0.70600003 13751534
-0.031646665 0.19459333 0.70700002 11320319
-0.030428572 0.19541906 0.71000004 6583230
-0.029199049 0.19624478 0.71300006 2843385
-0.027958095 0.19707048 0.71600002 2053869
-0.02663143 0.1973457 0.71700001 2119905
-0.025336191 0.1978962 0.71900004 1659354
-0.023966668 0.1978962 0.71900004 7896008
-0.090440005 0.19788001 0.71400005 10391980
-0.089080006 0.19788001 0.71400005 10523557
-0.087719999 0.19788001 0.71400005 10589350
-0.085997149 0.19704857 0.71100003 8619177
-0.084523819 0.19677144 0.71000004 4474218
-0.083171427 0.19677144 0.71000004 2969281
-0.081588566 0.19621713 0.708 4614106
-0.080126666 0.19594 0.70700002 4745429
-0.078445718 0.19510858 0.70400006 5403359
-0.076995239 0.19483143 0.70300001 7767278
-0.075656191 0.19483143 0.70300001 10135807
-0.074105717 0.19427715 0.70100003 12237292
-0.072770476 0.19427715 0.70100003 13947903
-0.071333334 0.19400001 0.70000005 14144255
-0.070000008 0.19400001 0.70000005 13749502
-0.068666674 0.19400001 0.70000005 12567545
-0.067140952 0.19344573 0.69800001 10396376
-0.065811433 0.19344573 0.69800001 10068991
-0.064481907 0.19344573 0.69800001 10134783
-0.063061908 0.19316858 0.69700003 10924280
-0.061645716 0.19289143 0.69600004 11450623
-0.060320001 0.19289143 0.69600004 12040447
-0.058824759 0.19233714 0.69400001 12369407
-0.057502858 0.19233714 0.69400001 11645951
-0.056180954 0.19233714 0.69400001 11185407
-0.055017143 0.19289143 0.69600004 11252991
-0.053691432 0.19289143 0.69600004 10858239
-0.05236572 0.19289143 0.69600004 10923263
-0.051040001 0.19289143 0.69600004 13686527
-0.049785715 0.19316858 0.69700003 14146303
-0.048458096 0.19316858 0.69700003 12830447
-0.04713048 0.19316858 0.69700003 11844863
-0.045868572 0.19344573 0.69800001 11384318
-0.044539049 0.19344573 0.69800001 10266623
-0.043209527 0.19344573 0.69800001 9082358
-0.04188 0.19344573 0.69800001 9018623
-0.04066667 0.19400001 0.70000005 8294911
-0.039333336 0.19400001 0.70000005 9673959
-0.038054287 0.19427715 0.70100003 10200303
-0.036823809 0.19483143 0.70300001 10987500
-0.035535242 0.19510858 0.70400006 12632319
-0.034194287 0.19510858 0.70400006 12895743
-0.032946669 0.19566287 0.70600003 11250924
-0.031691428 0.19621713 0.708 9874427
-0.030471429 0.19704857 0.71100003 6453191
-0.029240001 0.19788001 0.71400005 3500799
-0.027997142 0.19871143 0.71700001 1658602
-0.026705716 0.19926573 0.71900004 1593570
-0.025336191 0.19926573 0.71900004 1725156
-0.023966668 0.19926573 0.71900004 7961796
-0.090440005 0.19924001 0.71400005 10391982
-0.089080006 0.19924001 0.71400005 10589352
-0.087719999 0.19924001 0.71400005 10852524
-0.086239055 0.19896096 0.71300006 9079728
-0.084642857 0.19840287 0.71100003 4934769
-0.083171427 0.19812383 0.71000004 3166131
-0.081588566 0.19756572 0.708 4416198
-0.080126666 0.19728667 0.70700002 4941268
-0.078668572 0.19700761 0.70600003 5401819
-0.07710477 0.19644953 0.70400006 8292595
-0.075656191 0.19617048 0.70300001 10397951
-0.07431715 0.19617048 0.70300001 11579891
-0.072978094 0.19617048 0.70300001 13553663
-0.071435243 0.19561239 0.70100003 13553151
-0.070100002 0.19561239 0.70100003 12763641
-0.068764761 0.19561239 0.70100003 10727423
-0.067333341 0.19533335 0.70000005 9937910
-0.066 0.19533335 0.70000005 10133758
-0.064481907 0.19477524 0.69800001 10265343
-0.06315238 0.19477524 0.69800001 11645691
-0.061734285 0.1944962 0.69700003 12237823
-0.060406666 0.1944962 0.69700003 12829951
-0.059079047 0.1944962 0.69700003 12764159
-0.057668574 0.19421715 0.69600004 12699135
-0.056342859 0.19421715 0.69600004 12435967
-0.055017143 0.19421715 0.69600004 12502015
-0.053768571 0.1944962 0.69700003 11778297
-0.052440956 0.1944962 0.69700003 11513846
-0.051113334 0.1944962 0.69700003 13750783
-0.049785715 0.1944962 0.69700003 14014463
-0.048458096 0.1944962 0.69700003 13356534
-0.047198098 0.19477524 0.69800001 12898303
-0.045868572 0.19477524 0.69800001 12174584
-0.044539049 0.19477524 0.69800001 10074879
-0.043209527 0.19477524 0.69800001 9416958
-0.042000003 0.19533335 0.70000005 8758015
-0.04066667 0.19533335 0.70000005 8494847
-0.039389525 0.19561239 0.70100003 9017571
-0.038162857 0.19617048 0.70300001 9741294
-0.036823809 0.19617048 0.70300001 10660336
-0.035535242 0.19644953 0.70400006 12370943
-0.034194287 0.19644953 0.70400006 12305407
-0.032993335 0.19728667 0.70700002 10200037
-0.031691428 0.19756572 0.708 8691199
-0.030471429 0.19840287 0.71100003 6256867
-0.029240001 0.19924001 0.71400005 4813823
-0.027997142 0.20007715 0.71700001 2511074
-0.026705716 0.20063524 0.71900004 1395419
-0.025336191 0.20063524 0.71900004 2119142
-0.024 0.20091429 0.72000003 8159171
-0.09069334 0.20116191 0.71600002 10260144
-0.089329526 0.20116191 0.71600002 10457512
-0.087965719 0.20116191 0.71600002 10918063
-0.086239055 0.20031907 0.71300006 9473710
-0.084642857 0.19975714 0.71100003 5262958
-0.083288573 0.19975714 0.71100003 2378666
-0.08181905 0.1994762 0.71000004 3233975
-0.080239996 0.19891429 0.708 4218835
-0.078668572 0.19835238 0.70600003 5337316
-0.07710477 0.1977905 0.70400006 8292844
-0.075763814 0.1977905 0.70400006 9608703
-0.07431715 0.19750953 0.70300001 11184613
-0.072978094 0.19750953 0.70300001 13092607
-0.071639046 0.19750953 0.70300001 12632566
-0.070100002 0.19694763 0.70100003 9408709
-0.068764761 0.19694763 0.70100003 8359909
-0.067333341 0.19666667 0.70000005 8557288
-0.066 0.19666667 0.70000005 9147894
-0.064481907 0.19610476 0.69800001 9542652
-0.06315238 0.19610476 0.69800001 9542902
-0.061734285 0.19582382 0.69700003 10200831
-0.060406666 0.19582382 0.69700003 11120895
-0.059079047 0.19582382 0.69700003 10857727
-0.057751432 0.19582382 0.69700003 11056127
-0.056423813 0.19582382 0.69700003 10990335
-0.05509619 0.19582382 0.69700003 11515125
-0.053768571 0.19582382 0.69700003 11844090
-0.052440956 0.19582382 0.69700003 11711727
-0.051113334 0.19582382 0.69700003 13422335
-0.049785715 0.19582382 0.69700003 13620223
-0.048458096 0.19582382 0.69700003 12633329
-0.047198098 0.19610476 0.69800001 12372223
-0.045868572 0.19610476 0.69800001 12306431
-0.044666667 0.19666667 0.70000005 11385599
-0.043333337 0.19666667 0.70000005 11188223
-0.042060003 0.19694763 0.70100003 10594815
-0.040724762 0.19694763 0.70100003 10265855
-0.039389525 0.19694763 0.70100003 10068967
-0.038162857 0.19750953 0.70300001 10266346
-0.036823809 0.19750953 0.70300001 10333181
-0.035535242 0.1977905 0.70400006 10727935
-0.034194287 0.1977905 0.70400006 10597631
-0.032993335 0.19863333 0.70700002 9018607
-0.031780954 0.1994762 0.71000004 7248127
-0.0306 0.20060001 0.71400005 5340137
-0.029240001 0.20060001 0.71400005 5077503
-0.028075241 0.20200478 0.71900004 3103720
-0.026705716 0.20200478 0.71900004 2183145
-0.025336191 0.20200478 0.71900004 2577903
-0.023966668 0.20200478 0.71900004 8028100
-0.022597143 0.20200478 0.71900004 12041471
-0.09069334 0.20252572 0.71600002 10325937
-0.089329526 0.20252572 0.71600002 10457255
-0.087719999 0.20196001 0.71400005 10917806
-0.086239055 0.20167716 0.71300006 9474737
-0.084642857 0.20111144 0.71100003 5461364
-0.083288573 0.20111144 0.71100003 2050468
-0.08181905 0.20082858 0.71000004 3103156
-0.080466673 0.20082858 0.71000004 5071568
-0.078780003 0.19998001 0.70700002 5466326
-0.077323809 0.19969715 0.70600003 7306725
-0.075763814 0.19913144 0.70400006 8754171
-0.074422859 0.19913144 0.70400006 9869548
-0.072978094 0.19884858 0.70300001 11382783
-0.071639046 0.19884858 0.70300001 11383551
-0.070299998 0.19884858 0.70300001 9475558
-0.068764761 0.19828287 0.70100003 8557556
-0.067429528 0.19828287 0.70100003 8754935
-0.066 0.19800001 0.70000005 9148415
-0.064666666 0.19800001 0.70000005 9543167
-0.06315238 0.19743428 0.69800001 9346811
-0.061822858 0.19743428 0.69800001 10070527
-0.060493335 0.19743428 0.69800001 11188479
-0.059079047 0.19715142 0.69700003 10727935
-0.057751432 0.19715142 0.69700003 10662655
-0.056423813 0.19715142 0.69700003 10728447
-0.05509619 0.19715142 0.69700003 11317759
-0.053768571 0.19715142 0.69700003 11909887
-0.052440956 0.19715142 0.69700003 11909375
-0.051113334 0.19715142 0.69700003 13225215
-0.049857143 0.19743428 0.69800001 13292287
-0.048527621 0.19743428 0.69800001 12108016
-0.047198098 0.19743428 0.69800001 11910911
-0.045868572 0.19743428 0.69800001 12239871
-0.044666667 0.19800001 0.70000005 12106751
-0.043333337 0.19800001 0.70000005 11975167
-0.042060003 0.19828287 0.70100003 11775485
-0.040724762 0.19828287 0.70100003 11446520
-0.039501905 0.19884858 0.70300001 11118575
-0.038162857 0.19884858 0.70300001 11184368
-0.03687619 0.19913144 0.70400006 10071295
-0.035535242 0.19913144 0.70400006 9939711
-0.034291428 0.19969715 0.70600003 8761087
-0.032993335 0.19998001 0.70700002 7511030
-0.031780954 0.20082858 0.71000004 5081087
-0.0306 0.20196001 0.71400005 3896829
-0.029240001 0.20196001 0.71400005 5208831
-0.028075241 0.2033743 0.71900004 3432424
-0.02663143 0.20280857 0.71700001 2772706
-0.025265714 0.20280857 0.71700001 2575327
-0.0239 0.20280857 0.71700001 8027848
-0.022534285 0.20280857 0.71700001 11843839
-0.021168573 0.20280857 0.71700001 12301785
-0.089080006 0.20332001 0.71400005 10457512
-0.087719999 0.20332001 0.71400005 10786477
-0.086239055 0.20303525 0.71300006 9606323
-0.084642857 0.20246571 0.71100003 6119294
-0.083288573 0.20246571 0.71100003 2444454
-0.08181905 0.20218095 0.71000004 3168177
-0.080466673 0.20218095 0.71000004 4481741
-0.078780003 0.20132667 0.70700002 4350155
-0.077323809 0.20104191 0.70600003 5336026
-0.075763814 0.2004724 0.70400006 6849265
-0.074422859 0.2004724 0.70400006 8621807
-0.073081911 0.2004724 0.70400006 9674495
-0.071639046 0.20018762 0.70300001 10003711
-0.070299998 0.20018762 0.70300001 9806333
-0.068960957 0.20018762 0.70300001 9282559
-0.067429528 0.1996181 0.70100003 9677311
-0.066094287 0.1996181 0.70100003 10663167
-0.064666666 0.19933335 0.70000005 10663167
-0.06315238 0.19876382 0.69800001 11451903
-0.061822858 0.19876382 0.69800001 11583487
-0.060493335 0.19876382 0.69800001 11913727
-0.059163809 0.19876382 0.69800001 11847935
-0.057834286 0.19876382 0.69800001 11847935
-0.056423813 0.19847906 0.69700003 11979519
-0.05509619 0.19847906 0.69700003 12306687
-0.053845715 0.19876382 0.69800001 12372479
-0.052516192 0.19876382 0.69800001 12371711
-0.05118667 0.19876382 0.69800001 12503295
-0.049857143 0.19876382 0.69800001 11715327
-0.048527621 0.19876382 0.69800001 10596853
-0.047198098 0.19876382 0.69800001 11845119
-0.046000004 0.19933335 0.70000005 13621503
-0.044666667 0.19933335 0.70000005 14539260
-0.04339524 0.1996181 0.70100003 13749744
-0.042060003 0.1996181 0.70100003 13287418
-0.040724762 0.1996181 0.70100003 12892660
-0.039501905 0.20018762 0.70300001 11908854
-0.038217146 0.2004724 0.70400006 11382510
-0.03687619 0.2004724 0.70400006 9875199
-0.035535242 0.2004724 0.70400006 10006783
-0.034291428 0.20104191 0.70600003 9482751
-0.032993335 0.20132667 0.70700002 8759037
-0.031780954 0.20218095 0.71000004 7838975
-0.0306 0.20332001 0.71400005 5404647
-0.029240001 0.20332001 0.71400005 4749567
-0.027997142 0.20417428 0.71700001 3894258
-0.02663143 0.20417428 0.71700001 2643437
-0.025265714 0.20417428 0.71700001 1459163
-0.0239 0.20417428 0.71700001 7370695
-0.022534285 0.20417428 0.71700001 11581439
-0.089080006 0.20468001 0.71400005 10326441
-0.087719999 0.20468001 0.71400005 10786992
-0.086239055 0.20439336 0.71300006 9672366
-0.084642857 0.20382001 0.71100003 6645888
-0.083288573 0.20382001 0.71100003 2904491
-0.08181905 0.20353334 0.71000004 3299249
-0.080466673 0.20353334 0.71000004 3562697
-0.078891426 0.20296 0.708 3496904
-0.077433333 0.20267333 0.70700002 3760853
-0.075979047 0.20238668 0.70600003 5471471
-0.074422859 0.20181336 0.70400006 7310577
-0.073081911 0.20181336 0.70400006 8363263
-0.071639046 0.20152666 0.70300001 9414399
-0.070299998 0.20152666 0.70300001 9282815
-0.068960957 0.20152666 0.70300001 8889087
-0.067621902 0.20152666 0.70300001 9415423
-0.066282853 0.20152666 0.70300001 10269951
-0.064759046 0.20095333 0.70100003 10335743
-0.06333334 0.20066668 0.70000005 11124991
-0.061822858 0.20009334 0.69800001 11256575
-0.060493335 0.20009334 0.69800001 11651327
-0.059163809 0.20009334 0.69800001 11519743
-0.057834286 0.20009334 0.69800001 11454719
-0.056504764 0.20009334 0.69800001 11454719
-0.055175241 0.20009334 0.69800001 11389183
-0.053845715 0.20009334 0.69800001 11191807
-0.052516192 0.20009334 0.69800001 11191295
-0.05118667 0.20009334 0.69800001 11388671
-0.049857143 0.20009334 0.69800001 10074879
-0.048527621 0.20009334 0.69800001 9153784
-0.047333337 0.20066668 0.70000005 11188479
-0.046000004 0.20066668 0.70000005 13622783
-0.044730477 0.20095333 0.70100003 15196159
-0.04339524 0.20095333 0.70100003 13946092
-0.042060003 0.20095333 0.70100003 13549050
-0.04084095 0.20152666 0.70300001 13285878
-0.039501905 0.20152666 0.70300001 12040181
-0.038217146 0.20181336 0.70400006 11184872
-0.03687619 0.20181336 0.70400006 9809407
-0.035535242 0.20181336 0.70400006 10072575
-0.034291428 0.20238668 0.70600003 10204415
-0.033040002 0.20296 0.708 10270207
-0.031780954 0.20353334 0.71000004 9285119
-0.0306 0.20468001 0.71400005 6982374
-0.029240001 0.20468001 0.71400005 5601791
-0.027997142 0.20554 0.71700001 3891178
-0.02663143 0.20554 0.71700001 3301608
-0.025265714 0.20554 0.71700001 1919955
-0.0239 0.20554 0.71700001 6910151
-0.022534285 0.20554 0.71700001 11515647
-0.089329526 0.20661715 0.71600002 10391719
-0.087965719 0.20661715 0.71600002 10852270
-0.086601906 0.20661715 0.71600002 10000043
-0.085000008 0.20604001 0.71400005 7434116
-0.083640002 0.20604001 0.71400005 3232432
-0.082164772 0.20575145 0.71300006 2640295
-0.080580004 0.2051743 0.71100003 3168709
-0.078891426 0.20430857 0.708 3300295
-0.077433333 0.20402001 0.70700002 3367646
-0.075979047 0.20373145 0.70600003 4617713
-0.074634291 0.20373145 0.70600003 6718962
-0.073081911 0.2031543 0.70400006 8034815
-0.071740955 0.2031543 0.70400006 9677567
-0.070400007 0.2031543 0.70400006 9611775
-0.068960957 0.20286572 0.70300001 9283327
-0.067621902 0.20286572 0.70300001 9678079
-0.066282853 0.20286572 0.70300001 9416447
-0.064759046 0.20228858 0.70100003 9284863
-0.063423812 0.20228858 0.70100003 9087999
-0.061822858 0.20142286 0.69800001 8824831
-0.060493335 0.20142286 0.69800001 8365311
-0.059163809 0.20142286 0.69800001 8233727
-0.057834286 0.20142286 0.69800001 9154815
-0.056504764 0.20142286 0.69800001 9220607
-0.055175241 0.20142286 0.69800001 10403583
-0.053845715 0.20142286 0.69800001 10337791
-0.052516192 0.20142286 0.69800001 11388927
-0.05118667 0.20142286 0.69800001 11717887
-0.050000004 0.20200002 0.70000005 10339327
-0.048666667 0.20200002 0.70000005 8891888
-0.047333337 0.20200002 0.70000005 10925567
-0.046065718 0.20228858 0.70100003 13623039
-0.044730477 0.20228858 0.70100003 14998269
-0.04339524 0.20228858 0.70100003 13419237
-0.042180002 0.20286572 0.70300001 13023726
-0.04084095 0.20286572 0.70300001 12892140
-0.039558098 0.2031543 0.70400006 10988022
-0.038217146 0.2031543 0.70400006 10593264
-0.03687619 0.2031543 0.70400006 9744383
-0.035636194 0.20373145 0.70600003 10533887
-0.034291428 0.20373145 0.70600003 10993663
-0.033040002 0.20430857 0.708 10862079
-0.031780954 0.20488572 0.71000004 9941759
-0.0306 0.20604001 0.71400005 7967977
-0.029240001 0.20604001 0.71400005 6457343
-0.027997142 0.20690572 0.71700001 3759844
-0.02663143 0.20690572 0.71700001 2514663
-0.025265714 0.20690572 0.71700001 869838
-0.0239 0.20690572 0.71700001 6187209
-0.022534285 0.20690572 0.71700001 11187455
-0.021168573 0.20690572 0.71700001 12432861
-0.089329526 0.20798096 0.71600002 10325926
-0.087965719 0.20798096 0.71600002 10720684
-0.086601906 0.20798096 0.71600002 10065836
-0.085000008 0.20740001 0.71400005 7828874
-0.083640002 0.20740001 0.71400005 3692206
-0.082164772 0.20710953 0.71300006 2968483
-0.080806673 0.20710953 0.71300006 3299777
-0.079114296 0.20623811 0.71000004 3628742
-0.077433333 0.20536667 0.70700002 3630557
-0.075979047 0.20507619 0.70600003 4749038
-0.074634291 0.20507619 0.70600003 5733616
-0.073081911 0.20449525 0.70400006 7181055
-0.071740955 0.20449525 0.70400006 8494841
-0.070400007 0.20449525 0.70400006 9086975
-0.068960957 0.20420477 0.70300001 9020927
-0.067621902 0.20420477 0.70300001 8955135
-0.066282853 0.20420477 0.70300001 8562175
-0.064759046 0.20362382 0.70100003 8299007
-0.063423812 0.20362382 0.70100003 7643903
-0.062000006 0.20333335 0.70000005 7907071
-0.060666669 0.20333335 0.70000005 7841023
-0.059163809 0.20275238 0.69800001 7775231
-0.057834286 0.20275238 0.69800001 9220607
-0.056504764 0.20275238 0.69800001 9746943
-0.055175241 0.20275238 0.69800001 10469375
-0.053845715 0.20275238 0.69800001 11061503
-0.052666668 0.20333335 0.70000005 11718399
-0.051333338 0.20333335 0.70000005 12178943
-0.050071429 0.20362382 0.70100003 11654399
-0.048736192 0.20362382 0.70100003 9154270
-0.047400955 0.20362382 0.70100003 10203135
-0.046065718 0.20362382 0.70100003 13229567
-0.044858098 0.20420477 0.70300001 14735356
-0.043519046 0.20420477 0.70300001 13156324
-0.042180002 0.20420477 0.70300001 12957681
-0.04084095 0.20420477 0.70300001 13023474
-0.039558098 0.20449525 0.70400006 10725887
-0.038217146 0.20449525 0.70400006 10133751
-0.03687619 0.20449525 0.70400006 8627967
-0.035636194 0.20507619 0.70600003 10075391
-0.034339998 0.20536667 0.70700002 11388927
-0.033133335 0.20623811 0.71000004 11257343
-0.031780954 0.20623811 0.71000004 9679871
-0.0306 0.20740001 0.71400005 7113953
-0.029240001 0.20740001 0.71400005 6588927
-0.028075241 0.2088524 0.71900004 4351979
-0.026705716 0.2088524 0.71900004 3169765
-0.025265714 0.20827143 0.71700001 1524940
-0.0239 0.20827143 0.71700001 6186187
-0.022534285 0.20827143 0.71700001 11318015
-0.021168573 0.20827143 0.71700001 12169950
-0.089329526 0.20934477 0.71600002 10391971
-0.087965719 0.20934477 0.71600002 10655143
-0.086601906 0.20934477 0.71600002 9999784
-0.085000008 0.20876001 0.71400005 8157580
-0.083640002 0.20876001 0.71400005 4086705
-0.082280003 0.20876001 0.71400005 2705052
-0.080806673 0.20846763 0.71300006 1920970
-0.079114296 0.20759049 0.71000004 3171037
-0.077542856 0.20700571 0.708 4089827
-0.076086663 0.20671335 0.70700002 5537273
-0.074634291 0.20642096 0.70600003 6062066
-0.073081911 0.20583621 0.70400006 5930480
-0.071740955 0.20583621 0.70400006 4618472
-0.070400007 0.20583621 0.70400006 5736953
-0.068960957 0.2055438 0.70300001 6590207
-0.067621902 0.2055438 0.70300001 6327039
-0.066282853 0.2055438 0.70300001 5737215
-0.064759046 0.20495906 0.70100003 5210879
-0.063423812 0.20495906 0.70100003 5804799
-0.062000006 0.20466667 0.70000005 7515391
-0.060666669 0.20466667 0.70000005 8170751
-0.059333336 0.20466667 0.70000005 8236543
-0.058000006 0.20466667 0.70000005 9484799
-0.056504764 0.20408191 0.69800001 10208511
-0.055175241 0.20408191 0.69800001 10667007
-0.054000005 0.20466667 0.70000005 11588095
-0.052666668 0.20466667 0.70000005 12309247
-0.051406667 0.20495906 0.70100003 12901375
-0.050071429 0.20495906 0.70100003 12572159
-0.048736192 0.20495906 0.70100003 10729959
-0.047400955 0.20495906 0.70100003 11779326
-0.046197142 0.2055438 0.70300001 13818879
-0.044858098 0.2055438 0.70300001 14275065
-0.043519046 0.2055438 0.70300001 12761826
-0.042180002 0.2055438 0.70300001 12563443
-0.04084095 0.2055438 0.70300001 13023994
-0.039558098 0.20583621 0.70400006 11120383
-0.038217146 0.20583621 0.70400006 10528255
-0.03687619 0.20583621 0.70400006 9744383
-0.035636194 0.20642096 0.70600003 10928639
-0.034339998 0.20671335 0.70700002 11782143
-0.033133335 0.20759049 0.71000004 11650559
-0.031780954 0.20759049 0.71000004 9744383
-0.0306 0.20876001 0.71400005 5994191
-0.029240001 0.20876001 0.71400005 5669119
-0.028075241 0.21022192 0.71900004 4682227
-0.026705716 0.21022192 0.71900004 3039717
-0.025265714 0.20963715 0.71700001 671169
-0.0239 0.20963715 0.71700001 5332687
-0.022534285 0.20963715 0.71700001 10925055
-0.087965719 0.21070857 0.71600002 10589352
-0.086601906 0.21070857 0.71600002 9802151
-0.085238092 0.21070857 0.71600002 8091533
-0.083874285 0.21070857 0.71600002 5136300
-0.082510479 0.21070857 0.71600002 3425682
-0.080920003 0.21012001 0.71400005 1592768
-0.079114296 0.20894288 0.71000004 2908628
-0.077761903 0.20894288 0.71000004 4747237
-0.076194286 0.20835428 0.708 6260476
-0.074740008 0.20806001 0.70700002 6260721
-0.073289528 0.20776571 0.70600003 4879068
-0.071740955 0.20717715 0.70400006 2058725
-0.070400007 0.20717715 0.70400006 4295679
-0.068960957 0.20688286 0.70300001 5475327
-0.067621902 0.20688286 0.70300001 5080575
-0.066282853 0.20688286 0.70300001 3047167
-0.064943813 0.20688286 0.70300001 3244543
-0.063604765 0.20688286 0.70300001 5411071
-0.062000006 0.20600002 0.70000005 7121663
-0.060666669 0.20600002 0.70000005 7317247
-0.059333336 0.20600002 0.70000005 7514623
-0.058000006 0.20600002 0.70000005 8894207
-0.056666669 0.20600002 0.70000005 9552127
-0.055333335 0.20600002 0.70000005 9879295
-0.054000005 0.20600002 0.70000005 10800383
-0.052741908 0.2062943 0.70100003 11848959
-0.051406667 0.2062943 0.70100003 12046335
-0.050214287 0.20688286 0.70300001 12701950
-0.048875239 0.20688286 0.70300001 12241399
-0.047536191 0.20688286 0.70300001 13290489
-0.046197142 0.20688286 0.70300001 14277375
-0.044858098 0.20688286 0.70300001 14274043
-0.043519046 0.20688286 0.70300001 12892390
-0.042240005 0.20717715 0.70400006 12563434
-0.040899049 0.20717715 0.70400006 13023985
-0.039558098 0.20717715 0.70400006 12304383
-0.038325716 0.20776571 0.70600003 11778040
-0.036980953 0.20776571 0.70600003 10861055
-0.035686668 0.20806001 0.70700002 11387391
-0.034388572 0.20835428 0.708 12240895
-0.033133335 0.20894288 0.71000004 11846143
-0.031825714 0.20923714 0.71100003 9546751
-0.030685715 0.21070857 0.71600002 5730767
-0.029321905 0.21070857 0.71600002 5602557
-0.028114285 0.21188572 0.72000003 4944627
-0.026742859 0.21188572 0.72000003 3565543
-0.025441907 0.2124743 0.72200006 1262788
-0.024066668 0.2124743 0.72200006 5331149
-0.022691431 0.2124743 0.72200006 10989311
-0.088088572 0.21236856 0.71700001 10457507
-0.086722851 0.21236856 0.71700001 9867946
-0.085238092 0.21207239 0.71600002 8091535
-0.083874285 0.21207239 0.71600002 4546216
-0.082510479 0.21207239 0.71600002 2704012
-0.080920003 0.21148001 0.71400005 1200325
-0.079114296 0.21029525 0.71000004 2647771
-0.077761903 0.21029525 0.71000004 5075686
-0.076194286 0.20970286 0.708 6457339
-0.074740008 0.20940666 0.70700002 5932008
-0.073289528 0.20911048 0.70600003 3892425
-0.071944758 0.20911048 0.70600003 4157941
-0.070400007 0.2085181 0.70400006 6855423
-0.069059052 0.2085181 0.70400006 8363263
-0.067718096 0.2085181 0.70400006 8034303
-0.066282853 0.2082219 0.70300001 7050239
-0.064943813 0.2082219 0.70300001 6655487
-0.063604765 0.2082219 0.70300001 6852607
-0.062088571 0.20762953 0.70100003 8628991
-0.060753338 0.20762953 0.70100003 9414911
-0.059418097 0.20762953 0.70100003 9743871
-0.05808286 0.20762953 0.70100003 10203647
-0.056666669 0.20733334 0.70000005 10993151
-0.055333335 0.20733334 0.70000005 11647999
-0.054077145 0.20762953 0.70100003 12108543
-0.052741908 0.20762953 0.70100003 12633590
-0.051553335 0.2082219 0.70300001 12633590
-0.050214287 0.2082219 0.70300001 12896501
-0.048875239 0.2082219 0.70300001 13422845
-0.047536191 0.2082219 0.70300001 14210806
-0.046197142 0.2082219 0.70300001 14408185
-0.044858098 0.2082219 0.70300001 13945332
-0.043519046 0.2082219 0.70300001 12761058
-0.042240005 0.2085181 0.70400006 12826345
-0.040899049 0.2085181 0.70400006 14339583
-0.039558098 0.2085181 0.70400006 14407934
-0.038325716 0.20911048 0.70600003 14144762
-0.037033334 0.20940666 0.70700002 13488372
-0.035737146 0.20970286 0.708 12896235
-0.034388572 0.20970286 0.708 12567545
-0.033133335 0.21029525 0.71000004 12172787
-0.031825714 0.21059144 0.71100003 9940735
-0.030557144 0.21118382 0.71300006 5664197
-0.029321905 0.21207239 0.71600002 5209850
-0.028114285 0.21325715 0.72000003 4617713
-0.026742859 0.21325715 0.72000003 3564771
-0.025441907 0.21384954 0.72200006 1525188
-0.024066668 0.21384954 0.72200006 4346578
-0.022691431 0.21384954 0.72200006 10267903
-0.088088572 0.21373428 0.71700001 10325926
-0.086722851 0.21373428 0.71700001 9933480
-0.085357144 0.21373428 0.71700001 8222862
-0.083991431 0.21373428 0.71700001 4873639
-0.082510479 0.21343619 0.71600002 3097228
-0.081146665 0.21343619 0.71600002 1461952
-0.079225719 0.21194573 0.71100003 2909398
-0.077761903 0.21164763 0.71000004 5141216
-0.076194286 0.21105143 0.708 6325490
-0.074845709 0.21105143 0.708 5734125
-0.073393337 0.21075334 0.70700002 4089300
-0.072046667 0.21075334 0.70700002 5141738
-0.070600003 0.21045525 0.70600003 8760319
-0.069059052 0.20985906 0.70400006 9677567
-0.067718096 0.20985906 0.70400006 9217019
-0.066377148 0.20985906 0.70400006 8822522
-0.064943813 0.20956095 0.70300001 8756729
-0.063604765 0.20956095 0.70300001 9478395
-0.062088571 0.20896477 0.70100003 10202111
-0.060753338 0.20896477 0.70100003 11776764
-0.059418097 0.20896477 0.70100003 11776764
-0.05808286 0.20896477 0.70100003 12762366
-0.056747623 0.20896477 0.70100003 13091327
-0.055412382 0.20896477 0.70100003 13354490
-0.054231428 0.20956095 0.70300001 13420283
-0.052892383 0.20956095 0.70300001 13616887
-0.051553335 0.20956095 0.70300001 13748473
-0.050214287 0.20956095 0.70300001 13683700
-0.048875239 0.20956095 0.70300001 14407423
-0.047536191 0.20956095 0.70300001 14868216
-0.046197142 0.20956095 0.70300001 13947114
-0.044921909 0.20985906 0.70400006 13615088
-0.043580953 0.20985906 0.70400006 13154537
-0.042240005 0.20985906 0.70400006 13351405
-0.040899049 0.20985906 0.70400006 14798847
-0.039670479 0.21045525 0.70600003 15064319
-0.038325716 0.21045525 0.70600003 14669561
-0.037033334 0.21075334 0.70700002 14275067
-0.035737146 0.21105143 0.708 13617137
-0.034388572 0.21105143 0.708 12762866
-0.033180002 0.21194573 0.71100003 12631280
-0.03191524 0.21254192 0.71300006 10597119
-0.030557144 0.21254192 0.71300006 7965408
-0.029321905 0.21343619 0.71600002 5734393
-0.028192384 0.21522479 0.72200006 4155361
-0.026817145 0.21522479 0.72200006 3564766
-0.025441907 0.21522479 0.72200006 1656769
-0.024100002 0.21552287 0.72300005 4280526
-0.022722857 0.21552287 0.72300005 10399231
-0.088088572 0.21509999 0.71700001 10391719
-0.086722851 0.21509999 0.71700001 10064805
-0.085238092 0.2148 0.71600002 8419980
-0.083874285 0.2148 0.71600002 5070761
-0.082510479 0.2148 0.71600002 2965385
-0.081146665 0.2148 0.71600002 1397445
-0.079560004 0.21420002 0.71400005 3173856
-0.077871427 0.2133 0.71100003 5535708
-0.076409526 0.213 0.71000004 6062052
-0.074845709 0.2124 0.708 5995505
-0.073497139 0.2124 0.708 6061298
-0.072046667 0.2121 0.70700002 8160757
-0.070699997 0.2121 0.70700002 11318783
-0.06925524 0.21180001 0.70600003 11973868
-0.067718096 0.21120003 0.70400006 11973868
-0.066377148 0.21120003 0.70400006 11843304
-0.065036193 0.21120003 0.70400006 11974890
-0.063604765 0.21090001 0.70300001 12172267
-0.062088571 0.21030001 0.70100003 12698611
-0.060753338 0.21030001 0.70100003 13684710
-0.059418097 0.21030001 0.70100003 13882089
-0.058248568 0.21090001 0.70300001 14276086
-0.056909524 0.21090001 0.70300001 14407672
-0.055570476 0.21090001 0.70300001 14407924
-0.054231428 0.21090001 0.70300001 14342131
-0.052892383 0.21090001 0.70300001 14538997
-0.051553335 0.21090001 0.70300001 14670583
-0.050285716 0.21120003 0.70400006 14605044
-0.048944768 0.21120003 0.70400006 14802423
-0.047603812 0.21120003 0.70400006 14933496
-0.04626286 0.21120003 0.70400006 13683429
-0.044921909 0.21120003 0.70400006 13153783
-0.043580953 0.21120003 0.70400006 13219576
-0.042240005 0.21120003 0.70400006 13417709
-0.041015241 0.21180001 0.70600003 14470397
-0.039670479 0.21180001 0.70600003 14209020
-0.038380001 0.2121 0.70700002 13682676
-0.037085712 0.2124 0.708 13485301
-0.035737146 0.2124 0.708 13222129
-0.034388572 0.2124 0.708 13025777
-0.033273336 0.21390001 0.71300006 13486328
-0.03191524 0.21390001 0.71300006 12765439
-0.0306 0.21420002 0.71400005 11317998
-0.029362857 0.21509999 0.71700001 9283573
-0.028192384 0.21660002 0.72200006 4217512
-0.026817145 0.21660002 0.72200006 2251741
-0.025477143 0.21690001 0.72300005 870088
-0.024100002 0.21690001 0.72300005 5134547
-0.022722857 0.21690001 0.72300005 10924287
-0.088457145 0.21737143 0.72000003 10391721
-0.086601906 0.21616381 0.71600002 10130339
-0.085238092 0.21616381 0.71600002 8419721
-0.083874285 0.21616381 0.71600002 6056098
-0.082510479 0.21616381 0.71600002 4016515
-0.080920003 0.21556 0.71400005 2118077
-0.079560004 0.21556 0.71400005 3631316
-0.077871427 0.2146543 0.71100003 5601501
-0.076409526 0.21435238 0.71000004 5667294
-0.075057149 0.21435238 0.71000004 5797860
-0.073497139 0.21374857 0.708 7311099
-0.072148569 0.21374857 0.708 10263007
-0.070699997 0.21344666 0.70700002 11973625
-0.069353335 0.21344666 0.70700002 12759525
-0.067910478 0.21314476 0.70600003 13351662
-0.066377148 0.21254097 0.70400006 13089519
-0.065036193 0.21254097 0.70400006 13155312
-0.063604765 0.21223904 0.70300001 13155821
-0.062088571 0.21163525 0.70100003 14011130
-0.060753338 0.21163525 0.70100003 14275578
-0.05958762 0.21223904 0.70300001 14604543
-0.058248568 0.21223904 0.70300001 14539510
-0.056909524 0.21223904 0.70300001 14539510
-0.055570476 0.21223904 0.70300001 14670835
-0.054231428 0.21223904 0.70300001 14802421
-0.052892383 0.21223904 0.70300001 14868212
-0.051553335 0.21223904 0.70300001 14934005
-0.050285716 0.21254097 0.70400006 14999541
-0.048944768 0.21254097 0.70400006 15131127
-0.047603812 0.21254097 0.70400006 15195896
-0.04626286 0.21254097 0.70400006 13222106
-0.044921909 0.21254097 0.70400006 13153002
-0.043580953 0.21254097 0.70400006 13416174
-0.042240005 0.21254097 0.70400006 13680618
-0.041015241 0.21314476 0.70600003 13746411
-0.039670479 0.21314476 0.70600003 13550833
-0.038380001 0.21344666 0.70700002 13485040
-0.037085712 0.21374857 0.708 13156084
-0.035737146 0.21374857 0.708 13353463
-0.034485716 0.21435238 0.71000004 13485817
-0.033273336 0.21525811 0.71300006 13814782
-0.03191524 0.21525811 0.71300006 13750527
-0.0306 0.21556 0.71400005 12961011
-0.029362857 0.21646571 0.71700001 9677822
-0.028192384 0.21797526 0.72200006 4414382
-0.026817145 0.21797526 0.72200006 1660374
-0.025477143 0.21827716 0.72300005 870858
-0.024166666 0.21888097 0.72500002 5987276
-0.022785716 0.21888097 0.72500002 11382271
-0.021404762 0.21888097 0.72500002 12039645
-0.088457145 0.21874286 0.72000003 10326439
-0.087085716 0.21874286 0.72000003 10064292
-0.085238092 0.21752763 0.71600002 8156295
-0.083874285 0.21752763 0.71600002 5398938
-0.082510479 0.21752763 0.71600002 3425148
-0.080920003 0.21692002 0.71400005 1724863
-0.079560004 0.21692002 0.71400005 3172309
-0.077871427 0.21600857 0.71100003 5665752
-0.076409526 0.21570477 0.71000004 6455268
-0.075057149 0.21570477 0.71000004 7897827
-0.073497139 0.21509714 0.708 10068991
-0.072148569 0.21509714 0.708 11248085
-0.070800006 0.21509714 0.708 11708636
-0.069353335 0.21479334 0.70700002 12430299
-0.067910478 0.21448952 0.70600003 13746159
-0.066565715 0.21448952 0.70600003 13945332
-0.065036193 0.21388192 0.70400006 14405883
-0.063604765 0.21357809 0.70300001 14539251
-0.062088571 0.2129705 0.70100003 14934009
-0.060753338 0.2129705 0.70100003 15000059
-0.05958762 0.21357809 0.70300001 15394815
-0.058248568 0.21357809 0.70300001 15329015
-0.056909524 0.21357809 0.70300001 15394808
-0.055570476 0.21357809 0.70300001 15329269
-0.054231428 0.21357809 0.70300001 15066097
-0.052892383 0.21357809 0.70300001 15000052
-0.051626671 0.21388192 0.70400006 14868466
-0.050285716 0.21388192 0.70400006 15131125
-0.048944768 0.21388192 0.70400006 15196918
-0.047603812 0.21388192 0.70400006 14999030
-0.04626286 0.21388192 0.70400006 12893654
-0.044921909 0.21388192 0.70400006 12561133
-0.043580953 0.21388192 0.70400006 12758512
-0.04236 0.21448952 0.70600003 12759777
-0.041015241 0.21448952 0.70600003 13022949
-0.039670479 0.21448952 0.70600003 13090781
-0.038380001 0.21479334 0.70700002 14209262
-0.037085712 0.21509714 0.708 14868216
-0.035838097 0.21570477 0.71000004 14999802
-0.034485716 0.21570477 0.71000004 14934266
-0.033320002 0.21692002 0.71400005 13749992
-0.031960003 0.21692002 0.71400005 13224435
-0.0306 0.21692002 0.71400005 12961263
-0.029362857 0.21783143 0.71700001 11779555
-0.028192384 0.2193505 0.72200006 6384529
-0.026817145 0.2193505 0.72200006 1922519
-0.025477143 0.21965429 0.72300005 935624
-0.024166666 0.22026192 0.72500002 4542662
-0.022785716 0.22026192 0.72500002 9345535
-0.021404762 0.22026192 0.72500002 12104658
-0.020023812 0.22026192 0.72500002 12236244
-0.088457145 0.22011429 0.72000003 10130089
-0.087085716 0.22011429 0.72000003 9932967
-0.085357144 0.21919714 0.71700001 8288142
-0.083991431 0.21919714 0.71700001 5595295
-0.082625717 0.21919714 0.71700001 3621505
-0.081146665 0.21889144 0.71600002 1592764
-0.079560004 0.21828002 0.71400005 2777038
-0.077871427 0.21736285 0.71100003 5862353
-0.076409526 0.21705715 0.71000004 7441385
-0.075057149 0.21705715 0.71000004 9079771
-0.073704764 0.21705715 0.71000004 10987768
-0.072148569 0.21644571 0.708 11969752
-0.070800006 0.21644571 0.708 12101338
-0.069353335 0.21614 0.70700002 12430551
-0.067910478 0.21583429 0.70600003 13614825
-0.066565715 0.21583429 0.70600003 13682930
-0.065036193 0.21522288 0.70400006 14275067
-0.063695244 0.21522288 0.70400006 14408183
-0.062265713 0.21491715 0.70300001 14473976
-0.060926665 0.21491715 0.70300001 14408692
-0.05958762 0.21491715 0.70300001 14606071
-0.058248568 0.21491715 0.70300001 14737909
-0.056909524 0.21491715 0.70300001 15264253
-0.055570476 0.21491715 0.70300001 15592439
-0.054231428 0.21491715 0.70300001 15329267
-0.052892383 0.21491715 0.70300001 15065843
-0.051626671 0.21522288 0.70400006 15000050
-0.050285716 0.21522288 0.70400006 15196918
-0.048944768 0.21522288 0.70400006 14867953
-0.047603812 0.21522288 0.70400006 14340088
-0.04626286 0.21522288 0.70400006 12892642
-0.045049526 0.21583429 0.70600003 12627169
-0.043704763 0.21583429 0.70600003 13021927
-0.04236 0.21583429 0.70600003 12825577
-0.041015241 0.21583429 0.70600003 13417714
-0.039726667 0.21614 0.70700002 13485297
-0.038434286 0.21644571 0.708 14735359
-0.037085712 0.21644571 0.708 14868727
-0.035838097 0.21705715 0.71000004 14737141
-0.034485716 0.21705715 0.71000004 14605814
-0.033273336 0.21797431 0.71300006 13618919
-0.031960003 0.21828002 0.71400005 12631798
-0.0306 0.21828002 0.71400005 13355519
-0.029362857 0.21919714 0.71700001 12304123
-0.028192384 0.22072573 0.72200006 7369648
-0.026817145 0.22072573 0.72200006 3561684
-0.025477143 0.22103144 0.72300005 1916859
-0.024166666 0.22164287 0.72500002 3164857
-0.022848573 0.22225431 0.72700006 8296703
-0.021463811 0.22225431 0.72700006 11316697
-0.02007905 0.22225431 0.72700006 11908834
-0.088457145 0.22148572 0.72000003 9866663
-0.087085716 0.22148572 0.72000003 9932715
-0.085595243 0.2211781 0.71900004 8485269
-0.084225714 0.2211781 0.71900004 5595813
-0.082625717 0.22056286 0.71700001 3358851
-0.081146665 0.22025524 0.71600002 2183620
-0.079782858 0.22025524 0.71600002 2973136
-0.077871427 0.21871716 0.71100003 5664974
-0.076517142 0.21871716 0.71100003 7770350
-0.075057149 0.21840954 0.71000004 9669841
-0.073704764 0.21840954 0.71000004 11248873
-0.07235238 0.21840954 0.71000004 11837912
-0.070800006 0.21779428 0.708 12035291
-0.069451429 0.21779428 0.708 12233425
-0.068006672 0.21748666 0.70700002 12825562
-0.066660002 0.21748666 0.70700002 13023458
-0.065220952 0.21717906 0.70600003 13089251
-0.063695244 0.21656382 0.70400006 12958955
-0.062265713 0.21625619 0.70300001 13024748
-0.060926665 0.21625619 0.70300001 12696812
-0.05958762 0.21625619 0.70300001 13223156
-0.058331434 0.21656382 0.70400006 14275827
-0.056990478 0.21656382 0.70400006 15525887
-0.055649526 0.21656382 0.70400006 15658232
-0.054308575 0.21656382 0.70400006 15526646
-0.052967623 0.21656382 0.70400006 15263476
-0.051626671 0.21656382 0.70400006 15197683
-0.050285716 0.21656382 0.70400006 15459831
-0.048944768 0.21656382 0.70400006 14472936
-0.047603812 0.21656382 0.70400006 13879537
-0.04626286 0.21656382 0.70400006 12629470
-0.045049526 0.21717906 0.70600003 12957156
-0.043704763 0.21717906 0.70600003 14404602
-0.04236 0.21717906 0.70600003 14472184
-0.041073337 0.21748666 0.70700002 14866942
-0.039726667 0.21748666 0.70700002 15131127
-0.038434286 0.21779428 0.708 15591678
-0.037190478 0.21840954 0.71000004 14605303
-0.035838097 0.21840954 0.71000004 13552615
-0.034534287 0.21871716 0.71100003 13289702
-0.033273336 0.2193324 0.71300006 13684460
-0.031960003 0.21964 0.71400005 13881328
-0.0306 0.21964 0.71400005 13881328
-0.029321905 0.22025524 0.71600002 12501243
-0.028192384 0.22210097 0.72200006 7698354
-0.026817145 0.22210097 0.72200006 3168734
-0.025477143 0.22240859 0.72300005 1326530
-0.024166666 0.22302382 0.72500002 1261766
-0.022880001 0.22394668 0.72800004 6262015
-0.021493334 0.22394668 0.72800004 11381966
-0.020106668 0.22394668 0.72800004 12105689
-0.087085716 0.22285716 0.72000003 9867183
-0.085595243 0.22254764 0.71900004 8485530
-0.084225714 0.22254764 0.71900004 5990055
-0.082625717 0.22192858 0.71700001 3950472
-0.081146665 0.22161905 0.71600002 2970560
-0.079782858 0.22161905 0.71600002 3102146
-0.078200005 0.22100002 0.71400005 5728198
-0.076517142 0.22007143 0.71100003 8294125
-0.075057149 0.21976192 0.71000004 10260947
-0.073704764 0.21976192 0.71000004 11511014
-0.07235238 0.21976192 0.71000004 11707096
-0.070800006 0.21914285 0.708 11904475
-0.069451429 0.21914285 0.708 12035793
-0.068006672 0.21883334 0.70700002 12825309
-0.066660002 0.21883334 0.70700002 12825318
-0.065313332 0.21883334 0.70700002 12627939
-0.063876189 0.21852382 0.70600003 12957154
-0.062354293 0.21790478 0.70400006 12891361
-0.061013337 0.21790478 0.70400006 13155044
-0.059672385 0.21790478 0.70400006 13484009
-0.058331434 0.21790478 0.70400006 14339823
-0.056990478 0.21790478 0.70400006 15458303
-0.055649526 0.21790478 0.70400006 15263222
-0.054308575 0.21790478 0.70400006 15197429
-0.052967623 0.21790478 0.70400006 15197683
-0.051626671 0.21790478 0.70400006 15197683
-0.050285716 0.21790478 0.70400006 15525113
-0.048944768 0.21790478 0.70400006 14472425
-0.047603812 0.21790478 0.70400006 13418986
-0.04626286 0.21790478 0.70400006 12958435
-0.045049526 0.21852382 0.70600003 13286382
-0.043704763 0.21852382 0.70600003 14733823
-0.04242 0.21883334 0.70700002 14604281
-0.041073337 0.21883334 0.70700002 15130623
-0.039782856 0.21914285 0.708 15263222
-0.038434286 0.21914285 0.708 15000050
-0.037190478 0.21976192 0.71000004 14342131
-0.035888575 0.22007143 0.71100003 12828892
-0.034534287 0.22007143 0.71100003 12762344
-0.033320002 0.22100002 0.71400005 13880825
-0.032049526 0.22161905 0.71600002 14473467
-0.030685715 0.22161905 0.71600002 13815537
-0.029321905 0.22161905 0.71600002 12107253
-0.028231429 0.22378573 0.72300005 7896501
-0.026854288 0.22378573 0.72300005 5401051
-0.02554762 0.22440477 0.72500002 2045608
-0.024233334 0.22502384 0.72700006 1129405
-0.022974286 0.2262619 0.73100001 6327039
-0.021640953 0.22688095 0.73300004 10658517
-0.020244764 0.22688095 0.73300004 12040170
-0.087327629 0.22485144 0.72200006 10064053
-0.085595243 0.22391714 0.71900004 8682400
-0.084225714 0.22391714 0.71900004 5990053
-0.082625717 0.22329429 0.71700001 3621505
-0.081259996 0.22329429 0.71700001 2838472
-0.079782858 0.22298285 0.71600002 3233230
-0.078200005 0.22236001 0.71400005 5726660
-0.076517142 0.22142573 0.71100003 8489966
-0.075162858 0.22142573 0.71100003 10326740
-0.073704764 0.22111429 0.71000004 11708393
-0.07235238 0.22111429 0.71000004 12035802
-0.071000002 0.22111429 0.71000004 12364767
-0.069451429 0.22049144 0.708 12298967
-0.068102859 0.22049144 0.708 12496346
-0.066660002 0.22018 0.70700002 12495590
-0.065313332 0.22018 0.70700002 12495590
-0.063966669 0.22018 0.70700002 12825819
-0.062531434 0.21986859 0.70600003 12760026
-0.061013337 0.21924573 0.70400006 12760036
-0.059672385 0.21924573 0.70400006 13220587
-0.058331434 0.21924573 0.70400006 13221609
-0.056990478 0.21924573 0.70400006 13550574
-0.055649526 0.21924573 0.70400006 13814005
-0.054308575 0.21924573 0.70400006 13945591
-0.052967623 0.21924573 0.70400006 13683438
-0.051626671 0.21924573 0.70400006 14143989
-0.050285716 0.21924573 0.70400006 14669815
-0.048944768 0.21924573 0.70400006 13617127
-0.047603812 0.21924573 0.70400006 13418218
-0.046394285 0.21986859 0.70600003 14207734
-0.045049526 0.21986859 0.70600003 14932724
-0.043704763 0.21986859 0.70600003 15261689
-0.04242 0.22018 0.70700002 15131127
-0.041073337 0.22018 0.70700002 15196920
-0.039782856 0.22049144 0.708 15065591
-0.038542859 0.22111429 0.71000004 14276075
-0.037190478 0.22111429 0.71000004 13486062
-0.035888575 0.22142573 0.71100003 12828132
-0.034631431 0.22204858 0.71300006 13222134
-0.033320002 0.22236001 0.71400005 14209023
-0.031960003 0.22236001 0.71400005 14012907
-0.030685715 0.22298285 0.71600002 12368082
-0.029362857 0.22329429 0.71700001 11778003
-0.028231429 0.22516288 0.72300005 8619939
-0.026854288 0.22516288 0.72300005 5731295
-0.025618097 0.22640859 0.72700006 2244266
-0.024266668 0.22672001 0.72800004 1262808
-0.022974286 0.22765428 0.73100001 5868287
-0.021640953 0.22827715 0.73300004 10264270
-0.020244764 0.22827715 0.73300004 12172267
-0.087327629 0.22622669 0.72200006 10064051
-0.085595243 0.22528668 0.71900004 8616605
-0.084225714 0.22528668 0.71900004 6185892
-0.082625717 0.22466001 0.71700001 3883137
-0.081259996 0.22466001 0.71700001 2706109
-0.079782858 0.22434667 0.71600002 2969281
-0.078419052 0.22434667 0.71600002 5527987
-0.076840006 0.22372001 0.71400005 8488672
-0.075162858 0.22278 0.71100003 10260942
-0.073808573 0.22278 0.71100003 11642595
-0.07235238 0.22246668 0.71000004 12232924
-0.071000002 0.22246668 0.71000004 12232924
-0.069451429 0.22184001 0.708 12233174
-0.068102859 0.22184001 0.708 12562139
-0.066754289 0.22184001 0.708 12561383
-0.065313332 0.22152668 0.70700002 12956141
-0.063966669 0.22152668 0.70700002 13022951
-0.062531434 0.22121334 0.70600003 13022951
-0.061186668 0.22121334 0.70600003 12826347
-0.059841909 0.22121334 0.70600003 13286898
-0.058497142 0.22121334 0.70600003 13353200
-0.057152383 0.22121334 0.70600003 13550579
-0.05580762 0.22121334 0.70600003 13681140
-0.054462858 0.22121334 0.70600003 13286382
-0.053118095 0.22121334 0.70600003 13220335
-0.051626671 0.22058667 0.70400006 14009851
-0.050285716 0.22058667 0.70400006 14603511
-0.048944768 0.22058667 0.70400006 13616616
-0.047603812 0.22058667 0.70400006 13221357
-0.046394285 0.22121334 0.70600003 14734591
-0.045049526 0.22121334 0.70600003 15065334
-0.043704763 0.22121334 0.70600003 15065334
-0.04242 0.22152668 0.70700002 14999798
-0.041073337 0.22152668 0.70700002 14934005
-0.039782856 0.22184001 0.708 14999541
-0.038542859 0.22246668 0.71000004 13552095
-0.037190478 0.22246668 0.71000004 13351912
-0.035989527 0.22340669 0.71300006 13286119
-0.034631431 0.22340669 0.71300006 13352943
-0.033320002 0.22372001 0.71400005 13681908
-0.031960003 0.22372001 0.71400005 12893932
-0.030685715 0.22434667 0.71600002 12038623
-0.029362857 0.22466001 0.71700001 10594529
-0.028309524 0.22716667 0.72500002 8554946
-0.026928572 0.22716667 0.72500002 6583774
-0.025653334 0.22810668 0.72800004 2570401
-0.024266668 0.22810668 0.72800004 1984203
-0.022974286 0.22904667 0.73100001 6129151
-0.021640953 0.22967334 0.73300004 9408979
-0.020244764 0.22967334 0.73300004 11909113
-0.087327629 0.22760193 0.72200006 10064051
-0.085595243 0.2266562 0.71900004 8682398
-0.084225714 0.2266562 0.71900004 6187171
-0.082856201 0.2266562 0.71900004 3752830
-0.081259996 0.2260257 0.71700001 4082877
-0.079894282 0.2260257 0.71700001 4740807
-0.078419052 0.22571048 0.71600002 6247587
-0.076840006 0.22508001 0.71400005 8484549
-0.075480007 0.22508001 0.71400005 10916282
-0.073808573 0.22413428 0.71100003 12363728
-0.072454289 0.22413428 0.71100003 12691929
-0.071000002 0.22381905 0.71000004 12362964
-0.069451429 0.22318858 0.708 12429783
-0.068102859 0.22318858 0.708 13153506
-0.066754289 0.22318858 0.708 13021677
-0.065405719 0.22318858 0.708 13745400
-0.063966669 0.22287333 0.70700002 13482998
-0.062619999 0.22287333 0.70700002 14338303
-0.061186668 0.2225581 0.70600003 14340858
-0.059841909 0.2225581 0.70600003 14669823
-0.058497142 0.2225581 0.70600003 14736117
-0.057152383 0.2225581 0.70600003 14670324
-0.05580762 0.2225581 0.70600003 14143980
-0.054462858 0.2225581 0.70600003 12499155
-0.053118095 0.2225581 0.70600003 12694009
-0.051773336 0.2225581 0.70600003 13746687
-0.050285716 0.22192763 0.70400006 14143219
-0.048944768 0.22192763 0.70400006 14143219
-0.047603812 0.22192763 0.70400006 14406389
-0.046394285 0.2225581 0.70600003 15393279
-0.045049526 0.2225581 0.70600003 15065082
-0.043766666 0.22287333 0.70700002 14736117
-0.04242 0.22287333 0.70700002 14670324
-0.041073337 0.22287333 0.70700002 14801910
-0.039782856 0.22318858 0.708 14867703
-0.038542859 0.22381905 0.71000004 13025499
-0.037242856 0.22413428 0.71100003 12693991
-0.035989527 0.22476478 0.71300006 12759784
-0.034631431 0.22476478 0.71300006 12825568
-0.033320002 0.22508001 0.71400005 13022947
-0.032049526 0.22571048 0.71600002 12695781
-0.030685715 0.22571048 0.71600002 11774679
-0.029362857 0.2260257 0.71700001 10922211
-0.028114285 0.22697143 0.72000003 8751042
-0.026928572 0.22854762 0.72500002 6321883
-0.025653334 0.22949335 0.72800004 2637475
-0.024266668 0.22949335 0.72800004 1590749
-0.022974286 0.23043904 0.73100001 5669887
-0.021670477 0.23138477 0.73400003 9408470
-0.088702865 0.22897716 0.72200006 10261173
-0.087327629 0.22897716 0.72200006 9998771
-0.085714288 0.22834286 0.72000003 8485532
-0.08434286 0.22834286 0.72000003 6187173
-0.082971431 0.22834286 0.72000003 3555453
-0.081486672 0.22802573 0.71900004 5591731
-0.080117144 0.22802573 0.71900004 6118075
-0.078419052 0.2270743 0.71600002 7361446
-0.076840006 0.22644001 0.71400005 9269443
-0.075480007 0.22644001 0.71400005 10387118
-0.073808573 0.22548859 0.71100003 12097736
-0.072454289 0.22548859 0.71100003 11967440
-0.071000002 0.22517143 0.71000004 12362198
-0.069451429 0.22453715 0.708 12297943
-0.068102859 0.22453715 0.708 12758494
-0.066754289 0.22453715 0.708 12758743
-0.065405719 0.22453715 0.708 13021915
-0.064057142 0.22453715 0.708 13089255
-0.062619999 0.22421999 0.70700002 14141943
-0.061273329 0.22421999 0.70700002 14210295
-0.059926666 0.22421999 0.70700002 15197183
-0.058580004 0.22421999 0.70700002 15395321
-0.057152383 0.22390287 0.70600003 15197942
-0.05580762 0.22390287 0.70600003 14210802
-0.054462858 0.22390287 0.70600003 12500184
-0.053118095 0.22390287 0.70600003 12495860
-0.051773336 0.22390287 0.70600003 13877503
-0.050428573 0.22390287 0.70600003 14340085
-0.04908381 0.22390287 0.70600003 14471671
-0.047739051 0.22390287 0.70600003 14736117
-0.046459999 0.22421999 0.70700002 14736117
-0.045113333 0.22421999 0.70700002 14604531
-0.043766666 0.22421999 0.70700002 14538738
