# .PCD v0.7 - Point Cloud Data file format
VERSION 0.7
FIELDS x y z rgba
SIZE 4 4 4 4
TYPE F F F U
COUNT 1 1 1 1
WIDTH 1111
HEIGHT 1
VIEWPOINT 0 0 0 1 0 0 0
POINTS 1111
DATA ascii
-0.078475237 0.056909524 0.62900001 16448250
-0.077400006 0.057000004 0.63000005 16448250
-0.076320961 0.05709048 0.63100004 16448250
-0.075238094 0.057180952 0.63200003 16448250
-0.074034289 0.057180952 0.63200003 16448250
-0.073060952 0.057361905 0.634 16448250
-0.071626663 0.057180952 0.63200003 16448250
-0.070311435 0.05709048 0.63100004 16448250
-0.069000006 0.057000004 0.63000005 16448250
-0.067692384 0.056909524 0.62900001 16448250
-0.066494286 0.056909524 0.62900001 16448250
-0.065296195 0.056909524 0.62900001 16448250
-0.064098097 0.056909524 0.62900001 16448250
-0.062899999 0.056909524 0.62900001 16448250
-0.061800007 0.057000004 0.63000005 16448250
-0.060696192 0.05709048 0.63100004 16448250
-0.059494291 0.05709048 0.63100004 16711422
-0.058200005 0.057000004 0.63000005 16711422
-0.058809526 0.058809526 0.65000004 16183293
-0.057571433 0.058809526 0.65000004 14143710
-0.056333333 0.058809526 0.65000004 14799103
-0.05509524 0.058809526 0.65000004 15062271
-0.053857144 0.058809526 0.65000004 14601215
-0.052619051 0.058809526 0.65000004 14535423
-0.051380955 0.058809526 0.65000004 14469375
-0.050142858 0.058809526 0.65000004 14403583
-0.048904765 0.058809526 0.65000004 14272511
-0.047666669 0.058809526 0.65000004 14272511
-0.046428576 0.058809526 0.65000004 14338303
-0.045120955 0.058719054 0.64900005 14535679
-0.04381714 0.05862857 0.648 14338815
-0.042582858 0.05862857 0.648 14338815
-0.041412383 0.058719054 0.64900005 13944319
-0.04017619 0.058719054 0.64900005 13878527
-0.038940005 0.058719054 0.64900005 13746943
-0.037703812 0.058719054 0.64900005 13746943
-0.036523812 0.058809526 0.65000004 13811967
-0.03523143 0.058719054 0.64900005 13746175
-0.033995241 0.058719054 0.64900005 13219327
-0.032759052 0.058719054 0.64900005 13153535
-0.031522859 0.058719054 0.64900005 12891647
-0.030286668 0.058719054 0.64900005 13352191
-0.029005714 0.05862857 0.648 12761855
-0.027771428 0.05862857 0.648 12761855
-0.026578097 0.058719054 0.64900005 12958975
-0.025341906 0.058719054 0.64900005 12564223
-0.024105716 0.058719054 0.64900005 8952575
-0.12300096 0.059955239 0.64900005 8815983
-0.12176477 0.059955239 0.64900005 8684397
-0.12052858 0.059955239 0.64900005 6193090
-0.11929239 0.059955239 0.64900005 8364259
-0.11805619 0.059955239 0.64900005 8038143
-0.11682001 0.059955239 0.64900005 7840767
-0.11558381 0.059955239 0.64900005 8300543
-0.11434763 0.059955239 0.64900005 8497919
-0.11311144 0.059955239 0.64900005 8563967
-0.11187524 0.059955239 0.64900005 8563967
-0.11063905 0.059955239 0.64900005 8498431
-0.10940287 0.059955239 0.64900005 8564223
-0.10816668 0.059955239 0.64900005 8498943
-0.10693048 0.059955239 0.64900005 8696319
-0.10569429 0.059955239 0.64900005 9024767
-0.1044581 0.059955239 0.64900005 9090559
-0.10322192 0.059955239 0.64900005 9091583
-0.10182857 0.059862856 0.648 9091583
-0.10059428 0.059862856 0.648 8828671
-0.099360004 0.059862856 0.648 8828671
-0.098277152 0.059955239 0.64900005 8829183
-0.097040959 0.059955239 0.64900005 8763391
-0.095657147 0.059862856 0.648 8435199
-0.094277143 0.05977048 0.64700001 8566783
-0.092900954 0.059678096 0.64600003 8567039
-0.091670483 0.059678096 0.64600003 6988016
-0.091000006 0.060047623 0.65000004 10793215
-0.089761913 0.060047623 0.65000004 15530239
-0.088523813 0.060047623 0.65000004 16711422
-0.08446572 0.058107618 0.62900001 16645629
-0.083267614 0.058107618 0.62900001 16448250
-0.082069524 0.058107618 0.62900001 16448250
-0.080871426 0.058107618 0.62900001 16448250
-0.079673328 0.058107618 0.62900001 16448250
-0.078475237 0.058107618 0.62900001 16448250
-0.077277139 0.058107618 0.62900001 16448250
-0.076200008 0.058200005 0.63000005 16448250
-0.075000003 0.058200005 0.63000005 16448250
-0.07391715 0.058292385 0.63100004 16448250
-0.0726 0.058200005 0.63000005 16448250
-0.071400009 0.058200005 0.63000005 16448250
-0.070088573 0.058107618 0.62900001 16448250
-0.068890475 0.058107618 0.62900001 16448250
-0.067692384 0.058107618 0.62900001 16448250
-0.066494286 0.058107618 0.62900001 16448250
-0.065296195 0.058107618 0.62900001 16448250
-0.064098097 0.058107618 0.62900001 16448250
-0.062899999 0.058107618 0.62900001 16448250
-0.061800007 0.058200005 0.63000005 16448250
-0.060600005 0.058200005 0.63000005 16514043
-0.059400007 0.058200005 0.63000005 16579836
-0.058200005 0.058200005 0.63000005 16711422
-0.058538094 0.05977048 0.64700001 13755893
-0.057305716 0.05977048 0.64700001 9281969
-0.056246672 0.059955239 0.64900005 6470655
-0.055010479 0.059955239 0.64900005 6733823
-0.05377429 0.059955239 0.64900005 7059967
-0.052538101 0.059955239 0.64900005 7059967
-0.051301908 0.059955239 0.64900005 6731775
-0.050065719 0.059955239 0.64900005 6337023
-0.048829526 0.059955239 0.64900005 6074111
-0.047593337 0.059955239 0.64900005 6337279
-0.046357144 0.059955239 0.64900005 6797055
-0.045120955 0.059955239 0.64900005 6797055
-0.043749522 0.05977048 0.64700001 6731775
-0.042517144 0.05977048 0.64700001 6994943
-0.041348573 0.059862856 0.648 7061503
-0.040114284 0.059862856 0.648 6929919
-0.038880002 0.059862856 0.648 6338815
-0.037645712 0.059862856 0.648 6338815
-0.036411427 0.059862856 0.648 6731263
-0.035177141 0.059862856 0.648 6665471
-0.033995241 0.059955239 0.64900005 6336511
-0.032708574 0.059862856 0.648 6468095
-0.031474285 0.059862856 0.648 6664959
-0.030240001 0.059862856 0.648 6730751
-0.029005714 0.059862856 0.648 6599423
-0.027771428 0.059862856 0.648 6599423
-0.026537143 0.059862856 0.648 7780351
-0.025263811 0.05977048 0.64700001 7319807
-0.024031429 0.05977048 0.64700001 5740287
-0.12281142 0.061097141 0.648 8619378
-0.12157714 0.061097141 0.648 8685171
-0.12034286 0.061097141 0.648 5669830
-0.11910857 0.061097141 0.648 6854104
-0.11769238 0.061002858 0.64700001 6265855
-0.11646 0.061002858 0.64700001 5607935
-0.11522762 0.061002858 0.64700001 5084159
-0.11399524 0.061002858 0.64700001 5610495
-0.11293714 0.061097141 0.648 6135551
-0.11170286 0.061097141 0.648 6267135
-0.11046857 0.061097141 0.648 6201343
-0.10923428 0.061097141 0.648 6398719
-0.108 0.061097141 0.648 6398463
-0.10676572 0.061097141 0.648 6332671
-0.10553142 0.061097141 0.648 6464255
-0.10429715 0.061097141 0.648 6661631
-0.10306286 0.061097141 0.648 6793471
-0.10182857 0.061097141 0.648 7254015
-0.10059428 0.061097141 0.648 7319295
-0.099360004 0.061097141 0.648 6924543
-0.098125711 0.061097141 0.648 6662399
-0.096891426 0.061097141 0.648 6596607
-0.095509529 0.061002858 0.64700001 6334719
-0.094131432 0.060908575 0.64600003 6268927
-0.092613339 0.060720004 0.64400005 6728191
-0.091386676 0.060720004 0.64400005 5543930
-0.090160005 0.060720004 0.64400005 11910653
-0.086861908 0.059305713 0.62900001 15858175
-0.08566381 0.059305713 0.62900001 16711422
-0.08446572 0.059305713 0.62900001 16448250
-0.083267614 0.059305713 0.62900001 16448250
-0.082069524 0.059305713 0.62900001 16448250
-0.080742866 0.059211429 0.62800002 16448250
-0.079420008 0.059117146 0.62700003 16448250
-0.078225717 0.059117146 0.62700003 16448250
-0.077277139 0.059305713 0.62900001 16448250
-0.075958095 0.059211429 0.62800002 16448250
-0.074761905 0.059211429 0.62800002 16448250
-0.07368286 0.059305713 0.62900001 16448250
-0.072369523 0.059211429 0.62800002 16448250
-0.071173333 0.059211429 0.62800002 16448250
-0.069977149 0.059211429 0.62800002 16448250
-0.068780951 0.059211429 0.62800002 16448250
-0.067584768 0.059211429 0.62800002 16448250
-0.066282853 0.059117146 0.62700003 16448250
-0.06508857 0.059117146 0.62700003 16448250
-0.063894287 0.059117146 0.62700003 16448250
-0.062800005 0.059211429 0.62800002 16448250
-0.061701905 0.059305713 0.62900001 16448250
-0.060503807 0.059305713 0.62900001 16448250
-0.059400007 0.059400007 0.63000005 16579834
-0.058200005 0.059400007 0.63000005 16711420
-0.058538094 0.061002858 0.64700001 15069688
-0.057305716 0.061002858 0.64700001 9806248
-0.056073334 0.061002858 0.64700001 7126271
-0.054840952 0.061002858 0.64700001 7389439
-0.053608574 0.061002858 0.64700001 7257599
-0.052457143 0.061097141 0.648 7126015
-0.051222857 0.061097141 0.648 6863359
-0.049988572 0.061097141 0.648 6731775
-0.04867905 0.061002858 0.64700001 6665727
-0.047446668 0.061002858 0.64700001 6731519
-0.046285711 0.061097141 0.648 6862847
-0.044981908 0.061002858 0.64700001 7323391
-0.043749522 0.061002858 0.64700001 7519999
-0.042517144 0.061002858 0.64700001 7585791
-0.041284762 0.061002858 0.64700001 7520511
-0.04005238 0.061002858 0.64700001 7586303
-0.038820002 0.061002858 0.64700001 7060479
-0.037587617 0.061002858 0.64700001 6731519
-0.03629905 0.060908575 0.64600003 6862591
-0.035068572 0.060908575 0.64600003 6796799
-0.033890475 0.061002858 0.64700001 6927871
-0.032658096 0.061002858 0.64700001 6993663
-0.031425714 0.061002858 0.64700001 6731263
-0.030146668 0.060908575 0.64600003 6862847
-0.028916191 0.060908575 0.64600003 7059455
-0.027685715 0.060908575 0.64600003 7322623
-0.026496191 0.061002858 0.64700001 8962047
-0.025263811 0.061002858 0.64700001 8304126
-0.024031429 0.061002858 0.64700001 6265855
-0.12262191 0.062235236 0.64700001 8357233
-0.12138952 0.062235236 0.64700001 8620405
-0.12015714 0.062235236 0.64700001 5737186
-0.11874096 0.062139049 0.64600003 6197737
-0.11751048 0.062139049 0.64600003 5151743
-0.11628 0.062139049 0.64600003 4691199
-0.11504953 0.062139049 0.64600003 4232959
-0.11381905 0.062139049 0.64600003 4496127
-0.11276285 0.062235236 0.64700001 4758783
-0.11153048 0.062235236 0.64700001 4956159
-0.1102981 0.062235236 0.64700001 4890879
-0.10906572 0.062235236 0.64700001 5088255
-0.10783334 0.062235236 0.64700001 5612799
-0.10660095 0.062235236 0.64700001 5481215
-0.10536857 0.062235236 0.64700001 5218815
-0.10413619 0.062235236 0.64700001 5481983
-0.10290381 0.062235236 0.64700001 6335231
-0.10167143 0.062235236 0.64700001 6532607
-0.10028381 0.062139049 0.64600003 6795775
-0.099053338 0.062139049 0.64600003 6466815
-0.097974285 0.062235236 0.64700001 6204415
-0.096592382 0.062139049 0.64600003 6204415
-0.095361911 0.062139049 0.64600003 6007807
-0.093840003 0.061946671 0.64400005 5942015
-0.092469528 0.061850477 0.64300001 6466303
-0.091244757 0.061850477 0.64300001 5874175
-0.090020001 0.061850477 0.64300001 13094139
-0.086861908 0.060503807 0.62900001 16120575
-0.08566381 0.060503807 0.62900001 16711422
-0.08433143 0.06040762 0.62800002 16448250
-0.08313524 0.06040762 0.62800002 16448250
-0.081939049 0.06040762 0.62800002 16448250
-0.080614291 0.060311433 0.62700003 16448250
-0.079166666 0.060119048 0.625 16448250
-0.07797619 0.060119048 0.625 16448250
-0.077031434 0.060311433 0.62700003 16448250
-0.07583715 0.060311433 0.62700003 16448250
-0.074404761 0.060119048 0.625 16448250
-0.073214285 0.060119048 0.625 16448250
-0.072023809 0.060119048 0.625 16448250
-0.070833333 0.060119048 0.625 16448250
-0.069642857 0.060119048 0.625 16448250
-0.068671428 0.060311433 0.62700003 16448250
-0.067477144 0.060311433 0.62700003 16448250
-0.066071428 0.060119048 0.625 16448250
-0.064880952 0.060119048 0.625 16448250
-0.063690476 0.060119048 0.625 16448250
-0.0625 0.060119048 0.625 16448250
-0.061505716 0.060311433 0.62700003 16448250
-0.060311433 0.060311433 0.62700003 16448250
-0.059117146 0.060311433 0.62700003 16514043
-0.057922859 0.060311433 0.62700003 16711422
-0.05862857 0.062331427 0.648 15989757
-0.057394285 0.062331427 0.648 10463145
-0.055986669 0.062139049 0.64600003 7191295
-0.054756194 0.062139049 0.64600003 7586047
-0.053608574 0.062235236 0.64700001 6995711
-0.052376192 0.062235236 0.64700001 6798335
-0.05114381 0.062235236 0.64700001 6470399
-0.049911428 0.062235236 0.64700001 6404607
-0.04867905 0.062235236 0.64700001 6534655
-0.047446668 0.062235236 0.64700001 6666239
-0.046214286 0.062235236 0.64700001 6797567
-0.044981908 0.062235236 0.64700001 7060735
-0.043681905 0.062139049 0.64600003 7126271
-0.04245143 0.062139049 0.64600003 7126271
-0.041220952 0.062139049 0.64600003 7257599
-0.039990477 0.062139049 0.64600003 7126015
-0.038760003 0.062139049 0.64600003 6797567
-0.037413336 0.061946671 0.64400005 6797567
-0.036186669 0.061946671 0.64400005 6665727
-0.034960002 0.061946671 0.64400005 6665727
-0.033733334 0.061946671 0.64400005 6862847
-0.032506671 0.061946671 0.64400005 6797055
-0.03128 0.061946671 0.64400005 6403327
-0.030053336 0.061946671 0.64400005 6469119
-0.028826667 0.061946671 0.64400005 6731775
-0.027600003 0.061946671 0.64400005 7323903
-0.026373334 0.061946671 0.64400005 9291263
-0.025146669 0.061946671 0.64400005 8435962
-0.024031429 0.062235236 0.64700001 6659583
-0.12404571 0.063565716 0.648 10127736
-0.12262191 0.063467614 0.64700001 7766895
-0.12120191 0.063369527 0.64600003 8293239
-0.11997144 0.063369527 0.64600003 5672443
-0.11837334 0.063173339 0.64400005 6067199
-0.11714668 0.063173339 0.64400005 5086463
-0.11592001 0.063173339 0.64400005 4757503
-0.11469334 0.063173339 0.64400005 4364287
-0.11346667 0.063173339 0.64400005 4693247
-0.11258857 0.063369527 0.64600003 5022207
-0.1113581 0.063369527 0.64600003 5087999
-0.11012762 0.063369527 0.64600003 5350655
-0.10889714 0.063369527 0.64600003 5416447
-0.10766667 0.063369527 0.64600003 5547263
-0.10643619 0.063369527 0.64600003 5547263
-0.10520571 0.063369527 0.64600003 5940991
-0.10397524 0.063369527 0.64600003 5875199
-0.10274477 0.063369527 0.64600003 5941503
-0.10151429 0.063369527 0.64600003 6270463
-0.099973343 0.063173339 0.64400005 6796031
-0.098746672 0.063173339 0.64400005 6598655
-0.097974285 0.063467614 0.64700001 6402047
-0.096592382 0.063369527 0.64600003 6599423
-0.095361911 0.063369527 0.64600003 6468351
-0.093840003 0.063173339 0.64400005 6270975
-0.092469528 0.063075244 0.64300001 6728191
-0.091244757 0.063075244 0.64300001 6333439
-0.090020001 0.063075244 0.64300001 13357052
-0.086861908 0.061701905 0.62900001 16186111
-0.08566381 0.061701905 0.62900001 16711422
-0.08433143 0.061603814 0.62800002 16448250
-0.08313524 0.061603814 0.62800002 16448250
-0.081808574 0.061505716 0.62700003 16448250
-0.080357142 0.061309524 0.625 16448250
-0.079166666 0.061309524 0.625 16448250
-0.07797619 0.061309524 0.625 16448250
-0.076785713 0.061309524 0.625 16448250
-0.075595237 0.061309524 0.625 16448250
-0.074404761 0.061309524 0.625 16448250
-0.073214285 0.061309524 0.625 16448250
-0.072023809 0.061309524 0.625 16448250
-0.070720002 0.06121143 0.62400001 16448250
-0.069531433 0.06121143 0.62400001 16448250
-0.068342857 0.06121143 0.62400001 16448250
-0.067261904 0.061309524 0.625 16448250
-0.065965712 0.06121143 0.62400001 16448250
-0.064777143 0.06121143 0.62400001 16448250
-0.063588567 0.06121143 0.62400001 16448250
-0.062400002 0.06121143 0.62400001 16448250
-0.061309524 0.061309524 0.625 16448250
-0.060119048 0.061309524 0.625 16448250
-0.058928572 0.061309524 0.625 16514043
-0.057738096 0.061309524 0.625 16711422
-0.058538094 0.063467614 0.64700001 15266552
-0.057305716 0.063467614 0.64700001 10134698
-0.055986669 0.063369527 0.64600003 7060991
-0.054756194 0.063369527 0.64600003 7389951
-0.053525716 0.063369527 0.64600003 7258367
-0.052295242 0.063369527 0.64600003 6929407
-0.051064763 0.063369527 0.64600003 6469887
-0.049834289 0.063369527 0.64600003 6469887
-0.04867905 0.063467614 0.64700001 6273023
-0.047373332 0.063369527 0.64600003 6338815
-0.046142858 0.063369527 0.64600003 6666751
-0.044912383 0.063369527 0.64600003 6798335
-0.043681905 0.063369527 0.64600003 6994687
-0.04245143 0.063369527 0.64600003 6994687
-0.041093335 0.063173339 0.64400005 6994687
-0.039866671 0.063173339 0.64400005 6797311
-0.038640004 0.063173339 0.64400005 6797055
-0.037355237 0.063075244 0.64300001 6862847
-0.036130477 0.063075244 0.64300001 6928383
-0.034905713 0.063075244 0.64300001 6862591
-0.033680953 0.063075244 0.64300001 6928383
-0.032456189 0.063075244 0.64300001 6862591
-0.031231428 0.063075244 0.64300001 6534143
-0.030006666 0.063075244 0.64300001 6665727
-0.028781906 0.063075244 0.64300001 7519999
-0.027557142 0.063075244 0.64300001 8046335
-0.02633238 0.063075244 0.64300001 9619199
-0.02510762 0.063075244 0.64300001 8632312
-0.12404571 0.064800002 0.648 10062456
-0.12243238 0.064599998 0.64600003 6848616
-0.12120191 0.064599998 0.64600003 7703925
-0.11997144 0.064599998 0.64600003 5936895
-0.11837334 0.064400002 0.64400005 5607935
-0.11714668 0.064400002 0.64400005 4692479
-0.11592001 0.064400002 0.64400005 4626687
-0.11469334 0.064400002 0.64400005 4102143
-0.11346667 0.064400002 0.64400005 4628479
-0.11224001 0.064400002 0.64400005 5087743
-0.11101335 0.064400002 0.64400005 5153535
-0.10978667 0.064400002 0.64400005 5154047
-0.10856 0.064400002 0.64400005 5154047
-0.10733335 0.064400002 0.64400005 5219327
-0.1059419 0.064300001 0.64300001 5350911
-0.10471714 0.064300001 0.64300001 6072831
-0.10349238 0.064300001 0.64300001 5875455
-0.10226762 0.064300001 0.64300001 5548031
-0.10104286 0.064300001 0.64300001 6140159
-0.099818096 0.064300001 0.64300001 6599423
-0.098593332 0.064300001 0.64300001 6533631
-0.097520009 0.064400002 0.64400005 6337023
-0.096293338 0.064400002 0.64400005 6337023
-0.095066674 0.064400002 0.64400005 6337023
-0.093694285 0.064300001 0.64300001 6073855
-0.092469528 0.064300001 0.64300001 6465279
-0.091244757 0.064300001 0.64300001 6070527
-0.090020001 0.064300001 0.64300001 13357563
-0.086309522 0.0625 0.625 16120831
-0.085119046 0.0625 0.625 16711422
-0.08392857 0.0625 0.625 16448250
-0.082738094 0.0625 0.625 16448250
-0.081417143 0.062400002 0.62400001 16448250
-0.080228575 0.062400002 0.62400001 16448250
-0.079040006 0.062400002 0.62400001 16448250
-0.07797619 0.0625 0.625 16448250
-0.076785713 0.0625 0.625 16448250
-0.075474285 0.062400002 0.62400001 16448250
-0.074285716 0.062400002 0.62400001 16448250
-0.07309714 0.062400002 0.62400001 16448250
-0.071908571 0.062400002 0.62400001 16448250
-0.070606664 0.0623 0.62300003 16448250
-0.069420002 0.0623 0.62300003 16448250
-0.068233334 0.0623 0.62300003 16448250
-0.067154288 0.062400002 0.62400001 16448250
-0.065965712 0.062400002 0.62400001 16448250
-0.064777143 0.062400002 0.62400001 16448250
-0.063588567 0.062400002 0.62400001 16448250
-0.062400002 0.062400002 0.62400001 16448250
-0.061309524 0.0625 0.625 16448250
-0.060119048 0.0625 0.625 16448250
-0.058928572 0.0625 0.625 16645629
-0.057738096 0.0625 0.625 16711422
-0.05826667 0.064400002 0.64400005 14674935
-0.057040006 0.064400002 0.64400005 10595769
-0.055813335 0.064400002 0.64400005 7979263
-0.054586671 0.064400002 0.64400005 8045055
-0.053360004 0.064400002 0.64400005 6995967
-0.052133337 0.064400002 0.64400005 6864383
-0.051064763 0.064599998 0.64600003 6338303
-0.049834289 0.064599998 0.64600003 6469887
-0.04860381 0.064599998 0.64600003 6469887
-0.047373332 0.064599998 0.64600003 6404095
-0.046142858 0.064599998 0.64600003 6666751
-0.044912383 0.064599998 0.64600003 6666751
-0.043546669 0.064400002 0.64400005 6273023
-0.042320006 0.064400002 0.64400005 6601983
-0.040965714 0.064200006 0.64200002 6994687
-0.039742857 0.064200006 0.64200002 6928895
-0.038460001 0.064099997 0.64100003 6797055
-0.037239049 0.064099997 0.64100003 6862847
-0.036018096 0.064099997 0.64100003 6993663
-0.034797143 0.064099997 0.64100003 6927871
-0.033628572 0.064200006 0.64200002 7059199
-0.032405715 0.064200006 0.64200002 7124991
-0.031182857 0.064200006 0.64200002 6927871
-0.029959999 0.064200006 0.64200002 7454207
-0.028692381 0.064099997 0.64100003 8176639
-0.027471429 0.064099997 0.64100003 8242431
-0.02629143 0.064200006 0.64200002 9619967
-0.025029525 0.064099997 0.64100003 8830459
-0.023771429 0.064000003 0.64000005 6658303
-0.022552382 0.064000003 0.64000005 2513357
-0.12205334 0.065626673 0.64400005 6258546
-0.12045144 0.065422855 0.64200002 7311234
-0.11922857 0.065422855 0.64200002 6463743
-0.11800572 0.065422855 0.64200002 5871615
-0.11696476 0.065524764 0.64300001 4890111
-0.11574 0.065524764 0.64300001 5021695
-0.11451524 0.065524764 0.64300001 4627967
-0.11329047 0.065524764 0.64300001 4956927
-0.11206571 0.065524764 0.64300001 4956415
-0.11066858 0.065422855 0.64200002 5022207
-0.10944572 0.065422855 0.64200002 5023231
-0.10839143 0.065524764 0.64300001 4891647
-0.10716667 0.065524764 0.64300001 4760319
-0.1059419 0.065524764 0.64300001 4957695
-0.10455429 0.065422855 0.64200002 5482239
-0.10333143 0.065422855 0.64200002 5153279
-0.10210858 0.065422855 0.64200002 5154303
-0.10104286 0.065524764 0.64300001 6075391
-0.099818096 0.065524764 0.64300001 6599423
-0.098593332 0.065524764 0.64300001 6533631
-0.097368568 0.065524764 0.64300001 6402559
-0.096143812 0.065524764 0.64300001 6402559
-0.094919048 0.065524764 0.64300001 6337023
-0.093548574 0.065422855 0.64200002 6139647
-0.092181914 0.065320954 0.64100003 6007295
-0.090960957 0.065320954 0.64100003 3309794
-0.089740001 0.065320954 0.64100003 9871359
-0.086171433 0.063588567 0.62400001 15529471
-0.084982857 0.063588567 0.62400001 16711422
-0.083794288 0.063588567 0.62400001 16448250
-0.082605712 0.063588567 0.62400001 16448250
-0.081417143 0.063588567 0.62400001 16448250
-0.080228575 0.063588567 0.62400001 16448250
-0.079040006 0.063588567 0.62400001 16448250
-0.07785143 0.063588567 0.62400001 16448250
-0.076662861 0.063588567 0.62400001 16448250
-0.075474285 0.063588567 0.62400001 16448250
-0.074047625 0.063384764 0.62200004 16448250
-0.072745718 0.063282862 0.62100005 16448250
-0.071562864 0.063282862 0.62100005 16448250
-0.070266664 0.063180953 0.62 16448250
-0.069085717 0.063180953 0.62 16448250
-0.068123817 0.063384764 0.62200004 16448250
-0.067046665 0.063486665 0.62300003 16448250
-0.065859996 0.063486665 0.62300003 16448250
-0.064673334 0.063486665 0.62300003 16448250
-0.063486665 0.063486665 0.62300003 16448250
-0.0623 0.063486665 0.62300003 16448250
-0.061309524 0.063690476 0.625 16448250
-0.060022857 0.063588567 0.62400001 16579836
-0.058834285 0.063588567 0.62400001 16645629
-0.057645712 0.063588567 0.62400001 16645629
-0.05817619 0.065524764 0.64300001 14412792
-0.056951426 0.065524764 0.64300001 12110037
-0.055726666 0.065524764 0.64300001 8637183
-0.054501906 0.065524764 0.64300001 8308223
-0.053277142 0.065524764 0.64300001 7193087
-0.052133337 0.065626673 0.64400005 6798335
-0.050906669 0.065626673 0.64400005 6601727
-0.049680006 0.065626673 0.64400005 6799103
-0.048453335 0.065626673 0.64400005 6339327
-0.047226671 0.065626673 0.64400005 6207743
-0.046000004 0.065626673 0.64400005 6273279
-0.044773336 0.065626673 0.64400005 6273279
-0.043479048 0.065524764 0.64300001 6469887
-0.04212286 0.065320954 0.64100003 6733055
-0.040901907 0.065320954 0.64100003 6994687
-0.039680954 0.065320954 0.64100003 6928895
-0.038460001 0.065320954 0.64100003 6731775
-0.037239049 0.065320954 0.64100003 6797567
-0.036018096 0.065320954 0.64100003 6797055
-0.034797143 0.065320954 0.64100003 6797055
-0.03357619 0.065320954 0.64100003 6993663
-0.032355241 0.065320954 0.64100003 7322623
-0.031134287 0.065320954 0.64100003 7519231
-0.029913336 0.065320954 0.64100003 7979775
-0.028692381 0.065320954 0.64100003 8176639
-0.027471429 0.065320954 0.64100003 8242431
-0.026250478 0.065320954 0.64100003 9947647
-0.024990477 0.065219052 0.64000005 9223931
-0.023771429 0.065219052 0.64000005 6593279
-0.022552382 0.065219052 0.64000005 2448334
-0.12186381 0.066749521 0.64300001 5602694
-0.12026381 0.06654191 0.64100003 7181726
-0.11904286 0.06654191 0.64100003 5809407
-0.11782191 0.06654191 0.64100003 5217279
-0.11678286 0.066645719 0.64200002 4759295
-0.11556 0.066645719 0.64200002 4759295
-0.11433714 0.066645719 0.64200002 4627967
-0.11311429 0.066645719 0.64200002 4759551
-0.11189143 0.066645719 0.64200002 4234751
-0.11066858 0.066645719 0.64200002 4629503
-0.10944572 0.066645719 0.64200002 5022975
-0.10822286 0.066645719 0.64200002 4891391
-0.10700001 0.066645719 0.64200002 4760831
-0.10577714 0.066645719 0.64200002 4892415
-0.10439143 0.06654191 0.64100003 5220351
-0.10317048 0.06654191 0.64100003 5022975
-0.10194953 0.06654191 0.64100003 4629759
-0.10088571 0.066645719 0.64200002 5814015
-0.099662863 0.066645719 0.64200002 6796543
-0.098439999 0.066645719 0.64200002 6664959
-0.097217143 0.066645719 0.64200002 6403071
-0.095844768 0.06654191 0.64100003 6403071
-0.094623812 0.06654191 0.64100003 6402815
-0.093257144 0.066438094 0.64000005 6271231
-0.092038102 0.066438094 0.64000005 6336511
-0.090960957 0.06654191 0.64100003 3375839
-0.089740001 0.06654191 0.64100003 9937131
-0.086033337 0.064673334 0.62300003 15661055
-0.084846668 0.064673334 0.62300003 16711422
-0.083659999 0.064673334 0.62300003 16579836
-0.082340956 0.064569525 0.62200004 16448250
-0.081156194 0.064569525 0.62200004 16448250
-0.079971433 0.064569525 0.62200004 16448250
-0.078786671 0.064569525 0.62200004 16448250
-0.07760191 0.064569525 0.62200004 16448250
-0.076417148 0.064569525 0.62200004 16448250
-0.075232387 0.064569525 0.62200004 16448250
-0.07392858 0.064465716 0.62100005 16448250
-0.072628573 0.064361908 0.62 16448250
-0.071447626 0.064361908 0.62 16448250
-0.070266664 0.064361908 0.62 16448250
-0.068974286 0.064258099 0.61900002 16448250
-0.067795239 0.064258099 0.61900002 16448250
-0.066723809 0.064361908 0.62 16448250
-0.065754294 0.064569525 0.62200004 16448250
-0.064569525 0.064569525 0.62200004 16448250
-0.063384764 0.064569525 0.62200004 16448250
-0.0623 0.064673334 0.62300003 16448250
-0.06121143 0.064777143 0.62400001 16448250
-0.060022857 0.064777143 0.62400001 16711422
-0.058740001 0.064673334 0.62300003 16514043
-0.057553336 0.064673334 0.62300003 15987699
-0.056457143 0.064777143 0.62400001 13494268
-0.056774288 0.06654191 0.64100003 12244201
-0.055553336 0.06654191 0.64100003 9885439
-0.054417145 0.066645719 0.64200002 8964343
-0.053277142 0.066749521 0.64300001 7325183
-0.052052379 0.066749521 0.64300001 6930431
-0.050827619 0.066749521 0.64300001 6536191
-0.049602855 0.066749521 0.64300001 6601983
-0.048378095 0.066749521 0.64300001 6077183
-0.047153335 0.066749521 0.64300001 5945599
-0.045928571 0.066749521 0.64300001 5945087
-0.044634286 0.066645719 0.64200002 6076671
-0.043343812 0.06654191 0.64100003 6600959
-0.042057145 0.066438094 0.64000005 6732543
-0.0408381 0.066438094 0.64000005 6469887
-0.039619051 0.066438094 0.64000005 6535679
-0.038400002 0.066438094 0.64000005 6928895
-0.037180953 0.066438094 0.64000005 6863103
-0.035961907 0.066438094 0.64000005 6797567
-0.034742858 0.066438094 0.64000005 6863359
-0.03357619 0.06654191 0.64100003 6994175
-0.032304764 0.066438094 0.64000005 7257343
-0.031085717 0.066438094 0.64000005 7388927
-0.029913336 0.06654191 0.64100003 7717887
-0.02864762 0.066438094 0.64000005 8307455
-0.027428573 0.066438094 0.64000005 8504831
-0.026250478 0.06654191 0.64100003 10144255
-0.024990477 0.066438094 0.64000005 9157368
-0.023697143 0.066230476 0.63800001 6332159
-0.02241143 0.066022858 0.63600004 2976729
-0.021200001 0.066022858 0.63600004 3502553
-0.12129524 0.06765715 0.64000005 5603744
-0.1200762 0.06765715 0.64000005 7248569
-0.11885715 0.06765715 0.64000005 6597375
-0.1176381 0.06765715 0.64000005 6005247
-0.11660096 0.067762859 0.64100003 6072831
-0.11520001 0.06765715 0.64000005 5941247
-0.11398096 0.06765715 0.64000005 5285119
-0.11276191 0.06765715 0.64000005 5350911
-0.11171715 0.067762859 0.64100003 5285119
-0.11049619 0.067762859 0.64100003 5285119
-0.10927524 0.067762859 0.64100003 5482751
-0.1080543 0.067762859 0.64100003 5482751
-0.10683334 0.067762859 0.64100003 5351935
-0.10561238 0.067762859 0.64100003 5286143
-0.10439143 0.067762859 0.64100003 5483263
-0.10300954 0.06765715 0.64000005 5351679
-0.10179048 0.06765715 0.64000005 5220607
-0.10057143 0.06765715 0.64000005 6075903
-0.09935239 0.06765715 0.64000005 6797567
-0.09813334 0.06765715 0.64000005 6797567
-0.096914291 0.06765715 0.64000005 6534655
-0.095695242 0.06765715 0.64000005 6468863
-0.094476193 0.06765715 0.64000005 6534655
-0.093257144 0.06765715 0.64000005 6271487
-0.092038102 0.06765715 0.64000005 6336767
-0.090819053 0.06765715 0.64000005 2981335
-0.087219998 0.065859996 0.62300003 7245035
-0.086033337 0.065859996 0.62300003 14021631
-0.084710479 0.065754294 0.62200004 16711422
-0.083525717 0.065754294 0.62200004 16711422
-0.082208581 0.065648578 0.62100005 16514043
-0.08102572 0.065648578 0.62100005 16448250
-0.079842865 0.065648578 0.62100005 16448250
-0.078660011 0.065648578 0.62100005 16448250
-0.07747715 0.065648578 0.62100005 16448250
-0.076294295 0.065648578 0.62100005 16448250
-0.075111434 0.065648578 0.62100005 16448250
-0.073809519 0.065542854 0.62 16448250
-0.072511427 0.065437146 0.61900002 16448250
-0.07133238 0.065437146 0.61900002 16448250
-0.070153333 0.065437146 0.61900002 16448250
-0.068862855 0.065331437 0.61800003 16448250
-0.067685723 0.065331437 0.61800003 16448250
-0.066616185 0.065437146 0.61900002 16448250
-0.065542854 0.065542854 0.62 16448250
-0.064361908 0.065542854 0.62 16448250
-0.063282862 0.065648578 0.62100005 16448250
-0.062200006 0.065754294 0.62200004 16448250
-0.061015241 0.065754294 0.62200004 16448250
-0.05992667 0.065859996 0.62300003 16711422
-0.058740001 0.065859996 0.62300003 16579836
-0.057553336 0.065859996 0.62300003 15527148
-0.056457143 0.065965712 0.62400001 13625592
-0.056774288 0.067762859 0.64100003 12309732
-0.055206668 0.067340001 0.63700002 9557759
-0.053993333 0.067340001 0.63700002 8702457
-0.052862857 0.067445718 0.63800001 6997759
-0.051566668 0.067340001 0.63700002 6931967
-0.050353333 0.067340001 0.63700002 6734335
-0.049217142 0.067445718 0.63800001 6668543
-0.048001904 0.067445718 0.63800001 6274303
-0.046933334 0.06765715 0.64000005 6274303
-0.045571432 0.067445718 0.63800001 6273791
-0.04435619 0.067445718 0.63800001 6207999
-0.043140952 0.067445718 0.63800001 6339327
-0.041860003 0.067340001 0.63700002 6339327
-0.040646669 0.067340001 0.63700002 6142207
-0.039433334 0.067340001 0.63700002 6142207
-0.03822 0.067340001 0.63700002 6338815
-0.037006669 0.067340001 0.63700002 6404607
-0.035849527 0.067445718 0.63800001 6666751
-0.034634285 0.067445718 0.63800001 6864127
-0.033419047 0.067445718 0.63800001 7192063
-0.032203808 0.067445718 0.63800001 7586815
-0.030988572 0.067445718 0.63800001 7783423
-0.029866669 0.06765715 0.64000005 7783423
-0.028558096 0.067445718 0.63800001 7716863
-0.027342858 0.067445718 0.63800001 7782655
-0.02612762 0.067445718 0.63800001 9487103
-0.024834288 0.067234285 0.63600004 8566008
-0.023622857 0.067234285 0.63600004 6987007
-0.022340951 0.06702286 0.634 6394879
-0.021133333 0.06702286 0.634 6655727
-0.01983143 0.066705719 0.63100004 5800418
-0.018629525 0.066705719 0.63100004 8160702
-0.12072667 0.068553336 0.63700002 4947638
-0.11951334 0.068553336 0.63700002 6789842
-0.11830001 0.068553336 0.63700002 6138623
-0.11708666 0.068553336 0.63700002 5414911
-0.11587334 0.068553336 0.63700002 5810431
-0.11466 0.068553336 0.63700002 5744639
-0.11344667 0.068553336 0.63700002 5285631
-0.11223333 0.068553336 0.63700002 5219839
-0.11119429 0.068660952 0.63800001 5220351
-0.10997905 0.068660952 0.63800001 5286143
-0.10876381 0.068660952 0.63800001 5482751
-0.10754857 0.068660952 0.63800001 5219583
-0.10633333 0.068660952 0.63800001 4696575
-0.1051181 0.068660952 0.63800001 4696575
-0.10390285 0.068660952 0.63800001 4827903
-0.10268762 0.068660952 0.63800001 5091071
-0.10147239 0.068660952 0.63800001 5811967
-0.1001 0.068553336 0.63700002 6140927
-0.098886669 0.068553336 0.63700002 6338303
-0.097673342 0.068553336 0.63700002 6469887
-0.096157156 0.068338096 0.63500005 6469887
-0.094947629 0.068338096 0.63500005 6469887
-0.093738101 0.068338096 0.63500005 6797567
-0.092528574 0.068338096 0.63500005 6468607
-0.091319054 0.068338096 0.63500005 6664447
-0.090109527 0.068338096 0.63500005 3703773
-0.088900007 0.068338096 0.63500005 5669858
-0.08589524 0.066939048 0.62200004 12117503
-0.084574297 0.066831432 0.62100005 16514302
-0.083391435 0.066831432 0.62100005 16645887
-0.082208581 0.066831432 0.62100005 16645629
-0.080895238 0.066723809 0.62 16448250
-0.079714283 0.066723809 0.62 16448250
-0.078533329 0.066723809 0.62 16448250
-0.077352382 0.066723809 0.62 16448250
-0.076048575 0.066616185 0.61900002 16448250
-0.074869521 0.066616185 0.61900002 16448250
-0.073571429 0.066508569 0.61800003 16448250
-0.072394289 0.066508569 0.61800003 16448250
-0.071217142 0.066508569 0.61800003 16448250
-0.07004001 0.066508569 0.61800003 16448250
-0.068862855 0.066508569 0.61800003 16448250
-0.067685723 0.066508569 0.61800003 16448250
-0.066508569 0.066508569 0.61800003 16448250
-0.065437146 0.066616185 0.61900002 16448250
-0.064361908 0.066723809 0.62 16448250
-0.063180953 0.066723809 0.62 16448250
-0.062100001 0.066831432 0.62100005 16448250
-0.061015241 0.066939048 0.62200004 16514043
-0.05992667 0.067046665 0.62300003 16711422
-0.058740001 0.067046665 0.62300003 16645629
-0.057553336 0.067046665 0.62300003 15527148
-0.056457143 0.067154288 0.62400001 13428986
-0.055622861 0.067584768 0.62800002 12376298
-0.054946665 0.068230473 0.634 9558783
-0.053823814 0.068338096 0.63500005 8374514
-0.052697148 0.06844572 0.63600004 6801919
-0.051485714 0.06844572 0.63600004 6670335
-0.050274286 0.06844572 0.63600004 6734847
-0.049139999 0.068553336 0.63700002 6669055
-0.047926668 0.068553336 0.63700002 6275071
-0.046713337 0.068553336 0.63700002 6143487
-0.045500003 0.068553336 0.63700002 6274303
-0.044286668 0.068553336 0.63700002 6274303
-0.043073334 0.068553336 0.63700002 6339839
-0.041860003 0.068553336 0.63700002 6274047
-0.040646669 0.068553336 0.63700002 6142463
-0.039433334 0.068553336 0.63700002 5945087
-0.03822 0.068553336 0.63700002 6010879
-0.037006669 0.068553336 0.63700002 6208255
-0.035793334 0.068553336 0.63700002 6601727
-0.03458 0.068553336 0.63700002 6667519
-0.033366665 0.068553336 0.63700002 6667519
-0.032153334 0.068553336 0.63700002 7128063
-0.03094 0.068553336 0.63700002 7521535
-0.029773334 0.068660952 0.63800001 7455743
-0.028513335 0.068553336 0.63700002 7454719
-0.0273 0.068553336 0.63700002 7652095
-0.026086668 0.068553336 0.63700002 9421823
-0.024834288 0.06844572 0.63600004 8369144
-0.023622857 0.06844572 0.63600004 7774207
-0.022340951 0.068230473 0.634 7774207
-0.021133333 0.068230473 0.634 8626929
-0.01983143 0.067907616 0.63100004 7245276
-0.018629525 0.067907616 0.63100004 7965108
-0.12174857 0.069657147 0.63600004 8881526
-0.12053715 0.069657147 0.63600004 5080010
-0.11932572 0.069657147 0.63600004 6988007
-0.11811429 0.069657147 0.63600004 6073087
-0.11690287 0.069657147 0.63600004 5151998
-0.11569143 0.069657147 0.63600004 4826111
-0.11448001 0.069657147 0.63600004 5023487
-0.11326858 0.069657147 0.63600004 5286143
-0.11205714 0.069657147 0.63600004 5286143
-0.11084572 0.069657147 0.63600004 5286143
-0.10963429 0.069657147 0.63600004 5220351
-0.10859334 0.06976667 0.63700002 4958207
-0.10721143 0.069657147 0.63600004 4695039
-0.106 0.069657147 0.63600004 4434175
-0.10495333 0.06976667 0.63700002 4565759
-0.10374 0.06976667 0.63700002 4762367
-0.10236572 0.069657147 0.63600004 5222911
-0.10115429 0.069657147 0.63600004 5288191
-0.099942856 0.069657147 0.63600004 5485567
-0.098731436 0.069657147 0.63600004 6864383
-0.097366676 0.069547623 0.63500005 7456511
-0.096157156 0.069547623 0.63500005 7652607
-0.094947629 0.069547623 0.63500005 7126271
-0.093738101 0.069547623 0.63500005 6404607
-0.092528574 0.069547623 0.63500005 6009855
-0.091175236 0.0694381 0.634 6599423
-0.089967623 0.0694381 0.634 3967715
-0.088759996 0.0694381 0.634 6328054
-0.08589524 0.068123817 0.62200004 9683455
-0.084574297 0.068014294 0.62100005 14935011
-0.083391435 0.068014294 0.62100005 16711422
-0.082208581 0.068014294 0.62100005 16711422
-0.080895238 0.067904763 0.62 16514043
-0.079714283 0.067904763 0.62 16448250
-0.078406669 0.067795239 0.61900002 16448250
-0.077227622 0.067795239 0.61900002 16448250
-0.075925715 0.067685723 0.61800003 16448250
-0.074748576 0.067685723 0.61800003 16448250
-0.073571429 0.067685723 0.61800003 16448250
-0.072394289 0.067685723 0.61800003 16448250
-0.071217142 0.067685723 0.61800003 16448250
-0.07004001 0.067685723 0.61800003 16448250
-0.068862855 0.067685723 0.61800003 16448250
-0.067685723 0.067685723 0.61800003 16448250
-0.066508569 0.067685723 0.61800003 16448250
-0.065437146 0.067795239 0.61900002 16448250
-0.064258099 0.067795239 0.61900002 16448250
-0.063180953 0.067904763 0.62 16448250
-0.062100001 0.068014294 0.62100005 16514043
-0.061015241 0.068123817 0.62200004 16514043
-0.05992667 0.068233334 0.62300003 16711422
-0.058740001 0.068233334 0.62300003 16383227
-0.057553336 0.068233334 0.62300003 15396332
-0.056547619 0.068452381 0.625 13627389
-0.055622861 0.068780951 0.62800002 12443115
-0.054773334 0.069219045 0.63200003 9100799
-0.053739045 0.0694381 0.634 7850739
-0.052614287 0.069547623 0.63500005 6539775
-0.051485714 0.069657147 0.63600004 6473983
-0.050274286 0.069657147 0.63600004 6276351
-0.049062859 0.069657147 0.63600004 6342143
-0.047851432 0.069657147 0.63600004 6604031
-0.046640005 0.069657147 0.63600004 6472447
-0.045428574 0.069657147 0.63600004 6406399
-0.044217143 0.069657147 0.63600004 6340607
-0.042938098 0.069547623 0.63500005 6208767
-0.041728575 0.069547623 0.63500005 6142975
-0.040582858 0.069657147 0.63600004 6274815
-0.039371431 0.069657147 0.63600004 6274815
-0.03816 0.069657147 0.63600004 6340095
-0.036948573 0.069657147 0.63600004 6669055
-0.035737146 0.069657147 0.63600004 6865663
-0.034525715 0.069657147 0.63600004 7260415
-0.033314288 0.069657147 0.63600004 7982335
-0.032102857 0.069657147 0.63600004 8048127
-0.03089143 0.069657147 0.63600004 7785215
-0.029680001 0.069657147 0.63600004 7324671
-0.028468573 0.069657147 0.63600004 7455487
-0.027257143 0.069657147 0.63600004 7784447
-0.026045715 0.069657147 0.63600004 9422591
-0.024834288 0.069657147 0.63600004 8238324
-0.023622857 0.069657147 0.63600004 7052799
-0.02241143 0.069657147 0.63600004 6789631
-0.021200001 0.069657147 0.63600004 8364007
-0.020019999 0.06976667 0.63700002 8495593
-0.12276668 0.070757151 0.63500005 9014393
-0.12136571 0.070645712 0.634 9080186
-0.12015809 0.070645712 0.634 5409756
-0.1191381 0.070757151 0.63500005 6725616
-0.11792858 0.070757151 0.63500005 5941503
-0.11671905 0.070757151 0.63500005 5349375
-0.11550953 0.070757151 0.63500005 4366847
-0.11430001 0.070757151 0.63500005 4630015
-0.11309049 0.070757151 0.63500005 4958207
-0.11188096 0.070757151 0.63500005 4892415
-0.11067144 0.070757151 0.63500005 4434175
-0.10963429 0.070868574 0.63600004 4499967
-0.10842287 0.070868574 0.63600004 4434175
-0.10704286 0.070757151 0.63500005 4368383
-0.10583334 0.070757151 0.63500005 4237567
-0.10462382 0.070757151 0.63500005 4566527
-0.10357714 0.070868574 0.63600004 5090559
-0.10220477 0.070757151 0.63500005 5485311
-0.10099524 0.070757151 0.63500005 5879295
-0.099785723 0.070757151 0.63500005 6010879
-0.098576196 0.070757151 0.63500005 7126783
-0.097366676 0.070757151 0.63500005 7850495
-0.096157156 0.070757151 0.63500005 7784447
-0.094798096 0.070645712 0.634 7192318
-0.093590476 0.070645712 0.634 6405119
-0.092382856 0.070645712 0.634 6273535
-0.090887621 0.070422858 0.63200003 7321599
-0.089541912 0.070311435 0.63100004 5479407
-0.088339999 0.070311435 0.63100004 7443199
-0.08589524 0.069308572 0.62200004 10074879
-0.084574297 0.069197148 0.62100005 12305367
-0.083391435 0.069197148 0.62100005 15792383
-0.082208581 0.069197148 0.62100005 16711422
-0.080895238 0.069085717 0.62 16711422
-0.079585716 0.068974286 0.61900002 16514043
-0.078406669 0.068974286 0.61900002 16448250
-0.077102862 0.068862855 0.61800003 16448250
-0.075925715 0.068862855 0.61800003 16448250
-0.074506678 0.068640009 0.61600006 16448250
-0.073333338 0.068640009 0.61600006 16448250
-0.072160006 0.068640009 0.61600006 16448250
-0.070986666 0.068640009 0.61600006 16448250
-0.069813341 0.068640009 0.61600006 16448250
-0.068640009 0.068640009 0.61600006 16448250
-0.067466669 0.068640009 0.61600006 16448250
-0.066293344 0.068640009 0.61600006 16448250
-0.065331437 0.068862855 0.61800003 16448250
-0.064258099 0.068974286 0.61900002 16448250
-0.063180953 0.069085717 0.62 16448250
-0.062100001 0.069197148 0.62100005 16514043
-0.061015241 0.069308572 0.62200004 16514043
-0.05992667 0.069420002 0.62300003 16645629
-0.058740001 0.069420002 0.62300003 16317947
-0.057553336 0.069420002 0.62300003 15594224
-0.056547619 0.069642857 0.625 13366527
-0.05571143 0.070088573 0.62900001 11458530
-0.054686669 0.070311435 0.63100004 8249343
-0.053569525 0.070422858 0.63200003 7196663
-0.052531429 0.070645712 0.634 6540799
-0.051404767 0.070757151 0.63500005 6343423
-0.050195243 0.070757151 0.63500005 6145535
-0.04898572 0.070757151 0.63500005 6145535
-0.047776196 0.070757151 0.63500005 6145279
-0.046566669 0.070757151 0.63500005 6013695
-0.045285713 0.070645712 0.634 6144255
-0.044078097 0.070645712 0.634 6144255
-0.042870477 0.070645712 0.634 6144255
-0.041662857 0.070645712 0.634 6078463
-0.040455237 0.070645712 0.634 6209279
-0.039247617 0.070645712 0.634 6209279
-0.038040001 0.070645712 0.634 6143487
-0.036832381 0.070645712 0.634 6340863
-0.035624765 0.070645712 0.634 6471935
-0.034254286 0.070311435 0.63100004 7327231
-0.033052381 0.070311435 0.63100004 7655167
-0.031850476 0.070311435 0.63100004 7523583
-0.030697145 0.070422858 0.63200003 7457791
-0.029493336 0.070422858 0.63200003 7260415
-0.028289525 0.070422858 0.63200003 6996735
-0.027085714 0.070422858 0.63200003 7325695
-0.025963809 0.070645712 0.634 9358079
-0.02479524 0.070757151 0.63500005 7976433
-0.023585714 0.070757151 0.63500005 7053823
-0.02241143 0.070868574 0.63600004 6659071
-0.021200001 0.070868574 0.63600004 8494307
-0.12257333 0.071853332 0.634 8818045
-0.12136571 0.071853332 0.634 8949631
-0.12015809 0.071853332 0.634 5016812
-0.11895048 0.071853332 0.634 6530047
-0.11774285 0.071853332 0.634 6467839
-0.11671905 0.07196667 0.63500005 5875711
-0.11532762 0.071853332 0.634 4958207
-0.11412 0.071853332 0.634 4760831
-0.11291238 0.071853332 0.634 4302847
-0.11170476 0.071853332 0.634 4302847
-0.11049715 0.071853332 0.634 4302847
-0.10894477 0.071626663 0.63200003 4302847
-0.10774095 0.071626663 0.63200003 4565759
-0.10653715 0.071626663 0.63200003 4828927
-0.10533334 0.071626663 0.63200003 4894719
-0.10412953 0.071626663 0.63200003 4894719
-0.10325143 0.071853332 0.634 5288191
-0.10204381 0.071853332 0.634 5748735
-0.10083619 0.071853332 0.634 5945087
-0.099628568 0.071853332 0.634 6208255
-0.098420955 0.071853332 0.634 6733823
-0.097366676 0.07196667 0.63500005 8181247
-0.096005715 0.071853332 0.634 8573695
-0.094798096 0.071853332 0.634 7718394
-0.093590476 0.071853332 0.634 7128319
-0.092382856 0.071853332 0.634 7259903
-0.090887621 0.071626663 0.63200003 7323903
-0.089541912 0.07151334 0.63100004 5942260
-0.088339999 0.07151334 0.63100004 8170239
-0.08589524 0.07049334 0.62200004 8828159
-0.084574297 0.07038001 0.62100005 11252707
-0.083257139 0.070266664 0.62 14015999
-0.082076192 0.070266664 0.62 16514045
-0.080895238 0.070266664 0.62 16711423
-0.079585716 0.070153333 0.61900002 16579836
-0.078406669 0.070153333 0.61900002 16514043
-0.077102862 0.07004001 0.61800003 16448250
-0.075925715 0.07004001 0.61800003 16448250
-0.074506678 0.069813341 0.61600006 16448250
-0.073333338 0.069813341 0.61600006 16448250
-0.072160006 0.069813341 0.61600006 16448250
-0.070986666 0.069813341 0.61600006 16448250
-0.069813341 0.069813341 0.61600006 16448250
-0.068640009 0.069813341 0.61600006 16448250
-0.067466669 0.069813341 0.61600006 16448250
-0.066293344 0.069813341 0.61600006 16448250
-0.065331437 0.07004001 0.61800003 16448250
-0.064154282 0.07004001 0.61800003 16448250
-0.063180953 0.070266664 0.62 16448250
-0.061999999 0.070266664 0.62 16514043
-0.061015241 0.07049334 0.62200004 16514043
-0.05992667 0.070606664 0.62300003 16579836
-0.058740001 0.070606664 0.62300003 15924218
-0.057553336 0.070606664 0.62300003 15266288
-0.056547619 0.070833333 0.625 12514559
-0.05571143 0.071286663 0.62900001 10606562
-0.054686669 0.07151334 0.63100004 7592959
-0.053484764 0.07151334 0.63100004 6737657
-0.052365717 0.071626663 0.63200003 6278655
-0.051323809 0.071853332 0.634 6147071
-0.049958095 0.071626663 0.63200003 5555711
-0.048754286 0.071626663 0.63200003 5687295
-0.047700949 0.071853332 0.634 5817343
-0.046346668 0.071626663 0.63200003 5619967
-0.045142859 0.071626663 0.63200003 5620223
-0.04393905 0.071626663 0.63200003 5817599
-0.042735238 0.071626663 0.63200003 5948159
-0.041465715 0.07151334 0.63100004 5948159
-0.040263813 0.07151334 0.63100004 6144255
-0.039123811 0.071626663 0.63200003 6144255
-0.037860002 0.07151334 0.63100004 6144255
-0.036658097 0.07151334 0.63100004 6275839
-0.035400003 0.071400009 0.63000005 6604031
-0.034200002 0.071400009 0.63000005 7722495
-0.033 0.071400009 0.63000005 8180735
-0.031800002 0.071400009 0.63000005 7522812
-0.0306 0.071400009 0.63000005 7260927
-0.029400002 0.071400009 0.63000005 7326719
-0.028200002 0.071400009 0.63000005 6931967
-0.027042858 0.07151334 0.63100004 7260927
-0.025881905 0.071626663 0.63200003 8767999
-0.024756189 0.071853332 0.634 7188975
-0.023548571 0.071853332 0.634 7316223
-0.022340951 0.071853332 0.634 7908351
-0.021133333 0.071853332 0.634 9545444
-0.12257333 0.073060952 0.634 8490620
-0.12136571 0.073060952 0.634 8424827
-0.12015809 0.073060952 0.634 4689405
-0.11857525 0.072830476 0.63200003 6268415
-0.11737143 0.072830476 0.63200003 6336767
-0.11653524 0.073060952 0.634 5613055
-0.11496381 0.072830476 0.63200003 4696575
-0.11376 0.072830476 0.63200003 4367615
-0.11237811 0.072715245 0.63100004 4105727
-0.1111762 0.072715245 0.63100004 4368895
-0.10997429 0.072715245 0.63100004 4631039
-0.10877238 0.072715245 0.63100004 4762623
-0.10757048 0.072715245 0.63100004 5025279
-0.10636857 0.072715245 0.63100004 5025279
-0.10516667 0.072715245 0.63100004 4894975
-0.10396477 0.072715245 0.63100004 5158143
-0.10276286 0.072715245 0.63100004 6010879
-0.10172191 0.072830476 0.63200003 5945087
-0.1005181 0.072830476 0.63200003 5420799
-0.099628568 0.073060952 0.634 5683967
-0.098420955 0.073060952 0.634 6537727
-0.097213328 0.073060952 0.634 7853567
-0.095702864 0.072830476 0.63200003 8377343
-0.094499052 0.072830476 0.63200003 7785214
-0.093295246 0.072830476 0.63200003 6866943
-0.092091434 0.072830476 0.63200003 6735359
-0.090743817 0.072715245 0.63100004 6931455
-0.089400008 0.0726 0.63000005 5878777
-0.088059999 0.072484761 0.62900001 8433663
-0.086861908 0.072484761 0.62900001 8959999
-0.084574297 0.071562864 0.62100005 10793442
-0.083257139 0.071447626 0.62 13293567
-0.082076192 0.071447626 0.62 14869488
-0.080895238 0.071447626 0.62 16185343
-0.079585716 0.07133238 0.61900002 16711422
-0.078280002 0.071217142 0.61800003 16711422
-0.076853342 0.070986666 0.61600006 16514043
-0.075680003 0.070986666 0.61600006 16448250
-0.074506678 0.070986666 0.61600006 16448250
-0.073333338 0.070986666 0.61600006 16448250
-0.072160006 0.070986666 0.61600006 16448250
-0.070986666 0.070986666 0.61600006 16448250
-0.069813341 0.070986666 0.61600006 16448250
-0.068640009 0.070986666 0.61600006 16448250
-0.067466669 0.070986666 0.61600006 16448250
-0.066293344 0.070986666 0.61600006 16448250
-0.065331437 0.071217142 0.61800003 16448250
-0.064154282 0.071217142 0.61800003 16448250
-0.063180953 0.071447626 0.62 16514043
-0.061999999 0.071447626 0.62 16645629
-0.061015241 0.071678095 0.62200004 16514043
-0.060022857 0.071908571 0.62400001 16514043
-0.058834285 0.071908571 0.62400001 15531261
-0.057645712 0.071908571 0.62400001 14741745
-0.056728572 0.072254293 0.62700003 11597311
-0.05571143 0.072484761 0.62900001 9886697
-0.054600004 0.0726 0.63000005 7068415
-0.053484764 0.072715245 0.63100004 6476286
-0.052282859 0.072715245 0.63100004 6607615
-0.051161904 0.072830476 0.63200003 6344447
-0.049879052 0.072715245 0.63100004 5687295
-0.048677146 0.072715245 0.63100004 5621503
-0.047550477 0.072830476 0.63200003 5620991
-0.046273336 0.072715245 0.63100004 5423615
-0.045071434 0.072715245 0.63100004 5226751
-0.043869525 0.072715245 0.63100004 5555711
-0.04266762 0.072715245 0.63100004 6079231
