# .PCD v0.7 - Point Cloud Data file format
VERSION 0.7
FIELDS x y z rgb
SIZE 4 4 4 4
TYPE F F F F
COUNT 1 1 1 1
WIDTH 992
HEIGHT 1
VIEWPOINT 0 0 0 1 0 0 0
POINTS 992
DATA ascii
-0.1270238 -0.094505712 1.067 1.7238049e-38
-0.12452286 -0.094151437 1.0630001 1.7145851e-38
-0.12249811 -0.094151437 1.0630001 1.6684873e-38
-0.12047334 -0.094151437 1.0630001 1.6591974e-38
-0.11844858 -0.094151437 1.0630001 1.6499778e-38
-0.11609524 -0.09388572 1.0600001 1.6315017e-38
-0.1140762 -0.09388572 1.0600001 1.6315017e-38
-0.11205714 -0.09388572 1.0600001 1.613062e-38
-0.10972667 -0.093620002 1.057 1.6038424e-38
-0.10740761 -0.093354285 1.054 1.613061e-38
-0.105 -0.09300001 1.0500001 1.6222806e-38
-0.10300001 -0.09300001 1.0500001 1.6314282e-38
-0.10071143 -0.092734285 1.0470001 1.6683065e-38
-0.098717146 -0.092734285 1.0470001 1.7605374e-38
-0.096722864 -0.092734285 1.0470001 1.8066353e-38
-0.091109529 -0.089191437 1.0070001 1.6590544e-38
-0.089191437 -0.089191437 1.0070001 1.4746632e-38
-0.087793328 -0.089722857 1.013 1.5300852e-38
-0.085863806 -0.089722857 1.013 1.7974525e-38
-0.1764943 -0.09074001 1.0470001 1.5116808e-38
-0.1745 -0.09074001 1.0470001 1.5298711e-38
-0.17250572 -0.09074001 1.0470001 1.5483102e-38
-0.17051142 -0.09074001 1.0470001 1.5116831e-38
-0.16851714 -0.09074001 1.0470001 1.5670005e-38
-0.16700001 -0.091000006 1.0500001 1.5578165e-38
-0.16500001 -0.091000006 1.0500001 1.6039143e-38
-0.163 -0.091000006 1.0500001 1.6130623e-38
-0.16161333 -0.091346666 1.054 1.640721e-38
-0.15960571 -0.091346666 1.054 1.6222818e-38
-0.15804666 -0.091606669 1.057 1.6683796e-38
-0.15603334 -0.091606669 1.057 1.6683796e-38
-0.15445715 -0.091866672 1.0600001 1.6960383e-38
-0.1524381 -0.091866672 1.0600001 1.6868541e-38
-0.15084477 -0.092126675 1.0630001 1.7145128e-38
-0.14882001 -0.092126675 1.0630001 1.696146e-38
-0.14679524 -0.092126675 1.0630001 1.7053655e-38
-0.14477049 -0.092126675 1.0630001 1.6961465e-38
-0.14274572 -0.092126675 1.0630001 1.7145856e-38
-0.14125048 -0.092473336 1.067 1.71455e-38
-0.13921809 -0.092473336 1.067 1.7422087e-38
-0.13718571 -0.092473336 1.067 1.7514639e-38
-0.13553335 -0.092733338 1.0700001 1.7606835e-38
-0.13349526 -0.092733338 1.0700001 1.7330608e-38
-0.13145715 -0.092733338 1.0700001 1.7238412e-38
-0.12941904 -0.092733338 1.0700001 1.6961099e-38
-0.1270238 -0.092473336 1.067 1.6961099e-38
-0.12452286 -0.092126675 1.0630001 1.6961099e-38
-0.12249811 -0.092126675 1.0630001 1.6684513e-38
-0.12047334 -0.092126675 1.0630001 1.6499768e-38
-0.11844858 -0.092126675 1.0630001 1.6499768e-38
-0.11642382 -0.092126675 1.0630001 1.6222816e-38
-0.1140762 -0.091866672 1.0600001 1.6222816e-38
-0.11205714 -0.091866672 1.0600001 1.6222455e-38
-0.1100381 -0.091866672 1.0600001 1.6222455e-38
-0.10740761 -0.091346666 1.054 1.6406481e-38
-0.1001 -0.086753339 1.001 1.6683068e-38
-0.09819334 -0.086753339 1.001 1.7234825e-38
-0.096286669 -0.086753339 1.001 1.7603607e-38
-0.09466286 -0.087013341 1.0040001 1.7974172e-38
-0.092750482 -0.087013341 1.0040001 1.7697585e-38
-0.091109529 -0.087273337 1.0070001 1.5396673e-38
-0.089191437 -0.087273337 1.0070001 1.3183978e-38
-0.087533325 -0.087533325 1.01 1.3828954e-38
-0.085863806 -0.087793328 1.013 1.6871409e-38
-0.16924572 -0.085100956 1.0040001 1.4472155e-38
-0.16683334 -0.084846668 1.001 1.5483102e-38
-0.16443239 -0.08459238 0.99800003 1.6312863e-38
-0.17100002 -0.089000002 1.0500001 1.6222092e-38
-0.16900001 -0.089000002 1.0500001 1.6406484e-38
-0.16700001 -0.089000002 1.0500001 1.6038777e-38
-0.16562857 -0.089339048 1.054 1.6223169e-38
-0.16362095 -0.089339048 1.054 1.6222099e-38
-0.16161333 -0.089339048 1.054 1.6406491e-38
-0.16006 -0.089593336 1.057 1.6314661e-38
-0.15804666 -0.089593336 1.057 1.6591248e-38
-0.15603334 -0.089593336 1.057 1.6683799e-38
-0.15445715 -0.089847624 1.0600001 1.6868191e-38
-0.15286954 -0.090101913 1.0630001 1.6591951e-38
-0.15084477 -0.090101913 1.0630001 1.6684147e-38
-0.14882001 -0.090101913 1.0630001 1.6684157e-38
-0.14679524 -0.090101913 1.0630001 1.6776352e-38
-0.14477049 -0.090101913 1.0630001 1.6776002e-38
-0.14274572 -0.090101913 1.0630001 1.7052589e-38
-0.14125048 -0.090440959 1.067 1.6868563e-38
-0.13921809 -0.090440959 1.067 1.714515e-38
-0.13718571 -0.090440959 1.067 1.7053661e-38
-0.13515334 -0.090440959 1.067 1.7053661e-38
-0.13312095 -0.090440959 1.067 1.7053295e-38
-0.13108857 -0.090440959 1.067 1.7053295e-38
-0.12905619 -0.090440959 1.067 1.7053292e-38
-0.12738095 -0.09069524 1.0700001 1.7145488e-38
-0.12499142 -0.090440959 1.067 1.7144772e-38
-0.12295906 -0.090440959 1.067 1.7236967e-38
-0.12092667 -0.090440959 1.067 1.7421361e-38
-0.11889429 -0.090440959 1.067 1.7697948e-38
-0.11642382 -0.090101913 1.0630001 1.8158208e-38
-0.1140762 -0.089847624 1.0600001 1.8434795e-38
-0.11205714 -0.089847624 1.0600001 1.8528072e-38
-0.10360191 -0.08459238 0.99800003 1.8712463e-38
-0.10170095 -0.08459238 0.99800003 1.83444e-38
-0.099799998 -0.08459238 0.99800003 1.83444e-38
-0.09789905 -0.08459238 0.99800003 1.7144812e-38
-0.096286669 -0.084846668 1.001 1.6683834e-38
-0.094380006 -0.084846668 1.001 1.4104146e-38
-0.092750482 -0.085100956 1.0040001 1.1983647e-38
-0.090838097 -0.085100956 1.0040001 1.0792271e-38
-0.089191437 -0.085355245 1.0070001 8.579576e-39
-0.087533325 -0.085609525 1.01 1.189429e-38
-0.085863806 -0.085863806 1.013 1.6688463e-38
-0.17166954 -0.083437152 1.0070001 1.0879069e-38
-0.16924572 -0.083188578 1.0040001 1.170883e-38
-0.16683334 -0.082940005 1.001 1.4193752e-38
-0.16443239 -0.082691431 0.99800003 1.6314252e-38
-0.16253144 -0.082691431 0.99800003 1.64072e-38
-0.16964382 -0.087331429 1.054 1.6499395e-38
-0.1676362 -0.087331429 1.054 1.6315367e-38
-0.16562857 -0.087331429 1.054 1.6407563e-38
-0.16362095 -0.087331429 1.054 1.6406496e-38
-0.16161333 -0.087331429 1.054 1.6775279e-38
-0.16006 -0.087580003 1.057 1.6591251e-38
-0.15804666 -0.087580003 1.057 1.6775642e-38
-0.15603334 -0.087580003 1.057 1.6776358e-38
-0.15489429 -0.08807715 1.0630001 1.6868553e-38
-0.15286954 -0.08807715 1.0630001 1.668415e-38
-0.15141238 -0.088408574 1.067 1.6776345e-38
-0.14882001 -0.08807715 1.0630001 1.6683794e-38
-0.14679524 -0.08807715 1.0630001 1.6868185e-38
-0.14477049 -0.08807715 1.0630001 1.6776355e-38
-0.14274572 -0.08807715 1.0630001 1.6960746e-38
-0.14125048 -0.088408574 1.067 1.6868553e-38
-0.13921809 -0.088408574 1.067 1.7052945e-38
-0.13718571 -0.088408574 1.067 1.7052939e-38
-0.13515334 -0.088408574 1.067 1.7052939e-38
-0.13312095 -0.088408574 1.067 1.6868904e-38
-0.13108857 -0.088408574 1.067 1.7329882e-38
-0.12905619 -0.088408574 1.067 1.7789431e-38
-0.12738095 -0.088657148 1.0700001 1.7973822e-38
-0.12499142 -0.088408574 1.067 1.8157857e-38
-0.12295906 -0.088408574 1.067 1.8434444e-38
-0.12126668 -0.088657148 1.0700001 1.8527006e-38
-0.11053714 -0.082194284 0.99200004 1.8711397e-38
-0.10864762 -0.082194284 0.99200004 1.8712103e-38
-0.1067581 -0.082194284 0.99200004 1.8896494e-38
-0.10518572 -0.082442857 0.99500006 1.9357845e-38
-0.10329048 -0.082442857 0.99500006 1.8896867e-38
-0.10139524 -0.082442857 0.99500006 1.8161445e-38
-0.099799998 -0.082691431 0.99800003 1.6870706e-38
-0.09789905 -0.082691431 0.99800003 1.5767941e-38
-0.096286669 -0.082940005 1.001 1.5399159e-38
-0.094380006 -0.082940005 1.001 1.1530234e-38
-0.092750482 -0.083188578 1.0040001 1.01473e-38
-0.090838097 -0.083188578 1.0040001 1.0149425e-38
-0.088925719 -0.083188578 1.0040001 8.1211216e-39
-0.087533325 -0.083685718 1.01 1.2261981e-38
-0.17115811 -0.081276193 1.0040001 1.1064204e-38
-0.16874 -0.081033342 1.001 4.9792927e-39
-0.16683334 -0.081033342 1.001 6.6384357e-39
-0.16443239 -0.080790475 0.99800003 1.1709195e-38
-0.16204286 -0.080547623 0.99500006 1.4009392e-38
-0.16014764 -0.080547623 0.99500006 1.5392326e-38
-0.15825239 -0.080547623 0.99500006 1.6591222e-38
-0.16610001 -0.08556667 1.057 1.7052201e-38
-0.16408667 -0.08556667 1.057 1.68682e-38
-0.16207333 -0.08556667 1.057 1.7421374e-38
-0.16006 -0.08556667 1.057 1.7238412e-38
-0.15849525 -0.085809529 1.0600001 1.7791586e-38
-0.15647618 -0.085809529 1.0600001 1.7974898e-38
-0.15547715 -0.08637619 1.067 1.8251485e-38
-0.15344477 -0.08637619 1.067 1.8251125e-38
-0.15141238 -0.08637619 1.067 1.8712103e-38
-0.14938 -0.08637619 1.067 1.8620981e-38
-0.14679524 -0.086052381 1.0630001 1.8805372e-38
-0.13442001 -0.079900004 0.98700005 1.898905e-38
-0.13254 -0.079900004 0.98700005 1.9265637e-38
-0.14125048 -0.08637619 1.067 1.9357833e-38
-0.13921809 -0.08637619 1.067 1.9726615e-38
-0.13718571 -0.08637619 1.067 2.0003921e-38
-0.13515334 -0.08637619 1.067 2.0280508e-38
-0.13312095 -0.08637619 1.067 2.0280868e-38
-0.12089143 -0.079657145 0.98400003 2.0557455e-38
-0.11901715 -0.079657145 0.98400003 2.0189395e-38
-0.11750001 -0.079900004 0.98700005 2.00972e-38
-0.11562001 -0.079900004 0.98700005 1.9820618e-38
-0.11374 -0.079900004 0.98700005 1.9820618e-38
-0.11186 -0.079900004 0.98700005 1.8438773e-38
-0.10998 -0.079900004 0.98700005 1.6963643e-38
-0.10864762 -0.080304772 0.99200004 1.585838e-38
-0.1067581 -0.080304772 0.99200004 1.6042771e-38
-0.10518572 -0.080547623 0.99500006 1.7237356e-38
-0.10329048 -0.080547623 0.99500006 1.7421747e-38
-0.10139524 -0.080547623 0.99500006 1.5209761e-38
-0.099799998 -0.080790475 0.99800003 9.7702186e-39
-0.09819334 -0.081033342 1.001 1.0509245e-38
-0.096286669 -0.081033342 1.001 1.6409766e-38
-0.09466286 -0.081276193 1.0040001 1.6133869e-38
-0.092750482 -0.081276193 1.0040001 1.4289957e-38
-0.090838097 -0.081276193 1.0040001 1.1162505e-38
-0.088925719 -0.081276193 1.0040001 7.751267e-39
-0.17358764 -0.07960096 1.0070001 1.5668212e-38
-0.17115811 -0.079363815 1.0040001 1.1431542e-38
-0.16874 -0.079126664 1.001 4.1480873e-39
-0.16683334 -0.079126664 1.001 2.8734466e-39
-0.16443239 -0.078889519 0.99800003 8.8661499e-39
-0.16204286 -0.078652389 0.99500006 1.1708832e-38
-0.15966477 -0.078415245 0.99200004 1.2446397e-38
-0.15777524 -0.078415245 0.99200004 1.4563258e-38
-0.15541428 -0.0781781 0.98900002 1.6038388e-38
-0.15322001 -0.078020006 0.98700005 1.5119017e-38
-0.15134001 -0.078020006 0.98700005 1.4750234e-38
-0.16096859 -0.084027618 1.0630001 1.530338e-38
-0.15849525 -0.083790481 1.0600001 1.6133141e-38
-0.14569999 -0.078020006 0.98700005 1.7329501e-38
-0.14382 -0.078020006 0.98700005 1.8343653e-38
-0.14194 -0.078020006 0.98700005 1.8160371e-38
-0.14006001 -0.078020006 0.98700005 1.8436958e-38
-0.13818 -0.078020006 0.98700005 1.8622053e-38
-0.1363 -0.078020006 0.98700005 1.889864e-38
-0.13442001 -0.078020006 0.98700005 1.9266e-38
-0.13213715 -0.077782862 0.98400003 1.9266e-38
-0.13026285 -0.077782862 0.98400003 1.9818448e-38
-0.13921809 -0.084343813 1.067 1.9910644e-38
-0.13718571 -0.084343813 1.067 2.0925509e-38
-0.13515334 -0.084343813 1.067 2.1017704e-38
-0.12276572 -0.077782862 0.98400003 2.0650026e-38
-0.12089143 -0.077782862 0.98400003 2.0096852e-38
-0.11901715 -0.077782862 0.98400003 1.8992653e-38
-0.11750001 -0.078020006 0.98700005 1.8255088e-38
-0.11562001 -0.078020006 0.98700005 1.816324e-38
-0.11374 -0.078020006 0.98700005 1.8624218e-38
-0.11186 -0.078020006 0.98700005 1.7336391e-38
-0.10998 -0.078020006 0.98700005 1.5215891e-38
-0.10864762 -0.078415245 0.99200004 1.1904752e-38
-0.10708096 -0.078652389 0.99500006 1.3656469e-38
-0.10518572 -0.078652389 0.99500006 1.6686343e-38
-0.10329048 -0.078652389 0.99500006 1.5211213e-38
-0.10139524 -0.078652389 0.99500006 1.5023181e-38
-0.099799998 -0.078889519 0.99800003 9.9524211e-39
-0.09789905 -0.078889519 0.99800003 1.0876484e-38
-0.096286669 -0.079126664 1.001 1.5762852e-38
-0.09466286 -0.079363815 1.0040001 1.7513557e-38
-0.092473343 -0.079126664 1.001 1.5577449e-38
-0.090566665 -0.079126664 1.001 1.2358881e-38
-0.088925719 -0.079363815 1.0040001 8.6710555e-39
-0.17358764 -0.077682868 1.0070001 1.5576004e-38
-0.17115811 -0.07745143 1.0040001 1.281518e-38
-0.16924572 -0.07745143 1.0040001 4.5175733e-39
-0.16683334 -0.07722 1.001 5.9977354e-39
-0.16443239 -0.076988578 0.99800003 1.1621669e-38
-0.16204286 -0.076757148 0.99500006 1.2077602e-38
-0.15966477 -0.076525718 0.99200004 8.4819727e-39
-0.15777524 -0.076525718 0.99200004 1.059886e-38
-0.15541428 -0.076294288 0.98900002 1.4839859e-38
-0.15322001 -0.076140001 0.98700005 1.4011938e-38
-0.15134001 -0.076140001 0.98700005 1.0139721e-38
-0.16096859 -0.082002863 1.0630001 8.575976e-39
-0.14758001 -0.076140001 0.98700005 7.2852372e-39
-0.14569999 -0.076140001 0.98700005 1.0783977e-38
-0.14382 -0.076140001 0.98700005 1.5854736e-38
-0.14194 -0.076140001 0.98700005 1.6779216e-38
-0.14006001 -0.076140001 0.98700005 1.6041651e-38
-0.13818 -0.076140001 0.98700005 1.5857633e-38
-0.1363 -0.076140001 0.98700005 1.696398e-38
-0.13442001 -0.076140001 0.98700005 1.66881e-38
-0.13213715 -0.075908571 0.98400003 1.4659796e-38
-0.13026285 -0.075908571 0.98400003 1.4291026e-38
-0.12838857 -0.075908571 0.98400003 1.3553461e-38
-0.12651429 -0.075908571 0.98400003 1.5117565e-38
-0.12464001 -0.075908571 0.98400003 1.8897586e-38
-0.12276572 -0.075908571 0.98400003 1.8623154e-38
-0.12089143 -0.075908571 0.98400003 1.5396307e-38
-0.11901715 -0.075908571 0.98400003 1.0797341e-38
-0.11750001 -0.076140001 0.98700005 8.4924502e-39
-0.11562001 -0.076140001 0.98700005 1.1530584e-38
-0.11374 -0.076140001 0.98700005 1.7246713e-38
-0.11186 -0.076140001 0.98700005 1.8532764e-38
-0.10998 -0.076140001 0.98700005 1.7610807e-38
-0.10864762 -0.076525718 0.99200004 1.7520391e-38
-0.10708096 -0.076757148 0.99500006 1.8534543e-38
-0.10486858 -0.076525718 0.99200004 1.7608659e-38
-0.10297905 -0.076525718 0.99200004 1.3275464e-38
-0.10139524 -0.076757148 0.99500006 1.1155661e-38
-0.099799998 -0.076988578 0.99800003 1.0049314e-38
-0.09789905 -0.076988578 0.99800003 1.032515e-38
-0.095998101 -0.076988578 0.99800003 1.1708084e-38
-0.09466286 -0.07745143 1.0040001 1.4656544e-38
-0.092473343 -0.07722 1.001 1.5394109e-38
-0.090566665 -0.07722 1.001 1.2634373e-38
-0.088925719 -0.07745143 1.0040001 8.8543524e-39
-0.17358764 -0.075764768 1.0070001 1.6035553e-38
-0.17115811 -0.075539045 1.0040001 1.3920105e-38
-0.16924572 -0.075539045 1.0040001 5.4381072e-39
-0.16683334 -0.075313337 1.001 6.4565093e-39
-0.16443239 -0.075087622 0.99800003 1.2449225e-38
-0.16204286 -0.074861906 0.99500006 1.2077615e-38
-0.16014764 -0.074861906 0.99500006 7.0068553e-39
-0.15777524 -0.074636191 0.99200004 8.0176735e-39
-0.15588573 -0.074636191 0.99200004 1.3457216e-38
-0.15353048 -0.074410483 0.98900002 1.4933865e-38
-0.15164667 -0.074410483 0.98900002 1.1430431e-38
-0.14976287 -0.074410483 0.98900002 9.3124621e-39
-0.14758001 -0.074260004 0.98700005 9.0358752e-39
-0.14569999 -0.074260004 0.98700005 1.0144356e-38
-0.14382 -0.074260004 0.98700005 1.5491702e-38
-0.14194 -0.074260004 0.98700005 1.6595929e-38
-0.14006001 -0.074260004 0.98700005 1.4844212e-38
-0.13818 -0.074260004 0.98700005 1.4844538e-38
-0.1363 -0.074260004 0.98700005 1.6319668e-38
-0.13442001 -0.074260004 0.98700005 1.6596999e-38
-0.13213715 -0.074034289 0.98400003 1.4384304e-38
-0.13026285 -0.074034289 0.98400003 1.3006048e-38
-0.12838857 -0.074034289 0.98400003 1.2452874e-38
-0.12651429 -0.074034289 0.98400003 1.4750935e-38
-0.12464001 -0.074034289 0.98400003 1.8991934e-38
-0.12276572 -0.074034289 0.98400003 1.8716429e-38
-0.12089143 -0.074034289 0.98400003 1.3184691e-38
-0.11938 -0.074260004 0.98700005 9.1446314e-39
-0.11750001 -0.074260004 0.98700005 5.733393e-39
-0.11585429 -0.074410483 0.98900002 9.4175931e-39
-0.11397048 -0.074410483 0.98900002 1.4396157e-38
-0.11208667 -0.074410483 0.98900002 1.880859e-38
-0.11053714 -0.074636191 0.99200004 1.8992981e-38
-0.10864762 -0.074636191 0.99200004 1.9359647e-38
-0.10708096 -0.074861906 0.99500006 1.9451843e-38
-0.10486858 -0.074636191 0.99200004 1.7333492e-38
-0.10297905 -0.074636191 0.99200004 1.1340776e-38
-0.10139524 -0.074861906 0.99500006 9.7763087e-39
-0.099799998 -0.075087622 0.99800003 1.0145091e-38
-0.09789905 -0.075087622 0.99800003 1.0050731e-38
-0.095998101 -0.075087622 0.99800003 9.8663393e-39
-0.09466286 -0.075539045 1.0040001 1.2907e-38
-0.092750482 -0.075539045 1.0040001 1.4843108e-38
-0.090838097 -0.075539045 1.0040001 1.1529849e-38
-0.088925719 -0.075539045 1.0040001 9.5015449e-39
-0.085609525 -0.075990476 1.01 1.6226771e-38
-0.17358764 -0.073846675 1.0070001 1.6865316e-38
-0.17115811 -0.073626675 1.0040001 1.502537e-38
-0.16924572 -0.073626675 1.0040001 6.6355672e-39
-0.16683334 -0.073406667 1.001 5.535639e-39
-0.16443239 -0.073186666 0.99800003 1.0329812e-38
-0.16253144 -0.073186666 0.99800003 1.069536e-38
-0.16014764 -0.072966672 0.99500006 6.9153393e-39
-0.15777524 -0.072746672 0.99200004 7.2819904e-39
-0.15588573 -0.072746672 0.99200004 9.6790768e-39
-0.15353048 -0.072526664 0.98900002 1.2444217e-38
-0.15164667 -0.072526664 0.98900002 1.6500825e-38
-0.14976287 -0.072526664 0.98900002 1.6132421e-38
-0.14787905 -0.072526664 0.98900002 1.6132421e-38
-0.14569999 -0.072379999 0.98700005 1.7240204e-38
-0.14382 -0.072379999 0.98700005 1.8069965e-38
-0.14194 -0.072379999 0.98700005 1.5861611e-38
-0.14006001 -0.072379999 0.98700005 1.355672e-38
-0.13818 -0.072379999 0.98700005 1.2639777e-38
-0.13588572 -0.072160006 0.98400003 1.4207102e-38
-0.13401143 -0.072160006 0.98400003 1.5769418e-38
-0.13213715 -0.072160006 0.98400003 1.7705527e-38
-0.13026285 -0.072160006 0.98400003 1.8163605e-38
-0.12838857 -0.072160006 0.98400003 1.8440192e-38
-0.12651429 -0.072160006 0.98400003 1.8623177e-38
-0.12464001 -0.072160006 0.98400003 1.834659e-38
-0.12276572 -0.072160006 0.98400003 1.5312731e-38
-0.12089143 -0.072160006 0.98400003 1.0241971e-38
-0.11901715 -0.072160006 0.98400003 6.1115545e-39
-0.11750001 -0.072379999 0.98700005 6.1115545e-39
-0.11585429 -0.072526664 0.98900002 8.1322899e-39
-0.11397048 -0.072526664 0.98900002 7.6713118e-39
-0.11208667 -0.072526664 0.98900002 1.2086538e-38
-0.11053714 -0.072746672 0.99200004 1.7157298e-38
-0.10864762 -0.072746672 0.99200004 1.8808271e-38
-0.10708096 -0.072966672 0.99500006 1.6595576e-38
-0.10518572 -0.072966672 0.99500006 1.4291364e-38
-0.10329048 -0.072966672 0.99500006 1.0511343e-38
-0.10139524 -0.072966672 0.99500006 1.0419185e-38
-0.099799998 -0.073186666 0.99800003 1.0880163e-38
-0.09789905 -0.073186666 0.99800003 1.0234421e-38
-0.096286669 -0.073406667 1.001 9.8656386e-39
-0.09466286 -0.073626675 1.0040001 1.3091757e-38
-0.092750482 -0.073626675 1.0040001 1.5120061e-38
-0.090838097 -0.073626675 1.0040001 1.2355659e-38
-0.088925719 -0.073626675 1.0040001 1.023516e-38
-0.087533325 -0.074066661 1.01 1.2446751e-38
-0.085609525 -0.074066661 1.01 1.6226771e-38
-0.17358764 -0.071928583 1.0070001 1.6590159e-38
-0.17166954 -0.071928583 1.0070001 1.5119364e-38
-0.16924572 -0.071714289 1.0040001 7.0983446e-39
-0.16733335 -0.071714289 1.0040001 4.2445218e-39
-0.16492666 -0.071500003 1.001 8.6699051e-39
-0.16253144 -0.07128571 0.99800003 9.5865308e-39
-0.16063048 -0.07128571 0.99800003 8.295792e-39
-0.15777524 -0.070857145 0.99200004 7.7436944e-39
-0.15588573 -0.070857145 0.99200004 7.9280857e-39
-0.1539962 -0.070857145 0.99200004 1.0321187e-38
-0.15164667 -0.070642859 0.98900002 1.5484142e-38
-0.14976287 -0.070642859 0.98900002 1.6776342e-38
-0.14787905 -0.070642859 0.98900002 1.8343668e-38
-0.14599523 -0.070642859 0.98900002 1.7150911e-38
-0.14411142 -0.070642859 0.98900002 1.6505541e-38
-0.14194 -0.070500001 0.98700005 1.3653961e-38
-0.14006001 -0.070500001 0.98700005 1.1902244e-38
-0.13818 -0.070500001 0.98700005 1.0158786e-38
-0.13588572 -0.070285715 0.98400003 1.0804155e-38
-0.13401143 -0.070285715 0.98400003 1.4848526e-38
-0.13213715 -0.070285715 0.98400003 1.7061221e-38
-0.13026285 -0.070285715 0.98400003 1.9083048e-38
-0.12838857 -0.070285715 0.98400003 2.0558178e-38
-0.12651429 -0.070285715 0.98400003 1.9180294e-38
-0.12464001 -0.070285715 0.98400003 1.4478317e-38
-0.12276572 -0.070285715 0.98400003 1.043466e-38
-0.12089143 -0.070285715 0.98400003 7.3922039e-39
-0.11901715 -0.070285715 0.98400003 5.2853937e-39
-0.11750001 -0.070500001 0.98700005 6.20735e-39
-0.11585429 -0.070642859 0.98900002 6.480337e-39
-0.1143162 -0.070857145 0.99200004 3.8988593e-39
-0.11242667 -0.070857145 0.99200004 5.4639472e-39
-0.11053714 -0.070857145 0.99200004 1.3669358e-38
-0.1089762 -0.071071438 0.99500006 1.7982842e-38
-0.10708096 -0.071071438 0.99500006 1.5401365e-38
-0.10518572 -0.071071438 0.99500006 1.1436912e-38
-0.10329048 -0.071071438 0.99500006 1.0053977e-38
-0.10139524 -0.071071438 0.99500006 1.1156022e-38
-0.099799998 -0.07128571 0.99800003 1.1063826e-38
-0.09819334 -0.071500003 1.001 9.8656358e-39
-0.096286669 -0.071500003 1.001 1.1064179e-38
-0.094945721 -0.071928583 1.0070001 1.3459836e-38
-0.093027629 -0.071928583 1.0070001 1.4934966e-38
-0.091109529 -0.071928583 1.0070001 1.2725515e-38
-0.089191437 -0.071928583 1.0070001 1.0973798e-38
-0.087533325 -0.072142854 1.01 1.263006e-38
-0.085609525 -0.072142854 1.01 1.6133494e-38
-0.17166954 -0.070010483 1.0070001 1.5395225e-38
-0.16975144 -0.070010483 1.0070001 9.8634877e-39
-0.16733335 -0.069801912 1.0040001 6.5490791e-39
-0.16542096 -0.069801912 1.0040001 8.4851873e-39
-0.16350858 -0.069801912 1.0040001 9.310667e-39
-0.16063048 -0.069384769 0.99800003 7.9277326e-39
-0.15872952 -0.069384769 0.99800003 7.5607703e-39
-0.15588573 -0.068967618 0.99200004 7.9295528e-39
-0.1539962 -0.068967618 0.99200004 8.2950829e-39
-0.15210667 -0.068967618 0.99200004 1.1060952e-38
-0.15021715 -0.068967618 0.99200004 1.4194505e-38
-0.14832762 -0.068967618 0.99200004 1.8619895e-38
-0.14599523 -0.068759046 0.98900002 1.6689194e-38
-0.14411142 -0.068759046 0.98900002 1.3462347e-38
-0.14222762 -0.068759046 0.98900002 1.1168985e-38
-0.14006001 -0.068620004 0.98700005 1.1353376e-38
-0.13818 -0.068620004 0.98700005 1.0986764e-38
-0.1363 -0.068620004 0.98700005 1.0894569e-38
-0.13442001 -0.068620004 0.98700005 1.2456121e-38
-0.13213715 -0.068411432 0.98400003 1.3931251e-38
-0.13026285 -0.068411432 0.98400003 1.8346542e-38
-0.12838857 -0.068411432 0.98400003 2.0651433e-38
-0.12651429 -0.068411432 0.98400003 1.8719268e-38
-0.12464001 -0.068411432 0.98400003 1.0052879e-38
-0.12276572 -0.068411432 0.98400003 4.4556429e-39
-0.12089143 -0.068411432 0.98400003 5.4697948e-39
-0.11938 -0.068620004 0.98700005 6.4814202e-39
-0.11773809 -0.068759046 0.98900002 6.4814202e-39
-0.11585429 -0.068759046 0.98900002 6.8484006e-39
-0.1143162 -0.068967618 0.99200004 5.4654662e-39
-0.11242667 -0.068967618 0.99200004 6.0157533e-39
-0.11087143 -0.06917619 0.99500006 1.13631e-38
-0.1089762 -0.06917619 0.99500006 1.6692431e-38
-0.10708096 -0.06917619 0.99500006 1.4571932e-38
-0.10518572 -0.06917619 0.99500006 1.1343662e-38
-0.10329048 -0.06917619 0.99500006 9.4997498e-39
-0.10139524 -0.06917619 0.99500006 1.0603576e-38
-0.099799998 -0.069384769 0.99800003 1.0419185e-38
-0.09819334 -0.06959334 1.001 1.0969816e-38
-0.096863814 -0.070010483 1.0070001 1.447325e-38
-0.094945721 -0.070010483 1.0070001 1.5671442e-38
-0.093304761 -0.07021904 1.01 1.5579247e-38
-0.091109529 -0.070010483 1.0070001 1.3738934e-38
-0.089191437 -0.070010483 1.0070001 1.1802826e-38
-0.087533325 -0.07021904 1.01 1.336583e-38
-0.085863806 -0.070427619 1.013 1.6131699e-38
-0.17166954 -0.068092391 1.0070001 1.5303027e-38
-0.16975144 -0.068092391 1.0070001 1.0232267e-38
-0.16783336 -0.068092391 1.0070001 7.8347956e-39
-0.16591525 -0.068092391 1.0070001 9.8630995e-39
-0.16350858 -0.067889526 1.0040001 9.5869008e-39
-0.16111334 -0.06768667 1.001 7.4664013e-39
-0.15872952 -0.067483813 0.99800003 7.1923381e-39
-0.15635714 -0.067280956 0.99500006 8.2986857e-39
-0.15446192 -0.067280956 0.99500006 7.8384138e-39
-0.15210667 -0.067078099 0.99200004 7.9306094e-39
-0.15021715 -0.067078099 0.99200004 1.2444217e-38
-0.14832762 -0.067078099 0.99200004 1.8252542e-38
-0.14643811 -0.067078099 0.99200004 1.586233e-38
-0.14411142 -0.066875242 0.98900002 1.1529135e-38
-0.14222762 -0.066875242 0.98900002 9.3297541e-39
-0.14034382 -0.066875242 0.98900002 1.0804884e-38
-0.13818 -0.066740006 0.98700005 1.1629976e-38
-0.1363 -0.066740006 0.98700005 1.1629976e-38
-0.13442001 -0.066740006 0.98700005 1.1629963e-38
-0.13254 -0.066740006 0.98700005 1.2183137e-38
-0.13026285 -0.066537142 0.98400003 1.641262e-38
-0.12838857 -0.066537142 0.98400003 2.0100445e-38
-0.12651429 -0.066537142 0.98400003 1.5590069e-38
-0.12464001 -0.066537142 0.98400003 7.3846579e-39
-0.12314001 -0.066740006 0.98700005 2.15974e-39
-0.12126 -0.066740006 0.98700005 4.5568264e-39
-0.11998477 -0.067078099 0.99200004 6.8494824e-39
-0.11809524 -0.067078099 0.99200004 6.4806999e-39
-0.11620572 -0.067078099 0.99200004 5.6534602e-39
-0.11466191 -0.067280956 0.99500006 4.3627214e-39
-0.11276667 -0.067280956 0.99500006 4.6371404e-39
-0.11087143 -0.067280956 0.99500006 1.1551813e-38
-0.1089762 -0.067280956 0.99500006 1.5865577e-38
-0.10708096 -0.067280956 0.99500006 1.4943621e-38
-0.10550286 -0.067483813 0.99800003 1.1897575e-38
-0.10360191 -0.067483813 0.99800003 8.9473145e-39
-0.10170095 -0.067483813 0.99800003 1.0142223e-38
-0.1001 -0.06768667 1.001 1.0326614e-38
-0.09848763 -0.067889526 1.0040001 1.0877993e-38
-0.096863814 -0.068092391 1.0070001 1.5487774e-38
-0.094945721 -0.068092391 1.0070001 1.5028957e-38
-0.093304761 -0.068295233 1.01 1.4107001e-38
-0.091380946 -0.068295233 1.01 1.3922957e-38
-0.089457139 -0.068295233 1.01 1.2908805e-38
-0.087793328 -0.068498097 1.013 1.3827149e-38
-0.085863806 -0.068498097 1.013 1.5855453e-38
-0.17166954 -0.066174291 1.0070001 1.5118266e-38
-0.16975144 -0.066174291 1.0070001 1.1522636e-38
-0.16833334 -0.066371433 1.01 1.0234421e-38
-0.16591525 -0.066174291 1.0070001 1.0971986e-38
-0.16399716 -0.066174291 1.0070001 1.106452e-38
-0.16111334 -0.065779999 1.001 7.8376725e-39
-0.15872952 -0.065582857 0.99800003 7.4692781e-39
-0.15635714 -0.065385722 0.99500006 8.1146476e-39
-0.15446192 -0.065385722 0.99500006 7.745865e-39
-0.15210667 -0.065188579 0.99200004 7.3770825e-39
-0.15021715 -0.065188579 0.99200004 1.0879049e-38
-0.14832762 -0.065188579 0.99200004 1.760933e-38
-0.14643811 -0.065188579 0.99200004 1.5678286e-38
-0.14454857 -0.065188579 0.99200004 1.1252896e-38
-0.14265905 -0.065188579 0.99200004 9.3294108e-39
-0.14034382 -0.064991429 0.98900002 1.0712345e-38
-0.13846001 -0.064991429 0.98900002 1.1629257e-38
-0.13657619 -0.064991429 0.98900002 1.1721452e-38
-0.13469239 -0.064991429 0.98900002 1.1537783e-38
-0.13254 -0.064860001 0.98700005 1.2183152e-38
-0.13066001 -0.064860001 0.98700005 1.6228949e-38
-0.12878001 -0.064860001 0.98700005 1.9824579e-38
-0.1269 -0.064860001 0.98700005 1.7890619e-38
-0.12502001 -0.064860001 0.98700005 8.7632512e-39
-0.12338953 -0.064991429 0.98900002 1.5154707e-39
-0.12150571 -0.064991429 0.98900002 3.0827964e-39
-0.11998477 -0.065188579 0.99200004 5.7460159e-39
-0.11809524 -0.065188579 0.99200004 5.7460159e-39
-0.11620572 -0.065188579 0.99200004 5.8357004e-39
-0.11466191 -0.065385722 0.99500006 4.9137441e-39
-0.11276667 -0.065385722 0.99500006 8.5882682e-39
-0.11087143 -0.065385722 0.99500006 1.5687332e-38
-0.1089762 -0.065385722 0.99500006 1.8808987e-38
-0.10740381 -0.065582857 0.99800003 1.8993379e-38
-0.10550286 -0.065582857 0.99800003 1.6687068e-38
-0.10391334 -0.065779999 1.001 1.1985091e-38
-0.10200667 -0.065779999 1.001 9.9607125e-39
-0.1001 -0.065779999 1.001 1.0698278e-38
-0.09848763 -0.065977141 1.0040001 1.2262394e-38
-0.096863814 -0.066174291 1.0070001 1.5581437e-38
-0.094945721 -0.066174291 1.0070001 1.2635818e-38
-0.093304761 -0.066371433 1.01 8.8557971e-39
-0.091380946 -0.066371433 1.01 1.0145861e-38
-0.089457139 -0.066371433 1.01 1.2542947e-38
-0.087793328 -0.066568576 1.013 1.410263e-38
-0.085863806 -0.066568576 1.013 1.6038738e-38
-0.083934292 -0.066568576 1.013 1.6221001e-38
-0.17076285 -0.064639047 1.013 1.2721177e-38
-0.16833334 -0.064447619 1.01 1.0971633e-38
-0.16591525 -0.064256199 1.0070001 1.0510655e-38
-0.16399716 -0.064256199 1.0070001 1.0513504e-38
-0.16159619 -0.064064763 1.0040001 9.0383737e-39
-0.15920667 -0.063873336 1.001 7.2856254e-39
-0.15682857 -0.063681908 0.99800003 7.4700166e-39
-0.15446192 -0.063490473 0.99500006 7.5614486e-39
-0.15256667 -0.063490473 0.99500006 8.1146223e-39
-0.15067144 -0.063490473 0.99500006 1.1428633e-38
-0.1487762 -0.063490473 0.99500006 1.7974523e-38
-0.14688095 -0.063490473 0.99500006 1.5770482e-38
-0.14498572 -0.063490473 0.99500006 1.2543635e-38
-0.14309049 -0.063490473 0.99500006 1.01563e-38
-0.14076954 -0.063299052 0.99200004 1.0986061e-38
-0.13888 -0.063299052 0.99200004 1.1353026e-38
-0.13699049 -0.063299052 0.99200004 1.1445222e-38
-0.13510096 -0.063299052 0.99200004 1.1169714e-38
-0.13321143 -0.063299052 0.99200004 1.2829235e-38
-0.13132191 -0.063299052 0.99200004 1.7056557e-38
-0.12904094 -0.063107617 0.98900002 1.9453644e-38
-0.12715714 -0.063107617 0.98900002 1.7707322e-38
-0.12565334 -0.063299052 0.99200004 1.2728758e-38
-0.12376382 -0.063299052 0.99200004 5.4705473e-39
-0.12187429 -0.063299052 0.99200004 4.2720041e-39
-0.11998477 -0.063299052 0.99200004 3.906425e-39
-0.11809524 -0.063299052 0.99200004 3.8142293e-39
-0.11655715 -0.063490473 0.99500006 5.4669011e-39
-0.11466191 -0.063490473 0.99500006 6.7576399e-39
-0.11276667 -0.063490473 0.99500006 1.3925155e-38
-0.11087143 -0.063490473 0.99500006 1.7797372e-38
-0.1089762 -0.063490473 0.99500006 1.9267439e-38
-0.10740381 -0.063681908 0.99800003 1.9267439e-38
-0.10550286 -0.063681908 0.99800003 1.871536e-38
-0.10391334 -0.063873336 1.001 1.5211926e-38
-0.10231239 -0.064064763 1.0040001 1.1527701e-38
-0.1004 -0.064064763 1.0040001 1.2357461e-38
-0.098781914 -0.064256199 1.0070001 1.4660184e-38
-0.096863814 -0.064256199 1.0070001 1.3185054e-38
-0.095228568 -0.064447619 1.01 1.070294e-38
-0.093304761 -0.064447619 1.01 6.2775495e-39
-0.091380946 -0.064447619 1.01 9.1356112e-39
-0.089457139 -0.064447619 1.01 1.1993676e-38
-0.087793328 -0.064639047 1.013 1.3824251e-38
-0.085863806 -0.064639047 1.013 1.6036946e-38
-0.083934292 -0.064639047 1.013 1.6036963e-38
-0.16833334 -0.062523812 1.01 1.1525883e-38
-0.16591525 -0.062338103 1.0070001 7.3770797e-39
-0.16399716 -0.062338103 1.0070001 7.8409543e-39
-0.16159619 -0.062152382 1.0040001 1.1252193e-38
-0.15920667 -0.061966669 1.001 9.4983303e-39
-0.15682857 -0.061780956 0.99800003 6.3636789e-39
-0.15446192 -0.061595239 0.99500006 8.1132028e-39
-0.15256667 -0.061595239 0.99500006 1.3921527e-38
-0.15067144 -0.061595239 0.99500006 1.5394856e-38
-0.1487762 -0.061595239 0.99500006 1.7054377e-38
-0.14688095 -0.061595239 0.99500006 1.6136383e-38
-0.14498572 -0.061595239 0.99500006 1.5859797e-38
-0.14309049 -0.061595239 0.99500006 1.3010036e-38
-0.14119524 -0.061595239 0.99500006 1.1350515e-38
-0.13888 -0.061409526 0.99200004 1.0984616e-38
-0.13699049 -0.061409526 0.99200004 1.1814377e-38
-0.13510096 -0.061409526 0.99200004 1.4112771e-38
-0.13321143 -0.061409526 0.99200004 1.7431814e-38
-0.13132191 -0.061409526 0.99200004 1.8439845e-38
-0.12943238 -0.061409526 0.99200004 1.8439845e-38
-0.12754287 -0.061409526 0.99200004 1.8165413e-38
-0.12565334 -0.061409526 0.99200004 1.8995174e-38
-0.12376382 -0.061409526 0.99200004 1.6235441e-38
-0.12187429 -0.061409526 0.99200004 1.1810051e-38
-0.11998477 -0.061409526 0.99200004 5.0063293e-39
-0.11809524 -0.061409526 0.99200004 3.346808e-39
-0.11655715 -0.061595239 0.99500006 8.8673312e-39
-0.11466191 -0.061595239 0.99500006 1.4952243e-38
-0.11276667 -0.061595239 0.99500006 1.7427861e-38
-0.11087143 -0.061595239 0.99500006 1.6505904e-38
-0.1089762 -0.061595239 0.99500006 1.549174e-38
-0.10740381 -0.061780956 0.99800003 1.549174e-38
-0.10582001 -0.061966669 1.001 1.71491e-38
-0.10422476 -0.062152382 1.0040001 1.8716426e-38
-0.10231239 -0.062152382 1.0040001 1.8163233e-38
-0.10070001 -0.062338103 1.0070001 1.696469e-38
-0.098781914 -0.062338103 1.0070001 1.5308074e-38
-0.096863814 -0.062338103 1.0070001 9.7763367e-39
-0.095228568 -0.062523812 1.01 3.9863732e-39
-0.093304761 -0.062523812 1.01 2.6956344e-39
-0.091652378 -0.062709525 1.013 7.9352912e-39
-0.089722857 -0.062709525 1.013 1.217629e-38
-0.087793328 -0.062709525 1.013 1.4100136e-38
-0.085863806 -0.062709525 1.013 1.6128439e-38
-0.083934292 -0.062709525 1.013 1.6220624e-38
-0.16542096 -0.06024 1.0040001 6.545161e-39
-0.16350858 -0.06024 1.0040001 7.3799075e-39
-0.16159619 -0.06024 1.0040001 1.1713102e-38
-0.15968382 -0.06024 1.0040001 1.1802838e-38
-0.15730001 -0.060060002 1.001 8.3916002e-39
-0.15492763 -0.05988 0.99800003 9.4021564e-39
-0.15256667 -0.059700005 0.99500006 1.5579264e-38
-0.15067144 -0.059700005 0.99500006 1.6225705e-38
-0.1487762 -0.059700005 0.99500006 1.4842771e-38
-0.14732382 -0.05988 0.99800003 1.5029265e-38
-0.14498572 -0.059700005 0.99500006 1.6688786e-38
-0.14309049 -0.059700005 0.99500006 1.5861967e-38
-0.14119524 -0.059700005 0.99500006 1.2819511e-38
-0.13930002 -0.059700005 0.99500006 1.1168269e-38
-0.13740477 -0.059700005 0.99500006 1.2551203e-38
-0.13550952 -0.059700005 0.99500006 1.6779605e-38
-0.1336143 -0.059700005 0.99500006 1.9084495e-38
-0.13132191 -0.059520002 0.99200004 1.8255817e-38
-0.12943238 -0.059520002 0.99200004 1.6411904e-38
-0.12754287 -0.059520002 0.99200004 1.7149428e-38
-0.12603334 -0.059700005 0.99500006 1.9915297e-38
-0.12413809 -0.059700005 0.99500006 2.0100089e-38
-0.12224287 -0.059700005 0.99500006 1.6135677e-38
-0.12034763 -0.059700005 0.99500006 8.8716822e-39
-0.11845239 -0.059700005 0.99500006 6.6589871e-39
-0.11655715 -0.059700005 0.99500006 1.1534165e-38
-0.11466191 -0.059700005 0.99500006 1.7619076e-38
-0.11276667 -0.059700005 0.99500006 1.9086293e-38
-0.11087143 -0.059700005 0.99500006 1.493749e-38
-0.1089762 -0.059700005 0.99500006 1.3192244e-38
-0.10740381 -0.05988 0.99800003 1.2915657e-38
-0.10582001 -0.060060002 1.001 1.5491364e-38
-0.10422476 -0.06024 1.0040001 1.7980646e-38
-0.10231239 -0.06024 1.0040001 1.8898309e-38
-0.10070001 -0.060420007 1.0070001 1.7515375e-38
-0.098781914 -0.060420007 1.0070001 1.4940011e-38
-0.097152382 -0.060600001 1.01 6.918991e-39
-0.095228568 -0.060600001 1.01 2.0567362e-39
-0.093304761 -0.060600001 1.01 2.2411275e-39
-0.091652378 -0.06078 1.013 8.5784844e-39
-0.089722857 -0.06078 1.013 1.2450701e-38
-0.087793328 -0.06078 1.013 1.3823189e-38
-0.085863806 -0.06078 1.013 1.5943688e-38
-0.16542096 -0.058327623 1.0040001 5.7161192e-39
-0.16350858 -0.058327623 1.0040001 5.2648423e-39
-0.16159619 -0.058327623 1.0040001 9.2292544e-39
-0.15968382 -0.058327623 1.0040001 1.2169457e-38
-0.15730001 -0.058153339 1.001 1.4289957e-38
-0.15492763 -0.057979047 0.99800003 1.4933877e-38
-0.15256667 -0.057804763 0.99500006 1.6316812e-38
-0.15067144 -0.057804763 0.99500006 1.3002843e-38
-0.1487762 -0.057804763 0.99500006 7.3789098e-39
-0.14732382 -0.057979047 0.99800003 8.215087e-39
-0.14542286 -0.057979047 0.99800003 1.4207803e-38
-0.14309049 -0.057804763 0.99500006 1.5860182e-38
-0.14119524 -0.057804763 0.99500006 1.6874334e-38
-0.13930002 -0.057804763 0.99500006 1.6047422e-38
-0.13740477 -0.057804763 0.99500006 1.6139618e-38
-0.13550952 -0.057804763 0.99500006 1.6965443e-38
-0.1336143 -0.057804763 0.99500006 1.5951292e-38
-0.13171905 -0.057804763 0.99500006 1.2813449e-38
-0.12943238 -0.057630476 0.99200004 1.0324167e-38
-0.12754287 -0.057630476 0.99200004 1.1985407e-38
-0.12603334 -0.057804763 0.99500006 1.7517144e-38
-0.12413809 -0.057804763 0.99500006 1.9360694e-38
-0.12224287 -0.057804763 0.99500006 2.0467042e-38
-0.12034763 -0.057804763 0.99500006 1.9272111e-38
-0.11845239 -0.057804763 0.99500006 1.696722e-38
-0.11655715 -0.057804763 0.99500006 1.7060508e-38
-0.11466191 -0.057804763 0.99500006 1.7798073e-38
-0.11310667 -0.057979047 0.99800003 1.6508763e-38
-0.11120572 -0.057979047 0.99800003 1.3742894e-38
-0.10930476 -0.057979047 0.99800003 1.2089519e-38
-0.10740381 -0.057979047 0.99800003 1.1905128e-38
-0.10582001 -0.058153339 1.001 1.3100402e-38
-0.10422476 -0.058327623 1.0040001 1.4667727e-38
-0.10231239 -0.058327623 1.0040001 1.6227873e-38
-0.10070001 -0.05850191 1.0070001 1.585909e-38
-0.098781914 -0.05850191 1.0070001 1.3469875e-38
-0.096863814 -0.05850191 1.0070001 5.8176377e-39
-0.095228568 -0.058676191 1.01 1.5979441e-39
-0.093304761 -0.058676191 1.01 1.9667266e-39
-0.091380946 -0.058676191 1.01 8.5792537e-39
-0.089722857 -0.058850475 1.013 1.3004644e-38
-0.087793328 -0.058850475 1.013 1.4653678e-38
-0.085863806 -0.058850475 1.013 1.5575634e-38
-0.16591525 -0.056583814 1.0070001 6.5451709e-39
-0.16399716 -0.056583814 1.0070001 2.5987038e-39
-0.16159619 -0.056415241 1.0040001 6.1943334e-39
-0.15968382 -0.056415241 1.0040001 1.1801031e-38
-0.15777142 -0.056415241 1.0040001 1.5304465e-38
-0.15539335 -0.056246668 1.001 1.5671106e-38
-0.15302667 -0.056078095 0.99800003 1.4656954e-38
-0.15067144 -0.055909529 0.99500006 9.6009432e-39
-0.1487762 -0.055909529 0.99500006 4.4379879e-39
-0.14732382 -0.056078095 0.99800003 2.3325496e-39
-0.14542286 -0.056078095 0.99800003 8.0486786e-39
-0.14309049 -0.055909529 0.99500006 1.5858692e-38
-0.14119524 -0.055909529 0.99500006 1.8255779e-38
-0.13930002 -0.055909529 0.99500006 1.7518605e-38
-0.13740477 -0.055909529 0.99500006 1.6965431e-38
-0.13550952 -0.055909529 0.99500006 1.6598087e-38
-0.1336143 -0.055909529 0.99500006 1.3002458e-38
-0.13171905 -0.055909529 0.99500006 1.2444965e-38
-0.1298238 -0.055909529 0.99500006 1.1338618e-38
-0.12792858 -0.055909529 0.99500006 1.1616591e-38
-0.12603334 -0.055909529 0.99500006 1.4290264e-38
-0.12413809 -0.055909529 0.99500006 1.7696114e-38
-0.12224287 -0.055909529 0.99500006 2.0185396e-38
-0.12034763 -0.055909529 0.99500006 2.092624e-38
-0.11845239 -0.055909529 0.99500006 2.0465262e-38
-0.11655715 -0.055909529 0.99500006 1.7706971e-38
-0.11466191 -0.055909529 0.99500006 1.5494276e-38
-0.11310667 -0.056078095 0.99800003 1.3472078e-38
-0.11120572 -0.056078095 0.99800003 1.236573e-38
-0.10930476 -0.056078095 0.99800003 1.1632134e-38
-0.10740381 -0.056078095 0.99800003 1.1355547e-38
-0.10582001 -0.056246668 1.001 1.1629597e-38
-0.10422476 -0.056415241 1.0040001 1.3012532e-38
-0.10231239 -0.056415241 1.0040001 1.4391531e-38
-0.10070001 -0.056583814 1.0070001 1.4022749e-38
-0.098781914 -0.056583814 1.0070001 1.0891669e-38
-0.096863814 -0.056583814 1.0070001 4.8989534e-39
-0.095228568 -0.05675238 1.01 1.7812311e-39
-0.093304761 -0.05675238 1.01 2.795383e-39
-0.091380946 -0.05675238 1.01 1.0330577e-38
-0.089722857 -0.056920953 1.013 1.3096446e-38
-0.087793328 -0.056920953 1.013 1.447001e-38
-0.085863806 -0.056920953 1.013 1.5484162e-38
-0.16591525 -0.054665718 1.0070001 7.8359125e-39
-0.16399716 -0.054665718 1.0070001 4.2535994e-39
-0.16159619 -0.05450286 1.0040001 5.9131208e-39
-0.15968382 -0.05450286 1.0040001 9.9585602e-39
-0.15777142 -0.05450286 1.0040001 1.4476146e-38
-0.15539335 -0.054340001 1.001 1.4015887e-38
-0.15302667 -0.054177143 0.99800003 9.1295183e-39
-0.15112571 -0.054177143 0.99800003 4.5377337e-39
-0.14922476 -0.054177143 0.99800003 4.2611468e-39
-0.14732382 -0.054177143 0.99800003 4.9083421e-39
-0.14542286 -0.054177143 0.99800003 4.7239509e-39
-0.1435219 -0.054177143 0.99800003 1.0704305e-38
-0.14119524 -0.054014288 0.99500006 1.522189e-38
-0.13930002 -0.054014288 0.99500006 1.7148387e-38
-0.13740477 -0.054014288 0.99500006 1.6779605e-38
-0.13550952 -0.054014288 0.99500006 1.6044139e-38
-0.1336143 -0.054014288 0.99500006 1.1434357e-38
-0.13171905 -0.054014288 0.99500006 1.1341848e-38
-0.1298238 -0.054014288 0.99500006 1.1987217e-38
-0.12792858 -0.054014288 0.99500006 1.2261303e-38
-0.12603334 -0.054014288 0.99500006 1.1800325e-38
-0.12413809 -0.054014288 0.99500006 1.3365442e-38
-0.12224287 -0.054014288 0.99500006 1.6500093e-38
-0.12034763 -0.054014288 0.99500006 1.9082302e-38
-0.11845239 -0.054014288 0.99500006 2.0834019e-38
-0.11655715 -0.054014288 0.99500006 1.7980669e-38
-0.11500762 -0.054177143 0.99800003 1.4477235e-38
-0.11310667 -0.054177143 0.99800003 1.1723973e-38
-0.11120572 -0.054177143 0.99800003 1.1816169e-38
-0.10930476 -0.054177143 0.99800003 1.2000197e-38
-0.10772667 -0.054340001 1.001 1.172361e-38
-0.10582001 -0.054340001 1.001 1.1813638e-38
-0.10422476 -0.05450286 1.0040001 1.2366812e-38
-0.10231239 -0.05450286 1.0040001 1.4942532e-38
-0.10070001 -0.054665718 1.0070001 1.4850336e-38
-0.098781914 -0.054665718 1.0070001 1.1719995e-38
-0.096863814 -0.054665718 1.0070001 4.8053229e-39
-0.095228568 -0.054828569 1.01 2.2414932e-39
-0.093304761 -0.054828569 1.01 5.6527315e-39
-0.091380946 -0.054828569 1.01 1.0699372e-38
-0.089988574 -0.055154286 1.016 1.2912067e-38
-0.088053331 -0.055154286 1.016 1.4654764e-38
-0.086118095 -0.055154286 1.016 1.5392329e-38
-0.16591525 -0.052747626 1.0070001 8.5731118e-39
-0.16399716 -0.052747626 1.0070001 5.3556058e-39
-0.16207907 -0.052747626 1.0070001 6.554149e-39
-0.16016097 -0.052747626 1.0070001 7.8434627e-39
-0.15777142 -0.052590482 1.0040001 1.2914222e-38
-0.15539335 -0.052433338 1.001 1.2546547e-38
-0.15302667 -0.052276194 0.99800003 6.0006571e-39
-0.15112571 -0.052276194 0.99800003 1.320969e-39
-0.14922476 -0.052276194 0.99800003 3.6258598e-39
-0.14732382 -0.052276194 0.99800003 4.7264718e-39
-0.14542286 -0.052276194 0.99800003 3.5279286e-39
-0.1435219 -0.052276194 0.99800003 4.7260332e-39
-0.14119524 -0.05211905 0.99500006 9.4280103e-39
-0.13930002 -0.05211905 0.99500006 1.5676847e-38
-0.13740477 -0.05211905 0.99500006 1.6598804e-38
-0.13550952 -0.05211905 0.99500006 1.4752032e-38
-0.1336143 -0.05211905 0.99500006 1.1248598e-38
-0.13171905 -0.05211905 0.99500006 1.1248573e-38
-0.1298238 -0.05211905 0.99500006 1.2447116e-38
-0.12792858 -0.05211905 0.99500006 1.2354214e-38
-0.12603334 -0.05211905 0.99500006 1.1985432e-38
-0.12413809 -0.05211905 0.99500006 1.1525851e-38
-0.12224287 -0.05211905 0.99500006 1.3369763e-38
-0.12034763 -0.05211905 0.99500006 1.686997e-38
-0.11845239 -0.05211905 0.99500006 2.0557795e-38
-0.11690857 -0.052276194 0.99800003 1.6878653e-38
-0.11500762 -0.052276194 0.99800003 1.3283023e-38
-0.11310667 -0.052276194 0.99800003 1.1448821e-38
-0.11120572 -0.052276194 0.99800003 1.19098e-38
-0.10930476 -0.052276194 0.99800003 1.2092393e-38
-0.10772667 -0.052433338 1.001 1.1631415e-38
-0.10613715 -0.052590482 1.0040001 1.1537767e-38
-0.10422476 -0.052590482 1.0040001 1.2828506e-38
-0.1026181 -0.052747626 1.0070001 1.5400996e-38
-0.10070001 -0.052747626 1.0070001 1.6230757e-38
-0.098781914 -0.052747626 1.0070001 1.2733093e-38
-0.097152382 -0.052904762 1.01 4.343291e-39
-0.095228568 -0.052904762 1.01 4.353313e-39
-0.093304761 -0.052904762 1.01 8.3177251e-39
-0.091380946 -0.052904762 1.01 1.2539659e-38
-0.089722857 -0.053061903 1.013 1.336942e-38
-0.088053331 -0.053219046 1.016 1.4563287e-38
-0.086118095 -0.053219046 1.016 1.5300852e-38
-0.16690381 -0.051132381 1.013 1.1245343e-38
-0.16448571 -0.050980952 1.01 6.461966e-39
-0.16207907 -0.05082953 1.0070001 6.1853791e-39
-0.16016097 -0.05082953 1.0070001 7.3821342e-39
-0.15777142 -0.050678097 1.0040001 1.2360698e-38
-0.15539335 -0.050526667 1.001 1.2087344e-38
-0.15348667 -0.050526667 1.001 6.4634107e-39
-0.15112571 -0.050375238 0.99800003 1.4146066e-39
-0.14922476 -0.050375238 0.99800003 3.0741279e-39
-0.14732382 -0.050375238 0.99800003 4.7264662e-39
-0.14542286 -0.050375238 0.99800003 4.3576837e-39
-0.1435219 -0.050375238 0.99800003 3.4389672e-39
-0.14162096 -0.050375238 0.99800003 3.992141e-39
-0.13972001 -0.050375238 0.99800003 1.3097841e-38
-0.13781905 -0.050375238 0.99800003 1.6693471e-38
-0.1359181 -0.050375238 0.99800003 1.6223557e-38
-0.13401714 -0.050375238 0.99800003 1.2074753e-38
-0.13171905 -0.050223812 0.99500006 1.1341495e-38
-0.1298238 -0.050223812 0.99500006 1.2263451e-38
-0.12792858 -0.050223812 0.99500006 1.244641e-38
-0.12603334 -0.050223812 0.99500006 1.2354214e-38
-0.12413809 -0.050223812 0.99500006 1.1801043e-38
-0.12224287 -0.050223812 0.99500006 1.2907391e-38
-0.12034763 -0.050223812 0.99500006 1.6410431e-38
-0.11880952 -0.050375238 0.99800003 2.0282648e-38
-0.11690857 -0.050375238 0.99800003 1.7338176e-38
-0.11500762 -0.050375238 0.99800003 1.3373764e-38
-0.11310667 -0.050375238 0.99800003 1.0897092e-38
-0.11120572 -0.050375238 0.99800003 1.1542462e-38
-0.10963333 -0.050526667 1.001 1.1632497e-38
-0.10804953 -0.050678097 1.0040001 1.1263714e-38
-0.10613715 -0.050678097 1.0040001 1.3101481e-38
-0.1045362 -0.05082953 1.0070001 1.5590763e-38
-0.1026181 -0.05082953 1.0070001 1.7057261e-38
-0.10070001 -0.05082953 1.0070001 1.7426043e-38
-0.098781914 -0.05082953 1.0070001 1.6505548e-38
-0.097152382 -0.050980952 1.01 1.2633332e-38
-0.095228568 -0.050980952 1.01 1.1256814e-38
-0.093304761 -0.050980952 1.01 1.2086575e-38
-0.091652378 -0.051132381 1.013 1.2634003e-38
-0.089722857 -0.051132381 1.013 1.1804243e-38
-0.088313334 -0.05143524 1.0190001 1.3917565e-38
-0.086372383 -0.05143524 1.0190001 1.5392695e-38
-0.1673981 -0.049348574 1.016 1.2165857e-38
-0.16448571 -0.049057141 1.01 6.9200672e-39
-0.16207907 -0.048911434 1.0070001 5.9059153e-39
-0.16016097 -0.048911434 1.0070001 6.6463642e-39
-0.15824287 -0.048911434 1.0070001 1.2454689e-38
-0.15539335 -0.04862 1.001 1.2823462e-38
-0.15348667 -0.04862 1.001 9.227832e-39
-0.15112571 -0.048474289 0.99800003 2.7918195e-39
-0.14922476 -0.048474289 0.99800003 3.1606021e-39
-0.14776668 -0.04862 1.001 4.1747246e-39
-0.14542286 -0.048474289 0.99800003 4.6357027e-39
-0.1435219 -0.048474289 0.99800003 2.0617781e-39
-0.14162096 -0.048474289 0.99800003 1.6007999e-39
-0.13972001 -0.048474289 0.99800003 9.0466582e-39
-0.13781905 -0.048474289 0.99800003 1.5315961e-38
-0.1359181 -0.048474289 0.99800003 1.5581803e-38
-0.13401714 -0.048474289 0.99800003 1.1248608e-38
-0.13171905 -0.048328575 0.99500006 1.1249296e-38
-0.1298238 -0.048328575 0.99500006 1.1986861e-38
-0.12792858 -0.048328575 0.99500006 1.2261653e-38
-0.12603334 -0.048328575 0.99500006 1.1892871e-38
-0.12451239 -0.048474289 0.99800003 1.1524454e-38
-0.12261143 -0.048474289 0.99800003 1.4843496e-38
-0.12071048 -0.048474289 0.99800003 1.7606128e-38
-0.11880952 -0.048474289 0.99800003 1.9726628e-38
-0.11690857 -0.048474289 0.99800003 1.7430009e-38
-0.11535333 -0.04862 1.001 1.466414e-38
-0.11344667 -0.04862 1.001 1.1172623e-38
-0.11154 -0.04862 1.001 1.1172623e-38
-0.10963333 -0.04862 1.001 1.1079673e-38
-0.10804953 -0.048765715 1.0040001 1.1171869e-38
-0.10645429 -0.048911434 1.0070001 1.4479756e-38
-0.1045362 -0.048911434 1.0070001 1.6876842e-38
-0.1026181 -0.048911434 1.0070001 1.7424961e-38
-0.10070001 -0.048911434 1.0070001 1.6595201e-38
-0.099076189 -0.049057141 1.01 1.6596643e-38
-0.097152382 -0.049057141 1.01 1.5674686e-38
-0.095228568 -0.049057141 1.01 1.3188306e-38
-0.093581907 -0.049202859 1.013 1.2727328e-38
-0.091652378 -0.049202859 1.013 1.2541808e-38
-0.089722857 -0.049202859 1.013 1.2080829e-38
-0.087793328 -0.049202859 1.013 1.3733524e-38
-0.16640952 -0.04713333 1.01 1.1889984e-38
-0.16448571 -0.04713333 1.01 7.9328025e-39
-0.16256191 -0.04713333 1.01 7.3796287e-39
-0.16016097 -0.046993338 1.0070001 9.5912168e-39
-0.15824287 -0.046993338 1.0070001 1.4016607e-38
-0.15585905 -0.046853337 1.0040001 1.4199544e-38
-0.15394668 -0.046853337 1.0040001 1.4015152e-38
-0.15158001 -0.046713337 1.001 1.0153414e-38
-0.14967334 -0.046713337 1.001 5.6358276e-39
-0.14776668 -0.046713337 1.001 2.4269761e-39
-0.14586 -0.046713337 1.001 3.1645411e-39
-0.14395334 -0.046713337 1.001 2.7042636e-39
-0.14162096 -0.046573333 0.99800003 4.9169587e-39
-0.13972001 -0.046573333 0.99800003 1.1346922e-38
-0.13781905 -0.046573333 0.99800003 1.6694268e-38
-0.1359181 -0.046573333 0.99800003 1.7334198e-38
-0.13401714 -0.046573333 0.99800003 1.0972699e-38
-0.13211618 -0.046573333 0.99800003 9.6855704e-39
-0.13021523 -0.046573333 0.99800003 1.0423135e-38
-0.1283143 -0.046573333 0.99800003 1.1523738e-38
-0.12641335 -0.046573333 0.99800003 1.1708129e-38
-0.12451239 -0.046573333 0.99800003 1.3275079e-38
-0.12261143 -0.046573333 0.99800003 1.8806817e-38
-0.12071048 -0.046573333 0.99800003 1.9360363e-38
-0.11880952 -0.046573333 0.99800003 1.8530603e-38
-0.11726001 -0.046713337 1.001 1.7796628e-38
-0.11535333 -0.046713337 1.001 1.8349802e-38
-0.11344667 -0.046713337 1.001 1.5773394e-38
-0.11154 -0.046713337 1.001 1.3099721e-38
-0.10963333 -0.046713337 1.001 1.255084e-38
-0.10804953 -0.046853337 1.0040001 1.402597e-38
-0.10645429 -0.046993338 1.0070001 1.6597381e-38
-0.1045362 -0.046993338 1.0070001 1.6597381e-38
-0.1026181 -0.046993338 1.0070001 1.4013383e-38
