# .PCD v0.7 - Point Cloud Data file format
VERSION 0.7
FIELDS x y z rgb
SIZE 4 4 4 4
TYPE F F F F
COUNT 1 1 1 1
WIDTH 961
HEIGHT 1
VIEWPOINT 0 0 0 1 0 0 0
POINTS 961
DATA ascii
-0.034600001 -0.093914293 1.0380001 1.5763635e-38
-0.032497145 -0.093552381 1.034 1.502607e-38
-0.030439047 -0.093280949 1.031 1.4748401e-38
-0.028309526 -0.092738099 1.0250001 1.456401e-38
-0.026357146 -0.092738099 1.0250001 1.4746622e-38
-0.024404764 -0.092738099 1.0250001 1.5760774e-38
-0.10733905 -0.091582857 1.034 1.5577789e-38
-0.10536952 -0.091582857 1.034 1.5301222e-38
-0.10340001 -0.091582857 1.034 1.5946592e-38
-0.10143048 -0.091582857 1.034 1.5946597e-38
-0.099845722 -0.091937155 1.0380001 1.6499771e-38
-0.098151423 -0.092202857 1.041 1.6407935e-38
-0.09616857 -0.092202857 1.041 1.6776718e-38
-0.094457142 -0.092468575 1.044 1.6776718e-38
-0.092734285 -0.092734285 1.0470001 1.7237696e-38
-0.091000006 -0.09300001 1.0500001 1.7145863e-38
-0.089000002 -0.09300001 1.0500001 1.742245e-38
-0.087000005 -0.09300001 1.0500001 1.7514999e-38
-0.085000008 -0.09300001 1.0500001 1.7883782e-38
-0.083000004 -0.09300001 1.0500001 1.7884138e-38
-0.081308573 -0.093354285 1.054 1.7976333e-38
-0.07952667 -0.093620002 1.057 1.7883428e-38
-0.07751333 -0.093620002 1.057 1.7975624e-38
-0.075500004 -0.093620002 1.057 1.7792315e-38
-0.073486671 -0.093620002 1.057 1.7700119e-38
-0.071473338 -0.093620002 1.057 1.7791959e-38
-0.069460005 -0.093620002 1.057 1.8068546e-38
-0.067446664 -0.093620002 1.057 1.8069252e-38
-0.065247618 -0.093354285 1.054 1.8069252e-38
-0.063239999 -0.093354285 1.054 1.7883434e-38
-0.061232381 -0.093354285 1.054 1.7791238e-38
-0.059224762 -0.093354285 1.054 1.779052e-38
-0.057 -0.09300001 1.0500001 1.7606128e-38
-0.055000003 -0.09300001 1.0500001 1.7421734e-38
-0.053000003 -0.09300001 1.0500001 1.7421734e-38
-0.051000003 -0.09300001 1.0500001 1.7238415e-38
-0.049000002 -0.09300001 1.0500001 1.7054024e-38
-0.046865717 -0.092734285 1.0470001 1.6777087e-38
-0.044871431 -0.092734285 1.0470001 1.6777087e-38
-0.042754289 -0.092468575 1.044 1.6316106e-38
-0.040765714 -0.092468575 1.044 1.5947323e-38
-0.038665712 -0.092202857 1.041 1.5670733e-38
-0.036577147 -0.091937155 1.0380001 1.5578538e-38
-0.034600001 -0.091937155 1.0380001 1.5670361e-38
-0.032497145 -0.091582857 1.034 1.5485969e-38
-0.030439047 -0.091317147 1.031 1.6315352e-38
-0.028309526 -0.090785727 1.0250001 1.7052917e-38
-0.026357146 -0.090785727 1.0250001 1.6867469e-38
-0.024404764 -0.090785727 1.0250001 1.5484534e-38
-0.10577715 -0.089960009 1.0380001 1.5393423e-38
-0.10380001 -0.089960009 1.0380001 1.5946597e-38
-0.10182287 -0.089960009 1.0380001 1.5855115e-38
-0.10013428 -0.090220004 1.041 1.6316093e-38
-0.098434284 -0.090480007 1.044 1.6499768e-38
-0.096445717 -0.090480007 1.044 1.6591964e-38
-0.094457142 -0.090480007 1.044 1.659233e-38
-0.092734285 -0.09074001 1.0470001 1.7053308e-38
-0.091000006 -0.091000006 1.0500001 1.7145866e-38
-0.089000002 -0.091000006 1.0500001 1.7238062e-38
-0.087000005 -0.091000006 1.0500001 1.7053668e-38
-0.085323811 -0.091346666 1.054 1.7606842e-38
-0.083316192 -0.091346666 1.054 1.7423527e-38
-0.081308573 -0.091346666 1.054 1.7515722e-38
-0.07952667 -0.091606669 1.057 1.7699393e-38
-0.07751333 -0.091606669 1.057 1.7883784e-38
-0.075500004 -0.091606669 1.057 1.7700116e-38
-0.073486671 -0.091606669 1.057 1.7700116e-38
-0.071473338 -0.091606669 1.057 1.7700116e-38
-0.069460005 -0.091606669 1.057 1.7700116e-38
-0.067446664 -0.091606669 1.057 1.7792665e-38
-0.065433331 -0.091606669 1.057 1.7977056e-38
-0.063420005 -0.091606669 1.057 1.7791238e-38
-0.061406672 -0.091606669 1.057 1.7791238e-38
-0.059224762 -0.091346666 1.054 1.7790517e-38
-0.057 -0.091000006 1.0500001 1.7698321e-38
-0.055000003 -0.091000006 1.0500001 1.7606116e-38
-0.053000003 -0.091000006 1.0500001 1.7421724e-38
-0.051000003 -0.091000006 1.0500001 1.7146217e-38
-0.049000002 -0.091000006 1.0500001 1.686963e-38
-0.047000002 -0.091000006 1.0500001 1.6500487e-38
-0.044871431 -0.09074001 1.0470001 1.6592683e-38
-0.042877145 -0.09074001 1.0470001 1.6224263e-38
-0.040882859 -0.09074001 1.0470001 1.5855481e-38
-0.038665712 -0.090220004 1.041 1.5578528e-38
-0.036682859 -0.090220004 1.041 1.594731e-38
-0.034600001 -0.089960009 1.0380001 1.6407219e-38
-0.032497145 -0.089613333 1.034 1.6591611e-38
-0.030439047 -0.08935333 1.031 1.6959667e-38
-0.027480954 -0.08623334 0.99500006 1.7144059e-38
-0.025585715 -0.08623334 0.99500006 1.6775626e-38
-0.023761906 -0.086493336 0.99800003 1.4562931e-38
-0.021926668 -0.086753339 1.001 1.3641318e-38
-0.020080002 -0.087013341 1.0040001 1.3272536e-38
-0.10518572 -0.084338099 0.99500006 1.4749458e-38
-0.10266762 -0.08382953 0.98900002 1.576361e-38
-0.10078382 -0.08382953 0.98900002 1.6221386e-38
-0.098899998 -0.08382953 0.98900002 1.6866756e-38
-0.10211714 -0.088237144 1.041 1.6499042e-38
-0.10013428 -0.088237144 1.041 1.6775629e-38
-0.098434284 -0.088491425 1.044 1.6500121e-38
-0.096445717 -0.088491425 1.044 1.6500121e-38
-0.094457142 -0.088491425 1.044 1.6591974e-38
-0.09300001 -0.089000002 1.0500001 1.6960756e-38
-0.091000006 -0.089000002 1.0500001 1.6777087e-38
-0.089000002 -0.089000002 1.0500001 1.6961478e-38
-0.087331429 -0.089339048 1.054 1.6869282e-38
-0.085323811 -0.089339048 1.054 1.7422456e-38
-0.083316192 -0.089339048 1.054 1.7422453e-38
-0.081540003 -0.089593336 1.057 1.7422453e-38
-0.07952667 -0.089593336 1.057 1.7422453e-38
-0.07751333 -0.089593336 1.057 1.7422453e-38
-0.075500004 -0.089593336 1.057 1.7239141e-38
-0.073486671 -0.089593336 1.057 1.7423532e-38
-0.071473338 -0.089593336 1.057 1.714694e-38
-0.069460005 -0.089593336 1.057 1.714694e-38
-0.067446664 -0.089593336 1.057 1.7239138e-38
-0.065433331 -0.089593336 1.057 1.7607921e-38
-0.063420005 -0.089593336 1.057 1.7238062e-38
-0.061406672 -0.089593336 1.057 1.7145866e-38
-0.059224762 -0.089339048 1.054 1.7421727e-38
-0.057 -0.089000002 1.0500001 1.7421727e-38
-0.055000003 -0.089000002 1.0500001 1.7237336e-38
-0.053000003 -0.089000002 1.0500001 1.7052945e-38
-0.051000003 -0.089000002 1.0500001 1.7145854e-38
-0.049186666 -0.089339048 1.054 1.7330245e-38
-0.047000002 -0.089000002 1.0500001 1.7330961e-38
-0.044871431 -0.088745721 1.0470001 1.7699743e-38
-0.042877145 -0.088745721 1.0470001 1.7791586e-38
-0.040882859 -0.088745721 1.0470001 1.7883782e-38
-0.038777143 -0.088491425 1.044 1.8344394e-38
-0.036788572 -0.088491425 1.044 1.8805372e-38
-0.034700003 -0.088237144 1.041 1.7884873e-38
-0.031020002 -0.083659999 0.98700005 1.7147308e-38
-0.029140001 -0.083659999 0.98700005 1.6132453e-38
-0.027315238 -0.08382953 0.98900002 1.4565127e-38
-0.025585715 -0.084338099 0.99500006 1.2904842e-38
-0.023690477 -0.084338099 0.99500006 1.2167277e-38
-0.021860953 -0.08459238 0.99800003 1.327182e-38
-0.019959999 -0.08459238 0.99800003 1.4193776e-38
-0.10740381 -0.082691431 0.99800003 1.1708104e-38
-0.10518572 -0.082442857 0.99500006 1.2627161e-38
-0.10266762 -0.08194571 0.98900002 1.539303e-38
-0.10078382 -0.08194571 0.98900002 1.6221374e-38
-0.098700002 -0.081780002 0.98700005 1.7051134e-38
-0.096525721 -0.081531428 0.98400003 1.668415e-38
-0.094651431 -0.081531428 0.98400003 1.6868541e-38
-0.09277714 -0.081531428 0.98400003 1.6776705e-38
-0.096445717 -0.086502858 1.044 1.6961097e-38
-0.094457142 -0.086502858 1.044 1.6776721e-38
-0.09300001 -0.087000005 1.0500001 1.6961112e-38
-0.091000006 -0.087000005 1.0500001 1.6869279e-38
-0.089000002 -0.087000005 1.0500001 1.7053671e-38
-0.087000005 -0.087000005 1.0500001 1.7053671e-38
-0.085323811 -0.087331429 1.054 1.7422453e-38
-0.083316192 -0.087331429 1.054 1.7238415e-38
-0.081540003 -0.087580003 1.057 1.7422806e-38
-0.07952667 -0.087580003 1.057 1.7330611e-38
-0.07751333 -0.087580003 1.057 1.7330611e-38
-0.075500004 -0.087580003 1.057 1.7238768e-38
-0.073486671 -0.087580003 1.057 1.7423159e-38
-0.071473338 -0.087580003 1.057 1.7146942e-38
-0.069460005 -0.087580003 1.057 1.7054747e-38
-0.067446664 -0.087580003 1.057 1.7238062e-38
-0.065433331 -0.087580003 1.057 1.7422453e-38
-0.063420005 -0.087580003 1.057 1.7053668e-38
-0.061406672 -0.087580003 1.057 1.7330255e-38
-0.059000004 -0.087000005 1.0500001 1.8066025e-38
-0.057 -0.087000005 1.0500001 1.7973829e-38
-0.055000003 -0.087000005 1.0500001 1.7788722e-38
-0.053000003 -0.087000005 1.0500001 1.8157504e-38
-0.051000003 -0.087000005 1.0500001 1.8159668e-38
-0.049186666 -0.087331429 1.054 1.8067472e-38
-0.047000002 -0.087000005 1.0500001 1.8068899e-38
-0.045000002 -0.087000005 1.0500001 1.8345486e-38
-0.043000001 -0.087000005 1.0500001 1.8529524e-38
-0.038188573 -0.081034288 0.97800004 1.8160741e-38
-0.036325715 -0.081034288 0.97800004 1.8990472e-38
-0.034674287 -0.081531428 0.98400003 1.8990472e-38
-0.0328 -0.081531428 0.98400003 1.7149835e-38
-0.031020002 -0.081780002 0.98700005 1.5859096e-38
-0.029140001 -0.081780002 0.98700005 1.4571228e-38
-0.027315238 -0.08194571 0.98900002 1.0699012e-38
-0.025508571 -0.082194284 0.99200004 1.1058697e-38
-0.023690477 -0.082442857 0.99500006 1.2349436e-38
-0.021795239 -0.082442857 0.99500006 1.3823905e-38
-0.0199 -0.082442857 0.99500006 1.4284883e-38
-0.10708096 -0.080547623 0.99500006 1.0784345e-38
-0.10486858 -0.080304772 0.99200004 1.1430418e-38
-0.10266762 -0.080061905 0.98900002 1.3274331e-38
-0.10078382 -0.080061905 0.98900002 1.3918979e-38
-0.098700002 -0.079900004 0.98700005 1.3734587e-38
-0.096525721 -0.079657145 0.98400003 1.438072e-38
-0.094651431 -0.079657145 0.98400003 1.585585e-38
-0.09277714 -0.079657145 0.98400003 1.6226759e-38
-0.090902865 -0.079657145 0.98400003 1.6503346e-38
-0.089300007 -0.079900004 0.98700005 1.6961472e-38
-0.087420009 -0.079900004 0.98700005 1.8252211e-38
-0.085280001 -0.079657145 0.98400003 1.8252204e-38
-0.08315143 -0.079414286 0.98100007 1.8620986e-38
-0.081282862 -0.079414286 0.98100007 1.8620984e-38
-0.079414286 -0.079414286 0.98100007 1.8989766e-38
-0.083316192 -0.085323811 1.054 1.8622426e-38
-0.081540003 -0.08556667 1.057 1.8806817e-38
-0.07952667 -0.08556667 1.057 1.9083048e-38
-0.077733338 -0.085809529 1.0600001 1.9359635e-38
-0.07571429 -0.085809529 1.0600001 1.9820243e-38
-0.073695242 -0.085809529 1.0600001 2.0465612e-38
-0.071676195 -0.085809529 1.0600001 2.0373792e-38
-0.069460005 -0.08556667 1.057 2.0373792e-38
-0.067446664 -0.08556667 1.057 2.0373436e-38
-0.065433331 -0.08556667 1.057 2.0281241e-38
-0.063420005 -0.08556667 1.057 2.0374152e-38
-0.061406672 -0.08556667 1.057 2.0835131e-38
-0.059000004 -0.085000008 1.0500001 2.1019525e-38
-0.056837145 -0.084757142 1.0470001 2.0742938e-38
-0.05484286 -0.084757142 1.0470001 1.9544755e-38
-0.052848574 -0.084757142 1.0470001 1.9452559e-38
-0.051000003 -0.085000008 1.0500001 1.8622095e-38
-0.045500003 -0.078928567 0.97500002 1.8714291e-38
-0.043642856 -0.078928567 0.97500002 1.9083053e-38
-0.041785713 -0.078928567 0.97500002 1.9544032e-38
-0.03992857 -0.078928567 0.97500002 1.7333154e-38
-0.038188573 -0.079171434 0.97800004 1.382972e-38
-0.036325715 -0.079171434 0.97800004 1.4567991e-38
-0.034674287 -0.079657145 0.98400003 1.7149469e-38
-0.0328 -0.079657145 0.98400003 1.7424213e-38
-0.031020002 -0.079900004 0.98700005 1.4842736e-38
-0.029140001 -0.079900004 0.98700005 1.4384301e-38
-0.027315238 -0.080061905 0.98900002 1.0696476e-38
-0.025508571 -0.080304772 0.99200004 1.0049214e-38
-0.023619048 -0.080304772 0.99200004 1.161654e-38
-0.021729525 -0.080304772 0.99200004 1.3823912e-38
-0.01984 -0.080304772 0.99200004 1.4008303e-38
-0.1067581 -0.078415245 0.99200004 1.2258396e-38
-0.10486858 -0.078415245 0.99200004 1.1982157e-38
-0.10266762 -0.0781781 0.98900002 1.2074353e-38
-0.10078382 -0.0781781 0.98900002 1.0144361e-38
-0.098899998 -0.0781781 0.98900002 9.1302092e-39
-0.096820004 -0.078020006 0.98700005 1.1895349e-38
-0.094939999 -0.078020006 0.98700005 1.4753414e-38
-0.09277714 -0.077782862 0.98400003 1.4383948e-38
-0.090902865 -0.077782862 0.98400003 1.3646383e-38
-0.089300007 -0.078020006 0.98700005 1.5212257e-38
-0.087420009 -0.078020006 0.98700005 1.7517147e-38
-0.085280001 -0.077782862 0.98400003 1.7516441e-38
-0.08315143 -0.077545717 0.98100007 1.7055463e-38
-0.081282862 -0.077545717 0.98100007 1.7700423e-38
-0.079414286 -0.077545717 0.98100007 1.9083358e-38
-0.083553337 -0.083553337 1.057 1.8714984e-38
-0.081540003 -0.083553337 1.057 1.8991571e-38
-0.07952667 -0.083553337 1.057 1.9084486e-38
-0.077733338 -0.083790481 1.0600001 1.9084486e-38
-0.07571429 -0.083790481 1.0600001 2.0188672e-38
-0.073695242 -0.083790481 1.0600001 2.0557455e-38
-0.071676195 -0.083790481 1.0600001 2.129502e-38
-0.069657147 -0.083790481 1.0600001 2.1387216e-38
-0.067638099 -0.083790481 1.0600001 2.0927689e-38
-0.060233336 -0.076913334 0.97300005 2.0374515e-38
-0.058380004 -0.076913334 0.97300005 2.0651446e-38
-0.056526672 -0.076913334 0.97300005 2.0928032e-38
-0.054673333 -0.076913334 0.97300005 2.0744017e-38
-0.052820001 -0.076913334 0.97300005 1.9914256e-38
-0.050966669 -0.076913334 0.97300005 1.7244536e-38
-0.049113337 -0.076913334 0.97300005 1.6138188e-38
-0.047357146 -0.077071428 0.97500002 1.6136371e-38
-0.045500003 -0.077071428 0.97500002 1.7795892e-38
-0.043642856 -0.077071428 0.97500002 1.8345877e-38
-0.041785713 -0.077071428 0.97500002 1.8345877e-38
-0.03992857 -0.077071428 0.97500002 1.5310238e-38
-0.038188573 -0.077308573 0.97800004 9.4097178e-39
-0.036437146 -0.077545717 0.98100007 1.1345043e-38
-0.034674287 -0.077782862 0.98400003 1.5678237e-38
-0.032900002 -0.078020006 0.98700005 1.825327e-38
-0.031020002 -0.078020006 0.98700005 1.7239118e-38
-0.029140001 -0.078020006 0.98700005 1.411025e-38
-0.027315238 -0.0781781 0.98900002 7.6565561e-39
-0.025508571 -0.078415245 0.99200004 8.9371005e-39
-0.023619048 -0.078415245 0.99200004 1.2993691e-38
-0.021729525 -0.078415245 0.99200004 1.4008306e-38
-0.01984 -0.078415245 0.99200004 1.4284893e-38
-0.1067581 -0.076525718 0.99200004 1.3458019e-38
-0.10455143 -0.076294288 0.98900002 1.1432608e-38
-0.10266762 -0.076294288 0.98900002 9.1277177e-39
-0.10078382 -0.076294288 0.98900002 5.0822783e-39
-0.098700002 -0.076140001 0.98700005 2.8695832e-39
-0.096820004 -0.076140001 0.98700005 6.7374682e-39
-0.094939999 -0.076140001 0.98700005 1.3744336e-38
-0.09277714 -0.075908571 0.98400003 1.4842768e-38
-0.090902865 -0.075908571 0.98400003 1.373642e-38
-0.089300007 -0.076140001 0.98700005 1.5764689e-38
-0.087420009 -0.076140001 0.98700005 1.7792993e-38
-0.085280001 -0.075908571 0.98400003 1.6502286e-38
-0.08315143 -0.075677149 0.98100007 1.1800309e-38
-0.081282862 -0.075677149 0.98100007 1.2444214e-38
-0.079171434 -0.075445719 0.97800004 1.69618e-38
-0.077308573 -0.075445719 0.97800004 1.751358e-38
-0.075445719 -0.075445719 0.97800004 1.7974558e-38
-0.073582858 -0.075445719 0.97800004 1.6504074e-38
-0.077733338 -0.081771433 1.0600001 1.5305531e-38
-0.06985715 -0.075445719 0.97800004 1.5307346e-38
-0.067994289 -0.075445719 0.97800004 1.4846368e-38
-0.066131428 -0.075445719 0.97800004 1.7700467e-38
-0.064268574 -0.075445719 0.97800004 1.9452183e-38
-0.062405713 -0.075445719 0.97800004 1.8439489e-38
-0.060233336 -0.075060003 0.97300005 1.5858011e-38
-0.058380004 -0.075060003 0.97300005 1.5216592e-38
-0.056526672 -0.075060003 0.97300005 1.6968309e-38
-0.054673333 -0.075060003 0.97300005 1.834693e-38
-0.052820001 -0.075060003 0.97300005 1.8162539e-38
-0.050966669 -0.075060003 0.97300005 1.6967921e-38
-0.049113337 -0.075060003 0.97300005 1.4939617e-38
-0.047260001 -0.075060003 0.97300005 1.4757703e-38
-0.045406669 -0.075060003 0.97300005 1.798455e-38
-0.043642856 -0.075214282 0.97500002 1.8899751e-38
-0.041785713 -0.075214282 0.97500002 1.5857295e-38
-0.03992857 -0.075214282 0.97500002 1.0799502e-38
-0.038188573 -0.075445719 0.97800004 5.5443509e-39
-0.036437146 -0.075677149 0.98100007 5.8281222e-39
-0.034674287 -0.075908571 0.98400003 1.0437904e-38
-0.032900002 -0.076140001 0.98700005 1.7334524e-38
-0.031020002 -0.076140001 0.98700005 1.8348676e-38
-0.029140001 -0.076140001 0.98700005 1.5764018e-38
-0.027315238 -0.076294288 0.98900002 7.8351936e-39
-0.025508571 -0.076525718 0.99200004 7.5596269e-39
-0.023619048 -0.076525718 0.99200004 1.1892821e-38
-0.021729525 -0.076525718 0.99200004 1.4009029e-38
-0.01984 -0.076525718 0.99200004 1.4377811e-38
-0.017950477 -0.076525718 0.99200004 1.4284167e-38
-0.10708096 -0.074861906 0.99500006 1.3273625e-38
-0.10455143 -0.074410483 0.98900002 1.0055435e-38
-0.10266762 -0.074410483 0.98900002 6.1832183e-39
-0.10078382 -0.074410483 0.98900002 2.0520475e-39
-0.098700002 -0.074260004 0.98700005 1.3144824e-39
-0.096820004 -0.074260004 0.98700005 7.29023e-39
-0.094651431 -0.074034289 0.98400003 1.3006359e-38
-0.09277714 -0.074034289 0.98400003 1.5027872e-38
-0.090902865 -0.074034289 0.98400003 1.6042024e-38
-0.089300007 -0.074260004 0.98700005 1.6503018e-38
-0.087154284 -0.074034289 0.98400003 1.68718e-38
-0.085280001 -0.074034289 0.98400003 1.6500835e-38
-0.08315143 -0.073808581 0.98100007 1.0231532e-38
-0.081282862 -0.073808581 0.98100007 1.0598097e-38
-0.079171434 -0.073582858 0.97800004 1.4839096e-38
-0.077308573 -0.073582858 0.97800004 1.8156393e-38
-0.075445719 -0.073582858 0.97800004 1.9262741e-38
-0.073582858 -0.073582858 0.97800004 1.6596658e-38
-0.071719997 -0.073582858 0.97800004 1.5121528e-38
-0.06985715 -0.073582858 0.97800004 1.4022724e-38
-0.067994289 -0.073582858 0.97800004 1.4299311e-38
-0.066131428 -0.073582858 0.97800004 1.7516451e-38
-0.064268574 -0.073582858 0.97800004 1.9175972e-38
-0.062405713 -0.073582858 0.97800004 1.7796996e-38
-0.060357142 -0.073357143 0.97500002 1.4293562e-38
-0.058500003 -0.073357143 0.97500002 1.2457926e-38
-0.05664286 -0.073357143 0.97500002 1.4301838e-38
-0.054785714 -0.073357143 0.97500002 1.8714265e-38
-0.052928571 -0.073357143 0.97500002 1.945183e-38
-0.050966669 -0.073206671 0.97300005 1.8165776e-38
-0.049113337 -0.073206671 0.97300005 1.576869e-38
-0.047260001 -0.073206671 0.97300005 1.3557799e-38
-0.045406669 -0.073206671 0.97300005 1.8536363e-38
-0.043642856 -0.073357143 0.97500002 1.9178489e-38
-0.041785713 -0.073357143 0.97500002 1.2909186e-38
-0.03992857 -0.073357143 0.97500002 8.4996277e-39
-0.038188573 -0.073582858 0.97800004 5.7337588e-39
-0.036437146 -0.073808581 0.98100007 3.2599485e-39
-0.034674287 -0.074034289 0.98400003 5.1960567e-39
-0.032900002 -0.074260004 0.98700005 1.4016222e-38
-0.031020002 -0.074260004 0.98700005 1.6597699e-38
-0.029199047 -0.074410483 0.98900002 1.6497976e-38
-0.027315238 -0.074410483 0.98900002 7.4628041e-39
-0.025508571 -0.074636191 0.99200004 7.0968032e-39
-0.023619048 -0.074636191 0.99200004 1.3181705e-38
-0.021729525 -0.074636191 0.99200004 1.4009745e-38
-0.01984 -0.074636191 0.99200004 1.410194e-38
-0.017950477 -0.074636191 0.99200004 1.4193047e-38
-0.10864762 -0.072746672 0.99200004 1.4564363e-38
-0.1067581 -0.072746672 0.99200004 1.2904842e-38
-0.10518572 -0.072966672 0.99500006 1.0332024e-38
-0.10266762 -0.072526664 0.98900002 6.5520036e-39
-0.10078382 -0.072526664 0.98900002 2.2371716e-39
-0.098700002 -0.072379999 0.98700005 2.3293672e-39
-0.096820004 -0.072379999 0.98700005 4.9018401e-39
-0.094651431 -0.072160006 0.98400003 7.4833178e-39
-0.09277714 -0.072160006 0.98400003 1.3830026e-38
-0.090902865 -0.072160006 0.98400003 1.8347611e-38
-0.089300007 -0.072379999 0.98700005 1.7698327e-38
-0.087154284 -0.072160006 0.98400003 1.4102697e-38
-0.085280001 -0.072160006 0.98400003 1.1616637e-38
-0.082897149 -0.071719997 0.97800004 1.0971267e-38
-0.081034288 -0.071719997 0.97800004 1.106275e-38
-0.079171434 -0.071719997 0.97800004 1.1431532e-38
-0.077308573 -0.071719997 0.97800004 1.4565056e-38
-0.075445719 -0.071719997 0.97800004 1.9082641e-38
-0.073582858 -0.071719997 0.97800004 1.8622463e-38
-0.071719997 -0.071719997 0.97800004 1.8530268e-38
-0.06985715 -0.071719997 0.97800004 1.8627442e-38
-0.067994289 -0.071719997 0.97800004 1.973379e-38
-0.066131428 -0.071719997 0.97800004 1.8994114e-38
-0.064268574 -0.071719997 0.97800004 1.7703376e-38
-0.062405713 -0.071719997 0.97800004 1.5589696e-38
-0.060542859 -0.071719997 0.97800004 1.4298957e-38
-0.058500003 -0.071500003 0.97500002 1.3380276e-38
-0.05664286 -0.071500003 0.97500002 1.3656863e-38
-0.054785714 -0.071500003 0.97500002 1.6232169e-38
-0.052928571 -0.071500003 0.97500002 1.7430712e-38
-0.051071428 -0.071500003 0.97500002 1.8533139e-38
-0.049214289 -0.071500003 0.97500002 1.9916074e-38
-0.047357146 -0.071500003 0.97500002 2.0007884e-38
-0.045500003 -0.071500003 0.97500002 1.797958e-38
-0.043642856 -0.071500003 0.97500002 1.4668078e-38
-0.041785713 -0.071500003 0.97500002 8.4909705e-39
-0.04005143 -0.071719997 0.97800004 4.3630815e-39
-0.038305718 -0.071940005 0.98100007 4.8240596e-39
-0.03654857 -0.072160006 0.98400003 4.5471126e-39
-0.034674287 -0.072160006 0.98400003 3.2563738e-39
-0.032900002 -0.072379999 0.98700005 1.1439024e-38
-0.031082857 -0.072526664 0.98900002 1.4942458e-38
-0.029199047 -0.072526664 0.98900002 1.5117534e-38
-0.027315238 -0.072526664 0.98900002 6.727732e-39
-0.025585715 -0.072966672 0.99500006 7.0075615e-39
-0.023619048 -0.072746672 0.99200004 1.2815886e-38
-0.021729525 -0.072746672 0.99200004 1.4562909e-38
-0.01984 -0.072746672 0.99200004 1.4286322e-38
-0.017950477 -0.072746672 0.99200004 1.4285243e-38
-0.10864762 -0.070857145 0.99200004 1.4196297e-38
-0.1067581 -0.070857145 0.99200004 1.2905558e-38
-0.10518572 -0.071071438 0.99500006 1.0607892e-38
-0.10329048 -0.071071438 0.99500006 7.1044585e-39
-0.10108953 -0.070857145 0.99200004 2.6037891e-39
-0.098899998 -0.070642859 0.98900002 2.9725716e-39
-0.096820004 -0.070500001 0.98700005 1.044029e-39
-0.094939999 -0.070500001 0.98700005 6.7524649e-40
-0.09277714 -0.070285715 0.98400003 1.0516028e-38
-0.090902865 -0.070285715 0.98400003 1.678533e-38
-0.089300007 -0.070500001 0.98700005 1.6778898e-38
-0.087420009 -0.070500001 0.98700005 1.0233009e-38
-0.085280001 -0.070285715 0.98400003 1.0324446e-38
-0.082897149 -0.06985715 0.97800004 1.1615185e-38
-0.081034288 -0.06985715 0.97800004 1.1524088e-38
-0.079171434 -0.06985715 0.97800004 1.0694327e-38
-0.077308573 -0.06985715 0.97800004 1.08794e-38
-0.075445719 -0.06985715 0.97800004 1.530479e-38
-0.073582858 -0.06985715 0.97800004 1.8529151e-38
-0.071719997 -0.06985715 0.97800004 2.0096477e-38
-0.06985715 -0.06985715 0.97800004 2.0190846e-38
-0.067994289 -0.06985715 0.97800004 2.0006454e-38
-0.066131428 -0.06985715 0.97800004 1.8075035e-38
-0.064268574 -0.06985715 0.97800004 1.5124775e-38
-0.062405713 -0.06985715 0.97800004 1.2738481e-38
-0.060357142 -0.069642857 0.97500002 1.3199459e-38
-0.058500003 -0.069642857 0.97500002 1.2922529e-38
-0.05664286 -0.069642857 0.97500002 1.2553747e-38
-0.054785714 -0.069642857 0.97500002 1.2829238e-38
-0.053091429 -0.06985715 0.97800004 1.3290216e-38
-0.051228572 -0.06985715 0.97800004 1.7795201e-38
-0.049214289 -0.069642857 0.97500002 2.1114244e-38
-0.047357146 -0.069642857 0.97500002 2.0652562e-38
-0.045500003 -0.069642857 0.97500002 1.4659846e-38
-0.043777145 -0.06985715 0.97800004 1.0524329e-38
-0.041914288 -0.06985715 0.97800004 6.744308e-39
-0.04005143 -0.06985715 0.97800004 4.1812112e-39
-0.038305718 -0.070071429 0.98100007 4.734385e-39
-0.03654857 -0.070285715 0.98400003 5.1917534e-39
-0.034674287 -0.070285715 0.98400003 3.3478408e-39
-0.032900002 -0.070500001 0.98700005 8.4956396e-39
-0.031082857 -0.070642859 0.98900002 1.3474204e-38
-0.029199047 -0.070642859 0.98900002 1.3738228e-38
-0.027398096 -0.070857145 0.99200004 6.73136e-39
-0.025585715 -0.071071438 0.99500006 7.8347592e-39
-0.023690477 -0.071071438 0.99500006 1.373528e-38
-0.021795239 -0.071071438 0.99500006 1.4654751e-38
-0.0199 -0.071071438 0.99500006 1.4285969e-38
-0.018004762 -0.071071438 0.99500006 1.4377439e-38
-0.10864762 -0.068967618 0.99200004 1.4471439e-38
-0.1067581 -0.068967618 0.99200004 1.4102657e-38
-0.10486858 -0.068967618 0.99200004 1.2449262e-38
-0.10329048 -0.06917619 0.99500006 9.7755884e-39
-0.10108953 -0.068967618 0.99200004 4.0746284e-39
-0.098899998 -0.068759046 0.98900002 3.3370634e-39
-0.096820004 -0.068620004 0.98700005 1.3195593e-39
-0.094939999 -0.068620004 0.98700005 1.0429724e-39
-0.09277714 -0.068411432 0.98400003 9.1338091e-39
-0.090902865 -0.068411432 0.98400003 1.5956286e-38
-0.089300007 -0.068620004 0.98700005 1.6040572e-38
-0.087420009 -0.068620004 0.98700005 1.0047856e-38
-0.085280001 -0.068411432 0.98400003 9.5915853e-39
-0.08315143 -0.068202861 0.98100007 1.0882324e-38
-0.081282862 -0.068202861 0.98100007 1.1433337e-38
-0.079171434 -0.067994289 0.97800004 1.1341141e-38
-0.077308573 -0.067994289 0.97800004 1.1248217e-38
-0.075445719 -0.067994289 0.97800004 1.0787239e-38
-0.073582858 -0.067994289 0.97800004 1.1800337e-38
-0.071719997 -0.067994289 0.97800004 1.9360379e-38
-0.06985715 -0.067994289 0.97800004 2.0007183e-38
-0.067994289 -0.067994289 0.97800004 1.8163271e-38
-0.066131428 -0.067994289 0.97800004 1.4485161e-38
-0.064268574 -0.067994289 0.97800004 1.3286617e-38
-0.062405713 -0.067994289 0.97800004 1.2647362e-38
-0.060357142 -0.067785718 0.97500002 1.3200536e-38
-0.058500003 -0.067785718 0.97500002 1.3015081e-38
-0.05664286 -0.067785718 0.97500002 1.283069e-38
-0.054785714 -0.067785718 0.97500002 1.3014002e-38
-0.053091429 -0.067994289 0.97800004 1.2368632e-38
-0.051228572 -0.067994289 0.97800004 1.5125128e-38
-0.049365718 -0.067994289 0.97800004 1.9734909e-38
-0.04750286 -0.067994289 0.97800004 1.9456878e-38
-0.045639999 -0.067994289 0.97800004 1.0882684e-38
-0.043777145 -0.067994289 0.97800004 3.1674362e-39
-0.041914288 -0.067994289 0.97800004 4.1815881e-39
-0.040174287 -0.068202861 0.98100007 4.8251414e-39
-0.03842286 -0.068411432 0.98400003 5.0095327e-39
-0.036660001 -0.068620004 0.98700005 4.9155322e-39
-0.034779999 -0.068620004 0.98700005 4.0857715e-39
-0.03296667 -0.068759046 0.98900002 1.0609362e-38
-0.031082857 -0.068759046 0.98900002 1.5956709e-38
-0.029199047 -0.068759046 0.98900002 1.5857626e-38
-0.027480954 -0.06917619 0.99500006 7.6522149e-39
-0.025662858 -0.069384769 0.99800003 8.6656451e-39
-0.023833334 -0.06959334 1.001 1.3183231e-38
-0.021926668 -0.06959334 1.001 1.4654028e-38
-0.11087143 -0.067280956 0.99500006 1.5022811e-38
-0.10864762 -0.067078099 0.99200004 1.4930615e-38
-0.1067581 -0.067078099 0.99200004 1.5115006e-38
-0.10486858 -0.067078099 0.99200004 1.309212e-38
-0.10329048 -0.067280956 0.99500006 1.0695034e-38
-0.10108953 -0.067078099 0.99200004 7.8459892e-39
-0.099200003 -0.067078099 0.99200004 4.8957291e-39
-0.097016193 -0.066875242 0.98900002 1.2269727e-39
-0.094939999 -0.066740006 0.98700005 1.0425815e-39
-0.093060002 -0.066740006 0.98700005 7.4771843e-39
-0.091180004 -0.066740006 0.98700005 1.5037226e-38
-0.089300007 -0.066740006 0.98700005 1.4752045e-38
-0.087420009 -0.066740006 0.98700005 9.8656765e-39
-0.085280001 -0.066537142 0.98400003 1.0234068e-38
-0.083405718 -0.066537142 0.98400003 1.124822e-38
-0.081531428 -0.066537142 0.98400003 1.1617728e-38
-0.079414286 -0.066334285 0.98100007 1.1617728e-38
-0.077308573 -0.066131428 0.97800004 1.134186e-38
-0.075445719 -0.066131428 0.97800004 1.0143317e-38
-0.073582858 -0.066131428 0.97800004 9.9614034e-39
-0.071719997 -0.066131428 0.97800004 1.8535597e-38
-0.06985715 -0.066131428 0.97800004 1.9456177e-38
-0.067994289 -0.066131428 0.97800004 1.6966895e-38
-0.066131428 -0.066131428 0.97800004 1.2554087e-38
-0.064268574 -0.066131428 0.97800004 1.2461892e-38
-0.062405713 -0.066131428 0.97800004 1.2463339e-38
-0.060357142 -0.065928571 0.97500002 1.3016513e-38
-0.058500003 -0.065928571 0.97500002 1.3015078e-38
-0.056817144 -0.066131428 0.97800004 1.3015078e-38
-0.054954287 -0.066131428 0.97800004 1.2646661e-38
-0.053091429 -0.066131428 0.97800004 1.1816901e-38
-0.051228572 -0.066131428 0.97800004 1.3287687e-38
-0.049365718 -0.066131428 0.97800004 1.8174055e-38
-0.04750286 -0.066131428 0.97800004 1.8170836e-38
-0.045639999 -0.066131428 0.97800004 9.9654251e-39
-0.043911431 -0.066334285 0.98100007 3.5340495e-39
-0.042042863 -0.066334285 0.98100007 4.5482014e-39
-0.040174287 -0.066334285 0.98100007 5.1921191e-39
-0.038540002 -0.066740006 0.98700005 4.9155322e-39
-0.036660001 -0.066740006 0.98700005 4.3616368e-39
-0.034850478 -0.066875242 0.98900002 6.4821362e-39
-0.03296667 -0.066875242 0.98900002 1.3740752e-38
-0.031082857 -0.066875242 0.98900002 1.6598816e-38
-0.029199047 -0.066875242 0.98900002 1.5949128e-38
-0.02756381 -0.067483813 0.99800003 9.1266513e-39
-0.025739999 -0.06768667 1.001 1.0136426e-38
-0.023833334 -0.06768667 1.001 1.4193033e-38
-0.021926668 -0.06768667 1.001 1.4377441e-38
-0.11087143 -0.065385722 0.99500006 1.4929909e-38
-0.10864762 -0.065188579 0.99200004 1.4838417e-38
-0.1067581 -0.065188579 0.99200004 1.5022808e-38
-0.10518572 -0.065385722 0.99500006 1.2722969e-38
-0.10329048 -0.065385722 0.99500006 1.1063448e-38
-0.10139524 -0.065385722 0.99500006 7.7545447e-39
-0.099200003 -0.065188579 0.99200004 5.7262408e-39
-0.097016193 -0.064991429 0.98900002 2.0549341e-39
-0.095132381 -0.064991429 0.98900002 3.8988467e-39
-0.093060002 -0.064860001 0.98700005 9.4094011e-39
-0.091180004 -0.064860001 0.98700005 1.6416269e-38
-0.089300007 -0.064860001 0.98700005 1.7791936e-38
-0.087420009 -0.064860001 0.98700005 1.2536785e-38
-0.085280001 -0.064662859 0.98400003 9.5908664e-39
-0.083405718 -0.064662859 0.98400003 1.0328431e-38
-0.081531428 -0.064662859 0.98400003 1.1248596e-38
-0.079657145 -0.064662859 0.98400003 1.1617378e-38
-0.077545717 -0.064465716 0.98100007 1.1065997e-38
-0.075677149 -0.064465716 0.98100007 9.959649e-39
-0.073582858 -0.064268574 0.97800004 1.0697217e-38
-0.071719997 -0.064268574 0.97800004 1.8257258e-38
-0.06985715 -0.064268574 0.97800004 1.9455796e-38
-0.067994289 -0.064268574 0.97800004 1.7519688e-38
-0.066131428 -0.064268574 0.97800004 1.3381342e-38
-0.064268574 -0.064268574 0.97800004 1.2828169e-38
-0.062405713 -0.064268574 0.97800004 1.273886e-38
-0.060542859 -0.064268574 0.97800004 1.3107642e-38
-0.058680002 -0.064268574 0.97800004 1.3015434e-38
-0.056817144 -0.064268574 0.97800004 1.310763e-38
-0.054954287 -0.064268574 0.97800004 1.3382784e-38
-0.053091429 -0.064268574 0.97800004 1.2921806e-38
-0.051228572 -0.064268574 0.97800004 1.540351e-38
-0.049365718 -0.064268574 0.97800004 1.9460118e-38
-0.04750286 -0.064268574 0.97800004 1.9732749e-38
-0.045639999 -0.064268574 0.97800004 1.6044923e-38
-0.043911431 -0.064465716 0.98100007 6.7544716e-39
-0.042042863 -0.064465716 0.98100007 4.0807983e-39
-0.040297143 -0.064662859 0.98400003 1.5136756e-39
-0.038540002 -0.064860001 0.98700005 1.1448931e-39
-0.036734283 -0.064991429 0.98900002 7.7620654e-39
-0.034850478 -0.064991429 0.98900002 1.3109412e-38
-0.03296667 -0.064991429 0.98900002 1.5860885e-38
-0.031271432 -0.065385722 0.99500006 1.5676494e-38
-0.029376192 -0.065385722 0.99500006 1.567326e-38
-0.02756381 -0.065582857 0.99800003 1.3737152e-38
-0.025739999 -0.065779999 1.001 1.2259838e-38
-0.023833334 -0.065779999 1.001 1.3550577e-38
-0.10930476 -0.063681908 0.99800003 1.4654749e-38
-0.10740381 -0.063681908 0.99800003 1.5023531e-38
-0.10550286 -0.063681908 0.99800003 1.2814451e-38
-0.10360191 -0.063681908 0.99800003 1.0878343e-38
-0.10170095 -0.063681908 0.99800003 9.6891353e-39
-0.099799998 -0.063681908 0.99800003 7.3842446e-39
-0.097310476 -0.063299052 0.99200004 5.3613665e-39
-0.095132381 -0.063107617 0.98900002 8.4038223e-39
-0.093060002 -0.062980004 0.98700005 1.4012657e-38
-0.091180004 -0.062980004 0.98700005 1.7423895e-38
-0.089300007 -0.062980004 0.98700005 1.71491e-38
-0.087420009 -0.062980004 0.98700005 1.484421e-38
-0.085540004 -0.062980004 0.98700005 1.0697978e-38
-0.083659999 -0.062980004 0.98700005 9.6838258e-39
-0.081780002 -0.062980004 0.98700005 1.0971633e-38
-0.079900004 -0.062980004 0.98700005 1.1432611e-38
-0.077782862 -0.062788568 0.98400003 1.0421693e-38
-0.075677149 -0.062597148 0.98100007 1.0329498e-38
-0.073808581 -0.062597148 0.98100007 1.2447139e-38
-0.071940005 -0.062597148 0.98100007 1.8808637e-38
-0.06985715 -0.062405713 0.97800004 1.9916054e-38
-0.067994289 -0.062405713 0.97800004 1.9086293e-38
-0.066131428 -0.062405713 0.97800004 1.4119291e-38
-0.064268574 -0.062405713 0.97800004 1.245977e-38
-0.062405713 -0.062405713 0.97800004 1.246226e-38
-0.060542859 -0.062405713 0.97800004 1.2923238e-38
-0.058680002 -0.062405713 0.97800004 1.3014715e-38
-0.056817144 -0.062405713 0.97800004 1.2830324e-38
-0.054954287 -0.062405713 0.97800004 1.3382056e-38
-0.053091429 -0.062405713 0.97800004 1.3935229e-38
-0.051228572 -0.062405713 0.97800004 1.7701576e-38
-0.049365718 -0.062405713 0.97800004 2.0006467e-38
-0.047648571 -0.062597148 0.98100007 1.9916389e-38
-0.045780003 -0.062597148 0.98100007 1.862565e-38
-0.043911431 -0.062597148 0.98100007 1.2554858e-38
-0.04217143 -0.062788568 0.98400003 6.1011638e-39
-0.04042 -0.062980004 0.98700005 1.4207401e-39
-0.038618095 -0.063107617 0.98900002 1.6051313e-39
-0.036734283 -0.063107617 0.98900002 9.4176309e-39
-0.034956191 -0.063299052 0.99200004 1.4857173e-38
-0.033066668 -0.063299052 0.99200004 1.6414422e-38
-0.031271432 -0.063490473 0.99500006 1.4109531e-38
-0.029376192 -0.063490473 0.99500006 1.429356e-38
-0.02756381 -0.063681908 0.99800003 1.364819e-38
-0.025739999 -0.063873336 1.001 1.2811918e-38
-0.023833334 -0.063873336 1.001 1.3918265e-38
-0.10550286 -0.061780956 0.99800003 1.3458026e-38
-0.10360191 -0.061780956 0.99800003 7.2809184e-39
-0.10170095 -0.061780956 0.99800003 6.4594772e-39
-0.099799998 -0.061780956 0.99800003 1.1069259e-38
-0.097604766 -0.061595239 0.99500006 1.2635808e-38
-0.095420949 -0.061409526 0.99200004 1.4756308e-38
-0.093060002 -0.061100006 0.98700005 1.5028967e-38
-0.091180004 -0.061100006 0.98700005 1.4014815e-38
-0.089300007 -0.061100006 0.98700005 1.5489907e-38
-0.087420009 -0.061100006 0.98700005 1.7794798e-38
-0.085540004 -0.061100006 0.98700005 1.5673279e-38
-0.083659999 -0.061100006 0.98700005 1.1524476e-38
-0.081780002 -0.061100006 0.98700005 1.0421693e-38
-0.079900004 -0.061100006 0.98700005 9.8685197e-39
-0.077782862 -0.060914289 0.98400003 1.1616621e-38
-0.075908571 -0.060914289 0.98400003 1.6687381e-38
-0.074034289 -0.060914289 0.98400003 1.8255441e-38
-0.071940005 -0.060728572 0.98100007 1.9085202e-38
-0.06985715 -0.060542859 0.97800004 1.9547612e-38
-0.067994289 -0.060542859 0.97800004 2.0192981e-38
-0.066131428 -0.060542859 0.97800004 1.8903364e-38
-0.064268574 -0.060542859 0.97800004 1.6782864e-38
-0.062405713 -0.060542859 0.97800004 1.3750475e-38
-0.060542859 -0.060542859 0.97800004 1.3289497e-38
-0.058680002 -0.060542859 0.97800004 1.2554466e-38
-0.056817144 -0.060542859 0.97800004 1.2646661e-38
-0.054954287 -0.060542859 0.97800004 1.5680813e-38
-0.053254288 -0.060728572 0.98100007 1.8723269e-38
-0.051385716 -0.060728572 0.98100007 1.9822063e-38
-0.049517147 -0.060728572 0.98100007 1.6963999e-38
-0.047648571 -0.060728572 0.98100007 1.8808901e-38
-0.045919999 -0.060914289 0.98400003 2.1205987e-38
-0.044045717 -0.060914289 0.98400003 1.8995559e-38
-0.04217143 -0.060914289 0.98400003 1.622969e-38
-0.04042 -0.061100006 0.98700005 1.1908708e-38
-0.038618095 -0.061223812 0.98900002 1.0617969e-38
-0.036845718 -0.061409526 0.99200004 1.2732393e-38
-0.034956191 -0.061409526 0.99200004 1.5221675e-38
-0.033166666 -0.061595239 0.99500006 1.4204258e-38
-0.031271432 -0.061595239 0.99500006 1.0977411e-38
-0.029464763 -0.061780956 0.99800003 1.116393e-38
-0.02756381 -0.061780956 0.99800003 1.1348322e-38
-0.025662858 -0.061780956 0.99800003 1.2168378e-38
-0.024047619 -0.062523812 1.01 1.3551313e-38
-0.10550286 -0.05988 0.99800003 1.4286344e-38
-0.10360191 -0.05988 0.99800003 8.2936284e-39
-0.10170095 -0.05988 0.99800003 7.3773319e-39
-0.099799998 -0.05988 0.99800003 1.2724667e-38
-0.097604766 -0.059700005 0.99500006 1.4381427e-38
-0.095420949 -0.059520002 0.99200004 1.6317535e-38
-0.093248576 -0.059340004 0.98900002 1.4294992e-38
-0.091364756 -0.059340004 0.98900002 1.180571e-38
-0.089480951 -0.059340004 0.98900002 1.3094628e-38
-0.087597147 -0.059340004 0.98900002 1.6782453e-38
-0.085540004 -0.059220001 0.98700005 1.7517182e-38
-0.083659999 -0.059220001 0.98700005 1.3368379e-38
-0.081780002 -0.059220001 0.98700005 1.0697917e-38
-0.079900004 -0.059220001 0.98700005 1.0790113e-38
-0.078020006 -0.059220001 0.98700005 1.2539332e-38
-0.075908571 -0.059039999 0.98400003 1.890083e-38
-0.074034289 -0.059039999 0.98400003 1.8995184e-38
-0.071940005 -0.058860004 0.98100007 1.7059075e-38
-0.070071429 -0.058860004 0.98100007 1.6782804e-38
-0.067994289 -0.058680002 0.97800004 1.9272086e-38
-0.066131428 -0.058680002 0.97800004 2.0376669e-38
-0.064268574 -0.058680002 0.97800004 1.908593e-38
-0.062405713 -0.058680002 0.97800004 1.5223457e-38
-0.060542859 -0.058680002 0.97800004 1.3102958e-38
-0.058680002 -0.058680002 0.97800004 1.2278572e-38
-0.056991432 -0.058860004 0.98100007 1.3292724e-38
-0.055122864 -0.058860004 0.98100007 1.825475e-38
-0.053254288 -0.058860004 0.98100007 2.037525e-38
-0.051385716 -0.058860004 0.98100007 1.9730231e-38
-0.049668573 -0.059039999 0.98400003 1.4014101e-38
-0.047794286 -0.059039999 0.98400003 1.4933823e-38
-0.045919999 -0.059039999 0.98400003 1.9082626e-38
-0.044045717 -0.059039999 0.98400003 2.1018083e-38
-0.042300001 -0.059220001 0.98700005 1.9727344e-38
-0.04042 -0.059220001 0.98700005 1.5955624e-38
-0.038618095 -0.059340004 0.98900002 1.5310255e-38
-0.036845718 -0.059520002 0.99200004 1.5496434e-38
-0.034956191 -0.059520002 0.99200004 1.3836913e-38
-0.033166666 -0.059700005 0.99500006 1.2637641e-38
-0.031271432 -0.059700005 0.99500006 1.097812e-38
-0.029464763 -0.05988 0.99800003 1.006083e-38
-0.027646668 -0.060060002 1.001 9.3232647e-39
-0.025817145 -0.06024 1.0040001 1.1709533e-38
-0.024047619 -0.060600001 1.01 1.3553446e-38
-0.022255238 -0.060960002 1.016 1.4561833e-38
-0.10582001 -0.058153339 1.001 1.4654764e-38
-0.10360191 -0.057979047 0.99800003 9.4918087e-39
-0.10170095 -0.057979047 0.99800003 7.3759447e-39
-0.099799998 -0.057979047 0.99800003 1.2077922e-38
-0.097604766 -0.057804763 0.99500006 1.3737136e-38
-0.095709525 -0.057804763 0.99500006 1.4474701e-38
-0.093531437 -0.057630476 0.99200004 1.2361385e-38
-0.09164191 -0.057630476 0.99200004 1.0886255e-38
-0.089480951 -0.057456192 0.98900002 1.0795886e-38
-0.087597147 -0.057456192 0.98900002 1.3008582e-38
-0.085713334 -0.057456192 0.98900002 1.5399201e-38
-0.08382953 -0.057456192 0.98900002 1.7150918e-38
-0.081780002 -0.057340004 0.98700005 1.6595917e-38
-0.079900004 -0.057340004 0.98700005 1.6042743e-38
-0.078020006 -0.057340004 0.98700005 1.7793754e-38
-0.075908571 -0.057165716 0.98400003 1.9729862e-38
-0.074034289 -0.057165716 0.98400003 1.7061589e-38
-0.072160006 -0.057165716 0.98400003 1.05157e-38
-0.070071429 -0.056991432 0.98100007 8.2223149e-39
-0.068202861 -0.056991432 0.98100007 1.1449162e-38
-0.066334285 -0.056991432 0.98100007 1.6876078e-38
-0.064465716 -0.056991432 0.98100007 2.0563904e-38
-0.062597148 -0.056991432 0.98100007 2.0193011e-38
-0.060728572 -0.056991432 0.98100007 1.7980316e-38
-0.058860004 -0.056991432 0.98100007 1.7798779e-38
-0.056991432 -0.056991432 0.98100007 1.9642691e-38
-0.055122864 -0.056991432 0.98100007 2.0190493e-38
-0.053417142 -0.057165716 0.98400003 1.7516819e-38
-0.05154286 -0.057165716 0.98400003 1.4474386e-38
-0.049668573 -0.057165716 0.98400003 1.1247539e-38
-0.047794286 -0.057165716 0.98400003 1.1432611e-38
-0.045919999 -0.057165716 0.98400003 1.3645306e-38
-0.044180002 -0.057340004 0.98700005 1.6133141e-38
-0.042300001 -0.057340004 0.98700005 1.9913162e-38
-0.04042 -0.057340004 0.98700005 1.9546918e-38
-0.038618095 -0.057456192 0.98900002 1.8256179e-38
-0.036845718 -0.057630476 0.99200004 1.5311687e-38
-0.035061907 -0.057804763 0.99500006 1.2453623e-38
-0.033166666 -0.057804763 0.99500006 1.098388e-38
-0.031271432 -0.057804763 0.99500006 1.0615098e-38
-0.029464763 -0.057979047 0.99800003 9.9693628e-39
-0.02756381 -0.057979047 0.99800003 8.5864283e-39
-0.025817145 -0.058327623 1.0040001 1.1617703e-38
-0.024047619 -0.058676191 1.01 1.3461616e-38
-0.022255238 -0.059024762 1.016 1.4469986e-38
-0.02032 -0.059024762 1.016 1.4469986e-38
-0.10582001 -0.056246668 1.001 1.4747678e-38
-0.10391334 -0.056246668 1.001 9.6769188e-39
-0.10170095 -0.056078095 0.99800003 7.2804742e-39
-0.099799998 -0.056078095 0.99800003 1.2259023e-38
-0.09789905 -0.056078095 0.99800003 1.2817331e-38
-0.095709525 -0.055909529 0.99500006 1.2909527e-38
-0.093531437 -0.055740956 0.99200004 1.0796237e-38
-0.09164191 -0.055740956 0.99200004 1.0243063e-38
-0.089480951 -0.055572383 0.98900002 9.5112657e-39
-0.087597147 -0.055572383 0.98900002 1.0248831e-38
-0.085713334 -0.055572383 0.98900002 1.3741462e-38
-0.08382953 -0.055572383 0.98900002 1.6876113e-38
-0.081780002 -0.055460002 0.98700005 1.7701558e-38
-0.079900004 -0.055460002 0.98700005 1.8623514e-38
-0.078020006 -0.055460002 0.98700005 1.8258332e-38
-0.076140001 -0.055460002 0.98700005 1.7428571e-38
-0.074034289 -0.055291429 0.98400003 1.3380251e-38
-0.072160006 -0.055291429 0.98400003 7.4797304e-39
-0.070285715 -0.055291429 0.98400003 1.6994625e-39
-0.068202861 -0.055122864 0.98100007 3.2667883e-39
-0.066334285 -0.055122864 0.98100007 1.3282593e-38
-0.064465716 -0.055122864 0.98100007 1.7707983e-38
-0.062597148 -0.055122864 0.98100007 2.1019875e-38
-0.060728572 -0.055122864 0.98100007 2.0466701e-38
-0.059039999 -0.055291429 0.98400003 1.9822076e-38
-0.057165716 -0.055291429 0.98400003 2.0467445e-38
-0.055291429 -0.055291429 0.98400003 2.0189774e-38
-0.053417142 -0.055291429 0.98400003 1.4750232e-38
-0.05154286 -0.055291429 0.98400003 1.3367287e-38
-0.049668573 -0.055291429 0.98400003 1.2445331e-38
-0.047794286 -0.055291429 0.98400003 1.171063e-38
-0.046060003 -0.055460002 0.98700005 1.1065261e-38
-0.044180002 -0.055460002 0.98700005 1.3459435e-38
-0.042300001 -0.055460002 0.98700005 1.9359956e-38
-0.04042 -0.055460002 0.98700005 1.9363253e-38
-0.038735237 -0.055740956 0.99200004 1.7980318e-38
-0.036845718 -0.055740956 0.99200004 1.4300772e-38
-0.035061907 -0.055909529 0.99500006 1.0981729e-38
-0.033166666 -0.055909529 0.99500006 1.061689e-38
-0.031365715 -0.056078095 0.99800003 1.0432499e-38
-0.029464763 -0.056078095 0.99800003 1.0061195e-38
-0.02756381 -0.056078095 0.99800003 9.415826e-39
-0.025817145 -0.056415241 1.0040001 1.1986473e-38
-0.024119047 -0.056920953 1.013 1.3553799e-38
-0.022189524 -0.056920953 1.013 1.456183e-38
-0.10645429 -0.054665718 1.0070001 1.4748392e-38
-0.10391334 -0.054340001 1.001 1.0599588e-38
-0.10200667 -0.054340001 1.001 8.0202421e-39
-0.099799998 -0.054177143 0.99800003 1.0140742e-38
-0.09789905 -0.054177143 0.99800003 1.235703e-38
-0.095998101 -0.054177143 0.99800003 1.3094595e-38
-0.093531437 -0.053851429 0.99200004 1.0981357e-38
-0.09164191 -0.053851429 0.99200004 1.0428183e-38
-0.089752384 -0.053851429 0.99200004 9.880051e-39
-0.087862857 -0.053851429 0.99200004 1.0156638e-38
-0.085973337 -0.053851429 0.99200004 1.1349779e-38
-0.08382953 -0.053688571 0.98900002 1.4207844e-38
-0.081780002 -0.053580001 0.98700005 1.7241652e-38
-0.079900004 -0.053580001 0.98700005 1.917776e-38
-0.078020006 -0.053580001 0.98700005 1.7336716e-38
-0.076140001 -0.053580001 0.98700005 1.0606435e-38
-0.074260004 -0.053580001 0.98700005 6.1093881e-39
-0.072160006 -0.053417142 0.98400003 6.2937793e-39
-0.070285715 -0.053417142 0.98400003 6.0218896e-39
-0.068411432 -0.053417142 0.98400003 5.7453027e-39
-0.066537142 -0.053417142 0.98400003 8.0418767e-39
-0.064662859 -0.053417142 0.98400003 9.3326155e-39
-0.062788568 -0.053417142 0.98400003 1.5861573e-38
-0.060914289 -0.053417142 0.98400003 2.120892e-38
-0.059039999 -0.053417142 0.98400003 2.1941841e-38
-0.057165716 -0.053417142 0.98400003 1.8530603e-38
-0.055291429 -0.053417142 0.98400003 1.5395967e-38
-0.053417142 -0.053417142 0.98400003 1.1984728e-38
-0.051700003 -0.053580001 0.98700005 1.1895034e-38
-0.049819998 -0.053580001 0.98700005 1.281699e-38
-0.047940001 -0.053580001 0.98700005 1.254005e-38
-0.046060003 -0.053580001 0.98700005 1.1433703e-38
-0.044180002 -0.053580001 0.98700005 1.1157469e-38
-0.042300001 -0.053580001 0.98700005 1.5767251e-38
-0.04042 -0.053580001 0.98700005 1.6873245e-38
-0.038735237 -0.053851429 0.99200004 1.6965441e-38
-0.036957145 -0.054014288 0.99500006 1.4575892e-38
-0.035061907 -0.054014288 0.99500006 1.1533436e-38
-0.033166666 -0.054014288 0.99500006 1.0433578e-38
-0.031365715 -0.054177143 0.99800003 9.8804041e-39
-0.029464763 -0.054177143 0.99800003 1.1809312e-38
-0.027646668 -0.054340001 1.001 1.2178095e-38
-0.025817145 -0.05450286 1.0040001 1.3368326e-38
-0.023904763 -0.05450286 1.0040001 1.3644913e-38
-0.021992382 -0.05450286 1.0040001 1.4378518e-38
-0.10391334 -0.052433338 1.001 1.0784343e-38
-0.10170095 -0.052276194 0.99800003 8.6652233e-39
-0.099799998 -0.052276194 0.99800003 1.0601332e-38
-0.09789905 -0.052276194 0.99800003 1.1801378e-38
-0.095998101 -0.052276194 0.99800003 1.3092117e-38
-0.093814291 -0.05211905 0.99500006 9.8768112e-39
-0.09191905 -0.05211905 0.99500006 9.8768112e-39
-0.090023816 -0.05211905 0.99500006 9.7885742e-39
-0.087597147 -0.051804762 0.98900002 1.0157357e-38
-0.085713334 -0.051804762 0.98900002 1.0063363e-38
-0.08382953 -0.051804762 0.98900002 1.2183863e-38
-0.081780002 -0.051700003 0.98700005 1.5861245e-38
-0.079900004 -0.051700003 0.98700005 1.7520767e-38
-0.078020006 -0.051700003 0.98700005 1.439115e-38
-0.076140001 -0.051700003 0.98700005 6.9233042e-39
-0.074260004 -0.051700003 0.98700005 2.0668256e-39
-0.072160006 -0.05154286 0.98400003 4.7404988e-39
-0.070285715 -0.05154286 0.98400003 7.0335178e-39
-0.068620004 -0.051700003 0.98700005 6.6647352e-39
-0.066537142 -0.05154286 0.98400003 3.7249022e-39
-0.064662859 -0.05154286 0.98400003 1.9731852e-39
-0.062788568 -0.05154286 0.98400003 1.0248789e-38
-0.060914289 -0.05154286 0.98400003 1.9191765e-38
-0.059220001 -0.051700003 0.98700005 2.1758913e-38
-0.057340004 -0.051700003 0.98700005 1.6595957e-38
-0.055460002 -0.051700003 0.98700005 1.2633319e-38
-0.053580001 -0.051700003 0.98700005 1.1711363e-38
-0.051700003 -0.051700003 0.98700005 1.2447852e-38
-0.049819998 -0.051700003 0.98700005 1.290883e-38
-0.047940001 -0.051700003 0.98700005 1.2816634e-38
-0.046060003 -0.051700003 0.98700005 1.1525896e-38
-0.044180002 -0.051700003 0.98700005 1.0423128e-38
-0.042300001 -0.051700003 0.98700005 1.5309497e-38
-0.040501904 -0.051804762 0.98900002 1.6136769e-38
-0.038735237 -0.051961906 0.99200004 1.6413356e-38
-0.036957145 -0.05211905 0.99500006 1.3102229e-38
-0.035061907 -0.05211905 0.99500006 1.0981729e-38
-0.033166666 -0.05211905 0.99500006 1.0433578e-38
-0.031365715 -0.052276194 0.99800003 1.0433578e-38
-0.029464763 -0.052276194 0.99800003 1.2360681e-38
-0.027646668 -0.052433338 1.001 1.2545073e-38
-0.025817145 -0.052590482 1.0040001 1.4103349e-38
-0.023904763 -0.052590482 1.0040001 1.428774e-38
-0.10170095 -0.050375238 0.99800003 1.087762e-38
-0.099799998 -0.050375238 0.99800003 1.2168359e-38
-0.09789905 -0.050375238 0.99800003 1.3093212e-38
-0.095998101 -0.050375238 0.99800003 1.4199559e-38
-0.093814291 -0.050223812 0.99500006 1.1904001e-38
-0.09191905 -0.050223812 0.99500006 1.0336675e-38
-0.090023816 -0.050223812 0.99500006 9.512e-39
-0.087597147 -0.04992095 0.98900002 1.0249565e-38
-0.085713334 -0.04992095 0.98900002 1.0156653e-38
-0.08382953 -0.04992095 0.98900002 1.107861e-38
-0.08194571 -0.04992095 0.98900002 1.5216945e-38
-0.080061905 -0.04992095 0.98900002 1.6968662e-38
-0.0781781 -0.04992095 0.98900002 1.3930888e-38
-0.076140001 -0.049819998 0.98700005 7.0162159e-39
-0.074260004 -0.049819998 0.98700005 2.3441411e-39
-0.072379999 -0.049819998 0.98700005 4.7412275e-39
-0.070500001 -0.049819998 0.98700005 6.7580071e-39
-0.068620004 -0.049819998 0.98700005 6.5736158e-39
-0.066740006 -0.049819998 0.98700005 5.4715997e-39
-0.064860001 -0.049819998 0.98700005 3.4432958e-39
-0.062980004 -0.049819998 0.98700005 7.5816146e-39
-0.061100006 -0.049819998 0.98700005 1.5233852e-38
-0.059220001 -0.049819998 0.98700005 2.0101165e-38
-0.057340004 -0.049819998 0.98700005 1.346308e-38
-0.055460002 -0.049819998 0.98700005 9.6870404e-39
-0.053580001 -0.049819998 0.98700005 1.1254366e-38
-0.051700003 -0.049819998 0.98700005 1.3001031e-38
-0.049819998 -0.049819998 0.98700005 1.3001031e-38
-0.047940001 -0.049819998 0.98700005 1.2540053e-38
-0.046060003 -0.049819998 0.98700005 1.1157119e-38
-0.044180002 -0.049819998 0.98700005 1.143369e-38
