# .PCD v0.7 - Point Cloud Data file format
VERSION 0.7
FIELDS x y z rgb
SIZE 4 4 4 4
TYPE F F F F
COUNT 1 1 1 1
WIDTH 1023
HEIGHT 1
VIEWPOINT 0 0 0 1 0 0 0
POINTS 1023
DATA ascii
-0.12904763 -0.10633525 1.0840001 1.6409024e-38
-0.12698287 -0.10633525 1.0840001 1.6317179e-38
-0.12526381 -0.10662952 1.087 1.6593766e-38
-0.12319333 -0.10662952 1.087 1.6593769e-38
-0.12112286 -0.10662952 1.087 1.6593769e-38
-0.11905239 -0.10662952 1.087 1.6869279e-38
-0.1169819 -0.10662952 1.087 1.6777084e-38
-0.11491142 -0.10662952 1.087 1.6868916e-38
-0.11284095 -0.10662952 1.087 1.6868916e-38
-0.11077047 -0.10662952 1.087 1.6777081e-38
-0.1087 -0.10662952 1.087 1.6777081e-38
-0.10633525 -0.10633525 1.0840001 1.650085e-38
-0.10427048 -0.10633525 1.0840001 1.6408654e-38
-0.10220572 -0.10633525 1.0840001 1.6407575e-38
-0.10014096 -0.10633525 1.0840001 1.6407575e-38
-0.098076202 -0.10633525 1.0840001 1.631538e-38
-0.096011437 -0.10633525 1.0840001 1.631538e-38
-0.093600005 -0.10594286 1.08 1.5762919e-38
-0.091542862 -0.10594286 1.08 1.5486332e-38
-0.08948572 -0.10594286 1.08 1.5669998e-38
-0.087185711 -0.10564857 1.077 1.5116824e-38
-0.085134283 -0.10564857 1.077 1.4748041e-38
-0.083082855 -0.10564857 1.077 1.456365e-38
-0.080730483 -0.10525619 1.0730001 1.4194505e-38
-0.078466676 -0.10496191 1.0700001 1.42867e-38
-0.076428577 -0.10496191 1.0700001 1.4101603e-38
-0.074390478 -0.10496191 1.0700001 1.5023559e-38
-0.07235238 -0.10496191 1.0700001 1.5945152e-38
-0.15603334 -0.10167333 1.057 1.382429e-38
-0.15402001 -0.10167333 1.057 1.4930638e-38
-0.15200667 -0.10167333 1.057 1.4654401e-38
-0.15141238 -0.10263524 1.067 1.4746597e-38
-0.1498 -0.10292382 1.0700001 1.4562947e-38
-0.14776191 -0.10292382 1.0700001 1.5300512e-38
-0.14572382 -0.10292382 1.0700001 1.5116836e-38
-0.14368573 -0.10292382 1.0700001 1.5485619e-38
-0.14204477 -0.10321239 1.0730001 1.5485263e-38
-0.14000095 -0.10321239 1.0730001 1.576185e-38
-0.13847142 -0.10359714 1.077 1.5762566e-38
-0.13679999 -0.10388572 1.08 1.6131349e-38
-0.13474287 -0.10388572 1.08 1.6223544e-38
-0.13317716 -0.10427048 1.0840001 1.6407935e-38
-0.1311124 -0.10427048 1.0840001 1.613279e-38
-0.12904763 -0.10427048 1.0840001 1.6409377e-38
-0.12733428 -0.10455905 1.087 1.6593046e-38
-0.12526381 -0.10455905 1.087 1.6593046e-38
-0.12319333 -0.10455905 1.087 1.6868914e-38
-0.12112286 -0.10455905 1.087 1.7237696e-38
-0.11905239 -0.10455905 1.087 1.6961109e-38
-0.1169819 -0.10455905 1.087 1.6868914e-38
-0.11491142 -0.10455905 1.087 1.6868914e-38
-0.11284095 -0.10455905 1.087 1.6776718e-38
-0.11077047 -0.10455905 1.087 1.6777074e-38
-0.1087 -0.10455905 1.087 1.686927e-38
-0.10633525 -0.10427048 1.0840001 1.6316103e-38
-0.10427048 -0.10427048 1.0840001 1.6316103e-38
-0.10220572 -0.10427048 1.0840001 1.594732e-38
-0.10014096 -0.10427048 1.0840001 1.594732e-38
-0.098347619 -0.10455905 1.087 1.5577824e-38
-0.096011437 -0.10427048 1.0840001 1.5393433e-38
-0.09394668 -0.10427048 1.0840001 1.5393418e-38
-0.091542862 -0.10388572 1.08 1.5393418e-38
-0.08948572 -0.10388572 1.08 1.5301212e-38
-0.087185711 -0.10359714 1.077 1.493243e-38
-0.085134283 -0.10359714 1.077 1.5208657e-38
-0.083082855 -0.10359714 1.077 1.5577439e-38
-0.080730483 -0.10321239 1.0730001 1.6130244e-38
-0.078466676 -0.10292382 1.0700001 1.6867809e-38
-0.076428577 -0.10292382 1.0700001 1.6590532e-38
-0.074390478 -0.10292382 1.0700001 1.6221749e-38
-0.15603334 -0.099660002 1.057 1.3363306e-38
-0.15402001 -0.099660002 1.057 1.4285263e-38
-0.15200667 -0.099660002 1.057 1.4929912e-38
-0.15141238 -0.10060286 1.067 1.5298694e-38
-0.1498 -0.10088572 1.0700001 1.4655502e-38
-0.14776191 -0.10088572 1.0700001 1.5116481e-38
-0.14613239 -0.10116857 1.0730001 1.4932796e-38
-0.14408858 -0.10116857 1.0730001 1.5393774e-38
-0.14204477 -0.10116857 1.0730001 1.5393423e-38
-0.14052285 -0.10154571 1.077 1.5762206e-38
-0.13847142 -0.10154571 1.077 1.5762206e-38
-0.13679999 -0.10182858 1.08 1.6038793e-38
-0.13474287 -0.10182858 1.08 1.6038793e-38
-0.13317716 -0.10220572 1.0840001 1.6499771e-38
-0.1311124 -0.10220572 1.0840001 1.6316456e-38
-0.12940475 -0.10248857 1.087 1.622426e-38
-0.12733428 -0.10248857 1.087 1.6132067e-38
-0.12526381 -0.10248857 1.087 1.6593046e-38
-0.12319333 -0.10248857 1.087 1.6684522e-38
-0.12112286 -0.10248857 1.087 1.6684522e-38
-0.11905239 -0.10248857 1.087 1.6868553e-38
-0.1169819 -0.10248857 1.087 1.6776358e-38
-0.11491142 -0.10248857 1.087 1.6776355e-38
-0.11284095 -0.10248857 1.087 1.6868551e-38
-0.11077047 -0.10248857 1.087 1.6684875e-38
-0.1087 -0.10248857 1.087 1.659268e-38
-0.10662952 -0.10248857 1.087 1.5948752e-38
-0.10455905 -0.10248857 1.087 1.5856557e-38
-0.10220572 -0.10220572 1.0840001 1.5855112e-38
-0.10014096 -0.10220572 1.0840001 1.5855112e-38
-0.098347619 -0.10248857 1.087 1.5301938e-38
-0.096011437 -0.10220572 1.0840001 1.5301938e-38
-0.09394668 -0.10220572 1.0840001 1.5301578e-38
-0.091881916 -0.10220572 1.0840001 1.5301578e-38
-0.08948572 -0.10182858 1.08 1.5393042e-38
-0.08742857 -0.10182858 1.08 1.585402e-38
-0.085134283 -0.10154571 1.077 1.622068e-38
-0.083082855 -0.10154571 1.077 1.6497267e-38
-0.080730483 -0.10116857 1.0730001 1.6959655e-38
-0.078686669 -0.10116857 1.0730001 1.7328437e-38
-0.1538762 -0.098847628 1.0700001 1.4010464e-38
-0.15183809 -0.098847628 1.0700001 1.5762181e-38
-0.1498 -0.098847628 1.0700001 1.557638e-38
-0.14817619 -0.099124767 1.0730001 1.6037358e-38
-0.14667714 -0.099494286 1.077 1.6038061e-38
-0.14462572 -0.099494286 1.077 1.6038061e-38
-0.14297144 -0.099771433 1.08 1.6131692e-38
-0.14091429 -0.099771433 1.08 1.5947301e-38
-0.13885714 -0.099771433 1.08 1.5946597e-38
-0.13679999 -0.099771433 1.08 1.5854402e-38
-0.13524191 -0.10014096 1.0840001 1.5946244e-38
-0.13317716 -0.10014096 1.0840001 1.6407222e-38
-0.13147524 -0.1004181 1.087 1.6131336e-38
-0.12940475 -0.1004181 1.087 1.603914e-38
-0.12733428 -0.1004181 1.087 1.6038437e-38
-0.12526381 -0.1004181 1.087 1.6499415e-38
-0.12319333 -0.1004181 1.087 1.6499052e-38
-0.12112286 -0.1004181 1.087 1.6406856e-38
-0.11905239 -0.1004181 1.087 1.6406859e-38
-0.1169819 -0.1004181 1.087 1.6406859e-38
-0.11491142 -0.1004181 1.087 1.6499408e-38
-0.11284095 -0.1004181 1.087 1.6591604e-38
-0.11077047 -0.1004181 1.087 1.6591238e-38
-0.1087 -0.1004181 1.087 1.6591238e-38
-0.10662952 -0.1004181 1.087 1.6591598e-38
-0.10455905 -0.1004181 1.087 1.6591598e-38
-0.10248857 -0.1004181 1.087 1.6501553e-38
-0.1004181 -0.1004181 1.087 1.677814e-38
-0.098347619 -0.1004181 1.087 1.696145e-38
-0.096277148 -0.1004181 1.087 1.7053645e-38
-0.094206668 -0.1004181 1.087 1.7422438e-38
-0.092136197 -0.1004181 1.087 1.7975611e-38
-0.09006571 -0.1004181 1.087 1.7884485e-38
-0.087752387 -0.10014096 1.0840001 1.8161072e-38
-0.085371435 -0.099771433 1.08 1.733063e-38
-0.083314285 -0.099771433 1.08 1.58555e-38
-0.081257142 -0.099771433 1.08 1.3920121e-38
-0.0792 -0.099771433 1.08 1.3551338e-38
-0.071470477 -0.094967619 1.028 9.7752801e-39
-0.063452385 -0.094690487 1.0250001 1.3639157e-38
-0.15991621 -0.10060953 1.1120001 1.2443514e-38
-0.15566953 -0.09925238 1.097 1.4564013e-38
-0.15358 -0.09925238 1.097 1.5301203e-38
-0.14914286 -0.09771429 1.08 1.640755e-38
-0.14708571 -0.09771429 1.08 1.6315367e-38
-0.14502856 -0.09771429 1.08 1.603878e-38
-0.14297144 -0.09771429 1.08 1.6315361e-38
-0.13178095 -0.091380946 1.01 1.6223166e-38
-0.12985715 -0.091380946 1.01 1.6038437e-38
-0.12793334 -0.091380946 1.01 1.6222828e-38
-0.13524191 -0.098076202 1.0840001 1.6223191e-38
-0.13317716 -0.098076202 1.0840001 1.6499778e-38
-0.13147524 -0.098347619 1.087 1.6499771e-38
-0.12940475 -0.098347619 1.087 1.6499771e-38
-0.12698287 -0.098076202 1.0840001 1.6590181e-38
-0.12491811 -0.098076202 1.0840001 1.7051159e-38
-0.12285335 -0.098076202 1.0840001 1.6959327e-38
-0.12078858 -0.098076202 1.0840001 1.6774936e-38
-0.11872382 -0.098076202 1.0840001 1.6774936e-38
-0.11665906 -0.098076202 1.0840001 1.7143718e-38
-0.11491142 -0.098347619 1.087 1.7144434e-38
-0.11284095 -0.098347619 1.087 1.6867847e-38
-0.11077047 -0.098347619 1.087 1.7051866e-38
-0.1087 -0.098347619 1.087 1.7789431e-38
-0.10662952 -0.098347619 1.087 1.7974198e-38
-0.10455905 -0.098347619 1.087 1.7789806e-38
-0.10248857 -0.098347619 1.087 1.7699037e-38
-0.1004181 -0.098347619 1.087 1.7791233e-38
-0.098347619 -0.098347619 1.087 1.8067094e-38
-0.096277148 -0.098347619 1.087 1.8159289e-38
-0.094206668 -0.098347619 1.087 1.8343328e-38
-0.092136197 -0.098347619 1.087 1.8435523e-38
-0.09006571 -0.098347619 1.087 1.7793015e-38
-0.087752387 -0.098076202 1.0840001 1.705545e-38
-0.085687622 -0.098076202 1.0840001 1.6044923e-38
-0.078840002 -0.092466667 1.0220001 1.484638e-38
-0.076893337 -0.092466667 1.0220001 1.1255445e-38
-0.075166672 -0.092738099 1.0250001 1.051788e-38
-0.073428571 -0.093009517 1.028 9.4133149e-39
-0.071470477 -0.093009517 1.028 6.9240329e-39
-0.069512382 -0.093009517 1.028 9.5890097e-39
-0.067554288 -0.093009517 1.028 1.2723661e-38
-0.15890951 -0.09787143 1.105 9.4947051e-39
-0.15566953 -0.097162858 1.097 8.2961619e-39
-0.15358 -0.097162858 1.097 1.0783251e-38
-0.14071906 -0.090254292 1.0190001 1.4747663e-38
-0.13836953 -0.089988574 1.016 1.3644925e-38
-0.13603143 -0.089722857 1.013 1.2538578e-38
-0.13370477 -0.089457139 1.01 1.3461256e-38
-0.13178095 -0.089457139 1.01 1.5766146e-38
-0.12985715 -0.089457139 1.01 1.6591616e-38
-0.12793334 -0.089457139 1.01 1.7236986e-38
-0.12563524 -0.089191437 1.0070001 1.6961828e-38
-0.12371716 -0.089191437 1.0070001 1.7791589e-38
-0.12179905 -0.089191437 1.0070001 1.7883428e-38
-0.12940475 -0.096277148 1.087 1.8344407e-38
-0.12698287 -0.096011437 1.0840001 1.8344407e-38
-0.12491811 -0.096011437 1.0840001 1.8713189e-38
-0.12285335 -0.096011437 1.0840001 1.8529877e-38
-0.12078858 -0.096011437 1.0840001 1.8714268e-38
-0.11872382 -0.096011437 1.0840001 1.8989782e-38
-0.11665906 -0.096011437 1.0840001 1.9727347e-38
-0.11491142 -0.096277148 1.087 1.9544032e-38
-0.11284095 -0.096277148 1.087 1.9451836e-38
-0.11077047 -0.096277148 1.087 1.9544026e-38
-0.1087 -0.096277148 1.087 2.0005004e-38
-0.098781914 -0.089191437 1.0070001 1.9174543e-38
-0.096863814 -0.089191437 1.0070001 1.880576e-38
-0.094945721 -0.089191437 1.0070001 1.7056923e-38
-0.093304761 -0.089457139 1.01 1.6595945e-38
-0.091380946 -0.089457139 1.01 1.6596292e-38
-0.089722857 -0.089722857 1.013 1.6872879e-38
-0.087793328 -0.089722857 1.013 1.7515728e-38
-0.092136197 -0.096277148 1.087 1.640938e-38
-0.09006571 -0.096277148 1.087 1.3366231e-38
-0.082490481 -0.090254292 1.0190001 1.1614514e-38
-0.080549523 -0.090254292 1.0190001 1.2813788e-38
-0.078840002 -0.090520002 1.0220001 1.6409418e-38
-0.076893337 -0.090520002 1.0220001 1.456726e-38
-0.075166672 -0.090785727 1.0250001 1.2999934e-38
-0.073428571 -0.091051422 1.028 1.1070315e-38
-0.071470477 -0.091051422 1.028 7.659077e-39
-0.069309533 -0.090785727 1.0250001 9.4064724e-39
-0.067357145 -0.090785727 1.0250001 1.2172341e-38
-0.065404765 -0.090785727 1.0250001 1.4008642e-38
-0.1620343 -0.096373342 1.1120001 9.4947177e-39
-0.15890951 -0.095766664 1.105 9.034806e-39
-0.15623716 -0.09542001 1.1010001 7.0065021e-39
-0.15414001 -0.09542001 1.1010001 7.4699171e-39
-0.14071906 -0.088313334 1.0190001 1.1895307e-38
-0.13836953 -0.088053331 1.016 1.1342583e-38
-0.13603143 -0.087793328 1.013 9.5908664e-39
-0.13370477 -0.087533325 1.01 9.9646488e-39
-0.13178095 -0.087533325 1.01 1.457443e-38
-0.12985715 -0.087533325 1.01 1.6224996e-38
-0.12793334 -0.087533325 1.01 1.5764018e-38
-0.12563524 -0.087273337 1.0070001 1.5948024e-38
-0.12371716 -0.087273337 1.0070001 1.6777784e-38
-0.12179905 -0.087273337 1.0070001 1.696363e-38
-0.11988096 -0.087273337 1.0070001 1.6871435e-38
-0.11796286 -0.087273337 1.0070001 1.6318626e-38
-0.11604477 -0.087273337 1.0070001 1.5949844e-38
-0.11412667 -0.087273337 1.0070001 1.5949125e-38
-0.1118743 -0.087013341 1.0040001 1.6317908e-38
-0.10996191 -0.087013341 1.0040001 1.7515021e-38
-0.10804953 -0.087013341 1.0040001 1.8897956e-38
-0.10613715 -0.087013341 1.0040001 1.8439489e-38
-0.10422476 -0.087013341 1.0040001 1.7240946e-38
-0.10231239 -0.087013341 1.0040001 1.7149075e-38
-0.10070001 -0.087273337 1.0070001 1.8624205e-38
-0.098781914 -0.087273337 1.0070001 1.8440208e-38
-0.096863814 -0.087273337 1.0070001 1.8071425e-38
-0.094945721 -0.087273337 1.0070001 1.5769794e-38
-0.093304761 -0.087533325 1.01 1.4294664e-38
-0.091380946 -0.087533325 1.01 1.365179e-38
-0.089722857 -0.087793328 1.013 1.5311311e-38
-0.087793328 -0.087793328 1.013 1.6688138e-38
-0.085863806 -0.087793328 1.013 1.3645682e-38
-0.084182858 -0.088053331 1.016 1.3823914e-38
-0.082247622 -0.088053331 1.016 1.2348784e-38
-0.080549523 -0.088313334 1.0190001 1.3456924e-38
-0.078840002 -0.088573337 1.0220001 1.6407184e-38
-0.076893337 -0.088573337 1.0220001 1.6684157e-38
-0.075166672 -0.08883334 1.0250001 1.4655853e-38
-0.073428571 -0.089093328 1.028 1.2081227e-38
-0.071470477 -0.089093328 1.028 7.9324241e-39
-0.069309533 -0.08883334 1.0250001 9.4053611e-39
-0.067357145 -0.08883334 1.0250001 1.2908795e-38
-0.065404765 -0.08883334 1.0250001 1.4192331e-38
-0.1620343 -0.094255246 1.1120001 7.557155e-39
-0.15890951 -0.093661904 1.105 7.1008488e-39
-0.15623716 -0.093322858 1.1010001 5.6257187e-39
-0.14350002 -0.08688096 1.0250001 6.2678707e-39
-0.14113335 -0.086626671 1.0220001 1.1984e-38
-0.13877811 -0.086372383 1.0190001 1.2629029e-38
-0.1364343 -0.086118095 1.016 1.2629029e-38
-0.13410191 -0.085863806 1.013 1.2538606e-38
-0.13178095 -0.085609525 1.01 1.5765453e-38
-0.12985715 -0.085609525 1.01 1.5212995e-38
-0.12793334 -0.085609525 1.01 1.30003e-38
-0.12600952 -0.085609525 1.01 1.217484e-38
-0.12371716 -0.085355245 1.0070001 1.3373383e-38
-0.12179905 -0.085355245 1.0070001 1.54885e-38
-0.11988096 -0.085355245 1.0070001 1.6687043e-38
-0.11796286 -0.085355245 1.0070001 1.55839e-38
-0.11604477 -0.085355245 1.0070001 1.3924379e-38
-0.11412667 -0.085355245 1.0070001 1.410808e-38
-0.1118743 -0.085100956 1.0040001 1.4753449e-38
-0.10996191 -0.085100956 1.0040001 1.7331687e-38
-0.10804953 -0.085100956 1.0040001 1.8714621e-38
-0.10613715 -0.085100956 1.0040001 1.6413709e-38
-0.10422476 -0.085100956 1.0040001 9.5912322e-39
-0.10231239 -0.085100956 1.0040001 8.4016587e-39
-0.10070001 -0.085355245 1.0070001 1.2642658e-38
-0.098781914 -0.085355245 1.0070001 1.6411541e-38
-0.096863814 -0.085355245 1.0070001 1.9085214e-38
-0.094945721 -0.085355245 1.0070001 1.8532388e-38
-0.093304761 -0.085609525 1.01 1.5766519e-38
-0.091380946 -0.085609525 1.01 1.6137462e-38
-0.089722857 -0.085863806 1.013 1.7981375e-38
-0.087793328 -0.085863806 1.013 1.7423908e-38
-0.085863806 -0.085863806 1.013 1.2537539e-38
-0.084182858 -0.086118095 1.016 9.5879952e-39
-0.082247622 -0.086118095 1.016 9.0348214e-39
-0.080549523 -0.086372383 1.0190001 1.0324096e-38
-0.078840002 -0.086626671 1.0220001 1.3735334e-38
-0.077119052 -0.08688096 1.0250001 1.4564386e-38
-0.075386666 -0.087135233 1.028 1.4748777e-38
-0.073428571 -0.087135233 1.028 1.2082294e-38
-0.071470477 -0.087135233 1.028 7.564708e-39
-0.069512382 -0.087135233 1.028 9.2213454e-39
-0.067554288 -0.087135233 1.028 1.3185758e-38
-0.065596186 -0.087135233 1.028 1.4561833e-38
-0.1620343 -0.09213715 1.1120001 7.0976286e-39
-0.14740478 -0.08492858 1.0250001 7.1919654e-39
-0.1454524 -0.08492858 1.0250001 6.546596e-39
-0.14308001 -0.084680006 1.0220001 6.9121135e-39
-0.14113335 -0.084680006 1.0220001 1.0323352e-38
-0.13877811 -0.084431432 1.0190001 1.3455868e-38
-0.1364343 -0.084182858 1.016 1.5852954e-38
-0.13449904 -0.084182858 1.016 1.5209045e-38
-0.13217239 -0.083934292 1.013 1.594661e-38
-0.12985715 -0.083685718 1.01 1.3926219e-38
-0.12793334 -0.083685718 1.01 1.116035e-38
-0.12600952 -0.083685718 1.01 9.9686341e-39
-0.12408571 -0.083685718 1.01 1.1259373e-38
-0.12216191 -0.083685718 1.01 1.5212973e-38
-0.1202381 -0.083685718 1.01 1.7056885e-38
-0.11831428 -0.083685718 1.01 1.604563e-38
-0.11604477 -0.083437152 1.0070001 1.3740739e-38
-0.11412667 -0.083437152 1.0070001 1.4201737e-38
-0.11220858 -0.083437152 1.0070001 1.6598823e-38
-0.11029048 -0.083437152 1.0070001 1.8899378e-38
-0.10804953 -0.083188578 1.0040001 1.8346204e-38
-0.10613715 -0.083188578 1.0040001 1.402345e-38
-0.10422476 -0.083188578 1.0040001 6.6477992e-39
-0.10231239 -0.083188578 1.0040001 3.992822e-39
-0.10070001 -0.083437152 1.0070001 7.3118647e-39
-0.098781914 -0.083437152 1.0070001 1.5213689e-38
-0.096863814 -0.083437152 1.0070001 1.8163949e-38
-0.094945721 -0.083437152 1.0070001 1.9084846e-38
-0.093304761 -0.083685718 1.01 1.8347281e-38
-0.091380946 -0.083685718 1.01 1.7241697e-38
-0.089722857 -0.083934292 1.013 1.7702675e-38
-0.087793328 -0.083934292 1.013 1.6687409e-38
-0.085863806 -0.083934292 1.013 1.097128e-38
-0.084182858 -0.084182858 1.016 9.1305889e-39
-0.082247622 -0.084182858 1.016 8.9461977e-39
-0.080549523 -0.084431432 1.0190001 8.8521846e-39
-0.078840002 -0.084680006 1.0220001 1.1525858e-38
-0.077119052 -0.08492858 1.0250001 1.3368717e-38
-0.075386666 -0.085177138 1.028 1.3829695e-38
-0.073428571 -0.085177138 1.028 1.0977041e-38
-0.071470477 -0.085177138 1.028 7.657998e-39
-0.069512382 -0.085177138 1.028 9.497554e-39
-0.067554288 -0.085177138 1.028 1.3554162e-38
-0.065787621 -0.085425712 1.031 1.4654028e-38
-0.15455714 -0.084757142 1.0470001 1.3735701e-38
-0.15168856 -0.084271431 1.041 8.0195723e-39
-0.14740478 -0.0829762 1.0250001 7.0090034e-39
-0.1454524 -0.0829762 1.0250001 6.6402209e-39
-0.14308001 -0.082733333 1.0220001 7.2809366e-39
-0.14113335 -0.082733333 1.0220001 7.4653279e-39
-0.13918668 -0.082733333 1.0220001 8.4787708e-39
-0.13683714 -0.082490481 1.0190001 1.567003e-38
-0.13449904 -0.082247622 1.016 1.5211575e-38
-0.13256381 -0.082247622 1.016 1.3552054e-38
-0.13024285 -0.082004763 1.013 1.1348341e-38
-0.12831333 -0.082004763 1.013 1.1071754e-38
-0.12600952 -0.081761904 1.01 1.0614392e-38
-0.12408571 -0.081761904 1.01 1.107537e-38
-0.12216191 -0.081761904 1.01 1.2638692e-38
-0.1202381 -0.081761904 1.01 1.45748e-38
-0.11831428 -0.081761904 1.01 1.604421e-38
-0.11604477 -0.081519052 1.0070001 1.7703732e-38
-0.11412667 -0.081519052 1.0070001 1.8347997e-38
-0.11220858 -0.081519052 1.0070001 1.8993366e-38
-0.11029048 -0.081519052 1.0070001 1.7059075e-38
-0.10837239 -0.081519052 1.0070001 1.1711729e-38
-0.10613715 -0.081276193 1.0040001 7.3043215e-39
-0.10422476 -0.081276193 1.0040001 6.0135827e-39
-0.10231239 -0.081276193 1.0040001 6.0172176e-39
-0.10070001 -0.081519052 1.0070001 6.0172176e-39
-0.098781914 -0.081519052 1.0070001 9.0502553e-39
-0.096863814 -0.081519052 1.0070001 1.1078559e-38
-0.094945721 -0.081519052 1.0070001 1.6597687e-38
-0.093304761 -0.081761904 1.01 2.0008925e-38
-0.091652378 -0.082004763 1.013 1.9820265e-38
-0.089722857 -0.082004763 1.013 1.4841701e-38
-0.087793328 -0.082004763 1.013 1.1708848e-38
-0.085863806 -0.082004763 1.013 9.6805439e-39
-0.084182858 -0.082247622 1.016 1.0234794e-38
-0.082247622 -0.082247622 1.016 1.0234794e-38
-0.080549523 -0.082490481 1.0190001 9.2206448e-39
-0.078840002 -0.082733333 1.0220001 1.0511384e-38
-0.077119052 -0.0829762 1.0250001 1.2725132e-38
-0.075386666 -0.083219044 1.028 1.3647089e-38
-0.073428571 -0.083219044 1.028 1.1068517e-38
-0.071470477 -0.083219044 1.028 8.0260617e-39
-0.069512382 -0.083219044 1.028 9.9578315e-39
-0.067554288 -0.083219044 1.028 1.3737852e-38
-0.065787621 -0.083461903 1.031 1.4745868e-38
-0.063823812 -0.083461903 1.031 1.4377085e-38
-0.061860003 -0.083461903 1.031 1.4377085e-38
-0.15655144 -0.08276286 1.0470001 1.5483436e-38
-0.15455714 -0.08276286 1.0470001 1.4289597e-38
-0.15168856 -0.082288571 1.041 8.3890764e-39
-0.1492743 -0.082051434 1.0380001 7.46713e-39
-0.14587809 -0.081260949 1.028 7.0983474e-39
-0.14350002 -0.081023812 1.0250001 7.098688e-39
-0.14113335 -0.080786668 1.0220001 6.6377098e-39
-0.13918668 -0.080786668 1.0220001 7.4688732e-39
-0.13683714 -0.080549523 1.0190001 1.4936719e-38
-0.13489619 -0.080549523 1.0190001 1.4662728e-38
-0.13256381 -0.080312386 1.016 1.1159294e-38
-0.13024285 -0.080075242 1.013 8.7737006e-39
-0.12831333 -0.080075242 1.013 1.0064439e-38
-0.12600952 -0.079838097 1.01 1.0431079e-38
-0.12408571 -0.079838097 1.01 1.0523275e-38
-0.12216191 -0.079838097 1.01 1.0064795e-38
-0.1202381 -0.079838097 1.01 1.1078947e-38
-0.11831428 -0.079838097 1.01 1.475562e-38
-0.11639047 -0.079838097 1.01 1.8259054e-38
-0.11446667 -0.079838097 1.01 1.9176706e-38
-0.11254285 -0.079838097 1.01 1.8346946e-38
-0.11061905 -0.079838097 1.01 1.2277851e-38
-0.10837239 -0.07960096 1.0070001 6.0085478e-39
-0.10645429 -0.07960096 1.0070001 3.1684914e-39
-0.1045362 -0.07960096 1.0070001 4.9202083e-39
-0.1026181 -0.07960096 1.0070001 6.0186526e-39
-0.10070001 -0.07960096 1.0070001 5.6498701e-39
-0.098781914 -0.07960096 1.0070001 2.7107404e-39
-0.096863814 -0.07960096 1.0070001 2.5263492e-39
-0.095228568 -0.079838097 1.01 1.2729433e-38
-0.093581907 -0.080075242 1.013 1.890654e-38
-0.091652378 -0.080075242 1.013 1.9912123e-38
-0.089722857 -0.080075242 1.013 1.1614517e-38
-0.087793328 -0.080075242 1.013 1.0782547e-38
-0.086118095 -0.080312386 1.016 1.1335721e-38
-0.084431432 -0.080549523 1.0190001 1.1154952e-38
-0.082490481 -0.080549523 1.0190001 1.078617e-38
-0.080786668 -0.080786668 1.0220001 9.0366039e-39
-0.078840002 -0.080786668 1.0220001 1.143369e-38
-0.077119052 -0.081023812 1.0250001 1.2449634e-38
-0.075606667 -0.081498094 1.031 1.3187199e-38
-0.073642857 -0.081498094 1.031 1.0977041e-38
-0.071679048 -0.081498094 1.031 7.9345849e-39
-0.069715239 -0.081498094 1.031 1.0049991e-38
-0.06775143 -0.081498094 1.031 1.3922207e-38
-0.065787621 -0.081498094 1.031 1.4838066e-38
-0.063823812 -0.081498094 1.031 1.4469284e-38
-0.15655144 -0.080768578 1.0470001 1.6036256e-38
-0.15455714 -0.080768578 1.0470001 1.4841316e-38
-0.15168856 -0.08030571 1.041 1.179886e-38
-0.1492743 -0.080074295 1.0380001 7.8370433e-39
-0.14587809 -0.079302855 1.028 7.1916739e-39
-0.14350002 -0.07907144 1.0250001 6.9161016e-39
-0.14113335 -0.078840002 1.0220001 6.547319e-39
-0.13918668 -0.078840002 1.0220001 7.0079216e-39
-0.13724001 -0.078840002 1.0220001 1.3646007e-38
-0.13489619 -0.078608572 1.0190001 1.3926569e-38
-0.13256381 -0.07837715 1.016 1.1068505e-38
-0.13062857 -0.07837715 1.016 9.0506561e-39
-0.12831333 -0.078145713 1.013 9.8804167e-39
-0.12600952 -0.077914283 1.01 1.0155932e-38
-0.12408571 -0.077914283 1.01 1.061691e-38
-0.12216191 -0.077914283 1.01 1.0800581e-38
-0.1202381 -0.077914283 1.01 1.0800581e-38
-0.11831428 -0.077914283 1.01 1.2177386e-38
-0.11639047 -0.077914283 1.01 1.6049602e-38
-0.11446667 -0.077914283 1.01 1.7889549e-38
-0.11254285 -0.077914283 1.01 1.4201724e-38
-0.11061905 -0.077914283 1.01 6.9359299e-39
-0.10837239 -0.077682868 1.0070001 5.184213e-39
-0.10645429 -0.077682868 1.0070001 5.191766e-39
-0.1045362 -0.077682868 1.0070001 5.929331e-39
-0.1026181 -0.077682868 1.0070001 6.3870694e-39
-0.10070001 -0.077682868 1.0070001 6.479265e-39
-0.099076189 -0.077914283 1.01 5.8360564e-39
-0.097152382 -0.077914283 1.01 3.3467744e-39
-0.095228568 -0.077914283 1.01 9.1377944e-39
-0.093304761 -0.077914283 1.01 1.6790032e-38
-0.091652378 -0.078145713 1.013 1.8347634e-38
-0.089722857 -0.078145713 1.013 9.8656358e-39
-0.088053331 -0.07837715 1.016 7.934938e-39
-0.086118095 -0.07837715 1.016 9.5944594e-39
-0.084431432 -0.078608572 1.0190001 1.06025e-38
-0.082490481 -0.078608572 1.0190001 1.0141522e-38
-0.080786668 -0.078840002 1.0220001 1.0508131e-38
-0.07907144 -0.07907144 1.0250001 1.4288152e-38
-0.077119052 -0.07907144 1.0250001 1.5395206e-38
-0.075606667 -0.079534285 1.031 1.6040575e-38
-0.073642857 -0.079534285 1.031 1.41999e-38
-0.071679048 -0.079534285 1.031 1.0235488e-38
-0.069715239 -0.079534285 1.031 1.0878693e-38
-0.06775143 -0.079534285 1.031 1.410554e-38
-0.065787621 -0.079534285 1.031 1.4745874e-38
-0.063823812 -0.079534285 1.031 1.4469287e-38
-0.15854572 -0.078774288 1.0470001 1.4376735e-38
-0.15655144 -0.078774288 1.0470001 1.5298691e-38
-0.15455714 -0.078774288 1.0470001 1.4840597e-38
-0.15168856 -0.078322858 1.041 1.2351315e-38
-0.1492743 -0.07809715 1.0380001 1.0140803e-38
-0.14587809 -0.07734476 1.028 7.9281081e-39
-0.14391999 -0.07734476 1.028 7.2834393e-39
-0.14154764 -0.077119052 1.0250001 6.6380699e-39
-0.13959526 -0.077119052 1.0250001 6.8253156e-39
-0.13724001 -0.076893337 1.0220001 1.4016575e-38
-0.13489619 -0.076667622 1.0190001 1.3834392e-38
-0.13295525 -0.076667622 1.0190001 1.1806088e-38
-0.13062857 -0.076441906 1.016 9.0510218e-39
-0.12869334 -0.076441906 1.016 9.512e-39
-0.1267581 -0.076441906 1.016 9.6963912e-39
-0.12408571 -0.075990476 1.01 1.0526152e-38
-0.12216191 -0.075990476 1.01 1.1076805e-38
-0.12095239 -0.076441906 1.016 1.0984609e-38
-0.11901715 -0.076441906 1.016 1.1259739e-38
-0.11673619 -0.076216191 1.013 1.5224151e-38
-0.11480667 -0.076216191 1.013 1.6695706e-38
-0.11287715 -0.076216191 1.013 1.3561055e-38
-0.11061905 -0.075990476 1.01 4.7318668e-39
-0.10869523 -0.075990476 1.01 3.7177149e-39
-0.10677142 -0.075990476 1.01 3.8135105e-39
-0.10484762 -0.075990476 1.01 4.8276624e-39
-0.10292381 -0.075990476 1.01 6.479265e-39
-0.101 -0.075990476 1.01 6.5714606e-39
-0.099076189 -0.075990476 1.01 5.5601856e-39
-0.097152382 -0.075990476 1.01 3.3474904e-39
-0.095228568 -0.075990476 1.01 8.5882108e-39
-0.093304761 -0.075990476 1.01 1.6148252e-38
-0.091652378 -0.076216191 1.013 1.7520782e-38
-0.089988574 -0.076441906 1.016 1.060611e-38
-0.088053331 -0.076441906 1.016 8.9447964e-39
-0.086372383 -0.076667622 1.0190001 9.6823614e-39
-0.084680006 -0.076893337 1.0220001 1.0049308e-38
-0.082733333 -0.076893337 1.0220001 9.864917e-39
-0.080786668 -0.076893337 1.0220001 1.0784741e-38
-0.07907144 -0.077119052 1.0250001 1.4841348e-38
-0.077119052 -0.077119052 1.0250001 1.5670724e-38
-0.075606667 -0.077570483 1.031 1.5578528e-38
-0.073642857 -0.077570483 1.031 1.4750585e-38
-0.071679048 -0.077570483 1.031 1.0878368e-38
-0.069715239 -0.077570483 1.031 1.1154557e-38
-0.06775143 -0.077570483 1.031 1.4197013e-38
-0.065787621 -0.077570483 1.031 1.4837701e-38
-0.063823812 -0.077570483 1.031 1.4561114e-38
-0.15854572 -0.076779999 1.0470001 1.4192347e-38
-0.15655144 -0.076779999 1.0470001 1.474552e-38
-0.15455714 -0.076779999 1.0470001 1.4471454e-38
-0.15168856 -0.076339997 1.041 1.2350955e-38
-0.1492743 -0.076120012 1.0380001 9.773443e-39
-0.14672953 -0.075826667 1.034 9.5890518e-39
-0.14391999 -0.075386666 1.028 9.2209951e-39
-0.14154764 -0.075166672 1.0250001 8.2068432e-39
-0.13959526 -0.075166672 1.0250001 9.033762e-39
-0.13724001 -0.074946672 1.0220001 1.4934282e-38
-0.13489619 -0.074726671 1.0190001 1.4752746e-38
-0.13295525 -0.074726671 1.0190001 1.4752746e-38
-0.13101429 -0.074726671 1.0190001 1.2272799e-38
-0.12869334 -0.07450667 1.016 1.0797669e-38
-0.1267581 -0.07450667 1.016 9.8800734e-39
-0.12482286 -0.07450667 1.016 1.0433247e-38
-0.12288762 -0.07450667 1.016 1.0800578e-38
-0.12095239 -0.07450667 1.016 1.1077165e-38
-0.11901715 -0.07450667 1.016 1.3007503e-38
-0.11673619 -0.074286662 1.013 1.6695328e-38
-0.11480667 -0.074286662 1.013 1.7889552e-38
-0.11287715 -0.074286662 1.013 1.6691009e-38
-0.11094762 -0.074286662 1.013 9.8819175e-39
-0.10901809 -0.074286662 1.013 5.272136e-39
-0.10677142 -0.074066661 1.01 1.5151049e-39
-0.10484762 -0.074066661 1.01 3.1746263e-39
-0.10292381 -0.074066661 1.01 5.2825295e-39
-0.101 -0.074066661 1.01 4.913747e-39
-0.099076189 -0.074066661 1.01 5.5569457e-39
-0.097152382 -0.074066661 1.01 8.0462278e-39
-0.095228568 -0.074066661 1.01 1.3282314e-38
-0.093304761 -0.074066661 1.01 1.8168682e-38
-0.091652378 -0.074286662 1.013 1.9085214e-38
-0.089988574 -0.07450667 1.016 1.6688128e-38
-0.088053331 -0.07450667 1.016 1.2264594e-38
-0.086372383 -0.074726671 1.0190001 9.0377473e-39
-0.084680006 -0.074946672 1.0220001 9.0394625e-39
-0.082733333 -0.074946672 1.0220001 1.0698984e-38
-0.080786668 -0.074946672 1.0220001 1.263153e-38
-0.07907144 -0.075166672 1.0250001 1.4752029e-38
-0.077119052 -0.075166672 1.0250001 1.2448934e-38
-0.075606667 -0.075606667 1.031 1.0973804e-38
-0.073642857 -0.075606667 1.031 1.1435157e-38
-0.071679048 -0.075606667 1.031 1.0697592e-38
-0.069715239 -0.075606667 1.031 1.1889974e-38
-0.067948572 -0.075826667 1.034 1.4471452e-38
-0.066234291 -0.076120012 1.0380001 1.4837701e-38
-0.064257152 -0.076120012 1.0380001 1.4745505e-38
-0.15854572 -0.074785717 1.0470001 1.4101224e-38
-0.15655144 -0.074785717 1.0470001 1.4654398e-38
-0.15455714 -0.074785717 1.0470001 1.4471099e-38
-0.15168856 -0.074357137 1.041 1.2258403e-38
-0.14970571 -0.074357137 1.041 9.8656386e-39
-0.14672953 -0.073857144 1.034 9.3124649e-39
-0.14391999 -0.073428571 1.028 9.5901308e-39
-0.14154764 -0.073214293 1.0250001 1.0788674e-38
-0.13959526 -0.073214293 1.0250001 1.2904154e-38
-0.13724001 -0.073000006 1.0220001 1.4840262e-38
-0.13529335 -0.073000006 1.0220001 1.4108045e-38
-0.13295525 -0.072785713 1.0190001 1.5030001e-38
-0.13101429 -0.072785713 1.0190001 1.4019494e-38
-0.12907334 -0.072785713 1.0190001 1.199119e-38
-0.1267581 -0.072571434 1.016 9.6034767e-39
-0.12482286 -0.072571434 1.016 9.8800636e-39
-0.12288762 -0.072571434 1.016 1.0156635e-38
-0.12095239 -0.072571434 1.016 1.1355178e-38
-0.11901715 -0.072571434 1.016 1.5396693e-38
-0.11673619 -0.07235714 1.013 1.7885975e-38
-0.11480667 -0.07235714 1.013 1.8440536e-38
-0.11287715 -0.07235714 1.013 1.7979558e-38
-0.11094762 -0.07235714 1.013 1.4302232e-38
-0.10901809 -0.07235714 1.013 8.6782988e-39
-0.10677142 -0.072142854 1.01 1.5144015e-39
-0.10484762 -0.072142854 1.01 2.1597709e-39
-0.10322952 -0.07235714 1.013 2.3405132e-39
-0.10129999 -0.07235714 1.013 2.3405132e-39
-0.09937048 -0.07235714 1.013 6.3834568e-39
-0.097440958 -0.07235714 1.013 1.1269825e-38
-0.095511429 -0.07235714 1.013 1.714841e-38
-0.093581907 -0.07235714 1.013 1.8346953e-38
-0.091923811 -0.072571434 1.016 1.8623868e-38
-0.090254292 -0.072785713 1.0190001 1.7978498e-38
-0.088313334 -0.072785713 1.0190001 1.6502693e-38
-0.086372383 -0.072785713 1.0190001 1.170852e-38
-0.084680006 -0.073000006 1.0220001 9.0394527e-39
-0.082733333 -0.073000006 1.0220001 1.1713126e-38
-0.080786668 -0.073000006 1.0220001 1.5119364e-38
-0.07907144 -0.073214293 1.0250001 1.2814474e-38
-0.077119052 -0.073214293 1.0250001 1.0148707e-38
-0.075826667 -0.073857144 1.034 8.8579677e-39
-0.073857144 -0.073857144 1.034 1.0332745e-38
-0.07188762 -0.073857144 1.034 1.0517136e-38
-0.069918096 -0.073857144 1.034 1.1890327e-38
-0.068211436 -0.074142866 1.0380001 1.4471805e-38
-0.066234291 -0.074142866 1.0380001 1.4930612e-38
-0.064257152 -0.074142866 1.0380001 1.4654025e-38
-0.15854572 -0.072791435 1.0470001 1.4561482e-38
-0.15655144 -0.072791435 1.0470001 1.5114656e-38
-0.15455714 -0.072791435 1.0470001 1.4655495e-38
-0.15168856 -0.072374292 1.041 1.2719387e-38
-0.14970571 -0.072374292 1.041 9.3146453e-39
-0.14672953 -0.07188762 1.034 8.4848846e-39
-0.14391999 -0.071470477 1.028 1.0143302e-38
-0.14154764 -0.071261905 1.0250001 1.3462344e-38
-0.13959526 -0.071261905 1.0250001 1.3460562e-38
-0.13724001 -0.071053334 1.0220001 1.0233715e-38
-0.13529335 -0.071053334 1.0220001 9.5965277e-39
-0.13295525 -0.070844762 1.0190001 1.2362397e-38
-0.13101429 -0.070844762 1.0190001 1.3648213e-38
-0.12907334 -0.070844762 1.0190001 1.4938951e-38
-0.12713239 -0.070844762 1.0190001 1.2825259e-38
-0.12519144 -0.070844762 1.0190001 1.1165738e-38
-0.12325048 -0.070844762 1.0190001 1.2086635e-38
-0.12130953 -0.070844762 1.0190001 1.5958852e-38
-0.11936858 -0.070844762 1.0190001 1.7977432e-38
-0.11742762 -0.070844762 1.0190001 1.6225715e-38
-0.11514667 -0.07063619 1.016 1.7610701e-38
-0.11321143 -0.07063619 1.016 1.9178026e-38
-0.11094762 -0.070427619 1.013 1.77963e-38
-0.10901809 -0.070427619 1.013 1.7243126e-38
-0.10740571 -0.07063619 1.016 1.2552315e-38
-0.10515904 -0.070427619 1.013 6.6517943e-39
-0.10322952 -0.070427619 1.013 4.4548862e-39
-0.10129999 -0.070427619 1.013 7.8661245e-39
-0.09937048 -0.070427619 1.013 1.4573021e-38
-0.097440958 -0.070427619 1.013 1.8445237e-38
-0.095794283 -0.07063619 1.016 1.8164707e-38
-0.093859047 -0.07063619 1.016 1.5214447e-38
-0.092195243 -0.070844762 1.0190001 1.6045244e-38
-0.090254292 -0.070844762 1.0190001 1.7889157e-38
-0.088313334 -0.070844762 1.0190001 1.825475e-38
-0.086626671 -0.071053334 1.0220001 1.7148403e-38
-0.084680006 -0.071053334 1.0220001 1.604273e-38
-0.082733333 -0.071053334 1.0220001 1.6503709e-38
-0.081023812 -0.071261905 1.0250001 1.4570522e-38
-0.07907144 -0.071261905 1.0250001 9.1309799e-39
-0.077570483 -0.071679048 1.031 3.0658687e-39
-0.075826667 -0.07188762 1.034 2.1439124e-39
-0.073857144 -0.07188762 1.034 7.660519e-39
-0.07188762 -0.07188762 1.034 9.9654097e-39
-0.069918096 -0.07188762 1.034 1.1982507e-38
-0.068211436 -0.07216572 1.0380001 1.4748376e-38
-0.066234291 -0.07216572 1.0380001 1.5022808e-38
-0.064257152 -0.07216572 1.0380001 1.4654025e-38
-0.15854572 -0.070797145 1.0470001 1.4377811e-38
-0.15655144 -0.070797145 1.0470001 1.4930985e-38
-0.15455714 -0.070797145 1.0470001 1.4656925e-38
-0.15212572 -0.070594288 1.044 1.327399e-38
-0.14970571 -0.070391431 1.041 9.1342015e-39
-0.14729716 -0.070188574 1.0380001 7.4746802e-39
-0.14476 -0.069918096 1.034 1.0695747e-38
-0.1419619 -0.069512382 1.028 1.4106985e-38
-0.1400038 -0.069512382 1.028 1.2267061e-38
-0.13764286 -0.069309533 1.0250001 5.9055622e-39
-0.13529335 -0.069106668 1.0220001 4.1656596e-39
-0.13334668 -0.069106668 1.0220001 7.300311e-39
-0.13140002 -0.069106668 1.0220001 1.4290288e-38
-0.12907334 -0.068903819 1.0190001 1.6595178e-38
-0.12713239 -0.068903819 1.0190001 1.4941443e-38
-0.12519144 -0.068903819 1.0190001 1.3466313e-38
-0.12325048 -0.068903819 1.0190001 1.4754916e-38
-0.12130953 -0.068903819 1.0190001 1.7612981e-38
-0.11936858 -0.068903819 1.0190001 1.834658e-38
-0.11742762 -0.068903819 1.0190001 1.3460212e-38
-0.11548667 -0.068903819 1.0190001 1.3824967e-38
-0.11321143 -0.068700954 1.016 1.6959618e-38
-0.11127619 -0.068700954 1.016 1.9357107e-38
-0.10934096 -0.068700954 1.016 2.0186867e-38
-0.10740571 -0.068700954 1.016 1.7337833e-38
-0.10547048 -0.068700954 1.016 1.0791943e-38
-0.10353524 -0.068700954 1.016 7.8528135e-39
-0.1016 -0.068700954 1.016 1.172503e-38
-0.099664763 -0.068700954 1.016 1.7975274e-38
-0.097729526 -0.068700954 1.016 1.9634795e-38
-0.095794283 -0.068700954 1.016 1.7428584e-38
-0.093859047 -0.068700954 1.016 1.2818802e-38
-0.092195243 -0.068903819 1.0190001 1.23632e-38
-0.090254292 -0.068903819 1.0190001 1.4391503e-38
-0.088573337 -0.069106668 1.0220001 1.8069264e-38
-0.086626671 -0.069106668 1.0220001 1.8345851e-38
-0.084680006 -0.069106668 1.0220001 1.7699766e-38
-0.082733333 -0.069106668 1.0220001 1.677781e-38
-0.081023812 -0.069309533 1.0250001 1.3743983e-38
-0.079302855 -0.069512382 1.028 6.276137e-39
-0.077570483 -0.069715239 1.031 1.8734267e-39
-0.075826667 -0.069918096 1.034 1.7812311e-39
-0.073857144 -0.069918096 1.034 7.8441689e-39
-0.07188762 -0.069918096 1.034 9.9646684e-39
-0.070188574 -0.070188574 1.0380001 1.1613365e-38
-0.068211436 -0.070188574 1.0380001 1.4655821e-38
-0.066425718 -0.070391431 1.041 1.5022808e-38
-0.064442858 -0.070391431 1.041 1.4746221e-38
-0.15655144 -0.068802863 1.0470001 1.4930259e-38
-0.15455714 -0.068802863 1.0470001 1.465583e-38
-0.15212572 -0.068605714 1.044 1.4102657e-38
-0.14970571 -0.068408571 1.041 9.8696141e-39
-0.14729716 -0.068211436 1.0380001 5.9973977e-39
-0.14532001 -0.068211436 1.0380001 9.0387562e-39
-0.14237618 -0.06775143 1.031 1.1435843e-38
-0.1400038 -0.067554288 1.028 9.7806107e-39
-0.13764286 -0.067357145 1.0250001 4.9864379e-39
-0.13569048 -0.067357145 1.0250001 2.0524721e-39
-0.13334668 -0.067160003 1.0220001 2.7900371e-39
-0.13140002 -0.067160003 1.0220001 8.7696537e-39
-0.12907334 -0.066962861 1.0190001 1.3748218e-38
-0.12713239 -0.066962861 1.0190001 1.5676128e-38
-0.12519144 -0.066962861 1.0190001 1.7243454e-38
-0.12325048 -0.066962861 1.0190001 1.7609363e-38
-0.12130953 -0.066962861 1.0190001 1.6134232e-38
-0.11936858 -0.066962861 1.0190001 1.3827572e-38
-0.11742762 -0.066962861 1.0190001 1.0785116e-38
-0.11548667 -0.066962861 1.0190001 1.0603191e-38
-0.11321143 -0.066765718 1.016 1.0971974e-38
-0.11127619 -0.066765718 1.016 1.4565403e-38
-0.10934096 -0.066765718 1.016 1.8898598e-38
-0.10740571 -0.066765718 1.016 1.8439139e-38
-0.10547048 -0.066765718 1.016 1.797816e-38
-0.10353524 -0.066765718 1.016 1.7889177e-38
-0.1016 -0.066765718 1.016 1.8811133e-38
-0.099664763 -0.066765718 1.016 1.7796996e-38
-0.097729526 -0.066765718 1.016 1.5768693e-38
-0.095794283 -0.066765718 1.016 1.2825639e-38
-0.093859047 -0.066765718 1.016 1.1995879e-38
-0.092195243 -0.066962861 1.0190001 1.190513e-38
-0.090254292 -0.066962861 1.0190001 1.1628544e-38
-0.088573337 -0.067160003 1.0220001 1.4111304e-38
-0.086626671 -0.067160003 1.0220001 1.6600586e-38
-0.084680006 -0.067160003 1.0220001 1.7333504e-38
-0.0829762 -0.067357145 1.0250001 1.4383244e-38
-0.081023812 -0.067357145 1.0250001 1.0062249e-38
-0.079302855 -0.067554288 1.028 5.1758808e-39
-0.077570483 -0.06775143 1.031 1.8745282e-39
-0.075826667 -0.067948572 1.034 1.5979413e-39
-0.073857144 -0.067948572 1.034 7.8442096e-39
-0.07216572 -0.068211436 1.0380001 1.0056905e-38
-0.070188574 -0.068211436 1.0380001 1.2166195e-38
-0.068408571 -0.068408571 1.041 1.4655477e-38
-0.066425718 -0.068408571 1.041 1.5022092e-38
-0.064442858 -0.068408571 1.041 1.4837701e-38
-0.15655144 -0.066808574 1.0470001 1.4284893e-38
-0.15455714 -0.066808574 1.0470001 1.4377091e-38
-0.15212572 -0.066617146 1.044 1.4930265e-38
-0.15013714 -0.066617146 1.044 1.161664e-38
-0.14814857 -0.066617146 1.044 7.283445e-39
-0.14616001 -0.066617146 1.044 7.6590546e-39
-0.14279048 -0.065979049 1.034 1.0424923e-38
-0.14041238 -0.065787621 1.031 8.4005853e-39
-0.13804571 -0.065596186 1.028 4.8971514e-39
-0.13569048 -0.065404765 1.0250001 2.0542405e-39
-0.13334668 -0.065213338 1.0220001 2.1464361e-39
-0.13140002 -0.065213338 1.0220001 3.9870192e-39
-0.12945335 -0.065213338 1.0220001 8.5968007e-39
-0.12750667 -0.065213338 1.0220001 1.5582115e-38
-0.12519144 -0.06502191 1.0190001 1.8347984e-38
-0.12325048 -0.06502191 1.0190001 1.8069277e-38
-0.12130953 -0.06502191 1.0190001 1.3920474e-38
-0.11936858 -0.06502191 1.0190001 1.1709924e-38
-0.11742762 -0.06502191 1.0190001 1.0880163e-38
-0.11548667 -0.06502191 1.0190001 1.0789037e-38
-0.11354572 -0.06502191 1.0190001 1.0328059e-38
-0.11160477 -0.06502191 1.0190001 1.0879749e-38
-0.10966381 -0.06502191 1.0190001 1.4751965e-38
-0.10772286 -0.06502191 1.0190001 1.8619892e-38
-0.10578191 -0.06502191 1.0190001 2.0279413e-38
-0.10384095 -0.06502191 1.0190001 2.0097212e-38
-0.1016 -0.064830475 1.016 1.9544039e-38
-0.099664763 -0.064830475 1.016 1.6418388e-38
-0.098018102 -0.06502191 1.0190001 1.2730563e-38
-0.096077144 -0.06502191 1.0190001 1.0987846e-38
-0.094136193 -0.06502191 1.0190001 1.1633216e-38
-0.092466667 -0.065213338 1.0220001 1.1908005e-38
-0.090520002 -0.065213338 1.0220001 1.0709461e-38
-0.088573337 -0.065213338 1.0220001 1.0984581e-38
-0.08688096 -0.065404765 1.0250001 1.4672406e-38
-0.08492858 -0.065404765 1.0250001 1.6416602e-38
-0.083219044 -0.065596186 1.028 1.2820973e-38
-0.081260949 -0.065596186 1.028 7.2999929e-39
-0.079534285 -0.065787621 1.031 4.0731458e-39
-0.077796191 -0.065979049 1.034 1.8734211e-39
-0.075826667 -0.065979049 1.034 2.6109862e-39
-0.074142866 -0.066234291 1.0380001 9.3185984e-39
-0.072374292 -0.066425718 1.041 1.0609337e-38
-0.070391431 -0.066425718 1.041 1.3179618e-38
-0.068408571 -0.066425718 1.041 1.4746944e-38
-0.066425718 -0.066425718 1.041 1.5205767e-38
-0.15655144 -0.064814284 1.0470001 1.3916833e-38
-0.15455714 -0.064814284 1.0470001 1.4192697e-38
-0.15256287 -0.064814284 1.0470001 1.4930262e-38
-0.15013714 -0.064628571 1.044 1.2170176e-38
-0.14814857 -0.064628571 1.044 7.007221e-39
-0.14616001 -0.064628571 1.044 8.0260491e-39
-0.14334287 -0.064257152 1.0380001 1.1990461e-38
-0.14082095 -0.064009525 1.034 1.0057921e-38
-0.13844857 -0.063823812 1.031 5.1715522e-39
-0.13608761 -0.063638091 1.028 1.5050072e-39
-0.13373812 -0.063452385 1.0250001 2.8879416e-39
-0.13178572 -0.063452385 1.0250001 3.2527557e-39
-0.12945335 -0.063266672 1.0220001 3.5293425e-39
-0.12750667 -0.063266672 1.0220001 1.3371526e-38
-0.12556002 -0.063266672 1.0220001 1.7612525e-38
-0.12325048 -0.063080952 1.0190001 1.7607511e-38
-0.12130953 -0.063080952 1.0190001 1.0969426e-38
-0.11936858 -0.063080952 1.0190001 1.0143305e-38
-0.11742762 -0.063080952 1.0190001 1.1341848e-38
-0.11548667 -0.063080952 1.0190001 1.1617728e-38
-0.11354572 -0.063080952 1.0190001 1.1617728e-38
-0.11160477 -0.063080952 1.0190001 1.1523735e-38
-0.10966381 -0.063080952 1.0190001 1.0970561e-38
-0.10772286 -0.063080952 1.0190001 1.1983997e-38
-0.10578191 -0.063080952 1.0190001 1.8714278e-38
-0.10384095 -0.063080952 1.0190001 1.9177773e-38
-0.1019 -0.063080952 1.0190001 1.6872882e-38
-0.099959053 -0.063080952 1.0190001 1.3103308e-38
-0.098018102 -0.063080952 1.0190001 1.2181352e-38
-0.096077144 -0.063080952 1.0190001 1.1541032e-38
-0.094136193 -0.063080952 1.0190001 1.1725424e-38
-0.092466667 -0.063266672 1.0220001 1.1540304e-38
-0.090520002 -0.063266672 1.0220001 1.0894934e-38
-0.088573337 -0.063266672 1.0220001 1.1536698e-38
-0.08688096 -0.063452385 1.0250001 1.3933785e-38
-0.08492858 -0.063452385 1.0250001 1.5495715e-38
-0.083219044 -0.063638091 1.028 1.2545455e-38
-0.081260949 -0.063638091 1.028 6.1050847e-39
-0.079534285 -0.063823812 1.031 2.9704332e-39
-0.077796191 -0.064009525 1.034 3.2516795e-39
-0.076120012 -0.064257152 1.0380001 6.847309e-39
-0.074142866 -0.064257152 1.0380001 1.1806063e-38
-0.072374292 -0.064442858 1.041 1.1713867e-38
-0.070391431 -0.064442858 1.041 1.2997035e-38
-0.068408571 -0.064442858 1.041 1.4379969e-38
-0.066425718 -0.064442858 1.041 1.5021739e-38
-0.15455714 -0.062820002 1.0470001 1.4193776e-38
-0.15256287 -0.062820002 1.0470001 1.474695e-38
-0.15013714 -0.062640004 1.044 1.2722984e-38
-0.14814857 -0.062640004 1.044 8.574181e-39
-0.14616001 -0.062640004 1.044 8.6696108e-39
-0.14334287 -0.062280003 1.0380001 1.2357436e-38
-0.14082095 -0.062040005 1.034 9.7817317e-39
-0.13844857 -0.061860003 1.031 5.0797546e-39
-0.13608761 -0.06168 1.028 1.8712687e-39
-0.13412952 -0.06168 1.028 3.2542032e-39
-0.13178572 -0.061500005 1.0250001 1.32349e-39
-0.12945335 -0.061319999 1.0220001 1.1390987e-39
-0.12750667 -0.061319999 1.0220001 8.8619012e-39
-0.12556002 -0.061319999 1.0220001 1.5684378e-38
-0.12325048 -0.061140005 1.0190001 1.5305206e-38
-0.12130953 -0.061140005 1.0190001 1.0234446e-38
-0.11936858 -0.061140005 1.0190001 1.0142226e-38
-0.11742762 -0.061140005 1.0190001 1.1617356e-38
-0.11548667 -0.061140005 1.0190001 1.1802473e-38
-0.11354572 -0.061140005 1.0190001 1.1894668e-38
-0.11160477 -0.061140005 1.0190001 1.1801043e-38
-0.10966381 -0.061140005 1.0190001 1.0694696e-38
-0.10772286 -0.061140005 1.0190001 9.501493e-39
-0.10578191 -0.061140005 1.0190001 1.7522513e-38
-0.10384095 -0.061140005 1.0190001 1.8443104e-38
-0.1019 -0.061140005 1.0190001 1.5769431e-38
-0.099959053 -0.061140005 1.0190001 1.163285e-38
-0.098018102 -0.061140005 1.0190001 1.163285e-38
-0.096077144 -0.061140005 1.0190001 1.1541027e-38
-0.094136193 -0.061140005 1.0190001 1.1541027e-38
-0.092466667 -0.061319999 1.0220001 1.1263717e-38
-0.090520002 -0.061319999 1.0220001 1.0802739e-38
-0.08883334 -0.061500005 1.0250001 1.1352307e-38
-0.08688096 -0.061500005 1.0250001 1.402598e-38
-0.085177138 -0.06168 1.028 1.5035819e-38
-0.083461903 -0.061860003 1.031 1.3560689e-38
-0.081498094 -0.061860003 1.031 7.3029286e-39
-0.079534285 -0.061860003 1.031 2.3243646e-39
-0.077796191 -0.062040005 1.034 5.0869124e-39
-0.076120012 -0.062280003 1.0380001 9.7888895e-39
-0.074142866 -0.062280003 1.0380001 1.2448561e-38
-0.072374292 -0.062459998 1.041 1.1710996e-38
-0.070391431 -0.062459998 1.041 1.2815158e-38
-0.068605714 -0.062640004 1.044 1.4013701e-38
-0.066617146 -0.062640004 1.044 1.4837701e-38
-0.15455714 -0.060825717 1.0470001 1.4284893e-38
-0.15256287 -0.060825717 1.0470001 1.4930262e-38
-0.15056857 -0.060825717 1.0470001 1.3091041e-38
-0.14814857 -0.060651429 1.044 9.7719983e-39
-0.14616001 -0.060651429 1.044 9.8663645e-39
-0.14334287 -0.060302865 1.0380001 1.2724429e-38
-0.14082095 -0.060070477 1.034 1.1344025e-38
-0.13844857 -0.059896193 1.031 9.4079171e-39
-0.13648477 -0.059896193 1.031 4.4466227e-39
-0.13452096 -0.059896193 1.031 3.2480795e-39
-0.13217142 -0.059721906 1.028 1.1376694e-39
-0.12983334 -0.059547622 1.0250001 2.0596257e-39
-0.12788096 -0.059547622 1.0250001 9.4118982e-39
-0.12556002 -0.059373334 1.0220001 1.6234375e-38
-0.12361334 -0.059373334 1.0220001 1.6688103e-38
-0.12166667 -0.059373334 1.0220001 1.0050017e-38
-0.11936858 -0.05919905 1.0190001 9.49974e-39
-0.11742762 -0.05919905 1.0190001 1.097487e-38
-0.11548667 -0.05919905 1.0190001 1.1892517e-38
-0.11354572 -0.05919905 1.0190001 1.1892517e-38
-0.11160477 -0.05919905 1.0190001 1.1616299e-38
-0.10966381 -0.05919905 1.0190001 1.0509951e-38
-0.10772286 -0.05919905 1.0190001 1.0880514e-38
-0.10578191 -0.05919905 1.0190001 1.7887382e-38
-0.10384095 -0.05919905 1.0190001 1.908629e-38
-0.1019 -0.05919905 1.0190001 1.6965791e-38
-0.099959053 -0.05919905 1.0190001 1.2460475e-38
-0.098018102 -0.05919905 1.0190001 1.1630714e-38
-0.096077144 -0.05919905 1.0190001 1.1081484e-38
-0.094136193 -0.05919905 1.0190001 1.1358071e-38
-0.092466667 -0.059373334 1.0220001 1.1447036e-38
-0.090520002 -0.059373334 1.0220001 1.1078254e-38
-0.08883334 -0.059547622 1.0250001 1.3375216e-38
-0.08688096 -0.059547622 1.0250001 1.6417672e-38
-0.085177138 -0.059721906 1.028 1.7150185e-38
-0.083461903 -0.059896193 1.031 1.7518968e-38
-0.081498094 -0.059896193 1.031 1.4481579e-38
-0.079765722 -0.060070477 1.034 8.5810585e-39
-0.07809715 -0.060302865 1.0380001 9.2299522e-39
-0.076120012 -0.060302865 1.0380001 1.2272408e-38
-0.074357137 -0.060477141 1.041 1.2450338e-38
-0.072374292 -0.060477141 1.041 1.0698621e-38
-0.070594288 -0.060651429 1.044 1.2168378e-38
-0.068605714 -0.060651429 1.044 1.4012291e-38
-0.066617146 -0.060651429 1.044 1.4654025e-38
-0.15500002 -0.059000004 1.0500001 1.4101227e-38
-0.15300001 -0.059000004 1.0500001 1.4562205e-38
-0.15056857 -0.058831431 1.0470001 1.3826445e-38
-0.14857429 -0.058831431 1.0470001 1.1705946e-38
-0.14616001 -0.058662858 1.044 1.1063085e-38
-0.14334287 -0.058325719 1.0380001 1.1524063e-38
-0.14082095 -0.058100954 1.034 1.1343267e-38
-0.13885143 -0.058100954 1.034 1.0882289e-38
-0.13648477 -0.057932384 1.031 7.2971216e-39
-0.13452096 -0.057932384 1.031 3.7936877e-39
-0.13217142 -0.057763807 1.028 1.1362218e-39
-0.13021334 -0.057763807 1.028 5.0084383e-39
-0.12788096 -0.057595242 1.0250001 1.3185773e-38
-0.12556002 -0.057426669 1.0220001 1.7057989e-38
-0.12361334 -0.057426669 1.0220001 1.650445e-38
-0.12166667 -0.057426669 1.0220001 1.2171255e-38
-0.11936858 -0.057258096 1.0190001 1.0235542e-38
-0.11742762 -0.057258096 1.0190001 1.0788716e-38
-0.11548667 -0.057258096 1.0190001 1.1707397e-38
-0.11354572 -0.057258096 1.0190001 1.1799593e-38
-0.11160477 -0.057258096 1.0190001 1.1155305e-38
-0.10966381 -0.057258096 1.0190001 1.1800675e-38
-0.10772286 -0.057258096 1.0190001 1.3182556e-38
-0.10578191 -0.057258096 1.0190001 1.8714293e-38
-0.10384095 -0.057258096 1.0190001 1.9269237e-38
-0.1019 -0.057258096 1.0190001 1.8162889e-38
-0.099959053 -0.057258096 1.0190001 1.4392983e-38
-0.098018102 -0.057258096 1.0190001 1.2456875e-38
-0.096077144 -0.057258096 1.0190001 1.0897458e-38
-0.094136193 -0.057258096 1.0190001 1.0713067e-38
-0.092466667 -0.057426669 1.0220001 1.1538486e-38
-0.090520002 -0.057426669 1.0220001 1.2368247e-38
-0.08883334 -0.057595242 1.0250001 1.5582529e-38
-0.08688096 -0.057595242 1.0250001 1.6596681e-38
-0.085425712 -0.057932384 1.031 1.7238412e-38
-0.083461903 -0.057932384 1.031 1.7975977e-38
-0.081735246 -0.058100954 1.034 1.6691019e-38
-0.079765722 -0.058100954 1.034 1.2910998e-38
-0.07809715 -0.058325719 1.0380001 1.0335657e-38
-0.076339997 -0.058494285 1.041 1.1995178e-38
-0.074357137 -0.058494285 1.041 1.26333e-38
-0.072374292 -0.058494285 1.041 1.0973778e-38
-0.070391431 -0.058494285 1.041 1.1892492e-38
-0.068605714 -0.058662858 1.044 1.3920796e-38
-0.066617146 -0.058662858 1.044 1.4654025e-38
-0.15056857 -0.056837145 1.0470001 1.4010476e-38
