# .PCD v0.7 - Point Cloud Data file format
VERSION 0.7
FIELDS x y z rgb
SIZE 4 4 4 4
TYPE F F F F
COUNT 1 1 1 1
WIDTH 971
HEIGHT 1
VIEWPOINT 0 0 0 1 0 0 0
POINTS 971
DATA ascii
-0.12523143 0.0086638099 0.82700002 8.3944813e-39
-0.12365619 0.0086638099 0.82700002 8.8554594e-39
-0.12178572 0.0086428579 0.82500005 9.3110426e-39
-0.12021429 0.0086428579 0.82500005 8.2968906e-39
-0.11835524 0.008621905 0.82300001 1.1061256e-38
-0.11678762 0.008621905 0.82300001 1.7146167e-38
-0.11494 0.0086009521 0.82100004 1.7057989e-38
-0.11310001 0.0085800011 0.81900007 1.6320424e-38
-0.11126762 0.0085590482 0.81700003 1.494286e-38
-0.10971143 0.0085590482 0.81700003 1.5403838e-38
-0.10815524 0.0085590482 0.81700003 1.7704079e-38
-0.1063381 0.0085380953 0.81500006 1.9179209e-38
-0.10478573 0.0085380953 0.81500006 1.7889918e-38
-0.10323334 0.0085380953 0.81500006 1.4847462e-38
-0.10168096 0.0085380953 0.81500006 1.3746865e-38
-0.10012858 0.0085380953 0.81500006 1.4945409e-38
-0.098576196 0.0085380953 0.81500006 1.8164684e-38
-0.097023815 0.0085380953 0.81500006 2.0930553e-38
-0.095237143 0.0085171424 0.81300002 2.0559638e-38
-0.09368857 0.0085171424 0.81300002 1.8531334e-38
-0.092140004 0.0085171424 0.81300002 1.4201776e-38
-0.090591431 0.0085171424 0.81300002 1.0145168e-38
-0.089042857 0.0085171424 0.81300002 1.1709983e-38
-0.087494291 0.0085171424 0.81300002 2.019197e-38
-0.085945718 0.0085171424 0.81300002 2.1573071e-38
-0.084397145 0.0085171424 0.81300002 2.138868e-38
-0.082848579 0.0085171424 0.81300002 1.8444171e-38
-0.081300005 0.0085171424 0.81300002 1.1437303e-38
-0.080143809 0.0085590482 0.81700003 7.8589302e-39
-0.078587621 0.0085590482 0.81700003 8.2277127e-39
-0.077031434 0.0085590482 0.81700003 1.3837951e-38
-0.075475238 0.0085590482 0.81700003 1.8355537e-38
-0.07410001 0.0085800011 0.81900007 2.0745096e-38
-0.072540008 0.0085800011 0.81900007 2.212803e-38
-0.071153335 0.0086009521 0.82100004 2.1391184e-38
-0.069589525 0.0086009521 0.82100004 2.0561423e-38
-0.068191424 0.008621905 0.82300001 2.046744e-38
-0.066623807 0.008621905 0.82300001 1.6318636e-38
-0.065214291 0.0086428579 0.82500005 1.3920821e-38
-0.063642859 0.0086428579 0.82500005 1.2076909e-38
-0.062221903 0.0086638099 0.82700002 1.2079075e-38
-0.060793336 0.0086847618 0.82900006 1.2263466e-38
-0.059357144 0.0087057147 0.83100003 1.1618097e-38
-0.057774287 0.0087057147 0.83100003 1.2632249e-38
-0.056191429 0.0087057147 0.83100003 1.5952317e-38
-0.054871429 0.0087476196 0.83500004 1.6597687e-38
-0.053408574 0.0087685715 0.83700001 1.3834386e-38
-0.051814288 0.0087685715 0.83700001 1.1345104e-38
-0.050340001 0.0087895235 0.83900005 1.3001382e-38
-0.12741999 0.010288572 0.83100003 7.2848995e-39
-0.1255343 0.01026381 0.82900006 7.4757521e-39
-0.12365619 0.010239048 0.82700002 8.6742953e-39
-0.12208095 0.010239048 0.82700002 9.219563e-39
-0.12021429 0.010214286 0.82500005 8.6663892e-39
-0.11835524 0.010189524 0.82300001 9.6801264e-39
-0.11678762 0.010189524 0.82300001 1.4197712e-38
-0.11522 0.010189524 0.82300001 1.6318598e-38
-0.11310001 0.010140001 0.81900007 1.7609337e-38
-0.11154001 0.010140001 0.81900007 1.7148384e-38
-0.10971143 0.010115238 0.81700003 1.871571e-38
-0.10815524 0.010115238 0.81700003 1.8718237e-38
-0.10659905 0.010115238 0.81700003 1.8349454e-38
-0.10478573 0.010090477 0.81500006 1.5681549e-38
-0.10323334 0.010090477 0.81500006 1.2823484e-38
-0.10168096 0.010090477 0.81500006 1.1173316e-38
-0.10012858 0.010090477 0.81500006 1.1634295e-38
-0.098576196 0.010090477 0.81500006 1.5862671e-38
-0.097023815 0.010090477 0.81500006 1.8905126e-38
-0.095471434 0.010090477 0.81500006 2.120356e-38
-0.09368857 0.010065715 0.81300002 2.0189408e-38
-0.092140004 0.010065715 0.81300002 1.8072161e-38
-0.090814285 0.010090477 0.81500006 1.4660923e-38
-0.089042857 0.010065715 0.81300002 1.558179e-38
-0.087494291 0.010065715 0.81300002 2.1666702e-38
-0.085945718 0.010065715 0.81300002 2.2495736e-38
-0.084397145 0.010065715 0.81300002 1.9176694e-38
-0.082848579 0.010065715 0.81300002 1.310799e-38
-0.081500001 0.010090477 0.81500006 7.4840562e-39
-0.080143809 0.010115238 0.81700003 2.4388619e-39
-0.078587621 0.010115238 0.81700003 2.162275e-39
-0.077031434 0.010115238 0.81700003 7.8585519e-39
-0.075660005 0.010140001 0.81900007 1.2099551e-38
-0.07410001 0.010140001 0.81900007 1.9453606e-38
-0.072540008 0.010140001 0.81900007 2.231167e-38
-0.071153335 0.010164762 0.82100004 2.258686e-38
-0.069589525 0.010164762 0.82100004 2.1849295e-38
-0.068191424 0.010189524 0.82300001 2.0651824e-38
-0.066623807 0.010189524 0.82300001 1.2723e-38
-0.065214291 0.010214286 0.82500005 1.27201e-38
-0.063642859 0.010214286 0.82500005 1.3273274e-38
-0.062372386 0.01026381 0.82900006 1.2815918e-38
-0.060940001 0.010288572 0.83100003 1.235494e-38
-0.059357144 0.010288572 0.83100003 1.1342586e-38
-0.057774287 0.010288572 0.83100003 1.3186499e-38
-0.056326672 0.010313334 0.83300006 1.5028969e-38
-0.054871429 0.010338096 0.83500004 1.6319708e-38
-0.053408574 0.010362858 0.83700001 1.3650008e-38
-0.051814288 0.010362858 0.83700001 1.1345117e-38
-0.050340001 0.010387619 0.83900005 1.2908818e-38
-0.12741999 0.011871428 0.83100003 8.0220988e-39
-0.12583713 0.011871428 0.83100003 7.8434459e-39
-0.12395525 0.011842857 0.82900006 9.4107716e-39
-0.1223762 0.011842857 0.82900006 9.8638632e-39
-0.12050572 0.011814286 0.82700002 9.4950807e-39
-0.11864286 0.011785715 0.82500005 9.7727242e-39
-0.11707143 0.011785715 0.82500005 9.9571154e-39
-0.11522 0.011757143 0.82300001 1.1432596e-38
-0.11337619 0.011728572 0.82100004 1.7609703e-38
-0.11154001 0.011700001 0.81900007 1.8529892e-38
-0.10998001 0.011700001 0.81900007 1.9359653e-38
-0.10815524 0.011671429 0.81700003 1.7796275e-38
-0.10659905 0.011671429 0.81700003 1.493821e-38
-0.10504286 0.011671429 0.81700003 1.2276431e-38
-0.10348667 0.011671429 0.81700003 1.209204e-38
-0.10168096 0.011642857 0.81500006 1.2186402e-38
-0.10012858 0.011642857 0.81500006 1.2462989e-38
-0.098576196 0.011642857 0.81500006 1.4024886e-38
-0.097023815 0.011642857 0.81500006 1.457806e-38
-0.095471434 0.011642857 0.81500006 1.7888103e-38
-0.093919054 0.011642857 0.81500006 2.0377385e-38
-0.092366673 0.011642857 0.81500006 2.102025e-38
-0.090814285 0.011642857 0.81500006 2.1112446e-38
-0.089261912 0.011642857 0.81500006 2.1020969e-38
-0.087709531 0.011642857 0.81500006 2.1297556e-38
-0.086157143 0.011642857 0.81500006 1.8075385e-38
-0.08460477 0.011642857 0.81500006 1.1529496e-38
-0.083052389 0.011642857 0.81500006 6.206634e-39
-0.081500001 0.011642857 0.81500006 6.4832209e-39
-0.080143809 0.011671429 0.81700003 6.9452878e-39
-0.07878001 0.011700001 0.81900007 6.7608965e-39
-0.077220008 0.011700001 0.81900007 7.3101075e-39
-0.075660005 0.011700001 0.81900007 6.2959555e-39
-0.07410001 0.011700001 0.81900007 1.1353677e-38
-0.072717145 0.011728572 0.82100004 1.6701024e-38
-0.071153335 0.011728572 0.82100004 2.0190139e-38
-0.069589525 0.011728572 0.82100004 2.0190139e-38
-0.068191424 0.011757143 0.82300001 1.9361744e-38
-0.066623807 0.011757143 0.82300001 1.2078289e-38
-0.065214291 0.011785715 0.82500005 1.1802122e-38
-0.063797139 0.011814286 0.82700002 1.2816274e-38
-0.062522858 0.011871428 0.83100003 1.2723723e-38
-0.060940001 0.011871428 0.83100003 1.2078353e-38
-0.059357144 0.011871428 0.83100003 1.1709927e-38
-0.057913337 0.0119 0.83300006 1.5121165e-38
-0.056326672 0.0119 0.83300006 1.7333485e-38
-0.054871429 0.011928571 0.83500004 1.8163245e-38
-0.053408574 0.011957143 0.83700001 1.6320422e-38
-0.051938098 0.011985715 0.83900005 1.2540401e-38
-0.050340001 0.011985715 0.83900005 1.3277603e-38
-0.12772667 0.013486668 0.83300006 8.4830769e-39
-0.12583713 0.013454286 0.83100003 7.4728374e-39
-0.12425429 0.013454286 0.83100003 9.4089457e-39
-0.1223762 0.013421906 0.82900006 1.0047879e-38
-0.12050572 0.013389524 0.82700002 9.9556833e-39
-0.11864286 0.013357143 0.82500005 9.8656386e-39
-0.11707143 0.013357143 0.82500005 9.4968561e-39
-0.11522 0.013324762 0.82300001 9.4979071e-39
-0.11337619 0.013292382 0.82100004 1.6781362e-38
-0.11181239 0.013292382 0.82100004 1.8346211e-38
-0.10998001 0.013260001 0.81900007 1.8438407e-38
-0.10842001 0.013260001 0.81900007 1.6138927e-38
-0.10659905 0.01322762 0.81700003 1.3004275e-38
-0.10504286 0.01322762 0.81700003 1.0620506e-38
-0.10348667 0.01322762 0.81700003 1.1911244e-38
-0.10193048 0.01322762 0.81700003 1.2645935e-38
-0.10037429 0.01322762 0.81700003 1.2922522e-38
-0.098576196 0.013195239 0.81500006 1.2370781e-38
-0.097023815 0.013195239 0.81500006 1.2001998e-38
-0.095471434 0.013195239 0.81500006 1.4758851e-38
-0.093919054 0.013195239 0.81500006 1.7893502e-38
-0.092366673 0.013195239 0.81500006 2.1203916e-38
-0.090814285 0.013195239 0.81500006 2.2771242e-38
-0.089261912 0.013195239 0.81500006 2.2035484e-38
-0.087709531 0.013195239 0.81500006 1.8624246e-38
-0.086157143 0.013195239 0.81500006 1.3106545e-38
-0.08460477 0.013195239 0.81500006 7.3904159e-39
-0.083052389 0.013195239 0.81500006 3.4515789e-39
-0.081500001 0.013195239 0.81500006 5.3876871e-39
-0.080340005 0.013260001 0.81900007 7.5892153e-39
-0.07878001 0.013260001 0.81900007 7.404824e-39
-0.077220008 0.013260001 0.81900007 6.2105968e-39
-0.075660005 0.013260001 0.81900007 3.9979017e-39
-0.07410001 0.013260001 0.81900007 5.3786053e-39
-0.072717145 0.013292382 0.82100004 1.2201082e-38
-0.071153335 0.013292382 0.82100004 1.844418e-38
-0.069589525 0.013292382 0.82100004 1.8628572e-38
-0.068191424 0.013324762 0.82300001 1.6873948e-38
-0.066623807 0.013324762 0.82300001 1.1710993e-38
-0.065214291 0.013357143 0.82500005 1.2170905e-38
-0.063797139 0.013389524 0.82700002 1.3000666e-38
-0.062522858 0.013454286 0.83100003 1.2907035e-38
-0.060940001 0.013454286 0.83100003 1.1985079e-38
-0.059500005 0.013486668 0.83300006 1.1618081e-38
-0.057913337 0.013486668 0.83300006 1.6873232e-38
-0.056461908 0.013519048 0.83500004 1.7609378e-38
-0.055002857 0.013551429 0.83700001 1.7701574e-38
-0.053536192 0.01358381 0.83900005 1.6780336e-38
-0.052061904 0.01361619 0.84100002 1.3184707e-38
-0.05046 0.01361619 0.84100002 1.3278309e-38
-0.12614 0.015073335 0.83300006 9.4089485e-39
-0.12425429 0.015037144 0.83100003 1.0699687e-38
-0.1223762 0.015000953 0.82900006 1.0878693e-38
-0.12050572 0.014964762 0.82700002 9.6801502e-39
-0.11893048 0.014964762 0.82700002 9.7734682e-39
-0.11707143 0.014928573 0.82500005 1.0142251e-38
-0.11550001 0.014928573 0.82500005 9.3142796e-39
-0.11365238 0.014892381 0.82300001 1.3924061e-38
-0.11181239 0.014856191 0.82100004 1.7701153e-38
-0.10998001 0.014820001 0.81900007 1.8162131e-38
-0.10842001 0.014820001 0.81900007 1.5864485e-38
-0.10686001 0.014820001 0.81900007 1.3283008e-38
-0.10504286 0.01478381 0.81700003 1.144991e-38
-0.10348667 0.01478381 0.81700003 1.209528e-38
-0.10193048 0.01478381 0.81700003 1.2554456e-38
-0.10037429 0.01478381 0.81700003 1.2554456e-38
-0.098818094 0.01478381 0.81700003 1.2462986e-38
-0.097261913 0.01478381 0.81700003 1.2739573e-38
-0.095705718 0.01478381 0.81700003 1.338169e-38
-0.093919054 0.01474762 0.81500006 1.4303646e-38
-0.092366673 0.01474762 0.81500006 1.9269943e-38
-0.091037147 0.01478381 0.81700003 2.249679e-38
-0.089480951 0.01478381 0.81700003 2.1113878e-38
-0.087924771 0.01478381 0.81700003 1.3000663e-38
-0.086368576 0.01478381 0.81700003 3.815342e-39
-0.08460477 0.01474762 0.81500006 5.0138851e-39
-0.083052389 0.01474762 0.81500006 7.0367674e-39
-0.081700005 0.01478381 0.81700003 7.4977455e-39
-0.080340005 0.014820001 0.81900007 7.4055401e-39
-0.07878001 0.014820001 0.81900007 7.4055401e-39
-0.077220008 0.014820001 0.81900007 7.5892125e-39
-0.075844765 0.014856191 0.82100004 6.2984737e-39
-0.074280955 0.014856191 0.82100004 6.298817e-39
-0.072717145 0.014856191 0.82100004 1.0724207e-38
-0.071326666 0.014892381 0.82300001 1.7891337e-38
-0.069759049 0.014892381 0.82300001 1.8628902e-38
-0.068191424 0.014892381 0.82300001 1.668993e-38
-0.066785723 0.014928573 0.82500005 1.0605018e-38
-0.065214291 0.014928573 0.82500005 1.1158918e-38
-0.063797139 0.014964762 0.82700002 1.2080874e-38
-0.062522858 0.015037144 0.83100003 1.2169846e-38
-0.060940001 0.015037144 0.83100003 1.1432281e-38
-0.059500005 0.015073335 0.83300006 1.272158e-38
-0.058052383 0.015109524 0.83500004 1.8898687e-38
-0.056461908 0.015109524 0.83500004 1.7424974e-38
-0.055002857 0.015145714 0.83700001 1.5949844e-38
-0.053536192 0.015181906 0.83900005 1.5859466e-38
-0.052061904 0.015218095 0.84100002 1.4199944e-38
-0.05046 0.015218095 0.84100002 1.4474326e-38
-0.12644285 0.0167 0.83500004 1.1246024e-38
-0.12455334 0.016660001 0.83300006 1.2352372e-38
-0.12267143 0.016620001 0.83100003 1.1614498e-38
-0.12079715 0.016580001 0.82900006 9.7705858e-39
-0.11893048 0.01654 0.82700002 9.4961527e-39
-0.11735523 0.01654 0.82700002 1.0141522e-38
-0.11550001 0.0165 0.82500005 8.948011e-39
-0.11365238 0.016460001 0.82300001 1.3834379e-38
-0.11181239 0.016420001 0.82100004 1.512331e-38
-0.11024858 0.016420001 0.82100004 1.6782832e-38
-0.10842001 0.016380001 0.81900007 1.4392617e-38
-0.10686001 0.016380001 0.81900007 1.2548705e-38
-0.10530001 0.016380001 0.81900007 1.1726134e-38
-0.10348667 0.016340001 0.81700003 1.2187112e-38
-0.10193048 0.016340001 0.81700003 1.2370427e-38
-0.10037429 0.016340001 0.81700003 1.2554819e-38
-0.098818094 0.016340001 0.81700003 1.2462267e-38
-0.097261913 0.016340001 0.81700003 1.3015441e-38
-0.095705718 0.016340001 0.81700003 1.2095999e-38
-0.094149522 0.016340001 0.81700003 1.1819412e-38
-0.092593342 0.016340001 0.81700003 1.6600611e-38
-0.091037147 0.016340001 0.81700003 2.148698e-38
-0.089480951 0.016340001 0.81700003 2.0011146e-38
-0.087924771 0.016340001 0.81700003 1.0146214e-38
-0.086368576 0.016340001 0.81700003 1.6105404e-39
-0.08481238 0.016340001 0.81700003 4.3764092e-39
-0.083256193 0.016340001 0.81700003 7.5892181e-39
-0.081700005 0.016340001 0.81700003 7.6814137e-39
-0.080536194 0.016420001 0.82100004 7.5892125e-39
-0.078972384 0.016420001 0.82100004 7.5892125e-39
-0.077408575 0.016420001 0.82100004 7.6814081e-39
-0.075844765 0.016420001 0.82100004 6.206278e-39
-0.0744619 0.016460001 0.82300001 5.3790187e-39
-0.072894283 0.016460001 0.82300001 1.1740517e-38
-0.071326666 0.016460001 0.82300001 1.7615849e-38
-0.069759049 0.016460001 0.82300001 1.8537805e-38
-0.068357147 0.0165 0.82500005 1.6873981e-38
-0.066785723 0.0165 0.82500005 1.0881265e-38
-0.065372378 0.01654 0.82700002 1.161558e-38
-0.063951433 0.016580001 0.82900006 1.2168754e-38
-0.062522858 0.016620001 0.83100003 1.1342904e-38
-0.061086673 0.016660001 0.83300006 1.2357056e-38
-0.059500005 0.016660001 0.83300006 1.640438e-38
-0.058052383 0.0167 0.83500004 1.8893662e-38
-0.056461908 0.0167 0.83500004 1.6321145e-38
-0.055134289 0.016780002 0.83900005 1.4016254e-38
-0.053663809 0.01682 0.84100002 1.4940727e-38
-0.052061904 0.01682 0.84100002 1.4479749e-38
-0.05046 0.01682 0.84100002 1.5302279e-38
-0.12765428 0.018465716 0.84300005 1.3734966e-38
-0.12455334 0.018246669 0.83300006 1.5486683e-38
-0.12267143 0.018202858 0.83100003 1.4012291e-38
-0.12108857 0.018202858 0.83100003 9.9556833e-39
-0.1192181 0.018159049 0.82900006 8.66892e-39
-0.11735523 0.018115237 0.82700002 8.7611156e-39
-0.11550001 0.018071428 0.82500005 9.6823264e-39
-0.11365238 0.01802762 0.82300001 1.5398455e-38
-0.11181239 0.017983811 0.82100004 1.7795154e-38
-0.11024858 0.017983811 0.82100004 1.8993697e-38
-0.10868476 0.017983811 0.82100004 1.6877911e-38
-0.10712095 0.017983811 0.82100004 1.3374477e-38
-0.10530001 0.017940002 0.81900007 1.1725774e-38
-0.10374001 0.017940002 0.81900007 1.2186752e-38
-0.10218 0.017940002 0.81900007 1.2277876e-38
-0.10062001 0.017940002 0.81900007 1.2738854e-38
-0.099060006 0.017940002 0.81900007 1.273921e-38
-0.097261913 0.01789619 0.81700003 1.2831406e-38
-0.095705718 0.01789619 0.81700003 1.2280037e-38
-0.094149522 0.01789619 0.81700003 1.2187841e-38
-0.092593342 0.01789619 0.81700003 1.6692456e-38
-0.091037147 0.01789619 0.81700003 2.1210042e-38
-0.089700006 0.017940002 0.81900007 2.028772e-38
-0.088140003 0.017940002 0.81900007 1.1621331e-38
-0.086580001 0.017940002 0.81900007 1.702771e-39
-0.085020006 0.017940002 0.81900007 2.9935098e-39
-0.083460003 0.017940002 0.81900007 6.1191313e-39
-0.082100004 0.017983811 0.82100004 6.4879138e-39
-0.080732383 0.01802762 0.82300001 7.6810452e-39
-0.079164766 0.01802762 0.82300001 7.7732408e-39
-0.077597149 0.01802762 0.82300001 6.5775843e-39
-0.076029524 0.01802762 0.82300001 3.903911e-39
-0.074642867 0.018071428 0.82500005 8.6876091e-39
-0.073071435 0.018071428 0.82500005 1.6339846e-38
-0.071500003 0.018071428 0.82500005 2.157521e-38
-0.069928572 0.018071428 0.82500005 2.1851796e-38
-0.068357147 0.018071428 0.82500005 2.0559991e-38
-0.066947617 0.018115237 0.82700002 1.6318992e-38
-0.065530479 0.018159049 0.82900006 1.199016e-38
-0.063951433 0.018159049 0.82900006 9.8696604e-39
-0.062522858 0.018202858 0.83100003 1.0791558e-38
-0.061086673 0.018246669 0.83300006 1.6599883e-38
-0.059642859 0.018290477 0.83500004 1.8161485e-38
-0.058052383 0.018290477 0.83500004 1.659416e-38
-0.056597143 0.018334284 0.83700001 1.0611544e-38
-0.055265717 0.018421905 0.84100002 6.3705452e-39
-0.053663809 0.018421905 0.84100002 9.7803276e-39
-0.052061904 0.018421905 0.84100002 1.374474e-38
-0.05046 0.018421905 0.84100002 1.5486296e-38
-0.048858099 0.018421905 0.84100002 1.5486296e-38
-0.12765428 0.020071428 0.84300005 1.437818e-38
-0.12574953 0.02002381 0.84100002 1.5392332e-38
-0.12326191 0.019880952 0.83500004 1.4197408e-38
-0.12138001 0.019833334 0.83300006 1.0325192e-38
-0.11950572 0.019785715 0.83100003 9.035878e-39
-0.11763906 0.019738097 0.82900006 9.1280736e-39
-0.11606 0.019738097 0.82900006 1.0971283e-38
-0.11392858 0.019642858 0.82500005 1.7424977e-38
-0.11208476 0.019595239 0.82300001 1.8438413e-38
-0.11051714 0.019595239 0.82300001 1.8899391e-38
-0.10894953 0.019595239 0.82300001 1.687864e-38
-0.1073819 0.019595239 0.82300001 1.4573749e-38
-0.10581429 0.019595239 0.82300001 1.1175148e-38
-0.10424667 0.019595239 0.82300001 1.1451735e-38
-0.10242952 0.019547621 0.82100004 1.1817617e-38
-0.10086571 0.019547621 0.82100004 1.237079e-38
-0.099301912 0.019547621 0.82100004 1.2463346e-38
-0.097500004 0.019500002 0.81900007 1.2463346e-38
-0.095940009 0.019500002 0.81900007 1.191233e-38
-0.094380006 0.019500002 0.81900007 1.2649895e-38
-0.092820004 0.019500002 0.81900007 1.7428587e-38
-0.091260001 0.019500002 0.81900007 2.1024216e-38
-0.089700006 0.019500002 0.81900007 2.0472465e-38
-0.088140003 0.019500002 0.81900007 1.5493901e-38
-0.086791433 0.019547621 0.82100004 7.4967058e-39
-0.085227624 0.019547621 0.82100004 5.2840106e-39
-0.083663814 0.019547621 0.82100004 3.2686352e-39
-0.082100004 0.019547621 0.82100004 4.8359609e-39
-0.080732383 0.019595239 0.82300001 7.7721618e-39
-0.079357147 0.019642858 0.82500005 7.5877705e-39
-0.077785715 0.019642858 0.82500005 4.0951434e-39
-0.076214284 0.019642858 0.82500005 3.5419696e-39
-0.074642867 0.019642858 0.82500005 1.1632146e-38
-0.073071435 0.019642858 0.82500005 1.8362427e-38
-0.071500003 0.019642858 0.82500005 2.1482308e-38
-0.069928572 0.019642858 0.82500005 2.0929134e-38
-0.068522863 0.019690476 0.82700002 2.1021695e-38
-0.066947617 0.019690476 0.82700002 1.9085587e-38
-0.065530479 0.019738097 0.82900006 1.5401764e-38
-0.064105719 0.019785715 0.83100003 9.9622217e-39
-0.062673338 0.019833334 0.83300006 1.1341823e-38
-0.061233338 0.019880952 0.83500004 1.9178451e-38
-0.059642859 0.019880952 0.83500004 1.9179587e-38
-0.05819143 0.019928573 0.83700001 1.2449307e-38
-0.056732383 0.019976191 0.83900005 9.1399622e-39
-0.055265717 0.02002381 0.84100002 5.9131152e-39
-0.053663809 0.02002381 0.84100002 9.7813716e-39
-0.052185714 0.020071428 0.84300005 1.319261e-38
-0.050580002 0.020071428 0.84300005 1.4931691e-38
-0.04897429 0.020071428 0.84300005 1.5669256e-38
-0.12765428 0.021677144 0.84300005 1.3368354e-38
-0.12574953 0.021625714 0.84100002 1.2446397e-38
-0.12355714 0.021522857 0.83700001 1.2357442e-38
-0.12167143 0.02147143 0.83500004 1.2634028e-38
-0.11979334 0.02142 0.83300006 1.2723688e-38
-0.11792286 0.021368571 0.83100003 1.4014427e-38
-0.11606 0.021317143 0.82900006 1.6131364e-38
-0.11420476 0.021265715 0.82700002 1.9634798e-38
-0.11235715 0.021214288 0.82500005 1.8347296e-38
-0.11078572 0.021214288 0.82500005 1.6226797e-38
-0.10894953 0.021162858 0.82300001 1.586234e-38
-0.1073819 0.021162858 0.82300001 1.7614057e-38
-0.10581429 0.021162858 0.82300001 1.6326192e-38
-0.10424667 0.021162858 0.82300001 1.4113497e-38
-0.10267905 0.021162858 0.82300001 1.2186036e-38
-0.10086571 0.021111431 0.82100004 1.2093841e-38
-0.099301912 0.021111431 0.82100004 1.1910172e-38
-0.097738102 0.021111431 0.82100004 1.2186759e-38
-0.096174285 0.021111431 0.82100004 1.3656863e-38
-0.094610475 0.021111431 0.82100004 1.7344688e-38
-0.092820004 0.021060001 0.81900007 2.0100089e-38
-0.091260001 0.021060001 0.81900007 2.0468872e-38
-0.089700006 0.021060001 0.81900007 2.0469225e-38
-0.088140003 0.021060001 0.81900007 2.120679e-38
-0.086791433 0.021111431 0.82100004 1.7342185e-38
-0.085227624 0.021111431 0.82100004 1.217923e-38
-0.083663814 0.021111431 0.82100004 3.3583421e-39
-0.082100004 0.021111431 0.82100004 2.7129727e-39
-0.080928579 0.021214288 0.82500005 2.7161775e-39
-0.079357147 0.021214288 0.82500005 2.2551993e-39
-0.077785715 0.021214288 0.82500005 8.7808963e-39
-0.076214284 0.021214288 0.82500005 1.5326786e-38
-0.074642867 0.021214288 0.82500005 2.1116021e-38
-0.073071435 0.021214288 0.82500005 2.1208216e-38
-0.071500003 0.021214288 0.82500005 1.8903357e-38
-0.070098102 0.021265715 0.82700002 1.715164e-38
-0.068522863 0.021265715 0.82700002 1.871896e-38
-0.067109525 0.021317143 0.82900006 2.1208242e-38
-0.065688573 0.021368571 0.83100003 2.0835875e-38
-0.064105719 0.021368571 0.83100003 1.7885614e-38
-0.062673338 0.02142 0.83300006 1.8071753e-38
-0.061233338 0.02147143 0.83500004 2.0284448e-38
-0.059642859 0.02147143 0.83500004 1.844378e-38
-0.05819143 0.021522857 0.83700001 9.7773905e-39
-0.056732383 0.021574287 0.83900005 3.9928697e-39
-0.055265717 0.021625714 0.84100002 3.5318915e-39
-0.05379143 0.021677144 0.84300005 1.0700473e-38
-0.052185714 0.021677144 0.84300005 1.3835125e-38
-0.050700001 0.021728572 0.84500003 1.5115732e-38
-0.049090479 0.021728572 0.84500003 1.557671e-38
-0.12795715 0.023338096 0.84500003 1.3001729e-38
-0.12574953 0.023227619 0.84100002 1.023586e-38
-0.12385239 0.023172382 0.83900005 1.0699697e-38
-0.12196286 0.023117144 0.83700001 1.254361e-38
-0.11979334 0.023006668 0.83300006 1.3276158e-38
-0.11792286 0.02295143 0.83100003 1.6503005e-38
-0.11606 0.022896193 0.82900006 1.7699423e-38
-0.11420476 0.022840953 0.82700002 1.880577e-38
-0.11235715 0.022785716 0.82500005 1.6783214e-38
-0.11078572 0.022785716 0.82500005 1.327978e-38
-0.10921429 0.022785716 0.82500005 1.3743588e-38
-0.1073819 0.022730477 0.82300001 1.7892391e-38
-0.10581429 0.022730477 0.82300001 1.8718244e-38
-0.10424667 0.022730477 0.82300001 1.6136766e-38
-0.10267905 0.022730477 0.82300001 1.1542844e-38
-0.10111143 0.022730477 0.82300001 1.0805279e-38
-0.09954381 0.022730477 0.82300001 1.1542096e-38
-0.097738102 0.02267524 0.82100004 1.2740639e-38
-0.096174285 0.02267524 0.82100004 1.7059457e-38
-0.094610475 0.02267524 0.82100004 2.0194108e-38
-0.093046673 0.02267524 0.82100004 2.0928774e-38
-0.091482863 0.02267524 0.82100004 1.9269252e-38
-0.089919046 0.02267524 0.82100004 1.9729453e-38
-0.088355243 0.02267524 0.82100004 2.2218735e-38
-0.086791433 0.02267524 0.82100004 2.1668507e-38
-0.085227624 0.02267524 0.82100004 1.8072877e-38
-0.083663814 0.02267524 0.82100004 8.3286468e-39
-0.0823 0.022730477 0.82300001 3.9954522e-39
-0.080928579 0.022785716 0.82500005 1.6112326e-39
-0.079357147 0.022785716 0.82500005 2.256602e-39
-0.077785715 0.022785716 0.82500005 1.1080414e-38
-0.076214284 0.022785716 0.82500005 1.8732646e-38
-0.074642867 0.022785716 0.82500005 2.166886e-38
-0.073071435 0.022785716 0.82500005 1.9640556e-38
-0.071673334 0.022840953 0.82700002 1.7062675e-38
-0.070098102 0.022840953 0.82700002 1.5126567e-38
-0.068688571 0.022896193 0.82900006 1.6784649e-38
-0.067109525 0.022896193 0.82900006 1.9366127e-38
-0.065688573 0.02295143 0.83100003 2.1481231e-38
-0.064260006 0.023006668 0.83300006 2.1204645e-38
-0.062673338 0.023006668 0.83300006 1.927142e-38
-0.061233338 0.023061905 0.83500004 1.8626051e-38
-0.059785716 0.023117144 0.83700001 1.494504e-38
-0.058330476 0.023172382 0.83900005 7.4771941e-39
-0.056867622 0.023227619 0.84100002 3.3518036e-39
-0.055397145 0.023282859 0.84300005 3.7205862e-39
-0.05379143 0.023282859 0.84300005 1.0884142e-38
-0.052309528 0.023338096 0.84500003 1.4018793e-38
-0.050700001 0.023338096 0.84500003 1.4470726e-38
-0.049090479 0.023338096 0.84500003 1.5392682e-38
-0.12795715 0.024947621 0.84500003 1.3186113e-38
-0.12574953 0.024829524 0.84100002 9.6826795e-39
-0.12385239 0.024770476 0.83900005 9.6877312e-39
-0.12196286 0.024711428 0.83700001 1.2545796e-38
-0.12008096 0.024652382 0.83500004 1.4749859e-38
-0.11792286 0.024534287 0.83100003 1.8345488e-38
-0.11634 0.024534287 0.83100003 1.7608299e-38
-0.11448096 0.024475239 0.82900006 1.5026821e-38
-0.11262953 0.024416192 0.82700002 8.7719602e-39
-0.11078572 0.024357144 0.82500005 5.1763307e-39
-0.10921429 0.024357144 0.82500005 6.6549962e-39
-0.10764287 0.024357144 0.82500005 1.375406e-38
-0.10607143 0.024357144 0.82500005 1.7888476e-38
-0.10424667 0.024298096 0.82300001 1.9455802e-38
-0.10267905 0.024298096 0.82300001 1.6326217e-38
-0.10111143 0.024298096 0.82300001 1.3560348e-38
-0.09954381 0.024298096 0.82300001 1.3747977e-38
-0.097976193 0.024298096 0.82300001 1.789678e-38
-0.096408576 0.024298096 0.82300001 2.0652187e-38
-0.094840951 0.024298096 0.82300001 2.1205361e-38
-0.093046673 0.02423905 0.82100004 1.9175985e-38
-0.091482863 0.02423905 0.82100004 1.2722291e-38
-0.089919046 0.02423905 0.82100004 1.3552026e-38
-0.088355243 0.02423905 0.82100004 1.9360351e-38
-0.087002859 0.024298096 0.82300001 2.1020604e-38
-0.085435241 0.024298096 0.82300001 2.2956712e-38
-0.083867624 0.024298096 0.82300001 1.9736014e-38
-0.0823 0.024298096 0.82300001 1.4665254e-38
-0.080928579 0.024357144 0.82500005 1.1912636e-38
-0.079357147 0.024357144 0.82500005 1.394094e-38
-0.077785715 0.024357144 0.82500005 1.8812247e-38
-0.076214284 0.024357144 0.82500005 2.17625e-38
-0.074642867 0.024357144 0.82500005 2.0931292e-38
-0.073248573 0.024416192 0.82700002 1.696688e-38
-0.071673334 0.024416192 0.82700002 1.3567892e-38
-0.070098102 0.024416192 0.82700002 1.3291305e-38
-0.068688571 0.024475239 0.82900006 1.4026709e-38
-0.067271426 0.024534287 0.83100003 1.4579883e-38
-0.065846674 0.024593335 0.83300006 1.8165766e-38
-0.064260006 0.024593335 0.83300006 2.1023831e-38
-0.06282381 0.024652382 0.83500004 2.1298625e-38
-0.061233338 0.024652382 0.83500004 1.6227866e-38
-0.059785716 0.024711428 0.83700001 1.0435007e-38
-0.058330476 0.024770476 0.83900005 6.2862039e-39
-0.056867622 0.024829524 0.84100002 2.6178553e-39
-0.055397145 0.024888573 0.84300005 2.6178553e-39
-0.05379143 0.024888573 0.84300005 1.0976004e-38
-0.052309528 0.024947621 0.84500003 1.4940416e-38
-0.050820004 0.025006669 0.84700006 1.5944411e-38
-0.04920667 0.025006669 0.84700006 1.5575629e-38
-0.12795715 0.026557142 0.84500003 1.3553098e-38
-0.12574953 0.026431428 0.84100002 1.0602838e-38
-0.12385239 0.026368573 0.83900005 9.6866396e-39
-0.12196286 0.026305715 0.83700001 1.2083726e-38
-0.12008096 0.026242858 0.83500004 1.4934973e-38
-0.11820668 0.026180001 0.83300006 1.816182e-38
-0.11634 0.026117142 0.83100003 1.6507344e-38
-0.11448096 0.026054287 0.82900006 1.0699019e-38
-0.11262953 0.025991429 0.82700002 6.9330405e-39
-0.11078572 0.025928574 0.82500005 4.9047366e-39
-0.10921429 0.025928574 0.82500005 4.8207596e-39
-0.10764287 0.025928574 0.82500005 9.1539542e-39
-0.10607143 0.025928574 0.82500005 1.6688819e-38
-0.1045 0.025928574 0.82500005 1.9454688e-38
-0.10267905 0.025865715 0.82300001 1.908631e-38
-0.10111143 0.025865715 0.82300001 1.6781419e-38
-0.09954381 0.025865715 0.82300001 1.6508445e-38
-0.097976193 0.025865715 0.82300001 1.9735292e-38
-0.096408576 0.025865715 0.82300001 2.2033321e-38
-0.094840951 0.025865715 0.82300001 2.0373799e-38
-0.093273334 0.025865715 0.82300001 1.6689577e-38
-0.091705717 0.025865715 0.82300001 1.1526622e-38
-0.0901381 0.025865715 0.82300001 1.1341808e-38
-0.088570476 0.025865715 0.82300001 1.5582807e-38
-0.087002859 0.025865715 0.82300001 1.9634047e-38
-0.085435241 0.025865715 0.82300001 2.2860894e-38
-0.083867624 0.025865715 0.82300001 2.2864879e-38
-0.0823 0.025865715 0.82300001 1.8900467e-38
-0.080928579 0.025928574 0.82500005 1.5496422e-38
-0.079357147 0.025928574 0.82500005 1.7985704e-38
-0.077785715 0.025928574 0.82500005 2.1575225e-38
-0.076399051 0.025991429 0.82700002 2.1298638e-38
-0.074823812 0.025991429 0.82700002 1.872112e-38
-0.073248573 0.025991429 0.82700002 1.5309882e-38
-0.071673334 0.025991429 0.82700002 1.2558419e-38
-0.070267625 0.026054287 0.82900006 1.2835006e-38
-0.068688571 0.026054287 0.82900006 1.2465504e-38
-0.067271426 0.026117142 0.83100003 1.1820135e-38
-0.065846674 0.026180001 0.83300006 1.4852847e-38
-0.064260006 0.026180001 0.83300006 1.9831411e-38
-0.06282381 0.026242858 0.83500004 2.0655809e-38
-0.061233338 0.026242858 0.83500004 1.3372354e-38
-0.059785716 0.026305715 0.83700001 7.2124916e-39
-0.058469526 0.026431428 0.84100002 5.8295572e-39
-0.056867622 0.026431428 0.84100002 4.0875638e-39
-0.055397145 0.026494287 0.84300005 4.7329332e-39
-0.053919047 0.026557142 0.84500003 1.2635843e-38
-0.052309528 0.026557142 0.84500003 1.4940734e-38
-0.050940003 0.026682859 0.84900004 1.5577433e-38
-0.049322858 0.026682859 0.84900004 1.5393042e-38
-0.12795715 0.028166667 0.84500003 1.4013723e-38
-0.12604858 0.028100001 0.84300005 1.1708832e-38
-0.12414762 0.028033335 0.84100002 9.5037155e-39
-0.12225429 0.027966669 0.83900005 1.0517867e-38
-0.12036857 0.027899999 0.83700001 1.4199909e-38
-0.11820668 0.027766669 0.83300006 1.65048e-38
-0.11634 0.027700001 0.83100003 1.4849933e-38
-0.11448096 0.027633334 0.82900006 8.2118472e-39
-0.11262953 0.027566668 0.82700002 4.2705201e-39
-0.11105429 0.027566668 0.82700002 4.8236939e-39
-0.10921429 0.027500002 0.82500005 5.6505637e-39
-0.10764287 0.027500002 0.82500005 5.0051943e-39
-0.10607143 0.027500002 0.82500005 1.0983065e-38
-0.1045 0.027500002 0.82500005 1.5408455e-38
-0.10292857 0.027500002 0.82500005 1.8624962e-38
-0.10111143 0.027433334 0.82300001 2.0745461e-38
-0.09954381 0.027433334 0.82300001 2.102025e-38
-0.097976193 0.027433334 0.82300001 2.0651468e-38
-0.096408576 0.027433334 0.82300001 1.8529899e-38
-0.094840951 0.027433334 0.82300001 1.3551335e-38
-0.093273334 0.027433334 0.82300001 1.2539687e-38
-0.091705717 0.027433334 0.82300001 1.2816274e-38
-0.0901381 0.027433334 0.82300001 1.3091426e-38
-0.088570476 0.027433334 0.82300001 1.2814839e-38
-0.087002859 0.027433334 0.82300001 1.4841637e-38
-0.085435241 0.027433334 0.82300001 1.751531e-38
-0.083867624 0.027433334 0.82300001 1.9175975e-38
-0.0823 0.027433334 0.82300001 2.2771605e-38
-0.080928579 0.027500002 0.82500005 2.2404617e-38
-0.079357147 0.027500002 0.82500005 2.2312421e-38
-0.077974282 0.027566668 0.82700002 2.074655e-38
-0.076399051 0.027566668 0.82700002 1.7704094e-38
-0.074823812 0.027566668 0.82700002 1.4672434e-38
-0.073248573 0.027566668 0.82700002 1.4395847e-38
-0.071673334 0.027566668 0.82700002 1.3662974e-38
-0.070267625 0.027633334 0.82900006 1.3570778e-38
-0.068854287 0.027700001 0.83100003 1.3385668e-38
-0.067433342 0.027766669 0.83300006 1.2832494e-38
-0.065846674 0.027766669 0.83300006 1.457627e-38
-0.064414285 0.027833335 0.83500004 1.7895313e-38
-0.06282381 0.027833335 0.83500004 1.890624e-38
-0.061379995 0.027899999 0.83700001 1.2083764e-38
-0.059928574 0.027966669 0.83900005 3.4454678e-39
-0.058469526 0.028033335 0.84100002 2.4313159e-39
-0.057002861 0.028100001 0.84300005 5.8328138e-39
-0.055397145 0.028100001 0.84300005 9.3362477e-39
-0.053919047 0.028166667 0.84500003 1.4294263e-38
-0.052433338 0.028233334 0.84700006 1.4939632e-38
-0.051059999 0.028366666 0.85100001 1.5577433e-38
-0.049439047 0.028366666 0.85100001 1.5208651e-38
-0.12795715 0.029776191 0.84500003 1.4198105e-38
-0.12604858 0.029705716 0.84300005 1.2077605e-38
-0.12414762 0.029635238 0.84100002 8.9526927e-39
-0.12225429 0.029564762 0.83900005 9.2292796e-39
-0.1206562 0.029564762 0.83900005 1.1439821e-38
-0.11849048 0.029423811 0.83500004 1.4851059e-38
-0.11662001 0.029353335 0.83300006 1.1629973e-38
-0.11448096 0.029212384 0.82900006 6.6514089e-39
-0.11290191 0.029212384 0.82900006 4.823331e-39
-0.11105429 0.029141905 0.82700002 5.560896e-39
-0.10947905 0.029141905 0.82700002 4.8251386e-39
-0.10764287 0.02907143 0.82500005 3.9031823e-39
-0.10607143 0.02907143 0.82500005 5.190261e-39
-0.1045 0.02907143 0.82500005 8.417108e-39
-0.10292857 0.02907143 0.82500005 1.7241649e-38
-0.10135715 0.02907143 0.82500005 2.1759235e-38
-0.099785723 0.02907143 0.82500005 2.2309926e-38
-0.098214291 0.02907143 0.82500005 1.9451861e-38
-0.096408576 0.029000953 0.82300001 1.5307721e-38
-0.094840951 0.029000953 0.82300001 1.1804287e-38
-0.093273334 0.029000953 0.82300001 1.2264543e-38
-0.091705717 0.029000953 0.82300001 1.3463086e-38
-0.0901381 0.029000953 0.82300001 1.3277253e-38
-0.088570476 0.029000953 0.82300001 1.3092861e-38
-0.087002859 0.029000953 0.82300001 1.2908076e-38
-0.085435241 0.029000953 0.82300001 1.3092467e-38
-0.083867624 0.029000953 0.82300001 1.7328422e-38
-0.0823 0.029000953 0.82300001 2.2952355e-38
-0.080928579 0.02907143 0.82500005 2.323258e-38
-0.079357147 0.02907143 0.82500005 2.2771602e-38
-0.077974282 0.029141905 0.82700002 1.9550884e-38
-0.076399051 0.029141905 0.82700002 1.5494276e-38
-0.074823812 0.029141905 0.82700002 1.3018678e-38
-0.073248573 0.029141905 0.82700002 1.3571852e-38
-0.071846671 0.029212384 0.82900006 1.4122154e-38
-0.070437141 0.029282859 0.83100003 1.3937763e-38
-0.068854287 0.029282859 0.83100003 1.3846281e-38
-0.067433342 0.029353335 0.83300006 1.3108716e-38
-0.065846674 0.029353335 0.83300006 1.3290213e-38
-0.064414285 0.029423811 0.83500004 1.7254625e-38
-0.06282381 0.029423811 0.83500004 1.789643e-38
-0.061379995 0.029494286 0.83700001 1.2180301e-38
-0.059928574 0.029564762 0.83900005 4.270565e-39
-0.058469526 0.029635238 0.84100002 2.3344567e-39
-0.057002861 0.029705716 0.84300005 6.1990277e-39
-0.055397145 0.029705716 0.84300005 1.09932e-38
-0.054046672 0.029846668 0.84700006 1.466092e-38
-0.052557144 0.029917145 0.84900004 1.4199942e-38
-0.051059999 0.029987618 0.85100001 1.5300852e-38
-0.049439047 0.029987618 0.85100001 1.5300852e-38
-0.12795715 0.031385716 0.84500003 1.4104098e-38
-0.12604858 0.03131143 0.84300005 1.2905555e-38
-0.12414762 0.031237142 0.84100002 1.0333123e-38
-0.12254572 0.031237142 0.84100002 9.6877536e-39
-0.1206562 0.031162858 0.83900005 1.2175581e-38
-0.11877429 0.031088572 0.83700001 1.5771211e-38
-0.11662001 0.030940004 0.83300006 1.3285882e-38
-0.11503334 0.030940004 0.83300006 6.739992e-39
-0.11290191 0.03079143 0.82900006 2.8018823e-39
-0.11132286 0.03079143 0.82900006 4.4614036e-39
-0.10947905 0.030717144 0.82700002 6.204113e-39
-0.10790381 0.030717144 0.82700002 6.204113e-39
-0.10632858 0.030717144 0.82700002 6.0186428e-39
-0.1045 0.03064286 0.82500005 4.7279039e-39
-0.10292857 0.03064286 0.82500005 1.1531288e-38
-0.10135715 0.03064286 0.82500005 1.992109e-38
-0.099785723 0.03064286 0.82500005 2.1204642e-38
-0.098214291 0.03064286 0.82500005 1.4197774e-38
-0.096642859 0.03064286 0.82500005 1.1066741e-38
-0.095071435 0.03064286 0.82500005 1.2357479e-38
-0.093500003 0.03064286 0.82500005 1.3645679e-38
-0.091928579 0.03064286 0.82500005 1.3922266e-38
-0.0901381 0.030568572 0.82300001 1.3369095e-38
-0.088570476 0.030568572 0.82300001 1.3922269e-38
-0.087002859 0.030568572 0.82300001 1.3921543e-38
-0.085435241 0.030568572 0.82300001 1.2354217e-38
-0.084071428 0.03064286 0.82500005 1.1892533e-38
-0.082500003 0.03064286 0.82500005 1.8715009e-38
-0.08112476 0.030717144 0.82700002 2.1020604e-38
-0.079549521 0.030717144 0.82700002 2.0836212e-38
-0.077974282 0.030717144 0.82700002 1.9273922e-38
-0.076399051 0.030717144 0.82700002 1.5770488e-38
-0.074823812 0.030717144 0.82700002 1.347823e-38
-0.073425718 0.03079143 0.82900006 1.3662621e-38
-0.071846671 0.03079143 0.82900006 1.384593e-38
-0.070437141 0.030865714 0.83100003 1.3753735e-38
-0.069020011 0.030940004 0.83300006 1.3661889e-38
-0.067433342 0.030940004 0.83300006 1.2924324e-38
-0.066004761 0.031014288 0.83500004 1.5221996e-38
-0.064414285 0.031014288 0.83500004 1.9002016e-38
-0.062974289 0.031088572 0.83700001 2.0377765e-38
-0.061379995 0.031088572 0.83700001 1.7888483e-38
-0.059928574 0.031162858 0.83900005 1.0896423e-38
-0.058469526 0.031237142 0.84100002 4.9959023e-39
-0.057002861 0.03131143 0.84300005 5.3725391e-39
-0.055397145 0.03131143 0.84300005 1.1457451e-38
-0.054046672 0.031460002 0.84700006 1.5584298e-38
-0.052680954 0.03160857 0.85100001 1.3002821e-38
-0.051240001 0.031720001 0.85400003 1.4379988e-38
-0.049613334 0.031720001 0.85400003 1.5025357e-38
-0.12604858 0.032917146 0.84300005 1.3088514e-38
-0.12414762 0.032839045 0.84100002 1.0700441e-38
-0.12254572 0.032839045 0.84100002 1.0239463e-38
-0.12094381 0.032839045 0.84100002 1.2727316e-38
-0.1190581 0.032760955 0.83900005 1.6322945e-38
-0.1169 0.032604761 0.83500004 1.3746525e-38
-0.11503334 0.032526668 0.83300006 7.2928308e-39
-0.11317429 0.032448575 0.83100003 3.3514533e-39
-0.11132286 0.032370478 0.82900006 5.1031703e-39
-0.10947905 0.032292381 0.82700002 6.9395173e-39
-0.10790381 0.032292381 0.82700002 6.8473216e-39
-0.10632858 0.032292381 0.82700002 5.0088138e-39
-0.10475334 0.032292381 0.82700002 2.98051e-39
-0.10292857 0.032214288 0.82500005 7.4868981e-39
-0.10135715 0.032214288 0.82500005 1.7444026e-38
-0.099785723 0.032214288 0.82500005 2.0561456e-38
-0.098214291 0.032214288 0.82500005 1.3462392e-38
-0.096642859 0.032214288 0.82500005 1.0056158e-38
-0.095071435 0.032214288 0.82500005 1.2084462e-38
-0.093500003 0.032214288 0.82500005 1.3551688e-38
-0.091928579 0.032214288 0.82500005 1.3643884e-38
-0.0901381 0.032136191 0.82300001 1.3368369e-38
-0.088570476 0.032136191 0.82300001 1.4105934e-38
-0.087002859 0.032136191 0.82300001 1.4014818e-38
-0.085435241 0.032136191 0.82300001 1.2539687e-38
-0.084071428 0.032214288 0.82500005 1.106848e-38
-0.082500003 0.032214288 0.82500005 1.7890956e-38
-0.08112476 0.032292381 0.82700002 1.9732389e-38
-0.079549521 0.032292381 0.82700002 2.0008975e-38
-0.078162864 0.032370478 0.82900006 1.7709492e-38
-0.07658381 0.032370478 0.82900006 1.522021e-38
-0.075004764 0.032370478 0.82900006 1.3570062e-38
-0.073602863 0.032448575 0.83100003 1.3846649e-38
-0.072020002 0.032448575 0.83100003 1.4029598e-38
-0.070606671 0.032526668 0.83300006 1.3937403e-38
-0.069020011 0.032526668 0.83300006 1.3477854e-38
-0.067433342 0.032526668 0.83300006 1.3201267e-38
-0.066004761 0.032604761 0.83500004 1.6783943e-38
-0.064568572 0.032682858 0.83700001 1.9734203e-38
-0.062974289 0.032682858 0.83700001 2.0837642e-38
-0.061526671 0.032760955 0.83900005 2.0100077e-38
-0.060071427 0.032839045 0.84100002 1.540968e-38
-0.058608577 0.032917146 0.84300005 8.0340295e-39
-0.057002861 0.032917146 0.84300005 7.3011069e-39
-0.055397145 0.032917146 0.84300005 1.2832845e-38
-0.054174289 0.033151429 0.84900004 1.5492829e-38
-0.052680954 0.033229522 0.85100001 1.2634764e-38
-0.051240001 0.033346668 0.85400003 1.3829322e-38
-0.049613334 0.033346668 0.85400003 1.493567e-38
-0.12604858 0.034522858 0.84300005 1.2719725e-38
-0.12444286 0.034522858 0.84300005 1.171063e-38
-0.12254572 0.034440953 0.84100002 1.3554543e-38
-0.12094381 0.034440953 0.84100002 1.4842771e-38
-0.1190581 0.034359049 0.83900005 1.7793031e-38
-0.11718 0.034277145 0.83700001 1.6321866e-38
-0.11530953 0.034195241 0.83500004 1.3371606e-38
-0.11344668 0.034113336 0.83300006 7.9497133e-39
-0.11159144 0.034031428 0.83100003 6.8433658e-39
-0.10974382 0.033949528 0.82900006 5.6531099e-39
-0.10816476 0.033949528 0.82900006 5.8375011e-39
-0.10632858 0.03386762 0.82700002 4.5496406e-39
-0.10475334 0.03386762 0.82700002 2.9823149e-39
-0.1031781 0.03386762 0.82700002 8.4067314e-39
-0.10135715 0.033785716 0.82500005 1.6980925e-38
-0.099785723 0.033785716 0.82500005 2.0008982e-38
-0.098214291 0.033785716 0.82500005 1.4016266e-38
-0.096642859 0.033785716 0.82500005 9.8728764e-39
-0.095071435 0.033785716 0.82500005 1.1440202e-38
-0.093500003 0.033785716 0.82500005 1.3185793e-38
-0.091928579 0.033785716 0.82500005 1.3277988e-38
-0.090357147 0.033785716 0.82500005 1.3461291e-38
-0.088785723 0.033785716 0.82500005 1.3737878e-38
-0.087214291 0.033785716 0.82500005 1.3646398e-38
-0.085642859 0.033785716 0.82500005 1.2263464e-38
-0.084071428 0.033785716 0.82500005 1.134366e-38
-0.082500003 0.033785716 0.82500005 1.8258332e-38
-0.08112476 0.03386762 0.82700002 2.1666686e-38
-0.079549521 0.03386762 0.82700002 2.2127664e-38
-0.078162864 0.033949528 0.82900006 1.9459039e-38
-0.07676857 0.034031428 0.83100003 1.5402431e-38
-0.075185716 0.034031428 0.83100003 1.2650271e-38
-0.073602863 0.034031428 0.83100003 1.3203445e-38
-0.072193339 0.034113336 0.83300006 1.3845933e-38
-0.070606671 0.034113336 0.83300006 1.3753737e-38
-0.069020011 0.034113336 0.83300006 1.4395847e-38
-0.067595243 0.034195241 0.83500004 1.6331956e-38
-0.066004761 0.034195241 0.83500004 1.8717893e-38
-0.064568572 0.034277145 0.83700001 1.816472e-38
-0.063124768 0.034359049 0.83900005 1.9822722e-38
-0.061673336 0.034440953 0.84100002 2.1390048e-38
-0.060071427 0.034440953 0.84100002 2.0285922e-38
-0.058608577 0.034522858 0.84300005 1.7059075e-38
-0.057138097 0.034604765 0.84500003 1.62347e-38
-0.05552857 0.034604765 0.84500003 1.4943961e-38
-0.054174289 0.03476857 0.84900004 1.4202446e-38
-0.052680954 0.034850478 0.85100001 1.2819511e-38
-0.051059999 0.034850478 0.85100001 1.4197389e-38
-0.049439047 0.034850478 0.85100001 1.521154e-38
-0.12634763 0.036214288 0.84500003 1.2258391e-38
-0.12444286 0.036128573 0.84300005 1.1893561e-38
-0.12283715 0.036128573 0.84300005 1.4843822e-38
-0.12094381 0.036042858 0.84100002 1.6038805e-38
-0.11934191 0.036042858 0.84100002 1.7052957e-38
-0.11718 0.035871428 0.83700001 1.5953782e-38
-0.11530953 0.035785716 0.83500004 1.5584999e-38
-0.11344668 0.035700005 0.83300006 1.0157781e-38
-0.11159144 0.035614286 0.83100003 6.746543e-39
-0.10974382 0.035528574 0.82900006 3.4461699e-39
-0.10816476 0.035528574 0.82900006 3.9993437e-39
-0.10632858 0.035442855 0.82700002 3.4465258e-39
-0.10475334 0.035442855 0.82700002 2.893352e-39
-0.1031781 0.035442855 0.82700002 1.0798417e-38
-0.10160286 0.035442855 0.82700002 1.8358459e-38
-0.10002762 0.035442855 0.82700002 2.0469598e-38
-0.098452382 0.035442855 0.82700002 1.6781772e-38
-0.096642859 0.035357147 0.82500005 1.2728444e-38
-0.095071435 0.035357147 0.82500005 1.1622096e-38
-0.093500003 0.035357147 0.82500005 1.2265266e-38
-0.091928579 0.035357147 0.82500005 1.2818439e-38
-0.090357147 0.035357147 0.82500005 1.3462007e-38
-0.088785723 0.035357147 0.82500005 1.3646398e-38
-0.087214291 0.035357147 0.82500005 1.3185773e-38
-0.085642859 0.035357147 0.82500005 1.2171621e-38
-0.084071428 0.035357147 0.82500005 1.2265266e-38
-0.082500003 0.035357147 0.82500005 2.0286285e-38
-0.081320956 0.035528574 0.82900006 2.2035474e-38
-0.07974191 0.035528574 0.82900006 2.2035474e-38
-0.078351431 0.035614286 0.83100003 2.0102976e-38
-0.07676857 0.035614286 0.83100003 1.6968325e-38
-0.075185716 0.035614286 0.83100003 1.3570428e-38
-0.073780008 0.035700005 0.83300006 1.3201645e-38
-0.072193339 0.035700005 0.83300006 1.3294545e-38
-0.070606671 0.035700005 0.83300006 1.3017958e-38
-0.069020011 0.035700005 0.83300006 1.4578807e-38
-0.067595243 0.035785716 0.83500004 1.8635414e-38
-0.066004761 0.035785716 0.83500004 2.0470682e-38
-0.064568572 0.035871428 0.83700001 1.5492118e-38
-0.063124768 0.035957143 0.83900005 1.6591562e-38
-0.061673336 0.036042858 0.84100002 1.9910604e-38
-0.060214289 0.036128573 0.84300005 2.1020241e-38
-0.058747619 0.036214288 0.84500003 2.0835849e-38
-0.057138097 0.036214288 0.84500003 1.7983944e-38
-0.05552857 0.036214288 0.84500003 1.3466358e-38
-0.054174289 0.036385715 0.84900004 1.3555276e-38
-0.052557144 0.036385715 0.84900004 1.3370884e-38
-0.051059999 0.03647143 0.85100001 1.4197386e-38
-0.049439047 0.03647143 0.85100001 1.5027146e-38
-0.12664667 0.037913334 0.84700006 1.1520813e-38
-0.1247381 0.037823807 0.84500003 1.143222e-38
-0.12283715 0.037734289 0.84300005 1.4935654e-38
-0.12123144 0.037734289 0.84300005 1.4565831e-38
-0.11934191 0.037644763 0.84100002 1.1154592e-38
-0.11746 0.03755524 0.83900005 1.216912e-38
-0.11558571 0.037465714 0.83700001 1.8530618e-38
-0.11371905 0.037376191 0.83500004 1.5680129e-38
-0.11186001 0.037286669 0.83300006 1.0793761e-38
-0.11000858 0.037197147 0.83100003 2.5271045e-39
-0.10816476 0.03710762 0.82900006 1.7895394e-39
-0.10658572 0.03710762 0.82900006 7.3054005e-39
-0.10500667 0.03710762 0.82900006 1.3113725e-38
-0.1031781 0.037018094 0.82700002 1.8350165e-38
-0.10160286 0.037018094 0.82700002 2.0286273e-38
-0.10002762 0.037018094 0.82700002 2.0467793e-38
-0.098452382 0.037018094 0.82700002 2.0652184e-38
-0.096877143 0.037018094 0.82700002 1.7887083e-38
-0.095301904 0.037018094 0.82700002 1.3277302e-38
-0.093726665 0.037018094 0.82700002 1.0700476e-38
-0.092151433 0.037018094 0.82700002 1.1345846e-38
-0.090357147 0.036928572 0.82500005 1.2540423e-38
-0.088785723 0.036928572 0.82500005 1.3093597e-38
-0.087214291 0.036928572 0.82500005 1.3552019e-38
-0.085642859 0.036928572 0.82500005 1.6871062e-38
-0.084071428 0.036928572 0.82500005 1.9635871e-38
-0.082699999 0.037018094 0.82700002 2.3231501e-38
-0.081320956 0.03710762 0.82900006 2.2126951e-38
-0.07974191 0.03710762 0.82900006 2.1758169e-38
-0.078351431 0.037197147 0.83100003 2.1667418e-38
-0.07676857 0.037197147 0.83100003 2.1759613e-38
-0.075185716 0.037197147 0.83100003 1.8815124e-38
-0.073780008 0.037286669 0.83300006 1.6049255e-38
-0.072193339 0.037286669 0.83300006 1.4398366e-38
-0.070606671 0.037286669 0.83300006 1.4582757e-38
-0.069020011 0.037286669 0.83300006 1.761406e-38
-0.067595243 0.037376191 0.83500004 2.1025298e-38
-0.066004761 0.037376191 0.83500004 2.0929111e-38
-0.064568572 0.037465714 0.83700001 1.2170527e-38
-0.063124768 0.03755524 0.83900005 1.1249652e-38
-0.061673336 0.037644763 0.84100002 1.3554543e-38
-0.060214289 0.037734289 0.84300005 1.7700434e-38
-0.058747619 0.037823807 0.84500003 2.1757042e-38
-0.057273336 0.037913334 0.84700006 1.9454007e-38
-0.055660002 0.037913334 0.84700006 1.3553486e-38
-0.054174289 0.038002856 0.84900004 1.2267429e-38
-0.052557144 0.038002856 0.84900004 1.2912799e-38
-0.050940003 0.038002856 0.84900004 1.4379982e-38
-0.049322858 0.038002856 0.84900004 1.5117547e-38
-0.12634763 0.039433334 0.84500003 1.1981078e-38
-0.1247381 0.039433334 0.84500003 1.1060917e-38
-0.12283715 0.039340001 0.84300005 1.4472155e-38
-0.12123144 0.039340001 0.84300005 1.3004263e-38
-0.11934191 0.039246667 0.84100002 9.0398507e-39
-0.11746 0.039153337 0.83900005 1.1061985e-38
-0.11558571 0.03906 0.83700001 1.7792266e-38
-0.11371905 0.038966667 0.83500004 1.7889199e-38
-0.11186001 0.038873333 0.83300006 1.36482e-38
-0.11027334 0.038873333 0.83300006 6.6639996e-39
-0.10842572 0.03878 0.83100003 4.3591088e-39
-0.10658572 0.038686667 0.82900006 9.1450125e-39
-0.10500667 0.038686667 0.82900006 1.6520663e-38
-0.10342763 0.038686667 0.82900006 1.9732033e-38
-0.10184858 0.038686667 0.82900006 1.9086663e-38
-0.10026953 0.038686667 0.82900006 1.963801e-38
-0.09869048 0.038686667 0.82900006 2.0928748e-38
-0.097111441 0.038686667 0.82900006 2.0928786e-38
-0.095532387 0.038686667 0.82900006 1.7425352e-38
-0.093953341 0.038686667 0.82900006 1.2545504e-38
-0.092151433 0.038593337 0.82700002 1.0793787e-38
-0.090576194 0.038593337 0.82700002 1.1895735e-38
-0.088785723 0.038500004 0.82500005 1.2264517e-38
-0.087214291 0.038500004 0.82500005 1.3092505e-38
-0.085642859 0.038500004 0.82500005 1.9085221e-38
-0.084071428 0.038500004 0.82500005 2.1664188e-38
-0.082699999 0.038593337 0.82700002 2.120321e-38
-0.081517145 0.03878 0.83100003 2.0099366e-38
