# .PCD v0.7 - Point Cloud Data file format
VERSION 0.7
FIELDS x y z rgb
SIZE 4 4 4 4
TYPE F F F F
COUNT 1 1 1 1
WIDTH 955
HEIGHT 1
VIEWPOINT 0 0 0 1 0 0 0
POINTS 955
DATA ascii
-0.015525714 0.0024514287 0.85800004 7.197771e-39
-0.013923809 0.0024571428 0.86000001 5.7226409e-39
-0.012285715 0.0024571428 0.86000001 7.5654493e-39
-0.010672381 0.0024628574 0.86200005 1.2083035e-38
-0.0090514291 0.0024685713 0.86400002 1.1345107e-38
-0.0074314289 0.002477143 0.86700004 5.8133694e-39
-0.0058066668 0.0024885715 0.87100005 4.1628359e-39
-0.0041571432 0.0024942856 0.87300003 5.8223573e-39
-0.0024942856 0.0024942856 0.87300003 7.472525e-39
-0.00083142857 0.0024942856 0.87300003 1.1068155e-38
0.00082952384 0.0024885715 0.87100005 1.392153e-38
0.0024885715 0.0024885715 0.87100005 1.4290313e-38
0.0041476195 0.0024885715 0.87100005 1.4105906e-38
0.0058066668 0.0024885715 0.87100005 1.4105906e-38
-0.080833338 0.0041666669 0.87500006 1.3921527e-38
-0.079166673 0.0041666669 0.87500006 1.3830051e-38
-0.077322856 0.0041571432 0.87300003 1.1709551e-38
-0.075486667 0.0041476195 0.87100005 8.2118781e-39
-0.073827624 0.0041476195 0.87100005 6.9211392e-39
-0.072002858 0.0041380953 0.86900002 7.1998911e-39
-0.070347615 0.0041380953 0.86900002 5.4481742e-39
-0.068139054 0.0041047623 0.86200005 5.5396439e-39
-0.06634286 0.0040952382 0.86000001 1.0979186e-38
-0.064704761 0.0040952382 0.86000001 1.2265631e-38
-0.062920004 0.004085714 0.85800004 1.1620262e-38
-0.061285719 0.004085714 0.85800004 1.1898596e-38
-0.059512388 0.0040761908 0.85600007 1.2543966e-38
-0.05788191 0.0040761908 0.85600007 1.0705505e-38
-0.056251429 0.0040761908 0.85600007 9.1381798e-39
-0.054493334 0.0040666666 0.85400003 7.3011069e-39
-0.052680954 0.004052381 0.85100001 7.5776938e-39
-0.051059999 0.004052381 0.85100001 7.7617123e-39
-0.049439047 0.004052381 0.85100001 7.7617123e-39
-0.047818094 0.004052381 0.85100001 7.761362e-39
-0.046197142 0.004052381 0.85100001 8.9599052e-39
-0.04457619 0.004052381 0.85100001 1.2267802e-38
-0.042854287 0.0040428573 0.84900004 1.4111715e-38
-0.041237146 0.0040428573 0.84900004 1.4298216e-38
-0.039620001 0.0040428573 0.84900004 1.2823086e-38
-0.038002856 0.0040428573 0.84900004 7.9472288e-39
-0.036385715 0.0040428573 0.84900004 4.2594036e-39
-0.03476857 0.0040428573 0.84900004 1.3231607e-39
-0.033151429 0.0040428573 0.84900004 2.1529213e-39
-0.031534284 0.0040428573 0.84900004 2.7932222e-39
-0.029917145 0.0040428573 0.84900004 2.4244397e-39
-0.028300002 0.0040428573 0.84900004 1.5064519e-39
-0.026745714 0.004052381 0.85100001 5.470864e-39
-0.025213335 0.0040666666 0.85400003 1.1808269e-38
-0.023586666 0.0040666666 0.85400003 1.3099007e-38
-0.02196 0.0040666666 0.85400003 1.273055e-38
-0.020333333 0.0040666666 0.85400003 1.2822746e-38
-0.018750478 0.0040761908 0.85600007 1.3926948e-38
-0.017160002 0.004085714 0.85800004 1.2175231e-38
-0.015525714 0.004085714 0.85800004 9.2278573e-39
-0.013923809 0.0040952382 0.86000001 7.291749e-39
-0.012314286 0.0041047623 0.86200005 8.4867049e-39
-0.010672381 0.0041047623 0.86200005 1.1621356e-38
-0.0090514291 0.004114286 0.86400002 1.1252183e-38
-0.0074485713 0.0041380953 0.86900002 4.98288e-39
-0.0058066668 0.0041476195 0.87100005 1.6810915e-39
-0.0041571432 0.0041571432 0.87300003 3.6171998e-39
-0.0025000002 0.0041666669 0.87500006 5.9098558e-39
-0.00083142857 0.0041571432 0.87300003 1.0704029e-38
0.00082952384 0.0041476195 0.87100005 1.401337e-38
0.0024885715 0.0041476195 0.87100005 1.4197761e-38
0.0041476195 0.0041476195 0.87100005 1.3921518e-38
0.0058066668 0.0041476195 0.87100005 1.4013713e-38
-0.080833338 0.0058333338 0.87500006 1.3828966e-38
-0.079166673 0.0058333338 0.87500006 1.3644943e-38
-0.077322856 0.0058200001 0.87300003 1.1801031e-38
-0.075486667 0.0058066668 0.87100005 7.7523488e-39
-0.073827624 0.0058066668 0.87100005 4.2489149e-39
-0.072002858 0.0057933335 0.86900002 5.9109852e-39
-0.070347615 0.0057933335 0.86900002 8.4002672e-39
-0.068297148 0.0057600001 0.86400002 1.0606069e-38
-0.066497147 0.0057466668 0.86200005 1.3464134e-38
-0.064704761 0.0057333331 0.86000001 1.1898634e-38
-0.063066669 0.0057333331 0.86000001 7.8420263e-39
-0.061285719 0.0057200002 0.85800004 8.2161492e-39
-0.059651431 0.0057200002 0.85800004 1.1350801e-38
-0.058017146 0.0057200002 0.85800004 1.1992635e-38
-0.056251429 0.005706667 0.85600007 1.1992635e-38
-0.054620955 0.005706667 0.85600007 9.4172806e-39
-0.052866668 0.0056933332 0.85400003 8.2187374e-39
-0.051059999 0.0056733335 0.85100001 7.7610061e-39
-0.049439047 0.0056733335 0.85100001 8.4985711e-39
-0.047818094 0.0056733335 0.85100001 1.0615073e-38
-0.046197142 0.0056733335 0.85100001 1.3012159e-38
-0.04457619 0.0056733335 0.85100001 1.4295014e-38
-0.042854287 0.0056600003 0.84900004 1.2451102e-38
-0.041237146 0.0056600003 0.84900004 1.374428e-38
-0.039620001 0.0056600003 0.84900004 1.521941e-38
-0.038002856 0.0056600003 0.84900004 1.374473e-38
-0.03647143 0.0056733335 0.85100001 1.162423e-38
-0.03476857 0.0056600003 0.84900004 6.8423022e-39
-0.033151429 0.0056600003 0.84900004 3.4310639e-39
-0.03160857 0.0056733335 0.85100001 1.2291588e-39
-0.029987618 0.0056733335 0.85100001 2.7042888e-39
-0.028366666 0.0056733335 0.85100001 8.0361482e-39
-0.026840001 0.0056933332 0.85400003 1.2553734e-38
-0.025213335 0.0056933332 0.85400003 1.4112771e-38
-0.023586666 0.0056933332 0.85400003 1.180788e-38
-0.02196 0.0056933332 0.85400003 9.6927759e-39
-0.020380953 0.005706667 0.85600007 9.6927759e-39
-0.018750478 0.005706667 0.85600007 1.190114e-38
-0.017160002 0.0057200002 0.85800004 1.3191878e-38
-0.015561905 0.0057333331 0.86000001 1.3187925e-38
-0.013923809 0.0057333331 0.86000001 1.2542556e-38
-0.012314286 0.0057466668 0.86200005 1.2450007e-38
-0.010697143 0.0057600001 0.86400002 1.0513899e-38
-0.0090828575 0.0057800002 0.86700004 8.1232515e-39
-0.0074485713 0.0057933335 0.86900002 3.9744482e-39
-0.0058200001 0.0058200001 0.87300003 3.0600953e-39
-0.0041666669 0.0058333338 0.87500006 4.627421e-39
-0.0025000002 0.0058333338 0.87500006 6.3694172e-39
-0.00083333335 0.0058333338 0.87500006 1.0979199e-38
0.00083333335 0.0058333338 0.87500006 1.392153e-38
0.0025000002 0.0058333338 0.87500006 1.4105922e-38
-0.079166673 0.0075000003 0.87500006 1.3276521e-38
-0.077500008 0.0075000003 0.87500006 1.2723347e-38
-0.075659998 0.0074828574 0.87300003 8.6750212e-39
-0.073827624 0.0074657151 0.87100005 4.249631e-39
-0.072168581 0.0074657151 0.87100005 6.0009724e-39
-0.070347615 0.0074485713 0.86900002 9.6887976e-39
-0.068297148 0.0074057141 0.86400002 1.1618447e-38
-0.066497147 0.0073885717 0.86200005 1.2263817e-38
-0.064855248 0.0073885717 0.86200005 1.0334543e-38
-0.063066669 0.0073714289 0.86000001 4.5262179e-39
-0.061428569 0.0073714289 0.86000001 3.3362716e-39
-0.059651431 0.0073542856 0.85800004 7.2084881e-39
-0.058017146 0.0073542856 0.85800004 1.2542534e-38
-0.056382861 0.0073542856 0.85800004 1.3372294e-38
-0.054620955 0.0073371432 0.85600007 1.1349423e-38
-0.052990478 0.0073371432 0.85600007 8.9523368e-39
-0.051240001 0.0073200003 0.85400003 7.5766078e-39
-0.049613334 0.0073200003 0.85400003 9.0517379e-39
-0.047986668 0.0073200003 0.85400003 1.2452546e-38
-0.046197142 0.0072942856 0.85100001 1.4296459e-38
-0.04457619 0.0072942856 0.85100001 1.4387213e-38
-0.042955238 0.0072942856 0.85100001 1.0422801e-38
-0.041334286 0.0072942856 0.85100001 1.0332337e-38
-0.039713334 0.0072942856 0.85100001 1.3374793e-38
-0.038092382 0.0072942856 0.85100001 1.512368e-38
-0.03647143 0.0072942856 0.85100001 1.4201724e-38
-0.034850478 0.0072942856 0.85100001 1.061513e-38
-0.033229522 0.0072942856 0.85100001 5.175588e-39
-0.03160857 0.0072942856 0.85100001 1.2276888e-39
-0.029987618 0.0072942856 0.85100001 4.2701446e-39
-0.028366666 0.0072942856 0.85100001 1.1531306e-38
-0.026840001 0.0073200003 0.85400003 1.4389371e-38
-0.025213335 0.0073200003 0.85400003 1.3652882e-38
-0.023586666 0.0073200003 0.85400003 9.7806653e-39
-0.02196 0.0073200003 0.85400003 8.0364915e-39
-0.020380953 0.0073371432 0.85600007 8.0364915e-39
-0.018750478 0.0073371432 0.85600007 9.966123e-39
-0.017160002 0.0073542856 0.85800004 1.1164666e-38
-0.015561905 0.0073714289 0.86000001 1.383114e-38
-0.013923809 0.0073714289 0.86000001 1.4199922e-38
-0.012314286 0.0073885717 0.86200005 1.2267799e-38
-0.010697143 0.0074057141 0.86400002 7.1048439e-39
-0.0090828575 0.0074314289 0.86700004 5.267373e-39
-0.0074485713 0.0074485713 0.86900002 3.7000473e-39
-0.0058200001 0.0074828574 0.87300003 3.5196315e-39
-0.0041666669 0.0075000003 0.87500006 5.3635441e-39
-0.0025085714 0.0075257146 0.87800002 7.1048214e-39
-0.00083333335 0.0075000003 0.87500006 1.1622407e-38
0.00083333335 0.0075000003 0.87500006 1.3829335e-38
0.0025000002 0.0075000003 0.87500006 1.392153e-38
-0.080833338 0.0091666672 0.87500006 1.3459114e-38
-0.077500008 0.0091666672 0.87500006 1.3183965e-38
-0.075659998 0.0091457143 0.87300003 9.7795709e-39
-0.073827624 0.0091247624 0.87100005 3.6946593e-39
-0.072002858 0.0091038095 0.86900002 4.3454167e-39
-0.070347615 0.0091038095 0.86900002 8.6786113e-39
-0.068297148 0.0090514291 0.86400002 1.0791911e-38
-0.066651426 0.0090514291 0.86400002 9.3167809e-39
-0.064855248 0.0090304762 0.86200005 4.7170929e-39
-0.063213333 0.0090304762 0.86200005 2.965376e-39
-0.061428569 0.0090095233 0.86000001 1.4989199e-39
-0.059790477 0.0090095233 0.86000001 1.5911156e-39
-0.058017146 0.0089885723 0.85800004 7.756578e-39
-0.056382861 0.0089885723 0.85800004 1.1997577e-38
-0.054748576 0.0089885723 0.85800004 1.245361e-38
-0.052990478 0.0089676194 0.85600007 1.1623849e-38
-0.051360004 0.0089676194 0.85600007 1.2086247e-38
-0.049613334 0.0089466665 0.85400003 1.3745768e-38
-0.047986668 0.0089466665 0.85400003 1.4294298e-38
-0.046197142 0.0089152381 0.85100001 1.3003559e-38
-0.04457619 0.0089152381 0.85100001 1.0332047e-38
-0.042955238 0.0089152381 0.85100001 6.6442216e-39
-0.041334286 0.0089152381 0.85100001 5.5428935e-39
-0.039713334 0.0089152381 0.85100001 8.4009581e-39
-0.038092382 0.0089152381 0.85100001 1.2082632e-38
-0.03647143 0.0089152381 0.85100001 1.4940696e-38
-0.034850478 0.0089152381 0.85100001 1.3926973e-38
-0.033229522 0.0089152381 0.85100001 1.2175256e-38
-0.03160857 0.0089152381 0.85100001 1.0984206e-38
-0.029987618 0.0089152381 0.85100001 1.2551531e-38
-0.028466668 0.0089466665 0.85400003 1.355996e-38
-0.02690286 0.0089676194 0.85600007 1.2545808e-38
-0.025272382 0.0089676194 0.85600007 1.0890237e-38
-0.023641907 0.0089676194 0.85600007 9.0463247e-39
-0.022011429 0.0089676194 0.85600007 7.9446743e-39
-0.020380953 0.0089676194 0.85600007 8.1290655e-39
-0.018750478 0.0089676194 0.85600007 8.5871696e-39
-0.017199999 0.0090095233 0.86000001 8.494974e-39
-0.015561905 0.0090095233 0.86000001 1.1897893e-38
-0.013956192 0.0090304762 0.86200005 1.3926197e-38
-0.012342857 0.0090514291 0.86400002 1.1989395e-38
-0.010734286 0.0090828575 0.86700004 5.6278963e-39
-0.0091038095 0.0091038095 0.86900002 1.9587952e-39
-0.0074657151 0.0091247624 0.87100005 2.1431865e-39
-0.0058200001 0.0091457143 0.87300003 3.7043913e-39
-0.0041666669 0.0091666672 0.87500006 6.0092821e-39
-0.0025085714 0.0091980947 0.87800002 8.2101152e-39
-0.00083619048 0.0091980947 0.87800002 1.2174527e-38
0.00083619048 0.0091980947 0.87800002 1.3737136e-38
-0.077500008 0.010833334 0.87500006 1.3552379e-38
-0.075659998 0.010808571 0.87300003 1.0514265e-38
-0.073827624 0.01078381 0.87100005 4.7981356e-39
-0.072002858 0.010759047 0.86900002 3.2422992e-39
-0.070347615 0.010759047 0.86900002 8.0364719e-39
-0.068534292 0.010734286 0.86700004 1.0056902e-38
-0.066651426 0.010697143 0.86400002 7.291033e-39
-0.06500572 0.010697143 0.86400002 2.602357e-39
-0.063213333 0.010672381 0.86200005 2.7867482e-39
-0.061428569 0.010647619 0.86000001 2.6052437e-39
-0.059790477 0.010647619 0.86000001 1.775483e-39
-0.058017146 0.010622857 0.85800004 3.6142879e-39
-0.056382861 0.010622857 0.85800004 8.1318737e-39
-0.054748576 0.010622857 0.85800004 1.2636534e-38
-0.052990478 0.010598096 0.85600007 1.3189708e-38
-0.051360004 0.010598096 0.85600007 1.3373411e-38
-0.049729526 0.010598096 0.85600007 1.4295367e-38
-0.048099052 0.010598096 0.85600007 1.4201742e-38
-0.046360001 0.010573333 0.85400003 1.0974895e-38
-0.04457619 0.01053619 0.85100001 8.672873e-39
-0.042955238 0.01053619 0.85100001 7.1977429e-39
-0.041334286 0.01053619 0.85100001 6.554156e-39
-0.039713334 0.01053619 0.85100001 7.3839166e-39
-0.038092382 0.01053619 0.85100001 9.7773807e-39
-0.03647143 0.01053619 0.85100001 1.2819836e-38
-0.034850478 0.01053619 0.85100001 1.493749e-38
-0.033229522 0.01053619 0.85100001 1.4476512e-38
-0.031720001 0.010573333 0.85400003 1.3189736e-38
-0.030093335 0.010573333 0.85400003 1.4296083e-38
-0.028533336 0.010598096 0.85600007 1.4020222e-38
-0.02690286 0.010598096 0.85600007 1.0885571e-38
-0.025272382 0.010598096 0.85600007 9.2328893e-39
-0.023641907 0.010598096 0.85600007 8.7719112e-39
-0.022011429 0.010598096 0.85600007 8.1290655e-39
-0.020428572 0.010622857 0.85800004 8.3134568e-39
-0.018794287 0.010622857 0.85800004 8.036514e-39
-0.017199999 0.010647619 0.86000001 7.2989489e-39
-0.015561905 0.010647619 0.86000001 9.597346e-39
-0.013956192 0.010672381 0.86200005 1.2639802e-38
-0.012385715 0.010734286 0.86700004 1.0702987e-38
-0.010734286 0.010734286 0.86700004 4.4336845e-39
-0.0091038095 0.010759047 0.86900002 2.327568e-39
-0.0074657151 0.01078381 0.87100005 2.327568e-39
-0.0058200001 0.010808571 0.87300003 3.2444894e-39
-0.0041666669 0.010833334 0.87500006 6.5635321e-39
-0.0025085714 0.010870476 0.87800002 9.3185927e-39
-0.00083619048 0.010870476 0.87800002 1.2268853e-38
0.00083619048 0.010870476 0.87800002 1.3737489e-38
-0.075659998 0.012471429 0.87300003 1.1251114e-38
-0.07399714 0.012471429 0.87300003 5.442789e-39
-0.072168581 0.012442858 0.87100005 3.5185525e-39
-0.070347615 0.012414285 0.86900002 7.2063777e-39
-0.068692379 0.012414285 0.86900002 8.7683084e-39
-0.066882864 0.012385715 0.86700004 5.7258527e-39
-0.06500572 0.012342857 0.86400002 1.8673353e-39
-0.063359998 0.012342857 0.86400002 2.3283135e-39
-0.06157143 0.012314286 0.86200005 2.6045346e-39
-0.059790477 0.012285715 0.86000001 2.8811215e-39
-0.058152381 0.012285715 0.86000001 3.7079759e-39
-0.056382861 0.012257144 0.85800004 3.2469977e-39
-0.054748576 0.012257144 0.85800004 8.0324936e-39
-0.053114288 0.012257144 0.85800004 1.2826666e-38
-0.051479999 0.012257144 0.85800004 1.4109531e-38
-0.049729526 0.012228573 0.85600007 1.2542206e-38
-0.048099052 0.012228573 0.85600007 9.6863215e-39
-0.046360001 0.012200001 0.85400003 6.828257e-39
-0.044733334 0.012200001 0.85400003 7.0140705e-39
-0.043106668 0.012200001 0.85400003 7.7516356e-39
-0.041480001 0.012200001 0.85400003 8.118623e-39
-0.039713334 0.012157143 0.85100001 7.8420361e-39
-0.038092382 0.012157143 0.85100001 8.0260547e-39
-0.036600001 0.012200001 0.85400003 8.2104459e-39
-0.034973335 0.012200001 0.85400003 9.8706805e-39
-0.033346668 0.012200001 0.85400003 1.3927288e-38
-0.031794287 0.012228573 0.85600007 1.4478692e-38
-0.030163812 0.012228573 0.85600007 1.4017714e-38
-0.028533336 0.012228573 0.85600007 1.2455392e-38
-0.026965715 0.012257144 0.85800004 9.5973278e-39
-0.02533143 0.012257144 0.85800004 7.7606557e-39
-0.023697145 0.012257144 0.85800004 8.1294383e-39
-0.022062857 0.012257144 0.85800004 8.3134568e-39
-0.020428572 0.012257144 0.85800004 8.2212611e-39
-0.018838096 0.012285715 0.86000001 8.0368699e-39
-0.017199999 0.012285715 0.86000001 7.5758917e-39
-0.015598095 0.012314286 0.86200005 9.780315e-39
-0.013988572 0.012342857 0.86400002 1.2730575e-38
-0.012385715 0.012385715 0.86700004 1.1254716e-38
-0.010759047 0.012414285 0.86900002 4.7088267e-39
-0.0091038095 0.012414285 0.86900002 1.040792e-39
-0.0074657151 0.012442858 0.87100005 1.3173789e-39
-0.0058200001 0.012471429 0.87300003 4.624547e-39
-0.0041666669 0.012500001 0.87500006 7.4826115e-39
-0.0025085714 0.012542857 0.87800002 9.6855704e-39
-0.00083619048 0.012542857 0.87800002 1.2728026e-38
0.00083999999 0.0126 0.88200003 1.3645294e-38
-0.075833343 0.014166667 0.87500006 1.2078709e-38
-0.07399714 0.014134286 0.87300003 6.5469715e-39
-0.072168581 0.014101906 0.87100005 4.1613786e-39
-0.070347615 0.014069525 0.86900002 7.8492038e-39
-0.068692379 0.014069525 0.86900002 8.0329168e-39
-0.066882864 0.014037143 0.86700004 5.7280261e-39
-0.065231435 0.014037143 0.86700004 1.22447e-39
-0.063359998 0.013988572 0.86400002 1.7776438e-39
-0.06157143 0.013956192 0.86200005 3.1569727e-39
-0.059790477 0.013923809 0.86000001 3.5257552e-39
-0.058152381 0.013923809 0.86000001 2.7903482e-39
-0.056514286 0.013923809 0.86000001 1.3152181e-39
-0.054748576 0.013891429 0.85800004 2.7885209e-39
-0.053114288 0.013891429 0.85800004 1.0348563e-38
-0.051479999 0.013891429 0.85800004 1.3926973e-38
-0.049845714 0.013891429 0.85800004 1.1161104e-38
-0.048211429 0.013891429 0.85800004 8.1214873e-39
-0.046468575 0.013859048 0.85600007 7.1073354e-39
-0.044733334 0.013826667 0.85400003 7.8423865e-39
-0.043106668 0.013826667 0.85400003 8.3955603e-39
-0.041480001 0.013826667 0.85400003 8.670715e-39
-0.039853334 0.013826667 0.85400003 8.5785194e-39
-0.038226668 0.013826667 0.85400003 8.1193293e-39
-0.036685716 0.013859048 0.85600007 7.1051774e-39
-0.035055239 0.013859048 0.85600007 6.923279e-39
-0.033424765 0.013859048 0.85600007 1.3100386e-38
-0.031794287 0.013859048 0.85600007 1.4020961e-38
-0.030234287 0.013891429 0.85800004 1.3006809e-38
-0.0286 0.013891429 0.85800004 1.0063e-38
-0.026965715 0.013891429 0.85800004 8.3112834e-39
-0.02533143 0.013891429 0.85800004 7.8532073e-39
-0.023697145 0.013891429 0.85800004 8.2219898e-39
-0.022062857 0.013891429 0.85800004 8.497848e-39
-0.02047619 0.013923809 0.86000001 8.2212611e-39
-0.018838096 0.013923809 0.86000001 7.9446715e-39
-0.017240001 0.013956192 0.86200005 7.5758889e-39
-0.015598095 0.013956192 0.86200005 9.3214878e-39
-0.013988572 0.013988572 0.86400002 1.2179552e-38
-0.012385715 0.014037143 0.86700004 1.052148e-38
-0.010759047 0.014069525 0.86900002 4.1599815e-39
-0.0091038095 0.014069525 0.86900002 1.1311898e-39
-0.0074657151 0.014101906 0.87100005 1.8687548e-39
-0.0058333338 0.014166667 0.87500006 5.8202189e-39
-0.0041809524 0.014215238 0.87800002 7.6641315e-39
-0.0025085714 0.014215238 0.87800002 9.5011791e-39
-0.00083999999 0.014280001 0.88200003 1.2635831e-38
0.00083999999 0.014280001 0.88200003 1.3645294e-38
-0.075833343 0.015833335 0.87500006 1.2263098e-38
-0.07399714 0.015797142 0.87300003 7.0079469e-39
-0.072168581 0.015760954 0.87100005 5.5418117e-39
-0.070509523 0.015760954 0.87100005 8.7686588e-39
-0.068692379 0.015724761 0.86900002 9.5955608e-39
-0.066882864 0.015688572 0.86700004 9.2267783e-39
-0.065231435 0.015688572 0.86700004 4.9040079e-39
-0.063359998 0.015634285 0.86400002 2.9678997e-39
-0.06157143 0.015598095 0.86200005 1.6858083e-39
-0.059790477 0.015561905 0.86000001 2.4233733e-39
-0.058152381 0.015561905 0.86000001 2.514127e-39
-0.056514286 0.015561905 0.86000001 1.776562e-39
-0.054876193 0.015561905 0.86000001 2.0527986e-39
-0.053114288 0.015525714 0.85800004 7.7689276e-39
-0.051479999 0.015525714 0.85800004 1.3374124e-38
-0.049845714 0.015525714 0.85800004 9.5019078e-39
-0.048211429 0.015525714 0.85800004 6.2779502e-39
-0.046468575 0.015489525 0.85600007 7.1077109e-39
-0.044838097 0.015489525 0.85600007 8.118979e-39
-0.043106668 0.015453333 0.85400003 8.4877615e-39
-0.041480001 0.015453333 0.85400003 8.4877559e-39
-0.039946672 0.015489525 0.85600007 8.4877559e-39
-0.038316194 0.015489525 0.85600007 8.670715e-39
-0.036685716 0.015489525 0.85600007 7.8409543e-39
-0.035055239 0.015489525 0.85600007 6.5538183e-39
-0.033424765 0.015489525 0.85600007 1.11636e-38
-0.031868573 0.015525714 0.85800004 1.3467049e-38
-0.030234287 0.015525714 0.85800004 1.2360701e-38
-0.0286 0.015525714 0.85800004 9.6027382e-39
-0.027028572 0.015561905 0.86000001 7.8510213e-39
-0.025390476 0.015561905 0.86000001 7.9457659e-39
-0.023752382 0.015561905 0.86000001 8.1301571e-39
-0.022114286 0.015561905 0.86000001 8.3134568e-39
-0.02047619 0.015561905 0.86000001 8.0368699e-39
-0.018838096 0.015561905 0.86000001 8.311296e-39
-0.017240001 0.015598095 0.86200005 8.8644698e-39
-0.015634285 0.015634285 0.86400002 1.125577e-38
-0.014037143 0.015688572 0.86700004 1.2823096e-38
-0.012385715 0.015688572 0.86700004 1.2728039e-38
-0.010759047 0.015724761 0.86900002 1.0238757e-38
-0.0091247624 0.015760954 0.87100005 6.1926042e-39
-0.0074828574 0.015797142 0.87300003 4.994061e-39
-0.0058333338 0.015833335 0.87500006 5.7302037e-39
-0.0041809524 0.01588762 0.87800002 6.2833775e-39
-0.0025142857 0.015923811 0.88000005 8.5806606e-39
-0.00083999999 0.01596 0.88200003 1.2268486e-38
0.00083999999 0.01596 0.88200003 1.3553458e-38
-0.076093338 0.01756 0.87800002 1.272335e-38
-0.07416667 0.017500002 0.87500006 8.2057642e-39
-0.07233429 0.01746 0.87300003 6.1860951e-39
-0.070509523 0.017419999 0.87100005 8.5831815e-39
-0.06885048 0.017419999 0.87100005 1.0055069e-38
-0.067037143 0.017380001 0.86900002 1.0423851e-38
-0.065231435 0.017340001 0.86700004 7.5723114e-39
-0.063579999 0.017340001 0.86700004 4.0688775e-39
-0.061714288 0.017280001 0.86400002 1.2259021e-39
-0.059929527 0.017240001 0.86200005 1.8712715e-39
-0.058287621 0.017240001 0.86200005 1.9623826e-39
-0.056514286 0.017199999 0.86000001 1.4092088e-39
-0.054876193 0.017199999 0.86000001 1.5017702e-39
-0.053238098 0.017199999 0.86000001 8.6008337e-39
-0.051479999 0.017160002 0.85800004 1.2272118e-38
-0.049845714 0.017160002 0.85800004 9.6906403e-39
-0.048211429 0.017160002 0.85800004 6.370506e-39
-0.046468575 0.017120002 0.85600007 6.8314842e-39
-0.044838097 0.017120002 0.85600007 7.8434655e-39
-0.043207623 0.017120002 0.85600007 8.212248e-39
-0.041577145 0.017120002 0.85600007 8.3955603e-39
-0.040040001 0.017160002 0.85800004 8.3955603e-39
-0.038405713 0.017160002 0.85800004 8.5788725e-39
-0.036771428 0.017160002 0.85800004 7.8413075e-39
-0.035137143 0.017160002 0.85800004 6.0024396e-39
-0.033502858 0.017160002 0.85800004 1.2179547e-38
-0.031868573 0.017160002 0.85800004 1.2548702e-38
-0.030234287 0.017160002 0.85800004 1.1995528e-38
-0.0286 0.017160002 0.85800004 9.2357732e-39
-0.027028572 0.017199999 0.86000001 7.6684475e-39
-0.025390476 0.017199999 0.86000001 7.7617249e-39
-0.023752382 0.017199999 0.86000001 7.8539206e-39
-0.022114286 0.017199999 0.86000001 8.3134568e-39
-0.02047619 0.017199999 0.86000001 8.1290655e-39
-0.018881904 0.017240001 0.86200005 8.49569e-39
-0.017280001 0.017280001 0.86400002 9.9708201e-39
-0.015634285 0.017280001 0.86400002 1.1624568e-38
-0.014037143 0.017340001 0.86700004 1.1716764e-38
-0.012385715 0.017340001 0.86700004 1.2635455e-38
-0.01078381 0.017419999 0.87100005 1.2174477e-38
-0.0091247624 0.017419999 0.87100005 9.8732295e-39
-0.0075000003 0.017500002 0.87500006 8.8590776e-39
-0.005853333 0.01756 0.87800002 6.3773556e-39
-0.0041809524 0.01756 0.87800002 5.7319861e-39
-0.0025142857 0.017600002 0.88000005 8.2118781e-39
-0.00083999999 0.01764 0.88200003 1.2268486e-38
0.00083999999 0.01764 0.88200003 1.3369073e-38
-0.076266669 0.019276192 0.88000005 1.2815546e-38
-0.074420951 0.019232381 0.87800002 8.6667423e-39
-0.072500005 0.019166669 0.87500006 7.5636318e-39
-0.070671432 0.019122858 0.87300003 9.3153487e-39
-0.06885048 0.019079048 0.87100005 9.5007784e-39
-0.067191429 0.019079048 0.87100005 1.1068104e-38
-0.065231435 0.018991429 0.86700004 1.0699753e-38
-0.063579999 0.018991429 0.86700004 8.2104711e-39
-0.061714288 0.018925713 0.86400002 1.8680542e-39
-0.060068574 0.018925713 0.86400002 1.407076e-39
-0.058287621 0.018881904 0.86200005 1.0415277e-39
-0.056645717 0.018881904 0.86200005 1.963484e-39
-0.054876193 0.018838096 0.86000001 4.9036702e-39
-0.053238098 0.018838096 0.86000001 1.0988582e-38
-0.051599998 0.018838096 0.86000001 1.3649632e-38
-0.049961902 0.018838096 0.86000001 1.263548e-38
-0.04832381 0.018838096 0.86000001 8.9505837e-39
-0.046577144 0.018794287 0.85800004 6.0003236e-39
-0.04494286 0.018794287 0.85800004 6.3712151e-39
-0.043308575 0.018794287 0.85800004 7.385367e-39
-0.04167429 0.018794287 0.85800004 8.1189734e-39
-0.040040001 0.018794287 0.85800004 8.0267777e-39
-0.038405713 0.018794287 0.85800004 7.5668786e-39
-0.036771428 0.018794287 0.85800004 7.474683e-39
-0.035137143 0.018794287 0.85800004 7.8435033e-39
-0.033502858 0.018794287 0.85800004 1.3559632e-38
-0.031868573 0.018794287 0.85800004 1.438756e-38
-0.030234287 0.018794287 0.85800004 1.4571951e-38
-0.0286 0.018794287 0.85800004 1.2640518e-38
-0.027028572 0.018838096 0.86000001 1.0243432e-38
-0.025390476 0.018838096 0.86000001 7.6691734e-39
-0.023752382 0.018838096 0.86000001 7.6691734e-39
-0.022165716 0.018881904 0.86200005 7.8535674e-39
-0.020523811 0.018881904 0.86200005 7.8535674e-39
-0.018881904 0.018881904 0.86200005 1.0059776e-38
-0.017280001 0.018925713 0.86400002 1.2272471e-38
-0.015688572 0.018991429 0.86700004 1.1623489e-38
-0.014037143 0.018991429 0.86700004 7.9356639e-39
-0.012414285 0.019035237 0.86900002 9.5940838e-39
-0.01078381 0.019079048 0.87100005 1.2728735e-38
-0.0091457143 0.019122858 0.87300003 1.2634398e-38
-0.0075000003 0.019166669 0.87500006 1.1159268e-38
-0.005853333 0.019232381 0.87800002 8.3995259e-39
-0.0041904761 0.019276192 0.88000005 6.3712221e-39
-0.0025142857 0.019276192 0.88000005 8.2118949e-39
-0.00083999999 0.019320002 0.88200003 1.2268503e-38
0.00083999999 0.019320002 0.88200003 1.3460902e-38
-0.076266669 0.020952383 0.88000005 1.2632231e-38
-0.074420951 0.020904763 0.87800002 8.6678185e-39
-0.072748572 0.020904763 0.87800002 7.838411e-39
-0.07083334 0.020833336 0.87500006 8.1149979e-39
-0.069008574 0.020785715 0.87300003 7.9302016e-39
-0.067191429 0.020738097 0.87100005 9.4975274e-39
-0.065381907 0.020690477 0.86900002 1.1711363e-38
-0.063579999 0.020642858 0.86700004 1.051282e-38
-0.061928574 0.020642858 0.86700004 5.1806256e-39
-0.060068574 0.020571429 0.86400002 2.2303655e-39
-0.05842286 0.020571429 0.86400002 9.4930264e-40
-0.056645717 0.020523811 0.86200005 3.9917584e-39
-0.055003811 0.020523811 0.86200005 1.0056163e-38
-0.053238098 0.02047619 0.86000001 1.2822032e-38
-0.051599998 0.02047619 0.86000001 1.3648891e-38
-0.049961902 0.02047619 0.86000001 1.3372304e-38
-0.04832381 0.02047619 0.86000001 1.1808269e-38
-0.046577144 0.020428572 0.85800004 8.5814215e-39
-0.04494286 0.020428572 0.85800004 6.003178e-39
-0.043308575 0.020428572 0.85800004 6.7407431e-39
-0.04167429 0.020428572 0.85800004 7.7491118e-39
-0.040040001 0.020428572 0.85800004 7.7491118e-39
-0.038405713 0.020428572 0.85800004 6.6481495e-39
-0.036771428 0.020428572 0.85800004 8.1232796e-39
-0.035137143 0.020428572 0.85800004 1.1526294e-38
-0.033580955 0.02047619 0.86000001 1.4476554e-38
-0.031868573 0.020428572 0.85800004 1.4294992e-38
-0.030234287 0.020428572 0.85800004 1.4387187e-38
-0.0286 0.020428572 0.85800004 1.3468846e-38
-0.027028572 0.02047619 0.86000001 1.2085912e-38
-0.025449526 0.020523811 0.86200005 8.1319732e-39
-0.023807621 0.020523811 0.86200005 7.1178213e-39
-0.022165716 0.020523811 0.86200005 7.3929424e-39
-0.020523811 0.020523811 0.86200005 7.9461162e-39
-0.018881904 0.020523811 0.86200005 1.1714976e-38
-0.017340001 0.020642858 0.86700004 1.2175954e-38
-0.015688572 0.020642858 0.86700004 1.1529123e-38
-0.014037143 0.020642858 0.86700004 7.011537e-39
-0.012414285 0.020690477 0.86900002 7.5646827e-39
-0.010808571 0.020785715 0.87300003 1.1068117e-38
-0.0091666672 0.020833336 0.87500006 1.3368369e-38
-0.0075257146 0.020904763 0.87800002 1.2169826e-38
-0.0058666668 0.020952383 0.88000005 9.0441695e-39
-0.0041904761 0.020952383 0.88000005 6.4626918e-39
-0.0025142857 0.020952383 0.88000005 8.3959162e-39
-0.00083999999 0.021000002 0.88200003 1.2360328e-38
0.00083999999 0.021000002 0.88200003 1.3368354e-38
-0.076439999 0.022680001 0.88200003 1.2907739e-38
-0.074590482 0.022628574 0.88000005 9.2199133e-39
-0.072748572 0.022577144 0.87800002 6.7342312e-39
-0.071076192 0.022577144 0.87800002 5.9044706e-39
-0.069166675 0.022500001 0.87500006 5.8126309e-39
-0.067345716 0.022448571 0.87300003 6.0892178e-39
-0.065381907 0.022345716 0.86900002 8.3040485e-39
-0.063726671 0.022345716 0.86900002 1.2637243e-38
-0.061928574 0.022294287 0.86700004 9.4140688e-39
-0.060277145 0.022294287 0.86700004 4.9886786e-39
-0.058625717 0.022294287 0.86700004 4.4444969e-39
-0.056777142 0.022217143 0.86400002 1.0160626e-38
-0.055003811 0.022165716 0.86200005 1.2636915e-38
-0.053361908 0.022165716 0.86200005 1.189935e-38
-0.051599998 0.022114286 0.86000001 1.2361372e-38
-0.049961902 0.022114286 0.86000001 1.3098937e-38
-0.04832381 0.022114286 0.86000001 1.3281231e-38
-0.046685714 0.022114286 0.86000001 1.2728057e-38
-0.045047618 0.022114286 0.86000001 1.0056549e-38
-0.043409526 0.022114286 0.86000001 6.8297017e-39
-0.041771431 0.022114286 0.86000001 5.6340298e-39
-0.040133331 0.022114286 0.86000001 6.6481817e-39
-0.038495239 0.022114286 0.86000001 8.6739296e-39
-0.036857143 0.022114286 0.86000001 1.3468102e-38
-0.035219047 0.022114286 0.86000001 1.438578e-38
-0.033580955 0.022114286 0.86000001 1.2449672e-38
-0.031942859 0.022114286 0.86000001 1.1072435e-38
-0.030304762 0.022114286 0.86000001 1.1625609e-38
-0.028666668 0.022114286 0.86000001 1.3099335e-38
-0.027091429 0.022165716 0.86200005 1.4390074e-38
-0.025449526 0.022165716 0.86200005 1.291568e-38
-0.023807621 0.022165716 0.86200005 1.0702985e-38
-0.022165716 0.022165716 0.86200005 1.0337782e-38
-0.020523811 0.022165716 0.86200005 1.1720717e-38
-0.018925713 0.022217143 0.86400002 1.2360345e-38
-0.017340001 0.022294287 0.86700004 9.6866718e-39
-0.015688572 0.022294287 0.86700004 7.0140705e-39
-0.014069525 0.022345716 0.86900002 5.6311361e-39
-0.012414285 0.022345716 0.86900002 6.2747132e-39
-0.010808571 0.022448571 0.87300003 8.2108215e-39
-0.0091666672 0.022500001 0.87500006 1.0328782e-38
-0.0075257146 0.022577144 0.87800002 1.1066347e-38
-0.0058666668 0.022628574 0.88000005 9.2274663e-39
-0.0042000003 0.022680001 0.88200003 6.553793e-39
-0.0025200001 0.022680001 0.88200003 8.3977084e-39
-0.00084285717 0.022757143 0.88500005 1.1901142e-38
0.00084285717 0.022757143 0.88500005 1.3367988e-38
-0.076700002 0.024442857 0.88500005 1.2908094e-38
-0.074590482 0.024304764 0.88000005 9.6812474e-39
-0.072748572 0.024249524 0.87800002 6.8264269e-39
-0.071076192 0.024249524 0.87800002 4.7059274e-39
-0.069403812 0.024249524 0.87800002 4.7077126e-39
-0.06750001 0.024166668 0.87500006 4.7999083e-39
-0.065381907 0.024000952 0.86900002 7.3774076e-39
-0.063726671 0.024000952 0.86900002 1.217158e-38
-0.062071431 0.024000952 0.86900002 1.1991565e-38
-0.060277145 0.023945715 0.86700004 9.6866746e-39
-0.058625717 0.023945715 0.86700004 8.9530753e-39
-0.056777142 0.023862857 0.86400002 1.2179922e-38
-0.055131428 0.023862857 0.86400002 1.3189373e-38
-0.053361908 0.023807621 0.86200005 1.05157e-38
-0.051720005 0.023807621 0.86200005 9.6891731e-39
-0.049961902 0.023752382 0.86000001 1.0979912e-38
-0.04832381 0.023752382 0.86000001 1.3648193e-38
-0.046685714 0.023752382 0.86000001 1.4016976e-38
-0.045047618 0.023752382 0.86000001 1.2727704e-38
-0.043409526 0.023752382 0.86000001 8.210118e-39
-0.041771431 0.023752382 0.86000001 5.3581267e-39
-0.040133331 0.023752382 0.86000001 7.2020393e-39
-0.038495239 0.023752382 0.86000001 1.1710293e-38
-0.036857143 0.023752382 0.86000001 1.5029335e-38
-0.035219047 0.023752382 0.86000001 1.4663444e-38
-0.033580955 0.023752382 0.86000001 9.5926839e-39
-0.031942859 0.023752382 0.86000001 7.1123548e-39
-0.030304762 0.023752382 0.86000001 8.1265067e-39
-0.028666668 0.023752382 0.86000001 1.1899691e-38
-0.027091429 0.023807621 0.86200005 1.3835799e-38
-0.025449526 0.023807621 0.86200005 1.4386847e-38
-0.023807621 0.023807621 0.86200005 1.3372695e-38
-0.022165716 0.023807621 0.86200005 1.0981389e-38
-0.020571429 0.023862857 0.86400002 1.1903345e-38
-0.018925713 0.023862857 0.86400002 1.291207e-38
-0.017340001 0.023945715 0.86700004 7.3803321e-39
-0.015688572 0.023945715 0.86700004 7.0097391e-39
-0.014069525 0.024000952 0.86900002 7.286326e-39
-0.012414285 0.024000952 0.86900002 6.5520036e-39
-0.010833334 0.024166668 0.87500006 6.9207861e-39
-0.0091980947 0.024249524 0.87800002 9.4990211e-39
-0.0075428574 0.024304764 0.88000005 1.0605369e-38
-0.0058666668 0.024304764 0.88000005 8.2147717e-39
-0.0042000003 0.024360001 0.88200003 6.8318373e-39
-0.0025285715 0.024442857 0.88500005 9.317141e-39
-0.00084285717 0.024442857 0.88500005 1.2451792e-38
0.00084285717 0.024442857 0.88500005 1.3275439e-38
-0.076873332 0.026187621 0.88700002 1.2540391e-38
-0.074759997 0.026040001 0.88200003 9.774522e-39
-0.072914287 0.025980955 0.88000005 7.1044711e-39
-0.071076192 0.025921905 0.87800002 3.8776241e-39
-0.069403812 0.025921905 0.87800002 4.1567221e-39
-0.06750001 0.025833335 0.87500006 4.8942871e-39
-0.065532386 0.025715239 0.87100005 5.1669336e-39
-0.063873336 0.025715239 0.87100005 8.5781719e-39
-0.062071431 0.025656192 0.86900002 1.0974883e-38
-0.060416192 0.025656192 0.86900002 1.3187578e-38
-0.058625717 0.025597144 0.86700004 1.2361064e-38
-0.056974288 0.025597144 0.86700004 1.1715695e-38
-0.055131428 0.025508571 0.86400002 9.5995139e-39
-0.053361908 0.025449526 0.86200005 8.4931663e-39
-0.051720005 0.025449526 0.86200005 8.0350846e-39
-0.050078098 0.025449526 0.86200005 8.2194759e-39
-0.04832381 0.025390476 0.86000001 1.0612189e-38
-0.046685714 0.025390476 0.86000001 1.3009275e-38
-0.045047618 0.025390476 0.86000001 1.4018427e-38
-0.043409526 0.025390476 0.86000001 1.2819884e-38
-0.041771431 0.025390476 0.86000001 1.2176628e-38
-0.040133331 0.025390476 0.86000001 1.3282975e-38
-0.038495239 0.025390476 0.86000001 1.4017358e-38
-0.036857143 0.025390476 0.86000001 1.3279793e-38
-0.035219047 0.025390476 0.86000001 9.6924227e-39
-0.033580955 0.025390476 0.86000001 5.2670325e-39
-0.031942859 0.025390476 0.86000001 2.0563831e-39
-0.030304762 0.025390476 0.86000001 1.8719918e-39
-0.028666668 0.025390476 0.86000001 4.7203257e-39
-0.027154287 0.025508571 0.86400002 7.9471728e-39
-0.025508571 0.025508571 0.86400002 1.2544354e-38
-0.023862857 0.025508571 0.86400002 1.4664853e-38
-0.022217143 0.025508571 0.86400002 1.4754535e-38
-0.020642858 0.025597144 0.86700004 1.1988666e-38
-0.018991429 0.025597144 0.86700004 1.0055069e-38
-0.017340001 0.025597144 0.86700004 6.8282219e-39
-0.015724761 0.025656192 0.86900002 7.1033893e-39
-0.014069525 0.025656192 0.86900002 7.4721718e-39
-0.012442858 0.025715239 0.87100005 6.9197197e-39
-0.010870476 0.025921905 0.87800002 6.9197197e-39
-0.0091980947 0.025921905 0.87800002 9.3167879e-39
-0.0075428574 0.025980955 0.88000005 1.0607527e-38
-0.0058666668 0.025980955 0.88000005 8.5824753e-39
-0.0042000003 0.026040001 0.88200003 7.2917364e-39
-0.0025285715 0.026128573 0.88500005 9.5015323e-39
-0.00084285717 0.026128573 0.88500005 1.2543988e-38
0.00084285717 0.026128573 0.88500005 1.3275439e-38
-0.076873332 0.027877143 0.88700002 1.235636e-38
-0.075014293 0.027814288 0.88500005 1.0604643e-38
-0.073328577 0.027814288 0.88500005 7.7519957e-39
-0.071238101 0.027657144 0.88000005 4.0641705e-39
-0.069403812 0.027594287 0.87800002 4.1567221e-39
-0.067731433 0.027594287 0.87800002 5.2630696e-39
-0.065682858 0.027437143 0.87300003 5.2598326e-39
-0.063873336 0.027374288 0.87100005 6.0895933e-39
-0.062214289 0.027374288 0.87100005 9.4997344e-39
-0.060416192 0.027311428 0.86900002 1.3740733e-38
-0.058760952 0.027311428 0.86900002 1.2638017e-38
-0.056974288 0.027248573 0.86700004 9.7799521e-39
-0.055131428 0.027154287 0.86400002 7.2081882e-39
-0.053485714 0.027154287 0.86400002 7.5769707e-39
-0.051720005 0.027091429 0.86200005 7.6684503e-39
-0.050078098 0.027091429 0.86200005 7.3918634e-39
-0.048436191 0.027091429 0.86200005 7.9442959e-39
-0.046685714 0.027028572 0.86000001 1.0249187e-38
-0.045047618 0.027028572 0.86000001 1.346596e-38
-0.043409526 0.027028572 0.86000001 1.3650351e-38
-0.041771431 0.027028572 0.86000001 1.3188657e-38
-0.040226668 0.027091429 0.86200005 1.4018417e-38
-0.038495239 0.027028572 0.86000001 1.4296456e-38
-0.036857143 0.027028572 0.86000001 1.0147653e-38
-0.035219047 0.027028572 0.86000001 5.828125e-39
-0.033659048 0.027091429 0.86200005 3.7076255e-39
-0.032017142 0.027091429 0.86200005 1.9667112e-39
-0.030375239 0.027091429 0.86200005 1.9667112e-39
-0.028733335 0.027091429 0.86200005 2.5162598e-39
-0.027154287 0.027154287 0.86400002 3.6226074e-39
-0.025508571 0.027154287 0.86400002 1.0240883e-38
-0.023945715 0.027248573 0.86700004 1.4574077e-38
-0.022294287 0.027248573 0.86700004 1.5122645e-38
-0.020642858 0.027248573 0.86700004 1.0512863e-38
-0.019035237 0.027311428 0.86900002 8.3026416e-39
-0.017380001 0.027311428 0.86900002 7.2884896e-39
-0.015724761 0.027311428 0.86900002 7.8398683e-39
-0.014101906 0.027374288 0.87100005 7.6554771e-39
-0.012442858 0.027374288 0.87100005 7.3788902e-39
-0.010870476 0.027594287 0.87800002 8.4852377e-39
-0.0091980947 0.027594287 0.87800002 9.5933804e-39
-0.0075428574 0.027657144 0.88000005 1.0330945e-38
-0.0058666668 0.027657144 0.88000005 8.4902796e-39
-0.0042000003 0.027720001 0.88200003 7.7527146e-39
-0.0025285715 0.027814288 0.88500005 1.014546e-38
-0.00084285717 0.027814288 0.88500005 1.2634742e-38
0.00084285717 0.027814288 0.88500005 1.2999571e-38
-0.07704667 0.029633334 0.88900006 1.2448195e-38
-0.075183809 0.029566666 0.88700002 1.1802826e-38
-0.073328577 0.029500002 0.88500005 8.2111942e-39
-0.071400002 0.0294 0.88200003 4.523369e-39
-0.069561906 0.029333334 0.88000005 3.5138988e-39
-0.067731433 0.029266668 0.87800002 4.5280508e-39
-0.065682858 0.029100001 0.87300003 5.6275586e-39
-0.06402 0.029100001 0.87300003 4.8899935e-39
-0.062214289 0.029033335 0.87100005 5.9070069e-39
-0.060555242 0.029033335 0.87100005 1.2545092e-38
-0.058760952 0.028966667 0.86900002 1.1900799e-38
-0.057105716 0.028966667 0.86900002 8.4895608e-39
-0.055322859 0.028900001 0.86700004 6.9319615e-39
-0.053485714 0.028800001 0.86400002 7.6695265e-39
-0.051840004 0.028800001 0.86400002 7.7610061e-39
-0.050078098 0.028733335 0.86200005 7.7610061e-39
-0.048436191 0.028733335 0.86200005 7.9443183e-39
-0.046685714 0.028666668 0.86000001 8.036514e-39
-0.045047618 0.028666668 0.86000001 1.0428523e-38
-0.043409526 0.028666668 0.86000001 1.2917805e-38
-0.041771431 0.028666668 0.86000001 1.401843e-38
-0.040226668 0.028733335 0.86200005 1.3465256e-38
-0.038584765 0.028733335 0.86200005 1.0614013e-38
-0.036942858 0.028733335 0.86200005 4.8978843e-39
-0.035300955 0.028733335 0.86200005 2.1489416e-39
-0.033659048 0.028733335 0.86200005 2.9787023e-39
-0.032017142 0.028733335 0.86200005 3.1630992e-39
-0.030445714 0.028800001 0.86400002 3.2552948e-39
-0.028800001 0.028800001 0.86400002 3.6208249e-39
-0.027248573 0.028900001 0.86700004 2.4222817e-39
-0.025597144 0.028900001 0.86700004 4.5362974e-39
-0.024000952 0.028966667 0.86900002 1.0529013e-38
-0.022345716 0.028966667 0.86900002 1.3464903e-38
-0.020690477 0.028966667 0.86900002 8.025361e-39
-0.019035237 0.028966667 0.86900002 5.9080985e-39
-0.017380001 0.028966667 0.86900002 6.8300548e-39
-0.015724761 0.028966667 0.86900002 7.8395152e-39
-0.014101906 0.029033335 0.87100005 7.2863414e-39
-0.012442858 0.029033335 0.87100005 7.1944961e-39
-0.010870476 0.029266668 0.87800002 1.0052561e-38
-0.0091980947 0.029266668 0.87800002 1.0975583e-38
-0.0075428574 0.029333334 0.88000005 1.1528757e-38
-0.0058666668 0.029333334 0.88000005 9.3193116e-39
-0.0042000003 0.0294 0.88200003 8.0285728e-39
-0.0025342857 0.029566666 0.88700002 9.9625132e-39
-0.0008447619 0.029566666 0.88700002 1.23596e-38
-0.079182863 0.031502858 0.89400005 1.2354555e-38
-0.077480003 0.031502858 0.89400005 1.2446751e-38
-0.075183809 0.031256191 0.88700002 1.2631142e-38
-0.073328577 0.031185716 0.88500005 8.9494599e-39
-0.071400002 0.031080002 0.88200003 5.9991997e-39
-0.069561906 0.031009525 0.88000005 5.906651e-39
-0.067731433 0.030939048 0.87800002 5.4456728e-39
-0.065833338 0.030833337 0.87500006 5.7193787e-39
-0.064166673 0.030833337 0.87500006 5.3505961e-39
-0.062357143 0.030762859 0.87300003 5.8158651e-39
-0.060555242 0.030692382 0.87100005 1.2361755e-38
-0.058896191 0.030692382 0.87100005 1.1716776e-38
-0.057105716 0.030621905 0.86900002 8.5821249e-39
-0.055322859 0.03055143 0.86700004 7.2081882e-39
-0.053671431 0.03055143 0.86700004 7.6691664e-39
-0.052020002 0.03055143 0.86700004 8.1290655e-39
-0.050194286 0.030445714 0.86400002 8.3134568e-39
-0.048548572 0.030445714 0.86400002 7.9461134e-39
-0.046794288 0.030375239 0.86200005 7.4851352e-39
-0.045152385 0.030375239 0.86200005 7.8528163e-39
-0.043510478 0.030375239 0.86200005 1.1264055e-38
-0.041868571 0.030375239 0.86200005 1.3468153e-38
-0.040320002 0.030445714 0.86400002 1.2177414e-38
-0.038584765 0.030375239 0.86200005 7.2103336e-39
-0.036942858 0.030375239 0.86200005 3.4303128e-39
-0.035300955 0.030375239 0.86200005 2.0589068e-39
-0.033659048 0.030375239 0.86200005 2.9808631e-39
-0.032091428 0.030445714 0.86400002 4.1729323e-39
-0.030445714 0.030445714 0.86400002 4.1729323e-39
-0.028800001 0.030445714 0.86400002 3.8974146e-39
-0.027311428 0.030621905 0.86900002 2.5144802e-39
-0.025656192 0.030621905 0.86900002 1.2291209e-39
-0.024000952 0.030621905 0.86900002 8.0515975e-39
-0.022345716 0.030621905 0.86900002 1.2363613e-38
-0.020690477 0.030621905 0.86900002 7.0162664e-39
-0.019035237 0.030621905 0.86900002 5.9087922e-39
-0.017380001 0.030621905 0.86900002 6.7385528e-39
-0.015760954 0.030692382 0.87100005 7.4718243e-39
-0.014101906 0.030692382 0.87100005 6.8264549e-39
-0.012471429 0.030762859 0.87300003 6.2765027e-39
-0.010870476 0.030939048 0.87800002 1.0148719e-38
-0.0092190476 0.031009525 0.88000005 1.0241271e-38
-0.0075428574 0.031009525 0.88000005 9.9646838e-39
-0.0058666668 0.031009525 0.88000005 1.0056877e-38
-0.0042142859 0.031185716 0.88500005 9.4115072e-39
-0.0025285715 0.031185716 0.88500005 1.0238737e-38
-0.00084285717 0.031185716 0.88500005 1.2174845e-38
-0.077480003 0.033205714 0.89400005 1.2354908e-38
-0.075353332 0.033020001 0.88900006 1.2631495e-38
-0.073494285 0.032945715 0.88700002 1.0697214e-38
-0.071400002 0.032760002 0.88200003 9.6830621e-39
-0.069561906 0.032685716 0.88000005 8.0260771e-39
-0.067731433 0.03261143 0.87800002 5.813382e-39
-0.065833338 0.032500003 0.87500006 4.5248011e-39
-0.064166673 0.032500003 0.87500006 4.9857793e-39
-0.062500007 0.032500003 0.87500006 7.0129817e-39
-0.060694285 0.032425717 0.87300003 1.2821306e-38
-0.058896191 0.032351431 0.87100005 1.1992985e-38
-0.057237145 0.032351431 0.87100005 8.8583335e-39
-0.055450477 0.032277141 0.86900002 7.3914977e-39
-0.053795237 0.032277141 0.86900002 7.5758889e-39
-0.052020002 0.032202858 0.86700004 7.8517598e-39
-0.050368574 0.032202858 0.86700004 8.3127379e-39
-0.048717145 0.032202858 0.86700004 8.1297816e-39
-0.046794288 0.032017142 0.86200005 7.9453903e-39
-0.045152385 0.032017142 0.86200005 7.9446743e-39
-0.04361143 0.032091428 0.86400002 1.0618348e-38
-0.041965716 0.032091428 0.86400002 1.2272468e-38
-0.040320002 0.032091428 0.86400002 1.0244164e-38
-0.038674287 0.032091428 0.86400002 6.933381e-39
-0.037028573 0.032091428 0.86400002 3.7987296e-39
-0.035382856 0.032091428 0.86400002 2.4269761e-39
-0.033737142 0.032091428 0.86400002 3.1645411e-39
-0.032091428 0.032091428 0.86400002 3.9896102e-39
-0.03055143 0.032202858 0.86700004 4.0818059e-39
-0.028900001 0.032202858 0.86700004 3.713036e-39
-0.027311428 0.032277141 0.86900002 2.1457102e-39
-0.025656192 0.032277141 0.86900002 3.0676539e-39
-0.024000952 0.032277141 0.86900002 9.521348e-39
-0.022345716 0.032277141 0.86900002 1.3098995e-38
-0.020738097 0.032351431 0.87100005 9.4111695e-39
-0.019079048 0.032351431 0.87100005 5.1730698e-39
-0.017419999 0.032351431 0.87100005 5.2652655e-39
-0.015760954 0.032351431 0.87100005 6.45985e-39
-0.014134286 0.032425717 0.87300003 6.1832631e-39
-0.012471429 0.032425717 0.87300003 7.5633165e-39
-0.010870476 0.03261143 0.87800002 1.1619924e-38
-0.0092190476 0.032685716 0.88000005 9.7799268e-39
-0.0075428574 0.032685716 0.88000005 7.1984492e-39
-0.0058800001 0.032760002 0.88200003 8.0300456e-39
-0.0042142859 0.032871433 0.88500005 9.3207844e-39
-0.0025285715 0.032871433 0.88500005 1.0330201e-38
-0.0008447619 0.032945715 0.88700002 1.2174114e-38
0.0008447619 0.032945715 0.88700002 1.2907376e-38
-0.075183809 0.034635238 0.88700002 1.2631142e-38
-0.073494285 0.034635238 0.88700002 1.1617728e-38
-0.071400002 0.034440003 0.88200003 9.8660114e-39
-0.069561906 0.034361906 0.88000005 9.407194e-39
-0.067731433 0.034283809 0.87800002 6.4569339e-39
-0.065833338 0.034166671 0.87500006 4.3389399e-39
-0.064166673 0.034166671 0.87500006 6.3672438e-39
-0.062500007 0.034166671 0.87500006 9.2217434e-39
-0.060694285 0.034088571 0.87300003 1.2909569e-38
-0.058896191 0.034010477 0.87100005 1.2178092e-38
-0.057237145 0.034010477 0.87100005 9.8732015e-39
-0.055450477 0.03393238 0.86900002 7.5755512e-39
-0.053795237 0.03393238 0.86900002 7.7599425e-39
-0.052140001 0.03393238 0.86900002 7.8517598e-39
-0.050484765 0.03393238 0.86900002 8.2205423e-39
-0.048717145 0.033854287 0.86700004 8.2212611e-39
-0.047065716 0.033854287 0.86700004 7.9446743e-39
-0.045414288 0.033854287 0.86700004 7.5766022e-39
-0.043762859 0.033854287 0.86700004 1.0434667e-38
-0.04211143 0.033854287 0.86700004 1.1904412e-38
-0.040460002 0.033854287 0.86700004 1.0982455e-38
-0.038808573 0.033854287 0.86700004 6.5667845e-39
-0.037157144 0.033854287 0.86700004 3.1555462e-39
-0.035505716 0.033854287 0.86700004 2.7928719e-39
-0.033854287 0.033854287 0.86700004 3.6226326e-39
-0.032202858 0.033854287 0.86700004 4.1732798e-39
-0.03055143 0.033854287 0.86700004 4.0810842e-39
-0.028900001 0.033854287 0.86700004 2.0585565e-39
-0.027311428 0.03393238 0.86900002 1.7819696e-39
-0.025656192 0.03393238 0.86900002 6.1018505e-39
-0.024000952 0.03393238 0.86900002 1.117261e-38
-0.022345716 0.03393238 0.86900002 1.4294641e-38
-0.020738097 0.034010477 0.87100005 1.2174142e-38
-0.019079048 0.034010477 0.87100005 8.950204e-39
-0.017419999 0.034010477 0.87100005 5.9077482e-39
-0.015760954 0.034010477 0.87100005 5.9077104e-39
-0.014134286 0.034088571 0.87300003 6.8296667e-39
-0.012500001 0.034166671 0.87500006 1.0509245e-38
-0.010870476 0.034283809 0.87800002 1.1339006e-38
-0.0092190476 0.034361906 0.88000005 9.1349049e-39
-0.0075428574 0.034361906 0.88000005 6.4612317e-39
-0.0058800001 0.034440003 0.88200003 7.477557e-39
-0.0042142859 0.034557145 0.88500005 9.4136652e-39
-0.0025342857 0.034635238 0.88700002 1.0604283e-38
-0.0008447619 0.034635238 0.88700002 1.2540391e-38
0.0008447619 0.034635238 0.88700002 1.2907376e-38
-0.075183809 0.036324766 0.88700002 1.2538946e-38
-0.073494285 0.036324766 0.88700002 1.1618079e-38
-0.071400002 0.036120001 0.88200003 8.5756229e-39
-0.069561906 0.036038097 0.88000005 8.0264022e-39
-0.067731433 0.035956193 0.87800002 7.7498153e-39
-0.066059045 0.035956193 0.87800002 8.3022478e-39
-0.064166673 0.035833336 0.87500006 1.1160312e-38
-0.062500007 0.035833336 0.87500006 1.2173773e-38
-0.060833335 0.035833336 0.87500006 1.1989382e-38
-0.059031431 0.035751428 0.87300003 1.1530921e-38
-0.057368573 0.035751428 0.87300003 1.1991899e-38
-0.055578098 0.035669528 0.87100005 1.0428205e-38
-0.053919047 0.035669528 0.87100005 8.8608796e-39
-0.052140001 0.03558762 0.86900002 7.8503374e-39
-0.050484765 0.03558762 0.86900002 8.1269243e-39
-0.048829522 0.03558762 0.86900002 8.036514e-39
-0.047174286 0.03558762 0.86900002 8.036514e-39
-0.045414288 0.035505716 0.86700004 9.6002243e-39
-0.043762859 0.035505716 0.86700004 1.264268e-38
-0.04211143 0.035505716 0.86700004 1.3835831e-38
-0.040460002 0.035505716 0.86700004 1.4204614e-38
-0.038808573 0.035505716 0.86700004 1.2088074e-38
-0.037157144 0.035505716 0.86700004 7.0173145e-39
-0.035505716 0.035505716 0.86700004 1.4135528e-39
-0.033854287 0.035505716 0.86700004 1.874531e-39
-0.032202858 0.035505716 0.86700004 1.6908432e-39
-0.03055143 0.035505716 0.86700004 1.3220606e-39
-0.028900001 0.035505716 0.86700004 4.4459066e-39
-0.027311428 0.03558762 0.86900002 8.59471e-39
-0.025656192 0.03558762 0.86900002 1.2729834e-38
-0.024056191 0.035669528 0.87100005 1.3006421e-38
-0.022397144 0.035669528 0.87100005 1.3189723e-38
-0.020738097 0.035669528 0.87100005 1.3650701e-38
-0.019079048 0.035669528 0.87100005 1.2911013e-38
