# .PCD v0.7 - Point Cloud Data file format
VERSION 0.7
FIELDS x y z rgb
SIZE 4 4 4 4
TYPE F F F F
COUNT 1 1 1 1
WIDTH 1014
HEIGHT 1
VIEWPOINT 0 0 0 1 0 0 0
POINTS 1014
DATA ascii
-0.055776194 -0.11681429 1.105 1.5116821e-38
-0.053671427 -0.11681429 1.105 1.4654764e-38
-0.051380005 -0.11639144 1.1010001 1.474696e-38
-0.04928286 -0.11639144 1.1010001 1.511432e-38
-0.047014289 -0.11596857 1.097 1.5483102e-38
-0.044924762 -0.11596857 1.097 1.5485581e-38
-0.12607048 -0.11356763 1.0940001 1.4929556e-38
-0.12398667 -0.11356763 1.0940001 1.4930988e-38
-0.12268285 -0.1142943 1.1010001 1.594514e-38
-0.12058572 -0.1142943 1.1010001 1.5577424e-38
-0.11848858 -0.1142943 1.1010001 1.5485228e-38
-0.11681429 -0.11470952 1.105 1.548489e-38
-0.11502095 -0.11502095 1.108 1.5761477e-38
-0.11291048 -0.11502095 1.108 1.5761837e-38
-0.11080001 -0.11502095 1.108 1.613062e-38
-0.10908192 -0.1154362 1.1120001 1.6038427e-38
-0.10696382 -0.1154362 1.1120001 1.6130623e-38
-0.10484572 -0.1154362 1.1120001 1.631538e-38
-0.10300476 -0.11574762 1.115 1.6868553e-38
-0.10088095 -0.11574762 1.115 1.6501197e-38
-0.09875714 -0.11574762 1.115 1.6409002e-38
-0.096980006 -0.11616287 1.1190001 1.6592327e-38
-0.094848573 -0.11616287 1.1190001 1.6684522e-38
-0.092717148 -0.11616287 1.1190001 1.6684162e-38
-0.090585716 -0.11616287 1.1190001 1.6684162e-38
-0.088454291 -0.11616287 1.1190001 1.6776358e-38
-0.086322866 -0.11616287 1.1190001 1.6684162e-38
-0.084191434 -0.11616287 1.1190001 1.6683794e-38
-0.082060009 -0.11616287 1.1190001 1.6683794e-38
-0.079928577 -0.11616287 1.1190001 1.6499768e-38
-0.077797145 -0.11616287 1.1190001 1.6499768e-38
-0.07566572 -0.11616287 1.1190001 1.6222465e-38
-0.073534288 -0.11616287 1.1190001 1.5669291e-38
-0.071147621 -0.11574762 1.115 1.5945518e-38
-0.06902381 -0.11574762 1.115 1.5945518e-38
-0.0669 -0.11574762 1.115 1.5761477e-38
-0.064601913 -0.1154362 1.1120001 1.5669282e-38
-0.062483817 -0.1154362 1.1120001 1.5761474e-38
-0.060365722 -0.1154362 1.1120001 1.5761474e-38
-0.058247626 -0.1154362 1.1120001 1.6223156e-38
-0.055776194 -0.11470952 1.105 1.7052917e-38
-0.053671427 -0.11470952 1.105 1.7237311e-38
-0.051380005 -0.1142943 1.1010001 1.7513898e-38
-0.04928286 -0.1142943 1.1010001 1.6868553e-38
-0.12478001 -0.11219715 1.1010001 1.5113913e-38
-0.12268285 -0.11219715 1.1010001 1.603587e-38
-0.11467143 -0.10669429 1.0470001 1.5668913e-38
-0.11267715 -0.10669429 1.0470001 1.5853304e-38
-0.11713143 -0.11291048 1.108 1.5761121e-38
-0.11502095 -0.11291048 1.108 1.5945513e-38
-0.11291048 -0.11291048 1.108 1.5761474e-38
-0.1112 -0.1133181 1.1120001 1.585367e-38
-0.10908192 -0.1133181 1.1120001 1.5761474e-38
-0.10696382 -0.1133181 1.1120001 1.6130257e-38
-0.10484572 -0.1133181 1.1120001 1.6223181e-38
-0.10272763 -0.1133181 1.1120001 1.6499768e-38
-0.10088095 -0.11362381 1.115 1.6039493e-38
-0.09875714 -0.11362381 1.115 1.6408276e-38
-0.096980006 -0.11403143 1.1190001 1.6316806e-38
-0.094848573 -0.11403143 1.1190001 1.6409002e-38
-0.092717148 -0.11403143 1.1190001 1.6408291e-38
-0.090585716 -0.11403143 1.1190001 1.6500487e-38
-0.088454291 -0.11403143 1.1190001 1.6500484e-38
-0.086322866 -0.11403143 1.1190001 1.6408289e-38
-0.084191434 -0.11403143 1.1190001 1.6315014e-38
-0.082060009 -0.11403143 1.1190001 1.6499405e-38
-0.079928577 -0.11403143 1.1190001 1.6315367e-38
-0.077797145 -0.11403143 1.1190001 1.6315367e-38
-0.07566572 -0.11403143 1.1190001 1.6038424e-38
-0.073534288 -0.11403143 1.1190001 1.5669642e-38
-0.071147621 -0.11362381 1.115 1.5761121e-38
-0.06902381 -0.11362381 1.115 1.5853317e-38
-0.0669 -0.11362381 1.115 1.5945866e-38
-0.064601913 -0.1133181 1.1120001 1.6222453e-38
-0.062483817 -0.1133181 1.1120001 1.6498692e-38
-0.060365722 -0.1133181 1.1120001 1.6590888e-38
-0.058247626 -0.1133181 1.1120001 1.6866756e-38
-0.056129526 -0.1133181 1.1120001 1.7327734e-38
-0.053671427 -0.11260476 1.105 1.760574e-38
-0.051380005 -0.11219715 1.1010001 1.7513545e-38
-0.04928286 -0.11219715 1.1010001 1.6868566e-38
-0.12100001 -0.105 1.0500001 1.0138282e-38
-0.11900001 -0.105 1.0500001 1.235056e-38
-0.11666572 -0.10470001 1.0470001 1.4839842e-38
-0.11467143 -0.10470001 1.0470001 1.5669982e-38
-0.11267715 -0.10470001 1.0470001 1.6223156e-38
-0.11068286 -0.10470001 1.0470001 1.6314661e-38
-0.11502095 -0.11080001 1.108 1.6775639e-38
-0.11291048 -0.11080001 1.108 1.6775263e-38
-0.11080001 -0.11080001 1.108 1.6867459e-38
-0.10868952 -0.11080001 1.108 1.7144759e-38
-0.10657905 -0.11080001 1.108 1.7144759e-38
-0.10484572 -0.1112 1.1120001 1.7144772e-38
-0.10272763 -0.1112 1.1120001 1.7421359e-38
-0.10060953 -0.1112 1.1120001 1.7329869e-38
-0.098491438 -0.1112 1.1120001 1.7514261e-38
-0.096633337 -0.1115 1.115 1.7513905e-38
-0.094848573 -0.11190001 1.1190001 1.7513905e-38
-0.092717148 -0.11190001 1.1190001 1.7790497e-38
-0.090585716 -0.11190001 1.1190001 1.7790497e-38
-0.088454291 -0.11190001 1.1190001 1.7698302e-38
-0.086322866 -0.11190001 1.1190001 1.7698302e-38
-0.084191434 -0.11190001 1.1190001 1.8158924e-38
-0.082060009 -0.11190001 1.1190001 1.8251119e-38
-0.079928577 -0.11190001 1.1190001 1.8343671e-38
-0.077797145 -0.11190001 1.1190001 1.8620258e-38
-0.07566572 -0.11190001 1.1190001 1.8435513e-38
-0.073534288 -0.11190001 1.1190001 1.8251122e-38
-0.071402863 -0.11190001 1.1190001 1.8435511e-38
-0.06902381 -0.1115 1.115 1.8712098e-38
-0.0669 -0.1115 1.115 1.8620984e-38
-0.064601913 -0.1112 1.1120001 1.8713179e-38
-0.062483817 -0.1112 1.1120001 1.8067823e-38
-0.060365722 -0.1112 1.1120001 1.8344409e-38
-0.058247626 -0.1112 1.1120001 1.7147668e-38
-0.053000003 -0.105 1.0500001 1.4013017e-38
-0.051000003 -0.105 1.0500001 1.2448208e-38
-0.049000002 -0.105 1.0500001 1.346236e-38
-0.047000002 -0.105 1.0500001 1.3095354e-38
-0.045000002 -0.105 1.0500001 8.9465508e-39
-0.04316381 -0.1054 1.054 9.8656386e-39
-0.12100001 -0.10300001 1.0500001 7.3756504e-39
-0.11900001 -0.10300001 1.0500001 9.216553e-39
-0.11666572 -0.10270572 1.0470001 1.3457538e-38
-0.11467143 -0.10270572 1.0470001 1.3825735e-38
-0.11267715 -0.10270572 1.0470001 1.4102322e-38
-0.11036572 -0.10241143 1.044 1.5117873e-38
-0.10837714 -0.10241143 1.044 1.6777395e-38
-0.11291048 -0.10868952 1.108 1.7144412e-38
-0.11080001 -0.10868952 1.108 1.6867825e-38
-0.10868952 -0.10868952 1.108 1.7421336e-38
-0.10657905 -0.10868952 1.108 1.7697923e-38
-0.10484572 -0.10908192 1.1120001 1.7605402e-38
-0.10272763 -0.10908192 1.1120001 1.7697598e-38
-0.10060953 -0.10908192 1.1120001 1.7882337e-38
-0.098491438 -0.10908192 1.1120001 1.7882337e-38
-0.096633337 -0.10937619 1.115 1.8342223e-38
-0.094848573 -0.10976858 1.1190001 1.8526615e-38
-0.092717148 -0.10976858 1.1190001 1.8251122e-38
-0.090585716 -0.10976858 1.1190001 1.8527709e-38
-0.088454291 -0.10976858 1.1190001 1.8802861e-38
-0.086322866 -0.10976858 1.1190001 1.8710665e-38
-0.084191434 -0.10976858 1.1190001 1.9081249e-38
-0.082060009 -0.10976858 1.1190001 1.9357835e-38
-0.079928577 -0.10976858 1.1190001 1.9450031e-38
-0.072374292 -0.10211714 1.041 1.9450031e-38
-0.070391431 -0.10211714 1.041 1.9817732e-38
-0.068211436 -0.10182287 1.0380001 1.9817732e-38
-0.066234291 -0.10182287 1.0380001 1.9542943e-38
-0.064442858 -0.10211714 1.041 1.917416e-38
-0.062459998 -0.10211714 1.041 1.8530593e-38
-0.060477141 -0.10211714 1.041 1.733205e-38
-0.058662858 -0.10241143 1.044 1.6872128e-38
-0.057 -0.10300001 1.0500001 1.7701889e-38
-0.055000003 -0.10300001 1.0500001 1.6413709e-38
-0.053000003 -0.10300001 1.0500001 1.217271e-38
-0.051000003 -0.10300001 1.0500001 7.663756e-39
-0.049000002 -0.10300001 1.0500001 1.1351581e-38
-0.047000002 -0.10300001 1.0500001 1.2360669e-38
-0.045000002 -0.10300001 1.0500001 7.6586917e-39
-0.04316381 -0.10339238 1.054 8.7617742e-39
-0.041507624 -0.10427524 1.0630001 1.3555947e-38
-0.12382 -0.10167333 1.057 1.2261303e-38
-0.12100001 -0.10100001 1.0500001 4.5168698e-39
-0.11900001 -0.10100001 1.0500001 6.0801612e-39
-0.11700001 -0.10100001 1.0500001 1.179629e-38
-0.11467143 -0.10071143 1.0470001 1.1428655e-38
-0.11267715 -0.10071143 1.0470001 8.7549821e-39
-0.11036572 -0.10042286 1.044 1.0692834e-38
-0.10806572 -0.10013428 1.041 1.5118224e-38
-0.10608286 -0.10013428 1.041 1.5670721e-38
-0.1041 -0.10013428 1.041 1.484096e-38
-0.10211714 -0.10013428 1.041 1.5305139e-38
-0.10013428 -0.10013428 1.041 1.7056856e-38
-0.097868577 -0.099845722 1.0380001 1.7329904e-38
-0.095891438 -0.099845722 1.0380001 1.6776731e-38
-0.093914293 -0.099845722 1.0380001 1.6130995e-38
-0.092202857 -0.10013428 1.041 1.5670017e-38
-0.090480007 -0.10042286 1.044 1.6591591e-38
-0.088237144 -0.10013428 1.041 1.8712091e-38
-0.086005718 -0.099845722 1.0380001 1.871211e-38
-0.084028579 -0.099845722 1.0380001 1.9634066e-38
-0.082051434 -0.099845722 1.0380001 1.8161826e-38
-0.080074295 -0.099845722 1.0380001 1.7055478e-38
-0.078322858 -0.10013428 1.041 1.8345839e-38
-0.076339997 -0.10013428 1.041 1.9728773e-38
-0.074357137 -0.10013428 1.041 1.8530959e-38
-0.072374292 -0.10013428 1.041 1.7148024e-38
-0.070391431 -0.10013428 1.041 1.5675425e-38
-0.068211436 -0.099845722 1.0380001 1.5583229e-38
-0.066234291 -0.099845722 1.0380001 1.7423159e-38
-0.064442858 -0.10013428 1.041 1.8713898e-38
-0.062459998 -0.10013428 1.041 1.8252198e-38
-0.060477141 -0.10013428 1.041 1.2904852e-38
-0.058494285 -0.10013428 1.041 1.2354881e-38
-0.056837145 -0.10071143 1.0470001 1.5489533e-38
-0.055000003 -0.10100001 1.0500001 1.5949125e-38
-0.053000003 -0.10100001 1.0500001 1.5580343e-38
-0.051000003 -0.10100001 1.0500001 1.5030036e-38
-0.049186666 -0.10138477 1.054 1.4200275e-38
-0.047179051 -0.10138477 1.054 1.2084792e-38
-0.045171428 -0.10138477 1.054 7.935989e-39
-0.04316381 -0.10138477 1.054 9.1309519e-39
-0.041507624 -0.10225048 1.0630001 1.3371951e-38
-0.12382 -0.099660002 1.057 1.2538628e-38
-0.12180667 -0.099660002 1.057 4.5176083e-39
-0.11945333 -0.09937714 1.054 4.6050479e-39
-0.11700001 -0.099000007 1.0500001 9.122624e-39
-0.11467143 -0.098717146 1.0470001 1.1797776e-38
-0.11267715 -0.098717146 1.0470001 1.0691428e-38
-0.11036572 -0.098434284 1.044 1.0512045e-38
-0.10806572 -0.098151423 1.041 1.4660848e-38
-0.10608286 -0.098151423 1.041 1.4200628e-38
-0.1041 -0.098151423 1.041 1.2080129e-38
-0.10211714 -0.098151423 1.041 1.2265574e-38
-0.10013428 -0.098151423 1.041 1.4478269e-38
-0.097868577 -0.097868577 1.0380001 1.604204e-38
-0.095891438 -0.097868577 1.0380001 1.5488866e-38
-0.093914293 -0.097868577 1.0380001 1.3092133e-38
-0.092202857 -0.098151423 1.041 1.272335e-38
-0.090220004 -0.098151423 1.041 1.3458735e-38
-0.088237144 -0.098151423 1.041 1.7884125e-38
-0.086005718 -0.097868577 1.0380001 1.7793406e-38
-0.084028579 -0.097868577 1.0380001 1.7424624e-38
-0.082051434 -0.097868577 1.0380001 1.5862327e-38
-0.080074295 -0.097868577 1.0380001 1.3188654e-38
-0.07809715 -0.097868577 1.0380001 1.4386812e-38
-0.076339997 -0.098151423 1.041 1.7244876e-38
-0.074357137 -0.098151423 1.041 1.8071422e-38
-0.072374292 -0.098151423 1.041 1.5950923e-38
-0.070391431 -0.098151423 1.041 1.1907269e-38
-0.068408571 -0.098151423 1.041 1.209166e-38
-0.066425718 -0.098151423 1.041 1.5304124e-38
-0.064442858 -0.098151423 1.041 1.7793406e-38
-0.062459998 -0.098151423 1.041 1.8343321e-38
-0.060477141 -0.098151423 1.041 1.1244257e-38
-0.058494285 -0.098151423 1.041 1.0965445e-38
-0.056837145 -0.098717146 1.0470001 1.3454727e-38
-0.055000003 -0.099000007 1.0500001 1.6497225e-38
-0.053000003 -0.099000007 1.0500001 1.8156746e-38
-0.051000003 -0.099000007 1.0500001 1.7238432e-38
-0.049186666 -0.09937714 1.054 1.4564759e-38
-0.047179051 -0.09937714 1.054 1.0794429e-38
-0.045171428 -0.09937714 1.054 8.0285602e-39
-0.04316381 -0.09937714 1.054 9.314983e-39
-0.041507624 -0.10022572 1.0630001 1.3924764e-38
-0.03963143 -0.10060286 1.067 1.5393418e-38
-0.12417143 -0.097923815 1.0600001 1.5395225e-38
-0.12215239 -0.097923815 1.0600001 4.792728e-39
-0.11979333 -0.097646669 1.057 4.2388059e-39
-0.11744571 -0.097369522 1.054 6.7280879e-39
-0.11467143 -0.096722864 1.0470001 8.1124994e-39
-0.11267715 -0.096722864 1.0470001 1.401302e-38
-0.11068286 -0.096722864 1.0470001 1.4751992e-38
-0.10837714 -0.096445717 1.044 1.4751992e-38
-0.10608286 -0.09616857 1.041 1.2729083e-38
-0.1041 -0.09616857 1.041 1.1438344e-38
-0.10211714 -0.09616857 1.041 1.1164291e-38
-0.10013428 -0.09616857 1.041 1.2455029e-38
-0.097868577 -0.095891438 1.0380001 1.4477598e-38
-0.095891438 -0.095891438 1.0380001 1.7243467e-38
-0.094185717 -0.09616857 1.041 1.6962181e-38
-0.092202857 -0.09616857 1.041 1.5026073e-38
-0.090220004 -0.09616857 1.041 1.5393093e-38
-0.088237144 -0.09616857 1.041 1.9634092e-38
-0.086005718 -0.095891438 1.0380001 1.7795927e-38
-0.084028579 -0.095891438 1.0380001 1.456908e-38
-0.082051434 -0.095891438 1.0380001 8.4975187e-39
-0.080074295 -0.095891438 1.0380001 5.5472586e-39
-0.07809715 -0.095891438 1.0380001 7.9432421e-39
-0.076339997 -0.09616857 1.041 1.3567176e-38
-0.074357137 -0.09616857 1.041 1.7242028e-38
-0.072374292 -0.09616857 1.041 1.9454723e-38
-0.070391431 -0.09616857 1.041 1.8350158e-38
-0.068408571 -0.09616857 1.041 1.8165766e-38
-0.066425718 -0.09616857 1.041 1.8899738e-38
-0.064442858 -0.09616857 1.041 1.6502652e-38
-0.062459998 -0.09616857 1.041 1.5209032e-38
-0.060477141 -0.09616857 1.041 1.124462e-38
-0.058662858 -0.096445717 1.044 1.023227e-38
-0.056837145 -0.096722864 1.0470001 9.9556833e-39
-0.055000003 -0.097000003 1.0500001 1.1799184e-38
-0.053000003 -0.097000003 1.0500001 1.6132379e-38
-0.051194288 -0.097369522 1.054 1.5765806e-38
-0.049186666 -0.097369522 1.054 1.2354568e-38
-0.047179051 -0.097369522 1.054 9.412952e-39
-0.045171428 -0.097369522 1.054 7.7534306e-39
-0.04316381 -0.097369522 1.054 1.0235147e-38
-0.041663811 -0.098570473 1.067 1.4660537e-38
-0.03963143 -0.098570473 1.067 1.6315352e-38
-0.037704762 -0.098847628 1.0700001 1.5946569e-38
-0.12417143 -0.095904768 1.0600001 1.5854074e-38
-0.12215239 -0.095904768 1.0600001 5.8969456e-39
-0.11979333 -0.095633335 1.057 4.0537084e-39
-0.11778001 -0.095633335 1.057 5.5288385e-39
-0.1154381 -0.095361911 1.054 8.2017593e-39
-0.11300001 -0.095000006 1.0500001 1.5116432e-38
-0.11068286 -0.094728574 1.0470001 1.4477232e-38
-0.10868858 -0.094728574 1.0470001 1.3186493e-38
-0.10638857 -0.094457142 1.044 1.0153376e-38
-0.1044 -0.094457142 1.044 1.006118e-38
-0.10211714 -0.094185717 1.041 9.971155e-39
-0.10013428 -0.094185717 1.041 1.0432133e-38
-0.098151423 -0.094185717 1.041 1.3466307e-38
-0.09616857 -0.094185717 1.041 1.6047785e-38
-0.094185717 -0.094185717 1.041 1.825292e-38
-0.092202857 -0.094185717 1.041 1.8068529e-38
-0.090220004 -0.094185717 1.041 1.7607593e-38
-0.088237144 -0.094185717 1.041 1.8621745e-38
-0.086005718 -0.093914293 1.0380001 1.6876845e-38
-0.084028579 -0.093914293 1.0380001 1.171389e-38
-0.082051434 -0.093914293 1.0380001 5.7434852e-39
-0.080074295 -0.093914293 1.0380001 4.8215289e-39
-0.078322858 -0.094185717 1.041 5.7413118e-39
-0.076339997 -0.094185717 1.041 8.7837676e-39
-0.074357137 -0.094185717 1.041 1.5767939e-38
-0.072374292 -0.094185717 1.041 1.8994786e-38
-0.070391431 -0.094185717 1.041 2.0281591e-38
-0.068408571 -0.094185717 1.041 1.9912809e-38
-0.066425718 -0.094185717 1.041 1.9175972e-38
-0.064628571 -0.094457142 1.044 1.2906669e-38
-0.062640004 -0.094457142 1.044 1.2717952e-38
-0.060651429 -0.094457142 1.044 1.1611605e-38
-0.058662858 -0.094457142 1.044 1.0879435e-38
-0.056837145 -0.094728574 1.0470001 9.6808915e-39
-0.055000003 -0.095000006 1.0500001 9.2216565e-39
-0.053000003 -0.095000006 1.0500001 1.5029981e-38
-0.051194288 -0.095361911 1.054 1.4847472e-38
-0.049326669 -0.095633335 1.057 1.0975255e-38
-0.047313333 -0.095633335 1.057 8.3112707e-39
-0.045300003 -0.095633335 1.057 7.758097e-39
-0.043286666 -0.095633335 1.057 1.0879772e-38
-0.041663811 -0.096538097 1.067 1.5120771e-38
-0.03963143 -0.096538097 1.067 1.6590869e-38
-0.037704762 -0.096809521 1.0700001 1.6314282e-38
-0.12417143 -0.09388572 1.0600001 1.6408687e-38
-0.12215239 -0.09388572 1.0600001 6.7281454e-39
-0.12013334 -0.09388572 1.0600001 3.2283114e-39
-0.11778001 -0.093620002 1.057 4.334659e-39
-0.1154381 -0.093354285 1.054 6.1763785e-39
-0.11300001 -0.09300001 1.0500001 1.1984703e-38
-0.11068286 -0.092734285 1.0470001 1.2725515e-38
-0.10868858 -0.092734285 1.0470001 1.1434776e-38
-0.10638857 -0.092468575 1.044 9.5076685e-39
-0.1044 -0.092468575 1.044 9.9686467e-39
-0.10241143 -0.092468575 1.044 9.6031138e-39
-0.10042286 -0.092468575 1.044 1.0064092e-38
-0.098151423 -0.092202857 1.041 1.1810023e-38
-0.09616857 -0.092202857 1.041 1.2731979e-38
-0.094185717 -0.092202857 1.041 1.6685942e-38
-0.092202857 -0.092202857 1.041 2.0281571e-38
-0.090220004 -0.092202857 1.041 1.89923e-38
-0.088237144 -0.092202857 1.041 1.456691e-38
-0.086254284 -0.092202857 1.041 8.0361875e-39
-0.084271431 -0.092202857 1.041 7.0220355e-39
-0.082288571 -0.092202857 1.041 5.7445642e-39
-0.08030571 -0.092202857 1.041 6.2055423e-39
-0.078322858 -0.092202857 1.041 7.3979773e-39
-0.076559998 -0.092468575 1.044 6.6604122e-39
-0.074571431 -0.092468575 1.044 9.8778454e-39
-0.072582863 -0.092468575 1.044 1.3657866e-38
-0.070594288 -0.092468575 1.044 1.8347621e-38
-0.068408571 -0.092202857 1.041 1.8808599e-38
-0.066425718 -0.092202857 1.041 1.8255011e-38
-0.064628571 -0.092468575 1.044 1.1155947e-38
-0.062640004 -0.092468575 1.044 1.0509586e-38
-0.060651429 -0.092468575 1.044 1.1247151e-38
-0.058831431 -0.092734285 1.0470001 1.1247867e-38
-0.057 -0.09300001 1.0500001 1.0325911e-38
-0.055000003 -0.09300001 1.0500001 9.773443e-39
-0.053201903 -0.093354285 1.054 1.4567616e-38
-0.051340003 -0.093620002 1.057 1.475633e-38
-0.049326669 -0.093620002 1.057 1.1437287e-38
-0.047447622 -0.09388572 1.0600001 8.4024e-39
-0.045428574 -0.09388572 1.0600001 8.1258131e-39
-0.043532383 -0.094151437 1.0630001 1.0695397e-38
-0.041663811 -0.094505712 1.067 1.5028591e-38
-0.03963143 -0.094505712 1.067 1.6314636e-38
-0.037704762 -0.09477143 1.0700001 1.5945853e-38
-0.12417143 -0.091866672 1.0600001 1.696329e-38
-0.12215239 -0.091866672 1.0600001 8.2969004e-39
-0.12013334 -0.091866672 1.0600001 4.9800088e-39
-0.11778001 -0.091606669 1.057 4.7034219e-39
-0.1154381 -0.091346666 1.054 4.8885166e-39
-0.11343048 -0.091346666 1.054 1.1895384e-38
-0.11100001 -0.091000006 1.0500001 1.199083e-38
-0.10868858 -0.09074001 1.0470001 1.0700091e-38
-0.10669429 -0.09074001 1.0470001 9.0477666e-39
-0.1044 -0.090480007 1.044 9.7853316e-39
-0.10241143 -0.090480007 1.044 9.5109154e-39
-0.10042286 -0.090480007 1.044 1.0432872e-38
-0.098151423 -0.090220004 1.041 1.0432489e-38
-0.09616857 -0.090220004 1.041 1.0432489e-38
-0.094185717 -0.090220004 1.041 1.4201714e-38
-0.092468575 -0.090480007 1.044 1.9272474e-38
-0.090480007 -0.090480007 1.044 1.8258e-38
-0.088491425 -0.090480007 1.044 1.0605762e-38
-0.086502858 -0.090480007 1.044 4.0850499e-39
-0.08451429 -0.090480007 1.044 5.0070062e-39
-0.082288571 -0.090220004 1.041 6.1119146e-39
-0.08030571 -0.090220004 1.041 6.8494796e-39
-0.078548573 -0.090480007 1.044 7.032429e-39
-0.076559998 -0.090480007 1.044 5.6494945e-39
-0.074571431 -0.090480007 1.044 4.3633968e-39
-0.072582863 -0.090480007 1.044 8.6965914e-39
-0.070594288 -0.090480007 1.044 1.5310942e-38
-0.068605714 -0.090480007 1.044 1.6878267e-38
-0.066617146 -0.090480007 1.044 1.530661e-38
-0.064814284 -0.09074001 1.0470001 1.023585e-38
-0.062820002 -0.09074001 1.0470001 1.0786876e-38
-0.060825717 -0.09074001 1.0470001 1.1432245e-38
-0.058831431 -0.09074001 1.0470001 1.1339344e-38
-0.057 -0.091000006 1.0500001 1.0232996e-38
-0.055209525 -0.091346666 1.054 9.6812446e-39
-0.053201903 -0.091346666 1.054 1.5581765e-38
-0.051340003 -0.091606669 1.057 1.4850331e-38
-0.049326669 -0.091606669 1.057 1.2637635e-38
-0.047447622 -0.091866672 1.0600001 1.0058684e-38
-0.045428574 -0.091866672 1.0600001 8.4913586e-39
-0.043532383 -0.092126675 1.0630001 1.0694631e-38
-0.041663811 -0.092473336 1.067 1.5304413e-38
-0.03963143 -0.092473336 1.067 1.5946216e-38
-0.037704762 -0.092733338 1.0700001 1.5577433e-38
-0.12215239 -0.089847624 1.0600001 1.004861e-38
-0.12013334 -0.089847624 1.0600001 4.5208635e-39
-0.11778001 -0.089593336 1.057 3.4145159e-39
-0.1154381 -0.089339048 1.054 6.4536941e-39
-0.11343048 -0.089339048 1.054 1.3368366e-38
-0.11100001 -0.089000002 1.0500001 1.4015155e-38
-0.10868858 -0.088745721 1.0470001 1.3185395e-38
-0.10669429 -0.088745721 1.0470001 1.1348334e-38
-0.10470001 -0.088745721 1.0470001 1.0887356e-38
-0.10270572 -0.088745721 1.0470001 9.6953094e-39
-0.10042286 -0.088491425 1.044 1.0617266e-38
-0.098434284 -0.088491425 1.044 1.0248831e-38
-0.096445717 -0.088491425 1.044 1.0064439e-38
-0.094457142 -0.088491425 1.044 1.3465597e-38
-0.092468575 -0.088491425 1.044 1.8351965e-38
-0.090480007 -0.088491425 1.044 1.7430372e-38
-0.088491425 -0.088491425 1.044 8.9483739e-39
-0.086751431 -0.088745721 1.0470001 1.6980528e-39
-0.08451429 -0.088491425 1.044 3.3575742e-39
-0.082525715 -0.088491425 1.044 6.5721767e-39
-0.080537148 -0.088491425 1.044 6.7565679e-39
-0.078548573 -0.088491425 1.044 6.4806873e-39
-0.076559998 -0.088491425 1.044 5.558731e-39
-0.074571431 -0.088491425 1.044 5.5573087e-39
-0.072582863 -0.088491425 1.044 9.0607426e-39
-0.070594288 -0.088491425 1.044 1.5494236e-38
-0.068605714 -0.088491425 1.044 1.7153757e-38
-0.066617146 -0.088491425 1.044 1.5675405e-38
-0.064628571 -0.088491425 1.044 9.4061024e-39
-0.062820002 -0.088745721 1.0470001 8.948011e-39
-0.060825717 -0.088745721 1.0470001 9.8699673e-39
-0.059000004 -0.089000002 1.0500001 1.1244642e-38
-0.057 -0.089000002 1.0500001 1.1797816e-38
-0.055209525 -0.089339048 1.054 1.2444962e-38
-0.053201903 -0.089339048 1.054 1.6132788e-38
-0.051340003 -0.089593336 1.057 1.5950898e-38
-0.049326669 -0.089593336 1.057 1.5674311e-38
-0.047581907 -0.090101913 1.0630001 1.3463812e-38
-0.045557145 -0.090101913 1.0630001 9.7759864e-39
-0.043532383 -0.090101913 1.0630001 1.0509911e-38
-0.041663811 -0.090440959 1.067 1.5119692e-38
-0.039742861 -0.09069524 1.0700001 1.6038052e-38
-0.037704762 -0.09069524 1.0700001 1.5577073e-38
-0.12249811 -0.08807715 1.0630001 1.041739e-38
-0.12013334 -0.087828577 1.0600001 6.8242338e-39
-0.11811429 -0.087828577 1.0600001 6.6398426e-39
-0.11576667 -0.087580003 1.057 8.1114176e-39
-0.11375333 -0.087580003 1.057 1.355096e-38
-0.11142286 -0.087331429 1.054 1.4657991e-38
-0.10868858 -0.086751431 1.0470001 1.4381404e-38
-0.10669429 -0.086751431 1.0470001 1.2083741e-38
-0.10470001 -0.086751431 1.0470001 1.1161785e-38
-0.10270572 -0.086751431 1.0470001 9.6945807e-39
-0.10071143 -0.086751431 1.0470001 1.0524341e-38
-0.098434284 -0.086502858 1.044 9.7885714e-39
-0.096445717 -0.086502858 1.044 1.0065158e-38
-0.094457142 -0.086502858 1.044 1.3649279e-38
-0.092468575 -0.086502858 1.044 1.7982474e-38
-0.090480007 -0.086502858 1.044 1.6694965e-38
-0.088745721 -0.086751431 1.0470001 1.1163227e-38
-0.086751431 -0.086751431 1.0470001 4.4545905e-39
-0.084757142 -0.086751431 1.0470001 4.3623949e-39
-0.082525715 -0.086502858 1.044 5.4679871e-39
-0.080537148 -0.086502858 1.044 5.744574e-39
-0.078548573 -0.086502858 1.044 5.4686934e-39
-0.076559998 -0.086502858 1.044 4.5467371e-39
-0.074571431 -0.086502858 1.044 5.4654508e-39
-0.072582863 -0.086502858 1.044 1.0444015e-38
-0.070594288 -0.086502858 1.044 1.6506239e-38
-0.068605714 -0.086502858 1.044 1.7612587e-38
-0.066617146 -0.086502858 1.044 1.6228601e-38
-0.064628571 -0.086502858 1.044 1.0973451e-38
-0.062820002 -0.086751431 1.0470001 9.2238916e-39
-0.060825717 -0.086751431 1.0470001 9.0395003e-39
-0.059000004 -0.087000005 1.0500001 1.0509541e-38
-0.057 -0.087000005 1.0500001 1.2814432e-38
-0.055209525 -0.087331429 1.054 1.5207622e-38
-0.053201903 -0.087331429 1.054 1.5484209e-38
-0.051340003 -0.087580003 1.057 1.5395176e-38
-0.04946667 -0.087828577 1.0600001 1.6501524e-38
-0.047581907 -0.08807715 1.0630001 1.557856e-38
-0.045557145 -0.08807715 1.0630001 1.0876583e-38
-0.043532383 -0.08807715 1.0630001 1.0877225e-38
-0.041663811 -0.088408574 1.067 1.5579202e-38
-0.039742861 -0.088657148 1.0700001 1.6130247e-38
-0.037704762 -0.088657148 1.0700001 1.5669269e-38
-0.035666667 -0.088657148 1.0700001 1.5668903e-38
-0.12249811 -0.086052381 1.0630001 1.2076909e-38
-0.12013334 -0.085809529 1.0600001 8.2064929e-39
-0.11811429 -0.085809529 1.0600001 1.078797e-38
-0.11576667 -0.08556667 1.057 1.1801369e-38
-0.11375333 -0.08556667 1.057 1.2446738e-38
-0.11174 -0.08556667 1.057 1.3370788e-38
-0.10941524 -0.085323811 1.054 1.4569331e-38
-0.10669429 -0.084757142 1.0470001 1.3648543e-38
-0.10470001 -0.084757142 1.0470001 1.2634391e-38
-0.10270572 -0.084757142 1.0470001 1.0798044e-38
-0.10071143 -0.084757142 1.0470001 1.0521458e-38
-0.098717146 -0.084757142 1.0470001 1.1717477e-38
-0.096445717 -0.08451429 1.044 1.4667737e-38
-0.094457142 -0.08451429 1.044 1.7149822e-38
-0.092734285 -0.084757142 1.0470001 1.825617e-38
-0.09074001 -0.084757142 1.0470001 1.7704062e-38
-0.088745721 -0.084757142 1.0470001 1.7704062e-38
-0.086751431 -0.084757142 1.0470001 1.2919309e-38
-0.084757142 -0.084757142 1.0470001 8.4017232e-39
-0.082525715 -0.08451429 1.044 1.9739307e-39
-0.080537148 -0.08451429 1.044 1.6973438e-39
-0.078548573 -0.08451429 1.044 3.6280402e-39
-0.076779999 -0.084757142 1.0470001 6.3939091e-39
-0.074785717 -0.084757142 1.0470001 1.2458264e-38
-0.072791435 -0.084757142 1.0470001 1.7160241e-38
-0.070797145 -0.084757142 1.0470001 1.8993732e-38
-0.068802863 -0.084757142 1.0470001 1.9270319e-38
-0.066808574 -0.084757142 1.0470001 1.8439855e-38
-0.064814284 -0.084757142 1.0470001 1.6688138e-38
-0.062820002 -0.084757142 1.0470001 1.2725556e-38
-0.060825717 -0.084757142 1.0470001 8.668948e-39
-0.059000004 -0.085000008 1.0500001 1.0879788e-38
-0.057217143 -0.085323811 1.054 1.7149091e-38
-0.055209525 -0.085323811 1.054 1.6779958e-38
-0.053201903 -0.085323811 1.054 1.0695046e-38
-0.051340003 -0.08556667 1.057 9.7784302e-39
-0.04946667 -0.085809529 1.0600001 1.2913082e-38
-0.047581907 -0.086052381 1.0630001 1.4197411e-38
-0.045557145 -0.086052381 1.0630001 1.106276e-38
-0.043532383 -0.086052381 1.0630001 1.1153452e-38
-0.041663811 -0.08637619 1.067 1.5578842e-38
-0.039742861 -0.086619049 1.0700001 1.6405389e-38
-0.037704762 -0.086619049 1.0700001 1.6036607e-38
-0.035666667 -0.086619049 1.0700001 1.56689e-38
-0.12330476 -0.084580958 1.0700001 1.2076909e-38
-0.12047334 -0.084027618 1.0630001 8.574181e-39
-0.11811429 -0.083790481 1.0600001 1.1708832e-38
-0.11609524 -0.083790481 1.0600001 1.2354915e-38
-0.1140762 -0.083790481 1.0600001 9.6812418e-39
-0.11174 -0.083553337 1.057 9.2223726e-39
-0.10941524 -0.083316192 1.054 1.1896046e-38
-0.10700001 -0.083000004 1.0500001 1.4567598e-38
-0.105 -0.083000004 1.0500001 1.4014424e-38
-0.10270572 -0.08276286 1.0470001 1.1533089e-38
-0.10071143 -0.08276286 1.0470001 1.1256502e-38
-0.098717146 -0.08276286 1.0470001 1.3188301e-38
-0.096722864 -0.08276286 1.0470001 1.6507344e-38
-0.094728574 -0.08276286 1.0470001 1.8161823e-38
-0.092734285 -0.08276286 1.0470001 1.6871084e-38
-0.09074001 -0.08276286 1.0470001 1.7515316e-38
-0.088745721 -0.08276286 1.0470001 1.9359228e-38
-0.086751431 -0.08276286 1.0470001 1.7612262e-38
-0.084757142 -0.08276286 1.0470001 1.3463458e-38
-0.082525715 -0.082525715 1.044 4.8258911e-39
-0.080537148 -0.082525715 1.044 1.875631e-39
-0.078548573 -0.082525715 1.044 3.4428754e-39
-0.076779999 -0.08276286 1.0470001 8.6980263e-39
-0.074785717 -0.08276286 1.0470001 1.6964009e-38
-0.072791435 -0.08276286 1.0470001 1.9361095e-38
-0.070797145 -0.08276286 1.0470001 1.8624947e-38
-0.068802863 -0.08276286 1.0470001 1.8071773e-38
-0.066808574 -0.08276286 1.0470001 1.8716432e-38
-0.064814284 -0.08276286 1.0470001 1.8255454e-38
-0.063000001 -0.083000004 1.0500001 1.6780336e-38
-0.061000001 -0.083000004 1.0500001 1.3000315e-38
-0.059000004 -0.083000004 1.0500001 1.2169107e-38
-0.057217143 -0.083316192 1.054 1.7147671e-38
-0.055209525 -0.083316192 1.054 1.567722e-38
-0.053353336 -0.083553337 1.057 7.0108307e-39
-0.051485714 -0.083790481 1.0600001 3.984871e-39
-0.04946667 -0.083790481 1.0600001 8.1336744e-39
-0.047581907 -0.084027618 1.0630001 1.327582e-38
-0.045557145 -0.084027618 1.0630001 9.7723864e-39
-0.043532383 -0.084027618 1.0630001 1.0596688e-38
-0.041663811 -0.084343813 1.067 1.603623e-38
-0.03963143 -0.084343813 1.067 1.5852218e-38
-0.037599046 -0.084343813 1.067 1.5852218e-38
-0.035566669 -0.084343813 1.067 1.5760376e-38
-0.12330476 -0.082542859 1.0700001 1.2630082e-38
-0.12047334 -0.082002863 1.0630001 8.8515119e-39
-0.11844858 -0.082002863 1.0630001 1.0418838e-38
-0.11642382 -0.082002863 1.0630001 9.0402066e-39
-0.1140762 -0.081771433 1.0600001 5.9977508e-39
-0.11174 -0.081540003 1.057 4.0717263e-39
-0.10941524 -0.081308573 1.054 4.8092914e-39
-0.10700001 -0.081 1.0500001 9.9632167e-39
-0.105 -0.081 1.0500001 1.5033976e-38
-0.10270572 -0.080768578 1.0470001 1.5491017e-38
-0.10071143 -0.080768578 1.0470001 1.5951995e-38
-0.098717146 -0.080768578 1.0470001 1.668956e-38
-0.096722864 -0.080768578 1.0470001 1.7242734e-38
-0.094728574 -0.080768578 1.0470001 1.4842808e-38
-0.092734285 -0.080768578 1.0470001 1.0509614e-38
-0.09074001 -0.080768578 1.0470001 1.2352021e-38
-0.088745721 -0.080768578 1.0470001 1.7975955e-38
-0.086751431 -0.080768578 1.0470001 1.8254021e-38
-0.084757142 -0.080768578 1.0470001 1.9729152e-38
-0.08276286 -0.080768578 1.0470001 1.62347e-38
-0.080768578 -0.080768578 1.0470001 1.1440527e-38
-0.078774288 -0.080768578 1.0470001 1.2088427e-38
-0.076779999 -0.080768578 1.0470001 1.7896752e-38
-0.074785717 -0.080768578 1.0470001 1.8902625e-38
-0.072791435 -0.080768578 1.0470001 1.6597734e-38
-0.070797145 -0.080768578 1.0470001 1.3653238e-38
-0.068802863 -0.080768578 1.0470001 1.3100064e-38
-0.067000002 -0.081 1.0500001 1.5308788e-38
-0.065000005 -0.081 1.0500001 1.7890265e-38
-0.063000001 -0.081 1.0500001 1.8347296e-38
-0.061000001 -0.081 1.0500001 1.8347296e-38
-0.059000004 -0.081 1.0500001 1.7702971e-38
-0.057217143 -0.081308573 1.054 1.475271e-38
-0.055209525 -0.081308573 1.054 1.1165363e-38
-0.053353336 -0.081540003 1.057 5.7258204e-39
-0.051485714 -0.081771433 1.0600001 4.1711246e-39
-0.04946667 -0.081771433 1.0600001 5.3696678e-39
-0.047581907 -0.082002863 1.0630001 9.9635894e-39
-0.045557145 -0.082002863 1.0630001 8.1196768e-39
-0.043696191 -0.082311429 1.067 1.0504907e-38
-0.041663811 -0.082311429 1.067 1.5852253e-38
-0.03963143 -0.082311429 1.067 1.6036256e-38
-0.037599046 -0.082311429 1.067 1.5944061e-38
-0.035566669 -0.082311429 1.067 1.5760729e-38
-0.12295906 -0.080279045 1.067 1.30907e-38
-0.12092667 -0.080279045 1.067 1.0418832e-38
-0.11889429 -0.080279045 1.067 9.7734626e-39
-0.11642382 -0.079978101 1.0630001 7.8459668e-39
-0.1140762 -0.079752386 1.0600001 4.7113154e-39
-0.11174 -0.07952667 1.057 1.0411297e-39
-0.10972667 -0.07952667 1.057 8.5673847e-40
-0.10700001 -0.079000004 1.0500001 7.7515711e-39
-0.105 -0.079000004 1.0500001 1.3836483e-38
-0.10300001 -0.079000004 1.0500001 1.6318964e-38
-0.10071143 -0.078774288 1.0470001 1.7056529e-38
-0.098717146 -0.078774288 1.0470001 1.7333857e-38
-0.096722864 -0.078774288 1.0470001 1.5766532e-38
-0.094728574 -0.078774288 1.0470001 1.2634401e-38
-0.092734285 -0.078774288 1.0470001 9.3153586e-39
-0.09074001 -0.078774288 1.0470001 1.0877225e-38
-0.088745721 -0.078774288 1.0470001 1.4657246e-38
-0.086751431 -0.078774288 1.0470001 1.8341137e-38
-0.084757142 -0.078774288 1.0470001 2.0553832e-38
-0.08276286 -0.078774288 1.0470001 1.9361801e-38
-0.080768578 -0.078774288 1.0470001 1.7241302e-38
-0.078774288 -0.078774288 1.0470001 1.5495009e-38
-0.076779999 -0.078774288 1.0470001 1.8629661e-38
-0.074785717 -0.078774288 1.0470001 1.82587e-38
-0.072791435 -0.078774288 1.0470001 1.4294288e-38
-0.070797145 -0.078774288 1.0470001 1.172468e-38
-0.069000006 -0.079000004 1.0500001 1.1263702e-38
-0.067000002 -0.079000004 1.0500001 1.2824543e-38
-0.065000005 -0.079000004 1.0500001 1.4484065e-38
-0.063000001 -0.079000004 1.0500001 1.8254006e-38
-0.061000001 -0.079000004 1.0500001 1.9544745e-38
-0.059224762 -0.079300947 1.054 1.8071788e-38
-0.057217143 -0.079300947 1.054 1.0696138e-38
-0.055366669 -0.07952667 1.057 8.3080211e-39
-0.053353336 -0.07952667 1.057 6.7406954e-39
-0.051485714 -0.079752386 1.0600001 3.3456701e-39
-0.04946667 -0.079752386 1.0600001 4.4520177e-39
-0.047581907 -0.079978101 1.0630001 9.5973432e-39
-0.045557145 -0.079978101 1.0630001 8.2144088e-39
-0.043696191 -0.080279045 1.067 1.0689633e-38
-0.041663811 -0.080279045 1.067 1.5944784e-38
-0.03963143 -0.080279045 1.067 1.594514e-38
-0.037599046 -0.080279045 1.067 1.5668553e-38
-0.035566669 -0.080279045 1.067 1.5392314e-38
-0.12330476 -0.078466676 1.0700001 1.4196329e-38
-0.12126668 -0.078466676 1.0700001 1.0786927e-38
-0.11889429 -0.078246668 1.067 9.5883833e-39
-0.11642382 -0.077953339 1.0630001 7.845964e-39
-0.1140762 -0.077733338 1.0600001 4.6191169e-39
-0.11205714 -0.077733338 1.0600001 1.2269783e-39
-0.10972667 -0.07751333 1.057 1.8723477e-39
-0.10740761 -0.077293336 1.054 4.9025436e-39
-0.1054 -0.077293336 1.054 8.037195e-39
-0.10300001 -0.077000007 1.0500001 1.5306548e-38
-0.10100001 -0.077000007 1.0500001 1.7242657e-38
-0.098717146 -0.076779999 1.0470001 1.6686997e-38
-0.096722864 -0.076779999 1.0470001 1.1063064e-38
-0.094728574 -0.076779999 1.0470001 1.0235848e-38
-0.09300001 -0.077000007 1.0500001 1.0973413e-38
-0.091000006 -0.077000007 1.0500001 1.1431545e-38
-0.088745721 -0.076779999 1.0470001 1.1062762e-38
-0.086751431 -0.076779999 1.0470001 1.4011118e-38
-0.084757142 -0.076779999 1.0470001 1.7514552e-38
-0.08276286 -0.076779999 1.0470001 1.8529154e-38
-0.080768578 -0.076779999 1.0470001 2.0557458e-38
-0.078774288 -0.076779999 1.0470001 1.9269968e-38
-0.076779999 -0.076779999 1.0470001 1.6780686e-38
-0.074785717 -0.076779999 1.0470001 1.374651e-38
-0.072999999 -0.077000007 1.0500001 1.310114e-38
-0.071000002 -0.077000007 1.0500001 1.2184238e-38
-0.069000006 -0.077000007 1.0500001 1.2092043e-38
-0.067000002 -0.077000007 1.0500001 1.2550137e-38
-0.065000005 -0.077000007 1.0500001 1.2181354e-38
-0.063000001 -0.077000007 1.0500001 1.6135639e-38
-0.061232381 -0.077293336 1.054 1.9085899e-38
-0.059224762 -0.077293336 1.054 1.6966141e-38
-0.057379998 -0.07751333 1.057 8.2075564e-39
-0.055366669 -0.07751333 1.057 2.7957432e-39
-0.053504765 -0.077733338 1.0600001 2.7035475e-39
-0.051485714 -0.077733338 1.0600001 4.9072351e-39
-0.04946667 -0.077733338 1.0600001 7.7652996e-39
-0.047581907 -0.077953339 1.0630001 1.1069224e-38
-0.045728575 -0.078246668 1.067 1.0423854e-38
-0.043696191 -0.078246668 1.067 1.2350586e-38
-0.041663811 -0.078246668 1.067 1.5761825e-38
-0.03963143 -0.078246668 1.067 1.6128452e-38
-0.037599046 -0.078246668 1.067 1.575967e-38
-0.035566669 -0.078246668 1.067 1.566818e-38
-0.12534286 -0.076428577 1.0700001 1.640938e-38
-0.12330476 -0.076428577 1.0700001 1.5487424e-38
-0.12126668 -0.076428577 1.0700001 1.171066e-38
-0.11922857 -0.076428577 1.0700001 9.4979646e-39
-0.1168619 -0.076214284 1.067 7.8463395e-39
-0.11439905 -0.075928576 1.0630001 4.8038838e-39
-0.11205714 -0.07571429 1.0600001 1.2251735e-39
-0.1100381 -0.07571429 1.0600001 2.331521e-39
-0.10771334 -0.075500004 1.057 1.5035596e-39
-0.1054 -0.075285718 1.054 2.9786897e-39
-0.10339238 -0.075285718 1.054 1.2265224e-38
-0.10100001 -0.075000003 1.0500001 1.5953049e-38
-0.099000007 -0.075000003 1.0500001 1.4934613e-38
-0.096722864 -0.074785717 1.0470001 1.0417027e-38
-0.094728574 -0.074785717 1.0470001 9.9578217e-39
-0.09300001 -0.075000003 1.0500001 1.1709539e-38
-0.091000006 -0.075000003 1.0500001 1.1708129e-38
-0.088745721 -0.074785717 1.0470001 1.1339346e-38
-0.086751431 -0.074785717 1.0470001 1.1064137e-38
-0.084757142 -0.074785717 1.0470001 1.2631463e-38
-0.08276286 -0.074785717 1.0470001 1.7788696e-38
-0.080768578 -0.074785717 1.0470001 2.1753109e-38
-0.078774288 -0.074785717 1.0470001 1.8994846e-38
-0.076779999 -0.074785717 1.0470001 1.4016282e-38
-0.075000003 -0.075000003 1.0500001 1.2275335e-38
-0.072999999 -0.075000003 1.0500001 1.2828509e-38
-0.071000002 -0.075000003 1.0500001 1.2644847e-38
-0.069000006 -0.075000003 1.0500001 1.236826e-38
-0.067000002 -0.075000003 1.0500001 1.1632494e-38
-0.065247618 -0.075285718 1.054 1.0710538e-38
-0.063239999 -0.075285718 1.054 1.3743603e-38
-0.061232381 -0.075285718 1.054 1.7984602e-38
-0.059393335 -0.075500004 1.057 1.5035816e-38
-0.057379998 -0.075500004 1.057 6.6460139e-39
-0.055366669 -0.075500004 1.057 1.3259983e-39
-0.053504765 -0.07571429 1.0600001 1.0494114e-39
-0.051485714 -0.07571429 1.0600001 5.2738344e-39
-0.04960667 -0.075928576 1.0630001 9.7914203e-39
-0.047581907 -0.075928576 1.0630001 1.2542556e-38
-0.045728575 -0.076214284 1.067 1.1528404e-38
-0.043696191 -0.076214284 1.067 1.3087435e-38
-0.041663811 -0.076214284 1.067 1.5761109e-38
-0.03963143 -0.076214284 1.067 1.5852216e-38
-0.037599046 -0.076214284 1.067 1.5667824e-38
-0.12534286 -0.074390478 1.0700001 1.6960749e-38
-0.12330476 -0.074390478 1.0700001 1.6684162e-38
-0.12126668 -0.074390478 1.0700001 1.3091066e-38
-0.11889429 -0.074181899 1.067 9.8642191e-39
-0.1168619 -0.074181899 1.067 8.5803299e-39
-0.11482953 -0.074181899 1.067 8.3959386e-39
-0.1123743 -0.073903814 1.0630001 4.7203201e-39
-0.1100381 -0.073695242 1.0600001 3.6139726e-39
-0.10771334 -0.073486671 1.057 1.3191838e-39
-0.1057 -0.073486671 1.057 2.3333357e-39
-0.10339238 -0.073278099 1.054 1.1620574e-38
-0.10138477 -0.073278099 1.054 1.5400595e-38
-0.099000007 -0.072999999 1.0500001 1.5118266e-38
-0.097000003 -0.072999999 1.0500001 1.060068e-38
-0.095000006 -0.072999999 1.0500001 9.6834152e-39
-0.09300001 -0.072999999 1.0500001 1.1158545e-38
-0.091000006 -0.072999999 1.0500001 1.1800322e-38
-0.089000002 -0.072999999 1.0500001 1.2169104e-38
-0.087000005 -0.072999999 1.0500001 1.1247867e-38
-0.084757142 -0.072791435 1.0470001 1.0602497e-38
-0.08276286 -0.072791435 1.0470001 1.4657288e-38
-0.080768578 -0.072791435 1.0470001 2.0650004e-38
-0.078774288 -0.072791435 1.0470001 1.8442366e-38
-0.076779999 -0.072791435 1.0470001 1.3555997e-38
-0.075000003 -0.072999999 1.0500001 1.1540667e-38
-0.072999999 -0.072999999 1.0500001 1.2278232e-38
-0.071000002 -0.072999999 1.0500001 1.2644847e-38
-0.069000006 -0.072999999 1.0500001 1.2460455e-38
-0.067000002 -0.072999999 1.0500001 1.1908002e-38
-0.065247618 -0.073278099 1.054 1.1447024e-38
-0.063239999 -0.073278099 1.054 1.4571939e-38
-0.061406672 -0.073486671 1.057 1.8167568e-38
-0.059393335 -0.073486671 1.057 1.68754e-38
-0.057379998 -0.073486671 1.057 9.8685323e-39
-0.055523813 -0.073695242 1.0600001 1.3249543e-39
-0.053504765 -0.073695242 1.0600001 9.561718e-40
-0.051631432 -0.073903814 1.0630001 6.5635096e-39
-0.04960667 -0.073903814 1.0630001 1.1265487e-38
-0.047581907 -0.073903814 1.0630001 1.3279748e-38
-0.045728575 -0.074181899 1.067 1.1528031e-38
-0.043696191 -0.074181899 1.067 1.2995981e-38
-0.041663811 -0.074181899 1.067 1.5577459e-38
-0.03963143 -0.074181899 1.067 1.5668526e-38
-0.12330476 -0.07235238 1.0700001 1.70515e-38
-0.12126668 -0.07235238 1.0700001 1.4102694e-38
-0.11889429 -0.07214953 1.067 9.4929129e-39
-0.1168619 -0.07214953 1.067 9.316034e-39
-0.11482953 -0.07214953 1.067 1.0145795e-38
-0.1123743 -0.071879052 1.0630001 6.8336267e-39
-0.1100381 -0.071676195 1.0600001 4.0677578e-39
-0.10771334 -0.071473338 1.057 9.5074177e-40
-0.1057 -0.071473338 1.057 3.4400238e-39
-0.10339238 -0.071270473 1.054 1.1895022e-38
-0.10138477 -0.071270473 1.054 1.5859434e-38
-0.099000007 -0.071000002 1.0500001 1.4659831e-38
-0.097000003 -0.071000002 1.0500001 1.0142245e-38
-0.095000006 -0.071000002 1.0500001 9.681948e-39
-0.09300001 -0.071000002 1.0500001 1.1341469e-38
-0.091000006 -0.071000002 1.0500001 1.1800315e-38
-0.089000002 -0.071000002 1.0500001 1.2076902e-38
-0.087000005 -0.071000002 1.0500001 1.0789037e-38
-0.085000008 -0.071000002 1.0500001 1.0604646e-38
-0.083000004 -0.071000002 1.0500001 1.438213e-38
-0.081 -0.071000002 1.0500001 1.9821672e-38
-0.079000004 -0.071000002 1.0500001 1.7614413e-38
-0.077000007 -0.071000002 1.0500001 1.3373414e-38
-0.075000003 -0.071000002 1.0500001 1.1723961e-38
-0.072999999 -0.071000002 1.0500001 1.236933e-38
-0.071270473 -0.071270473 1.054 1.2644847e-38
-0.069262855 -0.071270473 1.054 1.236826e-38
-0.067255244 -0.071270473 1.054 1.153957e-38
-0.065247618 -0.071270473 1.054 1.2000548e-38
-0.063420005 -0.071473338 1.057 1.5767267e-38
-0.061406672 -0.071473338 1.057 1.7887767e-38
-0.059393335 -0.071473338 1.057 1.7245602e-38
-0.057542857 -0.071676195 1.0600001 1.3649973e-38
-0.055523813 -0.071676195 1.0600001 6.3856512e-39
-0.053656194 -0.071879052 1.0630001 2.9744129e-39
-0.051631432 -0.071879052 1.0630001 7.2992768e-39
-0.04960667 -0.071879052 1.0630001 1.144808e-38
-0.047581907 -0.071879052 1.0630001 1.3278669e-38
-0.045728575 -0.07214953 1.067 1.1711344e-38
-0.043696191 -0.07214953 1.067 1.4010824e-38
-0.042054288 -0.072825715 1.077 1.5485954e-38
-0.04000286 -0.072825715 1.077 1.5851839e-38
-0.12330476 -0.070314288 1.0700001 1.6683065e-38
-0.12126668 -0.070314288 1.0700001 1.4747698e-38
-0.11889429 -0.070117146 1.067 8.4783952e-39
-0.1168619 -0.070117146 1.067 8.2067913e-39
-0.11482953 -0.070117146 1.067 1.1894617e-38
-0.1123743 -0.069854289 1.0630001 8.6739702e-39
-0.11034954 -0.069854289 1.0630001 5.3549276e-39
-0.10801905 -0.069657147 1.0600001 6.1900454e-39
-0.1057 -0.069460005 1.057 1.2090566e-38
-0.10368667 -0.069460005 1.057 1.6134923e-38
-0.10138477 -0.069262855 1.054 1.7425662e-38
-0.099000007 -0.069000006 1.0500001 1.6870718e-38
-0.097000003 -0.069000006 1.0500001 1.4012654e-38
-0.095000006 -0.069000006 1.0500001 1.1064905e-38
-0.09300001 -0.069000006 1.0500001 1.0696122e-38
-0.091000006 -0.069000006 1.0500001 1.0695772e-38
-0.089000002 -0.069000006 1.0500001 1.0511381e-38
-0.087000005 -0.069000006 1.0500001 1.170882e-38
-0.085000008 -0.069000006 1.0500001 1.6502993e-38
-0.083000004 -0.069000006 1.0500001 1.8071037e-38
-0.081 -0.069000006 1.0500001 1.9730558e-38
-0.079000004 -0.069000006 1.0500001 1.8165789e-38
-0.077000007 -0.069000006 1.0500001 1.6598463e-38
-0.075000003 -0.069000006 1.0500001 1.3472441e-38
-0.072999999 -0.069000006 1.0500001 1.2734876e-38
-0.071270473 -0.069262855 1.054 1.2000563e-38
-0.069460005 -0.069460005 1.057 1.1631781e-38
-0.067446664 -0.069460005 1.057 1.3745781e-38
-0.065433331 -0.069460005 1.057 1.651165e-38
-0.063600004 -0.069657147 1.0600001 1.8255088e-38
-0.061580956 -0.069657147 1.0600001 1.6134588e-38
-0.059561908 -0.069657147 1.0600001 1.7150834e-38
-0.057542857 -0.069657147 1.0600001 1.8349377e-38
-0.055523813 -0.069657147 1.0600001 1.6322577e-38
-0.053656194 -0.069854289 1.0630001 1.2819143e-38
-0.051631432 -0.069854289 1.0630001 1.2544707e-38
-0.04960667 -0.069854289 1.0630001 1.2913489e-38
-0.047581907 -0.069854289 1.0630001 1.1344013e-38
-0.045728575 -0.070117146 1.067 1.0329861e-38
-0.043819048 -0.070314288 1.0700001 1.2811933e-38
-0.041898098 -0.070511431 1.0730001 1.5393411e-38
-0.039854288 -0.070511431 1.0730001 1.5759643e-38
-0.037810478 -0.070511431 1.0730001 1.5575252e-38
-0.035766669 -0.070511431 1.0730001 1.5666731e-38
-0.12330476 -0.068276189 1.0700001 1.6683434e-38
-0.12126668 -0.068276189 1.0700001 1.557673e-38
-0.11889429 -0.068084762 1.067 8.6620578e-39
-0.1168619 -0.068084762 1.067 7.2787044e-39
-0.11482953 -0.068084762 1.067 1.0597747e-38
-0.11279715 -0.068084762 1.067 1.1985772e-38
-0.11034954 -0.067829534 1.0630001 9.9574685e-39
-0.10801905 -0.067638099 1.0600001 9.5000903e-39
-0.1057 -0.067446664 1.057 1.5031828e-38
-0.10368667 -0.067446664 1.057 1.6410812e-38
-0.10167333 -0.067446664 1.057 1.5857639e-38
-0.09937714 -0.067255244 1.054 1.6410459e-38
-0.097369522 -0.067255244 1.054 1.5580699e-38
-0.095361911 -0.067255244 1.054 1.4104865e-38
-0.093620002 -0.067446664 1.057 1.0878018e-38
-0.091346666 -0.067255244 1.054 1.0420205e-38
-0.089339048 -0.067255244 1.054 1.1434357e-38
-0.087331429 -0.067255244 1.054 1.2907035e-38
-0.085323811 -0.067255244 1.054 1.8623164e-38
-0.083316192 -0.067255244 1.054 1.8626391e-38
-0.081308573 -0.067255244 1.054 1.7520044e-38
-0.079300947 -0.067255244 1.054 1.798135e-38
-0.077293336 -0.067255244 1.054 1.8257937e-38
-0.075285718 -0.067255244 1.054 1.5957763e-38
-0.073278099 -0.067255244 1.054 1.3468481e-38
-0.071473338 -0.067446664 1.057 1.1540654e-38
-0.069460005 -0.067446664 1.057 1.1540654e-38
-0.067446664 -0.067446664 1.057 1.5399557e-38
-0.065433331 -0.067446664 1.057 1.8349817e-38
-0.063600004 -0.067638099 1.0600001 1.8623164e-38
-0.061580956 -0.067638099 1.0600001 1.3183622e-38
-0.059561908 -0.067638099 1.0600001 1.4378847e-38
-0.057542857 -0.067638099 1.0600001 1.7974476e-38
-0.055523813 -0.067638099 1.0600001 1.8989053e-38
-0.053656194 -0.067829534 1.0630001 1.7606118e-38
-0.051631432 -0.067829534 1.0630001 1.3650361e-38
-0.04960667 -0.067829534 1.0630001 1.1068883e-38
-0.047581907 -0.067829534 1.0630001 1.106668e-38
-0.045857143 -0.068276189 1.0700001 1.0974485e-38
-0.043941908 -0.068467624 1.0730001 1.2811918e-38
-0.041898098 -0.068467624 1.0730001 1.5116808e-38
-0.039854288 -0.068467624 1.0730001 1.5667087e-38
-0.037810478 -0.068467624 1.0730001 1.5482696e-38
-0.035766669 -0.068467624 1.0730001 1.5390863e-38
-0.12330476 -0.066238098 1.0700001 1.6775617e-38
-0.12126668 -0.066238098 1.0700001 1.5762556e-38
-0.11922857 -0.066238098 1.0700001 8.2025146e-39
-0.11719048 -0.066238098 1.0700001 6.1756751e-39
-0.11482953 -0.066052385 1.067 7.189827e-39
-0.11279715 -0.066052385 1.067 8.8504301e-39
-0.11076476 -0.066052385 1.067 1.4382168e-38
-0.10801905 -0.065619051 1.0600001 1.4751638e-38
-0.106 -0.065619051 1.0600001 1.5581399e-38
-0.10368667 -0.065433331 1.057 1.3279418e-38
-0.10167333 -0.065433331 1.057 1.1804287e-38
-0.099660002 -0.065433331 1.057 1.2634048e-38
-0.097369522 -0.065247618 1.054 1.7059438e-38
-0.095361911 -0.065247618 1.054 1.6963295e-38
-0.093620002 -0.065433331 1.057 1.4013035e-38
-0.091606669 -0.065433331 1.057 1.3463024e-38
-0.089593336 -0.065433331 1.057 1.6228893e-38
-0.087580003 -0.065433331 1.057 1.8071397e-38
-0.085323811 -0.065247618 1.054 1.9454332e-38
-0.083316192 -0.065247618 1.054 1.6323671e-38
-0.081308573 -0.065247618 1.054 9.7777814e-39
-0.079300947 -0.065247618 1.054 1.1165363e-38
-0.077293336 -0.065247618 1.054 1.6789296e-38
-0.075285718 -0.065247618 1.054 1.807359e-38
-0.073278099 -0.065247618 1.054 1.7889199e-38
-0.071473338 -0.065433331 1.057 1.6877548e-38
-0.069460005 -0.065433331 1.057 1.6785353e-38
-0.067446664 -0.065433331 1.057 1.8071422e-38
-0.065433331 -0.065433331 1.057 1.7149466e-38
-0.063600004 -0.065619051 1.0600001 1.530304e-38
-0.061580956 -0.065619051 1.0600001 1.0140084e-38
-0.059561908 -0.065619051 1.0600001 1.004858e-38
-0.057542857 -0.065619051 1.0600001 1.3091035e-38
-0.055523813 -0.065619051 1.0600001 1.6039131e-38
-0.053656194 -0.065804772 1.0630001 1.815963e-38
-0.051631432 -0.065804772 1.0630001 1.5398102e-38
-0.04960667 -0.065804772 1.0630001 1.1157103e-38
-0.047581907 -0.065804772 1.0630001 1.014869e-38
-0.045985717 -0.066423811 1.0730001 1.0794059e-38
-0.043941908 -0.066423811 1.0730001 1.2996687e-38
-0.041898098 -0.066423811 1.0730001 1.4748404e-38
-0.039854288 -0.066423811 1.0730001 1.5391216e-38
-0.037810478 -0.066423811 1.0730001 1.5299021e-38
-0.12330476 -0.064200006 1.0700001 1.6590509e-38
-0.11922857 -0.064200006 1.0700001 8.3879848e-39
-0.11719048 -0.064200006 1.0700001 5.9919873e-39
-0.11482953 -0.06402 1.067 5.7154004e-39
-0.11279715 -0.06402 1.067 9.1237128e-39
-0.11076476 -0.06402 1.067 1.6130581e-38
-0.10832477 -0.063780002 1.0630001 1.5580696e-38
-0.106 -0.063600004 1.0600001 1.4382153e-38
-0.10398096 -0.063600004 1.0600001 1.1441243e-38
-0.10167333 -0.063420005 1.057 9.9661132e-39
-0.099660002 -0.063420005 1.057 1.1071379e-38
-0.097646669 -0.063420005 1.057 1.5035791e-38
-0.095633335 -0.063420005 1.057 1.7517167e-38
-0.093620002 -0.063420005 1.057 1.576545e-38
-0.091606669 -0.063420005 1.057 1.5209755e-38
-0.089593336 -0.063420005 1.057 1.8713189e-38
-0.087580003 -0.063420005 1.057 1.8442e-38
-0.08556667 -0.063420005 1.057 1.7427848e-38
-0.083553337 -0.063420005 1.057 1.2828143e-38
-0.081308573 -0.063239999 1.054 6.190058e-39
-0.079300947 -0.063239999 1.054 6.1071726e-39
-0.077293336 -0.063239999 1.054 1.1362324e-38
-0.075285718 -0.063239999 1.054 1.8255428e-38
-0.073486671 -0.063420005 1.057 1.9361776e-38
