# .PCD v0.7 - Point Cloud Data file format
VERSION 0.7
FIELDS x y z rgb
SIZE 4 4 4 4
TYPE F F F F
COUNT 1 1 1 1
WIDTH 964
HEIGHT 1
VIEWPOINT 0 0 0 1 0 0 0
POINTS 964
DATA ascii
0.11241429 -0.0305 0.91500002 7.931666e-39
0.11415715 -0.0305 0.91500002 8.5770354e-39
0.11628 -0.0306 0.91800004 8.3908561e-39
0.11828572 -0.030666668 0.92000002 1.0511356e-38
0.12042952 -0.030766666 0.92300004 9.8692232e-39
0.12245239 -0.030833337 0.92500007 9.3160494e-39
0.12421428 -0.030833337 0.92500007 1.1156365e-38
0.12638476 -0.030933332 0.92800003 1.336906e-38
0.12815237 -0.030933332 0.92800003 1.3918248e-38
0.049238101 -0.02954286 0.94000006 4.799195e-39
0.050919998 -0.029480001 0.93800002 4.6238015e-39
0.052538101 -0.029385716 0.93500006 1.09853e-38
0.054028574 -0.029228574 0.93000007 1.3002073e-38
0.055679999 -0.029165715 0.92800003 8.5766823e-39
0.057261907 -0.02907143 0.92500007 8.3008311e-39
0.059023816 -0.02907143 0.92500007 9.8681568e-39
0.06065429 -0.029008573 0.92300004 1.0050377e-38
0.062412385 -0.029008573 0.92300004 9.5893993e-39
0.063961908 -0.028914286 0.92000002 1.0142951e-38
0.065571435 -0.028851429 0.91800004 1.6781037e-38
0.067320004 -0.028851429 0.91800004 1.7887034e-38
0.068842858 -0.028757144 0.91500002 1.8624599e-38
0.07058572 -0.028757144 0.91500002 1.6876832e-38
0.072170481 -0.028694287 0.91300005 1.4571942e-38
0.073909529 -0.028694287 0.91300005 1.2643386e-38
0.075648576 -0.028694287 0.91300005 1.2366799e-38
0.077387623 -0.028694287 0.91300005 1.2000197e-38
0.079126671 -0.028694287 0.91300005 1.2000197e-38
0.080600001 -0.0286 0.91000003 1.3931942e-38
0.082333334 -0.0286 0.91000003 1.4946094e-38
0.084066667 -0.0286 0.91000003 1.8165391e-38
0.085611433 -0.028537145 0.90800005 1.9087347e-38
0.087340958 -0.028537145 0.90800005 1.8901511e-38
0.089070477 -0.028537145 0.90800005 1.9270294e-38
0.090800002 -0.028537145 0.90800005 1.7151274e-38
0.092529528 -0.028537145 0.90800005 1.3279057e-38
0.094259053 -0.028537145 0.90800005 8.1294158e-39
0.095988572 -0.028537145 0.90800005 6.3776989e-39
0.097933337 -0.0286 0.91000003 2.9823022e-39
0.09966667 -0.0286 0.91000003 2.9823022e-39
0.10173429 -0.028694287 0.91300005 5.5529577e-39
0.10347334 -0.028694287 0.91300005 5.7373489e-39
0.10544286 -0.028757144 0.91500002 1.3832141e-38
0.10718572 -0.028757144 0.91500002 1.7796554e-38
0.10892857 -0.028757144 0.91500002 1.6132405e-38
0.11067143 -0.028757144 0.91500002 8.8489504e-39
0.11241429 -0.028757144 0.91500002 8.0228022e-39
0.11453143 -0.028851429 0.91800004 8.6681717e-39
0.11628 -0.028851429 0.91800004 8.4837832e-39
0.11828572 -0.028914286 0.92000002 1.1249652e-38
0.12042952 -0.029008573 0.92300004 1.180388e-38
0.12245239 -0.02907143 0.92500007 1.1435097e-38
0.12461715 -0.029165715 0.92800003 1.1985404e-38
0.12665714 -0.029228574 0.93000007 1.3460534e-38
0.12842858 -0.029228574 0.93000007 1.3918248e-38
0.047599047 -0.027840951 0.94300002 1.1713852e-38
0.049238101 -0.027752383 0.94000006 5.2601577e-39
0.050919998 -0.027693333 0.93800002 5.4502999e-39
0.052538101 -0.027604764 0.93500006 1.1719603e-38
0.054028574 -0.027457144 0.93000007 1.281736e-38
0.055679999 -0.027398096 0.92800003 8.3919701e-39
0.057261907 -0.027309526 0.92500007 8.4834049e-39
0.059023816 -0.027309526 0.92500007 1.0327317e-38
0.060785718 -0.027309526 0.92500007 9.7759584e-39
0.062412385 -0.027250476 0.92300004 9.1305889e-39
0.063961908 -0.027161906 0.92000002 7.9370484e-39
0.065571435 -0.02710286 0.91800004 1.5128308e-38
0.067320004 -0.02710286 0.91800004 1.7336013e-38
0.068842858 -0.027014285 0.91500002 1.7520404e-38
0.07058572 -0.027014285 0.91500002 1.5680444e-38
0.072328568 -0.027014285 0.91500002 1.2453597e-38
0.073909529 -0.026955239 0.91300005 1.1081105e-38
0.075648576 -0.026955239 0.91300005 1.181867e-38
0.077387623 -0.026955239 0.91300005 1.2277851e-38
0.079126671 -0.026955239 0.91300005 1.2093459e-38
0.080865718 -0.026955239 0.91300005 1.1541718e-38
0.082604766 -0.026955239 0.91300005 1.1172935e-38
0.084066667 -0.026866667 0.91000003 1.4666996e-38
0.0858 -0.026866667 0.91000003 1.7986039e-38
0.087340958 -0.026807619 0.90800005 1.9454357e-38
0.089070477 -0.026807619 0.90800005 1.917777e-38
0.090800002 -0.026807619 0.90800005 1.5405665e-38
0.092529528 -0.026807619 0.90800005 7.9378191e-39
0.094259053 -0.026807619 0.90800005 4.1757839e-39
0.096200004 -0.026866667 0.91000003 4.4523708e-39
0.097933337 -0.026866667 0.91000003 4.0871981e-39
0.099995241 -0.026955239 0.91300005 4.4559806e-39
0.10173429 -0.026955239 0.91300005 2.7975284e-39
0.1037 -0.027014285 0.91500002 1.2302027e-39
0.10544286 -0.027014285 0.91500002 9.1366804e-39
0.10718572 -0.027014285 0.91500002 1.5959157e-38
0.10892857 -0.027014285 0.91500002 1.5212992e-38
0.11067143 -0.027014285 0.91500002 8.4827112e-39
0.11278286 -0.02710286 0.91800004 7.7476545e-39
0.11453143 -0.02710286 0.91800004 8.116437e-39
0.11628 -0.02710286 0.91800004 7.8398501e-39
0.11828572 -0.027161906 0.92000002 1.1066697e-38
0.12069048 -0.027309526 0.92500007 1.2263428e-38
0.12245239 -0.027309526 0.92500007 1.1894646e-38
0.12461715 -0.027398096 0.92800003 1.2261984e-38
0.12638476 -0.027398096 0.92800003 1.3460527e-38
0.047599047 -0.026044762 0.94300002 1.2357414e-38
0.049238101 -0.025961906 0.94000006 9.0383709e-39
0.051028572 -0.025961906 0.94000006 9.6855886e-39
0.052538101 -0.025823811 0.93500006 1.4387566e-38
0.054202858 -0.025768572 0.93300003 1.521297e-38
0.055800002 -0.025685715 0.93000007 1.0695384e-38
0.057447623 -0.025630476 0.92800003 9.3146004e-39
0.059023816 -0.025547622 0.92500007 9.7755786e-39
0.060785718 -0.025547622 0.92500007 9.6837655e-39
0.062412385 -0.025492381 0.92300004 9.4993743e-39
0.06417048 -0.025492381 0.92300004 8.3040681e-39
0.065714285 -0.025409523 0.92000002 1.3651415e-38
0.067320004 -0.025354287 0.91800004 1.6783513e-38
0.069068573 -0.025354287 0.91800004 1.6967904e-38
0.07058572 -0.025271429 0.91500002 1.4853535e-38
0.072328568 -0.025271429 0.91500002 1.2179862e-38
0.07407143 -0.025271429 0.91500002 1.1357339e-38
0.075814284 -0.025271429 0.91500002 1.1910513e-38
0.077557147 -0.025271429 0.91500002 1.2094181e-38
0.079126671 -0.025216192 0.91300005 1.2186377e-38
0.080865718 -0.025216192 0.91300005 1.2001985e-38
0.082604766 -0.025216192 0.91300005 1.1356616e-38
0.084343813 -0.025216192 0.91300005 1.2733427e-38
0.0858 -0.025133334 0.91000003 1.5960274e-38
0.087533332 -0.025133334 0.91000003 1.7612602e-38
0.089266665 -0.025133334 0.91000003 1.5215516e-38
0.091000006 -0.025133334 0.91000003 1.09853e-38
0.092733338 -0.025133334 0.91000003 5.8223447e-39
0.094466671 -0.025133334 0.91000003 2.3401656e-39
0.096200004 -0.025133334 0.91000003 3.3543176e-39
0.098256193 -0.025216192 0.91300005 5.0981158e-39
0.099995241 -0.025216192 0.91300005 5.0059202e-39
0.10195714 -0.025271429 0.91500002 2.7064342e-39
0.1037 -0.025271429 0.91500002 1.4156954e-39
0.10544286 -0.025271429 0.91500002 9.8713966e-39
0.10718572 -0.025271429 0.91500002 1.6140699e-38
0.10892857 -0.025271429 0.91500002 1.530301e-38
0.11103429 -0.025354287 0.91800004 8.6649249e-39
0.11278286 -0.025354287 0.91800004 7.2884896e-39
0.11453143 -0.025354287 0.91800004 8.1182503e-39
0.11653333 -0.025409523 0.92000002 8.7618246e-39
0.11828572 -0.025409523 0.92000002 1.0790128e-38
0.12069048 -0.025547622 0.92500007 1.1618763e-38
0.12245239 -0.025547622 0.92500007 1.2171936e-38
0.12461715 -0.025630476 0.92800003 1.2905548e-38
0.12638476 -0.025630476 0.92800003 1.3643113e-38
0.047599047 -0.024248572 0.94300002 1.3092821e-38
0.049238101 -0.024171429 0.94000006 1.1248908e-38
0.051028572 -0.024171429 0.94000006 1.1618788e-38
0.052538101 -0.024042858 0.93500006 1.4753439e-38
0.054202858 -0.023991428 0.93300003 1.4938191e-38
0.055800002 -0.023914289 0.93000007 1.2909887e-38
0.057447623 -0.023862859 0.92800003 9.5001254e-39
0.059023816 -0.023785716 0.92500007 8.854756e-39
0.060785718 -0.023785716 0.92500007 9.1312924e-39
0.062547624 -0.023785716 0.92500007 9.0390968e-39
0.06417048 -0.023734286 0.92300004 8.2122284e-39
0.065928578 -0.023734286 0.92300004 1.429714e-38
0.067466669 -0.023657143 0.92000002 1.5493532e-38
0.069068573 -0.023605715 0.91800004 1.6046706e-38
0.070817143 -0.023605715 0.91800004 1.319656e-38
0.072328568 -0.02352857 0.91500002 1.1813626e-38
0.07407143 -0.02352857 0.91500002 1.1449891e-38
0.075814284 -0.02352857 0.91500002 1.1910869e-38
0.077557147 -0.02352857 0.91500002 1.2002346e-38
0.079126671 -0.023477143 0.91300005 1.2094541e-38
0.080865718 -0.023477143 0.91300005 1.218674e-38
0.082604766 -0.023477143 0.91300005 1.1449175e-38
0.084343813 -0.023477143 0.91300005 1.1631032e-38
0.086082861 -0.023477143 0.91300005 1.5042271e-38
0.087533332 -0.023400001 0.91000003 1.6419116e-38
0.089266665 -0.023400001 0.91000003 1.3929834e-38
0.091000006 -0.023400001 0.91000003 8.1351486e-39
0.092733338 -0.023400001 0.91000003 4.6317146e-39
0.094466671 -0.023400001 0.91000003 3.5351061e-39
0.096517146 -0.023477143 0.91300005 4.549258e-39
0.098256193 -0.023477143 0.91300005 5.3743369e-39
0.10021429 -0.02352857 0.91500002 4.8211632e-39
0.10195714 -0.02352857 0.91500002 2.1546954e-39
0.1037 -0.02352857 0.91500002 1.2327391e-39
0.10544286 -0.02352857 0.91500002 1.0240549e-38
0.10753714 -0.023605715 0.91800004 1.5772287e-38
0.10928572 -0.023605715 0.91800004 1.4200278e-38
0.11103429 -0.023605715 0.91800004 7.7465839e-39
0.11278286 -0.023605715 0.91800004 7.3795586e-39
0.11478096 -0.023657143 0.92000002 9.1312756e-39
0.11653333 -0.023657143 0.92000002 1.0879435e-38
0.11828572 -0.023657143 0.92000002 9.9574783e-39
0.12069048 -0.023785716 0.92500007 1.0052461e-38
0.12245239 -0.023785716 0.92500007 1.2357352e-38
0.12461715 -0.023862859 0.92800003 1.2905558e-38
0.12638476 -0.023862859 0.92800003 1.3458732e-38
0.047599047 -0.022452381 0.94300002 1.3550925e-38
0.049238101 -0.022380954 0.94000006 1.2444577e-38
0.051028572 -0.022380954 0.94000006 1.1435482e-38
0.05270667 -0.022333333 0.93800002 1.1896461e-38
0.05431905 -0.022261906 0.93500006 1.3279723e-38
0.055980001 -0.022214286 0.93300003 1.4662657e-38
0.057571433 -0.022142859 0.93000007 1.1987978e-38
0.05921524 -0.022095239 0.92800003 8.4845441e-39
0.060785718 -0.022023812 0.92500007 7.7494622e-39
0.062547624 -0.022023812 0.92500007 9.1323966e-39
0.06417048 -0.021976192 0.92300004 1.0602876e-38
0.065928578 -0.021976192 0.92300004 1.7517548e-38
0.067466669 -0.021904761 0.92000002 1.8440195e-38
0.069068573 -0.021857142 0.91800004 1.8255804e-38
0.070817143 -0.021857142 0.91800004 1.5958454e-38
0.072328568 -0.021785714 0.91500002 1.3008193e-38
0.07407143 -0.021785714 0.91500002 1.1449175e-38
0.075814284 -0.021785714 0.91500002 1.2094544e-38
0.077557147 -0.021785714 0.91500002 1.2001985e-38
0.079300001 -0.021785714 0.91500002 1.190979e-38
0.081042856 -0.021785714 0.91500002 1.19098e-38
0.082785718 -0.021785714 0.91500002 1.1448821e-38
0.084343813 -0.021738095 0.91300005 1.2459714e-38
0.086082861 -0.021738095 0.91300005 1.5686561e-38
0.087821908 -0.021738095 0.91300005 1.7246346e-38
0.089560956 -0.021738095 0.91300005 1.5586825e-38
0.091300003 -0.021738095 0.91300005 1.0159878e-38
0.093039051 -0.021738095 0.91300005 4.9969224e-39
0.094778098 -0.021738095 0.91300005 1.4214463e-39
0.096517146 -0.021738095 0.91300005 2.7121852e-39
0.098256193 -0.021738095 0.91300005 3.7180652e-39
0.10021429 -0.021785714 0.91500002 2.7961089e-39
0.10195714 -0.021785714 0.91500002 4.9101092e-39
0.1037 -0.021785714 0.91500002 8.5057387e-39
0.10578857 -0.021857142 0.91800004 1.4662692e-38
0.10753714 -0.021857142 0.91800004 1.7151974e-38
0.10928572 -0.021857142 0.91800004 1.6503693e-38
0.11103429 -0.021857142 0.91800004 1.0510977e-38
0.11278286 -0.021857142 0.91800004 9.8684735e-39
0.11478096 -0.021904761 0.92000002 1.2173364e-38
0.11653333 -0.021904761 0.92000002 1.1622372e-38
0.11867143 -0.021976192 0.92300004 5.6296563e-39
0.12069048 -0.022023812 0.92500007 5.9101837e-39
0.12245239 -0.022023812 0.92500007 1.0888748e-38
0.12461715 -0.022095239 0.92800003 1.3182145e-38
0.12638476 -0.022095239 0.92800003 1.3643123e-38
0.047447622 -0.020590477 0.94000006 1.3918268e-38
0.049238101 -0.020590477 0.94000006 1.3365094e-38
0.050919998 -0.020546667 0.93800002 1.1437262e-38
0.052538101 -0.020480953 0.93500006 9.8699364e-39
0.05431905 -0.020480953 0.93500006 1.0884444e-38
0.055980001 -0.020437144 0.93300003 1.4111291e-38
0.057571433 -0.02037143 0.93000007 1.4199572e-38
0.05921524 -0.020327618 0.92800003 8.8522252e-39
0.060982861 -0.020327618 0.92800003 8.3915623e-39
0.062547624 -0.020261906 0.92500007 1.1341823e-38
0.064309523 -0.020261906 0.92500007 1.4747351e-38
0.065928578 -0.020218095 0.92300004 1.8711763e-38
0.067466669 -0.020152381 0.92000002 1.880753e-38
0.069068573 -0.020108571 0.91800004 1.8346552e-38
0.070817143 -0.020108571 0.91800004 1.6235066e-38
0.072565712 -0.020108571 0.91800004 1.4298957e-38
0.07407143 -0.020042857 0.91500002 1.080563e-38
0.075814284 -0.020042857 0.91500002 1.1358803e-38
0.077557147 -0.020042857 0.91500002 1.2001264e-38
0.079300001 -0.020042857 0.91500002 1.1816872e-38
0.081042856 -0.020042857 0.91500002 1.1081471e-38
0.082785718 -0.020042857 0.91500002 1.1265862e-38
0.084343813 -0.019999048 0.91300005 1.3102948e-38
0.086082861 -0.019999048 0.91300005 1.6053208e-38
0.087821908 -0.019999048 0.91300005 1.8626744e-38
0.089560956 -0.019999048 0.91300005 1.7889179e-38
0.091300003 -0.019999048 0.91300005 1.2462633e-38
0.093039051 -0.019999048 0.91300005 6.3777213e-39
0.094778098 -0.019999048 0.91300005 1.3278256e-39
0.096517146 -0.019999048 0.91300005 2.0653906e-39
0.098256193 -0.019999048 0.91300005 1.8788091e-39
0.10021429 -0.020042857 0.91500002 1.5100266e-39
0.10229144 -0.020108571 0.91800004 6.5638852e-39
0.10404 -0.020108571 0.91800004 1.1634645e-38
0.10578857 -0.020108571 0.91800004 1.5675055e-38
0.10753714 -0.020108571 0.91800004 1.6136033e-38
0.10952381 -0.020152381 0.92000002 1.631968e-38
0.11127619 -0.020152381 0.92000002 1.2724051e-38
0.11302857 -0.020152381 0.92000002 1.1890337e-38
0.11515524 -0.020218095 0.92300004 1.3457663e-38
0.11691333 -0.020218095 0.92300004 1.1897893e-38
0.11892857 -0.020261906 0.92500007 4.3378511e-39
0.12069048 -0.020261906 0.92500007 3.8850776e-39
0.12284952 -0.020327618 0.92800003 1.0523163e-38
0.12461715 -0.020327618 0.92800003 1.3089949e-38
0.12638476 -0.020327618 0.92800003 1.3550927e-38
0.047346666 -0.018759999 0.93800002 1.4195571e-38
0.049133334 -0.018759999 0.93800002 1.3089223e-38
0.050919998 -0.018759999 0.93800002 1.0147242e-38
0.052538101 -0.018700002 0.93500006 9.4096771e-39
0.054202858 -0.01866 0.93300003 9.5976838e-39
0.055980001 -0.01866 0.93300003 1.2271357e-38
0.057571433 -0.0186 0.93000007 1.3464159e-38
0.05921524 -0.01856 0.92800003 1.2726594e-38
0.060982861 -0.01856 0.92800003 1.4476091e-38
0.062750474 -0.01856 0.92800003 1.7795134e-38
0.064309523 -0.0185 0.92500007 1.816182e-38
0.066071436 -0.0185 0.92500007 1.7516451e-38
0.067686662 -0.018460002 0.92300004 1.4665194e-38
0.069219045 -0.0184 0.92000002 1.3835433e-38
0.070817143 -0.018360002 0.91800004 1.475781e-38
0.072565712 -0.018360002 0.91800004 1.7062701e-38
0.07407143 -0.018300001 0.91500002 1.4576639e-38
0.075814284 -0.018300001 0.91500002 1.2548335e-38
0.077557147 -0.018300001 0.91500002 1.1265143e-38
0.079300001 -0.018300001 0.91500002 1.1265143e-38
0.081042856 -0.018300001 0.91500002 1.2644115e-38
0.082785718 -0.018300001 0.91500002 1.5133397e-38
0.084528573 -0.018300001 0.91500002 1.742964e-38
0.086271428 -0.018300001 0.91500002 1.7614032e-38
0.088014282 -0.018300001 0.91500002 1.7979918e-38
0.089560956 -0.01826 0.91300005 1.8809678e-38
0.091300003 -0.01826 0.91300005 1.7245627e-38
0.093039051 -0.01826 0.91300005 1.4940737e-38
0.094778098 -0.01826 0.91300005 8.0426432e-39
0.096517146 -0.01826 0.91300005 3.9860355e-39
0.098471433 -0.018300001 0.91500002 1.6940675e-39
0.10021429 -0.018300001 0.91500002 5.6584796e-39
0.10229144 -0.018360002 0.91800004 1.3375917e-38
0.10404 -0.018360002 0.91800004 1.5865199e-38
0.10601905 -0.0184 0.92000002 1.4847096e-38
0.10777143 -0.0184 0.92000002 1.2726597e-38
0.10988096 -0.018460002 0.92300004 1.3188992e-38
0.11163905 -0.018460002 0.92300004 1.4848513e-38
0.11339714 -0.018460002 0.92300004 1.5213683e-38
0.11515524 -0.018460002 0.92300004 1.3185379e-38
0.11691333 -0.018460002 0.92300004 9.9653691e-39
0.11892857 -0.0185 0.92500007 3.7882619e-39
0.1210819 -0.01856 0.92800003 4.8964423e-39
0.12284952 -0.01856 0.92800003 1.0520376e-38
0.12488572 -0.0186 0.93000007 1.3366889e-38
0.12665714 -0.0186 0.93000007 1.3366889e-38
0.047346666 -0.016973333 0.93800002 1.4195578e-38
0.049133334 -0.016973333 0.93800002 1.3181426e-38
0.050919998 -0.016973333 0.93800002 8.7661028e-39
0.052538101 -0.016919049 0.93500006 9.0426897e-39
0.054202858 -0.016882857 0.93300003 8.218722e-39
0.055980001 -0.016882857 0.93300003 9.6938521e-39
0.057571433 -0.016828572 0.93000007 1.3096083e-38
0.05921524 -0.016792381 0.92800003 1.4571213e-38
0.060982861 -0.016792381 0.92800003 1.6039516e-38
0.062750474 -0.016792381 0.92800003 1.8805385e-38
0.064309523 -0.016738096 0.92500007 1.7980293e-38
0.066071436 -0.016738096 0.92500007 1.4753446e-38
0.067686662 -0.016701905 0.92300004 9.6048682e-39
0.069219045 -0.016647618 0.92000002 9.2360857e-39
0.070817143 -0.016611429 0.91800004 1.4939973e-38
0.072565712 -0.016611429 0.91800004 1.816682e-38
0.07407143 -0.016557142 0.91500002 1.7245265e-38
0.075814284 -0.016557142 0.91500002 1.3741831e-38
0.077557147 -0.016557142 0.91500002 1.1264408e-38
0.079300001 -0.016557142 0.91500002 1.163319e-38
0.081042856 -0.016557142 0.91500002 1.4206411e-38
0.082785718 -0.016557142 0.91500002 1.697228e-38
0.084528573 -0.016557142 0.91500002 1.9453628e-38
0.086271428 -0.016557142 0.91500002 1.6595564e-38
0.088014282 -0.016557142 0.91500002 1.5763247e-38
0.089757144 -0.016557142 0.91500002 1.7699355e-38
0.091500007 -0.016557142 0.91500002 1.8808615e-38
0.093242854 -0.016557142 0.91500002 1.7794463e-38
0.094985716 -0.016557142 0.91500002 1.2920374e-38
0.096728571 -0.016557142 0.91500002 5.3603324e-39
0.098471433 -0.016557142 0.91500002 4.6324209e-39
0.10054287 -0.016611429 0.91800004 9.7953761e-39
0.10229144 -0.016611429 0.91800004 1.6318626e-38
0.10426667 -0.016647618 0.92000002 1.6318626e-38
0.10601905 -0.016647618 0.92000002 1.4019487e-38
0.10812286 -0.016701905 0.92300004 1.0884835e-38
0.10988096 -0.016701905 0.92300004 1.1625269e-38
0.11163905 -0.016701905 0.92300004 1.3930159e-38
0.11339714 -0.016701905 0.92300004 1.5306272e-38
0.11540477 -0.016738096 0.92500007 1.134186e-38
0.11716668 -0.016738096 0.92500007 7.9377743e-39
0.11931429 -0.016792381 0.92800003 3.9733622e-39
0.1210819 -0.016792381 0.92800003 5.9087894e-39
0.12311429 -0.016828572 0.93000007 1.1440527e-38
0.12488572 -0.016828572 0.93000007 1.3642041e-38
0.12665714 -0.016828572 0.93000007 1.3549846e-38
0.047447622 -0.015219049 0.94000006 1.4379256e-38
0.049238101 -0.015219049 0.94000006 1.3733887e-38
0.050919998 -0.015186667 0.93800002 1.0238737e-38
0.052538101 -0.015138096 0.93500006 9.6855634e-39
0.05431905 -0.015138096 0.93500006 8.4953145e-39
0.055980001 -0.015105714 0.93300003 8.6797057e-39
0.057757143 -0.015105714 0.93300003 1.1161066e-38
0.059342861 -0.015057144 0.93000007 1.5586456e-38
0.060982861 -0.015024763 0.92800003 1.7148737e-38
0.062750474 -0.015024763 0.92800003 1.6872151e-38
0.064309523 -0.014976191 0.92500007 1.2362846e-38
0.066071436 -0.014976191 0.92500007 7.476478e-39
0.067686662 -0.01494381 0.92300004 3.9939136e-39
0.069219045 -0.014895238 0.92000002 3.5329355e-39
0.070971429 -0.014895238 0.92000002 9.1427802e-39
0.072565712 -0.014862858 0.91800004 1.4397931e-38
0.074314289 -0.014862858 0.91800004 1.6783214e-38
0.076062858 -0.014862858 0.91800004 1.7244193e-38
0.077557147 -0.014814286 0.91500002 1.6509467e-38
0.079300001 -0.014814286 0.91500002 1.7154836e-38
0.081042856 -0.014814286 0.91500002 1.8257258e-38
0.082785718 -0.014814286 0.91500002 1.8533845e-38
0.084528573 -0.014814286 0.91500002 1.7056898e-38
0.086271428 -0.014814286 0.91500002 1.1340769e-38
0.088302858 -0.014862858 0.91800004 1.0697515e-38
0.089757144 -0.014814286 0.91500002 1.1896058e-38
0.091500007 -0.014814286 0.91500002 1.5120771e-38
0.093242854 -0.014814286 0.91500002 1.8716401e-38
0.094985716 -0.014814286 0.91500002 1.7151652e-38
0.097045712 -0.014862858 0.91800004 1.4846761e-38
0.098794289 -0.014862858 0.91800004 1.5035053e-38
0.10054287 -0.014862858 0.91800004 1.6510183e-38
0.10251428 -0.014895238 0.92000002 1.5769772e-38
0.10426667 -0.014895238 0.92000002 1.2819511e-38
0.10601905 -0.014895238 0.92000002 9.7853344e-39
0.10812286 -0.01494381 0.92300004 9.5087475e-39
0.10988096 -0.01494381 0.92300004 1.116395e-38
0.11163905 -0.01494381 0.92300004 1.2823471e-38
0.11364286 -0.014976191 0.92500007 1.3648541e-38
0.11540477 -0.014976191 0.92500007 9.4997372e-39
0.11716668 -0.014976191 0.92500007 4.2568238e-39
0.11931429 -0.015024763 0.92800003 2.966085e-39
0.1210819 -0.015024763 0.92800003 7.474313e-39
0.12311429 -0.015057144 0.93000007 1.2084095e-38
0.12488572 -0.015057144 0.93000007 1.3642041e-38
0.12665714 -0.015057144 0.93000007 1.3549846e-38
0.047447622 -0.013428572 0.94000006 1.4195218e-38
0.049238101 -0.013428572 0.94000006 1.3918631e-38
0.050919998 -0.013400001 0.93800002 1.0882659e-38
0.05270667 -0.013400001 0.93800002 1.0329485e-38
0.05431905 -0.013357143 0.93500006 8.5875073e-39
0.056100003 -0.013357143 0.93500006 8.5875073e-39
0.057757143 -0.013328572 0.93300003 9.4161764e-39
0.059342861 -0.013285715 0.93000007 1.4118153e-38
0.061114289 -0.013285715 0.93000007 1.6322965e-38
0.062750474 -0.013257143 0.92800003 1.3925879e-38
0.064518094 -0.013257143 0.92800003 7.581965e-39
0.066071436 -0.013214286 0.92500007 4.4473135e-39
0.067833342 -0.013214286 0.92500007 2.0650151e-39
0.069444761 -0.013185714 0.92300004 2.5259932e-39
0.070971429 -0.013142857 0.92000002 4.6381662e-39
0.072723806 -0.013142857 0.92000002 8.7869695e-39
0.074314289 -0.013114286 0.91800004 1.5862652e-38
0.076062858 -0.013114286 0.91800004 1.7983152e-38
0.077811427 -0.013114286 0.91800004 1.8532028e-38
0.079560004 -0.013114286 0.91800004 1.8993006e-38
0.081308573 -0.013114286 0.91800004 1.9729499e-38
0.08305715 -0.013114286 0.91800004 1.7424608e-38
0.08480572 -0.013114286 0.91800004 1.4383948e-38
0.086554289 -0.013114286 0.91800004 1.0603927e-38
0.088302858 -0.013114286 0.91800004 9.133456e-39
0.090051427 -0.013114286 0.91800004 9.3178473e-39
0.091800004 -0.013114286 0.91800004 1.2812983e-38
0.093548574 -0.013114286 0.91800004 1.6408612e-38
0.095297143 -0.013114286 0.91800004 1.8529874e-38
0.097045712 -0.013114286 0.91800004 1.8345483e-38
0.098794289 -0.013114286 0.91800004 1.7150905e-38
0.10054287 -0.013114286 0.91800004 1.705871e-38
0.10251428 -0.013142857 0.92000002 1.4482983e-38
0.10426667 -0.013142857 0.92000002 1.0518571e-38
0.10636476 -0.013185714 0.92300004 8.9595268e-39
0.10835715 -0.013214286 0.92500007 9.420505e-39
0.11011905 -0.013214286 0.92500007 1.098206e-38
0.11188096 -0.013214286 0.92500007 1.2364995e-38
0.11364286 -0.013214286 0.92500007 1.2913502e-38
0.11540477 -0.013214286 0.92500007 8.5803074e-39
0.11716668 -0.013214286 0.92500007 2.5122591e-39
0.11931429 -0.013257143 0.92800003 2.788846e-39
0.1210819 -0.013257143 0.92800003 8.3955406e-39
0.12311429 -0.013285715 0.93000007 1.2359953e-38
0.12528858 -0.013328572 0.93300003 1.3642757e-38
0.12706572 -0.013328572 0.93300003 1.3273975e-38
0.047599047 -0.011675238 0.94300002 1.401154e-38
0.049395241 -0.011675238 0.94300002 1.3734953e-38
0.050919998 -0.011613334 0.93800002 1.1343634e-38
0.05270667 -0.011613334 0.93800002 1.1159243e-38
0.054493334 -0.011613334 0.93800002 9.139965e-39
0.056100003 -0.011576191 0.93500006 8.9555738e-39
0.057880957 -0.011576191 0.93500006 9.4158232e-39
0.059534285 -0.01155143 0.93300003 1.3564627e-38
0.061114289 -0.011514287 0.93000007 1.4666674e-38
0.062750474 -0.011489524 0.92800003 1.0610066e-38
0.064518094 -0.011489524 0.92800003 3.532595e-39
0.066071436 -0.011452381 0.92500007 3.9013775e-39
0.067833342 -0.011452381 0.92500007 4.823331e-39
0.069444761 -0.011427619 0.92300004 5.3765048e-39
0.071202859 -0.011427619 0.92300004 5.9260786e-39
0.072723806 -0.011390476 0.92000002 5.2807092e-39
0.074314289 -0.011365715 0.91800004 9.0509588e-39
0.076062858 -0.011365715 0.91800004 1.5412457e-38
0.077811427 -0.011365715 0.91800004 1.8717511e-38
0.079560004 -0.011365715 0.91800004 1.8533119e-38
0.081308573 -0.011365715 0.91800004 1.6779945e-38
0.08305715 -0.011365715 0.91800004 1.1340403e-38
0.08480572 -0.011365715 0.91800004 1.0697194e-38
0.086554289 -0.011365715 0.91800004 1.1250368e-38
0.088302858 -0.011365715 0.91800004 1.0973804e-38
0.090051427 -0.011365715 0.91800004 1.0512826e-38
0.091800004 -0.011365715 0.91800004 1.0786873e-38
0.093548574 -0.011365715 0.91800004 1.1247851e-38
0.095297143 -0.011365715 0.91800004 1.4382483e-38
0.097045712 -0.011365715 0.91800004 1.8992265e-38
0.099009521 -0.011390476 0.92000002 1.807141e-38
0.10076191 -0.011390476 0.92000002 1.4844563e-38
0.10284857 -0.011427619 0.92300004 1.1628136e-38
0.10460667 -0.011427619 0.92300004 1.006081e-38
0.10659525 -0.011452381 0.92500007 9.328322e-39
0.10835715 -0.011452381 0.92500007 9.2361263e-39
0.11011905 -0.011452381 0.92500007 1.0888783e-38
0.11188096 -0.011452381 0.92500007 1.2456108e-38
0.11364286 -0.011452381 0.92500007 1.3006051e-38
0.11540477 -0.011452381 0.92500007 8.4884649e-39
0.11754667 -0.011489524 0.92800003 4.9025436e-39
0.11931429 -0.011489524 0.92800003 5.6401086e-39
0.12134287 -0.011514287 0.93000007 9.4075262e-39
0.12351143 -0.01155143 0.93300003 1.2726569e-38
0.12528858 -0.01155143 0.93300003 1.3733871e-38
0.12706572 -0.01155143 0.93300003 1.3365089e-38
0.049133334 -0.0098266667 0.93800002 1.3181779e-38
0.050919998 -0.0098266667 0.93800002 1.1161382e-38
0.05270667 -0.0098266667 0.93800002 1.1161382e-38
0.054493334 -0.0098266667 0.93800002 9.1403182e-39
0.056100003 -0.0097952392 0.93500006 8.67934e-39
0.057880957 -0.0097952392 0.93500006 8.8644473e-39
0.059534285 -0.0097742863 0.93300003 1.3474229e-38
0.061114289 -0.0097428579 0.93000007 1.4207503e-38
0.062885717 -0.0097428579 0.93000007 1.0611874e-38
0.064518094 -0.009721905 0.92800003 3.0737622e-39
0.066285722 -0.009721905 0.92800003 3.626936e-39
0.067833342 -0.0096904775 0.92500007 4.3637849e-39
0.069444761 -0.0096695246 0.92300004 5.3779369e-39
0.071202859 -0.0096695246 0.92300004 5.3761446e-39
0.072723806 -0.0096380953 0.92000002 3.6244276e-39
0.074476197 -0.0096380953 0.92000002 3.3520993e-39
0.076228574 -0.0096380953 0.92000002 1.1649706e-38
0.077811427 -0.0096171433 0.91800004 1.7982842e-38
0.079560004 -0.0096171433 0.91800004 1.7521864e-38
0.081308573 -0.0096171433 0.91800004 1.383543e-38
0.08305715 -0.0096171433 0.91800004 9.686627e-39
0.084990472 -0.0096380953 0.92000002 1.0146186e-38
0.086742856 -0.0096380953 0.92000002 1.1252533e-38
0.088495232 -0.0096380953 0.92000002 1.134186e-38
0.090247624 -0.0096380953 0.92000002 1.1249665e-38
0.091800004 -0.0096171433 0.91800004 1.0789021e-38
0.093548574 -0.0096171433 0.91800004 9.406087e-39
0.095297143 -0.0096171433 0.91800004 1.1342892e-38
0.097257145 -0.0096380953 0.92000002 1.834976e-38
0.099009521 -0.0096380953 0.92000002 1.7612978e-38
0.10076191 -0.0096380953 0.92000002 1.3095392e-38
0.10284857 -0.0096695246 0.92300004 1.006406e-38
0.10460667 -0.0096695246 0.92300004 9.6952772e-39
0.10659525 -0.0096904775 0.92500007 9.5119845e-39
0.10835715 -0.0096904775 0.92500007 9.3275933e-39
0.11011905 -0.0096904775 0.92500007 1.0245218e-38
0.11188096 -0.0096904775 0.92500007 1.2642305e-38
0.11364286 -0.0096904775 0.92500007 1.3283724e-38
0.11577905 -0.009721905 0.92800003 9.0427247e-39
0.11754667 -0.009721905 0.92800003 6.279004e-39
0.11957144 -0.0097428579 0.93000007 7.2009603e-39
0.12173429 -0.0097742863 0.93300003 1.0694658e-38
0.12351143 -0.0097742863 0.93300003 1.318394e-38
0.12555715 -0.0097952392 0.93500006 1.3549836e-38
0.12774667 -0.0098266667 0.93800002 1.345764e-38
0.12953334 -0.0098266667 0.93800002 1.3365805e-38
0.049552381 -0.0081085712 0.94600004 1.1706649e-38
0.050919998 -0.0080400007 0.93800002 1.0146511e-38
0.05270667 -0.0080400007 0.93800002 1.143725e-38
0.054493334 -0.0080400007 0.93800002 1.0245218e-38
0.056280002 -0.0080400007 0.93800002 9.046675e-39
0.057880957 -0.0080142869 0.93500006 1.0796227e-38
0.05966191 -0.0080142869 0.93500006 1.55904e-38
0.061311428 -0.0079971431 0.93300003 1.6506968e-38
0.062885717 -0.0079714293 0.93000007 1.4386469e-38
0.064518094 -0.0079542855 0.92800003 8.0390405e-39
0.066285722 -0.0079542855 0.92800003 5.3653672e-39
0.067833342 -0.0079285717 0.92500007 2.7089482e-39
0.069444761 -0.0079114288 0.92300004 4.0918826e-39
0.071202859 -0.0079114288 0.92300004 5.4676214e-39
0.07296095 -0.0079114288 0.92300004 4.4534695e-39
0.074476197 -0.0078857141 0.92000002 3.7184155e-39
0.076228574 -0.0078857141 0.92000002 1.0079914e-38
0.077980958 -0.0078857141 0.92000002 1.660168e-38
0.079560004 -0.0078685712 0.91800004 1.4665572e-38
0.081308573 -0.0078685712 0.91800004 1.189789e-38
0.083238095 -0.0078857141 0.92000002 1.0330564e-38
0.084990472 -0.0078857141 0.92000002 1.0883753e-38
0.086742856 -0.0078857141 0.92000002 1.1344732e-38
0.088783816 -0.0079114288 0.92300004 1.1434056e-38
0.090541907 -0.0079114288 0.92300004 1.1434056e-38
0.092299998 -0.0079114288 0.92300004 1.0973428e-38
0.094058096 -0.0079114288 0.92300004 9.2217112e-39
0.095816195 -0.0079114288 0.92300004 1.0145444e-38
0.097574286 -0.0079114288 0.92300004 1.7428899e-38
0.099332385 -0.0079114288 0.92300004 1.7061221e-38
0.10109048 -0.0079114288 0.92300004 1.2082657e-38
0.10284857 -0.0079114288 0.92300004 9.2361165e-39
0.10483334 -0.0079285717 0.92500007 9.1439209e-39
0.10659525 -0.0079285717 0.92500007 1.0063369e-38
0.10835715 -0.0079285717 0.92500007 1.089313e-38
0.11011905 -0.0079285717 0.92500007 1.282236e-38
0.11224381 -0.0079542855 0.92800003 1.4020903e-38
0.11401143 -0.0079542855 0.92800003 1.438574e-38
0.11577905 -0.0079542855 0.92800003 1.3279392e-38
0.1178 -0.0079714293 0.93000007 9.4097346e-39
0.11995714 -0.0079971431 0.93300003 8.3955827e-39
0.12199524 -0.0080142869 0.93500006 1.0604283e-38
0.1237762 -0.0080142869 0.93500006 1.2724782e-38
0.12555715 -0.0080142869 0.93500006 1.3365445e-38
0.12774667 -0.0080400007 0.93800002 1.3549836e-38
0.12953334 -0.0080400007 0.93800002 1.3549836e-38
0.049552381 -0.0063066669 0.94600004 1.189104e-38
0.051191427 -0.0062866667 0.94300002 9.5000413e-39
0.052819051 -0.006266667 0.94000006 1.079078e-38
0.054609526 -0.006266667 0.94000006 1.1346527e-38
0.056400005 -0.006266667 0.94000006 1.1254331e-38
0.058066666 -0.0062533333 0.93800002 1.3003187e-38
0.05966191 -0.0062333336 0.93500006 1.6045642e-38
0.061311428 -0.0062199999 0.93300003 1.6415103e-38
0.062885717 -0.0062000002 0.93000007 1.6415103e-38
0.064518094 -0.0061866669 0.92800003 1.0435072e-38
0.066285722 -0.0061866669 0.92800003 5.8252902e-39
0.067833342 -0.0061666667 0.92500007 1.6969514e-39
0.06959524 -0.0061666667 0.92500007 3.2642771e-39
0.071202859 -0.0061533335 0.92300004 4.087561e-39
0.07296095 -0.0061533335 0.92300004 3.349996e-39
0.074719049 -0.0061533335 0.92300004 2.2476071e-39
0.076228574 -0.0061333333 0.92000002 1.0268627e-38
0.077980958 -0.0061333333 0.92000002 1.5774113e-38
0.079733334 -0.0061333333 0.92000002 1.4944352e-38
0.081485718 -0.0061333333 0.92000002 1.1346897e-38
0.083238095 -0.0061333333 0.92000002 9.8717665e-39
0.084990472 -0.0061333333 0.92000002 1.0791911e-38
0.086742856 -0.0061333333 0.92000002 1.1345085e-38
0.088783816 -0.0061533335 0.92300004 1.1710996e-38
0.090541907 -0.0061533335 0.92300004 1.1342213e-38
0.092299998 -0.0061533335 0.92300004 1.0421328e-38
0.094058096 -0.0061533335 0.92300004 9.6837627e-39
0.095816195 -0.0061533335 0.92300004 9.9621629e-39
0.097574286 -0.0061533335 0.92300004 1.6876835e-38
0.099332385 -0.0061533335 0.92300004 1.6417656e-38
0.10109048 -0.0061533335 0.92300004 1.2361049e-38
0.10284857 -0.0061533335 0.92300004 9.6945807e-39
0.10483334 -0.0061666667 0.92500007 9.3257982e-39
0.10659525 -0.0061666667 0.92500007 1.006264e-38
0.10835715 -0.0061666667 0.92500007 1.1629966e-38
0.1104762 -0.0061866669 0.92800003 1.3374112e-38
0.11224381 -0.0061866669 0.92800003 1.2728742e-38
0.11401143 -0.0061866669 0.92800003 1.373781e-38
0.11602858 -0.0062000002 0.93000007 1.4567571e-38
0.11818001 -0.0062199999 0.93300003 1.2447852e-38
0.12021429 -0.0062333336 0.93500006 9.7741787e-39
0.12238666 -0.0062533333 0.93800002 1.0604983e-38
0.12417334 -0.0062533333 0.93800002 1.2541092e-38
0.12596001 -0.0062533333 0.93800002 1.3181405e-38
0.12774667 -0.0062533333 0.93800002 1.3550188e-38
0.12953334 -0.0062533333 0.93800002 1.354948e-38
0.049552381 -0.0045047617 0.94600004 1.2535331e-38
0.051354285 -0.0045047617 0.94600004 9.0416107e-39
0.05298762 -0.0044904761 0.94300002 9.1338063e-39
0.05478381 -0.0044904761 0.94300002 1.1344729e-38
0.05658 -0.0044904761 0.94300002 1.4848163e-38
0.058190476 -0.0044761905 0.94000006 1.567361e-38
0.059853334 -0.0044666668 0.93800002 1.3645306e-38
0.061442863 -0.0044523813 0.93500006 1.4662606e-38
0.063223809 -0.0044523813 0.93500006 1.752067e-38
0.064657152 -0.004428572 0.93000007 1.5954898e-38
0.066285722 -0.0044190479 0.92800003 1.1621704e-38
0.068053335 -0.0044190479 0.92800003 3.0741504e-39
0.06959524 -0.0044047623 0.92500007 2.2443897e-39
0.071357146 -0.0044047623 0.92500007 2.1561401e-39
0.073119059 -0.0044047623 0.92500007 4.5532265e-39
0.074880958 -0.0044047623 0.92500007 9.6024103e-39
0.076477148 -0.0043952381 0.92300004 1.61483e-38
0.078235239 -0.0043952381 0.92300004 1.8901546e-38
0.079733334 -0.0043809521 0.92000002 1.8256177e-38
0.081485718 -0.0043809521 0.92000002 1.475421e-38
0.083238095 -0.0043809521 0.92000002 1.0052233e-38
0.085267626 -0.0043952381 0.92300004 8.7668511e-39
0.087025717 -0.0043952381 0.92300004 9.8731987e-39
0.088976197 -0.0044047623 0.92500007 1.0881235e-38
0.090738103 -0.0044047623 0.92500007 1.0328062e-38
0.092500009 -0.0044047623 0.92500007 1.0879778e-38
0.094261907 -0.0044047623 0.92500007 1.4291016e-38
0.096023813 -0.0044047623 0.92500007 1.5949128e-38
0.097785726 -0.0044047623 0.92500007 1.8161823e-38
0.099332385 -0.0043952381 0.92300004 1.7059416e-38
0.10109048 -0.0043952381 0.92300004 1.5953068e-38
0.10307144 -0.0044047623 0.92500007 1.2087729e-38
0.10483334 -0.0044047623 0.92500007 9.7828387e-39
0.10659525 -0.0044047623 0.92500007 1.089059e-38
0.10870858 -0.0044190479 0.92800003 1.3748655e-38
0.1104762 -0.0044190479 0.92800003 1.3648543e-38
0.11224381 -0.0044190479 0.92800003 8.0246099e-39
0.11425715 -0.004428572 0.93000007 8.4844839e-39
0.11640286 -0.0044428571 0.93300003 1.3278657e-38
0.11843334 -0.0044523813 0.93500006 1.2724429e-38
0.12021429 -0.0044523813 0.93500006 1.0235147e-38
0.12238666 -0.0044666668 0.93800002 1.0880138e-38
0.12417334 -0.0044666668 0.93800002 1.2724051e-38
0.12596001 -0.0044666668 0.93800002 1.3365796e-38
0.12774667 -0.0044666668 0.93800002 1.3457992e-38
0.051354285 -0.0027028571 0.94600004 8.9494151e-39
0.053156193 -0.0027028571 0.94600004 7.474285e-39
0.05478381 -0.0026942857 0.94300002 1.1067401e-38
0.05658 -0.0026942857 0.94300002 1.5769378e-38
0.058190476 -0.0026857145 0.94000006 1.5950923e-38
0.059853334 -0.0026800002 0.93800002 1.0603576e-38
0.061639998 -0.0026800002 0.93800002 1.1338136e-38
0.063223809 -0.0026714287 0.93500006 1.6593287e-38
0.064865716 -0.0026657144 0.93300003 1.7794836e-38
0.066428579 -0.0026571429 0.93000007 1.4936771e-38
0.068053335 -0.0026514288 0.92800003 7.3050628e-39
0.06959524 -0.0026428571 0.92500007 3.6172376e-39
0.071357146 -0.0026428571 0.92500007 2.2475945e-39
0.073119059 -0.0026428571 0.92500007 6.6729847e-39
0.074880958 -0.0026428571 0.92500007 1.5674705e-38
0.076642863 -0.0026428571 0.92500007 1.8624965e-38
0.078235239 -0.0026371428 0.92300004 1.9543303e-38
0.079993337 -0.0026371428 0.92300004 1.9082325e-38
0.081751429 -0.0026371428 0.92300004 1.7334596e-38
0.083509527 -0.0026371428 0.92300004 1.3370184e-38
0.085452385 -0.0026428571 0.92500007 9.5951979e-39
0.087214291 -0.0026428571 0.92500007 9.1342197e-39
0.088976197 -0.0026428571 0.92500007 9.4089373e-39
0.090738103 -0.0026428571 0.92500007 9.8699154e-39
0.092500009 -0.0026428571 0.92500007 1.1431555e-38
0.094261907 -0.0026428571 0.92500007 1.659451e-38
0.096023813 -0.0026428571 0.92500007 1.7332778e-38
0.097785726 -0.0026428571 0.92500007 1.6318626e-38
0.099547625 -0.0026428571 0.92500007 1.6228174e-38
0.10130953 -0.0026428571 0.92500007 1.715013e-38
0.10307144 -0.0026428571 0.92500007 1.4942179e-38
0.10483334 -0.0026428571 0.92500007 1.2268505e-38
0.10694095 -0.0026514288 0.92800003 1.1533814e-38
0.10870858 -0.0026514288 0.92800003 1.2640162e-38
0.1104762 -0.0026514288 0.92800003 1.3829322e-38
0.11248572 -0.0026571429 0.93000007 8.2053886e-39
0.11425715 -0.0026571429 0.93000007 7.2869552e-39
0.11640286 -0.0026657144 0.93300003 1.2634302e-38
0.11843334 -0.0026714287 0.93500006 1.2266325e-38
0.1206 -0.0026800002 0.93800002 9.777043e-39
0.12238666 -0.0026800002 0.93800002 1.0880491e-38
0.1244381 -0.0026857145 0.94000006 1.2816599e-38
0.12622857 -0.0026857145 0.94000006 1.3457637e-38
0.12801906 -0.0026857145 0.94000006 1.3549833e-38
0.053156193 -0.00090095244 0.94600004 4.7091448e-39
0.05478381 -0.00089809526 0.94300002 9.777731e-39
0.05658 -0.00089809526 0.94300002 1.4295317e-38
0.058190476 -0.00089523813 0.94000006 1.4567191e-38
0.059853334 -0.00089333334 0.93800002 8.7588665e-39
0.061639998 -0.00089333334 0.93800002 7.9306066e-39
0.063223809 -0.00089047622 0.93500006 1.1987214e-38
0.064865716 -0.00088857143 0.93300003 1.5028944e-38
0.066428579 -0.00088571431 0.93000007 1.8624574e-38
0.068053335 -0.00088380952 0.92800003 1.4667397e-38
0.069820955 -0.00088380952 0.92800003 1.0610789e-38
0.071588568 -0.00088380952 0.92800003 1.236572e-38
0.073356189 -0.00088380952 0.92800003 1.7252089e-38
0.074880958 -0.00088095246 0.92500007 1.8164707e-38
0.076642863 -0.00088095246 0.92500007 1.6781772e-38
0.078404762 -0.00088095246 0.92500007 1.6598415e-38
0.080166668 -0.00088095246 0.92500007 1.7428176e-38
0.081928581 -0.00088095246 0.92500007 1.7980316e-38
0.083690479 -0.00088095246 0.92500007 1.8072511e-38
0.085452385 -0.00088095246 0.92500007 1.4847475e-38
0.087214291 -0.00088095246 0.92500007 9.7767151e-39
0.088976197 -0.00088095246 0.92500007 9.1348853e-39
0.090738103 -0.00088095246 0.92500007 1.3375884e-38
0.092500009 -0.00088095246 0.92500007 1.7149441e-38
0.094261907 -0.00088095246 0.92500007 1.8901158e-38
0.096023813 -0.00088095246 0.92500007 1.5400283e-38
0.097785726 -0.00088095246 0.92500007 9.2231755e-39
0.099547625 -0.00088095246 0.92500007 1.0702211e-38
0.10130953 -0.00088095246 0.92500007 1.5772971e-38
0.10307144 -0.00088095246 0.92500007 1.6413706e-38
0.10517334 -0.00088380952 0.92800003 1.6044923e-38
0.10694095 -0.00088380952 0.92800003 1.5492803e-38
0.10894287 -0.00088571431 0.93000007 1.1436196e-38
0.11071429 -0.00088571431 0.93000007 9.5890518e-39
0.11248572 -0.00088571431 0.93000007 8.2983129e-39
0.11462571 -0.00088857143 0.93300003 8.4834049e-39
0.11665238 -0.00089047622 0.93500006 1.1618056e-38
0.11881334 -0.00089333334 0.93800002 1.1249652e-38
0.1206 -0.00089333334 0.93800002 1.0143305e-38
0.12238666 -0.00089333334 0.93800002 1.0880128e-38
0.12417334 -0.00089333334 0.93800002 1.2724041e-38
0.12596001 -0.00089333334 0.93800002 1.3365442e-38
0.051897142 0.0009104762 0.95600003 9.134535e-39
0.053437144 0.00090571429 0.95100003 4.4325579e-39
0.054958098 0.00090095244 0.94600004 8.3965944e-39
0.05658 0.00089809526 0.94300002 1.2545398e-38
0.058190476 0.00089523813 0.94000006 1.2262707e-38
0.059853334 0.00089333334 0.93800002 9.0358598e-39
0.061639998 0.00089333334 0.93800002 7.7505216e-39
0.063223809 0.00089047622 0.93500006 9.0412604e-39
0.064865716 0.00088857143 0.93300003 1.318213e-38
0.066642858 0.00088857143 0.93300003 1.8068498e-38
0.068200007 0.00088571431 0.93000007 1.7520407e-38
0.069820955 0.00088380952 0.92800003 1.5676494e-38
0.071588568 0.00088380952 0.92800003 1.6046018e-38
0.073356189 0.00088380952 0.92800003 1.8627496e-38
0.075123817 0.00088380952 0.92800003 1.8073218e-38
0.076642863 0.00088095246 0.92500007 1.4938566e-38
0.078404762 0.00088095246 0.92500007 1.3009635e-38
0.080166668 0.00088095246 0.92500007 1.4023787e-38
0.081928581 0.00088095246 0.92500007 1.7978854e-38
0.083690479 0.00088095246 0.92500007 1.9177397e-38
0.085452385 0.00088095246 0.92500007 1.7888123e-38
0.087214291 0.00088095246 0.92500007 1.2448581e-38
0.088976197 0.00088095246 0.92500007 1.0146542e-38
0.090738103 0.00088095246 0.92500007 1.5401692e-38
0.092500009 0.00088095246 0.92500007 1.84384e-38
0.094261907 0.00088095246 0.92500007 1.7608639e-38
0.096023813 0.00088095246 0.92500007 1.2366083e-38
0.097785726 0.00088095246 0.92500007 5.5436068e-39
0.099547625 0.00088095246 0.92500007 5.5522038e-39
0.10130953 0.00088095246 0.92500007 1.0530768e-38
0.10340571 0.00088380952 0.92800003 1.6595904e-38
0.10517334 0.00088380952 0.92800003 1.7702252e-38
0.10694095 0.00088380952 0.92800003 1.6870744e-38
0.10894287 0.00088571431 0.93000007 1.0878028e-38
0.11071429 0.00088571431 0.93000007 8.3912092e-39
0.11284857 0.00088857143 0.93300003 8.206818e-39
0.11487143 0.00089047622 0.93500006 8.3904904e-39
0.11665238 0.00089047622 0.93500006 1.1432946e-38
0.11881334 0.00089333334 0.93800002 1.0971983e-38
0.1206 0.00089333334 0.93800002 1.041881e-38
0.12238666 0.00089333334 0.93800002 1.1155636e-38
0.12417334 0.00089333334 0.93800002 1.2907353e-38
0.12596001 0.00089333334 0.93800002 1.3181405e-38
0.051897142 0.0027314285 0.95600003 9.3189459e-39
0.053437144 0.0027171429 0.95100003 4.8935556e-39
0.055248573 0.0027171429 0.95100003 8.3051471e-39
0.056760002 0.0027028571 0.94600004 1.1992972e-38
0.058376193 0.0026942857 0.94300002 1.2262331e-38
0.059980955 0.0026857145 0.94000006 9.7730493e-39
0.061639998 0.0026800002 0.93800002 9.130254e-39
0.063223809 0.0026714287 0.93500006 8.8536671e-39
0.065004766 0.0026714287 0.93500006 9.5883301e-39
0.066642858 0.0026657144 0.93300003 1.4935677e-38
0.068200007 0.0026571429 0.93000007 1.7241276e-38
0.069971435 0.0026571429 0.93000007 1.9546167e-38
0.071742855 0.0026571429 0.93000007 1.8256903e-38
0.073356189 0.0026514288 0.92800003 1.5952012e-38
0.075123817 0.0026514288 0.92800003 1.3100774e-38
0.07689143 0.0026514288 0.92800003 1.2824187e-38
0.07865905 0.0026514288 0.92800003 1.2367165e-38
0.080166668 0.0026428571 0.92500007 1.2367165e-38
0.081928581 0.0026428571 0.92500007 1.4851721e-38
0.083690479 0.0026428571 0.92500007 1.7156611e-38
0.085452385 0.0026428571 0.92500007 1.779628e-38
0.087497145 0.0026514288 0.92800003 1.7611889e-38
0.089264765 0.0026514288 0.92800003 1.7887387e-38
0.091032378 0.0026514288 0.92800003 1.8348365e-38
0.092799999 0.0026514288 0.92800003 1.5677576e-38
0.094261907 0.0026428571 0.92500007 1.0422425e-38
0.096023813 0.0026428571 0.92500007 5.2806713e-39
0.097785726 0.0026428571 0.92500007 3.8055413e-39
0.099870481 0.0026514288 0.92800003 4.6349768e-39
0.10163809 0.0026514288 0.92800003 4.5427812e-39
0.10340571 0.0026514288 0.92800003 1.1900702e-38
0.1054 0.0026571429 0.93000007 1.6602679e-38
0.10717143 0.0026571429 0.93000007 1.7148009e-38
0.10929429 0.0026657144 0.93300003 9.9567497e-39
0.11107143 0.0026657144 0.93300003 8.0224519e-39
0.11309049 0.0026714287 0.93500006 8.2990388e-39
0.11487143 0.0026714287 0.93500006 8.2075438e-39
0.11702667 0.0026800002 0.93800002 1.1434391e-38
0.11881334 0.0026800002 0.93800002 1.1433687e-38
0.1206 0.0026800002 0.93800002 1.0603927e-38
0.12264763 0.0026857145 0.94000006 1.1431527e-38
0.1244381 0.0026857145 0.94000006 1.2998852e-38
0.050233334 0.0045666667 0.95900005 1.3549117e-38
0.051897142 0.0045523811 0.95600003 9.9653747e-39
0.053437144 0.0045285714 0.95100003 6.0009626e-39
0.055248573 0.0045285714 0.95100003 8.3977084e-39
0.056760002 0.0045047617 0.94600004 1.2177729e-38
0.058376193 0.0044904761 0.94300002 1.2537874e-38
0.059980955 0.0044761905 0.94000006 9.8642009e-39
0.06177143 0.0044761905 0.94000006 9.7730899e-39
0.063426666 0.0044666668 0.93800002 1.0049677e-38
0.06521333 0.0044666668 0.93800002 9.2220391e-39
0.066785723 0.0044523813 0.93500006 1.1711321e-38
0.06842 0.0044428571 0.93300003 1.6593386e-38
0.070197143 0.0044428571 0.93300003 2.009682e-38
0.071742855 0.004428572 0.93000007 1.7705536e-38
0.07351429 0.004428572 0.93000007 1.3095755e-38
0.075285718 0.004428572 0.93000007 1.1354092e-38
0.07689143 0.0044190479 0.92800003 1.2091657e-38
0.07865905 0.0044190479 0.92800003 1.2000904e-38
0.080426671 0.0044190479 0.92800003 1.1539925e-38
0.082194284 0.0044190479 0.92800003 1.1906888e-38
0.083961904 0.0044190479 0.92800003 1.3474213e-38
0.085729532 0.0044190479 0.92800003 1.7427122e-38
0.087497145 0.0044190479 0.92800003 1.936323e-38
0.089264765 0.0044190479 0.92800003 1.9637316e-38
0.091032378 0.0044190479 0.92800003 1.7516817e-38
0.092799999 0.0044190479 0.92800003 1.2550465e-38
0.094261907 0.0044047623 0.92500007 6.1889664e-39
0.096023813 0.0044047623 0.92500007 1.9713803e-39
0.09810286 0.0044190479 0.92800003 3.6309016e-39
0.099870481 0.0044190479 0.92800003 4.9130057e-39
0.10163809 0.0044190479 0.92800003 2.6081149e-39
0.10340571 0.0044190479 0.92800003 4.817147e-39
0.1054 0.004428572 0.93000007 1.256158e-38
0.10717143 0.004428572 0.93000007 1.6688147e-38
0.10952857 0.0044523813 0.93500006 9.4968884e-39
0.11130953 0.0044523813 0.93500006 7.8384138e-39
0.11309049 0.0044523813 0.93500006 8.1150007e-39
0.11524001 0.0044666668 0.93800002 7.7476545e-39
0.11702667 0.0044666668 0.93800002 1.1619871e-38
0.11881334 0.0044666668 0.93800002 1.2448548e-38
0.12085715 0.0044761905 0.94000006 1.1250005e-38
0.12264763 0.0044761905 0.94000006 1.143223e-38
0.1244381 0.0044761905 0.94000006 1.290736e-38
0.050233334 0.0063933334 0.95900005 1.318069e-38
0.051897142 0.0063733337 0.95600003 1.1343267e-38
0.053605717 0.0063600005 0.95400006 1.0513507e-38
0.055248573 0.0063399998 0.95100003 1.2354921e-38
0.056760002 0.0063066669 0.94600004 1.5673963e-38
0.058561906 0.0063066669 0.94600004 1.4473247e-38
0.060172379 0.0062866667 0.94300002 9.679074e-39
0.06177143 0.006266667 0.94000006 8.6699737e-39
0.063426666 0.0062533333 0.93800002 9.6841257e-39
0.06521333 0.0062533333 0.93800002 8.7621694e-39
0.066785723 0.0062333336 0.93500006 9.3153431e-39
0.06842 0.0062199999 0.93300003 1.4936723e-38
0.070197143 0.0062199999 0.93300003 1.9085527e-38
0.071974292 0.0062199999 0.93300003 1.7337775e-38
0.07351429 0.0062000002 0.93000007 1.3004581e-38
0.075285718 0.0062000002 0.93000007 1.1264064e-38
0.07689143 0.0061866669 0.92800003 1.1817238e-38
0.07865905 0.0061866669 0.92800003 1.2000553e-38
0.080426671 0.0061866669 0.92800003 1.1908358e-38
0.082194284 0.0061866669 0.92800003 1.1908002e-38
0.083961904 0.0061866669 0.92800003 1.1631415e-38
0.085729532 0.0061866669 0.92800003 1.4849229e-38
0.087497145 0.0061866669 0.92800003 1.862925e-38
0.089264765 0.0061866669 0.92800003 1.8441997e-38
0.091032378 0.0061866669 0.92800003 1.2357086e-38
0.092799999 0.0061866669 0.92800003 4.9108477e-39
0.094567627 0.0061866669 0.92800003 4.4498695e-39
0.09633524 0.0061866669 0.92800003 4.3623654e-39
0.09810286 0.0061866669 0.92800003 4.9155392e-39
0.099870481 0.0061866669 0.92800003 4.6364314e-39
0.10163809 0.0061866669 0.92800003 2.8847144e-39
0.10362858 0.0062000002 0.93000007 6.2858382e-39
0.1054 0.0062000002 0.93000007 1.3108315e-38
0.10751715 0.0062199999 0.93300003 1.5767601e-38
0.10952857 0.0062333336 0.93500006 8.8529287e-39
0.11130953 0.0062333336 0.93500006 7.1941458e-39
0.11309049 0.0062333336 0.93500006 7.8395152e-39
0.11524001 0.0062533333 0.93800002 8.668557e-39
0.11702667 0.0062533333 0.93800002 1.2264187e-38
0.11881334 0.0062533333 0.93800002 1.2355621e-38
0.12085715 0.006266667 0.94000006 1.1802448e-38
0.12264763 0.006266667 0.94000006 1.2261631e-38
0.050233334 0.0082200002 0.95900005 1.2811908e-38
0.052060001 0.0082200002 0.95900005 1.2352374e-38
0.053718098 0.0081942854 0.95600003 1.2813353e-38
0.055422861 0.0081771435 0.95400006 1.401012e-38
0.056880001 0.008125715 0.94800007 1.5761837e-38
0.058561906 0.0081085712 0.94600004 1.4197761e-38
0.060172379 0.0080828574 0.94300002 1.0509936e-38
0.06177143 0.0080571435 0.94000006 8.6703297e-39
0.063426666 0.0080400007 0.93800002 9.2235034e-39
0.06521333 0.0080400007 0.93800002 7.7519733e-39
