# .PCD v0.7 - Point Cloud Data file format
VERSION 0.7
FIELDS x y z rgb
SIZE 4 4 4 4
TYPE F F F F
COUNT 1 1 1 1
WIDTH 952
HEIGHT 1
VIEWPOINT 0 0 0 1 0 0 0
POINTS 952
DATA ascii
-0.033540003 -0.04386 0.90300006 2.2307693e-38
-0.031820003 -0.04386 0.90300006 2.3321845e-38
-0.12327429 -0.04284 0.91800004 1.7971986e-38
-0.12152572 -0.04284 0.91800004 1.7971597e-38
-0.12003809 -0.042933334 0.92000002 1.8248184e-38
-0.11828572 -0.042933334 0.92000002 1.7879054e-38
-0.11653333 -0.042933334 0.92000002 1.7510271e-38
-0.11515524 -0.043073334 0.92300004 1.7509915e-38
-0.11339714 -0.043073334 0.92300004 1.7694306e-38
-0.11188096 -0.043166671 0.92500007 1.7694306e-38
-0.11011905 -0.043166671 0.92500007 1.7325524e-38
-0.10870858 -0.043306667 0.92800003 1.7417366e-38
-0.10717143 -0.043400005 0.93000007 1.7417366e-38
-0.1054 -0.043400005 0.93000007 1.7601398e-38
-0.10396286 -0.043540001 0.93300003 1.797018e-38
-0.10185715 -0.043400005 0.93000007 1.7878338e-38
-0.10008572 -0.043400005 0.93000007 1.7878338e-38
-0.098631434 -0.043540001 0.93300003 1.7786142e-38
-0.096854292 -0.043540001 0.93300003 1.7601751e-38
-0.095077142 -0.043540001 0.93300003 1.7416634e-38
-0.093500003 -0.043633334 0.93500006 1.7785416e-38
-0.091719054 -0.043633334 0.93500006 1.7692864e-38
-0.089938097 -0.043633334 0.93500006 1.7692864e-38
-0.088157147 -0.043633334 0.93500006 1.7510631e-38
-0.086376198 -0.043633334 0.93500006 1.8063805e-38
-0.084595241 -0.043633334 0.93500006 1.7787221e-38
-0.083080001 -0.043773334 0.93800002 1.7971612e-38
-0.081293337 -0.043773334 0.93800002 1.8431521e-38
-0.079506665 -0.043773334 0.93800002 1.8431521e-38
-0.077885717 -0.043866668 0.94000006 1.815278e-38
-0.075933337 -0.043773334 0.93800002 1.7876194e-38
-0.074146673 -0.043773334 0.93800002 1.8153132e-38
-0.072360002 -0.043773334 0.93800002 1.8153132e-38
-0.070573337 -0.043773334 0.93800002 1.8153845e-38
-0.068786673 -0.043773334 0.93800002 1.8246041e-38
-0.066785723 -0.043633334 0.93500006 1.8153141e-38
-0.065004766 -0.043633334 0.93500006 1.8706314e-38
-0.063088574 -0.043540001 0.93300003 1.8522978e-38
-0.061311428 -0.043540001 0.93300003 1.9352739e-38
-0.059342861 -0.043400005 0.93000007 1.9169439e-38
-0.057571433 -0.043400005 0.93000007 1.8708461e-38
-0.055679999 -0.043306667 0.92800003 1.9629701e-38
-0.053738099 -0.043166671 0.92500007 1.9906288e-38
-0.051863808 -0.043073334 0.92300004 1.9813744e-38
-0.049942859 -0.042933334 0.92000002 2.0366917e-38
-0.048085716 -0.04284 0.91800004 2.0550932e-38
-0.046185717 -0.042700004 0.91500002 2.1196301e-38
-0.044345718 -0.04260667 0.91300005 2.1105559e-38
-0.04260667 -0.04260667 0.91300005 2.2488493e-38
-0.040554285 -0.04228 0.90600002 2.0829335e-38
-0.038700003 -0.04214 0.90300006 2.0460552e-38
-0.036980003 -0.04214 0.90300006 2.1475033e-38
-0.035260003 -0.04214 0.90300006 2.3504418e-38
-0.033540003 -0.04214 0.90300006 2.2954153e-38
-0.12327429 -0.041091431 0.91800004 1.8433683e-38
-0.12152572 -0.041091431 0.91800004 1.7879767e-38
-0.12003809 -0.041180953 0.92000002 1.8064158e-38
-0.11828572 -0.041180953 0.92000002 1.7971612e-38
-0.11653333 -0.041180953 0.92000002 1.7510634e-38
-0.11515524 -0.041315239 0.92300004 1.7418801e-38
-0.11339714 -0.041315239 0.92300004 1.7603193e-38
-0.11188096 -0.041404765 0.92500007 1.7694669e-38
-0.1104762 -0.041539047 0.92800003 1.7694669e-38
-0.10870858 -0.041539047 0.92800003 1.7786871e-38
-0.10717143 -0.041628573 0.93000007 1.7602479e-38
-0.1054 -0.041628573 0.93000007 1.7509199e-38
-0.10396286 -0.041762859 0.93300003 1.7970177e-38
-0.10218572 -0.041762859 0.93300003 1.78787e-38
-0.10040857 -0.041762859 0.93300003 1.78787e-38
-0.098631434 -0.041762859 0.93300003 1.7878335e-38
-0.096854292 -0.041762859 0.93300003 1.7601748e-38
-0.095077142 -0.041762859 0.93300003 1.7416981e-38
-0.093500003 -0.041852385 0.93500006 1.7785764e-38
-0.091719054 -0.041852385 0.93500006 1.7509549e-38
-0.089938097 -0.041852385 0.93500006 1.7509549e-38
-0.088440001 -0.041986667 0.93800002 1.7971609e-38
-0.086653329 -0.041986667 0.93800002 1.7971609e-38
-0.084866665 -0.041986667 0.93800002 1.732624e-38
-0.083257146 -0.042076193 0.94000006 1.7971609e-38
-0.081466675 -0.042076193 0.94000006 1.8614473e-38
-0.079676196 -0.042076193 0.94000006 1.8522278e-38
-0.077885717 -0.042076193 0.94000006 1.8152766e-38
-0.075933337 -0.041986667 0.93800002 1.8244962e-38
-0.074146673 -0.041986667 0.93800002 1.8244962e-38
-0.072360002 -0.041986667 0.93800002 1.8244962e-38
-0.070573337 -0.041986667 0.93800002 1.8614095e-38
-0.068786673 -0.041986667 0.93800002 1.8429704e-38
-0.066785723 -0.041852385 0.93500006 1.7968019e-38
-0.065004766 -0.041852385 0.93500006 1.8521193e-38
-0.063088574 -0.041762859 0.93300003 1.8338227e-38
-0.061311428 -0.041762859 0.93300003 1.8983596e-38
-0.059534285 -0.041762859 0.93300003 1.944529e-38
-0.057571433 -0.041628573 0.93000007 1.9629682e-38
-0.055679999 -0.041539047 0.92800003 1.9721521e-38
-0.053738099 -0.041404765 0.92500007 1.9813717e-38
-0.051976193 -0.041404765 0.92500007 1.9904849e-38
-0.050105717 -0.041315239 0.92300004 2.0826805e-38
-0.048085716 -0.041091431 0.91800004 2.073461e-38
-0.046185717 -0.040957142 0.91500002 2.1472175e-38
-0.044345718 -0.040867623 0.91300005 2.1290316e-38
-0.04260667 -0.040867623 0.91300005 2.1013729e-38
-0.040554285 -0.040554285 0.90600002 2.0645646e-38
-0.038700003 -0.04042 0.90300006 2.0184667e-38
-0.036980003 -0.04042 0.90300006 2.0923667e-38
-0.035260003 -0.04042 0.90300006 2.3505505e-38
-0.033540003 -0.04042 0.90300006 2.2954156e-38
-0.12327429 -0.039342858 0.91800004 2.0092864e-38
-0.12152572 -0.039342858 0.91800004 1.9169439e-38
-0.12003809 -0.039428573 0.92000002 1.8063092e-38
-0.11828572 -0.039428573 0.92000002 1.7879417e-38
-0.11653333 -0.039428573 0.92000002 1.7879417e-38
-0.11515524 -0.039557144 0.92300004 1.7509929e-38
-0.11364286 -0.039642859 0.92500007 1.7602125e-38
-0.11188096 -0.039642859 0.92500007 1.7694672e-38
-0.1104762 -0.03977143 0.92800003 1.7694672e-38
-0.10870858 -0.03977143 0.92800003 1.7786868e-38
-0.10717143 -0.039857145 0.93000007 1.7786868e-38
-0.1054 -0.039857145 0.93000007 1.7878345e-38
-0.10396286 -0.039985713 0.93300003 1.797054e-38
-0.10218572 -0.039985713 0.93300003 1.8062373e-38
-0.10040857 -0.039985713 0.93300003 1.8431155e-38
-0.098631434 -0.039985713 0.93300003 1.8155635e-38
-0.096854292 -0.039985713 0.93300003 1.8155635e-38
-0.09528096 -0.040071432 0.93500006 1.7878685e-38
-0.093500003 -0.040071432 0.93500006 1.8247468e-38
-0.092013337 -0.040200002 0.93800002 1.8155272e-38
-0.090226665 -0.040200002 0.93800002 1.7786489e-38
-0.088440001 -0.040200002 0.93800002 1.8063439e-38
-0.086653329 -0.040200002 0.93800002 1.88932e-38
-0.084866665 -0.040200002 0.93800002 1.824712e-38
-0.083257146 -0.040285718 0.94000006 1.8339316e-38
-0.081466675 -0.040285718 0.94000006 1.833896e-38
-0.079676196 -0.040285718 0.94000006 1.8154568e-38
-0.077885717 -0.040285718 0.94000006 1.8338587e-38
-0.076095238 -0.040285718 0.94000006 1.8522978e-38
-0.074304767 -0.040285718 0.94000006 1.8429351e-38
-0.072514288 -0.040285718 0.94000006 1.8244959e-38
-0.070573337 -0.040200002 0.93800002 1.8338221e-38
-0.068786673 -0.040200002 0.93800002 1.8338221e-38
-0.066785723 -0.040071432 0.93500006 1.8521912e-38
-0.065004766 -0.040071432 0.93500006 1.8798499e-38
-0.063088574 -0.039985713 0.93300003 1.8337532e-38
-0.061311428 -0.039985713 0.93300003 1.8337532e-38
-0.059534285 -0.039985713 0.93300003 1.9167253e-38
-0.057571433 -0.039857145 0.93000007 2.0457992e-38
-0.055679999 -0.03977143 0.92800003 2.0826414e-38
-0.053738099 -0.039642859 0.92500007 2.1379588e-38
-0.051976193 -0.039642859 0.92500007 2.1196304e-38
-0.047065716 -0.037157144 0.86700004 2.1749478e-38
-0.045414288 -0.037157144 0.86700004 2.0459836e-38
-0.043762859 -0.037157144 0.86700004 2.0183249e-38
-0.04211143 -0.037157144 0.86700004 1.8154608e-38
-0.04260667 -0.039128575 0.91300005 1.7509238e-38
-0.041315239 -0.039557144 0.92300004 1.7419139e-38
-0.039557144 -0.039557144 0.92300004 1.8986465e-38
-0.037799049 -0.039557144 0.92300004 2.0831119e-38
-0.036119051 -0.039642859 0.92500007 2.3506232e-38
-0.034357145 -0.039642859 0.92500007 2.3047065e-38
-0.12354286 -0.037676193 0.92000002 2.0645295e-38
-0.12179048 -0.037676193 0.92000002 2.0460538e-38
-0.12003809 -0.037676193 0.92000002 1.9630778e-38
-0.11828572 -0.037676193 0.92000002 1.870989e-38
-0.11691333 -0.037799049 0.92300004 1.7972325e-38
-0.11515524 -0.037799049 0.92300004 1.7693941e-38
-0.11364286 -0.037880953 0.92500007 1.7786136e-38
-0.11188096 -0.037880953 0.92500007 1.769466e-38
-0.1104762 -0.038003813 0.92800003 1.769466e-38
-0.10894287 -0.038085714 0.93000007 1.7695025e-38
-0.10717143 -0.038085714 0.93000007 1.7695025e-38
-0.10574 -0.03820857 0.93300003 1.7878338e-38
-0.10396286 -0.03820857 0.93300003 1.7970533e-38
-0.10218572 -0.03820857 0.93300003 1.7878335e-38
-0.10040857 -0.03820857 0.93300003 1.8247117e-38
-0.098631434 -0.03820857 0.93300003 1.78787e-38
-0.09706191 -0.038290478 0.93500006 1.78787e-38
-0.09528096 -0.038290478 0.93500006 1.7878698e-38
-0.093800001 -0.038413331 0.93800002 1.8155285e-38
-0.092013337 -0.038413331 0.93800002 1.8247836e-38
-0.090226665 -0.038413331 0.93800002 1.815564e-38
-0.088628575 -0.038495239 0.94000006 1.8155275e-38
-0.086838104 -0.038495239 0.94000006 1.8708449e-38
-0.085047618 -0.038495239 0.94000006 1.8614826e-38
-0.083257146 -0.038495239 0.94000006 1.8614826e-38
-0.081466675 -0.038495239 0.94000006 1.8431518e-38
-0.079676196 -0.038495239 0.94000006 1.8062736e-38
-0.077885717 -0.038495239 0.94000006 1.8247117e-38
-0.076095238 -0.038495239 0.94000006 1.8339313e-38
-0.074304767 -0.038495239 0.94000006 1.8338239e-38
-0.072514288 -0.038495239 0.94000006 1.8246044e-38
-0.070723809 -0.038495239 0.94000006 1.8707725e-38
-0.068786673 -0.038413331 0.93800002 1.861553e-38
-0.066785723 -0.038290478 0.93500006 1.87063e-38
-0.065004766 -0.038290478 0.93500006 1.8798496e-38
-0.063088574 -0.03820857 0.93300003 1.8244962e-38
-0.061311428 -0.03820857 0.93300003 1.870594e-38
-0.059534285 -0.03820857 0.93300003 1.944314e-38
-0.057571433 -0.038085714 0.93000007 2.0733878e-38
-0.051720005 -0.035300955 0.86200005 2.1102308e-38
-0.049961902 -0.035219047 0.86000001 2.1194503e-38
-0.04832381 -0.035219047 0.86000001 2.1010841e-38
-0.046794288 -0.035300955 0.86200005 2.1010841e-38
-0.045257144 -0.035382856 0.86400002 2.0091782e-38
-0.043762859 -0.035505716 0.86700004 1.8708848e-38
-0.04211143 -0.035505716 0.86700004 1.6497561e-38
-0.040460002 -0.035505716 0.86700004 1.6220974e-38
-0.041315239 -0.037799049 0.92300004 1.6774811e-38
-0.039557144 -0.037799049 0.92300004 1.9079702e-38
-0.037880953 -0.037880953 0.92500007 2.0738574e-38
-0.036119051 -0.037880953 0.92500007 2.3505523e-38
-0.11862192 -0.034010477 0.87100005 1.8527262e-38
-0.11696286 -0.034010477 0.87100005 1.9080436e-38
-0.11530381 -0.034010477 0.87100005 2.0276478e-38
-0.11364476 -0.034010477 0.87100005 2.1475021e-38
-0.11198572 -0.034010477 0.87100005 2.0736733e-38
-0.11653333 -0.035923809 0.92000002 2.0460146e-38
-0.11515524 -0.036040954 0.92300004 1.9814796e-38
-0.11364286 -0.036119051 0.92500007 1.9630405e-38
-0.11224381 -0.036236189 0.92800003 1.9261622e-38
-0.11071429 -0.036314286 0.93000007 1.8985035e-38
-0.10894287 -0.036314286 0.93000007 1.8984307e-38
-0.10751715 -0.036431432 0.93300003 1.8615524e-38
-0.10574 -0.036431432 0.93300003 1.8891045e-38
-0.10396286 -0.036431432 0.93300003 1.898324e-38
-0.10218572 -0.036431432 0.93300003 1.8799568e-38
-0.10040857 -0.036431432 0.93300003 1.8799568e-38
-0.098631434 -0.036431432 0.93300003 1.8246415e-38
-0.09706191 -0.036509525 0.93500006 1.8246415e-38
-0.09528096 -0.036509525 0.93500006 1.8521926e-38
-0.093800001 -0.036626667 0.93800002 1.90751e-38
-0.092013337 -0.036626667 0.93800002 1.8522631e-38
-0.090226665 -0.036626667 0.93800002 1.8614826e-38
-0.088628575 -0.036704764 0.94000006 1.8339676e-38
-0.086838104 -0.036704764 0.94000006 1.8524067e-38
-0.085047618 -0.036704764 0.94000006 1.8706666e-38
-0.083257146 -0.036704764 0.94000006 1.8798862e-38
-0.081466675 -0.036704764 0.94000006 1.8339325e-38
-0.079676196 -0.036704764 0.94000006 1.8154934e-38
-0.077885717 -0.036704764 0.94000006 1.898288e-38
-0.076095238 -0.036704764 0.94000006 1.9536054e-38
-0.074304767 -0.036704764 0.94000006 1.971975e-38
-0.072514288 -0.036704764 0.94000006 1.9811946e-38
-0.070723809 -0.036704764 0.94000006 2.0367247e-38
-0.068786673 -0.036626667 0.93800002 2.0459442e-38
-0.066785723 -0.036509525 0.93500006 1.9723343e-38
-0.065004766 -0.036509525 0.93500006 1.9631148e-38
-0.063088574 -0.036431432 0.93300003 1.9354193e-38
-0.061311428 -0.036431432 0.93300003 1.9354193e-38
-0.055131428 -0.033737142 0.86400002 1.935422e-38
-0.053361908 -0.033659048 0.86200005 1.9630807e-38
-0.051720005 -0.033659048 0.86200005 1.8891785e-38
-0.049961902 -0.033580955 0.86000001 1.8062024e-38
-0.04832381 -0.033580955 0.86000001 1.7876533e-38
-0.046794288 -0.033659048 0.86200005 1.7692141e-38
-0.045257144 -0.033737142 0.86400002 1.7142212e-38
-0.043762859 -0.033854287 0.86700004 1.5113908e-38
-0.04211143 -0.033854287 0.86700004 1.4747649e-38
-0.041160002 -0.034440003 0.88200003 1.5024236e-38
-0.039614286 -0.034557145 0.88500005 1.6037977e-38
-0.039557144 -0.036040954 0.92300004 1.9264824e-38
-0.037880953 -0.036119051 0.92500007 2.0463429e-38
-0.036119051 -0.036119051 0.92500007 2.3413689e-38
-0.03259524 -0.036119051 0.92500007 2.2862683e-38
-0.12055714 -0.032425717 0.87300003 1.760574e-38
-0.11862192 -0.032351431 0.87100005 1.5485192e-38
-0.11696286 -0.032351431 0.87100005 1.5669583e-38
-0.11530381 -0.032351431 0.87100005 1.8246366e-38
-0.11364476 -0.032351431 0.87100005 2.0920039e-38
-0.11198572 -0.032351431 0.87100005 2.0645295e-38
-0.11058 -0.032425717 0.87300003 2.0092121e-38
-0.11515524 -0.034282859 0.92300004 2.009104e-38
-0.11364286 -0.034357145 0.92500007 1.9814453e-38
-0.11224381 -0.034468573 0.92800003 1.9905937e-38
-0.11071429 -0.034542862 0.93000007 1.9444958e-38
-0.10894287 -0.034542862 0.93000007 1.9812641e-38
-0.10751715 -0.034654286 0.93300003 1.9904837e-38
-0.10574 -0.034654286 0.93300003 2.0458386e-38
-0.10396286 -0.034654286 0.93300003 1.9352038e-38
-0.10218572 -0.034654286 0.93300003 1.9351307e-38
-0.10040857 -0.034654286 0.93300003 1.9166916e-38
-0.098631434 -0.034654286 0.93300003 1.8706317e-38
-0.09706191 -0.034728575 0.93500006 1.8798513e-38
-0.095586672 -0.034839999 0.93800002 1.9074367e-38
-0.093800001 -0.034839999 0.93800002 1.9443149e-38
-0.092209533 -0.034914289 0.94000006 1.861411e-38
-0.090419047 -0.034914289 0.94000006 1.8982893e-38
-0.088628575 -0.034914289 0.94000006 1.8616266e-38
-0.086838104 -0.034914289 0.94000006 1.8616266e-38
-0.077447623 -0.031794287 0.85600007 1.8707393e-38
-0.075817153 -0.031794287 0.85600007 1.8799589e-38
-0.08172667 -0.035025716 0.94300002 1.8430435e-38
-0.079930477 -0.035025716 0.94300002 1.8891413e-38
-0.077885717 -0.034914289 0.94000006 1.9442777e-38
-0.076095238 -0.034914289 0.94000006 2.0364733e-38
-0.074304767 -0.034914289 0.94000006 2.1748776e-38
-0.072514288 -0.034914289 0.94000006 2.1564384e-38
-0.070723809 -0.034914289 0.94000006 2.1107739e-38
-0.06842 -0.034654286 0.93300003 1.9817e-38
-0.066642858 -0.034654286 0.93300003 1.9539681e-38
-0.059929527 -0.032017142 0.86200005 1.9263094e-38
-0.058152381 -0.031942859 0.86000001 1.9263091e-38
-0.056514286 -0.031942859 0.86000001 1.90787e-38
-0.055131428 -0.032091428 0.86400002 1.8619173e-38
-0.053361908 -0.032017142 0.86200005 1.8065999e-38
-0.051720005 -0.032017142 0.86200005 1.6591573e-38
-0.049961902 -0.031942859 0.86000001 1.6038399e-38
-0.04832381 -0.031942859 0.86000001 1.6034432e-38
-0.046794288 -0.032017142 0.86200005 1.6218823e-38
-0.045414288 -0.032202858 0.86700004 1.7050745e-38
-0.043762859 -0.032202858 0.86700004 1.5206832e-38
-0.042208571 -0.032277141 0.86900002 1.3642721e-38
-0.041160002 -0.032760002 0.88200003 1.4749069e-38
-0.039480001 -0.032760002 0.88200003 1.4933425e-38
-0.037800003 -0.032760002 0.88200003 1.9266619e-38
-0.037880953 -0.034357145 0.92500007 2.0554546e-38
-0.036119051 -0.034357145 0.92500007 2.3505166e-38
-0.12055714 -0.030762859 0.87300003 1.7699005e-38
-0.11889429 -0.030762859 0.87300003 1.5210449e-38
-0.11723143 -0.030762859 0.87300003 1.4472884e-38
-0.11530381 -0.030692382 0.87100005 1.6035857e-38
-0.11364476 -0.030692382 0.87100005 1.7695378e-38
-0.11198572 -0.030692382 0.87100005 1.7694309e-38
-0.11007334 -0.030621905 0.86900002 1.6864549e-38
-0.1084181 -0.030621905 0.86900002 1.7141133e-38
-0.10700858 -0.030692382 0.87100005 1.7694306e-38
-0.11224381 -0.032700956 0.92800003 1.7878364e-38
-0.11071429 -0.032771431 0.93000007 1.7693973e-38
-0.10929429 -0.032877143 0.93300003 1.8341461e-38
-0.10751715 -0.032877143 0.93300003 1.8525852e-38
-0.10574 -0.032877143 0.93300003 1.8801023e-38
-0.10396286 -0.032877143 0.93300003 1.8801023e-38
-0.10240477 -0.032947619 0.93500006 1.8708824e-38
-0.10062382 -0.032947619 0.93500006 1.9169802e-38
-0.098842859 -0.032947619 0.93500006 1.907797e-38
-0.097373337 -0.033053335 0.93800002 1.9354556e-38
-0.095586672 -0.033053335 0.93800002 1.9261982e-38
-0.094000004 -0.03312381 0.94000006 1.9354178e-38
-0.083969526 -0.030163812 0.85600007 1.9170153e-38
-0.082339056 -0.030163812 0.85600007 1.9170153e-38
-0.080708571 -0.030163812 0.85600007 1.8616991e-38
-0.079078101 -0.030163812 0.85600007 1.8709187e-38
-0.077447623 -0.030163812 0.85600007 1.8617008e-38
-0.075817153 -0.030163812 0.85600007 1.8801399e-38
-0.074186668 -0.030163812 0.85600007 1.8801373e-38
-0.072386667 -0.030093335 0.85400003 1.8985764e-38
-0.070760004 -0.030093335 0.85400003 1.926018e-38
-0.069133334 -0.030093335 0.85400003 1.9997745e-38
-0.067822859 -0.030234287 0.85800004 1.9721877e-38
-0.066188574 -0.030234287 0.85800004 1.944529e-38
-0.064855248 -0.030375239 0.86200005 1.8524097e-38
-0.063213333 -0.030375239 0.86200005 1.7417749e-38
-0.061428569 -0.030304762 0.86000001 1.6034812e-38
-0.059790477 -0.030304762 0.86000001 1.5666029e-38
-0.058152381 -0.030304762 0.86000001 1.5023513e-38
-0.056514286 -0.030304762 0.86000001 1.4746926e-38
-0.055003811 -0.030375239 0.86200005 1.4378864e-38
-0.053361908 -0.030375239 0.86200005 1.4378864e-38
-0.051720005 -0.030375239 0.86200005 1.5299395e-38
-0.050078098 -0.030375239 0.86200005 1.6313547e-38
-0.048548572 -0.030445714 0.86400002 1.4467867e-38
-0.047065716 -0.03055143 0.86700004 1.3545911e-38
-0.04551905 -0.030621905 0.86900002 1.4654401e-38
-0.043964762 -0.030692382 0.87100005 1.6682705e-38
-0.042500004 -0.030833337 0.87500006 1.6039439e-38
-0.041066669 -0.031009525 0.88000005 1.5301874e-38
-0.039480001 -0.031080002 0.88200003 1.5117485e-38
-0.037800003 -0.031080002 0.88200003 1.9358484e-38
-0.036242858 -0.031185716 0.88500005 2.1016963e-38
-0.032871433 -0.031185716 0.88500005 2.3047077e-38
-0.11889429 -0.029100001 0.87300003 1.5394474e-38
-0.11723143 -0.029100001 0.87300003 1.4380322e-38
-0.11556857 -0.029100001 0.87300003 1.5024583e-38
-0.11390572 -0.029100001 0.87300003 1.7052887e-38
-0.11224286 -0.029100001 0.87300003 1.686816e-38
-0.11007334 -0.028966667 0.86900002 1.5116443e-38
-0.10816857 -0.028900001 0.86700004 1.5575201e-38
-0.10651714 -0.028900001 0.86700004 1.6497158e-38
-0.10450286 -0.028800001 0.86400002 1.6221004e-38
-0.10285714 -0.028800001 0.86400002 1.502246e-38
-0.10929429 -0.031100003 0.93300003 1.465687e-38
-0.10751715 -0.031100003 0.93300003 1.5486631e-38
-0.10574 -0.031100003 0.93300003 1.649863e-38
-0.10418572 -0.031166669 0.93500006 1.7051804e-38
-0.10240477 -0.031166669 0.93500006 1.7696118e-38
-0.10062382 -0.031166669 0.93500006 1.7696118e-38
-0.098842859 -0.031166669 0.93500006 1.723514e-38
-0.097373337 -0.031266667 0.93800002 1.7327336e-38
-0.087230489 -0.028533336 0.85600007 1.7327685e-38
-0.085600004 -0.028533336 0.85600007 1.7604272e-38
-0.083969526 -0.028533336 0.85600007 1.7421333e-38
-0.082339056 -0.028533336 0.85600007 1.7236942e-38
-0.080708571 -0.028533336 0.85600007 1.7419883e-38
-0.079078101 -0.028533336 0.85600007 1.7604274e-38
-0.077447623 -0.028533336 0.85600007 1.7695399e-38
-0.075817153 -0.028533336 0.85600007 1.7326617e-38
-0.074186668 -0.028533336 0.85600007 1.7050738e-38
-0.072386667 -0.028466668 0.85400003 1.6958542e-38
-0.070760004 -0.028466668 0.85400003 1.7049996e-38
-0.069133334 -0.028466668 0.85400003 1.6865605e-38
-0.067664765 -0.028533336 0.85600007 1.6404634e-38
-0.066188574 -0.0286 0.85800004 1.6220243e-38
-0.064704761 -0.028666668 0.86000001 1.6220608e-38
-0.063066669 -0.028666668 0.86000001 1.6312804e-38
-0.061428569 -0.028666668 0.86000001 1.5392314e-38
-0.059790477 -0.028666668 0.86000001 1.4378162e-38
-0.058152381 -0.028666668 0.86000001 1.382606e-38
-0.056514286 -0.028666668 0.86000001 1.2996299e-38
-0.055003811 -0.028733335 0.86200005 1.2997724e-38
-0.053361908 -0.028733335 0.86200005 1.4288463e-38
-0.051720005 -0.028733335 0.86200005 1.5483436e-38
-0.050078098 -0.028733335 0.86200005 1.4745871e-38
-0.048548572 -0.028800001 0.86400002 1.3916097e-38
-0.047065716 -0.028900001 0.86700004 1.2994141e-38
-0.04551905 -0.028966667 0.86900002 1.3824241e-38
-0.043964762 -0.029033335 0.87100005 1.6682305e-38
-0.042500004 -0.029166669 0.87500006 1.7051454e-38
-0.041066669 -0.029333334 0.88000005 1.5115346e-38
-0.039480001 -0.0294 0.88200003 1.4287702e-38
-0.037800003 -0.0294 0.88200003 1.9727244e-38
-0.036242858 -0.029500002 0.88500005 2.1385748e-38
-0.11889429 -0.027437143 0.87300003 1.5119342e-38
-0.11723143 -0.027437143 0.87300003 1.3183234e-38
-0.11556857 -0.027437143 0.87300003 1.5393386e-38
-0.11390572 -0.027437143 0.87300003 1.7513885e-38
-0.11198572 -0.027374288 0.87100005 1.6959252e-38
-0.10982 -0.027248573 0.86700004 1.0874341e-38
-0.10816857 -0.027248573 0.86700004 1.243917e-38
-0.10614857 -0.027154287 0.86400002 1.6403582e-38
-0.10426096 -0.027091429 0.86200005 1.594439e-38
-0.10238095 -0.027028572 0.86000001 1.3916086e-38
-0.10074285 -0.027028572 0.86000001 1.3549777e-38
-0.098874293 -0.026965715 0.85800004 1.3457581e-38
-0.097240001 -0.026965715 0.85800004 1.3550099e-38
-0.095605716 -0.026965715 0.85800004 1.4195469e-38
-0.093971431 -0.026965715 0.85800004 1.4930985e-38
-0.092121907 -0.02690286 0.85600007 1.6498311e-38
-0.090491436 -0.02690286 0.85600007 1.5759993e-38
-0.088860959 -0.02690286 0.85600007 1.4930233e-38
-0.087230489 -0.02690286 0.85600007 1.5299018e-38
-0.085600004 -0.02690286 0.85600007 1.5759996e-38
-0.083969526 -0.02690286 0.85600007 1.5851466e-38
-0.082339056 -0.02690286 0.85600007 1.5021705e-38
-0.080708571 -0.02690286 0.85600007 1.4193377e-38
-0.079078101 -0.02690286 0.85600007 1.3640203e-38
-0.077447623 -0.02690286 0.85600007 1.2996989e-38
-0.075817153 -0.02690286 0.85600007 1.2720402e-38
-0.074186668 -0.02690286 0.85600007 1.3455105e-38
-0.072386667 -0.026840001 0.85400003 1.5483409e-38
-0.070760004 -0.026840001 0.85400003 1.6128756e-38
-0.069133334 -0.026840001 0.85400003 1.6774126e-38
-0.067664765 -0.02690286 0.85600007 1.4840924e-38
-0.066188574 -0.026965715 0.85800004 1.1890663e-38
-0.064704761 -0.027028572 0.86000001 1.2536023e-38
-0.063066669 -0.027028572 0.86000001 1.5486283e-38
-0.061428569 -0.027028572 0.86000001 1.5943688e-38
-0.059790477 -0.027028572 0.86000001 1.5021732e-38
-0.058287621 -0.027091429 0.86200005 1.4103373e-38
-0.056645717 -0.027091429 0.86200005 1.225946e-38
-0.055131428 -0.027154287 0.86400002 1.3365091e-38
-0.053485714 -0.027154287 0.86400002 1.6315352e-38
-0.051840004 -0.027154287 0.86400002 1.5943688e-38
-0.050194286 -0.027154287 0.86400002 1.2901232e-38
-0.048717145 -0.027248573 0.86700004 1.1058029e-38
-0.047174286 -0.027311428 0.86900002 1.0689246e-38
-0.04551905 -0.027311428 0.86900002 1.1425386e-38
-0.044065714 -0.027437143 0.87300003 1.5113211e-38
-0.042645715 -0.027594287 0.87800002 1.5485927e-38
-0.041160002 -0.027720001 0.88200003 1.4563971e-38
-0.039614286 -0.027814288 0.88500005 1.401256e-38
-0.03792857 -0.027814288 0.88500005 1.9636493e-38
-0.036324766 -0.027877143 0.88700002 2.2031464e-38
-0.11916667 -0.025833335 0.87500006 1.5951601e-38
-0.11750001 -0.025833335 0.87500006 1.2540363e-38
-0.11556857 -0.025774287 0.87300003 1.5852571e-38
-0.11390572 -0.025774287 0.87300003 1.6497941e-38
-0.11198572 -0.025715239 0.87100005 1.5206459e-38
-0.10982 -0.025597144 0.86700004 1.096546e-38
-0.10816857 -0.025597144 0.86700004 1.1333502e-38
-0.10614857 -0.025508571 0.86400002 1.3730588e-38
-0.10426096 -0.025449526 0.86200005 1.5758914e-38
-0.10238095 -0.025390476 0.86000001 1.4560371e-38
-0.10074285 -0.025390476 0.86000001 1.3087377e-38
-0.098874293 -0.02533143 0.85800004 1.2902985e-38
-0.097240001 -0.02533143 0.85800004 1.2627803e-38
-0.095605716 -0.02533143 0.85800004 1.4195128e-38
-0.093971431 -0.02533143 0.85800004 1.4745868e-38
-0.092121907 -0.025272382 0.85600007 1.5852216e-38
-0.090491436 -0.025272382 0.85600007 1.5301173e-38
-0.088860959 -0.025272382 0.85600007 1.3733847e-38
-0.087230489 -0.025272382 0.85600007 1.4560727e-38
-0.085600004 -0.025272382 0.85600007 1.5298292e-38
-0.083969526 -0.025272382 0.85600007 1.6035148e-38
-0.082339056 -0.025272382 0.85600007 1.5297583e-38
-0.080708571 -0.025272382 0.85600007 1.2996295e-38
-0.079078101 -0.025272382 0.85600007 1.1244578e-38
-0.077628575 -0.02533143 0.85800004 1.0230734e-38
-0.075817153 -0.025272382 0.85600007 1.0876104e-38
-0.074186668 -0.025272382 0.85600007 1.115235e-38
-0.072556198 -0.025272382 0.85600007 1.4932371e-38
-0.07092572 -0.025272382 0.85600007 1.5117148e-38
-0.069295242 -0.025272382 0.85600007 1.5117148e-38
-0.067822859 -0.02533143 0.85800004 1.3461956e-38
-0.066188574 -0.02533143 0.85800004 9.6819354e-39
-0.064704761 -0.025390476 0.86000001 1.1155234e-38
-0.063066669 -0.025390476 0.86000001 1.355232e-38
-0.061428569 -0.025390476 0.86000001 1.5943668e-38
-0.059790477 -0.025390476 0.86000001 1.5390495e-38
-0.058287621 -0.025449526 0.86200005 1.4103736e-38
-0.056645717 -0.025449526 0.86200005 1.2812997e-38
-0.055131428 -0.025508571 0.86400002 1.3823914e-38
-0.053485714 -0.025508571 0.86400002 1.6221001e-38
-0.051840004 -0.025508571 0.86400002 1.5853273e-38
-0.050194286 -0.025508571 0.86400002 1.1520079e-38
-0.048717145 -0.025597144 0.86700004 1.0782867e-38
-0.047174286 -0.025656192 0.86900002 1.0967258e-38
-0.045623813 -0.025715239 0.87100005 1.1242395e-38
-0.044166669 -0.025833335 0.87500006 1.493022e-38
-0.042742856 -0.025980955 0.88000005 1.5117873e-38
-0.041300002 -0.026128573 0.88500005 1.4195917e-38
-0.039614286 -0.026128573 0.88500005 1.3459396e-38
-0.03792857 -0.026128573 0.88500005 1.991309e-38
-0.036324766 -0.026187621 0.88700002 2.2031834e-38
-0.11916667 -0.024166668 0.87500006 1.8345424e-38
-0.11750001 -0.024166668 0.87500006 1.0324404e-38
-0.11556857 -0.024111429 0.87300003 1.3549123e-38
-0.11390572 -0.024111429 0.87300003 1.4563275e-38
-0.11224286 -0.024111429 0.87300003 1.4100777e-38
-0.11032668 -0.024056191 0.87100005 1.1334908e-38
-0.1084181 -0.024000952 0.86900002 1.1426475e-38
-0.10651714 -0.023945715 0.86700004 1.1149888e-38
-0.10450286 -0.023862857 0.86400002 1.3271052e-38
-0.10261905 -0.023807621 0.86200005 1.6590094e-38
-0.10074285 -0.023752382 0.86000001 1.5759983e-38
-0.099104762 -0.023752382 0.86000001 1.4377049e-38
-0.09746667 -0.023752382 0.86000001 1.446962e-38
-0.09582857 -0.023752382 0.86000001 1.6774511e-38
-0.093971431 -0.023697145 0.85800004 1.5208654e-38
-0.092337146 -0.023697145 0.85800004 1.4102306e-38
-0.090702862 -0.023697145 0.85800004 1.2167983e-38
-0.089068577 -0.023697145 0.85800004 1.1707005e-38
-0.087434292 -0.023697145 0.85800004 1.1983222e-38
-0.0858 -0.023697145 0.85800004 1.3273961e-38
-0.083969526 -0.023641907 0.85600007 1.4469637e-38
-0.082339056 -0.023641907 0.85600007 1.5483789e-38
-0.080708571 -0.023641907 0.85600007 1.4378143e-38
-0.079078101 -0.023641907 0.85600007 1.1888861e-38
-0.077628575 -0.023697145 0.85800004 1.1059119e-38
-0.07599429 -0.023697145 0.85800004 1.2810836e-38
-0.074360006 -0.023697145 0.85800004 1.3271827e-38
-0.072725721 -0.023697145 0.85800004 1.5023544e-38
-0.071091428 -0.023697145 0.85800004 1.3918984e-38
-0.069457144 -0.023697145 0.85800004 1.1429702e-38
-0.067822859 -0.023697145 0.85800004 7.9331149e-39
-0.066188574 -0.023697145 0.85800004 6.5501805e-39
-0.064704761 -0.023752382 0.86000001 7.3792349e-39
-0.063066669 -0.023752382 0.86000001 8.3933868e-39
-0.061428569 -0.023752382 0.86000001 1.1890641e-38
-0.059790477 -0.023752382 0.86000001 1.465651e-38
-0.058287621 -0.023807621 0.86200005 1.483914e-38
-0.056645717 -0.023807621 0.86200005 1.5853292e-38
-0.055131428 -0.023862857 0.86400002 1.5945819e-38
-0.053671431 -0.023945715 0.86700004 1.4194102e-38
-0.052020002 -0.023945715 0.86700004 1.3088083e-38
-0.050368574 -0.023945715 0.86700004 1.0967583e-38
-0.048829522 -0.024000952 0.86900002 1.0967279e-38
-0.04728286 -0.024056191 0.87100005 1.0875084e-38
-0.045728575 -0.024111429 0.87300003 1.1242427e-38
-0.044318095 -0.024249524 0.87800002 1.4838057e-38
-0.042742856 -0.024304764 0.88000005 1.4934198e-38
-0.041300002 -0.024442857 0.88500005 1.4012242e-38
-0.039614286 -0.024442857 0.88500005 1.4103349e-38
-0.03792857 -0.024442857 0.88500005 2.0649238e-38
-0.036324766 -0.024498096 0.88700002 2.2584994e-38
-0.11957524 -0.022577144 0.87800002 1.9174118e-38
-0.11750001 -0.022500001 0.87500006 1.1521881e-38
-0.11583334 -0.022500001 0.87500006 1.3273601e-38
-0.11416667 -0.022500001 0.87500006 1.4195557e-38
-0.11224286 -0.022448571 0.87300003 1.1981057e-38
-0.11032668 -0.022397144 0.87100005 1.1335688e-38
-0.10866762 -0.022397144 0.87100005 1.1060566e-38
-0.10651714 -0.022294287 0.86700004 1.0230806e-38
-0.10486572 -0.022294287 0.86700004 1.1334583e-38
-0.10285714 -0.022217143 0.86400002 1.4653626e-38
-0.10097715 -0.022165716 0.86200005 1.6312441e-38
-0.099104762 -0.022114286 0.86000001 1.6220246e-38
-0.09746667 -0.022114286 0.86000001 1.5482357e-38
-0.09582857 -0.022114286 0.86000001 1.6035531e-38
-0.093971431 -0.022062857 0.85800004 1.493278e-38
-0.092337146 -0.022062857 0.85800004 1.2535694e-38
-0.090702862 -0.022062857 0.85800004 1.124961e-38
-0.089068577 -0.022062857 0.85800004 1.0696436e-38
-0.087434292 -0.022062857 0.85800004 9.9581426e-39
-0.0858 -0.022062857 0.85800004 1.1341077e-38
-0.083969526 -0.022011429 0.85600007 1.3363629e-38
-0.082339056 -0.022011429 0.85600007 1.4654367e-38
-0.080708571 -0.022011429 0.85600007 1.6128065e-38
-0.079078101 -0.022011429 0.85600007 1.3362196e-38
-0.077628575 -0.022062857 0.85800004 1.1795559e-38
-0.07599429 -0.022062857 0.85800004 1.4284841e-38
-0.074360006 -0.022062857 0.85800004 1.5023157e-38
-0.072725721 -0.022062857 0.85800004 1.474657e-38
-0.071091428 -0.022062857 0.85800004 1.2815508e-38
-0.069457144 -0.022062857 0.85800004 8.8510958e-39
-0.067822859 -0.022062857 0.85800004 7.4749912e-39
-0.066188574 -0.022062857 0.85800004 6.9218175e-39
-0.064704761 -0.022114286 0.86000001 6.1867804e-39
-0.063066669 -0.022114286 0.86000001 5.7258022e-39
-0.061428569 -0.022114286 0.86000001 9.3138101e-39
-0.059929527 -0.022165716 0.86200005 1.1895288e-38
-0.058287621 -0.022165716 0.86200005 1.5390132e-38
-0.056777142 -0.022217143 0.86400002 1.6865262e-38
-0.055322859 -0.022294287 0.86700004 1.6221737e-38
-0.053671431 -0.022294287 0.86700004 1.2257324e-38
-0.052020002 -0.022294287 0.86700004 1.1428581e-38
-0.050484765 -0.022345716 0.86900002 1.1151994e-38
-0.048829522 -0.022345716 0.86900002 1.1058745e-38
-0.04728286 -0.022397144 0.87100005 1.0966549e-38
-0.045833338 -0.022500001 0.87500006 1.1150215e-38
-0.044318095 -0.022577144 0.87800002 1.5114627e-38
-0.042742856 -0.022628574 0.88000005 1.5117508e-38
-0.041300002 -0.022757143 0.88500005 1.4195551e-38
-0.039614286 -0.022757143 0.88500005 1.3917493e-38
-0.03792857 -0.022757143 0.88500005 2.1385339e-38
-0.036324766 -0.022808572 0.88700002 2.2769032e-38
-0.11984763 -0.020952383 0.88000005 2.1111633e-38
-0.11790286 -0.020904763 0.87800002 9.6793753e-39
-0.11623047 -0.020904763 0.87800002 1.2354174e-38
-0.11416667 -0.020833336 0.87500006 1.4198086e-38
-0.1125 -0.020833336 0.87500006 1.3178915e-38
-0.11058 -0.020785715 0.87300003 1.1242807e-38
-0.10866762 -0.020738097 0.87100005 1.0968008e-38
-0.10700858 -0.020738097 0.87100005 1.0968008e-38
-0.10510762 -0.020690477 0.86900002 1.1334279e-38
-0.10321429 -0.020642858 0.86700004 1.1703062e-38
-0.10121143 -0.020571429 0.86400002 1.4283036e-38
-0.099335246 -0.020523811 0.86200005 1.7694274e-38
-0.097693332 -0.020523811 0.86200005 1.6588688e-38
-0.09582857 -0.02047619 0.86000001 1.4652579e-38
-0.094190478 -0.02047619 0.86000001 1.2352372e-38
-0.092552379 -0.02047619 0.86000001 1.1799198e-38
-0.090702862 -0.020428572 0.85800004 1.1158147e-38
-0.089068577 -0.020428572 0.85800004 1.0697169e-38
-0.087434292 -0.020428572 0.85800004 1.0236201e-38
-0.0858 -0.020428572 0.85800004 1.0973766e-38
-0.084165715 -0.020428572 0.85800004 1.1800982e-38
-0.08253143 -0.020428572 0.85800004 1.1985373e-38
-0.080897145 -0.020428572 0.85800004 1.3825323e-38
-0.07926286 -0.020428572 0.85800004 1.5392648e-38
-0.077628575 -0.020428572 0.85800004 1.5391904e-38
-0.07599429 -0.020428572 0.85800004 1.5668491e-38
-0.074360006 -0.020428572 0.85800004 1.4195544e-38
-0.072725721 -0.020428572 0.85800004 1.133748e-38
-0.071091428 -0.020428572 0.85800004 8.0249448e-39
-0.069457144 -0.020428572 0.85800004 7.4717711e-39
-0.06798096 -0.02047619 0.86000001 7.0154746e-39
-0.06634286 -0.02047619 0.86000001 6.8310834e-39
-0.064704761 -0.02047619 0.86000001 6.3715248e-39
-0.063213333 -0.020523811 0.86200005 6.0949379e-39
-0.06157143 -0.020523811 0.86200005 7.8426779e-39
-0.060068574 -0.020571429 0.86400002 8.1192648e-39
-0.05842286 -0.020571429 0.86400002 1.2810417e-38
-0.056974288 -0.020642858 0.86700004 1.6590438e-38
-0.055322859 -0.020642858 0.86700004 1.575928e-38
-0.053671431 -0.020642858 0.86700004 1.0411933e-38
-0.052140001 -0.020690477 0.86900002 1.0598497e-38
-0.050484765 -0.020690477 0.86900002 1.0875084e-38
-0.048829522 -0.020690477 0.86900002 1.0967606e-38
-0.04739143 -0.020785715 0.87300003 1.1336388e-38
-0.045833338 -0.020833336 0.87500006 1.1335672e-38
-0.044318095 -0.020904763 0.87800002 1.5023497e-38
-0.042742856 -0.020952383 0.88000005 1.5854347e-38
-0.041160002 -0.021000002 0.88200003 1.5946543e-38
-0.039614286 -0.02107143 0.88500005 1.6037271e-38
-0.03792857 -0.02107143 0.88500005 2.1661204e-38
-0.036324766 -0.021119049 0.88700002 2.2860862e-38
-0.034635238 -0.021119049 0.88700002 2.3506951e-38
-0.12012 -0.019320002 0.88200003 2.0560316e-38
-0.11817144 -0.019276192 0.88000005 1.1709536e-38
-0.11649524 -0.019276192 0.88000005 1.3459046e-38
-0.1145581 -0.019232381 0.87800002 1.484198e-38
-0.1125 -0.019166669 0.87500006 1.4192347e-38
-0.11058 -0.019122858 0.87300003 1.1518673e-38
-0.10891715 -0.019122858 0.87300003 1.0967279e-38
-0.10700858 -0.019079048 0.87100005 1.1151671e-38
-0.10510762 -0.019035237 0.86900002 1.0505945e-38
-0.10321429 -0.018991429 0.86700004 1.041375e-38
-0.10156287 -0.018991429 0.86700004 1.2530966e-38
-0.099565722 -0.018925713 0.86400002 1.7325139e-38
-0.097920001 -0.018925713 0.86400002 1.6313572e-38
-0.096051432 -0.018881904 0.86200005 1.3639899e-38
-0.094190478 -0.018838096 0.86000001 1.1616965e-38
-0.092552379 -0.018838096 0.86000001 1.1063791e-38
-0.090914287 -0.018838096 0.86000001 1.0697895e-38
-0.089068577 -0.018794287 0.85800004 1.0697895e-38
-0.087434292 -0.018794287 0.85800004 9.8692078e-39
-0.0858 -0.018794287 0.85800004 1.0053599e-38
-0.084165715 -0.018794287 0.85800004 1.0421298e-38
-0.08253143 -0.018794287 0.85800004 1.0421298e-38
-0.080897145 -0.018794287 0.85800004 1.1983197e-38
-0.07926286 -0.018794287 0.85800004 1.5117848e-38
-0.077809528 -0.018838096 0.86000001 1.603623e-38
-0.076171428 -0.018838096 0.86000001 1.5851839e-38
-0.074533336 -0.018838096 0.86000001 1.3276133e-38
-0.072895236 -0.018838096 0.86000001 8.020982e-39
-0.071257144 -0.018838096 0.86000001 5.816895e-39
-0.069619045 -0.018838096 0.86000001 6.1856775e-39
-0.06798096 -0.018838096 0.86000001 6.8321624e-39
-0.06634286 -0.018838096 0.86000001 6.6477711e-39
-0.064855248 -0.018881904 0.86200005 6.1878622e-39
-0.063213333 -0.018881904 0.86200005 6.0956665e-39
-0.061714288 -0.018925713 0.86400002 5.911641e-39
-0.060068574 -0.018925713 0.86400002 5.2662716e-39
-0.058625717 -0.018991429 0.86700004 1.0138536e-38
-0.056974288 -0.018991429 0.86700004 1.5946861e-38
-0.055322859 -0.018991429 0.86700004 1.5389455e-38
-0.053795237 -0.019035237 0.86900002 1.1517238e-38
-0.052140001 -0.019035237 0.86900002 1.0781449e-38
-0.050484765 -0.019035237 0.86900002 1.096584e-38
-0.048941907 -0.019079048 0.87100005 1.0782867e-38
-0.04739143 -0.019122858 0.87300003 1.1243845e-38
-0.045833338 -0.019166669 0.87500006 1.1244218e-38
-0.044318095 -0.019232381 0.87800002 1.5116434e-38
-0.042742856 -0.019276192 0.88000005 1.6222053e-38
-0.041160002 -0.019320002 0.88200003 1.6037662e-38
-0.039614286 -0.019385716 0.88500005 1.6220233e-38
-0.03792857 -0.019385716 0.88500005 2.1936362e-38
-0.036242858 -0.019385716 0.88500005 2.2860878e-38
-0.034557145 -0.019385716 0.88500005 2.3414052e-38
-0.12052858 -0.017700002 0.88500005 2.1387922e-38
-0.11844 -0.01764 0.88200003 1.6317162e-38
-0.11676001 -0.01764 0.88200003 1.6593697e-38
-0.11508001 -0.01764 0.88200003 1.7239067e-38
-0.11288572 -0.01756 0.87800002 1.5669982e-38
-0.11083334 -0.017500002 0.87500006 1.0968005e-38
-0.10891715 -0.01746 0.87300003 9.9570874e-39
-0.10700858 -0.017419999 0.87100005 1.032587e-38
-0.10534953 -0.017419999 0.87100005 1.07836e-38
-0.10345238 -0.017380001 0.86900002 1.0507013e-38
-0.10156287 -0.017340001 0.86700004 1.1886715e-38
-0.099565722 -0.017280001 0.86400002 1.6773083e-38
-0.097920001 -0.017280001 0.86400002 1.5854011e-38
-0.096051432 -0.017240001 0.86200005 1.2995946e-38
-0.094409525 -0.017240001 0.86200005 1.0789021e-38
-0.092552379 -0.017199999 0.86000001 1.0512435e-38
-0.090914287 -0.017199999 0.86000001 1.0422387e-38
-0.089068577 -0.017160002 0.85800004 1.0514583e-38
-0.087434292 -0.017160002 0.85800004 1.0421298e-38
-0.0858 -0.017160002 0.85800004 1.0421298e-38
-0.084165715 -0.017160002 0.85800004 1.0697529e-38
-0.08253143 -0.017160002 0.85800004 1.0605334e-38
-0.080897145 -0.017160002 0.85800004 1.1523666e-38
-0.07926286 -0.017160002 0.85800004 1.3459774e-38
-0.077809528 -0.017199999 0.86000001 1.4378864e-38
-0.076171428 -0.017199999 0.86000001 1.3917886e-38
-0.074706666 -0.017240001 0.86200005 1.253965e-38
-0.072895236 -0.017199999 0.86000001 7.46889e-39
-0.071257144 -0.017199999 0.86000001 5.5428711e-39
-0.069619045 -0.017199999 0.86000001 6.0038493e-39
-0.06798096 -0.017199999 0.86000001 6.5552154e-39
-0.066497147 -0.017240001 0.86200005 6.647411e-39
-0.064855248 -0.017240001 0.86200005 6.7388878e-39
-0.063213333 -0.017240001 0.86200005 6.5544965e-39
-0.061714288 -0.017280001 0.86400002 6.1864581e-39
-0.060068574 -0.017280001 0.86400002 5.6332843e-39
-0.058625717 -0.017340001 0.86700004 1.0508096e-38
-0.056974288 -0.017340001 0.86700004 1.5763247e-38
-0.055322859 -0.017340001 0.86700004 1.6035878e-38
-0.053795237 -0.017380001 0.86900002 1.2163662e-38
-0.052140001 -0.017380001 0.86900002 1.0598509e-38
-0.050484765 -0.017380001 0.86900002 1.0598509e-38
-0.048941907 -0.017419999 0.87100005 1.0874007e-38
-0.04739143 -0.01746 0.87300003 1.2072551e-38
-0.045833338 -0.017500002 0.87500006 1.2165497e-38
-0.044318095 -0.01756 0.87800002 1.5115757e-38
-0.04284 -0.01764 0.88200003 1.5670306e-38
-0.041160002 -0.01764 0.88200003 1.6407871e-38
-0.039614286 -0.017700002 0.88500005 1.6957826e-38
-0.03792857 -0.017700002 0.88500005 2.2028586e-38
-0.036242858 -0.017700002 0.88500005 2.2860888e-38
-0.034557145 -0.017700002 0.88500005 2.3414062e-38
-0.12052858 -0.016014285 0.88500005 2.1847455e-38
-0.11844 -0.01596 0.88200003 1.7698652e-38
-0.11676001 -0.01596 0.88200003 1.8432943e-38
-0.11508001 -0.01596 0.88200003 1.7418792e-38
-0.11288572 -0.01588762 0.87800002 1.5763272e-38
-0.11083334 -0.015833335 0.87500006 1.2536425e-38
-0.10891715 -0.015797142 0.87300003 1.0879044e-38
-0.10700858 -0.015760954 0.87100005 1.0141479e-38
-0.10534953 -0.015760954 0.87100005 1.0875795e-38
-0.10345238 -0.015724761 0.86900002 1.0414817e-38
-0.10156287 -0.015688572 0.86700004 1.1425722e-38
-0.099911429 -0.015688572 0.86700004 1.6680873e-38
-0.097920001 -0.015634285 0.86400002 1.5301926e-38
-0.096274287 -0.015634285 0.86400002 1.2628252e-38
-0.094409525 -0.015598095 0.86200005 1.0329466e-38
-0.092767626 -0.015598095 0.86200005 1.0421661e-38
-0.090914287 -0.015561905 0.86000001 1.0513504e-38
-0.089276187 -0.015561905 0.86000001 1.0605699e-38
-0.087638095 -0.015561905 0.86000001 1.0513501e-38
-0.086000003 -0.015561905 0.86000001 1.0697892e-38
-0.084361903 -0.015561905 0.86000001 1.1065596e-38
-0.082723811 -0.015561905 0.86000001 1.0604618e-38
-0.081085712 -0.015561905 0.86000001 1.1063791e-38
-0.07944762 -0.015561905 0.86000001 1.318429e-38
-0.07799048 -0.015598095 0.86200005 1.3735319e-38
-0.07634858 -0.015598095 0.86200005 1.3735319e-38
-0.074706666 -0.015598095 0.86200005 1.0790113e-38
-0.072895236 -0.015561905 0.86000001 7.0100923e-39
-0.071257144 -0.015561905 0.86000001 6.0949533e-39
-0.069619045 -0.015561905 0.86000001 6.4637358e-39
-0.068139054 -0.015598095 0.86200005 6.554865e-39
-0.066497147 -0.015598095 0.86200005 6.6470607e-39
-0.064855248 -0.015598095 0.86200005 7.1980764e-39
-0.063213333 -0.015598095 0.86200005 7.0136852e-39
-0.061714288 -0.015634285 0.86400002 6.0016983e-39
-0.060277145 -0.015688572 0.86700004 6.1860895e-39
-0.058625717 -0.015688572 0.86700004 1.1428954e-38
-0.056974288 -0.015688572 0.86700004 1.5854344e-38
-0.055450477 -0.015724761 0.86900002 1.6129528e-38
-0.053795237 -0.015724761 0.86900002 1.3640246e-38
-0.052140001 -0.015724761 0.86900002 1.1245323e-38
-0.050600957 -0.015760954 0.87100005 1.004678e-38
-0.048941907 -0.015760954 0.87100005 1.0597031e-38
-0.04739143 -0.015797142 0.87300003 1.2809726e-38
-0.045833338 -0.015833335 0.87500006 1.4284186e-38
-0.044318095 -0.01588762 0.87800002 1.3638817e-38
-0.04284 -0.01596 0.88200003 1.327354e-38
-0.041160002 -0.01596 0.88200003 1.4103301e-38
-0.039614286 -0.016014285 0.88500005 1.7416278e-38
-0.03792857 -0.016014285 0.88500005 2.3040211e-38
-0.036242858 -0.016014285 0.88500005 2.2953077e-38
-0.034557145 -0.016014285 0.88500005 2.3229664e-38
-0.12052858 -0.014328572 0.88500005 2.2953423e-38
-0.11844 -0.014280001 0.88200003 1.9910967e-38
-0.11676001 -0.014280001 0.88200003 1.7790468e-38
-0.11508001 -0.014280001 0.88200003 1.4840208e-38
-0.11288572 -0.014215238 0.87800002 1.5026058e-38
-0.11083334 -0.014166667 0.87500006 1.5210449e-38
-0.10891715 -0.014134286 0.87300003 1.1982198e-38
-0.10725429 -0.014134286 0.87300003 1.0230481e-38
-0.10534953 -0.014101906 0.87100005 1.0874728e-38
-0.10345238 -0.014069525 0.86900002 1.188888e-38
-0.10179714 -0.014069525 0.86900002 1.3544448e-38
-0.099911429 -0.014037143 0.86700004 1.7140077e-38
-0.09826 -0.014037143 0.86700004 1.6406447e-38
-0.096274287 -0.013988572 0.86400002 1.4839122e-38
-0.094628572 -0.013988572 0.86400002 1.180245e-38
-0.092982858 -0.013988572 0.86400002 1.1249277e-38
-0.091125719 -0.013956192 0.86200005 1.014616e-38
-0.089483812 -0.013956192 0.86200005 1.0238356e-38
-0.087638095 -0.013923809 0.86000001 1.0513501e-38
-0.086000003 -0.013923809 0.86000001 1.0605697e-38
-0.084361903 -0.013923809 0.86000001 1.0605699e-38
-0.082723811 -0.013923809 0.86000001 1.0421308e-38
-0.081085712 -0.013923809 0.86000001 1.1155643e-38
-0.07944762 -0.013923809 0.86000001 1.3368338e-38
-0.078171432 -0.013988572 0.86400002 1.5025318e-38
-0.076525718 -0.013988572 0.86400002 1.5301905e-38
-0.074879996 -0.013988572 0.86400002 1.2356353e-38
-0.073064767 -0.013956192 0.86200005 8.4841363e-39
-0.07142286 -0.013956192 0.86200005 4.9918651e-39
-0.069780953 -0.013956192 0.86200005 5.3606477e-39
-0.068139054 -0.013956192 0.86200005 6.0027829e-39
-0.066497147 -0.013956192 0.86200005 5.9105872e-39
-0.064855248 -0.013956192 0.86200005 6.1860951e-39
-0.063213333 -0.013956192 0.86200005 6.3704864e-39
-0.061714288 -0.013988572 0.86400002 8.2075438e-39
-0.060277145 -0.014037143 0.86700004 1.207976e-38
-0.058625717 -0.014037143 0.86700004 1.4841249e-38
-0.056974288 -0.014037143 0.86700004 1.5394423e-38
-0.055450477 -0.014069525 0.86900002 1.631282e-38
-0.053795237 -0.014069525 0.86900002 1.6681602e-38
-0.052260004 -0.014101906 0.87100005 1.4562565e-38
-0.050600957 -0.014101906 0.87100005 1.1888892e-38
-0.049054284 -0.014134286 0.87300003 1.253246e-38
-0.047500003 -0.014166667 0.87500006 1.5390524e-38
-0.045833338 -0.014166667 0.87500006 1.4472152e-38
-0.044318095 -0.014215238 0.87800002 1.1060914e-38
-0.04284 -0.014280001 0.88200003 1.0788256e-38
-0.041160002 -0.014280001 0.88200003 1.2724365e-38
-0.039614286 -0.014328572 0.88500005 1.5943659e-38
-0.03792857 -0.014328572 0.88500005 2.2950527e-38
-0.036242858 -0.014328572 0.88500005 2.3137825e-38
-0.034557145 -0.014328572 0.88500005 2.304563e-38
-0.12052858 -0.012642858 0.88500005 2.2953434e-38
-0.11884286 -0.012642858 0.88500005 2.0279761e-38
-0.11676001 -0.0126 0.88200003 1.7791903e-38
-0.11508001 -0.0126 0.88200003 1.3735295e-38
-0.11288572 -0.012542857 0.87800002 1.4933823e-38
-0.11083334 -0.012500001 0.87500006 1.604017e-38
-0.10916667 -0.012500001 0.87500006 1.4470375e-38
-0.10725429 -0.012471429 0.87300003 1.0598159e-38
-0.10559143 -0.012471429 0.87300003 1.1242388e-38
-0.10369048 -0.012442858 0.87100005 1.3178496e-38
-0.10179714 -0.012414285 0.86900002 1.6032291e-38
-0.10014191 -0.012414285 0.86900002 1.7230834e-38
-0.09826 -0.012385715 0.86700004 1.7050359e-38
-0.096608572 -0.012385715 0.86700004 1.5851816e-38
-0.094628572 -0.012342857 0.86400002 1.3460524e-38
-0.092982858 -0.012342857 0.86400002 1.2354177e-38
-0.091337144 -0.012342857 0.86400002 9.9628537e-39
-0.089483812 -0.012314286 0.86200005 9.7784625e-39
-0.087841913 -0.012314286 0.86200005 1.0236191e-38
-0.086199999 -0.012314286 0.86200005 1.0512778e-38
-0.0845581 -0.012314286 0.86200005 1.0329103e-38
-0.082916193 -0.012314286 0.86200005 1.0421298e-38
-0.081274293 -0.012314286 0.86200005 1.106452e-38
-0.079632387 -0.012314286 0.86200005 1.4475758e-38
-0.078171432 -0.012342857 0.86400002 1.5485941e-38
-0.076525718 -0.012342857 0.86400002 1.5393746e-38
-0.074879996 -0.012342857 0.86400002 1.3460887e-38
-0.073064767 -0.012314286 0.86200005 1.023404e-38
-0.07142286 -0.012314286 0.86200005 6.6477711e-39
-0.069780953 -0.012314286 0.86200005 5.8180105e-39
-0.068139054 -0.012314286 0.86200005 5.2659087e-39
-0.066497147 -0.012314286 0.86200005 5.173713e-39
-0.064855248 -0.012314286 0.86200005 4.990021e-39
-0.063213333 -0.012314286 0.86200005 6.004173e-39
-0.061714288 -0.012342857 0.86400002 8.4844839e-39
-0.060277145 -0.012385715 0.86700004 1.4016222e-38
-0.058625717 -0.012385715 0.86700004 1.4933833e-38
-0.057105716 -0.012414285 0.86900002 1.4657246e-38
-0.055450477 -0.012414285 0.86900002 1.5482683e-38
-0.053795237 -0.012414285 0.86900002 1.6312444e-38
-0.052260004 -0.012442858 0.87100005 1.6496869e-38
-0.050600957 -0.012442858 0.87100005 1.4468565e-38
-0.049054284 -0.012471429 0.87300003 1.3453684e-38
-0.047500003 -0.012500001 0.87500006 1.6035162e-38
-0.045833338 -0.012500001 0.87500006 1.4933146e-38
-0.044318095 -0.012542857 0.87800002 1.0231169e-38
-0.04284 -0.0126 0.88200003 9.4996279e-39
-0.041160002 -0.0126 0.88200003 1.2634279e-38
-0.039614286 -0.012642858 0.88500005 1.474657e-38
-0.03792857 -0.012642858 0.88500005 2.2951981e-38
-0.036242858 -0.012642858 0.88500005 2.3046351e-38
-0.12052858 -0.010957144 0.88500005 2.2769032e-38
-0.11884286 -0.010957144 0.88500005 2.027975e-38
-0.11715715 -0.010957144 0.88500005 1.7885174e-38
-0.11547144 -0.010957144 0.88500005 1.2537828e-38
-0.11314286 -0.010895238 0.88000005 1.3551617e-38
-0.11121333 -0.010870476 0.87800002 1.6594073e-38
-0.10916667 -0.010833334 0.87500006 1.5853297e-38
-0.10725429 -0.010808571 0.87300003 1.3548407e-38
-0.10559143 -0.010808571 0.87300003 1.5022441e-38
-0.10369048 -0.01078381 0.87100005 1.778831e-38
-0.10203143 -0.01078381 0.87100005 1.7051101e-38
-0.10014191 -0.010759047 0.86900002 1.3639862e-38
-0.098486669 -0.010759047 0.86900002 1.4746507e-38
-0.096831433 -0.010759047 0.86900002 1.5852854e-38
-0.094957143 -0.010734286 0.86700004 1.5116806e-38
-0.092982858 -0.010697143 0.86400002 1.5393393e-38
-0.091337144 -0.010697143 0.86400002 1.2078328e-38
-0.08969143 -0.010697143 0.86400002 1.0050024e-38
