# .PCD v0.7 - Point Cloud Data file format
VERSION 0.7
FIELDS x y z rgb
SIZE 4 4 4 4
TYPE F F F F
COUNT 1 1 1 1
WIDTH 960
HEIGHT 1
VIEWPOINT 0 0 0 1 0 0 0
POINTS 960
DATA ascii
-0.12126 -0.04042 0.90300006 1.9361435e-38
-0.11954001 -0.04042 0.90300006 1.9361435e-38
-0.11821143 -0.040554285 0.90600002 1.9453631e-38
-0.11674286 -0.040643811 0.90800005 1.9453631e-38
-0.11476 -0.040554285 0.90600002 1.9730218e-38
-0.11303429 -0.040554285 0.90600002 1.9822414e-38
-0.11155429 -0.040643811 0.90800005 1.9822414e-38
-0.10982477 -0.040643811 0.90800005 1.9453275e-38
-0.10750001 -0.04042 0.90300006 1.9453275e-38
-0.10578001 -0.04042 0.90300006 1.9453275e-38
-0.10440572 -0.040554285 0.90600002 1.9545471e-38
-0.10234001 -0.04042 0.90300006 1.9453275e-38
-0.10062001 -0.04042 0.90300006 1.9453275e-38
-0.098900005 -0.04042 0.90300006 1.9268884e-38
-0.097180009 -0.04042 0.90300006 1.9268884e-38
-0.095460005 -0.04042 0.90300006 1.9176688e-38
-0.093740009 -0.04042 0.90300006 1.9084493e-38
-0.092020005 -0.04042 0.90300006 1.8716066e-38
-0.090300001 -0.04042 0.90300006 1.8716066e-38
-0.088580005 -0.04042 0.90300006 1.8439123e-38
-0.08666762 -0.040330477 0.90100002 1.8346928e-38
-0.084951431 -0.040330477 0.90100002 1.8070341e-38
-0.083235241 -0.040330477 0.90100002 1.8162536e-38
-0.081066668 -0.040106665 0.89600003 1.7793754e-38
-0.079182863 -0.040017143 0.89400005 1.7332776e-38
-0.077480003 -0.040017143 0.89400005 1.7056545e-38
-0.075522862 -0.039882861 0.89100003 1.6964349e-38
-0.073825717 -0.039882861 0.89100003 1.6963983e-38
-0.072128572 -0.039882861 0.89100003 1.6595201e-38
-0.070115238 -0.039703812 0.88700002 1.5672165e-38
-0.068425715 -0.039703812 0.88700002 1.49346e-38
-0.14647335 -0.0381 0.88900006 1.7055803e-38
-0.14478001 -0.0381 0.88900006 1.6872141e-38
-0.14308667 -0.0381 0.88900006 1.751751e-38
-0.14171144 -0.038185716 0.89100003 1.7517167e-38
-0.14001429 -0.038185716 0.89100003 1.7701558e-38
-0.13878287 -0.03831429 0.89400005 1.7701914e-38
-0.13708 -0.03831429 0.89400005 1.8255088e-38
-0.13568 -0.038399998 0.89600003 1.8255088e-38
-0.13427238 -0.038485717 0.89800006 1.862387e-38
-0.13300475 -0.038614288 0.90100002 1.8531319e-38
-0.13128857 -0.038614288 0.90100002 1.8807906e-38
-0.12957239 -0.038614288 0.90100002 1.8900457e-38
-0.12814002 -0.038700003 0.90300006 1.8992653e-38
-0.12642001 -0.038700003 0.90300006 1.8992297e-38
-0.12470001 -0.038700003 0.90300006 1.9361079e-38
-0.12298001 -0.038700003 0.90300006 1.9361079e-38
-0.12126 -0.038700003 0.90300006 1.9822058e-38
-0.11993714 -0.03882857 0.90600002 1.9822411e-38
-0.11821143 -0.03882857 0.90600002 1.9822411e-38
-0.11674286 -0.038914286 0.90800005 1.9730215e-38
-0.11476 -0.03882857 0.90600002 1.9914606e-38
-0.11303429 -0.03882857 0.90600002 1.9822414e-38
-0.11155429 -0.038914286 0.90800005 1.9730218e-38
-0.10982477 -0.038914286 0.90800005 1.9638022e-38
-0.10809524 -0.038914286 0.90800005 1.9638022e-38
-0.10613143 -0.03882857 0.90600002 1.9638022e-38
-0.10440572 -0.03882857 0.90600002 1.9545827e-38
-0.10268001 -0.03882857 0.90600002 1.9545827e-38
-0.10095429 -0.03882857 0.90600002 1.9545827e-38
-0.098900005 -0.038700003 0.90300006 1.9268884e-38
-0.097180009 -0.038700003 0.90300006 1.9176688e-38
-0.095460005 -0.038700003 0.90300006 1.9177044e-38
-0.093740009 -0.038700003 0.90300006 1.9177044e-38
-0.092020005 -0.038700003 0.90300006 1.899265e-38
-0.090300001 -0.038700003 0.90300006 1.9177041e-38
-0.088580005 -0.038700003 0.90300006 1.862387e-38
-0.08666762 -0.038614288 0.90100002 1.8347283e-38
-0.084951431 -0.038614288 0.90100002 1.8347283e-38
-0.083235241 -0.038614288 0.90100002 1.8255088e-38
-0.081066668 -0.038399998 0.89600003 1.779411e-38
-0.079182863 -0.03831429 0.89400005 1.7240936e-38
-0.077480003 -0.03831429 0.89400005 1.7332413e-38
-0.075522862 -0.038185716 0.89100003 1.7055826e-38
-0.073825717 -0.038185716 0.89100003 1.7056182e-38
-0.07196667 -0.0381 0.88900006 1.6779595e-38
-0.070115238 -0.038014285 0.88700002 1.5765087e-38
-0.068425715 -0.038014285 0.88700002 1.4750935e-38
-0.066736192 -0.038014285 0.88700002 1.5485967e-38
-0.065046668 -0.038014285 0.88700002 1.6315727e-38
-0.14816667 -0.036406666 0.88900006 1.6318604e-38
-0.14647335 -0.036406666 0.88900006 1.6779582e-38
-0.14478001 -0.036406666 0.88900006 1.6595201e-38
-0.14308667 -0.036406666 0.88900006 1.7517157e-38
-0.14171144 -0.03648857 0.89100003 1.751752e-38
-0.14001429 -0.03648857 0.89100003 1.7701911e-38
-0.13878287 -0.03661143 0.89400005 1.7609718e-38
-0.13708 -0.03661143 0.89400005 1.8070697e-38
-0.13568 -0.036693335 0.89600003 1.8071057e-38
-0.13427238 -0.036775239 0.89800006 1.8439839e-38
-0.13300475 -0.036898095 0.90100002 1.8439839e-38
-0.13128857 -0.036898095 0.90100002 1.8716426e-38
-0.12986001 -0.036980003 0.90300006 1.8808262e-38
-0.12814002 -0.036980003 0.90300006 1.8992653e-38
-0.12642001 -0.036980003 0.90300006 1.9084493e-38
-0.12470001 -0.036980003 0.90300006 1.9361079e-38
-0.12298001 -0.036980003 0.90300006 1.9177407e-38
-0.12126 -0.036980003 0.90300006 1.9638385e-38
-0.11993714 -0.037102856 0.90600002 1.954619e-38
-0.11821143 -0.037102856 0.90600002 1.9453994e-38
-0.11648571 -0.037102856 0.90600002 1.9545471e-38
-0.11476 -0.037102856 0.90600002 1.9729862e-38
-0.11303429 -0.037102856 0.90600002 1.9453997e-38
-0.11155429 -0.037184764 0.90800005 1.9546192e-38
-0.10982477 -0.037184764 0.90800005 1.9730218e-38
-0.10809524 -0.037184764 0.90800005 1.9730218e-38
-0.10613143 -0.037102856 0.90600002 1.9637666e-38
-0.10440572 -0.037102856 0.90600002 1.9729862e-38
-0.10268001 -0.037102856 0.90600002 1.9545471e-38
-0.10095429 -0.037102856 0.90600002 1.9545471e-38
-0.098900005 -0.036980003 0.90300006 1.9361079e-38
-0.097180009 -0.036980003 0.90300006 1.9176688e-38
-0.095460005 -0.036980003 0.90300006 1.9084493e-38
-0.093740009 -0.036980003 0.90300006 1.9084493e-38
-0.092020005 -0.036980003 0.90300006 1.871571e-38
-0.090300001 -0.036980003 0.90300006 1.8807906e-38
-0.088580005 -0.036980003 0.90300006 1.8716066e-38
-0.086860001 -0.036980003 0.90300006 1.8439479e-38
-0.085140005 -0.036980003 0.90300006 1.8347283e-38
-0.083235241 -0.036898095 0.90100002 1.8162892e-38
-0.08124762 -0.036775239 0.89800006 1.7701558e-38
-0.079360001 -0.036693335 0.89600003 1.7332776e-38
-0.077480003 -0.03661143 0.89400005 1.7608637e-38
-0.075522862 -0.03648857 0.89100003 1.7147658e-38
-0.073825717 -0.03648857 0.89100003 1.7055466e-38
-0.07196667 -0.036406666 0.88900006 1.6871074e-38
-0.070115238 -0.036324766 0.88700002 1.6225699e-38
-0.068425715 -0.036324766 0.88700002 1.4842765e-38
-0.066736192 -0.036324766 0.88700002 1.4658364e-38
-0.064900003 -0.036242858 0.88500005 1.5764711e-38
-0.15087144 -0.034557145 0.88500005 1.5672163e-38
-0.14918572 -0.034557145 0.88500005 1.594875e-38
-0.14750001 -0.034557145 0.88500005 1.5948396e-38
-0.14647335 -0.034713335 0.88900006 1.6962548e-38
-0.14478001 -0.034713335 0.88900006 1.6779605e-38
-0.14340858 -0.034791429 0.89100003 1.751717e-38
-0.14171144 -0.034791429 0.89100003 1.7610072e-38
-0.14001429 -0.034791429 0.89100003 1.807105e-38
-0.13878287 -0.034908574 0.89400005 1.7794107e-38
-0.13708 -0.034908574 0.89400005 1.8070694e-38
-0.13568 -0.034986667 0.89600003 1.8162892e-38
-0.13397333 -0.034986667 0.89600003 1.862387e-38
-0.13300475 -0.035181906 0.90100002 1.862387e-38
-0.13128857 -0.035181906 0.90100002 1.8992653e-38
-0.12986001 -0.035260003 0.90300006 1.8808262e-38
-0.12814002 -0.035260003 0.90300006 1.9084849e-38
-0.12642001 -0.035260003 0.90300006 1.9177041e-38
-0.12470001 -0.035260003 0.90300006 1.9545824e-38
-0.12298001 -0.035260003 0.90300006 1.9361433e-38
-0.12126 -0.035260003 0.90300006 1.9730215e-38
-0.11993714 -0.035377141 0.90600002 1.9637666e-38
-0.11821143 -0.035377141 0.90600002 1.9545471e-38
-0.11648571 -0.035377141 0.90600002 1.9453275e-38
-0.11501334 -0.035455238 0.90800005 1.9637666e-38
-0.11328381 -0.035455238 0.90800005 1.9637672e-38
-0.11155429 -0.035455238 0.90800005 1.9545476e-38
-0.10982477 -0.035455238 0.90800005 1.9730218e-38
-0.10809524 -0.035455238 0.90800005 1.9730218e-38
-0.10613143 -0.035377141 0.90600002 1.9638022e-38
-0.10440572 -0.035377141 0.90600002 1.9638022e-38
-0.10268001 -0.035377141 0.90600002 1.9545827e-38
-0.10095429 -0.035377141 0.90600002 1.9361435e-38
-0.099228576 -0.035377141 0.90600002 1.9268884e-38
-0.097502857 -0.035377141 0.90600002 1.9176688e-38
-0.095460005 -0.035260003 0.90300006 1.8992297e-38
-0.093740009 -0.035260003 0.90300006 1.8807906e-38
-0.092020005 -0.035260003 0.90300006 1.871571e-38
-0.090300001 -0.035260003 0.90300006 1.871571e-38
-0.088580005 -0.035260003 0.90300006 1.8715703e-38
-0.086860001 -0.035260003 0.90300006 1.8531312e-38
-0.085140005 -0.035260003 0.90300006 1.8255085e-38
-0.083235241 -0.035181906 0.90100002 1.8162889e-38
-0.08124762 -0.035064761 0.89800006 1.7701558e-38
-0.079360001 -0.034986667 0.89600003 1.7517167e-38
-0.077653334 -0.034986667 0.89600003 1.7333129e-38
-0.075777143 -0.034908574 0.89400005 1.6964346e-38
-0.073825717 -0.034791429 0.89100003 1.6871081e-38
-0.07196667 -0.034713335 0.88900006 1.6410103e-38
-0.070115238 -0.034635238 0.88700002 1.6041664e-38
-0.068271436 -0.034557145 0.88500005 1.5027512e-38
-0.066585712 -0.034557145 0.88500005 1.5487051e-38
-0.15036 -0.032760002 0.88200003 1.5671089e-38
-0.14868 -0.032760002 0.88200003 1.6132067e-38
-0.14750001 -0.032871433 0.88500005 1.5856907e-38
-0.14614381 -0.032945715 0.88700002 1.6963255e-38
-0.14478001 -0.033020001 0.88900006 1.68718e-38
-0.14340858 -0.033094287 0.89100003 1.751717e-38
-0.14171144 -0.033094287 0.89100003 1.7610072e-38
-0.14001429 -0.033094287 0.89100003 1.7886658e-38
-0.13878287 -0.033205714 0.89400005 1.7701911e-38
-0.13708 -0.033205714 0.89400005 1.8070694e-38
-0.13568 -0.03328 0.89600003 1.8162892e-38
-0.13397333 -0.03328 0.89600003 1.8531675e-38
-0.13300475 -0.033465713 0.90100002 1.8623868e-38
-0.13128857 -0.033465713 0.90100002 1.8808259e-38
-0.12986001 -0.033540003 0.90300006 1.8439479e-38
-0.12814002 -0.033540003 0.90300006 1.8992653e-38
-0.12642001 -0.033540003 0.90300006 1.9177041e-38
-0.12470001 -0.033540003 0.90300006 1.9269237e-38
-0.12338857 -0.033651426 0.90600002 1.9177044e-38
-0.12166286 -0.033651426 0.90600002 1.9453631e-38
-0.11993714 -0.033651426 0.90600002 1.9452915e-38
-0.11821143 -0.033651426 0.90600002 1.9545111e-38
-0.11648571 -0.033651426 0.90600002 1.9361079e-38
-0.11501334 -0.033725716 0.90800005 1.9545471e-38
-0.11328381 -0.033725716 0.90800005 1.9637669e-38
-0.11155429 -0.033725716 0.90800005 1.9545474e-38
-0.10982477 -0.033725716 0.90800005 1.9637666e-38
-0.10809524 -0.033725716 0.90800005 1.9637666e-38
-0.10636572 -0.033725716 0.90800005 1.9268884e-38
-0.10463619 -0.033725716 0.90800005 1.9361079e-38
-0.10290667 -0.033725716 0.90800005 1.9361079e-38
-0.10117715 -0.033725716 0.90800005 1.9361079e-38
-0.099228576 -0.033651426 0.90600002 1.9084493e-38
-0.097502857 -0.033651426 0.90600002 1.8992297e-38
-0.095777147 -0.033651426 0.90600002 1.8900457e-38
-0.093740009 -0.033540003 0.90300006 1.8900457e-38
-0.092020005 -0.033540003 0.90300006 1.8716066e-38
-0.090300001 -0.033540003 0.90300006 1.8716066e-38
-0.088874288 -0.033651426 0.90600002 1.8347283e-38
-0.086860001 -0.033540003 0.90300006 1.8347283e-38
-0.085140005 -0.033540003 0.90300006 1.8162892e-38
-0.083420001 -0.033540003 0.90300006 1.8070697e-38
-0.08124762 -0.03335429 0.89800006 1.7517167e-38
-0.079360001 -0.03328 0.89600003 1.7517167e-38
-0.077653334 -0.03328 0.89600003 1.7333132e-38
-0.075777143 -0.033205714 0.89400005 1.6964349e-38
-0.073825717 -0.033094287 0.89100003 1.6687762e-38
-0.07196667 -0.033020001 0.88900006 1.6134588e-38
-0.070115238 -0.032945715 0.88700002 1.5857626e-38
-0.06750001 -0.032500003 0.87500006 1.5304452e-38
-0.065833338 -0.032500003 0.87500006 1.5946241e-38
-0.15036 -0.031080002 0.88200003 1.5395228e-38
-0.14868 -0.031080002 0.88200003 1.6040598e-38
-0.14750001 -0.031185716 0.88500005 1.6133494e-38
-0.14614381 -0.031256191 0.88700002 1.6963255e-38
-0.14478001 -0.031326666 0.88900006 1.6963277e-38
-0.14340858 -0.031397145 0.89100003 1.7700842e-38
-0.14171144 -0.031397145 0.89100003 1.7609353e-38
-0.14001429 -0.031397145 0.89100003 1.788594e-38
-0.13878287 -0.031502858 0.89400005 1.7701914e-38
-0.13738668 -0.031573333 0.89600003 1.8162892e-38
-0.13568 -0.031573333 0.89600003 1.8254369e-38
-0.13427238 -0.031643812 0.89800006 1.8715347e-38
-0.13300475 -0.031749524 0.90100002 1.8623868e-38
-0.13128857 -0.031749524 0.90100002 1.8900454e-38
-0.12986001 -0.031820003 0.90300006 1.8531319e-38
-0.12814002 -0.031820003 0.90300006 1.8992297e-38
-0.12642001 -0.031820003 0.90300006 1.9177041e-38
-0.12470001 -0.031820003 0.90300006 1.9177041e-38
-0.12338857 -0.031925712 0.90600002 1.9268524e-38
-0.12166286 -0.031925712 0.90600002 1.9452915e-38
-0.11993714 -0.031925712 0.90600002 1.9452915e-38
-0.11821143 -0.031925712 0.90600002 1.9452915e-38
-0.11648571 -0.031925712 0.90600002 1.9361079e-38
-0.11501334 -0.031996191 0.90800005 1.9453275e-38
-0.11328381 -0.031996191 0.90800005 1.9545471e-38
-0.11180001 -0.032066669 0.91000003 1.9729862e-38
-0.11006667 -0.032066669 0.91000003 1.9638022e-38
-0.10833333 -0.032066669 0.91000003 1.9638022e-38
-0.1066 -0.032066669 0.91000003 1.9361082e-38
-0.10486667 -0.032066669 0.91000003 1.9268887e-38
-0.10313334 -0.032066669 0.91000003 1.9176688e-38
-0.1014 -0.032066669 0.91000003 1.9176688e-38
-0.09966667 -0.032066669 0.91000003 1.9084493e-38
-0.097718097 -0.031996191 0.90800005 1.8992297e-38
-0.095988572 -0.031996191 0.90800005 1.8900457e-38
-0.094051436 -0.031925712 0.90600002 1.8808262e-38
-0.092325717 -0.031925712 0.90600002 1.8716063e-38
-0.090600006 -0.031925712 0.90600002 1.8623868e-38
-0.088874288 -0.031925712 0.90600002 1.8439479e-38
-0.087148577 -0.031925712 0.90600002 1.8255088e-38
-0.085422859 -0.031925712 0.90600002 1.8070697e-38
-0.083420001 -0.031820003 0.90300006 1.8070697e-38
-0.081519045 -0.031749524 0.90100002 1.7609363e-38
-0.079537146 -0.031643812 0.89800006 1.7424971e-38
-0.077653334 -0.031573333 0.89600003 1.7056192e-38
-0.075777143 -0.031502858 0.89400005 1.6963996e-38
-0.073825717 -0.031397145 0.89100003 1.6503368e-38
-0.07196667 -0.031326666 0.88900006 1.6318977e-38
-0.070115238 -0.031256191 0.88700002 1.6871056e-38
-0.06750001 -0.030833337 0.87500006 1.7608621e-38
-0.065833338 -0.030833337 0.87500006 1.8068173e-38
-0.15036 -0.0294 0.88200003 1.5304099e-38
-0.14868 -0.0294 0.88200003 1.5949468e-38
-0.14750001 -0.029500002 0.88500005 1.6225699e-38
-0.14647335 -0.029633334 0.88900006 1.6963264e-38
-0.14478001 -0.029633334 0.88900006 1.6870718e-38
-0.14340858 -0.029700002 0.89100003 1.7516088e-38
-0.14171144 -0.029700002 0.89100003 1.7517157e-38
-0.14048572 -0.0298 0.89400005 1.788594e-38
-0.13878287 -0.0298 0.89400005 1.7701911e-38
-0.13738668 -0.029866667 0.89600003 1.8070694e-38
-0.13598287 -0.029933335 0.89800006 1.8162892e-38
-0.13427238 -0.029933335 0.89800006 1.8347283e-38
-0.13300475 -0.030033333 0.90100002 1.8255088e-38
-0.13158001 -0.030100001 0.90300006 1.8531675e-38
-0.12986001 -0.030100001 0.90300006 1.8439123e-38
-0.12814002 -0.030100001 0.90300006 1.8992297e-38
-0.12642001 -0.030100001 0.90300006 1.9084846e-38
-0.12470001 -0.030100001 0.90300006 1.9177041e-38
-0.12338857 -0.030200001 0.90600002 1.8992297e-38
-0.12166286 -0.030200001 0.90600002 1.9084493e-38
-0.11993714 -0.030200001 0.90600002 1.8992297e-38
-0.11847238 -0.030266669 0.90800005 1.9453275e-38
-0.11674286 -0.030266669 0.90800005 1.9453628e-38
-0.11501334 -0.030266669 0.90800005 1.9453628e-38
-0.11328381 -0.030266669 0.90800005 1.9453631e-38
-0.11180001 -0.030333333 0.91000003 1.9453631e-38
-0.11006667 -0.030333333 0.91000003 1.9453631e-38
-0.10833333 -0.030333333 0.91000003 1.9545827e-38
-0.1066 -0.030333333 0.91000003 1.9361079e-38
-0.10486667 -0.030333333 0.91000003 1.9361079e-38
-0.10313334 -0.030333333 0.91000003 1.9176688e-38
-0.1014 -0.030333333 0.91000003 1.9176688e-38
-0.09966667 -0.030333333 0.91000003 1.9084493e-38
-0.097933337 -0.030333333 0.91000003 1.8992297e-38
-0.095988572 -0.030266669 0.90800005 1.8900101e-38
-0.094259053 -0.030266669 0.90800005 1.871571e-38
-0.092325717 -0.030200001 0.90600002 1.862387e-38
-0.090600006 -0.030200001 0.90600002 1.8531675e-38
-0.088874288 -0.030200001 0.90600002 1.8439476e-38
-0.087148577 -0.030200001 0.90600002 1.8255085e-38
-0.085422859 -0.030200001 0.90600002 1.8162173e-38
-0.083420001 -0.030100001 0.90300006 1.8069978e-38
-0.081519045 -0.030033333 0.90100002 1.7610434e-38
-0.079537146 -0.029933335 0.89800006 1.7149456e-38
-0.077826671 -0.029933335 0.89800006 1.6780311e-38
-0.075946666 -0.029866667 0.89600003 1.6780311e-38
-0.074074291 -0.0298 0.89400005 1.668668e-38
-0.072128572 -0.029700002 0.89100003 1.7055463e-38
-0.070273332 -0.029633334 0.88900006 1.7883428e-38
-0.068580002 -0.029633334 0.88900006 1.8344407e-38
-0.15036 -0.027720001 0.88200003 1.6870336e-38
-0.14868 -0.027720001 0.88200003 1.6409358e-38
-0.14750001 -0.027814288 0.88500005 1.6224986e-38
-0.14647335 -0.027940001 0.88900006 1.6962551e-38
-0.14510572 -0.028002858 0.89100003 1.6778879e-38
-0.14340858 -0.028002858 0.89100003 1.7516444e-38
-0.14171144 -0.028002858 0.89100003 1.7424964e-38
-0.14048572 -0.028097145 0.89400005 1.7885942e-38
-0.13909334 -0.02816 0.89600003 1.7701911e-38
-0.13769333 -0.028222859 0.89800006 1.8070694e-38
-0.13598287 -0.028222859 0.89800006 1.8070694e-38
-0.13427238 -0.028222859 0.89800006 1.8162889e-38
-0.13300475 -0.028317144 0.90100002 1.8346567e-38
-0.13158001 -0.028380001 0.90300006 1.871535e-38
-0.12986001 -0.028380001 0.90300006 1.8531319e-38
-0.12814002 -0.028380001 0.90300006 1.9084493e-38
-0.12684001 -0.028474286 0.90600002 1.9084846e-38
-0.12511428 -0.028474286 0.90600002 1.9084846e-38
-0.12338857 -0.028474286 0.90600002 1.9084132e-38
-0.12193143 -0.028537145 0.90800005 1.9084132e-38
-0.12020191 -0.028537145 0.90800005 1.9176328e-38
-0.11847238 -0.028537145 0.90800005 1.9637306e-38
-0.11674286 -0.028537145 0.90800005 1.9453984e-38
-0.11501334 -0.028537145 0.90800005 1.9361789e-38
-0.11353334 -0.0286 0.91000003 1.9453628e-38
-0.11180001 -0.0286 0.91000003 1.9453628e-38
-0.11006667 -0.0286 0.91000003 1.9453628e-38
-0.10833333 -0.0286 0.91000003 1.9361433e-38
-0.1066 -0.0286 0.91000003 1.9453268e-38
-0.10486667 -0.0286 0.91000003 1.9361072e-38
-0.10313334 -0.0286 0.91000003 1.9084849e-38
-0.1014 -0.0286 0.91000003 1.8992653e-38
-0.09966667 -0.0286 0.91000003 1.8992297e-38
-0.097933337 -0.0286 0.91000003 1.8992297e-38
-0.095988572 -0.028537145 0.90800005 1.8900457e-38
-0.094259053 -0.028537145 0.90800005 1.8531675e-38
-0.092325717 -0.028474286 0.90600002 1.8346928e-38
-0.090600006 -0.028474286 0.90600002 1.8346928e-38
-0.088874288 -0.028474286 0.90600002 1.8162173e-38
-0.087148577 -0.028474286 0.90600002 1.7977782e-38
-0.085422859 -0.028474286 0.90600002 1.7701195e-38
-0.083420001 -0.028380001 0.90300006 1.7516804e-38
-0.081700005 -0.028380001 0.90300006 1.7424245e-38
-0.079802856 -0.028317144 0.90100002 1.7424245e-38
-0.077826671 -0.028222859 0.89800006 1.7701185e-38
-0.075946666 -0.02816 0.89600003 1.843875e-38
-0.074074291 -0.028097145 0.89400005 1.917595e-38
-0.072128572 -0.028002858 0.89100003 2.000571e-38
-0.070431434 -0.028002858 0.89100003 1.9083777e-38
-0.15036 -0.026040001 0.88200003 1.7053643e-38
-0.14868 -0.026040001 0.88200003 1.668486e-38
-0.14783333 -0.026187621 0.88700002 1.6225352e-38
-0.14647335 -0.026246669 0.88900006 1.6778526e-38
-0.14510572 -0.026305715 0.89100003 1.6871425e-38
-0.14340858 -0.026305715 0.89100003 1.760899e-38
-0.14171144 -0.026305715 0.89100003 1.7516438e-38
-0.14048572 -0.026394285 0.89400005 1.7885221e-38
-0.13909334 -0.026453335 0.89600003 1.7701911e-38
-0.13769333 -0.026512383 0.89800006 1.7886303e-38
-0.13598287 -0.026512383 0.89800006 1.7886303e-38
-0.13472095 -0.026600951 0.90100002 1.8162889e-38
-0.13300475 -0.026600951 0.90100002 1.8254369e-38
-0.13158001 -0.026660001 0.90300006 1.8623151e-38
-0.12986001 -0.026660001 0.90300006 1.8531319e-38
-0.12856571 -0.026748572 0.90600002 1.871571e-38
-0.12684001 -0.026748572 0.90600002 1.8899738e-38
-0.12511428 -0.026748572 0.90600002 1.8899738e-38
-0.12366096 -0.026807619 0.90800005 1.8807899e-38
-0.12193143 -0.026807619 0.90800005 1.9084486e-38
-0.12020191 -0.026807619 0.90800005 1.9176325e-38
-0.11873334 -0.026866667 0.91000003 1.9268521e-38
-0.11700001 -0.026866667 0.91000003 1.8900454e-38
-0.11526667 -0.026866667 0.91000003 1.9177041e-38
-0.11353334 -0.026866667 0.91000003 1.9269237e-38
-0.11180001 -0.026866667 0.91000003 1.9269237e-38
-0.11006667 -0.026866667 0.91000003 1.9176325e-38
-0.10833333 -0.026866667 0.91000003 1.9268521e-38
-0.1066 -0.026866667 0.91000003 1.9175609e-38
-0.10486667 -0.026866667 0.91000003 1.9267805e-38
-0.10313334 -0.026866667 0.91000003 1.908413e-38
-0.1014 -0.026866667 0.91000003 1.908413e-38
-0.09966667 -0.026866667 0.91000003 1.8900101e-38
-0.097933337 -0.026866667 0.91000003 1.8900101e-38
-0.095988572 -0.026807619 0.90800005 1.8808259e-38
-0.094259053 -0.026807619 0.90800005 1.8531672e-38
-0.092529528 -0.026807619 0.90800005 1.8346921e-38
-0.090800002 -0.026807619 0.90800005 1.8254725e-38
-0.089070477 -0.026807619 0.90800005 1.8070331e-38
-0.087148577 -0.026748572 0.90600002 1.788594e-38
-0.085422859 -0.026748572 0.90600002 1.7700829e-38
-0.083420001 -0.026660001 0.90300006 1.7793025e-38
-0.081519045 -0.026600951 0.90100002 1.7607918e-38
-0.079537146 -0.026512383 0.89800006 1.8161092e-38
-0.077826671 -0.026512383 0.89800006 1.8529527e-38
-0.075946666 -0.026453335 0.89600003 1.9174896e-38
-0.074074291 -0.026394285 0.89400005 2.0005357e-38
-0.072128572 -0.026305715 0.89100003 1.972877e-38
-0.070431434 -0.026305715 0.89100003 1.8807911e-38
-0.14952287 -0.024498096 0.88700002 1.6962492e-38
-0.14783333 -0.024498096 0.88700002 1.7053673e-38
-0.14647335 -0.024553334 0.88900006 1.7791238e-38
-0.14510572 -0.024608571 0.89100003 1.7332037e-38
-0.14340858 -0.024608571 0.89100003 1.7793015e-38
-0.14171144 -0.024608571 0.89100003 1.7517157e-38
-0.14048572 -0.024691431 0.89400005 1.7793744e-38
-0.13909334 -0.024746668 0.89600003 1.7701195e-38
-0.13769333 -0.024801906 0.89800006 1.7701195e-38
-0.13598287 -0.024801906 0.89800006 1.7793747e-38
-0.13472095 -0.024884764 0.90100002 1.8162529e-38
-0.13300475 -0.024884764 0.90100002 1.8254369e-38
-0.13158001 -0.024940003 0.90300006 1.843876e-38
-0.12986001 -0.024940003 0.90300006 1.8438763e-38
-0.12856571 -0.025022857 0.90600002 1.8530959e-38
-0.12684001 -0.025022857 0.90600002 1.8622798e-38
-0.12511428 -0.025022857 0.90600002 1.880719e-38
-0.12366096 -0.025078095 0.90800005 1.8807899e-38
-0.12193143 -0.025078095 0.90800005 1.9361072e-38
-0.12046667 -0.025133334 0.91000003 1.9084132e-38
-0.11873334 -0.025133334 0.91000003 1.9176328e-38
-0.11700001 -0.025133334 0.91000003 1.8716066e-38
-0.11526667 -0.025133334 0.91000003 1.9084849e-38
-0.11353334 -0.025133334 0.91000003 1.9084849e-38
-0.11180001 -0.025133334 0.91000003 1.9084849e-38
-0.11006667 -0.025133334 0.91000003 1.8899385e-38
-0.10833333 -0.025133334 0.91000003 1.8899385e-38
-0.1066 -0.025133334 0.91000003 1.871535e-38
-0.10486667 -0.025133334 0.91000003 1.8623154e-38
-0.10313334 -0.025133334 0.91000003 1.8531312e-38
-0.1014 -0.025133334 0.91000003 1.8623507e-38
-0.09966667 -0.025133334 0.91000003 1.8530959e-38
-0.097933337 -0.025133334 0.91000003 1.8438763e-38
-0.096200004 -0.025133334 0.91000003 1.8346918e-38
-0.094466671 -0.025133334 0.91000003 1.8346918e-38
-0.092529528 -0.025078095 0.90800005 1.8254722e-38
-0.090800002 -0.025078095 0.90800005 1.8439113e-38
-0.089070477 -0.025078095 0.90800005 1.8899375e-38
-0.087148577 -0.025022857 0.90600002 1.9452549e-38
-0.07910572 -0.023172382 0.83900005 2.0282294e-38
-0.077507623 -0.023172382 0.83900005 2.101986e-38
-0.075909525 -0.023172382 0.83900005 2.1112073e-38
-0.074311435 -0.023172382 0.83900005 2.1296465e-38
-0.072886661 -0.023227619 0.84100002 2.0559275e-38
-0.071284764 -0.023227619 0.84100002 1.9729514e-38
-0.069848575 -0.023282859 0.84300005 1.7520407e-38
-0.072371431 -0.024691431 0.89400005 1.4109168e-38
-0.14337048 -0.021625714 0.84100002 1.2723642e-38
-0.14143144 -0.021574287 0.83900005 1.5120728e-38
-0.13983335 -0.021574287 0.83900005 1.6960734e-38
-0.14647335 -0.022860002 0.88900006 1.8067081e-38
-0.14510572 -0.022911429 0.89100003 1.7792662e-38
-0.14340858 -0.022911429 0.89100003 1.7977053e-38
-0.14171144 -0.022911429 0.89100003 1.7701558e-38
-0.14048572 -0.022988571 0.89400005 1.7793754e-38
-0.13909334 -0.02304 0.89600003 1.7701551e-38
-0.13769333 -0.02309143 0.89800006 1.7885942e-38
-0.13598287 -0.02309143 0.89800006 1.8069615e-38
-0.13427238 -0.02309143 0.89800006 1.8438397e-38
-0.13300475 -0.023168571 0.90100002 1.8438394e-38
-0.13158001 -0.023220003 0.90300006 1.853059e-38
-0.12986001 -0.023220003 0.90300006 1.8346202e-38
-0.12856571 -0.023297142 0.90600002 1.8530593e-38
-0.12684001 -0.023297142 0.90600002 1.8346565e-38
-0.12511428 -0.023297142 0.90600002 1.8715347e-38
-0.12366096 -0.023348572 0.90800005 1.8715703e-38
-0.12193143 -0.023348572 0.90800005 1.8807899e-38
-0.12046667 -0.023400001 0.91000003 1.8714984e-38
-0.11873334 -0.023400001 0.91000003 1.8899375e-38
-0.11700001 -0.023400001 0.91000003 1.880718e-38
-0.11526667 -0.023400001 0.91000003 1.9083767e-38
-0.11353334 -0.023400001 0.91000003 1.8808262e-38
-0.11180001 -0.023400001 0.91000003 1.8808262e-38
-0.11006667 -0.023400001 0.91000003 1.8531319e-38
-0.10833333 -0.023400001 0.91000003 1.871571e-38
-0.1066 -0.023400001 0.91000003 1.8715347e-38
-0.10486667 -0.023400001 0.91000003 1.8530956e-38
-0.10313334 -0.023400001 0.91000003 1.8346921e-38
-0.1014 -0.023400001 0.91000003 1.8439116e-38
-0.09966667 -0.023400001 0.91000003 1.8439113e-38
-0.097933337 -0.023400001 0.91000003 1.8531309e-38
-0.096200004 -0.023400001 0.91000003 1.8530956e-38
-0.094466671 -0.023400001 0.91000003 1.8715347e-38
-0.092733338 -0.023400001 0.91000003 1.9083416e-38
-0.091000006 -0.023400001 0.91000003 1.9728786e-38
-0.089070477 -0.023348572 0.90800005 2.0281969e-38
-0.080511428 -0.021522857 0.83700001 2.0189774e-38
-0.078917138 -0.021522857 0.83700001 2.0742569e-38
-0.077507623 -0.021574287 0.83900005 2.1664525e-38
-0.075909525 -0.021574287 0.83900005 2.1573768e-38
-0.074311435 -0.021574287 0.83900005 2.0375224e-38
-0.072886661 -0.021625714 0.84100002 1.9547622e-38
-0.071284764 -0.021625714 0.84100002 1.8994448e-38
-0.069682859 -0.021625714 0.84100002 1.439441e-38
-0.068080954 -0.021625714 0.84100002 1.0983171e-38
-0.14337048 -0.02002381 0.84100002 1.0605635e-38
-0.14143144 -0.019976191 0.83900005 1.1527591e-38
-0.13983335 -0.019976191 0.83900005 1.5026381e-38
-0.13856475 -0.02002381 0.84100002 1.6685903e-38
-0.13696286 -0.02002381 0.84100002 1.7884838e-38
-0.14340858 -0.021214288 0.89100003 1.8253621e-38
-0.14218858 -0.021285716 0.89400005 1.834693e-38
-0.14048572 -0.021285716 0.89400005 1.8900104e-38
-0.13909334 -0.021333335 0.89600003 1.8900094e-38
-0.13769333 -0.021380953 0.89800006 1.9361072e-38
-0.13598287 -0.021380953 0.89800006 1.9360719e-38
-0.13427238 -0.021380953 0.89800006 1.9637306e-38
-0.13300475 -0.021452382 0.90100002 1.936107e-38
-0.13158001 -0.021500001 0.90300006 1.9453265e-38
-0.12986001 -0.021500001 0.90300006 1.9545098e-38
-0.12856571 -0.021571428 0.90600002 1.9545098e-38
-0.12684001 -0.021571428 0.90600002 1.9545461e-38
-0.12539048 -0.021619048 0.90800005 1.9637657e-38
-0.12366096 -0.021619048 0.90800005 1.9361433e-38
-0.1222 -0.021666666 0.91000003 1.9177041e-38
-0.12046667 -0.021666666 0.91000003 1.9269237e-38
-0.11873334 -0.021666666 0.91000003 1.9638019e-38
-0.11700001 -0.021666666 0.91000003 2.0006442e-38
-0.11526667 -0.021666666 0.91000003 2.0190833e-38
-0.11353334 -0.021666666 0.91000003 2.0744007e-38
-0.11180001 -0.021666666 0.91000003 2.0651811e-38
-0.11006667 -0.021666666 0.91000003 2.1112433e-38
-0.10833333 -0.021666666 0.91000003 2.1481216e-38
-0.1066 -0.021666666 0.91000003 2.1665963e-38
-0.10521238 -0.021738095 0.91300005 2.1850354e-38
-0.10347334 -0.021738095 0.91300005 2.1942194e-38
-0.1014 -0.021666666 0.91000003 2.1942194e-38
-0.09966667 -0.021666666 0.91000003 2.2126941e-38
-0.097933337 -0.021666666 0.91000003 2.2772311e-38
-0.096200004 -0.021666666 0.91000003 2.3048907e-38
-0.094466671 -0.021666666 0.91000003 2.341769e-38
-0.092733338 -0.021666666 0.91000003 2.3234018e-38
-0.091000006 -0.021666666 0.91000003 2.3049626e-38
-0.08190953 -0.019880952 0.83500004 2.0744045e-38
-0.080319054 -0.019880952 0.83500004 2.0098675e-38
-0.078917138 -0.019928573 0.83700001 2.0283039e-38
-0.077322856 -0.019928573 0.83700001 2.0744017e-38
-0.075909525 -0.019976191 0.83900005 1.8441644e-38
-0.074311435 -0.019976191 0.83900005 1.3370884e-38
-0.072713338 -0.019976191 0.83900005 1.383367e-38
-0.071284764 -0.02002381 0.84100002 1.7982474e-38
-0.069682859 -0.02002381 0.84100002 1.8349079e-38
-0.068080954 -0.02002381 0.84100002 1.6505166e-38
-0.14176857 -0.018421905 0.84100002 1.0789698e-38
-0.14016667 -0.018421905 0.84100002 1.2630766e-38
-0.13856475 -0.018421905 0.84100002 1.4198092e-38
-0.13696286 -0.018421905 0.84100002 1.4935651e-38
-0.13503905 -0.018378096 0.83900005 1.6963955e-38
-0.13344096 -0.018378096 0.83900005 1.7610079e-38
-0.14048572 -0.019582856 0.89400005 1.8808622e-38
-0.13909334 -0.019626666 0.89600003 1.8809338e-38
-0.13769333 -0.019670477 0.89800006 1.8993729e-38
-0.13598287 -0.019670477 0.89800006 1.9637657e-38
-0.13472095 -0.019736189 0.90100002 1.9545461e-38
-0.13300475 -0.019736189 0.90100002 1.9545461e-38
-0.13158001 -0.019780001 0.90300006 1.9729852e-38
-0.12986001 -0.019780001 0.90300006 1.9822051e-38
-0.12856571 -0.019845715 0.90600002 1.9914246e-38
-0.12684001 -0.019845715 0.90600002 2.046742e-38
-0.12539048 -0.019889524 0.90800005 2.0559616e-38
-0.12366096 -0.019889524 0.90800005 2.0375231e-38
-0.1222 -0.019933334 0.91000003 2.0559623e-38
-0.12046667 -0.019933334 0.91000003 2.0651821e-38
-0.11873334 -0.019933334 0.91000003 2.129719e-38
-0.11700001 -0.019933334 0.91000003 2.1389383e-38
-0.11526667 -0.019933334 0.91000003 2.1573775e-38
-0.11353334 -0.019933334 0.91000003 2.2034393e-38
-0.11180001 -0.019933334 0.91000003 2.1942197e-38
-0.11006667 -0.019933334 0.91000003 2.1942197e-38
-0.10833333 -0.019933334 0.91000003 2.2310979e-38
-0.10695143 -0.019999048 0.91300005 2.2311342e-38
-0.10521238 -0.019999048 0.91300005 2.2403538e-38
-0.10347334 -0.019999048 0.91300005 2.2957065e-38
-0.1014 -0.019933334 0.91000003 2.2864869e-38
-0.09966667 -0.019933334 0.91000003 2.3233296e-38
-0.097933337 -0.019933334 0.91000003 2.3417687e-38
-0.096200004 -0.019933334 0.91000003 2.341769e-38
-0.094466671 -0.019933334 0.91000003 2.2864516e-38
-0.08488667 -0.018246669 0.83300006 2.2497532e-38
-0.083300002 -0.018246669 0.83300006 2.1759967e-38
-0.081713334 -0.018246669 0.83300006 1.7985691e-38
-0.080319054 -0.018290477 0.83500004 1.8354474e-38
-0.078917138 -0.018334284 0.83700001 1.9178506e-38
-0.077322856 -0.018334284 0.83700001 1.9455093e-38
-0.075909525 -0.018378096 0.83900005 1.6602764e-38
-0.074311435 -0.018378096 0.83900005 9.9646782e-39
-0.072713338 -0.018378096 0.83900005 1.2084753e-38
-0.071284764 -0.018421905 0.84100002 1.6602339e-38
-0.069848575 -0.018465716 0.84300005 2.0280508e-38
-0.068242863 -0.018465716 0.84300005 1.9727334e-38
-0.067111433 -0.018597143 0.84900004 1.6873245e-38
-0.14371143 -0.016860001 0.84300005 1.0788318e-38
-0.14210573 -0.016860001 0.84300005 1.1525883e-38
-0.14050001 -0.016860001 0.84300005 1.1526602e-38
-0.13856475 -0.01682 0.84100002 9.5904937e-39
-0.13696286 -0.01682 0.84100002 8.4873803e-39
-0.13503905 -0.016780002 0.83900005 1.1529836e-38
-0.13344096 -0.016780002 0.83900005 1.3277618e-38
-0.13184287 -0.016780002 0.83900005 1.4844944e-38
-0.12993428 -0.01674 0.83700001 1.4387538e-38
-0.12834001 -0.01674 0.83700001 1.4387538e-38
-0.13643715 -0.01802 0.90100002 1.38369e-38
-0.13472095 -0.01802 0.90100002 1.531203e-38
-0.13300475 -0.01802 0.90100002 1.7426769e-38
-0.13158001 -0.018060001 0.90300006 1.9270682e-38
-0.12986001 -0.018060001 0.90300006 1.9822414e-38
-0.12856571 -0.01812 0.90600002 1.9638022e-38
-0.12684001 -0.01812 0.90600002 2.0283739e-38
-0.12539048 -0.01816 0.90800005 2.1205696e-38
-0.12366096 -0.01816 0.90800005 2.1389386e-38
-0.12193143 -0.01816 0.90800005 2.1850364e-38
-0.10894953 -0.016460001 0.82300001 2.1482301e-38
-0.1073819 -0.016460001 0.82300001 2.1113518e-38
-0.10581429 -0.016460001 0.82300001 2.1114597e-38
-0.10424667 -0.016460001 0.82300001 2.1298988e-38
-0.10292857 -0.0165 0.82500005 2.0930206e-38
-0.10135715 -0.0165 0.82500005 2.0469228e-38
-0.099785723 -0.0165 0.82500005 2.1205348e-38
-0.098452382 -0.01654 0.82700002 2.2403891e-38
-0.10695143 -0.01826 0.91300005 2.2311345e-38
-0.10521238 -0.01826 0.91300005 2.1942563e-38
-0.093953341 -0.016580001 0.82900006 2.1390099e-38
-0.092374288 -0.016580001 0.82900006 2.0836926e-38
-0.090795241 -0.016580001 0.82900006 2.1020604e-38
-0.089431427 -0.016620001 0.83100003 2.1389386e-38
-0.087848574 -0.016620001 0.83100003 1.8994114e-38
-0.086265713 -0.016620001 0.83100003 1.3738964e-38
-0.084682859 -0.016620001 0.83100003 1.264048e-38
-0.083300002 -0.016660001 0.83300006 1.2732676e-38
-0.081713334 -0.016660001 0.83300006 1.4110501e-38
-0.080319054 -0.0167 0.83500004 1.8996869e-38
-0.078917138 -0.01674 0.83700001 2.0007546e-38
-0.077322856 -0.01674 0.83700001 1.8532416e-38
-0.075728573 -0.01674 0.83700001 1.4855706e-38
-0.07413429 -0.01674 0.83700001 7.4800555e-39
-0.072713338 -0.016780002 0.83900005 6.936255e-39
-0.071284764 -0.01682 0.84100002 1.0439689e-38
-0.069848575 -0.016860001 0.84300005 1.770366e-38
-0.068404764 -0.016900001 0.84500003 1.9547573e-38
-0.067111433 -0.01698 0.84900004 1.7056182e-38
-0.065648571 -0.01702 0.85100001 7.283445e-39
-0.14371143 -0.015254286 0.84300005 1.1158898e-38
-0.14176857 -0.015218095 0.84100002 1.1804268e-38
-0.14016667 -0.015218095 0.84100002 1.1621666e-38
-0.13889429 -0.015254286 0.84300005 6.8274933e-39
-0.13728859 -0.015254286 0.84300005 5.3587909e-39
-0.13503905 -0.015181906 0.83900005 7.5714861e-39
-0.13344096 -0.015181906 0.83900005 1.3646348e-38
-0.13184287 -0.015181906 0.83900005 1.4937086e-38
-0.12993428 -0.015145714 0.83700001 1.1811115e-38
-0.12803334 -0.015109524 0.83500004 9.8750063e-39
-0.12614 -0.015073335 0.83300006 8.0407977e-39
-0.12455334 -0.015073335 0.83300006 1.2097405e-38
-0.13300475 -0.016303809 0.90100002 1.475922e-38
-0.13158001 -0.016340001 0.90300006 1.7432893e-38
-0.13029143 -0.016394285 0.90600002 1.8625312e-38
-0.11763906 -0.015000953 0.82900006 1.7795552e-38
-0.11606 -0.015000953 0.82900006 1.7888051e-38
-0.12539048 -0.016430477 0.90800005 1.917879e-38
-0.12366096 -0.016430477 0.90800005 2.0282676e-38
-0.11078572 -0.014928573 0.82500005 2.1020241e-38
-0.10894953 -0.014892381 0.82300001 1.8811887e-38
-0.1073819 -0.014892381 0.82300001 1.6967974e-38
-0.10581429 -0.014892381 0.82300001 1.6694226e-38
-0.10424667 -0.014892381 0.82300001 1.6786422e-38
-0.10292857 -0.014928573 0.82500005 1.5867334e-38
-0.10135715 -0.014928573 0.82500005 1.6512704e-38
-0.099785723 -0.014928573 0.82500005 1.7983543e-38
-0.098214291 -0.014928573 0.82500005 2.0472825e-38
-0.096877143 -0.014964762 0.82700002 2.074654e-38
-0.095301904 -0.014964762 0.82700002 1.927141e-38
-0.093953341 -0.015000953 0.82900006 1.8534196e-38
-0.092374288 -0.015000953 0.82900006 1.8165413e-38
-0.090795241 -0.015000953 0.82900006 1.8717511e-38
-0.089216195 -0.015000953 0.82900006 2.0284836e-38
-0.087848574 -0.015037144 0.83100003 1.8811511e-38
-0.086265713 -0.015037144 0.83100003 1.4017338e-38
-0.084682859 -0.015037144 0.83100003 1.1804278e-38
-0.083300002 -0.015073335 0.83300006 1.2357451e-38
-0.081713334 -0.015073335 0.83300006 1.4381715e-38
-0.080319054 -0.015109524 0.83500004 2.1572974e-38
-0.078917138 -0.015145714 0.83700001 2.1668494e-38
-0.077322856 -0.015145714 0.83700001 1.5767974e-38
-0.075728573 -0.015145714 0.83700001 1.1173654e-38
-0.07413429 -0.015145714 0.83700001 7.1170464e-39
-0.072713338 -0.015181906 0.83900005 2.8047311e-39
-0.071284764 -0.015218095 0.84100002 3.4501005e-39
-0.070014283 -0.015290476 0.84500003 1.3557764e-38
-0.068566665 -0.015326667 0.84700006 1.7153394e-38
-0.067111433 -0.015362858 0.84900004 1.7512851e-38
-0.065648571 -0.015399048 0.85100001 8.2932879e-39
-0.064253338 -0.015453333 0.85400003 7.9287373e-39
-0.14558668 -0.013826667 0.85400003 1.1803186e-38
-0.14176857 -0.01361619 0.84100002 1.023586e-38
-0.14016667 -0.01361619 0.84100002 8.0310839e-39
-0.13889429 -0.013648572 0.84300005 4.6198456e-39
-0.13728859 -0.013648572 0.84300005 2.1446256e-39
-0.13503905 -0.01358381 0.83900005 3.6197557e-39
-0.13344096 -0.01358381 0.83900005 9.2292361e-39
-0.13184287 -0.01358381 0.83900005 1.5037561e-38
-0.12993428 -0.013551429 0.83700001 1.5586459e-38
-0.12803334 -0.013519048 0.83500004 1.3926938e-38
-0.12614 -0.013486668 0.83300006 1.3284452e-38
-0.12425429 -0.013454286 0.83100003 1.6142517e-38
-0.12267143 -0.013454286 0.83100003 1.8626016e-38
-0.12108857 -0.013454286 0.83100003 1.9455776e-38
-0.1192181 -0.013421906 0.82900006 1.8533117e-38
-0.11763906 -0.013421906 0.82900006 1.3093575e-38
-0.11578 -0.013389524 0.82700002 1.2265182e-38
-0.11392858 -0.013357143 0.82500005 1.5215442e-38
-0.11235715 -0.013357143 0.82500005 1.8159312e-38
-0.11078572 -0.013357143 0.82500005 2.2031528e-38
-0.10894953 -0.013324762 0.82300001 2.0376316e-38
-0.1073819 -0.013324762 0.82300001 1.5950926e-38
-0.10581429 -0.013324762 0.82300001 1.3840083e-38
-0.1045 -0.013357143 0.82500005 1.4024474e-38
-0.10292857 -0.013357143 0.82500005 1.4853123e-38
-0.10135715 -0.013357143 0.82500005 1.725021e-38
-0.099785723 -0.013357143 0.82500005 2.0562853e-38
-0.098214291 -0.013357143 0.82500005 2.231457e-38
-0.096877143 -0.013389524 0.82700002 2.1577012e-38
-0.095301904 -0.013389524 0.82700002 1.8811143e-38
-0.093953341 -0.013421906 0.82900006 1.6236157e-38
-0.092374288 -0.013421906 0.82900006 1.5775179e-38
-0.090795241 -0.013421906 0.82900006 1.761476e-38
-0.089216195 -0.013421906 0.82900006 2.1025999e-38
-0.087848574 -0.013454286 0.83100003 2.2128033e-38
-0.086265713 -0.013454286 0.83100003 2.2589011e-38
-0.084682859 -0.013454286 0.83100003 2.1391171e-38
-0.083500005 -0.013519048 0.83500004 1.8533107e-38
-0.08190953 -0.013519048 0.83500004 1.9730584e-38
-0.080319054 -0.013519048 0.83500004 2.1574496e-38
-0.078917138 -0.013551429 0.83700001 1.9367521e-38
-0.077322856 -0.013551429 0.83700001 1.0608936e-38
-0.075728573 -0.013551429 0.83700001 4.8269365e-39
-0.074311435 -0.01358381 0.83900005 5.4723059e-39
-0.072713338 -0.01358381 0.83900005 5.1035234e-39
-0.071454294 -0.013648572 0.84300005 2.9830239e-39
-0.070179999 -0.013713335 0.84700006 1.0704031e-38
-0.068728574 -0.013745715 0.84900004 1.55904e-38
-0.067269526 -0.013778095 0.85100001 1.6042368e-38
-0.065648571 -0.013778095 0.85100001 7.2837827e-39
-0.064027622 -0.013778095 0.85100001 7.9320612e-39
-0.062406667 -0.013778095 0.85100001 1.4477951e-38
-0.059164762 -0.013778095 0.85100001 1.5579597e-38
-0.14558668 -0.012200001 0.85400003 1.1895387e-38
-0.14311714 -0.012128572 0.84900004 9.221714e-39
-0.14116667 -0.012100001 0.84700006 6.9276104e-39
-0.1392238 -0.012071429 0.84500003 4.6227197e-39
-0.13728859 -0.012042858 0.84300005 1.5964741e-39
-0.13536096 -0.012014287 0.84100002 1.7808654e-39
-0.13344096 -0.011985715 0.83900005 5.9173933e-39
-0.13184287 -0.011985715 0.83900005 1.1449131e-38
-0.13024476 -0.011985715 0.83900005 1.6046333e-38
-0.12803334 -0.011928571 0.83500004 1.6415116e-38
-0.12614 -0.0119 0.83300006 1.6506258e-38
-0.12425429 -0.011871428 0.83100003 1.8534561e-38
-0.12267143 -0.011871428 0.83100003 1.9639104e-38
-0.12108857 -0.011871428 0.83100003 1.8993735e-38
-0.1192181 -0.011842857 0.82900006 1.7703706e-38
-0.11763906 -0.011842857 0.82900006 1.1526599e-38
-0.11578 -0.011814286 0.82700002 1.1524395e-38
-0.11392858 -0.011785715 0.82500005 1.3091721e-38
-0.11235715 -0.011785715 0.82500005 1.8891413e-38
-0.11078572 -0.011785715 0.82500005 2.2302652e-38
-0.10921429 -0.011785715 0.82500005 2.2495368e-38
-0.10764287 -0.011785715 0.82500005 1.8991934e-38
-0.10607143 -0.011785715 0.82500005 1.6875741e-38
-0.1045 -0.011785715 0.82500005 1.6414763e-38
-0.10292857 -0.011785715 0.82500005 1.63247e-38
-0.10160286 -0.011814286 0.82700002 1.9735938e-38
-0.10002762 -0.011814286 0.82700002 2.2496453e-38
-0.098452382 -0.011814286 0.82700002 2.2773039e-38
-0.096877143 -0.011814286 0.82700002 2.1301872e-38
-0.095301904 -0.011814286 0.82700002 1.7798438e-38
-0.093953341 -0.011842857 0.82900006 1.4033899e-38
-0.092374288 -0.011842857 0.82900006 1.3572921e-38
-0.090795241 -0.011842857 0.82900006 1.5777334e-38
-0.089216195 -0.011842857 0.82900006 1.8451008e-38
-0.087848574 -0.011871428 0.83100003 2.1667768e-38
-0.086265713 -0.011871428 0.83100003 2.2866311e-38
-0.084682859 -0.011871428 0.83100003 2.2681204e-38
-0.083500005 -0.011928571 0.83500004 2.212803e-38
-0.08190953 -0.011928571 0.83500004 2.0380282e-38
-0.080319054 -0.011928571 0.83500004 1.7798804e-38
-0.078917138 -0.011957143 0.83700001 1.4669888e-38
-0.077322856 -0.011957143 0.83700001 8.1239984e-39
-0.075909525 -0.011985715 0.83900005 4.5532209e-39
-0.074311435 -0.011985715 0.83900005 5.4751772e-39
-0.072886661 -0.012014287 0.84100002 5.9311233e-39
-0.07162381 -0.012071429 0.84500003 3.7184282e-39
-0.070345722 -0.012128572 0.84900004 7.762413e-39
-0.068890475 -0.012157143 0.85100001 1.3662933e-38
-0.067269526 -0.012157143 0.85100001 1.4755632e-38
-0.065648571 -0.012157143 0.85100001 7.4721774e-39
-0.064027622 -0.012157143 0.85100001 8.760698e-39
-0.062406667 -0.012157143 0.85100001 1.5122196e-38
-0.14953715 -0.010622857 0.85800004 1.5303007e-38
-0.14755809 -0.010598096 0.85600007 1.5487399e-38
-0.14558668 -0.010573333 0.85400003 1.2725145e-38
-0.14311714 -0.010511429 0.84900004 9.1295155e-39
-0.14116667 -0.010486667 0.84700006 6.5606356e-39
-0.1392238 -0.010461905 0.84500003 3.9791579e-39
-0.13728859 -0.010437143 0.84300005 1.8723477e-39
-0.13536096 -0.010412381 0.84100002 3.2552822e-39
-0.13375905 -0.010412381 0.84100002 5.0919795e-39
-0.13184287 -0.010387619 0.83900005 5.8295445e-39
-0.13024476 -0.010387619 0.83900005 1.0795861e-38
-0.12834001 -0.010362858 0.83700001 1.6419795e-38
-0.12644285 -0.010338096 0.83500004 1.8532038e-38
-0.12455334 -0.010313334 0.83300006 1.9453994e-38
-0.12267143 -0.010288572 0.83100003 1.8163618e-38
-0.12108857 -0.010288572 0.83100003 1.3369445e-38
-0.1192181 -0.01026381 0.82900006 1.1621666e-38
-0.11763906 -0.01026381 0.82900006 1.152947e-38
-0.11578 -0.010239048 0.82700002 1.2080151e-38
-0.11420476 -0.010239048 0.82700002 1.189576e-38
-0.11262953 -0.010239048 0.82700002 1.4751917e-38
-0.11105429 -0.010239048 0.82700002 1.7241199e-38
-0.10947905 -0.010239048 0.82700002 2.0281571e-38
-0.10790381 -0.010239048 0.82700002 2.3508779e-38
-0.10632858 -0.010239048 0.82700002 2.2587932e-38
-0.10475334 -0.010239048 0.82700002 2.1389389e-38
-0.1031781 -0.010239048 0.82700002 2.1483367e-38
-0.10160286 -0.010239048 0.82700002 2.314253e-38
-0.10002762 -0.010239048 0.82700002 2.1853248e-38
-0.098452382 -0.010239048 0.82700002 1.8995184e-38
-0.096877143 -0.010239048 0.82700002 1.55944e-38
-0.095301904 -0.010239048 0.82700002 1.5225618e-38
-0.093953341 -0.01026381 0.82900006 1.4400886e-38
-0.092374288 -0.01026381 0.82900006 1.4308691e-38
-0.090795241 -0.01026381 0.82900006 1.4860063e-38
-0.089216195 -0.01026381 0.82900006 1.4767867e-38
-0.087848574 -0.010288572 0.83100003 1.6879704e-38
-0.086265713 -0.010288572 0.83100003 1.8631421e-38
-0.084682859 -0.010288572 0.83100003 2.157521e-38
-0.083500005 -0.010338096 0.83500004 2.3234372e-38
-0.08190953 -0.010338096 0.83500004 2.1023134e-38
-0.080511428 -0.010362858 0.83700001 1.3831875e-38
-0.078917138 -0.010362858 0.83700001 5.6531239e-39
-0.077322856 -0.010362858 0.83700001 5.5609282e-39
-0.075909525 -0.010387619 0.83900005 6.3006247e-39
-0.074311435 -0.010387619 0.83900005 6.3928203e-39
-0.072886661 -0.010412381 0.84100002 5.4715969e-39
-0.071793333 -0.010486667 0.84700006 3.3510974e-39
-0.070345722 -0.010511429 0.84900004 9.4197861e-39
-0.068890475 -0.01053619 0.85100001 1.5596893e-38
-0.067269526 -0.01053619 0.85100001 1.6876091e-38
-0.065648571 -0.01053619 0.85100001 8.0253106e-39
-0.064027622 -0.01053619 0.85100001 9.2220811e-39
-0.062406667 -0.01053619 0.85100001 1.4846015e-38
-0.060785715 -0.01053619 0.85100001 1.5763625e-38
-0.14953715 -0.0089885723 0.85800004 1.5118616e-38
-0.14755809 -0.0089676194 0.85600007 1.5487399e-38
-0.14558668 -0.0089466665 0.85400003 1.3278319e-38
-0.14345428 -0.0089152381 0.85100001 9.4982981e-39
-0.14150001 -0.0088942861 0.84900004 7.2027624e-39
-0.13955334 -0.0088733332 0.84700006 4.7134804e-39
-0.13761429 -0.0088523813 0.84500003 2.1474899e-39
-0.13568287 -0.0088314293 0.84300005 4.0835981e-39
-0.13375905 -0.0088104764 0.84100002 2.7961061e-39
-0.13184287 -0.0087895235 0.83900005 1.7819542e-39
-0.13024476 -0.0087895235 0.83900005 7.023371e-39
-0.12834001 -0.0087685715 0.83700001 1.5044391e-38
-0.12674572 -0.0087685715 0.83700001 1.8349461e-38
-0.12455334 -0.0087266676 0.83300006 1.816507e-38
-0.12296667 -0.0087266676 0.83300006 1.6229302e-38
-0.12138001 -0.0087266676 0.83300006 1.0605369e-38
-0.11950572 -0.0087057147 0.83100003 1.0881936e-38
-0.11792286 -0.0087057147 0.83100003 1.2449262e-38
-0.11606 -0.0086847618 0.82900006 1.2541127e-38
-0.11448096 -0.0086847618 0.82900006 1.2172344e-38
-0.11290191 -0.0086847618 0.82900006 1.1530167e-38
-0.11132286 -0.0086847618 0.82900006 1.3097493e-38
-0.10974382 -0.0086847618 0.82900006 1.6961426e-38
-0.10790381 -0.0086638099 0.82700002 2.1110229e-38
-0.10632858 -0.0086638099 0.82700002 2.3139656e-38
-0.10500667 -0.0086847618 0.82900006 2.3324047e-38
-0.1031781 -0.0086638099 0.82700002 2.27734e-38
-0.10160286 -0.0086638099 0.82700002 2.2681204e-38
-0.10002762 -0.0086638099 0.82700002 2.0380995e-38
-0.098452382 -0.0086638099 0.82700002 1.5955605e-38
-0.096877143 -0.0086638099 0.82700002 1.375552e-38
-0.095301904 -0.0086638099 0.82700002 1.4400889e-38
-0.093953341 -0.0086847618 0.82900006 1.4493082e-38
-0.092374288 -0.0086847618 0.82900006 1.4585278e-38
-0.090795241 -0.0086847618 0.82900006 1.4034265e-38
-0.089431427 -0.0087057147 0.83100003 1.3388895e-38
-0.087848574 -0.0087057147 0.83100003 1.3663302e-38
-0.086473338 -0.0087266676 0.83300006 1.412428e-38
-0.08488667 -0.0087266676 0.83300006 1.9916407e-38
-0.083500005 -0.0087476196 0.83500004 2.3142537e-38
-0.08190953 -0.0087476196 0.83500004 2.0657232e-38
-0.080511428 -0.0087685715 0.83700001 1.0700103e-38
-0.078917138 -0.0087685715 0.83700001 2.1626239e-39
-0.077322856 -0.0087685715 0.83700001 4.1909278e-39
-0.075909525 -0.0087895235 0.83900005 6.7605238e-39
-0.074488573 -0.0088104764 0.84100002 6.3917413e-39
-0.073060006 -0.0088314293 0.84300005 4.2762865e-39
-0.071793333 -0.0088733332 0.84700006 3.5387214e-39
-0.070345722 -0.0088942861 0.84900004 1.006624e-38
-0.068890475 -0.0089152381 0.85100001 1.4860413e-38
-0.067269526 -0.0089152381 0.85100001 1.6048886e-38
-0.065648571 -0.0089152381 0.85100001 9.5029966e-39
-0.064027622 -0.0089152381 0.85100001 1.0970519e-38
-0.062406667 -0.0089152381 0.85100001 1.5488105e-38
-0.060785715 -0.0089152381 0.85100001 1.5671424e-38
-0.14790286 -0.0073542856 0.85800004 1.5487039e-38
-0.14592764 -0.0073371432 0.85600007 1.484454e-38
-0.14345428 -0.0072942856 0.85100001 1.1986476e-38
-0.14150001 -0.0072771432 0.84900004 8.3998819e-39
-0.13955334 -0.0072600003 0.84700006 6.6481649e-39
-0.13794 -0.0072600003 0.84700006 3.8959573e-39
-0.13568287 -0.0072257146 0.84300005 4.3569354e-39
-0.13375905 -0.0072085718 0.84100002 3.0719769e-39
-0.13215715 -0.0072085718 0.84100002 2.7953901e-39
-0.13024476 -0.0071914289 0.83900005 4.8179009e-39
-0.12864667 -0.0071914289 0.83900005 1.0626226e-38
-0.12674572 -0.0071742856 0.83700001 1.5953447e-38
-0.12485238 -0.0071571432 0.83500004 1.567686e-38
-0.12326191 -0.0071571432 0.83500004 1.401764e-38
-0.12138001 -0.0071400008 0.83300006 1.0329815e-38
-0.11979334 -0.0071400008 0.83300006 1.0975959e-38
-0.11792286 -0.007122857 0.83100003 1.2082306e-38
-0.11634 -0.007122857 0.83100003 1.2448934e-38
-0.11448096 -0.0071057146 0.82900006 1.2817716e-38
-0.11290191 -0.0071057146 0.82900006 1.2634401e-38
-0.11132286 -0.0071057146 0.82900006 1.2081227e-38
-0.11000858 -0.007122857 0.83100003 1.3738526e-38
