# .PCD v0.7 - Point Cloud Data file format
VERSION 0.7
FIELDS x y z rgb
SIZE 4 4 4 4
TYPE F F F F
COUNT 1 1 1 1
WIDTH 946
HEIGHT 1
VIEWPOINT 0 0 0 1 0 0 0
POINTS 946
DATA ascii
-0.056519046 -0.035650477 0.91300005 1.9914609e-38
-0.0546 -0.035533335 0.91000003 1.9361079e-38
-0.052750479 -0.035455238 0.90800005 1.9361079e-38
-0.051020954 -0.035455238 0.90800005 1.9360717e-38
-0.049291432 -0.035455238 0.90800005 1.9176325e-38
-0.047457144 -0.035377141 0.90600002 1.871571e-38
-0.04558 -0.035260003 0.90300006 1.8623514e-38
-0.04386 -0.035260003 0.90300006 1.843876e-38
-0.04214 -0.035260003 0.90300006 1.8254369e-38
-0.04042 -0.035260003 0.90300006 1.8346199e-38
-0.038700003 -0.035260003 0.90300006 1.7608634e-38
-0.036898095 -0.035181906 0.90100002 1.7516794e-38
-0.034791429 -0.034791429 0.89100003 1.7055816e-38
-0.033020001 -0.034713335 0.88900006 1.6593769e-38
-0.031256191 -0.034635238 0.88700002 1.6224986e-38
-0.029566666 -0.034635238 0.88700002 1.6869973e-38
-0.11235333 -0.032945715 0.88700002 1.6316057e-38
-0.11066382 -0.032945715 0.88700002 1.6132055e-38
-0.10922001 -0.033020001 0.88900006 1.686962e-38
-0.10752667 -0.033020001 0.88900006 1.6594488e-38
-0.10607143 -0.033094287 0.89100003 1.7147661e-38
-0.10437429 -0.033094287 0.89100003 1.6963633e-38
-0.10302286 -0.033205714 0.89400005 1.7701198e-38
-0.10154667 -0.03328 0.89600003 1.7793747e-38
-0.09984 -0.03328 0.89600003 1.8070334e-38
-0.098352388 -0.03335429 0.89800006 1.7977782e-38
-0.096964762 -0.033465713 0.90100002 1.843876e-38
-0.095460005 -0.033540003 0.90300006 1.8439126e-38
-0.093740009 -0.033540003 0.90300006 1.8900104e-38
-0.092325717 -0.033651426 0.90600002 1.8991934e-38
-0.090800002 -0.033725716 0.90800005 1.9176325e-38
-0.089070477 -0.033725716 0.90800005 1.9175609e-38
-0.087533332 -0.033800002 0.91000003 1.9820979e-38
-0.086082861 -0.033911429 0.91300005 1.9821695e-38
-0.084343813 -0.033911429 0.91300005 2.0098282e-38
-0.082604766 -0.033911429 0.91300005 1.9822414e-38
-0.080865718 -0.033911429 0.91300005 1.9914609e-38
-0.079126671 -0.033911429 0.91300005 2.0006805e-38
-0.077387623 -0.033911429 0.91300005 2.0099e-38
-0.075648576 -0.033911429 0.91300005 1.9822414e-38
-0.073909529 -0.033911429 0.91300005 2.0191196e-38
-0.072170481 -0.033911429 0.91300005 2.0191196e-38
-0.07058572 -0.033985715 0.91500002 2.0191196e-38
-0.068842858 -0.033985715 0.91500002 1.9914253e-38
-0.066953339 -0.033911429 0.91300005 2.0098645e-38
-0.065214291 -0.033911429 0.91300005 2.019048e-38
-0.063475236 -0.033911429 0.91300005 2.0098284e-38
-0.061736196 -0.033911429 0.91300005 1.9822058e-38
-0.059997145 -0.033911429 0.91300005 1.9822058e-38
-0.058258098 -0.033911429 0.91300005 1.9730218e-38
-0.056519046 -0.033911429 0.91300005 1.9638022e-38
-0.054780003 -0.033911429 0.91300005 1.89923e-38
-0.052866668 -0.033800002 0.91000003 1.9176691e-38
-0.051020954 -0.033725716 0.90800005 1.9267805e-38
-0.049291432 -0.033725716 0.90800005 1.9267805e-38
-0.047457144 -0.033651426 0.90600002 1.8807906e-38
-0.04558 -0.033540003 0.90300006 1.8439123e-38
-0.04386 -0.033540003 0.90300006 1.8254369e-38
-0.04214 -0.033540003 0.90300006 1.8162173e-38
-0.04042 -0.033540003 0.90300006 1.7977419e-38
-0.038700003 -0.033540003 0.90300006 1.7608637e-38
-0.036898095 -0.033465713 0.90100002 1.7239851e-38
-0.034908574 -0.033205714 0.89400005 1.6871069e-38
-0.033205714 -0.033205714 0.89400005 1.6409731e-38
-0.031502858 -0.033205714 0.89400005 1.6686317e-38
-0.10754 -0.029917145 0.84900004 1.6595178e-38
-0.10592286 -0.029917145 0.84900004 1.6778863e-38
-0.10922001 -0.031326666 0.88900006 1.6686668e-38
-0.10776857 -0.031397145 0.89100003 1.6594488e-38
-0.10607143 -0.031397145 0.89100003 1.7147661e-38
-0.10437429 -0.031397145 0.89100003 1.7148021e-38
-0.10302286 -0.031502858 0.89400005 1.7701195e-38
-0.10154667 -0.031573333 0.89600003 1.7701551e-38
-0.09984 -0.031573333 0.89600003 1.8070334e-38
-0.098680958 -0.031749524 0.90100002 1.8070697e-38
-0.097180009 -0.031820003 0.90300006 1.8439479e-38
-0.095460005 -0.031820003 0.90300006 1.8439126e-38
-0.094051436 -0.031925712 0.90600002 1.8900104e-38
-0.092325717 -0.031925712 0.90600002 1.9084486e-38
-0.090800002 -0.031996191 0.90800005 1.9084486e-38
-0.089266665 -0.032066669 0.91000003 1.9175612e-38
-0.087533332 -0.032066669 0.91000003 1.963659e-38
-0.086082861 -0.032172382 0.91300005 1.9913527e-38
-0.084343813 -0.032172382 0.91300005 2.0097919e-38
-0.082604766 -0.032172382 0.91300005 1.9822414e-38
-0.080865718 -0.032172382 0.91300005 2.0099e-38
-0.079126671 -0.032172382 0.91300005 2.0098998e-38
-0.077557147 -0.032242857 0.91500002 2.0375585e-38
-0.075648576 -0.032172382 0.91300005 2.0006805e-38
-0.073909529 -0.032172382 0.91300005 2.0191196e-38
-0.072170481 -0.032172382 0.91300005 2.0191196e-38
-0.07058572 -0.032242857 0.91500002 2.0191196e-38
-0.068842858 -0.032242857 0.91500002 2.0006449e-38
-0.067100003 -0.032242857 0.91500002 2.0098645e-38
-0.065357141 -0.032242857 0.91500002 2.0098282e-38
-0.063475236 -0.032172382 0.91300005 2.0006086e-38
-0.061736196 -0.032172382 0.91300005 1.9822414e-38
-0.059997145 -0.032172382 0.91300005 1.9822414e-38
-0.058258098 -0.032172382 0.91300005 1.9638022e-38
-0.056519046 -0.032172382 0.91300005 1.9545827e-38
-0.054780003 -0.032172382 0.91300005 1.9268168e-38
-0.052866668 -0.032066669 0.91000003 1.9268168e-38
-0.051133335 -0.032066669 0.91000003 1.9084132e-38
-0.049291432 -0.031996191 0.90800005 1.8991937e-38
-0.047457144 -0.031925712 0.90600002 1.8715347e-38
-0.045731429 -0.031925712 0.90600002 1.8254369e-38
-0.044005714 -0.031925712 0.90600002 1.816182e-38
-0.04228 -0.031925712 0.90600002 1.7885233e-38
-0.040554285 -0.031925712 0.90600002 1.7516088e-38
-0.038700003 -0.031820003 0.90300006 1.7516088e-38
-0.036980003 -0.031820003 0.90300006 1.7239851e-38
-0.035260003 -0.031820003 0.90300006 1.7239851e-38
-0.033540003 -0.031820003 0.90300006 1.8530578e-38
-0.031820003 -0.031820003 0.90300006 1.9452534e-38
-0.028300002 -0.029917145 0.84900004 1.9268155e-38
-0.10754 -0.028300002 0.84900004 1.558067e-38
-0.10592286 -0.028300002 0.84900004 1.6777772e-38
-0.10430571 -0.028300002 0.84900004 1.7146554e-38
-0.10776857 -0.029700002 0.89100003 1.668668e-38
-0.10607143 -0.029700002 0.89100003 1.7239854e-38
-0.10437429 -0.029700002 0.89100003 1.7148377e-38
-0.10302286 -0.0298 0.89400005 1.7609355e-38
-0.10154667 -0.029866667 0.89600003 1.7516804e-38
-0.10006286 -0.029933335 0.89800006 1.8069978e-38
-0.098680958 -0.030033333 0.90100002 1.8070341e-38
-0.097180009 -0.030100001 0.90300006 1.8439123e-38
-0.095460005 -0.030100001 0.90300006 1.8439123e-38
-0.094051436 -0.030200001 0.90600002 1.8807906e-38
-0.092529528 -0.030266669 0.90800005 1.8992653e-38
-0.090800002 -0.030266669 0.90800005 1.8992653e-38
-0.089266665 -0.030333333 0.91000003 1.936e-38
-0.087533332 -0.030333333 0.91000003 1.9544392e-38
-0.086082861 -0.030433334 0.91300005 1.9637659e-38
-0.084343813 -0.030433334 0.91300005 1.9914246e-38
-0.082604766 -0.030433334 0.91300005 1.9822414e-38
-0.080865718 -0.030433334 0.91300005 1.9914609e-38
-0.079126671 -0.030433334 0.91300005 1.9914609e-38
-0.077557147 -0.0305 0.91500002 2.0006805e-38
-0.075814284 -0.0305 0.91500002 1.9822414e-38
-0.07407143 -0.0305 0.91500002 1.9914609e-38
-0.072328568 -0.0305 0.91500002 2.0099e-38
-0.07058572 -0.0305 0.91500002 2.0099e-38
-0.068842858 -0.0305 0.91500002 1.9914253e-38
-0.067100003 -0.0305 0.91500002 1.9914253e-38
-0.065357141 -0.0305 0.91500002 1.9914253e-38
-0.063614286 -0.0305 0.91500002 1.9822058e-38
-0.061871432 -0.0305 0.91500002 1.9914609e-38
-0.059997145 -0.030433334 0.91300005 1.9730218e-38
-0.058258098 -0.030433334 0.91300005 1.9545827e-38
-0.056519046 -0.030433334 0.91300005 1.9545827e-38
-0.054780003 -0.030433334 0.91300005 1.9268524e-38
-0.052866668 -0.030333333 0.91000003 1.9268524e-38
-0.051133335 -0.030333333 0.91000003 1.9084132e-38
-0.049291432 -0.030266669 0.90800005 1.8991937e-38
-0.047457144 -0.030200001 0.90600002 1.8807899e-38
-0.045731429 -0.030200001 0.90600002 1.8254725e-38
-0.044005714 -0.030200001 0.90600002 1.8070334e-38
-0.04228 -0.030200001 0.90600002 1.7793747e-38
-0.040554285 -0.030200001 0.90600002 1.7424243e-38
-0.038700003 -0.030100001 0.90300006 1.7516438e-38
-0.036980003 -0.030100001 0.90300006 1.7516091e-38
-0.035260003 -0.030100001 0.90300006 1.7884873e-38
-0.033540003 -0.030100001 0.90300006 1.8991221e-38
-0.029917145 -0.028300002 0.84900004 1.9452199e-38
-0.028300002 -0.028300002 0.84900004 1.8993019e-38
-0.026682859 -0.028300002 0.84900004 1.5028607e-38
-0.025213335 -0.028466668 0.85400003 1.401475e-38
-0.10728668 -0.026620002 0.84700006 1.4014061e-38
-0.10567334 -0.026620002 0.84700006 1.5948706e-38
-0.10381429 -0.026557142 0.84500003 1.7884814e-38
-0.10220476 -0.026557142 0.84500003 1.7699746e-38
-0.10607143 -0.028002858 0.89100003 1.7791942e-38
-0.10437429 -0.028002858 0.89100003 1.7423882e-38
-0.10302286 -0.028097145 0.89400005 1.7700469e-38
-0.10177334 -0.028222859 0.89800006 1.7608284e-38
-0.10006286 -0.028222859 0.89800006 1.788487e-38
-0.098680958 -0.028317144 0.90100002 1.7885233e-38
-0.097180009 -0.028380001 0.90300006 1.8530603e-38
-0.095460005 -0.028380001 0.90300006 1.843876e-38
-0.094051436 -0.028474286 0.90600002 1.843876e-38
-0.092325717 -0.028474286 0.90600002 1.8899375e-38
-0.090800002 -0.028537145 0.90800005 1.9083767e-38
-0.089266665 -0.0286 0.91000003 1.9083414e-38
-0.087533332 -0.0286 0.91000003 1.9175609e-38
-0.086082861 -0.028694287 0.91300005 1.9544745e-38
-0.084343813 -0.028694287 0.91300005 1.9729136e-38
-0.082785718 -0.028757144 0.91500002 1.9821332e-38
-0.081042856 -0.028757144 0.91500002 2.0005723e-38
-0.079300001 -0.028757144 0.91500002 1.9914246e-38
-0.077557147 -0.028757144 0.91500002 2.0006442e-38
-0.075814284 -0.028757144 0.91500002 1.9821695e-38
-0.07407143 -0.028757144 0.91500002 1.9821695e-38
-0.072328568 -0.028757144 0.91500002 1.9914609e-38
-0.07058572 -0.028757144 0.91500002 1.9914609e-38
-0.068842858 -0.028757144 0.91500002 1.9822414e-38
-0.067100003 -0.028757144 0.91500002 1.9822414e-38
-0.065357141 -0.028757144 0.91500002 1.9637669e-38
-0.063614286 -0.028757144 0.91500002 1.9545474e-38
-0.061871432 -0.028757144 0.91500002 1.9453275e-38
-0.060128573 -0.028757144 0.91500002 1.9268884e-38
-0.058258098 -0.028694287 0.91300005 1.9268521e-38
-0.056519046 -0.028694287 0.91300005 1.9360717e-38
-0.054780003 -0.028694287 0.91300005 1.8991937e-38
-0.053040955 -0.028694287 0.91300005 1.871535e-38
-0.051133335 -0.0286 0.91000003 1.853024e-38
-0.049291432 -0.028537145 0.90800005 1.853024e-38
-0.047457144 -0.028474286 0.90600002 1.853059e-38
-0.045731429 -0.028474286 0.90600002 1.8622786e-38
-0.044005714 -0.028474286 0.90600002 1.8900445e-38
-0.04228 -0.028474286 0.90600002 1.9453618e-38
-0.040554285 -0.028474286 0.90600002 2.0098638e-38
-0.038700003 -0.028380001 0.90300006 2.0928398e-38
-0.036980003 -0.028380001 0.90300006 2.1020241e-38
-0.035260003 -0.028380001 0.90300006 1.9913893e-38
-0.031460002 -0.026620002 0.84700006 1.761083e-38
-0.029846668 -0.026620002 0.84700006 1.6043504e-38
-0.028233334 -0.026620002 0.84700006 1.3741843e-38
-0.026620002 -0.026620002 0.84700006 9.0398661e-39
-0.025213335 -0.026840001 0.85400003 1.0144356e-38
-0.023586666 -0.026840001 0.85400003 1.447755e-38
-0.10728668 -0.025006669 0.84700006 1.3368344e-38
-0.10567334 -0.025006669 0.84700006 1.4011882e-38
-0.10381429 -0.024947621 0.84500003 1.6408968e-38
-0.10220476 -0.024947621 0.84500003 1.7790131e-38
-0.10059524 -0.024947621 0.84500003 1.8158914e-38
-0.10437429 -0.026305715 0.89100003 1.7700113e-38
-0.10302286 -0.026394285 0.89400005 1.7884505e-38
-0.10177334 -0.026512383 0.89800006 1.7700835e-38
-0.10006286 -0.026512383 0.89800006 1.7885226e-38
-0.098680958 -0.026600951 0.90100002 1.7700835e-38
-0.097180009 -0.026660001 0.90300006 1.8254009e-38
-0.095460005 -0.026660001 0.90300006 1.8254009e-38
-0.094051436 -0.026748572 0.90600002 1.8530596e-38
-0.092325717 -0.026748572 0.90600002 1.8714621e-38
-0.090800002 -0.026807619 0.90800005 1.8991208e-38
-0.089266665 -0.026866667 0.91000003 1.8990852e-38
-0.087533332 -0.026866667 0.91000003 1.9267439e-38
-0.086271428 -0.027014285 0.91500002 1.9360354e-38
-0.084528573 -0.027014285 0.91500002 1.9360354e-38
-0.082785718 -0.027014285 0.91500002 1.9360354e-38
-0.081042856 -0.027014285 0.91500002 1.963694e-38
-0.079300001 -0.027014285 0.91500002 1.9729136e-38
-0.077557147 -0.027014285 0.91500002 1.9821332e-38
-0.075814284 -0.027014285 0.91500002 1.9637659e-38
-0.07407143 -0.027014285 0.91500002 1.9822051e-38
-0.072328568 -0.027014285 0.91500002 1.9914246e-38
-0.07058572 -0.027014285 0.91500002 1.9822051e-38
-0.068842858 -0.027014285 0.91500002 1.9453631e-38
-0.067100003 -0.027014285 0.91500002 1.9361435e-38
-0.065357141 -0.027014285 0.91500002 1.926924e-38
-0.063614286 -0.027014285 0.91500002 1.9177044e-38
-0.061871432 -0.027014285 0.91500002 1.926924e-38
-0.060128573 -0.027014285 0.91500002 1.9177044e-38
-0.058385715 -0.027014285 0.91500002 1.8531312e-38
-0.05664286 -0.027014285 0.91500002 1.8900094e-38
-0.054780003 -0.026955239 0.91300005 1.8899375e-38
-0.053040955 -0.026955239 0.91300005 1.8714984e-38
-0.051301908 -0.026955239 0.91300005 1.8437678e-38
-0.049400002 -0.026866667 0.91000003 1.8714265e-38
-0.047457144 -0.026748572 0.90600002 1.8898662e-38
-0.045731429 -0.026748572 0.90600002 1.9636227e-38
-0.044005714 -0.026748572 0.90600002 2.0097931e-38
-0.04228 -0.026748572 0.90600002 2.0558909e-38
-0.040554285 -0.026748572 0.90600002 2.1020238e-38
-0.038700003 -0.026660001 0.90300006 2.1112433e-38
-0.036980003 -0.026660001 0.90300006 2.1112799e-38
-0.035260003 -0.026660001 0.90300006 1.9453278e-38
-0.031385716 -0.024947621 0.84500003 1.6141082e-38
-0.029776191 -0.024947621 0.84500003 1.3928387e-38
-0.028233334 -0.025006669 0.84700006 1.2913139e-38
-0.026620002 -0.025006669 0.84700006 8.6721401e-39
-0.025213335 -0.025213335 0.85400003 1.0051e-38
-0.023586666 -0.025213335 0.85400003 1.5398346e-38
-0.10567334 -0.023393335 0.84700006 1.1894631e-38
-0.10406001 -0.023393335 0.84700006 1.2079022e-38
-0.10220476 -0.023338096 0.84500003 1.5118238e-38
-0.10035715 -0.023282859 0.84300005 1.7884107e-38
-0.098751433 -0.023282859 0.84300005 1.8620986e-38
-0.10302286 -0.024691431 0.89400005 1.9450747e-38
-0.10177334 -0.024801906 0.89800006 1.9083051e-38
-0.10039714 -0.024884764 0.90100002 1.9083051e-38
-0.098680958 -0.024884764 0.90100002 1.8623151e-38
-0.097180009 -0.024940003 0.90300006 1.8530956e-38
-0.095460005 -0.024940003 0.90300006 1.8715347e-38
-0.094051436 -0.025022857 0.90600002 1.8623151e-38
-0.092325717 -0.025022857 0.90600002 1.8622789e-38
-0.090800002 -0.025078095 0.90800005 1.8714984e-38
-0.089266665 -0.025133334 0.91000003 1.8714268e-38
-0.087533332 -0.025133334 0.91000003 1.8990855e-38
-0.086271428 -0.025271429 0.91500002 1.8807183e-38
-0.084528573 -0.025271429 0.91500002 1.8899378e-38
-0.082785718 -0.025271429 0.91500002 1.8899022e-38
-0.081042856 -0.025271429 0.91500002 1.9083414e-38
-0.079300001 -0.025271429 0.91500002 1.8991934e-38
-0.077557147 -0.025271429 0.91500002 1.908413e-38
-0.075814284 -0.025271429 0.91500002 1.9084486e-38
-0.07407143 -0.025271429 0.91500002 1.9176681e-38
-0.072328568 -0.025271429 0.91500002 1.9268877e-38
-0.07058572 -0.025271429 0.91500002 1.9268877e-38
-0.068842858 -0.025271429 0.91500002 1.9268521e-38
-0.067100003 -0.025271429 0.91500002 1.9545108e-38
-0.065357141 -0.025271429 0.91500002 1.9638022e-38
-0.063614286 -0.025271429 0.91500002 1.9822414e-38
-0.061871432 -0.025271429 0.91500002 2.0098647e-38
-0.060128573 -0.025271429 0.91500002 2.0559625e-38
-0.058385715 -0.025271429 0.91500002 2.0927679e-38
-0.05664286 -0.025271429 0.91500002 2.1296462e-38
-0.054780003 -0.025216192 0.91300005 2.1849636e-38
-0.053040955 -0.025216192 0.91300005 2.2402809e-38
-0.051133335 -0.025133334 0.91000003 2.2679759e-38
-0.049291432 -0.025078095 0.90800005 2.3140737e-38
-0.047457144 -0.025022857 0.90600002 2.2772321e-38
-0.045731429 -0.025022857 0.90600002 2.2772321e-38
-0.044005714 -0.025022857 0.90600002 2.1573793e-38
-0.04228 -0.025022857 0.90600002 2.1297206e-38
-0.040554285 -0.025022857 0.90600002 1.9178139e-38
-0.038700003 -0.024940003 0.90300006 1.6688857e-38
-0.034440953 -0.023227619 0.84100002 1.6688838e-38
-0.032839045 -0.023227619 0.84100002 1.7242012e-38
-0.03131143 -0.023282859 0.84300005 1.6966838e-38
-0.029776191 -0.023338096 0.84500003 1.5215121e-38
-0.028233334 -0.023393335 0.84700006 1.2914578e-38
-0.026620002 -0.023393335 0.84700006 6.4608842e-39
-0.10406001 -0.021780001 0.84700006 1.0513151e-38
-0.10220476 -0.021728572 0.84500003 1.263041e-38
-0.10035715 -0.021677144 0.84300005 1.5857257e-38
-0.098517142 -0.021625714 0.84100002 1.7330948e-38
-0.096915238 -0.021625714 0.84100002 1.9359252e-38
-0.10211334 -0.023168571 0.90100002 1.8900454e-38
-0.10039714 -0.023168571 0.90100002 1.8808259e-38
-0.098680958 -0.023168571 0.90100002 1.8900092e-38
-0.097180009 -0.023220003 0.90300006 1.9453265e-38
-0.095777147 -0.023297142 0.90600002 1.9361079e-38
-0.094051436 -0.023297142 0.90600002 1.9268884e-38
-0.092529528 -0.023348572 0.90800005 1.9452559e-38
-0.091000006 -0.023400001 0.91000003 1.9452559e-38
-0.089266665 -0.023400001 0.91000003 1.9543676e-38
-0.087821908 -0.023477143 0.91300005 1.9635871e-38
-0.086271428 -0.02352857 0.91500002 1.9544395e-38
-0.084528573 -0.02352857 0.91500002 1.9544395e-38
-0.082785718 -0.02352857 0.91500002 1.9544392e-38
-0.081308573 -0.023605715 0.91800004 1.9636587e-38
-0.079560004 -0.023605715 0.91800004 1.963695e-38
-0.077811427 -0.023605715 0.91800004 1.9913537e-38
-0.075814284 -0.02352857 0.91500002 2.0097928e-38
-0.07407143 -0.02352857 0.91500002 2.0190124e-38
-0.072328568 -0.02352857 0.91500002 2.0374155e-38
-0.07058572 -0.02352857 0.91500002 2.0650742e-38
-0.068842858 -0.02352857 0.91500002 2.0742938e-38
-0.067100003 -0.02352857 0.91500002 2.1480503e-38
-0.065357141 -0.02352857 0.91500002 2.1850367e-38
-0.063614286 -0.02352857 0.91500002 2.1665976e-38
-0.061871432 -0.02352857 0.91500002 2.2034756e-38
-0.060128573 -0.02352857 0.91500002 2.2034756e-38
-0.058385715 -0.02352857 0.91500002 2.2126232e-38
-0.05664286 -0.02352857 0.91500002 2.2402819e-38
-0.054780003 -0.023477143 0.91300005 2.2956349e-38
-0.053040955 -0.023477143 0.91300005 2.2864153e-38
-0.051133335 -0.023400001 0.91000003 2.3325847e-38
-0.049291432 -0.023348572 0.90800005 2.2957065e-38
-0.047457144 -0.023297142 0.90600002 2.2497169e-38
-0.045731429 -0.023297142 0.90600002 2.2220582e-38
-0.04386 -0.023220003 0.90300006 2.1022421e-38
-0.04214 -0.023220003 0.90300006 2.0745834e-38
-0.04042 -0.023220003 0.90300006 1.6787876e-38
-0.036128573 -0.021677144 0.84300005 1.1901508e-38
-0.034440953 -0.021625714 0.84100002 1.4384602e-38
-0.032839045 -0.021625714 0.84100002 1.7242667e-38
-0.03131143 -0.021677144 0.84300005 1.8713182e-38
-0.029846668 -0.021780001 0.84700006 1.6684878e-38
-0.028300002 -0.021831429 0.84900004 1.3648906e-38
-0.026682859 -0.021831429 0.84900004 7.748386e-39
-0.025213335 -0.02196 0.85400003 1.0050718e-38
-0.023586666 -0.02196 0.85400003 1.5305869e-38
-0.10592286 -0.020214286 0.84900004 1.1618094e-38
-0.10406001 -0.020166667 0.84700006 1.171029e-38
-0.10220476 -0.020119047 0.84500003 1.1711716e-38
-0.10059524 -0.020119047 0.84500003 1.0697564e-38
-0.098517142 -0.02002381 0.84100002 1.060569e-38
-0.096915238 -0.02002381 0.84100002 1.291058e-38
-0.095313333 -0.02002381 0.84100002 1.4658399e-38
-0.093488574 -0.019976191 0.83900005 1.7332072e-38
-0.091890484 -0.019976191 0.83900005 1.8347618e-38
-0.097502857 -0.021571428 0.90600002 1.936177e-38
-0.095988572 -0.021619048 0.90800005 1.9361796e-38
-0.094259053 -0.021619048 0.90800005 2.0652534e-38
-0.092529528 -0.021619048 0.90800005 2.102025e-38
-0.091000006 -0.021666666 0.91000003 2.2034402e-38
-0.089560956 -0.021738095 0.91300005 2.194256e-38
-0.079934284 -0.019785715 0.83100003 2.2403538e-38
-0.078351431 -0.019785715 0.83100003 2.2495734e-38
-0.07676857 -0.019785715 0.83100003 2.341769e-38
-0.075185716 -0.019785715 0.83100003 2.3233299e-38
-0.073780008 -0.019833334 0.83300006 2.341769e-38
-0.072193339 -0.019833334 0.83300006 2.341769e-38
-0.077980958 -0.021904761 0.92000002 2.341769e-38
-0.075814284 -0.021785714 0.91500002 2.341769e-38
-0.07407143 -0.021785714 0.91500002 2.341769e-38
-0.072328568 -0.021785714 0.91500002 2.341769e-38
-0.07058572 -0.021785714 0.91500002 2.341769e-38
-0.068842858 -0.021785714 0.91500002 2.341769e-38
-0.067100003 -0.021785714 0.91500002 2.341769e-38
-0.065357141 -0.021785714 0.91500002 2.341769e-38
-0.063614286 -0.021785714 0.91500002 2.341769e-38
-0.061871432 -0.021785714 0.91500002 2.2680844e-38
-0.054608572 -0.019785715 0.83100003 2.2773039e-38
-0.053025715 -0.019785715 0.83100003 2.2034758e-38
-0.051442858 -0.019785715 0.83100003 2.1942563e-38
-0.049860001 -0.019785715 0.83100003 1.9639487e-38
-0.053040955 -0.021738095 0.91300005 1.6597031e-38
-0.051301908 -0.021738095 0.91300005 1.5862668e-38
-0.04956286 -0.021738095 0.91300005 1.6139255e-38
-0.047457144 -0.021571428 0.90600002 1.6872867e-38
-0.04558 -0.021500001 0.90300006 1.8347997e-38
-0.04386 -0.021500001 0.90300006 2.0377007e-38
-0.039246667 -0.02002381 0.84100002 1.8072116e-38
-0.037644763 -0.02002381 0.84100002 1.4024163e-38
-0.036128573 -0.020071428 0.84300005 6.003143e-39
-0.034440953 -0.02002381 0.84100002 7.4825919e-39
-0.032839045 -0.02002381 0.84100002 1.3936286e-38
-0.031385716 -0.020119047 0.84500003 1.7055854e-38
-0.029846668 -0.020166667 0.84700006 1.650268e-38
-0.028300002 -0.020214286 0.84900004 1.3649254e-38
-0.026682859 -0.020214286 0.84900004 6.8267772e-39
-0.025213335 -0.020333333 0.85400003 9.9606999e-39
-0.023586666 -0.020333333 0.85400003 1.4847068e-38
-0.10592286 -0.018597143 0.84900004 1.2448561e-38
-0.10430571 -0.018597143 0.84900004 1.2356365e-38
-0.10244668 -0.018553333 0.84700006 1.199118e-38
-0.10059524 -0.018509526 0.84500003 7.750181e-39
-0.098751433 -0.018465716 0.84300005 5.8204627e-39
-0.096915238 -0.018421905 0.84100002 6.8346147e-39
-0.095313333 -0.018421905 0.84100002 1.3920416e-38
-0.093488574 -0.018378096 0.83900005 1.6778481e-38
-0.09167143 -0.018334284 0.83700001 1.5859431e-38
-0.089861907 -0.018290477 0.83500004 1.5306257e-38
-0.088271432 -0.018290477 0.83500004 1.6965406e-38
-0.086473338 -0.018246669 0.83300006 1.9546883e-38
-0.084479049 -0.018159049 0.82900006 2.0007178e-38
-0.082900003 -0.018159049 0.82900006 2.0836938e-38
-0.081517145 -0.018202858 0.83100003 2.0653619e-38
-0.079934284 -0.018202858 0.83100003 2.0284836e-38
-0.078351431 -0.018202858 0.83100003 2.0837629e-38
-0.07676857 -0.018202858 0.83100003 2.2589346e-38
-0.075185716 -0.018202858 0.83100003 2.2865232e-38
-0.073780008 -0.018246669 0.83300006 2.2773037e-38
-0.072193339 -0.018246669 0.83300006 2.2496453e-38
-0.070437141 -0.018202858 0.83100003 2.2680844e-38
-0.068854287 -0.018202858 0.83100003 2.27734e-38
-0.067271426 -0.018202858 0.83100003 2.27734e-38
-0.072328568 -0.020042857 0.91500002 2.2497166e-38
-0.07058572 -0.020042857 0.91500002 2.2220579e-38
-0.068842858 -0.020042857 0.91500002 2.2312777e-38
-0.060793336 -0.018159049 0.82900006 2.2589364e-38
-0.059214287 -0.018159049 0.82900006 2.2589011e-38
-0.057774287 -0.018202858 0.83100003 2.1482664e-38
-0.056191429 -0.018202858 0.83100003 2.0561423e-38
-0.054608572 -0.018202858 0.83100003 2.0653619e-38
-0.053025715 -0.018202858 0.83100003 2.0562146e-38
-0.051442858 -0.018202858 0.83100003 2.1023125e-38
-0.049860001 -0.018202858 0.83100003 1.7986442e-38
-0.048393335 -0.018246669 0.83300006 1.4483008e-38
-0.046806671 -0.018246669 0.83300006 8.9570087e-39
-0.045220003 -0.018246669 0.83300006 1.0247748e-38
-0.043842856 -0.018334284 0.83700001 1.3735684e-38
-0.042248569 -0.018334284 0.83700001 2.0558161e-38
-0.040751431 -0.018378096 0.83900005 2.083873e-38
-0.039153337 -0.018378096 0.83900005 1.5399188e-38
-0.037644763 -0.018421905 0.84100002 1.1998733e-38
-0.036128573 -0.018465716 0.84300005 6.1904083e-39
-0.034522858 -0.018465716 0.84300005 3.5336235e-39
-0.032917146 -0.018465716 0.84300005 8.6965788e-39
-0.031460002 -0.018553333 0.84700006 1.5585393e-38
-0.029846668 -0.018553333 0.84700006 1.5769784e-38
-0.028300002 -0.018597143 0.84900004 1.2544351e-38
-0.026745714 -0.018640952 0.85100001 8.1189608e-39
-0.025213335 -0.018706666 0.85400003 1.1156725e-38
-0.023586666 -0.018706666 0.85400003 1.5397724e-38
-0.10617238 -0.01702 0.85100001 1.2909173e-38
-0.10430571 -0.01698 0.84900004 1.1434043e-38
-0.10268857 -0.01698 0.84900004 9.0438289e-39
-0.10083334 -0.01694 0.84700006 5.3560038e-39
-0.098751433 -0.016860001 0.84300005 2.0538495e-39
-0.097145721 -0.016860001 0.84300005 2.5148277e-39
-0.095313333 -0.01682 0.84100002 8.8583209e-39
-0.093488574 -0.016780002 0.83900005 1.5404211e-38
-0.09167143 -0.01674 0.83700001 1.5767604e-38
-0.089861907 -0.0167 0.83500004 1.3278322e-38
-0.088271432 -0.0167 0.83500004 1.4480061e-38
-0.086473338 -0.016660001 0.83300006 1.8075691e-38
-0.084479049 -0.016580001 0.82900006 2.0007158e-38
-0.082900003 -0.016580001 0.82900006 2.0007158e-38
-0.081517145 -0.016620001 0.83100003 1.78874e-38
-0.079934284 -0.016620001 0.83100003 1.3001031e-38
-0.078351431 -0.016620001 0.83100003 1.3002102e-38
-0.07676857 -0.016620001 0.83100003 1.853384e-38
-0.075185716 -0.016620001 0.83100003 2.0005017e-38
-0.073780008 -0.016660001 0.83300006 2.0926973e-38
-0.072193339 -0.016660001 0.83300006 1.9549051e-38
-0.070437141 -0.016620001 0.83100003 1.3832922e-38
-0.068854287 -0.016620001 0.83100003 1.2180594e-38
-0.067271426 -0.016620001 0.83100003 1.2088398e-38
-0.065688573 -0.016620001 0.83100003 1.3190061e-38
-0.064105719 -0.016620001 0.83100003 1.7615451e-38
-0.062522858 -0.016620001 0.83100003 2.1206768e-38
-0.060793336 -0.016580001 0.82900006 2.1852137e-38
-0.059214287 -0.016580001 0.82900006 2.120679e-38
-0.057774287 -0.016620001 0.83100003 1.7887747e-38
-0.056191429 -0.016620001 0.83100003 1.6512003e-38
-0.054608572 -0.016620001 0.83100003 1.6604199e-38
-0.053025715 -0.016620001 0.83100003 1.8351975e-38
-0.051566672 -0.016660001 0.83300006 2.20398e-38
-0.049980003 -0.016660001 0.83300006 2.2497176e-38
-0.048393335 -0.016660001 0.83300006 2.1298632e-38
-0.046806671 -0.016660001 0.83300006 1.7429668e-38
-0.045220003 -0.016660001 0.83300006 1.6231125e-38
-0.043842856 -0.01674 0.83700001 1.77963e-38
-0.042248569 -0.01674 0.83700001 2.1576318e-38
-0.040751431 -0.016780002 0.83900005 2.0472802e-38
-0.039153337 -0.016780002 0.83900005 1.1068848e-38
-0.037644763 -0.01682 0.84100002 5.2836085e-39
-0.036128573 -0.016860001 0.84300005 5.4679997e-39
-0.034522858 -0.016860001 0.84300005 5.3743524e-39
-0.032917146 -0.016860001 0.84300005 5.5587436e-39
-0.031460002 -0.01694 0.84700006 1.3559559e-38
-0.029846668 -0.01694 0.84700006 1.4481516e-38
-0.028300002 -0.01698 0.84900004 1.2910578e-38
-0.026745714 -0.01702 0.85100001 8.7617742e-39
-0.025272382 -0.017120002 0.85600007 1.1249296e-38
-0.023641907 -0.017120002 0.85600007 1.5490295e-38
-0.10617238 -0.015399048 0.85100001 1.3001735e-38
-0.10430571 -0.015362858 0.84900004 1.0881235e-38
-0.10268857 -0.015362858 0.84900004 8.2172801e-39
-0.10083334 -0.015326667 0.84700006 4.8982374e-39
-0.098985717 -0.015290476 0.84500003 1.9648909e-39
-0.097145721 -0.015254286 0.84300005 1.5961084e-39
-0.095313333 -0.015218095 0.84100002 7.7541089e-39
-0.093488574 -0.015181906 0.83900005 1.383902e-38
-0.091890484 -0.015181906 0.83900005 1.6045264e-38
-0.090077139 -0.015145714 0.83700001 1.5215503e-38
-0.088482857 -0.015145714 0.83700001 1.5218024e-38
-0.086680956 -0.015109524 0.83500004 1.8721458e-38
-0.084682859 -0.015037144 0.83100003 2.0744017e-38
-0.083100006 -0.015037144 0.83100003 2.0006452e-38
-0.081517145 -0.015037144 0.83100003 1.742928e-38
-0.079934284 -0.015037144 0.83100003 1.1159977e-38
-0.078351431 -0.015037144 0.83100003 1.2353064e-38
-0.07676857 -0.015037144 0.83100003 1.6594063e-38
-0.075185716 -0.015037144 0.83100003 2.0831861e-38
-0.073780008 -0.015073335 0.83300006 2.2214796e-38
-0.072193339 -0.015073335 0.83300006 2.056286e-38
-0.070606671 -0.015073335 0.83300006 1.4662339e-38
-0.068854287 -0.015037144 0.83100003 1.2361755e-38
-0.067271426 -0.015037144 0.83100003 1.2361755e-38
-0.065688573 -0.015037144 0.83100003 1.2730135e-38
-0.064105719 -0.015037144 0.83100003 1.8630655e-38
-0.062522858 -0.015037144 0.83100003 2.2310977e-38
-0.060940001 -0.015037144 0.83100003 2.2495368e-38
-0.059357144 -0.015037144 0.83100003 2.1023841e-38
-0.057774287 -0.015037144 0.83100003 1.7336015e-38
-0.056191429 -0.015037144 0.83100003 1.4307599e-38
-0.054608572 -0.015037144 0.83100003 1.4307599e-38
-0.053025715 -0.015037144 0.83100003 1.8076457e-38
-0.051566672 -0.015073335 0.83300006 2.0934522e-38
-0.049980003 -0.015073335 0.83300006 2.2773037e-38
-0.048393335 -0.015073335 0.83300006 2.2680841e-38
-0.046919052 -0.015109524 0.83500004 2.1298635e-38
-0.045328572 -0.015109524 0.83500004 2.0653266e-38
-0.043842856 -0.015145714 0.83700001 2.0747619e-38
-0.042349525 -0.015181906 0.83900005 1.9456881e-38
-0.040751431 -0.015181906 0.83900005 1.5408186e-38
-0.039246667 -0.015218095 0.84100002 7.4793619e-39
-0.037644763 -0.015218095 0.84100002 3.6319933e-39
-0.036128573 -0.015254286 0.84300005 4.8305364e-39
-0.034522858 -0.015254286 0.84300005 4.4577883e-39
-0.032995239 -0.015290476 0.84500003 3.8124188e-39
-0.031534284 -0.015362858 0.84900004 1.1811108e-38
-0.029917145 -0.015362858 0.84900004 1.3747216e-38
-0.028366666 -0.015399048 0.85100001 1.1159975e-38
-0.026840001 -0.015453333 0.85400003 9.5926489e-39
-0.02533143 -0.015525714 0.85800004 1.1342198e-38
-0.023807621 -0.015598095 0.86200005 1.530661e-38
-0.022165716 -0.015598095 0.86200005 1.5855821e-38
-0.10617238 -0.013778095 0.85100001 1.4015155e-38
-0.10430571 -0.013745715 0.84900004 1.0880504e-38
-0.10268857 -0.013745715 0.84900004 7.8506583e-39
-0.10083334 -0.013713335 0.84700006 4.6238113e-39
-0.098985717 -0.013680953 0.84500003 1.9663609e-39
-0.097145721 -0.013648572 0.84300005 2.427339e-39
-0.095313333 -0.01361619 0.84100002 5.3667713e-39
-0.093488574 -0.01358381 0.83900005 8.0404446e-39
-0.091890484 -0.01358381 0.83900005 1.3096111e-38
-0.090077139 -0.013551429 0.83700001 1.8720044e-38
-0.088482857 -0.013551429 0.83700001 2.0006802e-38
-0.086680956 -0.013519048 0.83500004 2.0652171e-38
-0.08488667 -0.013486668 0.83300006 1.9269252e-38
-0.083100006 -0.013454286 0.83100003 1.4936058e-38
-0.081517145 -0.013454286 0.83100003 1.2819158e-38
-0.080126666 -0.013486668 0.83300006 1.2542571e-38
-0.078540005 -0.013486668 0.83300006 1.3093209e-38
-0.076953337 -0.013486668 0.83300006 1.3369796e-38
-0.075366676 -0.013486668 0.83300006 1.7332692e-38
-0.073780008 -0.013486668 0.83300006 2.1758082e-38
-0.072193339 -0.013486668 0.83300006 2.2403538e-38
-0.070606671 -0.013486668 0.83300006 2.341769e-38
-0.068854287 -0.013454286 0.83100003 2.1667768e-38
-0.067271426 -0.013454286 0.83100003 2.0100442e-38
-0.065688573 -0.013454286 0.83100003 2.1575207e-38
-0.064105719 -0.013454286 0.83100003 2.3234369e-38
-0.062522858 -0.013454286 0.83100003 2.2129119e-38
-0.060940001 -0.013454286 0.83100003 1.9916424e-38
-0.059357144 -0.013454286 0.83100003 1.7526893e-38
-0.057774287 -0.013454286 0.83100003 1.632835e-38
-0.056326672 -0.013486668 0.83300006 1.4585278e-38
-0.054740004 -0.013486668 0.83300006 1.4585278e-38
-0.053153336 -0.013486668 0.83300006 1.5778416e-38
-0.051566672 -0.013486668 0.83300006 1.5501829e-38
-0.049980003 -0.013486668 0.83300006 1.8443792e-38
-0.048509523 -0.013519048 0.83500004 2.1117466e-38
-0.046919052 -0.013519048 0.83500004 2.2312424e-38
-0.045328572 -0.013519048 0.83500004 2.3142185e-38
-0.043842856 -0.013551429 0.83700001 2.0747266e-38
-0.042349525 -0.01358381 0.83900005 1.4109181e-38
-0.040848572 -0.01361619 0.84100002 7.0335178e-39
-0.039246667 -0.01361619 0.84100002 5.9271702e-39
-0.037734289 -0.013648572 0.84300005 5.6559755e-39
-0.036214288 -0.013680953 0.84500003 5.287193e-39
-0.034604765 -0.013680953 0.84500003 4.4574351e-39
-0.033073336 -0.013713335 0.84700006 5.0106089e-39
-0.031534284 -0.013745715 0.84900004 1.3376257e-38
-0.029987618 -0.013778095 0.85100001 1.5404561e-38
-0.028466668 -0.013826667 0.85400003 1.2079448e-38
-0.02690286 -0.013859048 0.85600007 9.9589483e-39
-0.025390476 -0.013923809 0.86000001 1.1341527e-38
-0.023807621 -0.013956192 0.86200005 1.5029352e-38
-0.10654666 -0.012200001 0.85400003 1.4199559e-38
-0.10455143 -0.012157143 0.85100001 1.1064908e-38
-0.10268857 -0.012128572 0.84900004 8.3102016e-39
-0.10107143 -0.012128572 0.84900004 5.1755501e-39
-0.098985717 -0.012071429 0.84500003 2.1492976e-39
-0.097145721 -0.012042858 0.84300005 3.2556451e-39
-0.095540009 -0.012042858 0.84300005 2.0617781e-39
-0.093711428 -0.012014287 0.84100002 1.7851912e-39
-0.091890484 -0.011985715 0.83900005 1.0795133e-38
-0.090077139 -0.011957143 0.83700001 1.8816152e-38
-0.088482857 -0.011957143 0.83700001 2.0744032e-38
-0.086680956 -0.011928571 0.83500004 1.9637685e-38
-0.08488667 -0.0119 0.83300006 1.6322942e-38
-0.083300002 -0.0119 0.83300006 1.1989748e-38
-0.081713334 -0.0119 0.83300006 1.2356365e-38
-0.080126666 -0.0119 0.83300006 1.3554909e-38
-0.078540005 -0.0119 0.83300006 1.3370884e-38
-0.076953337 -0.0119 0.83300006 1.2909906e-38
-0.075366676 -0.0119 0.83300006 1.3369761e-38
-0.073780008 -0.0119 0.83300006 1.7149781e-38
-0.072193339 -0.0119 0.83300006 2.0832947e-38
-0.070606671 -0.0119 0.83300006 2.3045642e-38
-0.069020011 -0.0119 0.83300006 2.3418043e-38
-0.067271426 -0.011871428 0.83100003 2.2588282e-38
-0.065688573 -0.011871428 0.83100003 2.2589374e-38
-0.064105719 -0.011871428 0.83100003 2.2865961e-38
-0.062522858 -0.011871428 0.83100003 2.0749061e-38
-0.060940001 -0.011871428 0.83100003 1.7245627e-38
-0.059357144 -0.011871428 0.83100003 1.3850234e-38
-0.057774287 -0.011871428 0.83100003 1.4126821e-38
-0.056326672 -0.0119 0.83300006 1.4127176e-38
-0.054740004 -0.0119 0.83300006 1.4311568e-38
-0.053153336 -0.0119 0.83300006 1.4033902e-38
-0.051690478 -0.011928571 0.83500004 1.2927554e-38
-0.050100002 -0.011928571 0.83500004 1.4488741e-38
-0.048509523 -0.011928571 0.83500004 1.7162414e-38
-0.046919052 -0.011928571 0.83500004 2.212803e-38
-0.045328572 -0.011928571 0.83500004 2.3234378e-38
-0.043947622 -0.011985715 0.83900005 2.028808e-38
-0.042349525 -0.011985715 0.83900005 1.0238757e-38
-0.040848572 -0.012014287 0.84100002 2.3473683e-39
-0.039246667 -0.012014287 0.84100002 4.0990853e-39
-0.037734289 -0.012042858 0.84300005 6.7598021e-39
-0.036214288 -0.012071429 0.84500003 5.6534546e-39
-0.034604765 -0.012071429 0.84500003 4.7325703e-39
-0.033151429 -0.012128572 0.84900004 6.9452654e-39
-0.03160857 -0.012157143 0.85100001 1.3927298e-38
-0.029987618 -0.012157143 0.85100001 1.5955602e-38
-0.028533336 -0.012228573 0.85600007 1.401662e-38
-0.026965715 -0.012257144 0.85800004 1.1066359e-38
-0.025390476 -0.012285715 0.86000001 1.235636e-38
-0.023752382 -0.012285715 0.86000001 1.5122229e-38
-0.10617238 -0.01053619 0.85100001 1.4751285e-38
-0.10455143 -0.01053619 0.85100001 1.2630786e-38
-0.10293048 -0.01053619 0.85100001 9.6899144e-39
-0.10107143 -0.010511429 0.84900004 8.1225887e-39
-0.099220008 -0.010486667 0.84700006 3.9899578e-39
-0.09737619 -0.010461905 0.84500003 3.8055665e-39
-0.095540009 -0.010437143 0.84300005 2.8890206e-39
-0.093711428 -0.010412381 0.84100002 2.4280425e-39
-0.091890484 -0.010387619 0.83900005 7.4832827e-39
-0.090292387 -0.010387619 0.83900005 1.513552e-38
-0.088482857 -0.010362858 0.83700001 1.8718237e-38
-0.086888574 -0.010362858 0.83700001 1.4385042e-38
-0.085090473 -0.010338096 0.83500004 1.1251833e-38
-0.083300002 -0.010313334 0.83300006 1.1805006e-38
-0.081713334 -0.010313334 0.83300006 1.2542203e-38
-0.080126666 -0.010313334 0.83300006 1.3371963e-38
-0.078540005 -0.010313334 0.83300006 1.3647474e-38
-0.076953337 -0.010313334 0.83300006 1.3831865e-38
-0.075366676 -0.010313334 0.83300006 1.3831495e-38
-0.073780008 -0.010313334 0.83300006 1.2817344e-38
-0.072193339 -0.010313334 0.83300006 1.530404e-38
-0.070606671 -0.010313334 0.83300006 2.0006017e-38
-0.069020011 -0.010313334 0.83300006 2.2126585e-38
-0.067433342 -0.010313334 0.83300006 2.350952e-38
-0.065846674 -0.010313334 0.83300006 2.3142182e-38
-0.064105719 -0.010288572 0.83100003 1.9823139e-38
-0.062522858 -0.010288572 0.83100003 1.5869905e-38
-0.060940001 -0.010288572 0.83100003 1.5501123e-38
-0.059357144 -0.010288572 0.83100003 1.4127174e-38
-0.057774287 -0.010288572 0.83100003 1.4219369e-38
-0.056326672 -0.010313334 0.83300006 1.4310849e-38
-0.054740004 -0.010313334 0.83300006 1.4218653e-38
-0.053153336 -0.010313334 0.83300006 1.4309417e-38
-0.051690478 -0.010338096 0.83500004 1.403283e-38
-0.050100002 -0.010338096 0.83500004 1.3939545e-38
-0.048509523 -0.010338096 0.83500004 1.4031741e-38
-0.047031429 -0.010362858 0.83700001 2.0378809e-38
-0.045437142 -0.010362858 0.83700001 2.2683341e-38
-0.043947622 -0.010387619 0.83900005 1.9367193e-38
-0.042450476 -0.010412381 0.84100002 8.5803046e-39
-0.040848572 -0.010412381 0.84100002 1.6119823e-39
-0.039340001 -0.010437143 0.84300005 3.5480905e-39
-0.037734289 -0.010437143 0.84300005 6.4832152e-39
-0.0363 -0.010486667 0.84700006 4.7314983e-39
-0.034686666 -0.010486667 0.84700006 7.2128517e-39
-0.033151429 -0.010511429 0.84900004 1.2007024e-38
-0.03160857 -0.01053619 0.85100001 1.6783545e-38
-0.030093335 -0.010573333 0.85400003 1.752111e-38
-0.028533336 -0.010598096 0.85600007 1.6504097e-38
-0.026965715 -0.010622857 0.85800004 1.2908467e-38
-0.025390476 -0.010647619 0.86000001 1.3276524e-38
-0.023807621 -0.010672381 0.86200005 1.5397023e-38
-0.022165716 -0.010672381 0.86200005 1.5855453e-38
-0.020642858 -0.010734286 0.86700004 1.5947648e-38
-0.10567334 -0.0088733332 0.84700006 1.5118989e-38
-0.10406001 -0.0088733332 0.84700006 1.2906294e-38
-0.10268857 -0.0088942861 0.84900004 1.1346517e-38
-0.10107143 -0.0088942861 0.84900004 1.0701147e-38
-0.099220008 -0.0088733332 0.84700006 5.3682483e-39
-0.097606674 -0.0088733332 0.84700006 4.446292e-39
-0.095766664 -0.0088523813 0.84500003 2.5213073e-39
-0.093711428 -0.0088104764 0.84100002 2.336916e-39
-0.092109524 -0.0088104764 0.84100002 1.5093105e-39
-0.090292387 -0.0087895235 0.83900005 1.1097656e-38
-0.088694289 -0.0087895235 0.83900005 1.7431133e-38
-0.086888574 -0.0087685715 0.83700001 1.3005743e-38
-0.085294284 -0.0087685715 0.83700001 1.0147981e-38
-0.083500005 -0.0087476196 0.83500004 1.1899698e-38
-0.08190953 -0.0087476196 0.83500004 1.3185404e-38
-0.080319054 -0.0087476196 0.83500004 1.3922969e-38
-0.078728572 -0.0087476196 0.83500004 1.3556355e-38
-0.077138096 -0.0087476196 0.83500004 1.3925137e-38
-0.075547621 -0.0087476196 0.83500004 1.3740386e-38
-0.073957145 -0.0087476196 0.83500004 1.2910625e-38
-0.07236667 -0.0087476196 0.83500004 1.2266629e-38
-0.070776194 -0.0087476196 0.83500004 1.5585672e-38
-0.069020011 -0.0087266676 0.83300006 2.0835118e-38
-0.067433342 -0.0087266676 0.83300006 2.3509511e-38
-0.065846674 -0.0087266676 0.83300006 2.2774842e-38
-0.064260006 -0.0087266676 0.83300006 1.7519691e-38
-0.062673338 -0.0087266676 0.83300006 1.449128e-38
-0.061086673 -0.0087266676 0.83300006 1.5136649e-38
-0.059500005 -0.0087266676 0.83300006 1.4034262e-38
-0.057913337 -0.0087266676 0.83300006 1.4403044e-38
-0.056326672 -0.0087266676 0.83300006 1.4770025e-38
-0.054740004 -0.0087266676 0.83300006 1.4677829e-38
-0.053280953 -0.0087476196 0.83500004 1.4401968e-38
-0.051690478 -0.0087476196 0.83500004 1.4217577e-38
-0.050100002 -0.0087476196 0.83500004 1.3021189e-38
-0.048625711 -0.0087685715 0.83700001 1.2836798e-38
-0.047031429 -0.0087685715 0.83700001 1.825977e-38
-0.045545716 -0.0087895235 0.83900005 2.2224182e-38
-0.044052381 -0.0088104764 0.84100002 1.798896e-38
-0.042450476 -0.0088104764 0.84100002 7.2020715e-39
-0.040945716 -0.0088314293 0.84300005 1.8853322e-39
-0.039340001 -0.0088314293 0.84300005 3.8214404e-39
-0.037823807 -0.0088523813 0.84500003 5.7470823e-39
-0.0363 -0.0088733332 0.84700006 3.9953654e-39
-0.03476857 -0.0088942861 0.84900004 8.1319396e-39
-0.033229522 -0.0089152381 0.85100001 1.3940264e-38
-0.031720001 -0.0089466665 0.85400003 1.6232189e-38
-0.030163812 -0.0089676194 0.85600007 1.5679015e-38
-0.0286 -0.0089885723 0.85800004 1.6596658e-38
-0.026965715 -0.0089885723 0.85800004 1.4107376e-38
-0.025449526 -0.0090304762 0.86200005 1.4656549e-38
-0.023807621 -0.0090304762 0.86200005 1.5578505e-38
-0.022294287 -0.0090828575 0.86700004 1.5578505e-38
-0.020642858 -0.0090828575 0.86700004 1.5762897e-38
-0.018991429 -0.0090828575 0.86700004 1.5854023e-38
-0.10567334 -0.0072600003 0.84700006 1.5303736e-38
-0.10406001 -0.0072600003 0.84700006 1.2630063e-38
-0.10268857 -0.0072771432 0.84900004 1.125285e-38
-0.10107143 -0.0072771432 0.84900004 1.2451393e-38
-0.099220008 -0.0072600003 0.84700006 9.0477918e-39
-0.097606674 -0.0072600003 0.84700006 5.267771e-39
-0.095766664 -0.0072428575 0.84500003 1.2327517e-39
-0.09393429 -0.0072257146 0.84300005 1.1405561e-39
-0.092109524 -0.0072085718 0.84100002 3.4396678e-39
-0.090292387 -0.0071914289 0.83900005 1.2567035e-38
-0.088694289 -0.0071914289 0.83900005 1.7983192e-38
-0.087096192 -0.0071914289 0.83900005 1.401878e-38
-0.085498095 -0.0071914289 0.83900005 1.0791949e-38
-0.083700001 -0.0071742856 0.83700001 1.1529514e-38
-0.082105711 -0.0071742856 0.83700001 1.2725515e-38
-0.080319054 -0.0071571432 0.83500004 1.3647471e-38
-0.078728572 -0.0071571432 0.83500004 1.3647827e-38
-0.077138096 -0.0071571432 0.83500004 1.4108805e-38
-0.075547621 -0.0071571432 0.83500004 1.4199569e-38
-0.073957145 -0.0071571432 0.83500004 1.3922982e-38
-0.07236667 -0.0071571432 0.83500004 1.2542569e-38
-0.070776194 -0.0071571432 0.83500004 1.3741112e-38
-0.069185719 -0.0071571432 0.83500004 1.8072129e-38
-0.067595243 -0.0071571432 0.83500004 2.3234367e-38
-0.066004761 -0.0071571432 0.83500004 2.2591166e-38
-0.064260006 -0.0071400008 0.83300006 1.6782842e-38
-0.062673338 -0.0071400008 0.83300006 1.3114113e-38
-0.061086673 -0.0071400008 0.83300006 1.4128265e-38
-0.059500005 -0.0071400008 0.83300006 1.4771467e-38
-0.057913337 -0.0071400008 0.83300006 1.4863662e-38
-0.056461908 -0.0071571432 0.83500004 1.4771464e-38
-0.054871429 -0.0071571432 0.83500004 1.4494877e-38
-0.053280953 -0.0071571432 0.83500004 1.4126107e-38
-0.051690478 -0.0071571432 0.83500004 1.3572933e-38
-0.050100002 -0.0071571432 0.83500004 1.4031381e-38
-0.048625711 -0.0071742856 0.83700001 1.6059685e-38
-0.047031429 -0.0071742856 0.83700001 2.0839084e-38
-0.045545716 -0.0071914289 0.83900005 2.2958866e-38
-0.044052381 -0.0072085718 0.84100002 2.2037274e-38
-0.042450476 -0.0072085718 0.84100002 1.6136753e-38
-0.040945716 -0.0072257146 0.84300005 5.0135474e-39
-0.039433334 -0.0072428575 0.84500003 2.9852436e-39
-0.037913334 -0.0072600003 0.84700006 1.6101774e-39
-0.036385715 -0.0072771432 0.84900004 3.6384813e-39
-0.03476857 -0.0072771432 0.84900004 1.1351264e-38
-0.033229522 -0.0072942856 0.85100001 1.6145437e-38
-0.031720001 -0.0073200003 0.85400003 1.5586819e-38
-0.030163812 -0.0073371432 0.85600007 1.3097537e-38
-0.0286 -0.0073542856 0.85800004 1.411061e-38
-0.026965715 -0.0073542856 0.85800004 1.4387197e-38
-0.025449526 -0.0073885717 0.86200005 1.4381054e-38
-0.023807621 -0.0073885717 0.86200005 1.5210815e-38
-0.022294287 -0.0074314289 0.86700004 1.557815e-38
-0.020642858 -0.0074314289 0.86700004 1.557815e-38
-0.019079048 -0.0074657151 0.87100005 1.5669992e-38
-0.10567334 -0.005646667 0.84700006 1.5580323e-38
-0.10406001 -0.005646667 0.84700006 1.2353476e-38
-0.10268857 -0.0056600003 0.84900004 1.023368e-38
-0.10130952 -0.0056733335 0.85100001 1.2538571e-38
-0.099454284 -0.0056600003 0.84900004 1.1900436e-38
-0.097837143 -0.0056600003 0.84900004 6.7374809e-39
-0.09599334 -0.005646667 0.84700006 1.1390931e-39
-0.094157144 -0.0056333332 0.84500003 1.1390931e-39
-0.092328578 -0.0056200004 0.84300005 7.1163303e-39
-0.090507619 -0.0056066667 0.84100002 1.5321741e-38
-0.088905722 -0.0056066667 0.84100002 1.9087379e-38
-0.087096192 -0.0055933334 0.83900005 1.6874684e-38
-0.085498095 -0.0055933334 0.83900005 1.2820272e-38
-0.083700001 -0.0055800001 0.83700001 1.1345142e-38
-0.082105711 -0.0055800001 0.83700001 1.2174127e-38
-0.080703817 -0.0055933334 0.83900005 1.3280474e-38
-0.07910572 -0.0055933334 0.83900005 1.346308e-38
-0.077507623 -0.0055933334 0.83900005 1.4016254e-38
-0.075909525 -0.0055933334 0.83900005 1.4199925e-38
-0.074311435 -0.0055933334 0.83900005 1.3646751e-38
-0.07254 -0.0055800001 0.83700001 1.1899703e-38
-0.070945717 -0.0055800001 0.83700001 1.4020203e-38
-0.069351427 -0.0055800001 0.83700001 1.807141e-38
-0.067757145 -0.0055800001 0.83700001 2.3326202e-38
-0.066004761 -0.0055666668 0.83500004 2.2131633e-38
-0.064414285 -0.0055666668 0.83500004 1.7245265e-38
-0.06282381 -0.0055666668 0.83500004 1.3480385e-38
-0.061233338 -0.0055666668 0.83500004 1.4125754e-38
-0.059642859 -0.0055666668 0.83500004 1.4495243e-38
-0.058052383 -0.0055666668 0.83500004 1.4587439e-38
-0.056461908 -0.0055666668 0.83500004 1.4587083e-38
-0.055002857 -0.0055800001 0.83700001 1.4402691e-38
-0.053536192 -0.0055933334 0.83900005 1.3942429e-38
-0.051938098 -0.0055933334 0.83900005 1.3112669e-38
-0.050340001 -0.0055933334 0.83900005 1.4214337e-38
-0.048858099 -0.0056066667 0.84100002 1.7902162e-38
-0.04725619 -0.0056066667 0.84100002 2.1483026e-38
-0.045762859 -0.0056200004 0.84300005 2.1944005e-38
-0.044157144 -0.0056200004 0.84300005 2.1945078e-38
-0.042551432 -0.0056200004 0.84300005 1.9547992e-38
-0.041140001 -0.005646667 0.84700006 1.2743212e-38
-0.039526667 -0.005646667 0.84700006 5.9207354e-39
-0.038002856 -0.0056600003 0.84900004 1.5157845e-39
-0.03647143 -0.0056733335 0.85100001 5.388001e-39
-0.034850478 -0.0056733335 0.85100001 1.5125141e-38
-0.033346668 -0.0056933332 0.85400003 1.6047097e-38
-0.031720001 -0.0056933332 0.85400003 1.4575181e-38
-0.030234287 -0.0057200002 0.85800004 1.144053e-38
-0.0286 -0.0057200002 0.85800004 1.2914938e-38
-0.027028572 -0.0057333331 0.86000001 1.3560308e-38
-0.025449526 -0.0057466668 0.86200005 1.3737111e-38
-0.023807621 -0.0057466668 0.86200005 1.502785e-38
-0.022294287 -0.0057800002 0.86700004 1.5486317e-38
-0.020738097 -0.0058066668 0.87100005 1.5486317e-38
-0.019079048 -0.0058066668 0.87100005 1.5486317e-38
-0.10430571 -0.0040428573 0.84900004 1.2628984e-38
-0.10268857 -0.0040428573 0.84900004 9.7734654e-39
-0.10130952 -0.004052381 0.85100001 1.0326639e-38
-0.099688575 -0.004052381 0.85100001 1.0057603e-38
-0.097837143 -0.0040428573 0.84900004 9.68882e-39
-0.096220002 -0.0040428573 0.84900004 8.3144853e-39
-0.094157144 -0.0040238099 0.84500003 1.1080354e-38
-0.092328578 -0.0040142857 0.84300005 1.4204974e-38
-0.090507619 -0.0040047616 0.84100002 1.7524016e-38
-0.088905722 -0.0040047616 0.84100002 1.8993729e-38
-0.08730381 -0.0040047616 0.84100002 2.0100077e-38
-0.085498095 -0.0039952383 0.83900005 1.7979963e-38
-0.083899997 -0.0039952383 0.83900005 1.3646768e-38
-0.082301915 -0.0039952383 0.83900005 1.2176272e-38
-0.080896191 -0.0040047616 0.84100002 1.2452859e-38
-0.079294287 -0.0040047616 0.84100002 1.3095026e-38
-0.077507623 -0.0039952383 0.83900005 1.3740396e-38
-0.075909525 -0.0039952383 0.83900005 1.3188294e-38
-0.074311435 -0.0039952383 0.83900005 1.1897555e-38
-0.072713338 -0.0039952383 0.83900005 1.2912398e-38
-0.07111524 -0.0039952383 0.83900005 1.9642679e-38
-0.069351427 -0.0039857142 0.83700001 2.2404244e-38
-0.067757145 -0.0039857142 0.83700001 2.3418038e-38
-0.066162854 -0.0039857142 0.83700001 2.259045e-38
-0.064568572 -0.0039857142 0.83700001 2.1299711e-38
-0.062974289 -0.0039857142 0.83700001 1.7161023e-38
-0.061379995 -0.0039857142 0.83700001 1.531711e-38
-0.059785716 -0.0039857142 0.83700001 1.348218e-38
-0.05819143 -0.0039857142 0.83700001 1.3758767e-38
-0.056597143 -0.0039857142 0.83700001 1.4310501e-38
-0.055134289 -0.0039952383 0.83900005 1.4033914e-38
-0.053536192 -0.0039952383 0.83900005 1.4860063e-38
-0.052061904 -0.0040047616 0.84100002 1.6150801e-38
-0.05046 -0.0040047616 0.84100002 2.0288058e-38
-0.048858099 -0.0040047616 0.84100002 2.240784e-38
-0.04725619 -0.0040047616 0.84100002 2.0930932e-38
-0.045762859 -0.0040142857 0.84300005 1.8718237e-38
-0.044157144 -0.0040142857 0.84300005 2.0377385e-38
-0.04265238 -0.0040238099 0.84500003 2.2682276e-38
-0.041140001 -0.0040333336 0.84700006 2.1484829e-38
