# .PCD v0.7 - Point Cloud Data file format
VERSION 0.7
FIELDS x y z rgb
SIZE 4 4 4 4
TYPE F F F F
COUNT 1 1 1 1
WIDTH 939
HEIGHT 1
VIEWPOINT 0 0 0 1 0 0 0
POINTS 939
DATA ascii
-0.079300001 -0.027014285 0.91500002 1.9638022e-38
-0.077557147 -0.027014285 0.91500002 1.9730218e-38
-0.075814284 -0.027014285 0.91500002 1.9545824e-38
-0.07407143 -0.027014285 0.91500002 1.9730215e-38
-0.072328568 -0.027014285 0.91500002 1.9729862e-38
-0.07058572 -0.027014285 0.91500002 1.9729862e-38
-0.068842858 -0.027014285 0.91500002 1.9638385e-38
-0.067320004 -0.02710286 0.91800004 1.9730581e-38
-0.065571435 -0.02710286 0.91800004 1.9546192e-38
-0.063822858 -0.02710286 0.91800004 1.9453997e-38
-0.061871432 -0.027014285 0.91500002 1.9453994e-38
-0.060128573 -0.027014285 0.91500002 1.9361798e-38
-0.058385715 -0.027014285 0.91500002 1.8992297e-38
-0.05664286 -0.027014285 0.91500002 1.9176688e-38
-0.054899998 -0.027014285 0.91500002 1.8808262e-38
-0.053040955 -0.026955239 0.91300005 1.8716066e-38
-0.051301908 -0.026955239 0.91300005 1.8162892e-38
-0.049400002 -0.026866667 0.91000003 1.8439479e-38
-0.047457144 -0.026748572 0.90600002 1.8714634e-38
-0.045731429 -0.026748572 0.90600002 1.9360003e-38
-0.044005714 -0.026748572 0.90600002 1.9913543e-38
-0.04228 -0.026748572 0.90600002 2.0651108e-38
-0.040554285 -0.026748572 0.90600002 2.1296825e-38
-0.035957143 -0.024770476 0.83900005 2.138902e-38
-0.034359049 -0.024770476 0.83900005 2.1941841e-38
-0.032760955 -0.024770476 0.83900005 2.1019885e-38
-0.031237142 -0.024829524 0.84100002 1.8810076e-38
-0.029705716 -0.024888573 0.84300005 1.8164707e-38
-0.028166667 -0.024947621 0.84500003 1.4761378e-38
-0.026557142 -0.024947621 0.84500003 1.0520379e-38
-0.025213335 -0.025213335 0.85400003 1.014904e-38
-0.023586666 -0.025213335 0.85400003 1.2638322e-38
-0.022062857 -0.02533143 0.85800004 1.5120784e-38
-0.10381429 -0.023338096 0.84500003 6.7349473e-39
-0.10196286 -0.023282859 0.84300005 9.3185927e-39
-0.10011905 -0.023227619 0.84100002 1.3467396e-38
-0.098282859 -0.023172382 0.83900005 1.6596245e-38
-0.096684769 -0.023172382 0.83900005 1.7886984e-38
-0.10211334 -0.024884764 0.90100002 1.8622072e-38
-0.10039714 -0.024884764 0.90100002 2.0189398e-38
-0.098900005 -0.024940003 0.90300006 2.0189045e-38
-0.097180009 -0.024940003 0.90300006 2.0465632e-38
-0.095777147 -0.025022857 0.90600002 2.0283029e-38
-0.094051436 -0.025022857 0.90600002 2.0283029e-38
-0.092529528 -0.025078095 0.90800005 2.0007158e-38
-0.090800002 -0.025078095 0.90800005 2.0283745e-38
-0.089266665 -0.025133334 0.91000003 2.0375234e-38
-0.087533332 -0.025133334 0.91000003 2.0375234e-38
-0.086082861 -0.025216192 0.91300005 2.0006449e-38
-0.084528573 -0.025271429 0.91500002 1.9822058e-38
-0.082785718 -0.025271429 0.91500002 1.9637666e-38
-0.081042856 -0.025271429 0.91500002 1.9637666e-38
-0.079300001 -0.025271429 0.91500002 1.9637666e-38
-0.077557147 -0.025271429 0.91500002 1.9729862e-38
-0.075814284 -0.025271429 0.91500002 1.9638019e-38
-0.07407143 -0.025271429 0.91500002 1.9638019e-38
-0.072328568 -0.025271429 0.91500002 1.9730218e-38
-0.07058572 -0.025271429 0.91500002 1.9822414e-38
-0.068842858 -0.025271429 0.91500002 1.9822774e-38
-0.067100003 -0.025271429 0.91500002 2.0007165e-38
-0.065357141 -0.025271429 0.91500002 2.0283039e-38
-0.063614286 -0.025271429 0.91500002 2.0836212e-38
-0.061871432 -0.025271429 0.91500002 2.1297544e-38
-0.060128573 -0.025271429 0.91500002 2.1481935e-38
-0.058385715 -0.025271429 0.91500002 2.1573775e-38
-0.05664286 -0.025271429 0.91500002 2.166597e-38
-0.054899998 -0.025271429 0.91500002 2.1942557e-38
-0.053040955 -0.025216192 0.91300005 2.2219144e-38
-0.051301908 -0.025216192 0.91300005 2.2496087e-38
-0.049291432 -0.025078095 0.90800005 2.2864869e-38
-0.047457144 -0.025022857 0.90600002 2.3048907e-38
-0.045731429 -0.025022857 0.90600002 2.2864516e-38
-0.044005714 -0.025022857 0.90600002 2.0653285e-38
-0.04228 -0.025022857 0.90600002 2.0284503e-38
-0.040554285 -0.025022857 0.90600002 1.8165082e-38
-0.035957143 -0.023172382 0.83900005 1.77963e-38
-0.034359049 -0.023172382 0.83900005 1.8163271e-38
-0.032760955 -0.023172382 0.83900005 1.7425706e-38
-0.031237142 -0.023227619 0.84100002 1.4476156e-38
-0.029705716 -0.023282859 0.84300005 1.2632243e-38
-0.028166667 -0.023338096 0.84500003 1.3739708e-38
-0.026557142 -0.023338096 0.84500003 1.5952403e-38
-0.024947621 -0.023338096 0.84500003 1.3557074e-38
-0.023862857 -0.023862857 0.86400002 1.3188291e-38
-0.022217143 -0.023862857 0.86400002 1.5120784e-38
-0.10381429 -0.021728572 0.84500003 5.4460064e-39
-0.10196286 -0.021677144 0.84300005 6.2849918e-39
-0.10011905 -0.021625714 0.84100002 1.0710381e-38
-0.098282859 -0.021574287 0.83900005 1.3279363e-38
-0.096684769 -0.021574287 0.83900005 1.4938884e-38
-0.095086671 -0.021574287 0.83900005 1.7422806e-38
-0.093488574 -0.021574287 0.83900005 1.9635501e-38
-0.098900005 -0.023220003 0.90300006 1.9545464e-38
-0.097180009 -0.023220003 0.90300006 1.9914246e-38
-0.095777147 -0.023297142 0.90600002 2.0744004e-38
-0.094259053 -0.023348572 0.90800005 2.0744004e-38
-0.092529528 -0.023348572 0.90800005 2.0651818e-38
-0.091000006 -0.023400001 0.91000003 2.0467427e-38
-0.089266665 -0.023400001 0.91000003 2.0743654e-38
-0.087821908 -0.023477143 0.91300005 2.0928045e-38
-0.086082861 -0.023477143 0.91300005 2.1020238e-38
-0.084528573 -0.02352857 0.91500002 2.1020238e-38
-0.082785718 -0.02352857 0.91500002 2.0836215e-38
-0.081042856 -0.02352857 0.91500002 2.0836215e-38
-0.079300001 -0.02352857 0.91500002 2.0836212e-38
-0.077811427 -0.023605715 0.91800004 2.1112799e-38
-0.076062858 -0.023605715 0.91800004 2.1297193e-38
-0.074314289 -0.023605715 0.91800004 2.157378e-38
-0.072565712 -0.023605715 0.91800004 2.1758171e-38
-0.07058572 -0.02352857 0.91500002 2.1850367e-38
-0.068842858 -0.02352857 0.91500002 2.2034758e-38
-0.067100003 -0.02352857 0.91500002 2.2587932e-38
-0.065357141 -0.02352857 0.91500002 2.2864519e-38
-0.063614286 -0.02352857 0.91500002 2.2772323e-38
-0.061871432 -0.02352857 0.91500002 2.2587929e-38
-0.060128573 -0.02352857 0.91500002 2.2587929e-38
-0.058385715 -0.02352857 0.91500002 2.2680125e-38
-0.05664286 -0.02352857 0.91500002 2.2864516e-38
-0.054899998 -0.02352857 0.91500002 2.3325494e-38
-0.053040955 -0.023477143 0.91300005 2.2956712e-38
-0.051133335 -0.023400001 0.91000003 2.3325847e-38
-0.049291432 -0.023348572 0.90800005 2.3141456e-38
-0.047457144 -0.023297142 0.90600002 2.2865598e-38
-0.045731429 -0.023297142 0.90600002 2.1667055e-38
-0.044005714 -0.023297142 0.90600002 1.844741e-38
-0.04228 -0.023297142 0.90600002 1.6787889e-38
-0.037644763 -0.021625714 0.84100002 1.5223059e-38
-0.036042858 -0.021625714 0.84100002 1.5684037e-38
-0.034440953 -0.021625714 0.84100002 1.6966539e-38
-0.032839045 -0.021625714 0.84100002 1.4938235e-38
-0.03131143 -0.021677144 0.84300005 1.511789e-38
-0.029705716 -0.021677144 0.84300005 1.3273978e-38
-0.028166667 -0.021728572 0.84500003 1.4474323e-38
-0.026557142 -0.021728572 0.84500003 1.6318236e-38
-0.025213335 -0.02196 0.85400003 1.5488127e-38
-0.023862857 -0.022217143 0.86400002 1.4473975e-38
-0.022217143 -0.022217143 0.86400002 1.5120784e-38
-0.020571429 -0.022217143 0.86400002 1.521298e-38
-0.10406001 -0.020166667 0.84700006 3.3254971e-39
-0.10196286 -0.020071428 0.84300005 8.5174424e-40
-0.10011905 -0.02002381 0.84100002 8.5039815e-39
-0.098517142 -0.02002381 0.84100002 1.3369407e-38
-0.096684769 -0.019976191 0.83900005 1.4291364e-38
-0.095086671 -0.019976191 0.83900005 1.6871023e-38
-0.093488574 -0.019976191 0.83900005 1.6778827e-38
-0.091890484 -0.019976191 0.83900005 1.6043071e-38
-0.090292387 -0.019976191 0.83900005 1.6227462e-38
-0.095988572 -0.021619048 0.90800005 1.6779968e-38
-0.094259053 -0.021619048 0.90800005 1.926925e-38
-0.092733338 -0.021666666 0.91000003 1.8718237e-38
-0.091000006 -0.021666666 0.91000003 1.7888476e-38
-0.089560956 -0.021738095 0.91300005 1.844236e-38
-0.087821908 -0.021738095 0.91300005 1.908773e-38
-0.078540005 -0.019833334 0.83300006 1.991713e-38
-0.076953337 -0.019833334 0.83300006 2.1300065e-38
-0.075366676 -0.019833334 0.83300006 2.1942563e-38
-0.073780008 -0.019833334 0.83300006 2.3141106e-38
-0.072193339 -0.019833334 0.83300006 2.3048907e-38
-0.070606671 -0.019833334 0.83300006 2.341769e-38
-0.069020011 -0.019833334 0.83300006 2.341769e-38
-0.074314289 -0.021857142 0.91800004 2.341769e-38
-0.072565712 -0.021857142 0.91800004 2.341769e-38
-0.070817143 -0.021857142 0.91800004 2.341769e-38
-0.069068573 -0.021857142 0.91800004 2.341769e-38
-0.067100003 -0.021785714 0.91500002 2.341769e-38
-0.065357141 -0.021785714 0.91500002 2.3326213e-38
-0.063614286 -0.021785714 0.91500002 2.3326213e-38
-0.061871432 -0.021785714 0.91500002 2.2403901e-38
-0.054608572 -0.019785715 0.83100003 2.1758532e-38
-0.053025715 -0.019785715 0.83100003 2.1943279e-38
-0.051566672 -0.019833334 0.83300006 2.2588648e-38
-0.054899998 -0.021785714 0.91500002 2.1943642e-38
-0.053040955 -0.021738095 0.91300005 1.9362164e-38
-0.051133335 -0.021666666 0.91000003 1.8903326e-38
-0.049182858 -0.021571428 0.90600002 2.0101869e-38
-0.047457144 -0.021571428 0.90600002 2.0468872e-38
-0.04558 -0.021500001 0.90300006 1.8901546e-38
-0.04386 -0.021500001 0.90300006 1.7157009e-38
-0.039246667 -0.02002381 0.84100002 1.4852119e-38
-0.037644763 -0.02002381 0.84100002 1.5131201e-38
-0.036042858 -0.02002381 0.84100002 1.854244e-38
-0.034440953 -0.02002381 0.84100002 2.0007171e-38
-0.032839045 -0.02002381 0.84100002 1.5120802e-38
-0.03131143 -0.020071428 0.84300005 1.0420668e-38
-0.029705716 -0.020071428 0.84300005 8.9455377e-39
-0.028166667 -0.020119047 0.84500003 1.0052561e-38
-0.026557142 -0.020119047 0.84500003 1.4385755e-38
-0.025213335 -0.020333333 0.85400003 1.4753436e-38
-0.023862857 -0.020571429 0.86400002 1.4384654e-38
-0.022217143 -0.020571429 0.86400002 1.5120774e-38
-0.020571429 -0.020571429 0.86400002 1.5120774e-38
-0.018925713 -0.020571429 0.86400002 1.5486673e-38
-0.10455143 -0.018640952 0.85100001 3.6910622e-39
-0.10268857 -0.018597143 0.84900004 1.5881084e-39
-0.10035715 -0.018465716 0.84300005 9.1481374e-39
-0.098517142 -0.018421905 0.84100002 1.3370855e-38
-0.096915238 -0.018421905 0.84100002 1.6044528e-38
-0.095313333 -0.018421905 0.84100002 1.5769406e-38
-0.093488574 -0.018378096 0.83900005 1.3741102e-38
-0.091890484 -0.018378096 0.83900005 1.3370479e-38
-0.090077139 -0.018334284 0.83700001 1.2817306e-38
-0.088482857 -0.018334284 0.83700001 1.456867e-38
-0.086888574 -0.018334284 0.83700001 1.8440886e-38
-0.084682859 -0.018202858 0.83100003 1.7521145e-38
-0.083100006 -0.018202858 0.83100003 1.5677233e-38
-0.081517145 -0.018202858 0.83100003 1.3750428e-38
-0.080126666 -0.018246669 0.83300006 1.4487993e-38
-0.078540005 -0.018246669 0.83300006 1.5406694e-38
-0.076953337 -0.018246669 0.83300006 1.7250606e-38
-0.075366676 -0.018246669 0.83300006 1.9916054e-38
-0.073780008 -0.018246669 0.83300006 2.1391184e-38
-0.072193339 -0.018246669 0.83300006 2.1298632e-38
-0.070606671 -0.018246669 0.83300006 2.1390828e-38
-0.069020011 -0.018246669 0.83300006 2.1667405e-38
-0.067433342 -0.018246669 0.83300006 2.2681557e-38
-0.065846674 -0.018246669 0.83300006 2.2865235e-38
-0.070817143 -0.020108571 0.91800004 2.2865235e-38
-0.069068573 -0.020108571 0.91800004 2.1576301e-38
-0.067320004 -0.020108571 0.91800004 1.9824584e-38
-0.059357144 -0.018202858 0.83100003 1.9915691e-38
-0.057774287 -0.018202858 0.83100003 1.9639104e-38
-0.056326672 -0.018246669 0.83300006 1.8259388e-38
-0.054608572 -0.018202858 0.83100003 1.9826714e-38
-0.053025715 -0.018202858 0.83100003 2.0193376e-38
-0.051566672 -0.018246669 0.83300006 2.2037289e-38
-0.049980003 -0.018246669 0.83300006 2.0472477e-38
-0.048393335 -0.018246669 0.83300006 1.4848544e-38
-0.046919052 -0.018290477 0.83500004 1.4941052e-38
-0.045328572 -0.018290477 0.83500004 1.752253e-38
-0.043842856 -0.018334284 0.83700001 2.1388655e-38
-0.042349525 -0.018378096 0.83900005 2.1112068e-38
-0.040751431 -0.018378096 0.83900005 1.8723269e-38
-0.039246667 -0.018421905 0.84100002 1.5588617e-38
-0.037644763 -0.018421905 0.84100002 1.6049602e-38
-0.036128573 -0.018465716 0.84300005 1.9092058e-38
-0.034522858 -0.018465716 0.84300005 2.0374515e-38
-0.032917146 -0.018465716 0.84300005 1.2445691e-38
-0.03131143 -0.018465716 0.84300005 1.1246753e-38
-0.029776191 -0.018509526 0.84500003 1.0416992e-38
-0.028166667 -0.018509526 0.84500003 8.8590005e-39
-0.026557142 -0.018509526 0.84500003 1.2639021e-38
-0.025213335 -0.018706666 0.85400003 1.3925834e-38
-0.023945715 -0.018991429 0.86700004 1.4294616e-38
-0.022294287 -0.018991429 0.86700004 1.5028225e-38
-0.020642858 -0.018991429 0.86700004 1.5028225e-38
-0.018991429 -0.018991429 0.86700004 1.548632e-38
-0.10704572 -0.017160002 0.85800004 1.4477948e-38
-0.10516573 -0.017120002 0.85600007 5.0739938e-39
-0.10353524 -0.017120002 0.85600007 9.4603481e-40
-0.10083334 -0.01694 0.84700006 6.6621639e-39
-0.098751433 -0.016860001 0.84300005 1.3094651e-38
-0.097145721 -0.016860001 0.84300005 1.7243454e-38
-0.095313333 -0.01682 0.84100002 1.696505e-38
-0.093711428 -0.01682 0.84100002 1.2170877e-38
-0.091890484 -0.016780002 0.83900005 9.0416331e-39
-0.090077139 -0.01674 0.83700001 8.3040681e-39
-0.088482857 -0.01674 0.83700001 1.06011e-38
-0.086888574 -0.01674 0.83700001 1.8898707e-38
-0.084682859 -0.016620001 0.83100003 1.9361811e-38
-0.083100006 -0.016620001 0.83100003 1.705692e-38
-0.081517145 -0.016620001 0.83100003 1.4670903e-38
-0.080126666 -0.016660001 0.83300006 1.3656751e-38
-0.078540005 -0.016660001 0.83300006 1.365703e-38
-0.076953337 -0.016660001 0.83300006 1.7344855e-38
-0.075366676 -0.016660001 0.83300006 2.0930897e-38
-0.073780008 -0.016660001 0.83300006 2.1207484e-38
-0.072193339 -0.016660001 0.83300006 2.0286273e-38
-0.070606671 -0.016660001 0.83300006 1.6782839e-38
-0.069020011 -0.016660001 0.83300006 1.6324375e-38
-0.067433342 -0.016660001 0.83300006 1.8721461e-38
-0.065688573 -0.016620001 0.83100003 2.0560344e-38
-0.064105719 -0.016620001 0.83100003 2.1390105e-38
-0.062522858 -0.016620001 0.83100003 2.0562127e-38
-0.060940001 -0.016620001 0.83100003 1.3278672e-38
-0.059357144 -0.016620001 0.83100003 1.1902562e-38
-0.057774287 -0.016620001 0.83100003 1.1902562e-38
-0.056326672 -0.016660001 0.83300006 1.5401262e-38
-0.054740004 -0.016660001 0.83300006 2.1117391e-38
-0.053153336 -0.016660001 0.83300006 2.2957791e-38
-0.051566672 -0.016660001 0.83300006 2.3142182e-38
-0.049980003 -0.016660001 0.83300006 2.0382068e-38
-0.048393335 -0.016660001 0.83300006 1.1992266e-38
-0.046919052 -0.0167 0.83500004 8.6919223e-39
-0.045328572 -0.0167 0.83500004 1.0535835e-38
-0.043842856 -0.01674 0.83700001 1.761652e-38
-0.042349525 -0.016780002 0.83900005 2.1119954e-38
-0.040751431 -0.016780002 0.83900005 2.1761055e-38
-0.039246667 -0.01682 0.84100002 2.1576664e-38
-0.037644763 -0.01682 0.84100002 2.1944711e-38
-0.036128573 -0.016860001 0.84300005 1.9547625e-38
-0.034522858 -0.016860001 0.84300005 1.8163919e-38
-0.032917146 -0.016860001 0.84300005 1.161803e-38
-0.03131143 -0.016860001 0.84300005 9.9621573e-39
-0.029776191 -0.016900001 0.84500003 9.777766e-39
-0.028166667 -0.016900001 0.84500003 9.2267502e-39
-0.026620002 -0.01694 0.84700006 1.2084815e-38
-0.025272382 -0.017120002 0.85600007 1.4202421e-38
-0.024000952 -0.017380001 0.86900002 1.5032181e-38
-0.022345716 -0.017380001 0.86900002 1.5489547e-38
-0.020690477 -0.017380001 0.86900002 1.5028569e-38
-0.019035237 -0.017380001 0.86900002 1.5486322e-38
-0.10704572 -0.015525714 0.85800004 1.4847087e-38
-0.10516573 -0.015489525 0.85600007 6.5494798e-39
-0.10353524 -0.015489525 0.85600007 1.2197042e-39
-0.10130952 -0.015399048 0.85100001 4.9075294e-39
-0.099220008 -0.015326667 0.84700006 1.2540738e-38
-0.097606674 -0.015326667 0.84700006 1.6412955e-38
-0.095540009 -0.015254286 0.84300005 1.5491387e-38
-0.093711428 -0.015218095 0.84100002 9.6830621e-39
-0.091890484 -0.015181906 0.83900005 8.946548e-39
-0.090292387 -0.015181906 0.83900005 9.4075262e-39
-0.088694289 -0.015181906 0.83900005 1.133822e-38
-0.086888574 -0.015145714 0.83700001 1.7515327e-38
-0.085090473 -0.015109524 0.83500004 1.9821685e-38
-0.083300002 -0.015073335 0.83300006 1.8807533e-38
-0.081713334 -0.015073335 0.83300006 1.6968299e-38
-0.080126666 -0.015073335 0.83300006 1.5216582e-38
-0.078540005 -0.015073335 0.83300006 1.3009586e-38
-0.076953337 -0.015073335 0.83300006 1.9094498e-38
-0.075366676 -0.015073335 0.83300006 2.2219147e-38
-0.073780008 -0.015073335 0.83300006 2.1758169e-38
-0.072193339 -0.015073335 0.83300006 2.0195159e-38
-0.070606671 -0.015073335 0.83300006 1.6415138e-38
-0.069020011 -0.015073335 0.83300006 1.4670971e-38
-0.067433342 -0.015073335 0.83300006 1.6791471e-38
-0.065688573 -0.015037144 0.83100003 2.0928758e-38
-0.064105719 -0.015037144 0.83100003 2.2496084e-38
-0.062522858 -0.015037144 0.83100003 2.2312421e-38
-0.060940001 -0.015037144 0.83100003 1.7149466e-38
-0.059357144 -0.015037144 0.83100003 1.6320759e-38
-0.057774287 -0.015037144 0.83100003 1.6228564e-38
-0.056326672 -0.015073335 0.83300006 1.7333104e-38
-0.054740004 -0.015073335 0.83300006 2.3509852e-38
-0.053153336 -0.015073335 0.83300006 2.341769e-38
-0.051566672 -0.015073335 0.83300006 2.2403538e-38
-0.049980003 -0.015073335 0.83300006 1.5782382e-38
-0.048509523 -0.015109524 0.83500004 8.9599052e-39
-0.046919052 -0.015109524 0.83500004 2.7204808e-39
-0.045328572 -0.015109524 0.83500004 2.9048721e-39
-0.043842856 -0.015145714 0.83700001 1.1265834e-38
-0.042349525 -0.015181906 0.83900005 1.5967811e-38
-0.040848572 -0.015218095 0.84100002 2.1759235e-38
-0.039246667 -0.015218095 0.84100002 2.3234365e-38
-0.037644763 -0.015218095 0.84100002 2.314039e-38
-0.036128573 -0.015254286 0.84300005 1.7608652e-38
-0.034522858 -0.015254286 0.84300005 1.4200981e-38
-0.032917146 -0.015254286 0.84300005 1.1158526e-38
-0.031385716 -0.015290476 0.84500003 1.0700075e-38
-0.029776191 -0.015290476 0.84500003 9.9625104e-39
-0.028166667 -0.015290476 0.84500003 9.1338287e-39
-0.026620002 -0.015326667 0.84700006 1.3374828e-38
-0.025272382 -0.015489525 0.85600007 1.4203146e-38
-0.024000952 -0.015724761 0.86900002 1.4940711e-38
-0.022345716 -0.015724761 0.86900002 1.5488838e-38
-0.020738097 -0.015760954 0.87100005 1.502786e-38
-0.019079048 -0.015760954 0.87100005 1.5486673e-38
-0.01746 -0.015797142 0.87300003 1.5486673e-38
-0.10704572 -0.013891429 0.85800004 1.5306976e-38
-0.10541143 -0.013891429 0.85800004 9.9596293e-39
-0.10353524 -0.013859048 0.85600007 1.5925084e-39
-0.10190476 -0.013859048 0.85600007 1.3159216e-39
-0.099454284 -0.013745715 0.84900004 1.1161355e-38
-0.097837143 -0.013745715 0.84900004 1.4572593e-38
-0.095766664 -0.013680953 0.84500003 1.4383562e-38
-0.09393429 -0.013648572 0.84300005 9.4971938e-39
-0.092109524 -0.01361619 0.84100002 8.9480362e-39
-0.090292387 -0.01358381 0.83900005 1.0423166e-38
-0.088694289 -0.01358381 0.83900005 1.0880138e-38
-0.087096192 -0.01358381 0.83900005 1.1709899e-38
-0.085294284 -0.013551429 0.83700001 1.5857224e-38
-0.083300002 -0.013486668 0.83300006 2.1020179e-38
-0.081713334 -0.013486668 0.83300006 2.1019897e-38
-0.080319054 -0.013519048 0.83500004 2.1112093e-38
-0.078728572 -0.013519048 0.83500004 2.1297904e-38
-0.076953337 -0.013486668 0.83300006 2.2957425e-38
-0.075366676 -0.013486668 0.83300006 2.1576301e-38
-0.073780008 -0.013486668 0.83300006 1.8994823e-38
-0.072193339 -0.013486668 0.83300006 1.6607798e-38
-0.070606671 -0.013486668 0.83300006 1.5685842e-38
-0.069020011 -0.013486668 0.83300006 1.4674965e-38
-0.067433342 -0.013486668 0.83300006 1.5689117e-38
-0.065846674 -0.013486668 0.83300006 1.8998038e-38
-0.064105719 -0.013454286 0.83100003 2.0841951e-38
-0.062522858 -0.013454286 0.83100003 2.2681207e-38
-0.060940001 -0.013454286 0.83100003 2.3234379e-38
-0.059357144 -0.013454286 0.83100003 2.3234368e-38
-0.057774287 -0.013454286 0.83100003 2.1851433e-38
-0.056326672 -0.013486668 0.83300006 2.2772684e-38
-0.054740004 -0.013486668 0.83300006 2.3325856e-38
-0.053153336 -0.013486668 0.83300006 2.1301144e-38
-0.051690478 -0.013519048 0.83500004 1.3741102e-38
-0.050100002 -0.013519048 0.83500004 7.4073225e-39
-0.048509523 -0.013519048 0.83500004 6.9463444e-39
-0.046919052 -0.013519048 0.83500004 7.0418022e-39
-0.045328572 -0.013519048 0.83500004 6.0276503e-39
-0.043842856 -0.013551429 0.83700001 7.1292937e-39
-0.042349525 -0.01358381 0.83900005 6.7605112e-39
-0.040848572 -0.01361619 0.84100002 1.6049506e-38
-0.039246667 -0.01361619 0.84100002 2.2040428e-38
-0.037644763 -0.01361619 0.84100002 2.2495371e-38
-0.036128573 -0.013648572 0.84300005 1.3921177e-38
-0.034522858 -0.013648572 0.84300005 9.7785171e-39
-0.032995239 -0.013680953 0.84500003 1.0331691e-38
-0.031385716 -0.013680953 0.84500003 1.0239476e-38
-0.029846668 -0.013713335 0.84700006 9.5941062e-39
-0.028233334 -0.013713335 0.84700006 1.1066703e-38
-0.026682859 -0.013745715 0.84900004 1.5860876e-38
-0.025656192 -0.014069525 0.86900002 1.6595541e-38
-0.024000952 -0.014069525 0.86900002 1.6503346e-38
-0.022397144 -0.014101906 0.87100005 1.5763986e-38
-0.020738097 -0.014101906 0.87100005 1.5579594e-38
-0.019122858 -0.014134286 0.87300003 1.5579234e-38
-0.01746 -0.014134286 0.87300003 1.5763625e-38
-0.10704572 -0.012257144 0.85800004 1.55832e-38
-0.10541143 -0.012257144 0.85800004 1.0789027e-38
-0.10377715 -0.012257144 0.85800004 3.7047417e-39
-0.10214286 -0.012257144 0.85800004 2.4140029e-39
-0.099688575 -0.012157143 0.85100001 7.6647999e-39
-0.097837143 -0.012128572 0.84900004 1.2827755e-38
-0.09599334 -0.012100001 0.84700006 1.2634414e-38
-0.09393429 -0.012042858 0.84300005 9.0387843e-39
-0.092109524 -0.012014287 0.84100002 9.4993841e-39
-0.090507619 -0.012014287 0.84100002 1.106671e-38
-0.088905722 -0.012014287 0.84100002 1.0239466e-38
-0.087096192 -0.011985715 0.83900005 9.6862921e-39
-0.085498095 -0.011985715 0.83900005 1.1802411e-38
-0.083500005 -0.011928571 0.83500004 1.8071714e-38
-0.08190953 -0.011928571 0.83500004 2.120355e-38
-0.080319054 -0.011928571 0.83500004 2.3047463e-38
-0.078728572 -0.011928571 0.83500004 2.240462e-38
-0.077138096 -0.011928571 0.83500004 2.1851446e-38
-0.075547621 -0.011928571 0.83500004 1.8908389e-38
-0.073957145 -0.011928571 0.83500004 1.5773737e-38
-0.07236667 -0.011928571 0.83500004 1.2837519e-38
-0.070776194 -0.011928571 0.83500004 1.3575084e-38
-0.069020011 -0.0119 0.83300006 1.3849157e-38
-0.067433342 -0.0119 0.83300006 1.4125744e-38
-0.065846674 -0.0119 0.83300006 1.4952609e-38
-0.064260006 -0.0119 0.83300006 1.6427739e-38
-0.062673338 -0.0119 0.83300006 2.0654339e-38
-0.061086673 -0.0119 0.83300006 2.2867034e-38
-0.059500005 -0.0119 0.83300006 2.341769e-38
-0.057913337 -0.0119 0.83300006 2.341769e-38
-0.056326672 -0.0119 0.83300006 2.3234378e-38
-0.054871429 -0.011928571 0.83500004 2.1113878e-38
-0.053280953 -0.011928571 0.83500004 1.6147199e-38
-0.051690478 -0.011928571 0.83500004 8.6793526e-39
-0.050100002 -0.011928571 0.83500004 3.6399232e-39
-0.048509523 -0.011928571 0.83500004 5.7604227e-39
-0.047031429 -0.011957143 0.83700001 8.5129666e-39
-0.045437142 -0.011957143 0.83700001 7.8675972e-39
-0.043947622 -0.011985715 0.83900005 5.7528529e-39
-0.042349525 -0.011985715 0.83900005 2.986984e-39
-0.040848572 -0.012014287 0.84100002 7.5855453e-39
-0.039246667 -0.012014287 0.84100002 1.7540521e-38
-0.037734289 -0.012042858 0.84300005 2.1759989e-38
-0.036128573 -0.012042858 0.84300005 1.3185795e-38
-0.034522858 -0.012042858 0.84300005 9.4115072e-39
-0.032995239 -0.012071429 0.84500003 1.0241268e-38
-0.031460002 -0.012100001 0.84700006 1.0331643e-38
-0.029846668 -0.012100001 0.84700006 1.0331643e-38
-0.028300002 -0.012128572 0.84900004 1.2814114e-38
-0.026745714 -0.012157143 0.85100001 1.6317547e-38
-0.025390476 -0.012285715 0.86000001 1.6225692e-38
-0.024000952 -0.012414285 0.86900002 1.6502279e-38
-0.022345716 -0.012414285 0.86900002 1.5304812e-38
-0.020738097 -0.012442858 0.87100005 1.5212617e-38
-0.019122858 -0.012471429 0.87300003 1.5487039e-38
-0.01746 -0.012471429 0.87300003 1.567143e-38
-0.10704572 -0.010622857 0.85800004 1.5306613e-38
-0.10541143 -0.010622857 0.85800004 1.2079766e-38
-0.10377715 -0.010622857 0.85800004 3.0623206e-39
-0.10214286 -0.010622857 0.85800004 1.7715818e-39
-0.10027429 -0.010598096 0.85600007 8.8597628e-39
-0.098067619 -0.01053619 0.85100001 1.4391501e-38
-0.096220002 -0.010511429 0.84900004 1.484454e-38
-0.094157144 -0.010461905 0.84500003 9.7737807e-39
-0.092328578 -0.010437143 0.84300005 9.1324022e-39
-0.090507619 -0.010412381 0.84100002 1.0791924e-38
-0.088905722 -0.010412381 0.84100002 1.1067073e-38
-0.08730381 -0.010412381 0.84100002 1.1067073e-38
-0.085498095 -0.010387619 0.83900005 1.115852e-38
-0.083700001 -0.010362858 0.83700001 1.3186824e-38
-0.082105711 -0.010362858 0.83700001 1.7239841e-38
-0.080511428 -0.010362858 0.83700001 2.2863775e-38
-0.078728572 -0.010338096 0.83500004 2.1943995e-38
-0.077138096 -0.010338096 0.83500004 1.8163974e-38
-0.075547621 -0.010338096 0.83500004 1.430652e-38
-0.073957145 -0.010338096 0.83500004 1.430652e-38
-0.07236667 -0.010338096 0.83500004 1.3665495e-38
-0.070776194 -0.010338096 0.83500004 1.4310864e-38
-0.069185719 -0.010338096 0.83500004 1.4310496e-38
-0.067595243 -0.010338096 0.83500004 1.4587083e-38
-0.065846674 -0.010313334 0.83300006 1.4954063e-38
-0.064260006 -0.010313334 0.83300006 1.4861867e-38
-0.062673338 -0.010313334 0.83300006 1.7341764e-38
-0.061086673 -0.010313334 0.83300006 1.9370067e-38
-0.059500005 -0.010313334 0.83300006 2.2773034e-38
-0.057913337 -0.010313334 0.83300006 2.3326208e-38
-0.056461908 -0.010338096 0.83500004 2.3050705e-38
-0.054871429 -0.010338096 0.83500004 1.4753099e-38
-0.053280953 -0.010338096 0.83500004 5.5670589e-39
-0.051690478 -0.010338096 0.83500004 5.7514502e-39
-0.050219998 -0.010362858 0.83700001 7.2254746e-39
-0.048625711 -0.010362858 0.83700001 7.870844e-39
-0.047031429 -0.010362858 0.83700001 8.1452631e-39
-0.045437142 -0.010362858 0.83700001 8.0530675e-39
-0.043947622 -0.010387619 0.83900005 6.4893529e-39
-0.042349525 -0.010387619 0.83900005 3.723484e-39
-0.040848572 -0.010412381 0.84100002 8.2280855e-39
-0.039246667 -0.010412381 0.84100002 1.7171062e-38
-0.037734289 -0.010437143 0.84300005 2.1115683e-38
-0.036128573 -0.010437143 0.84300005 1.2818076e-38
-0.034604765 -0.010461905 0.84500003 8.0325609e-39
-0.033073336 -0.010486667 0.84700006 8.6779303e-39
-0.031534284 -0.010511429 0.84900004 1.0606813e-38
-0.029917145 -0.010511429 0.84900004 1.3188291e-38
-0.028366666 -0.01053619 0.85100001 1.3924074e-38
-0.026840001 -0.010573333 0.85400003 1.3555291e-38
-0.025390476 -0.010647619 0.86000001 1.5120421e-38
-0.023945715 -0.010734286 0.86700004 1.6964334e-38
-0.022345716 -0.010759047 0.86900002 1.613097e-38
-0.020738097 -0.01078381 0.87100005 1.5762188e-38
-0.019079048 -0.01078381 0.87100005 1.5578878e-38
-0.017419999 -0.01078381 0.87100005 1.5578878e-38
-0.10704572 -0.0089885723 0.85800004 1.5305175e-38
-0.10541143 -0.0089885723 0.85800004 1.2539306e-38
-0.10377715 -0.0089885723 0.85800004 7.481157e-39
-0.10214286 -0.0089885723 0.85800004 4.9918749e-39
-0.10027429 -0.0089676194 0.85600007 9.1374343e-39
-0.098067619 -0.0089152381 0.85100001 1.430039e-38
-0.096220002 -0.0088942861 0.84900004 1.4936068e-38
-0.094380006 -0.0088733332 0.84700006 9.7731123e-39
-0.092547618 -0.0088523813 0.84500003 9.4993743e-39
-0.090722859 -0.0088314293 0.84300005 1.10667e-38
-0.089117147 -0.0088314293 0.84300005 1.1250385e-38
-0.08730381 -0.0088104764 0.84100002 1.1711363e-38
-0.085701905 -0.0088104764 0.84100002 1.0331656e-38
-0.083899997 -0.0087895235 0.83900005 1.023946e-38
-0.082301915 -0.0087895235 0.83900005 1.4570111e-38
-0.080703817 -0.0087895235 0.83900005 2.2498936e-38
-0.078917138 -0.0087685715 0.83700001 2.1210042e-38
-0.077322856 -0.0087685715 0.83700001 1.6047087e-38
-0.075728573 -0.0087685715 0.83700001 1.200703e-38
-0.07413429 -0.0087685715 0.83700001 1.3758747e-38
-0.07254 -0.0087685715 0.83700001 1.4217221e-38
-0.070945717 -0.0087685715 0.83700001 1.4586004e-38
-0.069185719 -0.0087476196 0.83500004 1.4402691e-38
-0.067595243 -0.0087476196 0.83500004 1.4679278e-38
-0.066004761 -0.0087476196 0.83500004 1.4495609e-38
-0.064414285 -0.0087476196 0.83500004 1.4034631e-38
-0.06282381 -0.0087476196 0.83500004 1.3941694e-38
-0.061086673 -0.0087266676 0.83300006 1.5140237e-38
-0.059500005 -0.0087266676 0.83300006 2.0747257e-38
-0.057913337 -0.0087266676 0.83300006 2.2867037e-38
-0.056461908 -0.0087476196 0.83500004 2.1303677e-38
-0.054871429 -0.0087476196 0.83500004 1.0516788e-38
-0.053280953 -0.0087476196 0.83500004 2.2598782e-39
-0.051690478 -0.0087476196 0.83500004 4.9335515e-39
-0.050219998 -0.0087685715 0.83700001 7.9616005e-39
-0.048625711 -0.0087685715 0.83700001 7.9616005e-39
-0.047031429 -0.0087685715 0.83700001 7.5020545e-39
-0.045545716 -0.0087895235 0.83900005 7.3176633e-39
-0.043947622 -0.0087895235 0.83900005 5.2944055e-39
-0.042450476 -0.0088104764 0.84100002 3.2661016e-39
-0.040848572 -0.0088104764 0.84100002 7.6781613e-39
-0.039340001 -0.0088314293 0.84300005 1.6897724e-38
-0.037734289 -0.0088314293 0.84300005 2.1393715e-38
-0.036128573 -0.0088314293 0.84300005 1.4663434e-38
-0.034604765 -0.0088523813 0.84500003 9.964014e-39
-0.033073336 -0.0088733332 0.84700006 8.7654708e-39
-0.031534284 -0.0088942861 0.84900004 1.0146516e-38
-0.029987618 -0.0089152381 0.85100001 1.4664102e-38
-0.028466668 -0.0089466665 0.85400003 1.3836197e-38
-0.02690286 -0.0089676194 0.85600007 1.0885937e-38
-0.025449526 -0.0090304762 0.86200005 1.2635805e-38
-0.023862857 -0.0090514291 0.86400002 1.5862652e-38
-0.022294287 -0.0090828575 0.86700004 1.6315364e-38
-0.020690477 -0.0091038095 0.86900002 1.576219e-38
-0.019035237 -0.0091038095 0.86900002 1.5670714e-38
-0.1067962 -0.0073371432 0.85600007 1.5396292e-38
-0.10516573 -0.0073371432 0.85600007 1.438214e-38
-0.10353524 -0.0073371432 0.85600007 1.0609713e-38
-0.10214286 -0.0073542856 0.85800004 9.6877564e-39
-0.10027429 -0.0073371432 0.85600007 1.162278e-38
-0.098643817 -0.0073371432 0.85600007 1.5771583e-38
-0.096446671 -0.0072942856 0.85100001 1.6595567e-38
-0.094380006 -0.0072600003 0.84700006 1.2354568e-38
-0.092547618 -0.0072428575 0.84500003 1.0513892e-38
-0.090722859 -0.0072257146 0.84300005 1.0698283e-38
-0.089117147 -0.0072257146 0.84300005 1.0698656e-38
-0.08730381 -0.0072085718 0.84100002 1.1344025e-38
-0.085701905 -0.0072085718 0.84100002 9.9643181e-39
-0.083899997 -0.0071914289 0.83900005 9.3189487e-39
-0.082301915 -0.0071914289 0.83900005 1.3282269e-38
-0.080896191 -0.0072085718 0.84100002 2.1579876e-38
-0.07910572 -0.0071914289 0.83900005 2.121003e-38
-0.077322856 -0.0071742856 0.83700001 1.5954879e-38
-0.075728573 -0.0071742856 0.83700001 1.2375825e-38
-0.07413429 -0.0071742856 0.83700001 1.3574368e-38
-0.07254 -0.0071742856 0.83700001 1.4034265e-38
-0.070945717 -0.0071742856 0.83700001 1.4495243e-38
-0.069351427 -0.0071742856 0.83700001 1.4403047e-38
-0.067757145 -0.0071742856 0.83700001 1.4679634e-38
-0.066004761 -0.0071571432 0.83500004 1.4679281e-38
-0.064414285 -0.0071571432 0.83500004 1.449489e-38
-0.06282381 -0.0071571432 0.83500004 1.421795e-38
-0.061233338 -0.0071571432 0.83500004 1.4586732e-38
-0.059642859 -0.0071571432 0.83500004 1.9918572e-38
-0.058052383 -0.0071571432 0.83500004 2.2683365e-38
-0.056461908 -0.0071571432 0.83500004 2.1671368e-38
-0.055002857 -0.0071742856 0.83700001 1.023911e-38
-0.053408574 -0.0071742856 0.83700001 1.8925447e-39
-0.051814288 -0.0071742856 0.83700001 4.1974354e-39
-0.050219998 -0.0071742856 0.83700001 7.5935425e-39
-0.048741907 -0.0071914289 0.83900005 7.5013469e-39
-0.047143813 -0.0071914289 0.83900005 7.3180262e-39
-0.045654286 -0.0072085718 0.84100002 6.6726568e-39
-0.044052381 -0.0072085718 0.84100002 5.5695462e-39
-0.042450476 -0.0072085718 0.84100002 7.3212632e-39
-0.040945716 -0.0072257146 0.84300005 1.3198417e-38
-0.039340001 -0.0072257146 0.84300005 1.9744272e-38
-0.037734289 -0.0072257146 0.84300005 2.1851806e-38
-0.036214288 -0.0072428575 0.84500003 1.9915698e-38
-0.034604765 -0.0072428575 0.84500003 1.4940448e-38
-0.033073336 -0.0072600003 0.84700006 9.5931015e-39
-0.031534284 -0.0072771432 0.84900004 1.005757e-38
-0.029987618 -0.0072942856 0.85100001 1.5589308e-38
-0.028533336 -0.0073371432 0.85600007 1.3378093e-38
-0.026965715 -0.0073542856 0.85800004 5.6336598e-39
-0.025449526 -0.0073885717 0.86200005 1.1072098e-38
-0.023862857 -0.0074057141 0.86400002 1.5220901e-38
-0.022294287 -0.0074314289 0.86700004 1.6407197e-38
-0.020690477 -0.0074485713 0.86900002 1.5761828e-38
-0.019035237 -0.0074485713 0.86900002 1.5578518e-38
-0.1067962 -0.005706667 0.85600007 1.567144e-38
-0.10516573 -0.005706667 0.85600007 1.502607e-38
-0.10353524 -0.005706667 0.85600007 1.2541833e-38
-0.10214286 -0.0057200002 0.85800004 1.2449637e-38
-0.10027429 -0.005706667 0.85600007 1.410808e-38
-0.098643817 -0.005706667 0.85600007 1.558321e-38
-0.09678667 -0.0056933332 0.85400003 1.5308788e-38
-0.094602861 -0.0056600003 0.84900004 1.4018049e-38
-0.092766672 -0.005646667 0.84700006 1.1436982e-38
-0.090938091 -0.0056333332 0.84500003 9.8696562e-39
-0.08932858 -0.0056333332 0.84500003 1.0054709e-38
-0.087511435 -0.0056200004 0.84300005 1.0700078e-38
-0.085905716 -0.0056200004 0.84300005 9.5044217e-39
-0.084100001 -0.0056066667 0.84100002 1.0149791e-38
-0.082498096 -0.0056066667 0.84100002 1.4569061e-38
-0.080896191 -0.0056066667 0.84100002 2.2036907e-38
-0.079294287 -0.0056066667 0.84100002 2.121039e-38
-0.077692382 -0.0056066667 0.84100002 1.7061587e-38
-0.076090477 -0.0056066667 0.84100002 1.2927214e-38
-0.074488573 -0.0056066667 0.84100002 1.3388192e-38
-0.072713338 -0.0055933334 0.83900005 1.3481807e-38
-0.07111524 -0.0055933334 0.83900005 1.4219372e-38
-0.069351427 -0.0055800001 0.83700001 1.4126821e-38
-0.067757145 -0.0055800001 0.83700001 1.4495603e-38
-0.066162854 -0.0055800001 0.83700001 1.4679281e-38
-0.064568572 -0.0055800001 0.83700001 1.4310499e-38
-0.062974289 -0.0055800001 0.83700001 1.3666211e-38
-0.061233338 -0.0055666668 0.83500004 1.4680363e-38
-0.059642859 -0.0055666668 0.83500004 1.9826742e-38
-0.05819143 -0.0055800001 0.83700001 2.2591531e-38
-0.056597143 -0.0055800001 0.83700001 2.1213279e-38
-0.055134289 -0.0055933334 0.83900005 1.254689e-38
-0.053536192 -0.0055933334 0.83900005 3.1779011e-39
-0.051938098 -0.0055933334 0.83900005 4.2842486e-39
-0.050340001 -0.0055933334 0.83900005 6.3978692e-39
-0.048858099 -0.0056066667 0.84100002 6.6744561e-39
-0.04725619 -0.0056066667 0.84100002 6.5829695e-39
-0.045654286 -0.0056066667 0.84100002 5.200035e-39
-0.044157144 -0.0056200004 0.84300005 4.5571894e-39
-0.042551432 -0.0056200004 0.84300005 9.9967315e-39
-0.040945716 -0.0056200004 0.84300005 1.8536752e-38
-0.039340001 -0.0056200004 0.84300005 2.0196273e-38
-0.037823807 -0.0056333332 0.84500003 2.1113868e-38
-0.0363 -0.005646667 0.84700006 2.0745086e-38
-0.034686666 -0.005646667 0.84700006 1.9547301e-38
-0.033151429 -0.0056600003 0.84900004 1.4015563e-38
-0.03160857 -0.0056733335 0.85100001 1.162206e-38
-0.030093335 -0.0056933332 0.85400003 1.5033298e-38
-0.028533336 -0.005706667 0.85600007 1.3010354e-38
-0.026965715 -0.0057200002 0.85800004 5.5425082e-39
-0.025449526 -0.0057466668 0.86200005 1.1715306e-38
-0.023862857 -0.0057600001 0.86400002 1.5310936e-38
-0.022294287 -0.0057800002 0.86700004 1.5671074e-38
-0.020690477 -0.0057933335 0.86900002 1.5394487e-38
-0.019035237 -0.0057933335 0.86900002 1.5578515e-38
-0.10541143 -0.004085714 0.85800004 1.5394487e-38
-0.10377715 -0.004085714 0.85800004 1.3186113e-38
-0.10214286 -0.004085714 0.85800004 1.3093918e-38
-0.10050857 -0.004085714 0.85800004 1.1715679e-38
-0.098643817 -0.0040761908 0.85600007 1.0793723e-38
-0.09678667 -0.0040666666 0.85400003 1.217701e-38
-0.094602861 -0.0040428573 0.84900004 1.6418009e-38
-0.092766672 -0.0040333336 0.84700006 1.5123346e-38
-0.091153339 -0.0040333336 0.84700006 1.060576e-38
-0.08932858 -0.0040238099 0.84500003 9.043075e-39
-0.087511435 -0.0040142857 0.84300005 9.4118576e-39
-0.085905716 -0.0040142857 0.84300005 1.198723e-38
-0.084100001 -0.0040047616 0.84100002 1.7795554e-38
-0.082498096 -0.0040047616 0.84100002 1.9177417e-38
-0.080896191 -0.0040047616 0.84100002 2.1482308e-38
-0.079294287 -0.0040047616 0.84100002 2.0839809e-38
-0.077692382 -0.0040047616 0.84100002 2.0471027e-38
-0.076090477 -0.0040047616 0.84100002 1.7803859e-38
-0.074488573 -0.0040047616 0.84100002 1.5406772e-38
-0.072886661 -0.0040047616 0.84100002 1.3481807e-38
-0.071284764 -0.0040047616 0.84100002 1.4219372e-38
-0.069517143 -0.0039952383 0.83900005 1.4035347e-38
-0.067919046 -0.0039952383 0.83900005 1.4127542e-38
-0.066162854 -0.0039857142 0.83700001 1.4311217e-38
-0.064568572 -0.0039857142 0.83700001 1.4311217e-38
-0.062974289 -0.0039857142 0.83700001 1.6699656e-38
-0.061379995 -0.0039857142 0.83700001 1.9834308e-38
-0.059785716 -0.0039857142 0.83700001 2.3050705e-38
-0.05819143 -0.0039857142 0.83700001 2.3142542e-38
-0.056597143 -0.0039857142 0.83700001 2.2774842e-38
-0.055134289 -0.0039952383 0.83900005 2.1391907e-38
-0.053663809 -0.0040047616 0.84100002 1.329784e-38
-0.052061904 -0.0040047616 0.84100002 8.3192764e-39
-0.05046 -0.0040047616 0.84100002 1.8936167e-39
-0.048858099 -0.0040047616 0.84100002 2.2623992e-39
-0.04725619 -0.0040047616 0.84100002 3.1796737e-39
-0.045762859 -0.0040142857 0.84300005 4.5626082e-39
-0.044157144 -0.0040142857 0.84300005 1.2556967e-38
-0.042551432 -0.0040142857 0.84300005 1.9193617e-38
-0.041042857 -0.0040238099 0.84500003 2.1485184e-38
-0.039433334 -0.0040238099 0.84500003 1.7889555e-38
-0.037913334 -0.0040333336 0.84700006 1.807535e-38
-0.036385715 -0.0040428573 0.84900004 1.9642676e-38
-0.03476857 -0.0040428573 0.84900004 1.991678e-38
-0.033229522 -0.004052381 0.85100001 1.8718237e-38
-0.03160857 -0.004052381 0.85100001 1.8717858e-38
-0.030163812 -0.0040761908 0.85600007 1.5122229e-38
-0.0286 -0.004085714 0.85800004 9.1406937e-39
-0.026965715 -0.004085714 0.85800004 5.4528685e-39
-0.025449526 -0.0041047623 0.86200005 1.245396e-38
-0.023945715 -0.0041285716 0.86700004 1.5035438e-38
-0.022345716 -0.0041380953 0.86900002 1.5762544e-38
-0.020738097 -0.0041476195 0.87100005 1.5485957e-38
-0.10401905 -0.0024571428 0.86000001 1.3737855e-38
-0.10214286 -0.0024514287 0.85800004 1.300029e-38
-0.10050857 -0.0024514287 0.85800004 1.0521808e-38
-0.098643817 -0.0024457145 0.85600007 8.9544822e-39
-0.09678667 -0.00244 0.85400003 1.125719e-38
-0.094825715 -0.0024314285 0.85100001 1.5866971e-38
-0.092766672 -0.00242 0.84700006 1.6783933e-38
-0.091153339 -0.00242 0.84700006 1.1897565e-38
-0.089540005 -0.00242 0.84700006 9.8699154e-39
-0.087719053 -0.0024142857 0.84500003 1.060748e-38
-0.085905716 -0.0024085718 0.84300005 1.4013022e-38
-0.084100001 -0.0024028572 0.84100002 2.0558912e-38
-0.082498096 -0.0024028572 0.84100002 2.0194446e-38
-0.081088573 -0.0024085718 0.84300005 1.9088098e-38
-0.079294287 -0.0024028572 0.84100002 2.001036e-38
-0.077692382 -0.0024028572 0.84100002 2.1577686e-38
-0.076090477 -0.0024028572 0.84100002 2.0840541e-38
-0.074488573 -0.0024028572 0.84100002 1.8351259e-38
-0.072886661 -0.0024028572 0.84100002 1.3574389e-38
-0.071284764 -0.0024028572 0.84100002 1.3574389e-38
-0.069517143 -0.002397143 0.83900005 1.3483246e-38
-0.067919046 -0.002397143 0.83900005 1.3483246e-38
-0.066320956 -0.002397143 0.83900005 1.3758757e-38
-0.064722866 -0.002397143 0.83900005 1.4772909e-38
-0.063124768 -0.002397143 0.83900005 1.8630379e-38
-0.061526671 -0.002397143 0.83900005 2.1765011e-38
-0.059928574 -0.002397143 0.83900005 2.3326213e-38
-0.058330476 -0.002397143 0.83900005 2.2773039e-38
-0.056732383 -0.002397143 0.83900005 2.3050342e-38
-0.055265717 -0.0024028572 0.84100002 2.3142538e-38
-0.053663809 -0.0024028572 0.84100002 2.0934544e-38
-0.052061904 -0.0024028572 0.84100002 1.5771589e-38
-0.05046 -0.0024028572 0.84100002 3.9172766e-39
-0.048858099 -0.0024028572 0.84100002 1.7967771e-39
-0.047368575 -0.0024085718 0.84300005 1.8006433e-39
-0.045762859 -0.0024085718 0.84300005 6.5026204e-39
-0.044157144 -0.0024085718 0.84300005 1.8350556e-38
-0.042551432 -0.0024085718 0.84300005 2.2222754e-38
-0.041042857 -0.0024142857 0.84500003 2.1117131e-38
-0.039433334 -0.0024142857 0.84500003 1.521661e-38
-0.037913334 -0.00242 0.84700006 1.4209986e-38
-0.036385715 -0.0024257144 0.84900004 1.6146094e-38
-0.03476857 -0.0024257144 0.84900004 1.9823495e-38
-0.033229522 -0.0024314285 0.85100001 2.0192278e-38
-0.031720001 -0.00244 0.85400003 1.9546565e-38
-0.030163812 -0.0024457145 0.85600007 1.1802132e-38
-0.0286 -0.0024514287 0.85800004 7.8484625e-39
-0.026965715 -0.0024514287 0.85800004 7.8484625e-39
-0.025449526 -0.0024628574 0.86200005 1.3282638e-38
-0.023945715 -0.002477143 0.86700004 1.5034355e-38
-0.022345716 -0.0024828573 0.86900002 1.5670711e-38
-0.020690477 -0.0024828573 0.86900002 1.548632e-38
-0.10401905 -0.00081904762 0.86000001 1.410807e-38
-0.10238095 -0.00081904762 0.86000001 1.0328049e-38
-0.10050857 -0.00081714289 0.85800004 8.6800785e-39
-0.098874293 -0.00081714289 0.85800004 8.6800785e-39
-0.09678667 -0.00081333338 0.85400003 9.1410468e-39
-0.094825715 -0.00081047619 0.85100001 1.2275698e-38
-0.092985712 -0.00080857147 0.84900004 1.530987e-38
-0.091153339 -0.00080666674 0.84700006 1.613963e-38
-0.089540005 -0.00080666674 0.84700006 1.6505128e-38
-0.087719053 -0.00080476195 0.84500003 1.7888063e-38
-0.086109526 -0.00080476195 0.84500003 1.9914597e-38
-0.084100001 -0.00080095237 0.84100002 2.1574118e-38
-0.082498096 -0.00080095237 0.84100002 1.8628572e-38
-0.081088573 -0.00080285716 0.84300005 1.2082682e-38
-0.079482861 -0.00080285716 0.84300005 1.3381596e-38
-0.077877149 -0.00080285716 0.84300005 1.9097725e-38
-0.076271437 -0.00080285716 0.84300005 2.1115686e-38
-0.074488573 -0.00080095237 0.84100002 2.2037642e-38
-0.072886661 -0.00080095237 0.84100002 1.9553755e-38
-0.071284764 -0.00080095237 0.84100002 1.6603495e-38
-0.069682859 -0.00080095237 0.84100002 1.3943501e-38
-0.068080954 -0.00080095237 0.84100002 1.3574719e-38
-0.066320956 -0.00079904764 0.83900005 1.6698925e-38
-0.064722866 -0.00079904764 0.83900005 2.0571141e-38
-0.06327524 -0.00080095237 0.84100002 2.3142182e-38
-0.061673336 -0.00080095237 0.84100002 2.3234378e-38
-0.060071427 -0.00080095237 0.84100002 1.9363631e-38
-0.058469526 -0.00080095237 0.84100002 1.5952393e-38
-0.056867622 -0.00080095237 0.84100002 1.8810054e-38
-0.055265717 -0.00080095237 0.84100002 2.3142531e-38
-0.053663809 -0.00080095237 0.84100002 2.3326213e-38
-0.052061904 -0.00080095237 0.84100002 2.3141822e-38
-0.05046 -0.00080095237 0.84100002 1.863543e-38
-0.04897429 -0.00080285716 0.84300005 1.1351979e-38
-0.047368575 -0.00080285716 0.84300005 1.0533715e-38
-0.045762859 -0.00080285716 0.84300005 1.7448384e-38
-0.044157144 -0.00080285716 0.84300005 2.157703e-38
-0.042551432 -0.00080285716 0.84300005 2.0009704e-38
-0.041042857 -0.00080476195 0.84500003 1.7065918e-38
-0.039526667 -0.00080666674 0.84700006 1.4300049e-38
-0.038002856 -0.00080857147 0.84900004 1.2464062e-38
-0.036385715 -0.00080857147 0.84900004 1.2187475e-38
-0.034850478 -0.00081047619 0.85100001 1.5680444e-38
-0.033229522 -0.00081047619 0.85100001 1.8538509e-38
-0.031720001 -0.00081333338 0.85400003 1.816684e-38
-0.030163812 -0.00081523816 0.85600007 9.3160592e-39
-0.0286 -0.00081714289 0.85800004 5.0022796e-39
-0.027028572 -0.00081904762 0.86000001 7.2149747e-39
-0.025449526 -0.00082095241 0.86200005 1.4202067e-38
-0.023945715 -0.00082571432 0.86700004 1.5400611e-38
-0.022345716 -0.00082761905 0.86900002 1.576219e-38
-0.10401905 0.00081904762 0.86000001 1.3832579e-38
-0.10238095 0.00081904762 0.86000001 1.042134e-38
-0.10050857 0.00081714289 0.85800004 8.4967466e-39
-0.098874293 0.00081714289 0.85800004 8.7733335e-39
-0.097013339 0.00081523816 0.85600007 8.4989088e-39
-0.094825715 0.00081047619 0.85100001 9.8818433e-39
-0.092985712 0.00080857147 0.84900004 1.4111677e-38
-0.091368571 0.00080857147 0.84900004 1.6600959e-38
-0.089540005 0.00080666674 0.84700006 1.7242018e-38
-0.087926671 0.00080666674 0.84700006 1.9639104e-38
-0.086109526 0.00080476195 0.84500003 2.0009689e-38
-0.084500007 0.00080476195 0.84500003 1.9548711e-38
-0.082694285 0.00080285716 0.84300005 1.504193e-38
-0.081088573 0.00080285716 0.84300005 7.1131059e-39
-0.079482861 0.00080285716 0.84300005 6.5720702e-39
-0.077877149 0.00080285716 0.84300005 1.3025764e-38
-0.076271437 0.00080285716 0.84300005 2.0929102e-38
-0.074665718 0.00080285716 0.84300005 2.3141797e-38
-0.072886661 0.00080095237 0.84100002 2.2406059e-38
-0.071284764 0.00080095237 0.84100002 1.8810429e-38
-0.069682859 0.00080095237 0.84100002 1.4861492e-38
-0.068080954 0.00080095237 0.84100002 1.5045883e-38
-0.06647905 0.00080095237 0.84100002 1.8996991e-38
-0.064877145 0.00080095237 0.84100002 2.2499695e-38
-0.06327524 0.00080095237 0.84100002 2.341769e-38
-0.061673336 0.00080095237 0.84100002 2.1573777e-38
-0.060071427 0.00080095237 0.84100002 1.7429653e-38
-0.058469526 0.00080095237 0.84100002 1.4387197e-38
-0.056867622 0.00080095237 0.84100002 1.6412219e-38
-0.055265717 0.00080095237 0.84100002 2.1482979e-38
-0.053663809 0.00080095237 0.84100002 2.3325845e-38
-0.052185714 0.00080285716 0.84300005 2.341804e-38
-0.050580002 0.00080285716 0.84300005 2.2683365e-38
-0.04897429 0.00080285716 0.84300005 1.8626757e-38
-0.047368575 0.00080285716 0.84300005 1.5501842e-38
-0.045762859 0.00080285716 0.84300005 2.0479314e-38
-0.044261906 0.00080476195 0.84500003 2.2590453e-38
-0.04265238 0.00080476195 0.84500003 1.7611889e-38
-0.041140001 0.00080666674 0.84700006 1.4397647e-38
-0.039526667 0.00080666674 0.84700006 1.3567886e-38
-0.038002856 0.00080857147 0.84900004 1.2375097e-38
-0.036385715 0.00080857147 0.84900004 1.1360945e-38
-0.034850478 0.00081047619 0.85100001 1.3565696e-38
-0.033229522 0.00081047619 0.85100001 1.6515956e-38
-0.031720001 0.00081333338 0.85400003 1.6971546e-38
-0.030163812 0.00081523816 0.85600007 7.1988093e-39
-0.028533336 0.00081523816 0.85600007 2.7935249e-39
-0.027028572 0.00081904762 0.86000001 7.5876977e-39
-0.025449526 0.00082095241 0.86200005 1.5120784e-38
-0.024000952 0.00082761905 0.86900002 1.5858349e-38
-0.022345716 0.00082761905 0.86900002 1.5578515e-38
-0.10238095 0.0024571428 0.86000001 1.1894668e-38
-0.10050857 0.0024514287 0.85800004 9.5083692e-39
-0.098874293 0.0024514287 0.85800004 9.4161736e-39
-0.097013339 0.0024457145 0.85600007 8.867334e-39
-0.095160007 0.00244 0.85400003 9.3283122e-39
-0.093204759 0.0024314285 0.85100001 1.1258667e-38
-0.091368571 0.0024257144 0.84900004 1.5223079e-38
-0.08975143 0.0024257144 0.84900004 1.7886328e-38
-0.087926671 0.00242 0.84700006 2.0006827e-38
-0.086313337 0.00242 0.84700006 1.7798073e-38
-0.084500007 0.0024142857 0.84500003 1.1713161e-38
-0.082694285 0.0024085718 0.84300005 6.1144201e-39
-0.081088573 0.0024085718 0.84300005 5.1924638e-39
-0.079482861 0.0024085718 0.84300005 5.6556252e-39
-0.077877149 0.0024085718 0.84300005 6.3931902e-39
-0.076271437 0.0024085718 0.84300005 1.4303524e-38
-0.074665718 0.0024085718 0.84300005 1.8728914e-38
-0.073060006 0.0024085718 0.84300005 2.1023487e-38
-0.071454294 0.0024085718 0.84300005 2.2406422e-38
-0.069682859 0.0024028572 0.84100002 2.1669926e-38
-0.068080954 0.0024028572 0.84100002 2.1485535e-38
-0.06647905 0.0024028572 0.84100002 2.2405706e-38
-0.064877145 0.0024028572 0.84100002 2.2590096e-38
-0.06327524 0.0024028572 0.84100002 2.0468156e-38
-0.061673336 0.0024028572 0.84100002 1.4844222e-38
-0.060071427 0.0024028572 0.84100002 1.2638351e-38
-0.058469526 0.0024028572 0.84100002 1.2546156e-38
-0.056867622 0.0024028572 0.84100002 1.3555641e-38
-0.055397145 0.0024085718 0.84300005 1.4661989e-38
-0.05379143 0.0024085718 0.84300005 1.8715639e-38
-0.052185714 0.0024085718 0.84300005 2.3233224e-38
-0.050580002 0.0024085718 0.84300005 2.3326213e-38
-0.04897429 0.0024085718 0.84300005 2.3141822e-38
-0.047368575 0.0024085718 0.84300005 2.3050705e-38
-0.045871429 0.0024142857 0.84500003 2.1575575e-38
-0.044261906 0.0024142857 0.84500003 1.8814743e-38
-0.04265238 0.0024142857 0.84500003 1.5587896e-38
-0.041140001 0.00242 0.84700006 1.3204141e-38
-0.039620001 0.0024257144 0.84900004 1.3111946e-38
-0.038002856 0.0024257144 0.84900004 1.2559132e-38
-0.03647143 0.0024314285 0.85100001 1.154498e-38
-0.034850478 0.0024314285 0.85100001 1.3657185e-38
