# .PCD v0.7 - Point Cloud Data file format
VERSION 0.7
FIELDS x y z rgb
SIZE 4 4 4 4
TYPE F F F F
COUNT 1 1 1 1
WIDTH 962
HEIGHT 1
VIEWPOINT 0 0 0 1 0 0 0
POINTS 962
DATA ascii
-0.11421429 -0.054785714 0.97500002 1.7978501e-38
-0.11235715 -0.054785714 0.97500002 1.779411e-38
-0.1105 -0.054785714 0.97500002 1.7886303e-38
-0.10842 -0.054673333 0.97300005 1.7886303e-38
-0.10656667 -0.054673333 0.97300005 1.7516438e-38
-0.10439047 -0.054504763 0.97000003 1.7424243e-38
-0.10254286 -0.054504763 0.97000003 1.7516438e-38
-0.10069524 -0.054504763 0.97000003 1.7239851e-38
-0.098541915 -0.054336194 0.96700007 1.6594122e-38
-0.096700005 -0.054336194 0.96700007 1.6870709e-38
-0.094563812 -0.054167621 0.96400005 1.7054744e-38
-0.092727624 -0.054167621 0.96400005 1.7423527e-38
-0.091174297 -0.054336194 0.96700007 1.8067825e-38
-0.083697148 -0.050908573 0.90600002 1.8713195e-38
-0.081971429 -0.050908573 0.90600002 1.8714987e-38
-0.085382864 -0.054167621 0.96400005 1.7424248e-38
-0.16561906 -0.051028572 0.94000006 1.272117e-38
-0.16382857 -0.051028572 0.94000006 1.4197349e-38
-0.1620381 -0.051028572 0.94000006 1.6041262e-38
-0.16075905 -0.051191427 0.94300002 1.6315743e-38
-0.15896286 -0.051191427 0.94300002 1.6961112e-38
-0.15800001 -0.051462859 0.94800007 1.6777421e-38
-0.15668859 -0.051625714 0.95100003 1.6869617e-38
-0.15569143 -0.051897142 0.95600003 1.6502642e-38
-0.15483621 -0.052222859 0.96200007 1.6594838e-38
-0.15300381 -0.052222859 0.96200007 1.6686327e-38
-0.15117143 -0.052222859 0.96200007 1.6778523e-38
-0.14964953 -0.052331429 0.96400005 1.6778876e-38
-0.14781334 -0.052331429 0.96400005 1.7055463e-38
-0.14597714 -0.052331429 0.96400005 1.7239854e-38
-0.14458954 -0.052494287 0.96700007 1.7516441e-38
-0.14319047 -0.052657142 0.97000003 1.7515725e-38
-0.14134286 -0.052657142 0.97000003 1.7607921e-38
-0.13992667 -0.052820001 0.97300005 1.7608284e-38
-0.13807334 -0.052820001 0.97300005 1.788487e-38
-0.13622001 -0.052820001 0.97300005 1.7793038e-38
-0.13436668 -0.052820001 0.97300005 1.8254016e-38
-0.13278572 -0.052928571 0.97500002 1.8254369e-38
-0.13092858 -0.052928571 0.97500002 1.8254369e-38
-0.12907143 -0.052928571 0.97500002 1.8070334e-38
-0.12721428 -0.052928571 0.97500002 1.8162529e-38
-0.12535714 -0.052928571 0.97500002 1.8254372e-38
-0.1235 -0.052928571 0.97500002 1.8438763e-38
-0.12164287 -0.052928571 0.97500002 1.8069618e-38
-0.11978571 -0.052928571 0.97500002 1.7885226e-38
-0.11792857 -0.052928571 0.97500002 1.7885226e-38
-0.11607143 -0.052928571 0.97500002 1.7977422e-38
-0.11421429 -0.052928571 0.97500002 1.7701551e-38
-0.11235715 -0.052928571 0.97500002 1.751716e-38
-0.1105 -0.052928571 0.97500002 1.7608634e-38
-0.10842 -0.052820001 0.97300005 1.7885221e-38
-0.10656667 -0.052820001 0.97300005 1.7884861e-38
-0.10439047 -0.052657142 0.97000003 1.7977056e-38
-0.10254286 -0.052657142 0.97000003 1.8715325e-38
-0.10038382 -0.052494287 0.96700007 1.8991912e-38
-0.098541915 -0.052494287 0.96700007 1.9083764e-38
-0.096700005 -0.052494287 0.96700007 1.9360351e-38
-0.094563812 -0.052331429 0.96400005 1.9268524e-38
-0.087148577 -0.049182858 0.90600002 1.9360719e-38
-0.085422859 -0.049182858 0.90600002 1.7977447e-38
-0.083697148 -0.049182858 0.90600002 1.68711e-38
-0.081971429 -0.049182858 0.90600002 1.5580005e-38
-0.080422863 -0.049291432 0.90800005 1.4104875e-38
-0.16255523 -0.049395241 0.94300002 1.4014414e-38
-0.16075905 -0.049395241 0.94300002 1.5671424e-38
-0.15896286 -0.049395241 0.94300002 1.7146554e-38
-0.15800001 -0.049657144 0.94800007 1.6962529e-38
-0.15668859 -0.049814284 0.95100003 1.7054724e-38
-0.15569143 -0.05007619 0.95600003 1.6778873e-38
-0.15483621 -0.050390478 0.96200007 1.6778873e-38
-0.15300381 -0.050390478 0.96200007 1.6778523e-38
-0.15117143 -0.050390478 0.96200007 1.6962914e-38
-0.14964953 -0.050495241 0.96400005 1.6962548e-38
-0.14781334 -0.050495241 0.96400005 1.7239135e-38
-0.14597714 -0.050495241 0.96400005 1.7239488e-38
-0.14458954 -0.050652385 0.96700007 1.7608271e-38
-0.14274763 -0.050652385 0.96700007 1.7699746e-38
-0.14134286 -0.050809525 0.97000003 1.7791942e-38
-0.13992667 -0.050966669 0.97300005 1.7608274e-38
-0.13807334 -0.050966669 0.97300005 1.7792665e-38
-0.13622001 -0.050966669 0.97300005 1.7609355e-38
-0.13464285 -0.051071428 0.97500002 1.7793747e-38
-0.13278572 -0.051071428 0.97500002 1.7793028e-38
-0.13092858 -0.051071428 0.97500002 1.7885224e-38
-0.12907143 -0.051071428 0.97500002 1.7793025e-38
-0.12721428 -0.051071428 0.97500002 1.7977416e-38
-0.12535714 -0.051071428 0.97500002 1.7885942e-38
-0.1235 -0.051071428 0.97500002 1.7978138e-38
-0.12201715 -0.051228572 0.97800004 1.7885221e-38
-0.11978571 -0.051071428 0.97500002 1.7885221e-38
-0.11792857 -0.051071428 0.97500002 1.7516441e-38
-0.11607143 -0.051071428 0.97500002 1.7793028e-38
-0.11421429 -0.051071428 0.97500002 1.7884858e-38
-0.11235715 -0.051071428 0.97500002 1.7884858e-38
-0.1105 -0.051071428 0.97500002 1.7884507e-38
-0.10842 -0.050966669 0.97300005 1.8345486e-38
-0.10656667 -0.050966669 0.97300005 1.8621719e-38
-0.10439047 -0.050809525 0.97000003 1.8713915e-38
-0.10254286 -0.050809525 0.97000003 1.9544026e-38
-0.10038382 -0.050652385 0.96700007 1.9636222e-38
-0.098541915 -0.050652385 0.96700007 1.9545824e-38
-0.090600006 -0.047457144 0.90600002 1.9361433e-38
-0.088874288 -0.047457144 0.90600002 1.9361082e-38
-0.087148577 -0.047457144 0.90600002 1.9084495e-38
-0.085422859 -0.047457144 0.90600002 1.641622e-38
-0.083697148 -0.047457144 0.90600002 1.4019134e-38
-0.082152382 -0.047561906 0.90800005 1.346734e-38
-0.080422863 -0.047561906 0.90800005 1.3836123e-38
-0.078693338 -0.047561906 0.90800005 1.4014815e-38
-0.15359905 -0.045479048 0.90100002 1.0050403e-38
-0.15188286 -0.045479048 0.90100002 1.3461641e-38
-0.14966667 -0.045327619 0.89800006 1.5855806e-38
-0.14795619 -0.045327619 0.89800006 1.6962153e-38
-0.15569143 -0.048255239 0.95600003 1.70551e-38
-0.15483621 -0.048558097 0.96200007 1.7977056e-38
-0.15300381 -0.048558097 0.96200007 1.8252567e-38
-0.15117143 -0.048558097 0.96200007 1.8897936e-38
-0.14964953 -0.048659049 0.96400005 1.8622789e-38
-0.14781334 -0.048659049 0.96400005 1.8438397e-38
-0.14597714 -0.048659049 0.96400005 1.8254003e-38
-0.14458954 -0.048810478 0.96700007 1.8438394e-38
-0.14274763 -0.048810478 0.96700007 1.8622423e-38
-0.14134286 -0.048961904 0.97000003 1.8622423e-38
-0.13992667 -0.049113337 0.97300005 1.8807167e-38
-0.13807334 -0.049113337 0.97300005 1.8807167e-38
-0.13622001 -0.049113337 0.97300005 1.8991561e-38
-0.13464285 -0.049214289 0.97500002 1.8899366e-38
-0.13278572 -0.049214289 0.97500002 1.8623507e-38
-0.13092858 -0.049214289 0.97500002 1.8623507e-38
-0.12946858 -0.049365718 0.97800004 1.8900092e-38
-0.12760572 -0.049365718 0.97800004 1.9084483e-38
-0.12574285 -0.049365718 0.97800004 1.9268511e-38
-0.12388001 -0.049365718 0.97800004 1.9360707e-38
-0.12201715 -0.049365718 0.97800004 2.0097906e-38
-0.12015428 -0.049365718 0.97800004 2.0558884e-38
-0.11792857 -0.049214289 0.97500002 2.05589e-38
-0.11607143 -0.049214289 0.97500002 2.0466704e-38
-0.11421429 -0.049214289 0.97500002 2.0835481e-38
-0.11235715 -0.049214289 0.97500002 2.1388655e-38
-0.11027333 -0.049113337 0.97300005 2.1112799e-38
-0.10842 -0.049113337 0.97300005 2.1204995e-38
-0.10656667 -0.049113337 0.97300005 2.0559272e-38
-0.10439047 -0.048961904 0.97000003 2.0374881e-38
-0.10254286 -0.048961904 0.97000003 1.8809706e-38
-0.094051436 -0.045731429 0.90600002 1.7334576e-38
-0.092020005 -0.04558 0.90300006 1.5308816e-38
-0.090300001 -0.04558 0.90300006 1.5585403e-38
-0.088874288 -0.045731429 0.90600002 1.7150535e-38
-0.087340958 -0.045832384 0.90800005 1.641297e-38
-0.085611433 -0.045832384 0.90800005 1.3925481e-38
-0.083881907 -0.045832384 0.90800005 7.4717865e-39
-0.082152382 -0.045832384 0.90800005 8.670715e-39
-0.080422863 -0.045832384 0.90800005 1.53088e-38
-0.078693338 -0.045832384 0.90800005 1.5398115e-38
-0.078404762 -0.046690479 0.92500007 1.1802485e-38
-0.15617715 -0.044005714 0.90600002 6.0892178e-39
-0.15394001 -0.04386 0.90300006 7.1986832e-39
-0.15188286 -0.043762855 0.90100002 1.1163083e-38
-0.14966667 -0.043617148 0.89800006 1.2907703e-38
-0.14795619 -0.043617148 0.89800006 1.3737464e-38
-0.14673428 -0.043762855 0.90100002 1.6131679e-38
-0.14501809 -0.043762855 0.90100002 1.7883396e-38
-0.14330192 -0.043762855 0.90100002 1.7608634e-38
-0.15148573 -0.046822857 0.96400005 1.8438394e-38
-0.14964953 -0.046822857 0.96400005 1.8716063e-38
-0.14781334 -0.046822857 0.96400005 1.8623868e-38
-0.14597714 -0.046822857 0.96400005 1.8531312e-38
-0.14458954 -0.046968576 0.96700007 1.8623507e-38
-0.14274763 -0.046968576 0.96700007 1.9175962e-38
-0.14134286 -0.047114287 0.97000003 1.9083767e-38
-0.13992667 -0.047260001 0.97300005 1.9268145e-38
-0.13807334 -0.047260001 0.97300005 1.9268145e-38
-0.13622001 -0.047260001 0.97300005 1.9452186e-38
-0.13464285 -0.047357146 0.97500002 1.9728773e-38
-0.13278572 -0.047357146 0.97500002 1.9637306e-38
-0.13092858 -0.047357146 0.97500002 1.9913893e-38
-0.12907143 -0.047357146 0.97500002 1.9914606e-38
-0.12721428 -0.047357146 0.97500002 2.0191193e-38
-0.12574285 -0.04750286 0.97800004 2.0467067e-38
-0.12388001 -0.04750286 0.97800004 2.0467067e-38
-0.12201715 -0.04750286 0.97800004 2.0558897e-38
-0.11978571 -0.047357146 0.97500002 2.0743288e-38
-0.11792857 -0.047357146 0.97500002 2.1572696e-38
-0.11607143 -0.047357146 0.97500002 2.1572696e-38
-0.11421429 -0.047357146 0.97500002 2.1481582e-38
-0.11235715 -0.047357146 0.97500002 2.129719e-38
-0.11027333 -0.047260001 0.97300005 2.0653256e-38
-0.10842 -0.047260001 0.97300005 1.97313e-38
-0.10656667 -0.047260001 0.97300005 1.9638738e-38
-0.096641913 -0.043617148 0.89800006 2.0007521e-38
-0.094931439 -0.043617148 0.89800006 1.789135e-38
-0.093220957 -0.043617148 0.89800006 1.5678655e-38
-0.092020005 -0.04386 0.90300006 1.13559e-38
-0.090300001 -0.04386 0.90300006 1.3476399e-38
-0.088580005 -0.04386 0.90300006 1.7150908e-38
-0.087340958 -0.044102859 0.90800005 1.4385039e-38
-0.085611433 -0.044102859 0.90800005 1.465583e-38
-0.083881907 -0.044102859 0.90800005 9.5850707e-39
-0.082152382 -0.044102859 0.90800005 9.4982238e-39
-0.080600001 -0.044199999 0.91000003 1.5583135e-38
-0.078866668 -0.044199999 0.91000003 1.4755264e-38
-0.077557147 -0.044442859 0.91500002 1.1159634e-38
-0.15947144 -0.042700004 0.91500002 1.2358165e-38
-0.15617715 -0.04228 0.90600002 2.4010366e-39
-0.15394001 -0.04214 0.90300006 7.5233052e-40
-0.15222001 -0.04214 0.90300006 8.4967634e-39
-0.15016666 -0.04204667 0.90100002 1.0972684e-38
-0.14845048 -0.04204667 0.90100002 1.0880488e-38
-0.14673428 -0.04204667 0.90100002 1.4659725e-38
-0.14501809 -0.04204667 0.90100002 1.5950463e-38
-0.14330192 -0.04204667 0.90100002 1.5396279e-38
-0.14111429 -0.04190667 0.89800006 1.5211888e-38
-0.13940382 -0.04190667 0.89800006 1.5490308e-38
-0.13662 -0.041579999 0.89100003 1.7057633e-38
-0.13492286 -0.041579999 0.89100003 1.4940747e-38
-0.13322572 -0.041579999 0.89100003 1.401879e-38
-0.13152859 -0.041579999 0.89100003 1.3838355e-38
-0.12954001 -0.041486669 0.88900006 1.4852507e-38
-0.12727144 -0.041300002 0.88500005 1.5586091e-38
-0.12558572 -0.041300002 0.88500005 1.687683e-38
-0.12418 -0.041393336 0.88700002 1.7794838e-38
-0.12249048 -0.041393336 0.88700002 1.945436e-38
-0.12134571 -0.041579999 0.89100003 1.9638035e-38
-0.11964858 -0.041579999 0.89100003 2.0006817e-38
-0.11768667 -0.041486669 0.88900006 2.0006449e-38
-0.11599334 -0.041486669 0.88900006 2.0467427e-38
-0.11430001 -0.041486669 0.88900006 2.0099363e-38
-0.11260667 -0.041486669 0.88900006 1.8532038e-38
-0.11116286 -0.041579999 0.89100003 1.7427142e-38
-0.10946572 -0.041579999 0.89100003 1.7519337e-38
-0.11792857 -0.045500003 0.97500002 1.8622814e-38
-0.11607143 -0.045500003 0.97500002 2.0190139e-38
-0.11421429 -0.045500003 0.97500002 1.97313e-38
-0.11235715 -0.045500003 0.97500002 1.7057626e-38
-0.11027333 -0.045406669 0.97300005 1.1351264e-38
-0.10842 -0.045406669 0.97300005 9.5995475e-39
-0.098680958 -0.04204667 0.90100002 1.2637661e-38
-0.096641913 -0.04190667 0.89800006 1.8169398e-38
-0.094931439 -0.04190667 0.89800006 1.9179565e-38
-0.093220957 -0.04190667 0.89800006 1.8257609e-38
-0.092020005 -0.04214 0.90300006 1.807501e-38
-0.090300001 -0.04214 0.90300006 1.8812575e-38
-0.088580005 -0.04214 0.90300006 1.7979593e-38
-0.087340958 -0.042373337 0.90800005 1.2355659e-38
-0.085611433 -0.042373337 0.90800005 1.0052208e-38
-0.084066667 -0.042466667 0.91000003 9.5912294e-39
-0.082333334 -0.042466667 0.91000003 9.9592608e-39
-0.080865718 -0.04260667 0.91300005 1.2909521e-38
-0.079126671 -0.04260667 0.91300005 1.2450007e-38
-0.077557147 -0.042700004 0.91500002 1.0882681e-38
-0.076228574 -0.042933334 0.92000002 1.2541094e-38
-0.15947144 -0.040957142 0.91500002 1.3003534e-38
-0.15652192 -0.040643811 0.90800005 2.9542104e-39
-0.15445143 -0.040554285 0.90600002 5.7181946e-40
-0.15272571 -0.040554285 0.90600002 7.6708717e-39
-0.15050001 -0.04042 0.90300006 1.1250716e-38
-0.14878 -0.04042 0.90300006 1.2172672e-38
-0.14706001 -0.04042 0.90300006 1.4105909e-38
-0.14501809 -0.040330477 0.90100002 1.5027865e-38
-0.14282477 -0.040196192 0.89800006 1.4015155e-38
-0.14111429 -0.040196192 0.89800006 1.3185395e-38
-0.13909334 -0.040106665 0.89600003 1.3189708e-38
-0.13662 -0.039882861 0.89100003 1.5863381e-38
-0.13462001 -0.039793335 0.88900006 1.2184238e-38
-0.13262762 -0.039703812 0.88700002 1.0063739e-38
-0.1309381 -0.039703812 0.88700002 3.9993086e-39
-0.12924857 -0.039703812 0.88700002 6.2120037e-39
-0.12727144 -0.039614286 0.88500005 9.7903259e-39
-0.12558572 -0.039614286 0.88500005 1.412352e-38
-0.12418 -0.039703812 0.88700002 1.6325113e-38
-0.12249048 -0.039703812 0.88700002 1.7984634e-38
-0.12134571 -0.039882861 0.89100003 1.8441647e-38
-0.11964858 -0.039882861 0.89100003 1.7796277e-38
-0.11768667 -0.039793335 0.88900006 1.8163968e-38
-0.11599334 -0.039793335 0.88900006 1.9915685e-38
-0.11430001 -0.039793335 0.88900006 1.7890293e-38
-0.11260667 -0.039793335 0.88900006 1.586199e-38
-0.11116286 -0.039882861 0.89100003 1.3653585e-38
-0.10946572 -0.039882861 0.89100003 1.4667737e-38
-0.10776857 -0.039882861 0.89100003 1.6504835e-38
-0.10666667 -0.040106665 0.89600003 1.9823878e-38
-0.10496 -0.040106665 0.89600003 1.9088098e-38
-0.10325333 -0.040106665 0.89600003 1.3464165e-38
-0.10154667 -0.040106665 0.89600003 9.2389906e-39
-0.10006286 -0.040196192 0.89800006 6.3809261e-39
-0.098352388 -0.040196192 0.89800006 1.0433543e-38
-0.096964762 -0.040330477 0.90100002 1.5227716e-38
-0.095248573 -0.040330477 0.90100002 1.9638723e-38
-0.093532376 -0.040330477 0.90100002 1.9823114e-38
-0.092020005 -0.04042 0.90300006 2.0099013e-38
-0.090300001 -0.04042 0.90300006 1.9730231e-38
-0.088580005 -0.04042 0.90300006 1.7151624e-38
-0.087340958 -0.040643811 0.90800005 1.069793e-38
-0.085611433 -0.040643811 0.90800005 9.5018882e-39
-0.084066667 -0.040733334 0.91000003 9.8706707e-39
-0.082333334 -0.040733334 0.91000003 9.7766772e-39
-0.080865718 -0.040867623 0.91300005 1.2358155e-38
-0.079300001 -0.040957142 0.91500002 1.1990474e-38
-0.077811427 -0.041091431 0.91800004 1.0884126e-38
-0.076228574 -0.041180953 0.92000002 1.2633287e-38
-0.15947144 -0.039214283 0.91500002 1.4384313e-38
-0.15652192 -0.038914286 0.90800005 4.9803591e-39
-0.1547924 -0.038914286 0.90800005 5.7114123e-40
-0.15272571 -0.03882857 0.90600002 6.1950746e-39
-0.15050001 -0.038700003 0.90300006 1.1251094e-38
-0.14878 -0.038700003 0.90300006 1.5399897e-38
-0.14673428 -0.038614288 0.90100002 1.5671462e-38
-0.14501809 -0.038614288 0.90100002 1.3366571e-38
-0.14282477 -0.038485717 0.89800006 1.0142984e-38
-0.14111429 -0.038485717 0.89800006 8.5756579e-39
-0.13909334 -0.038399998 0.89600003 1.0141191e-38
-0.13662 -0.038185716 0.89100003 1.7793429e-38
-0.13462001 -0.0381 0.88900006 1.724383e-38
-0.13262762 -0.038014285 0.88700002 1.5399917e-38
-0.1309381 -0.038014285 0.88700002 1.1542759e-38
-0.12924857 -0.038014285 0.88700002 9.9754332e-39
-0.12755904 -0.038014285 0.88700002 1.2000845e-38
-0.12586953 -0.038014285 0.88700002 1.6979409e-38
-0.12446001 -0.0381 0.88900006 1.9456512e-38
-0.12276668 -0.0381 0.88900006 1.9364316e-38
-0.12134571 -0.038185716 0.89100003 1.6785738e-38
-0.11964858 -0.038185716 0.89100003 1.5310608e-38
-0.11795143 -0.038185716 0.89100003 1.6415504e-38
-0.11625428 -0.038185716 0.89100003 2.0103329e-38
-0.11455715 -0.038185716 0.89100003 1.9915701e-38
-0.11286 -0.038185716 0.89100003 1.6965441e-38
-0.11116286 -0.038185716 0.89100003 1.6322224e-38
-0.10946572 -0.038185716 0.89100003 1.8442723e-38
-0.10776857 -0.038185716 0.89100003 1.9547997e-38
-0.10666667 -0.038399998 0.89600003 2.0285562e-38
-0.10496 -0.038399998 0.89600003 1.7893856e-38
-0.10325333 -0.038399998 0.89600003 1.0794792e-38
-0.10154667 -0.038399998 0.89600003 4.9198552e-39
-0.10006286 -0.038485717 0.89800006 5.1964421e-39
-0.098352388 -0.038485717 0.89800006 8.0433285e-39
-0.096964762 -0.038614288 0.90100002 8.0433285e-39
-0.095248573 -0.038614288 0.90100002 1.2917067e-38
-0.093532376 -0.038614288 0.90100002 1.7895631e-38
-0.092020005 -0.038700003 0.90300006 1.973131e-38
-0.090300001 -0.038700003 0.90300006 1.6965441e-38
-0.088580005 -0.038700003 0.90300006 1.4938178e-38
-0.087340958 -0.038914286 0.90800005 1.0697179e-38
-0.085611433 -0.038914286 0.90800005 1.0329148e-38
-0.084066667 -0.039000001 0.91000003 1.0421343e-38
-0.082604766 -0.039128575 0.91300005 1.0052914e-38
-0.081042856 -0.039214283 0.91500002 1.2910978e-38
-0.079560004 -0.039342858 0.91800004 1.3003549e-38
-0.077980958 -0.039428573 0.92000002 1.1989398e-38
-0.076228574 -0.039428573 0.92000002 1.2999934e-38
-0.15912287 -0.037389524 0.91300005 1.4846731e-38
-0.15652192 -0.037184764 0.90800005 6.4569283e-39
-0.1547924 -0.037184764 0.90800005 6.5936137e-40
-0.15272571 -0.037102856 0.90600002 4.0705997e-39
-0.15050001 -0.036980003 0.90300006 1.1340025e-38
-0.14878 -0.036980003 0.90300006 1.6042002e-38
-0.14673428 -0.036898095 0.90100002 1.5120815e-38
-0.14501809 -0.036898095 0.90100002 1.0879816e-38
-0.14282477 -0.036775239 0.89800006 9.0383933e-39
-0.14111429 -0.036775239 0.89800006 8.5774152e-39
-0.13940382 -0.036775239 0.89800006 1.1152022e-38
-0.13738668 -0.036693335 0.89600003 1.6960347e-38
-0.13492286 -0.03648857 0.89100003 1.8346908e-38
-0.13292667 -0.036406666 0.88900006 1.7609343e-38
-0.13123335 -0.036406666 0.88900006 1.4025239e-38
-0.12954001 -0.036406666 0.88900006 1.2089131e-38
-0.12784667 -0.036406666 0.88900006 1.4208188e-38
-0.12615335 -0.036406666 0.88900006 1.8725774e-38
-0.12474 -0.03648857 0.89100003 2.056106e-38
-0.12304286 -0.03648857 0.89100003 1.9362517e-38
-0.12134571 -0.03648857 0.89100003 1.5225593e-38
-0.11964858 -0.03648857 0.89100003 1.3197289e-38
-0.11795143 -0.03648857 0.89100003 1.5312741e-38
-0.11664572 -0.03661143 0.89400005 1.8447392e-38
-0.11455715 -0.03648857 0.89100003 2.074473e-38
-0.11286 -0.03648857 0.89100003 1.8993013e-38
-0.11116286 -0.03648857 0.89100003 1.8347296e-38
-0.10946572 -0.03648857 0.89100003 2.1481947e-38
-0.10776857 -0.03648857 0.89100003 2.1116396e-38
-0.10666667 -0.036693335 0.89600003 1.7889549e-38
-0.10496 -0.036693335 0.89600003 1.3016144e-38
-0.10325333 -0.036693335 0.89600003 8.0375803e-39
-0.10154667 -0.036693335 0.89600003 5.4726689e-39
-0.10006286 -0.036775239 0.89800006 6.5790164e-39
-0.098680958 -0.036898095 0.90100002 6.3002589e-39
-0.096964762 -0.036898095 0.90100002 3.53439e-39
-0.095248573 -0.036898095 0.90100002 5.926747e-39
-0.093532376 -0.036898095 0.90100002 1.4316549e-38
-0.092020005 -0.036980003 0.90300006 1.908919e-38
-0.090300001 -0.036980003 0.90300006 1.6046734e-38
-0.088874288 -0.037102856 0.90600002 1.1991533e-38
-0.087533332 -0.037266668 0.91000003 9.9632293e-39
-0.0858 -0.037266668 0.91000003 1.078976e-38
-0.084066667 -0.037266668 0.91000003 1.0513173e-38
-0.082604766 -0.037389524 0.91300005 9.6837655e-39
-0.081042856 -0.037471429 0.91500002 1.3832569e-38
-0.079733334 -0.037676193 0.92000002 1.4570509e-38
-0.077980958 -0.037676193 0.92000002 1.3095379e-38
-0.076477148 -0.037799049 0.92300004 1.3092473e-38
-0.074719049 -0.037799049 0.92300004 1.5212973e-38
-0.15912287 -0.035650477 0.91300005 1.53981e-38
-0.15686667 -0.035533335 0.91000003 1.0235144e-38
-0.1547924 -0.035455238 0.90800005 7.5632002e-40
-0.15272571 -0.035377141 0.90600002 1.1095061e-40
-0.15100001 -0.035377141 0.90600002 8.2089521e-39
-0.14927429 -0.035377141 0.90600002 1.3832886e-38
-0.14706001 -0.035260003 0.90300006 1.3737111e-38
-0.14534001 -0.035260003 0.90300006 8.8507426e-39
-0.14330192 -0.035181906 0.90100002 8.3008437e-39
-0.14158572 -0.035181906 0.90100002 9.6837781e-39
-0.13986953 -0.035181906 0.90100002 1.004858e-38
-0.13769333 -0.035064761 0.89800006 1.0509558e-38
-0.13537715 -0.034908574 0.89400005 1.4381375e-38
-0.13367428 -0.034908574 0.89400005 1.8806765e-38
-0.13197143 -0.034908574 0.89400005 1.8349451e-38
-0.12983142 -0.034791429 0.89100003 1.9087016e-38
-0.12813428 -0.034791429 0.89100003 1.8996606e-38
-0.12643714 -0.034791429 0.89100003 1.9180997e-38
-0.12516001 -0.034908574 0.89400005 1.7063031e-38
-0.12345715 -0.034908574 0.89400005 1.5034727e-38
-0.1217543 -0.034908574 0.89400005 1.3107967e-38
-0.12005144 -0.034908574 0.89400005 1.2923576e-38
-0.11834858 -0.034908574 0.89400005 1.3474239e-38
-0.11664572 -0.034908574 0.89400005 1.4303999e-38
-0.11494286 -0.034908574 0.89400005 1.742964e-38
-0.11324 -0.034908574 0.89400005 2.0103314e-38
-0.11153715 -0.034908574 0.89400005 2.1021685e-38
-0.10983429 -0.034908574 0.89400005 2.175925e-38
-0.10813144 -0.034908574 0.89400005 2.0011824e-38
-0.10666667 -0.034986667 0.89600003 1.1806413e-38
-0.10496 -0.034986667 0.89600003 4.4588911e-39
-0.10325333 -0.034986667 0.89600003 5.5652386e-39
-0.10177334 -0.035064761 0.89800006 6.4846656e-39
-0.10006286 -0.035064761 0.89800006 6.7612525e-39
-0.098680958 -0.035181906 0.90100002 6.5764955e-39
-0.096964762 -0.035181906 0.90100002 5.193561e-39
-0.095248573 -0.035181906 0.90100002 6.2030186e-39
-0.093532376 -0.035181906 0.90100002 1.1550365e-38
-0.092020005 -0.035260003 0.90300006 1.7154486e-38
-0.090300001 -0.035260003 0.90300006 1.4757399e-38
-0.088874288 -0.035377141 0.90600002 1.1346529e-38
-0.087533332 -0.035533335 0.91000003 9.4104212e-39
-0.086082861 -0.035650477 0.91300005 1.0238034e-38
-0.084343813 -0.035650477 0.91300005 1.0145838e-38
-0.082785718 -0.03572857 0.91500002 1.0421343e-38
-0.081308573 -0.035845716 0.91800004 1.3924777e-38
-0.079733334 -0.035923809 0.92000002 1.4937121e-38
-0.078235239 -0.036040954 0.92300004 1.4383948e-38
-0.076477148 -0.036040954 0.92300004 1.4658717e-38
-0.074719049 -0.036040954 0.92300004 1.5396282e-38
-0.15947144 -0.033985715 0.91500002 1.5581046e-38
-0.15686667 -0.033800002 0.91000003 1.1247851e-38
-0.1547924 -0.033725716 0.90800005 4.4376376e-39
-0.15306287 -0.033725716 0.90800005 6.5761676e-40
-0.15100001 -0.033651426 0.90600002 4.1623805e-39
-0.14927429 -0.033651426 0.90600002 1.1722422e-38
-0.14754859 -0.033651426 0.90600002 1.2262745e-38
-0.14534001 -0.033540003 0.90300006 8.4827238e-39
-0.14362001 -0.033540003 0.90300006 8.3930239e-39
-0.14158572 -0.033465713 0.90100002 1.0236936e-38
-0.13986953 -0.033465713 0.90100002 9.868154e-39
-0.13815333 -0.033465713 0.90100002 8.7618064e-39
-0.13598287 -0.03335429 0.89800006 1.096942e-38
-0.13427238 -0.03335429 0.89800006 1.5947984e-38
-0.13226667 -0.03328 0.89600003 1.9451097e-38
-0.13056 -0.03328 0.89600003 2.1387206e-38
-0.12856571 -0.033205714 0.89400005 1.9640909e-38
-0.12686287 -0.033205714 0.89400005 1.7612605e-38
-0.12516001 -0.033205714 0.89400005 1.3660798e-38
-0.12345715 -0.033205714 0.89400005 1.2277863e-38
-0.1217543 -0.033205714 0.89400005 1.2371847e-38
-0.12005144 -0.033205714 0.89400005 1.2832825e-38
-0.11834858 -0.033205714 0.89400005 1.2831753e-38
-0.11664572 -0.033205714 0.89400005 1.2555166e-38
-0.11494286 -0.033205714 0.89400005 1.4025958e-38
-0.11324 -0.033205714 0.89400005 1.8543544e-38
-0.11153715 -0.033205714 0.89400005 2.0471033e-38
-0.10983429 -0.033205714 0.89400005 2.0655424e-38
-0.10813144 -0.033205714 0.89400005 1.6330858e-38
-0.10666667 -0.03328 0.89600003 7.8488605e-39
-0.10519429 -0.03335429 0.89800006 2.4388591e-39
-0.10348381 -0.03335429 0.89800006 4.9281411e-39
-0.10177334 -0.03335429 0.89800006 7.0367548e-39
-0.10039714 -0.033465713 0.90100002 6.6679722e-39
-0.098680958 -0.033465713 0.90100002 6.8523635e-39
-0.096964762 -0.033465713 0.90100002 5.4694291e-39
-0.095248573 -0.033465713 0.90100002 4.824403e-39
-0.093740009 -0.033540003 0.90300006 1.1831271e-38
-0.092325717 -0.033651426 0.90600002 1.5960659e-38
-0.090600006 -0.033651426 0.90600002 1.4762116e-38
-0.089070477 -0.033725716 0.90800005 1.1071057e-38
-0.087821908 -0.033911429 0.91300005 8.7661659e-39
-0.086271428 -0.033985715 0.91500002 9.7773807e-39
-0.084528573 -0.033985715 0.91500002 1.0791533e-38
-0.08305715 -0.034097143 0.91800004 1.1619902e-38
-0.081485718 -0.034171429 0.92000002 1.3371619e-38
-0.079733334 -0.034171429 0.92000002 1.4108054e-38
-0.078235239 -0.034282859 0.92300004 1.4384641e-38
-0.076477148 -0.034282859 0.92300004 1.5026421e-38
-0.074719049 -0.034282859 0.92300004 1.5579594e-38
-0.15564476 -0.032172382 0.91300005 3.4285892e-39
-0.1534 -0.032066669 0.91000003 2.9393777e-40
-0.15133335 -0.031996191 0.90800005 3.8862308e-39
-0.14960383 -0.031996191 0.90800005 1.1815055e-38
-0.1478743 -0.031996191 0.90800005 1.327758e-38
-0.14582285 -0.031925712 0.90600002 8.5756033e-39
-0.14362001 -0.031820003 0.90300006 8.3008465e-39
-0.1419 -0.031820003 0.90300006 1.0052563e-38
-0.14018001 -0.031820003 0.90300006 1.0511734e-38
-0.13815333 -0.031749524 0.90100002 1.0327343e-38
-0.13643715 -0.031749524 0.90100002 9.9578343e-39
-0.13472095 -0.031749524 0.90100002 1.1156377e-38
-0.13300475 -0.031749524 0.90100002 1.5396262e-38
-0.13085143 -0.031643812 0.89800006 2.0835805e-38
-0.12914096 -0.031643812 0.89800006 1.8904054e-38
-0.12743048 -0.031643812 0.89800006 1.457086e-38
-0.12572001 -0.031643812 0.89800006 1.2003437e-38
-0.12400953 -0.031643812 0.89800006 1.2280024e-38
-0.12202667 -0.031573333 0.89600003 1.273992e-38
-0.12032001 -0.031573333 0.89600003 1.2924312e-38
-0.11861334 -0.031573333 0.89600003 1.3108709e-38
-0.11690667 -0.031573333 0.89600003 1.32931e-38
-0.11494286 -0.031502858 0.89400005 1.3750472e-38
-0.11324 -0.031502858 0.89400005 1.6147559e-38
-0.11153715 -0.031502858 0.89400005 1.8995897e-38
-0.11008 -0.031573333 0.89600003 1.9180288e-38
-0.10837333 -0.031573333 0.89600003 1.5318502e-38
-0.10690477 -0.031643812 0.89800006 7.481873e-39
-0.10519429 -0.031643812 0.89800006 2.1651589e-39
-0.10382953 -0.031749524 0.90100002 4.377854e-39
-0.10211334 -0.031749524 0.90100002 7.0363946e-39
-0.10039714 -0.031749524 0.90100002 7.0363946e-39
-0.098900005 -0.031820003 0.90300006 6.3002715e-39
-0.097180009 -0.031820003 0.90300006 4.0875764e-39
-0.095460005 -0.031820003 0.90300006 8.0425998e-39
-0.094051436 -0.031925712 0.90600002 1.4865076e-38
-0.092529528 -0.031996191 0.90800005 1.890264e-38
-0.091000006 -0.032066669 0.91000003 1.8718249e-38
-0.089266665 -0.032066669 0.91000003 1.5307399e-38
-0.088014282 -0.032242857 0.91500002 1.0144444e-38
-0.086271428 -0.032242857 0.91500002 9.4132645e-39
-0.08480572 -0.032348573 0.91800004 1.2179133e-38
-0.083238095 -0.032419048 0.92000002 1.3279799e-38
-0.081751429 -0.032524761 0.92300004 1.1896864e-38
-0.079993337 -0.032524761 0.92300004 1.1070241e-38
-0.078235239 -0.032524761 0.92300004 1.171561e-38
-0.076642863 -0.03259524 0.92500007 1.4013004e-38
-0.074880958 -0.03259524 0.92500007 1.5672526e-38
-0.15564476 -0.030433334 0.91300005 8.1240306e-39
-0.15390572 -0.030433334 0.91300005 2.6844885e-39
-0.15166667 -0.030333333 0.91000003 4.0706151e-39
-0.14993334 -0.030333333 0.91000003 1.1722852e-38
-0.1478743 -0.030266669 0.90800005 1.3001401e-38
-0.14582285 -0.030200001 0.90600002 8.4838154e-39
-0.14409715 -0.030200001 0.90600002 8.5759788e-39
-0.1419 -0.030100001 0.90300006 1.02355e-38
-0.14018001 -0.030100001 0.90300006 1.0511381e-38
-0.13846001 -0.030100001 0.90300006 1.0787968e-38
-0.13643715 -0.030033333 0.90100002 9.9603524e-39
-0.13472095 -0.030033333 0.90100002 9.7759612e-39
-0.13300475 -0.030033333 0.90100002 1.2633638e-38
-0.13128857 -0.030033333 0.90100002 2.0101484e-38
-0.12957239 -0.030033333 0.90100002 1.8261221e-38
-0.12743048 -0.029933335 0.89800006 1.3743635e-38
-0.12572001 -0.029933335 0.89800006 1.044043e-38
-0.12400953 -0.029933335 0.89800006 1.1731169e-38
-0.12229905 -0.029933335 0.89800006 1.2924314e-38
-0.12032001 -0.029866667 0.89600003 1.2924314e-38
-0.11861334 -0.029866667 0.89600003 1.3015797e-38
-0.11690667 -0.029866667 0.89600003 1.3200188e-38
-0.11494286 -0.0298 0.89400005 1.3015784e-38
-0.11324 -0.0298 0.89400005 1.5689457e-38
-0.11178667 -0.029866667 0.89600003 1.8536719e-38
-0.11008 -0.029866667 0.89600003 1.9182089e-38
-0.10837333 -0.029866667 0.89600003 1.4306899e-38
-0.10690477 -0.029933335 0.89800006 6.7468569e-39
-0.10554572 -0.030033333 0.90100002 3.9096732e-39
-0.10382953 -0.030033333 0.90100002 5.4769989e-39
-0.10211334 -0.030033333 0.90100002 7.1282273e-39
-0.10039714 -0.030033333 0.90100002 6.9438361e-39
-0.098900005 -0.030100001 0.90300006 4.0015045e-39
-0.097180009 -0.030100001 0.90300006 3.4483307e-39
-0.095777147 -0.030200001 0.90600002 1.1261196e-38
-0.094051436 -0.030200001 0.90600002 1.6608543e-38
-0.092529528 -0.030266669 0.90800005 2.0190843e-38
-0.091000006 -0.030333333 0.91000003 1.9453278e-38
-0.089266665 -0.030333333 0.91000003 1.8532413e-38
-0.088014282 -0.0305 0.91500002 1.3922632e-38
-0.086554289 -0.0306 0.91800004 1.0608243e-38
-0.08480572 -0.0306 0.91800004 1.318972e-38
-0.083238095 -0.030666668 0.92000002 1.5581787e-38
-0.081751429 -0.030766666 0.92300004 9.2202889e-39
-0.079993337 -0.030766666 0.92300004 7.4745638e-39
-0.078235239 -0.030766666 0.92300004 1.0885802e-38
-0.076642863 -0.030833337 0.92500007 1.3921512e-38
-0.074880958 -0.030833337 0.92500007 1.5765425e-38
-0.15824571 -0.028851429 0.91800004 1.4105193e-38
-0.15649715 -0.028851429 0.91800004 9.4101102e-39
-0.15390572 -0.028694287 0.91300005 5.0769155e-39
-0.15166667 -0.0286 0.91000003 7.2888876e-39
-0.14993334 -0.0286 0.91000003 1.3650386e-38
-0.14820001 -0.0286 0.91000003 1.4935326e-38
-0.14614478 -0.028537145 0.90800005 1.2077262e-38
-0.14409715 -0.028474286 0.90600002 1.0235497e-38
-0.14237143 -0.028474286 0.90600002 9.9589105e-39
-0.14064573 -0.028474286 0.90600002 9.9592958e-39
-0.13846001 -0.028380001 0.90300006 1.0235883e-38
-0.13674001 -0.028380001 0.90300006 9.0402066e-39
-0.13472095 -0.028317144 0.90100002 9.5011847e-39
-0.13300475 -0.028317144 0.90100002 1.3094278e-38
-0.13128857 -0.028317144 0.90100002 1.9824559e-38
-0.12957239 -0.028317144 0.90100002 1.8996263e-38
-0.12785619 -0.028317144 0.90100002 1.5308437e-38
-0.12614 -0.028317144 0.90100002 1.2279664e-38
-0.12442381 -0.028317144 0.90100002 1.2556251e-38
-0.12229905 -0.028222859 0.89800006 1.2739926e-38
-0.12032001 -0.02816 0.89600003 1.2832122e-38
-0.11861334 -0.02816 0.89600003 1.2739573e-38
-0.11690667 -0.02816 0.89600003 1.2647377e-38
-0.11520001 -0.02816 0.89600003 1.4395469e-38
-0.11349334 -0.02816 0.89600003 1.7622316e-38
-0.11178667 -0.02816 0.89600003 2.0377385e-38
-0.11008 -0.02816 0.89600003 2.2036907e-38
-0.10861524 -0.028222859 0.89800006 1.9919654e-38
-0.10690477 -0.028222859 0.89800006 1.4387916e-38
-0.10554572 -0.028317144 0.90100002 5.2876134e-39
-0.10382953 -0.028317144 0.90100002 3.9968746e-39
-0.10234001 -0.028380001 0.90300006 2.7158089e-39
-0.10062001 -0.028380001 0.90300006 2.6236133e-39
-0.098900005 -0.028380001 0.90300006 7.5834321e-39
-0.097180009 -0.028380001 0.90300006 1.2746387e-38
-0.095777147 -0.028474286 0.90600002 1.7708022e-38
-0.094051436 -0.028474286 0.90600002 1.7800218e-38
-0.092529528 -0.028537145 0.90800005 1.788953e-38
-0.091000006 -0.0286 0.91000003 1.7612943e-38
-0.089266665 -0.0286 0.91000003 1.8348728e-38
-0.088014282 -0.028757144 0.91500002 1.8533119e-38
-0.086554289 -0.028851429 0.91800004 1.7888441e-38
-0.08480572 -0.028851429 0.91800004 1.6413311e-38
-0.083509527 -0.029008573 0.92300004 1.3744339e-38
-0.081751429 -0.029008573 0.92300004 5.999906e-39
-0.079993337 -0.029008573 0.92300004 4.6281021e-39
-0.078235239 -0.029008573 0.92300004 8.5925142e-39
-0.076642863 -0.02907143 0.92500007 1.3921512e-38
-0.074880958 -0.02907143 0.92500007 1.585762e-38
-0.073119059 -0.02907143 0.92500007 1.5947651e-38
-0.071357146 -0.02907143 0.92500007 1.5671064e-38
-0.15824571 -0.02710286 0.91800004 1.5118266e-38
-0.15649715 -0.02710286 0.91800004 1.1895757e-38
-0.15424286 -0.027014285 0.91500002 9.4064752e-39
-0.15216668 -0.026955239 0.91300005 1.0419891e-38
-0.15042762 -0.026955239 0.91300005 1.383113e-38
-0.14820001 -0.026866667 0.91000003 1.4200265e-38
-0.14614478 -0.026807619 0.90800005 1.3647092e-38
-0.14441524 -0.026807619 0.90800005 1.1525565e-38
-0.14237143 -0.026748572 0.90600002 9.4050655e-39
-0.14064573 -0.026748572 0.90600002 9.314983e-39
-0.13846001 -0.026660001 0.90300006 9.4071786e-39
-0.13674001 -0.026660001 0.90300006 8.3962693e-39
-0.13502 -0.026660001 0.90300006 1.0793356e-38
-0.13300475 -0.026600951 0.90100002 1.5210128e-38
-0.13128857 -0.026600951 0.90100002 1.9727714e-38
-0.12957239 -0.026600951 0.90100002 1.9088802e-38
-0.12785619 -0.026600951 0.90100002 1.6968302e-38
-0.12614 -0.026600951 0.90100002 1.3016172e-38
-0.12442381 -0.026600951 0.90100002 1.2462999e-38
-0.12270762 -0.026600951 0.90100002 1.2371857e-38
-0.12058858 -0.026512383 0.89800006 1.2464052e-38
-0.1188781 -0.026512383 0.89800006 1.2371504e-38
-0.11690667 -0.026453335 0.89600003 1.2924677e-38
-0.11520001 -0.026453335 0.89600003 1.6417674e-38
-0.11349334 -0.026453335 0.89600003 1.9091348e-38
-0.11178667 -0.026453335 0.89600003 2.0744723e-38
-0.11032572 -0.026512383 0.89800006 2.1482288e-38
-0.10861524 -0.026512383 0.89800006 2.1115683e-38
-0.1072619 -0.026600951 0.90100002 1.8257619e-38
-0.10554572 -0.026600951 0.90100002 1.182089e-38
-0.10406001 -0.026660001 0.90300006 6.7501304e-39
-0.10234001 -0.026660001 0.90300006 1.9789599e-39
-0.10062001 -0.026660001 0.90300006 1.4257862e-39
-0.098900005 -0.026660001 0.90300006 8.3181231e-39
-0.097180009 -0.026660001 0.90300006 1.5785969e-38
-0.095777147 -0.026748572 0.90600002 1.8445613e-38
-0.094051436 -0.026748572 0.90600002 1.5864135e-38
-0.092529528 -0.026807619 0.90800005 1.5035431e-38
-0.091000006 -0.026866667 0.91000003 1.4943235e-38
-0.089560956 -0.026955239 0.91300005 1.7611867e-38
-0.088014282 -0.027014285 0.91500002 1.8902605e-38
-0.086554289 -0.02710286 0.91800004 1.8991231e-38
-0.084990472 -0.027161906 0.92000002 1.6501949e-38
-0.083509527 -0.027250476 0.92300004 1.3007487e-38
-0.081751429 -0.027250476 0.92300004 4.8942717e-39
-0.079993337 -0.027250476 0.92300004 4.25893e-39
-0.078235239 -0.027250476 0.92300004 9.237494e-39
-0.076642863 -0.027309526 0.92500007 1.4197383e-38
-0.074880958 -0.027309526 0.92500007 1.5856904e-38
-0.073119059 -0.027309526 0.92500007 1.6039484e-38
-0.15824571 -0.025354287 0.91800004 1.5394487e-38
-0.15649715 -0.025354287 0.91800004 1.2815899e-38
-0.15424286 -0.025271429 0.91500002 9.9578343e-39
-0.15216668 -0.025216192 0.91300005 9.31822e-39
-0.15042762 -0.025216192 0.91300005 9.6870025e-39
-0.14820001 -0.025133334 0.91000003 1.1527303e-38
-0.14646667 -0.025133334 0.91000003 1.5768302e-38
-0.14441524 -0.025078095 0.90800005 1.438326e-38
-0.14268573 -0.025078095 0.90800005 1.0603239e-38
-0.14064573 -0.025022857 0.90600002 8.9504941e-39
-0.13891999 -0.025022857 0.90600002 8.7661028e-39
-0.13674001 -0.024940003 0.90300006 1.0694721e-38
-0.13502 -0.024940003 0.90300006 1.7701589e-38
-0.13330001 -0.024940003 0.90300006 1.8717142e-38
-0.13128857 -0.024884764 0.90100002 1.7979577e-38
-0.12957239 -0.024884764 0.90100002 1.8352643e-38
-0.12785619 -0.024884764 0.90100002 1.9551187e-38
-0.12614 -0.024884764 0.90100002 1.8444521e-38
-0.12442381 -0.024884764 0.90100002 1.5863043e-38
-0.12270762 -0.024884764 0.90100002 1.2831043e-38
-0.12058858 -0.024801906 0.89800006 1.2277869e-38
-0.1188781 -0.024801906 0.89800006 1.3750112e-38
-0.11716763 -0.024801906 0.89800006 1.7622329e-38
-0.11520001 -0.024746668 0.89600003 2.0284836e-38
-0.11349334 -0.024746668 0.89600003 1.9916054e-38
-0.1120362 -0.024801906 0.89800006 1.7979933e-38
-0.11032572 -0.024801906 0.89800006 1.7703346e-38
-0.10897809 -0.024884764 0.90100002 1.945472e-38
-0.1072619 -0.024884764 0.90100002 2.2220589e-38
-0.10554572 -0.024884764 0.90100002 2.0840894e-38
-0.10406001 -0.024940003 0.90300006 1.7706243e-38
-0.10234001 -0.024940003 0.90300006 1.2372936e-38
-0.10062001 -0.024940003 0.90300006 9.9758494e-39
-0.098900005 -0.024940003 0.90300006 1.3102268e-38
-0.097180009 -0.024940003 0.90300006 1.8633995e-38
-0.095777147 -0.025022857 0.90600002 1.8351622e-38
-0.094051436 -0.025022857 0.90600002 1.4940384e-38
-0.092529528 -0.025078095 0.90800005 1.2184591e-38
-0.091000006 -0.025133334 0.91000003 1.1723613e-38
-0.089560956 -0.025216192 0.91300005 1.3930522e-38
-0.088014282 -0.025271429 0.91500002 1.6419804e-38
-0.086554289 -0.025354287 0.91800004 1.7704082e-38
-0.084990472 -0.025409523 0.92000002 1.5122604e-38
-0.083509527 -0.025492381 0.92300004 1.0339918e-38
-0.081751429 -0.025492381 0.92300004 4.1628107e-39
-0.079993337 -0.025492381 0.92300004 3.8008904e-39
-0.078404762 -0.025547622 0.92500007 9.0560413e-39
-0.076642863 -0.025547622 0.92500007 1.4659077e-38
-0.074880958 -0.025547622 0.92500007 1.5765425e-38
-0.073119059 -0.025547622 0.92500007 1.5855438e-38
-0.15824571 -0.023605715 0.91800004 1.5578515e-38
-0.15649715 -0.023605715 0.91800004 1.3368001e-38
-0.15474857 -0.023605715 0.91800004 1.0325545e-38
-0.15216668 -0.023477143 0.91300005 8.7686265e-39
-0.15042762 -0.023477143 0.91300005 7.8466702e-39
-0.14868857 -0.023477143 0.91300005 8.9519388e-39
-0.14646667 -0.023400001 0.91000003 1.3469525e-38
-0.14473334 -0.023400001 0.91000003 1.5308425e-38
-0.14300001 -0.023400001 0.91000003 1.1436208e-38
-0.14095621 -0.023348572 0.90800005 1.0420942e-38
-0.13891999 -0.023297142 0.90600002 1.0789725e-38
-0.13674001 -0.023220003 0.90300006 1.4931386e-38
-0.13502 -0.023220003 0.90300006 1.9541167e-38
-0.13330001 -0.023220003 0.90300006 1.9179209e-38
-0.13158001 -0.023220003 0.90300006 1.558358e-38
-0.12957239 -0.023168571 0.90100002 1.5310521e-38
-0.12785619 -0.023168571 0.90100002 1.8721759e-38
-0.12614 -0.023168571 0.90100002 2.0192638e-38
-0.12442381 -0.023168571 0.90100002 1.8164334e-38
-0.12270762 -0.023168571 0.90100002 1.3384952e-38
-0.12099143 -0.023168571 0.90100002 1.1909822e-38
-0.1188781 -0.02309143 0.89800006 1.485286e-38
-0.11716763 -0.02309143 0.89800006 1.9186054e-38
-0.11545715 -0.02309143 0.89800006 2.1666689e-38
-0.11374667 -0.02309143 0.89800006 1.7794473e-38
-0.1120362 -0.02309143 0.89800006 1.5215854e-38
-0.11069429 -0.023168571 0.90100002 1.5031462e-38
-0.10897809 -0.023168571 0.90100002 1.8253268e-38
-0.1072619 -0.023168571 0.90100002 2.1664506e-38
-0.10578001 -0.023220003 0.90300006 2.2403538e-38
-0.10406001 -0.023220003 0.90300006 2.0836212e-38
-0.10234001 -0.023220003 0.90300006 1.6788615e-38
-0.10062001 -0.023220003 0.90300006 1.5774463e-38
-0.098900005 -0.023220003 0.90300006 1.7063404e-38
-0.097502857 -0.023297142 0.90600002 1.8169752e-38
-0.095988572 -0.023348572 0.90800005 1.7339618e-38
-0.094259053 -0.023348572 0.90800005 1.3743989e-38
-0.092529528 -0.023348572 0.90800005 1.1450982e-38
-0.091000006 -0.023400001 0.91000003 1.1174395e-38
-0.089560956 -0.023477143 0.91300005 1.1815771e-38
-0.088302858 -0.023605715 0.91800004 1.458164e-38
-0.086742856 -0.023657143 0.92000002 1.6143248e-38
-0.084990472 -0.023657143 0.92000002 1.3561771e-38
-0.083509527 -0.023734286 0.92300004 7.945728e-39
-0.081751429 -0.023734286 0.92300004 3.0593596e-39
-0.079993337 -0.023734286 0.92300004 4.4444297e-39
-0.078404762 -0.023785716 0.92500007 1.034495e-38
-0.076642863 -0.023785716 0.92500007 1.4659809e-38
-0.074880958 -0.023785716 0.92500007 1.5397374e-38
-0.073119059 -0.023785716 0.92500007 1.5579216e-38
-0.15824571 -0.021857142 0.91800004 1.5579231e-38
-0.15649715 -0.021857142 0.91800004 1.3829698e-38
-0.15474857 -0.021857142 0.91800004 8.5745467e-39
-0.15216668 -0.021738095 0.91300005 6.0978498e-39
-0.15042762 -0.021738095 0.91300005 7.2041973e-39
-0.14868857 -0.021738095 0.91300005 7.6655384e-39
-0.14694953 -0.021738095 0.91300005 9.3250597e-39
-0.14473334 -0.021666666 0.91000003 1.2729086e-38
-0.14300001 -0.021666666 0.91000003 1.5494954e-38
-0.14095621 -0.021619048 0.90800005 1.6043446e-38
-0.13922668 -0.021619048 0.90800005 1.6873207e-38
-0.13719429 -0.021571428 0.90600002 1.7978501e-38
-0.13502 -0.021500001 0.90300006 1.8255088e-38
-0.13330001 -0.021500001 0.90300006 1.4022393e-38
-0.13158001 -0.021500001 0.90300006 7.6608945e-39
-0.12957239 -0.021452382 0.90100002 6.748624e-39
-0.12785619 -0.021452382 0.90100002 1.2095971e-38
-0.12614 -0.021452382 0.90100002 1.7336719e-38
-0.12442381 -0.021452382 0.90100002 2.0655762e-38
-0.12270762 -0.021452382 0.90100002 1.982673e-38
-0.12099143 -0.021452382 0.90100002 1.6876469e-38
-0.11927524 -0.021452382 0.90100002 1.742895e-38
-0.11755905 -0.021452382 0.90100002 1.9641645e-38
-0.11584286 -0.021452382 0.90100002 1.8901887e-38
-0.11412667 -0.021452382 0.90100002 1.355454e-38
-0.11241048 -0.021452382 0.90100002 1.1990098e-38
-0.11069429 -0.021452382 0.90100002 1.1621316e-38
-0.10922001 -0.021500001 0.90300006 1.3277224e-38
-0.10750001 -0.021500001 0.90300006 1.6411876e-38
-0.10578001 -0.021500001 0.90300006 1.880753e-38
-0.10406001 -0.021500001 0.90300006 2.175779e-38
-0.10234001 -0.021500001 0.90300006 2.1298632e-38
-0.10095429 -0.021571428 0.90600002 2.092985e-38
-0.099228576 -0.021571428 0.90600002 1.8997344e-38
-0.097502857 -0.021571428 0.90600002 1.6231476e-38
-0.095988572 -0.021619048 0.90800005 1.3289847e-38
-0.094259053 -0.021619048 0.90800005 1.2644478e-38
-0.092733338 -0.021666666 0.91000003 1.209492e-38
-0.091000006 -0.021666666 0.91000003 1.1910528e-38
-0.089560956 -0.021738095 0.91300005 1.172468e-38
-0.088302858 -0.021857142 0.91800004 1.3015418e-38
-0.086742856 -0.021904761 0.92000002 1.5221996e-38
-0.084990472 -0.021904761 0.92000002 1.30093e-38
-0.083509527 -0.021976192 0.92300004 6.7522393e-39
-0.081751429 -0.021976192 0.92300004 2.5112404e-39
-0.080166668 -0.022023812 0.92500007 5.5486515e-39
-0.078404762 -0.022023812 0.92500007 1.1264781e-38
-0.076642863 -0.022023812 0.92500007 1.4842755e-38
-0.074880958 -0.022023812 0.92500007 1.5488125e-38
-0.073119059 -0.022023812 0.92500007 1.5579216e-38
-0.15824571 -0.020108571 0.91800004 1.5579234e-38
-0.15649715 -0.020108571 0.91800004 1.4107361e-38
-0.15474857 -0.020108571 0.91800004 8.4834273e-39
-0.1525 -0.020042857 0.91500002 5.6339877e-39
-0.15075713 -0.020042857 0.91500002 7.8466829e-39
-0.14868857 -0.019999048 0.91300005 6.6549962e-39
-0.14694953 -0.019999048 0.91300005 7.3003656e-39
-0.14473334 -0.019933334 0.91000003 1.0795861e-38
-0.14300001 -0.019933334 0.91000003 1.4483686e-38
-0.14126667 -0.019933334 0.91000003 1.6503711e-38
-0.13922668 -0.019889524 0.90800005 1.8347624e-38
-0.13719429 -0.019845715 0.90600002 1.7613679e-38
-0.13502 -0.019780001 0.90300006 1.4940005e-38
-0.13330001 -0.019780001 0.90300006 9.7918112e-39
-0.13158001 -0.019780001 0.90300006 4.9976385e-39
-0.12986001 -0.019780001 0.90300006 2.2479322e-39
-0.12785619 -0.019736189 0.90100002 6.1201486e-39
-0.12614 -0.019736189 0.90100002 1.4848854e-38
-0.12442381 -0.019736189 0.90100002 1.8997657e-38
-0.12270762 -0.019736189 0.90100002 2.0838361e-38
-0.12099143 -0.019736189 0.90100002 1.9916404e-38
-0.11927524 -0.019736189 0.90100002 1.8075776e-38
-0.11755905 -0.019736189 0.90100002 1.6877233e-38
-0.11584286 -0.019736189 0.90100002 1.5860522e-38
-0.11412667 -0.019736189 0.90100002 1.2725871e-38
-0.11266001 -0.019780001 0.90300006 1.2265616e-38
-0.11094 -0.019780001 0.90300006 1.2450007e-38
-0.10922001 -0.019780001 0.90300006 1.2449615e-38
-0.10750001 -0.019780001 0.90300006 1.2818397e-38
-0.10578001 -0.019780001 0.90300006 1.6316057e-38
-0.10440572 -0.019845715 0.90600002 2.0557055e-38
-0.10268001 -0.019845715 0.90600002 2.1757803e-38
-0.10095429 -0.019845715 0.90600002 2.1757803e-38
-0.099228576 -0.019845715 0.90600002 1.8354143e-38
-0.097718097 -0.019889524 0.90800005 1.3928753e-38
-0.096200004 -0.019933334 0.91000003 1.1175832e-38
-0.094466671 -0.019933334 0.91000003 1.1821201e-38
-0.092733338 -0.019933334 0.91000003 1.2555532e-38
-0.091300003 -0.019999048 0.91300005 1.1725771e-38
-0.089757144 -0.020042857 0.91500002 1.1448812e-38
-0.088495232 -0.020152381 0.92000002 1.3200529e-38
-0.086742856 -0.020152381 0.92000002 1.4486608e-38
-0.085267626 -0.020218095 0.92300004 1.3564652e-38
-0.083509527 -0.020218095 0.92300004 6.937732e-39
-0.081928581 -0.020261906 0.92500007 2.2357549e-39
-0.080166668 -0.020261906 0.92500007 7.2031127e-39
-0.078404762 -0.020261906 0.92500007 1.2458264e-38
-0.076642863 -0.020261906 0.92500007 1.474948e-38
-0.074880958 -0.020261906 0.92500007 1.5487046e-38
-0.073119059 -0.020261906 0.92500007 1.5486673e-38
-0.15649715 -0.018360002 0.91800004 1.4750922e-38
-0.15474857 -0.018360002 0.91800004 1.1616271e-38
-0.1525 -0.018300001 0.91500002 7.7526992e-39
-0.15075713 -0.018300001 0.91500002 8.0292861e-39
-0.14901428 -0.018300001 0.91500002 6.6549962e-39
-0.14694953 -0.01826 0.91300005 7.8535394e-39
-0.14521049 -0.01826 0.91300005 9.6924129e-39
-0.14300001 -0.018200001 0.91000003 1.2089499e-38
-0.14126667 -0.018200001 0.91000003 1.5675746e-38
-0.13953334 -0.018200001 0.91000003 1.7888441e-38
-0.13749716 -0.01816 0.90800005 1.5956989e-38
-0.13576764 -0.01816 0.90800005 8.4891432e-39
-0.13374287 -0.01812 0.90600002 3.8120461e-39
-0.13158001 -0.018060001 0.90300006 4.7340024e-39
-0.12986001 -0.018060001 0.90300006 5.8360536e-39
-0.12814002 -0.018060001 0.90300006 5.8360536e-39
-0.12642001 -0.018060001 0.90300006 1.0065813e-38
-0.12470001 -0.018060001 0.90300006 1.1909725e-38
-0.12298001 -0.018060001 0.90300006 1.7428875e-38
-0.12126 -0.018060001 0.90300006 2.1301092e-38
-0.11954001 -0.018060001 0.90300006 2.0283757e-38
-0.11782 -0.018060001 0.90300006 1.3922259e-38
-0.11610001 -0.018060001 0.90300006 1.1620615e-38
-0.11438 -0.018060001 0.90300006 1.2726963e-38
-0.11266001 -0.018060001 0.90300006 1.3187575e-38
-0.11094 -0.018060001 0.90300006 1.3371966e-38
-0.10922001 -0.018060001 0.90300006 1.3370887e-38
-0.10750001 -0.018060001 0.90300006 1.2541127e-38
-0.10613143 -0.01812 0.90600002 1.2356365e-38
-0.10440572 -0.01812 0.90600002 1.6412973e-38
-0.10268001 -0.01812 0.90600002 1.9362486e-38
-0.10095429 -0.01812 0.90600002 2.0468834e-38
-0.099228576 -0.01812 0.90600002 1.853706e-38
-0.097718097 -0.01816 0.90800005 1.4203865e-38
-0.096200004 -0.018200001 0.91000003 1.20038e-38
-0.094466671 -0.018200001 0.91000003 1.2188191e-38
-0.092733338 -0.018200001 0.91000003 1.2371141e-38
-0.091300003 -0.01826 0.91300005 1.1449184e-38
-0.089757144 -0.018300001 0.91500002 1.2643046e-38
-0.088495232 -0.0184 0.92000002 1.5224523e-38
-0.086742856 -0.0184 0.92000002 1.7244183e-38
-0.085267626 -0.018460002 0.92300004 1.7244183e-38
-0.083509527 -0.018460002 0.92300004 1.3192282e-38
-0.081928581 -0.0185 0.92500007 7.0151748e-39
-0.080166668 -0.0185 0.92500007 8.0329112e-39
-0.078404762 -0.0185 0.92500007 1.1905128e-38
-0.076642863 -0.0185 0.92500007 1.438178e-38
-0.074880958 -0.0185 0.92500007 1.5303736e-38
-0.15474857 -0.016611429 0.91800004 1.244459e-38
-0.15300001 -0.016611429 0.91800004 8.9461977e-39
-0.15125144 -0.016611429 0.91800004 9.0383933e-39
-0.14901428 -0.016557142 0.91500002 7.1138094e-39
-0.14694953 -0.016520953 0.91300005 8.4045482e-39
-0.14521049 -0.016520953 0.91300005 8.4974697e-39
-0.14347143 -0.016520953 0.91300005 1.0064795e-38
-0.14126667 -0.016466668 0.91000003 1.4018765e-38
-0.13953334 -0.016466668 0.91000003 1.623146e-38
-0.13749716 -0.016430477 0.90800005 1.2366446e-38
-0.13576764 -0.016430477 0.90800005 5.9127522e-39
-0.13403811 -0.016430477 0.90800005 1.7905918e-39
-0.13201714 -0.016394285 0.90600002 4.0954825e-39
-0.12986001 -0.016340001 0.90300006 5.7460159e-39
-0.12814002 -0.016340001 0.90300006 5.3772334e-39
-0.12642001 -0.016340001 0.90300006 4.0911511e-39
-0.12470001 -0.016340001 0.90300006 3.9067599e-39
-0.12298001 -0.016340001 0.90300006 1.3191113e-38
