# .PCD v0.7 - Point Cloud Data file format
VERSION 0.7
FIELDS x y z rgb
SIZE 4 4 4 4
TYPE F F F F
COUNT 1 1 1 1
WIDTH 968
HEIGHT 1
VIEWPOINT 0 0 0 1 0 0 0
POINTS 968
DATA ascii
-0.0047800001 0.052579999 0.71700001 9.5984222e-39
-0.0034285716 0.052800003 0.72000003 9.5984222e-39
-0.0020628572 0.052946672 0.72200006 1.0332022e-38
-0.00068761909 0.052946672 0.72200006 9.5944566e-39
0.00068761909 0.052946672 0.72200006 1.0514265e-38
0.0020628572 0.052946672 0.72200006 1.5216242e-38
-0.076325722 0.054321911 0.72200006 1.5489604e-38
-0.074950479 0.054321911 0.72200006 1.3276909e-38
-0.072963811 0.053870477 0.71600002 1.1528066e-38
-0.071599998 0.053870477 0.71600002 1.1620262e-38
-0.070236191 0.053870477 0.71600002 1.2359927e-38
-0.068680003 0.053720001 0.71400005 1.3189688e-38
-0.067225717 0.053644765 0.71300006 1.411025e-38
-0.065590478 0.05341905 0.71000004 1.5954163e-38
-0.064238101 0.05341905 0.71000004 1.6598823e-38
-0.062708572 0.05326857 0.708 1.6967606e-38
-0.061273329 0.053193334 0.70700002 1.6507722e-38
-0.059841909 0.053118095 0.70600003 1.69687e-38
-0.058331434 0.052967623 0.70400006 1.6785398e-38
-0.056990478 0.052967623 0.70400006 1.715418e-38
-0.055570476 0.052892383 0.70300001 1.7154168e-38
-0.054231428 0.052892383 0.70300001 1.7246363e-38
-0.052892383 0.052892383 0.70300001 1.7246016e-38
-0.051406667 0.052741908 0.70100003 1.7891385e-38
-0.050071429 0.052741908 0.70100003 1.7891379e-38
-0.048736192 0.052741908 0.70100003 1.7983575e-38
-0.047333337 0.052666668 0.70000005 1.7983941e-38
-0.046000004 0.052666668 0.70000005 1.7891745e-38
-0.044666667 0.052666668 0.70000005 1.8260165e-38
-0.043209527 0.052516192 0.69800001 1.8444556e-38
-0.04188 0.052516192 0.69800001 1.8444556e-38
-0.040550474 0.052516192 0.69800001 1.835236e-38
-0.039220951 0.052516192 0.69800001 1.8537471e-38
-0.037891429 0.052516192 0.69800001 1.8537471e-38
-0.036561903 0.052516192 0.69800001 1.8353076e-38
-0.03523238 0.052516192 0.69800001 1.8445272e-38
-0.033902857 0.052516192 0.69800001 1.8260891e-38
-0.032573331 0.052516192 0.69800001 1.8076499e-38
-0.031243809 0.052516192 0.69800001 1.7985025e-38
-0.029914286 0.052516192 0.69800001 1.789283e-38
-0.028584762 0.052516192 0.69800001 1.752441e-38
-0.027333336 0.052666668 0.70000005 1.752441e-38
-0.026037144 0.052741908 0.70100003 1.7431496e-38
-0.02477238 0.052892383 0.70300001 1.7431496e-38
-0.023433333 0.052892383 0.70300001 1.743113e-38
-0.022094285 0.052892383 0.70300001 1.7154543e-38
-0.020784764 0.052967623 0.70400006 1.7155262e-38
-0.019443812 0.052967623 0.70400006 1.7155262e-38
-0.018102858 0.052967623 0.70400006 1.6878678e-38
-0.016809525 0.053118095 0.70600003 1.6694287e-38
-0.015464762 0.053118095 0.70600003 1.6417708e-38
-0.01414 0.053193334 0.70700002 1.5219165e-38
-0.012811428 0.05326857 0.708 1.4206451e-38
-0.011462857 0.05326857 0.708 1.2915712e-38
-0.010142857 0.05341905 0.71000004 1.153277e-38
-0.0088028572 0.053494286 0.71100003 1.0887401e-38
-0.0074695242 0.053644765 0.71300006 1.0429609e-38
-0.0061200005 0.053720001 0.71400005 1.0245218e-38
-0.0047933338 0.054096192 0.71900004 1.0243429e-38
-0.0034380956 0.054321911 0.72200006 9.5980593e-39
-0.0020628572 0.054321911 0.72200006 9.8724882e-39
-0.00068761909 0.054321911 0.72200006 9.2271188e-39
0.00068857148 0.054397147 0.72300005 9.9621699e-39
0.0020657144 0.054397147 0.72300005 1.4940734e-38
-0.074950479 0.055697147 0.72200006 1.3553496e-38
-0.073371425 0.05554286 0.72000003 1.1989044e-38
-0.071900003 0.055465717 0.71900004 1.1712458e-38
-0.070334285 0.055311427 0.71700001 1.107028e-38
-0.068872385 0.055234287 0.71600002 1.1623454e-38
-0.067225717 0.055002861 0.71300006 1.2637593e-38
-0.065682858 0.054848574 0.71100003 1.4850289e-38
-0.064238101 0.054771431 0.71000004 1.5494617e-38
-0.062708572 0.05461714 0.708 1.6600964e-38
-0.061360002 0.05461714 0.708 1.6508062e-38
-0.059926666 0.054540001 0.70700002 1.6969041e-38
-0.058497142 0.054462858 0.70600003 1.660171e-38
-0.056990478 0.054308575 0.70400006 1.7062688e-38
-0.055649526 0.054308575 0.70400006 1.7154533e-38
-0.054231428 0.054231428 0.70300001 1.7062338e-38
-0.052892383 0.054231428 0.70300001 1.6970508e-38
-0.051553335 0.054231428 0.70300001 1.7523682e-38
-0.050214287 0.054231428 0.70300001 1.7523679e-38
-0.048736192 0.054077145 0.70100003 1.7800266e-38
-0.047400955 0.054077145 0.70100003 1.7800268e-38
-0.046000004 0.054000005 0.70000005 1.7892464e-38
-0.044666667 0.054000005 0.70000005 1.7800268e-38
-0.043333337 0.054000005 0.70000005 1.8076855e-38
-0.04188 0.053845715 0.69800001 1.7800629e-38
-0.040550474 0.053845715 0.69800001 1.798502e-38
-0.039220951 0.053845715 0.69800001 1.826053e-38
-0.037891429 0.053845715 0.69800001 1.8168335e-38
-0.036561903 0.053845715 0.69800001 1.7892827e-38
-0.03523238 0.053845715 0.69800001 1.7985023e-38
-0.033902857 0.053845715 0.69800001 1.7985023e-38
-0.032573331 0.053845715 0.69800001 1.7985023e-38
-0.031243809 0.053845715 0.69800001 1.789283e-38
-0.029914286 0.053845715 0.69800001 1.789283e-38
-0.028666668 0.054000005 0.70000005 1.7432215e-38
-0.027333336 0.054000005 0.70000005 1.752441e-38
-0.026037144 0.054077145 0.70100003 1.7431496e-38
-0.02477238 0.054231428 0.70300001 1.73393e-38
-0.023433333 0.054231428 0.70300001 1.7246739e-38
-0.022125715 0.054308575 0.70400006 1.7246739e-38
-0.020784764 0.054308575 0.70400006 1.6879038e-38
-0.019443812 0.054308575 0.70400006 1.6879038e-38
-0.018102858 0.054308575 0.70400006 1.641841e-38
-0.016809525 0.054462858 0.70600003 1.6141823e-38
-0.015464762 0.054462858 0.70600003 1.5589366e-38
-0.01414 0.054540001 0.70700002 1.4483018e-38
-0.012811428 0.05461714 0.708 1.273561e-38
-0.011462857 0.05461714 0.708 1.1168284e-38
-0.010142857 0.054771431 0.71000004 1.0981727e-38
-0.0088028572 0.054848574 0.71100003 1.0336357e-38
-0.0074695242 0.055002861 0.71300006 1.0980265e-38
-0.0061200005 0.055080004 0.71400005 1.0888069e-38
-0.0047933338 0.055465717 0.71900004 1.0335274e-38
-0.0034285716 0.05554286 0.72000003 9.1367308e-39
-0.0020657144 0.05577429 0.72300005 9.227116e-39
-0.00068857148 0.05577429 0.72300005 9.227116e-39
0.00068857148 0.05577429 0.72300005 9.6855886e-39
0.0020657144 0.05577429 0.72300005 1.4756348e-38
-0.074950479 0.057072386 0.72200006 1.3645692e-38
-0.073269531 0.056835238 0.71900004 1.2081243e-38
-0.071699999 0.056677144 0.71700001 1.1804656e-38
-0.070236191 0.056598097 0.71600002 1.0794782e-38
-0.068872385 0.056598097 0.71600002 7.6601308e-39
-0.067320004 0.056440003 0.71400005 8.8622417e-39
-0.065682858 0.056202859 0.71100003 1.1720306e-38
-0.064238101 0.056123812 0.71000004 1.392759e-38
-0.062708572 0.055965714 0.708 1.475735e-38
-0.061360002 0.055965714 0.708 1.6231422e-38
-0.059926666 0.055886667 0.70700002 1.6784596e-38
-0.058497142 0.05580762 0.70600003 1.7522189e-38
-0.057152383 0.05580762 0.70600003 1.770658e-38
-0.055649526 0.055649526 0.70400006 1.816688e-38
-0.054308575 0.055649526 0.70400006 1.8074685e-38
-0.052892383 0.055570476 0.70300001 1.7706991e-38
-0.051553335 0.055570476 0.70300001 1.8167969e-38
-0.050214287 0.055570476 0.70300001 1.8167966e-38
-0.048875239 0.055570476 0.70300001 1.8167966e-38
-0.047400955 0.055412382 0.70100003 1.8444553e-38
-0.046065718 0.055412382 0.70100003 1.8444553e-38
-0.044730477 0.055412382 0.70100003 1.8352363e-38
-0.043333337 0.055333335 0.70000005 1.862895e-38
-0.042000003 0.055333335 0.70000005 1.8628947e-38
-0.040550474 0.055175241 0.69800001 1.8721143e-38
-0.039220951 0.055175241 0.69800001 1.8721153e-38
-0.037891429 0.055175241 0.69800001 1.8536761e-38
-0.036561903 0.055175241 0.69800001 1.8536761e-38
-0.03523238 0.055175241 0.69800001 1.8536761e-38
-0.033902857 0.055175241 0.69800001 1.8536761e-38
-0.032573331 0.055175241 0.69800001 1.8536761e-38
-0.031243809 0.055175241 0.69800001 1.8537478e-38
-0.029914286 0.055175241 0.69800001 1.8537478e-38
-0.028666668 0.055333335 0.70000005 1.8077221e-38
-0.027333336 0.055333335 0.70000005 1.8169417e-38
-0.026037144 0.055412382 0.70100003 1.8076502e-38
-0.02477238 0.055570476 0.70300001 1.7615524e-38
-0.023466667 0.055649526 0.70400006 1.7155247e-38
-0.022125715 0.055649526 0.70400006 1.6325486e-38
-0.020784764 0.055649526 0.70400006 1.5221326e-38
-0.019443812 0.055649526 0.70400006 1.4575956e-38
-0.018102858 0.055649526 0.70400006 1.3010421e-38
-0.016809525 0.05580762 0.70600003 1.282603e-38
-0.015464762 0.05580762 0.70600003 1.1997316e-38
-0.01416 0.055965714 0.708 1.1720729e-38
-0.01284762 0.056123812 0.71000004 1.1351929e-38
-0.011495238 0.056123812 0.71000004 1.1167537e-38
-0.010157143 0.056202859 0.71100003 1.1626723e-38
-0.0088276202 0.056360956 0.71300006 1.0796963e-38
-0.0074800006 0.056440003 0.71400005 1.0150883e-38
-0.0061457143 0.056677144 0.71700001 9.9664915e-39
-0.0047933338 0.056835238 0.71900004 9.7810282e-39
-0.0034285716 0.056914289 0.72000003 9.0434632e-39
-0.0020657144 0.057151429 0.72300005 8.9516109e-39
-0.00068857148 0.057151429 0.72300005 8.9516109e-39
0.00068857148 0.057151429 0.72300005 9.7767122e-39
0.0020657144 0.057151429 0.72300005 1.4663081e-38
-0.073269531 0.058204763 0.71900004 1.1897575e-38
-0.071699999 0.058042858 0.71700001 1.1713183e-38
-0.070236191 0.057961904 0.71600002 1.0978823e-38
-0.068872385 0.057961904 0.71600002 7.9363674e-39
-0.067320004 0.057800002 0.71400005 7.7558801e-39
-0.065867618 0.057719052 0.71300006 1.0152966e-38
-0.064328574 0.057557143 0.71100003 1.1531582e-38
-0.062885717 0.057476193 0.71000004 1.2914517e-38
-0.061533332 0.057476193 0.71000004 1.3834349e-38
-0.060011428 0.057314284 0.708 1.5586065e-38
-0.058580004 0.057233334 0.70700002 1.5680428e-38
-0.057233334 0.057233334 0.70700002 1.6694579e-38
-0.05580762 0.057152383 0.70600003 1.66017e-38
-0.054462858 0.057152383 0.70600003 1.7247069e-38
-0.052967623 0.056990478 0.70400006 1.7247435e-38
-0.051626671 0.056990478 0.70400006 1.7431826e-38
-0.050214287 0.056909524 0.70300001 1.7983202e-38
-0.048875239 0.056909524 0.70300001 1.8075398e-38
-0.047400955 0.056747623 0.70100003 1.8259789e-38
-0.046065718 0.056747623 0.70100003 1.8259789e-38
-0.044730477 0.056747623 0.70100003 1.8351988e-38
-0.04339524 0.056747623 0.70100003 1.8536379e-38
-0.042000003 0.056666669 0.70000005 1.8537458e-38
-0.04066667 0.056666669 0.70000005 1.8629654e-38
-0.039333336 0.056666669 0.70000005 1.8537465e-38
-0.038054287 0.056747623 0.70100003 1.8353074e-38
-0.036666669 0.056666669 0.70000005 1.8353074e-38
-0.035333335 0.056666669 0.70000005 1.8260878e-38
-0.034000002 0.056666669 0.70000005 1.8352714e-38
-0.032666668 0.056666669 0.70000005 1.8352714e-38
-0.031333335 0.056666669 0.70000005 1.8260515e-38
-0.030042859 0.056747623 0.70100003 1.8168319e-38
-0.02870762 0.056747623 0.70100003 1.7892814e-38
-0.027372383 0.056747623 0.70100003 1.7524032e-38
-0.026148573 0.056990478 0.70400006 1.7155965e-38
-0.024807621 0.056990478 0.70400006 1.6879378e-38
-0.023466667 0.056990478 0.70400006 1.5039779e-38
-0.022125715 0.056990478 0.70400006 1.4763192e-38
-0.020784764 0.056990478 0.70400006 1.3934153e-38
-0.019443812 0.056990478 0.70400006 1.2920001e-38
-0.018154286 0.057152383 0.70600003 1.2367528e-38
-0.016809525 0.057152383 0.70600003 1.2090941e-38
-0.015464762 0.057152383 0.70600003 1.2457563e-38
-0.01416 0.057314284 0.708 1.1535607e-38
-0.01284762 0.057476193 0.71000004 1.162743e-38
-0.011495238 0.057476193 0.71000004 1.1535234e-38
-0.010157143 0.057557143 0.71100003 1.190295e-38
-0.0088276202 0.057719052 0.71300006 1.0796602e-38
-0.0074800006 0.057800002 0.71400005 1.0059035e-38
-0.0061457143 0.058042858 0.71700001 1.0059035e-38
-0.0047933338 0.058204763 0.71900004 9.2289237e-39
-0.0034285716 0.058285713 0.72000003 9.136728e-39
-0.0020657144 0.058528576 0.72300005 9.410794e-39
-0.00068857148 0.058528576 0.72300005 9.3185984e-39
0.00069047621 0.058690481 0.72500002 9.7770626e-39
0.0020714288 0.058690481 0.72500002 1.447904e-38
-0.071699999 0.059408572 0.71700001 1.1620993e-38
-0.070236191 0.059325717 0.71600002 1.1438372e-38
-0.068872385 0.059325717 0.71600002 8.8568943e-39
-0.067320004 0.059160002 0.71400005 8.3991378e-39
-0.065867618 0.059077147 0.71300006 9.9664635e-39
-0.064328574 0.058911432 0.71100003 9.6901933e-39
-0.062885717 0.058828574 0.71000004 9.8745845e-39
-0.061533332 0.058828574 0.71000004 9.3228667e-39
-0.060011428 0.058662858 0.708 8.7696929e-39
-0.058580004 0.058580004 0.70700002 8.3116015e-39
-0.057233334 0.058580004 0.70700002 1.1261862e-38
-0.055886667 0.058580004 0.70700002 1.1718922e-38
-0.054462858 0.058497142 0.70600003 1.2733074e-38
-0.052967623 0.058331434 0.70400006 1.300968e-38
-0.051626671 0.058331434 0.70400006 1.4300419e-38
-0.050285716 0.058331434 0.70400006 1.4668118e-38
-0.048875239 0.058248568 0.70300001 1.5405683e-38
-0.047400955 0.05808286 0.70100003 1.5865567e-38
-0.046065718 0.05808286 0.70100003 1.6510936e-38
-0.044730477 0.05808286 0.70100003 1.6326192e-38
-0.04339524 0.05808286 0.70100003 1.6233996e-38
-0.042060003 0.05808286 0.70100003 1.6142883e-38
-0.04066667 0.058000006 0.70000005 1.6511665e-38
-0.039333336 0.058000006 0.70000005 1.641947e-38
-0.038054287 0.05808286 0.70100003 1.6235078e-38
-0.036719047 0.05808286 0.70100003 1.6143246e-38
-0.035383813 0.05808286 0.70100003 1.6143246e-38
-0.034048576 0.05808286 0.70100003 1.5590075e-38
-0.032713335 0.05808286 0.70100003 1.5497879e-38
-0.031378098 0.05808286 0.70100003 1.476175e-38
-0.030128572 0.058248568 0.70300001 1.4392968e-38
-0.028789524 0.058248568 0.70300001 1.4209295e-38
-0.027450476 0.058248568 0.70300001 1.3563926e-38
-0.026148573 0.058331434 0.70400006 1.3105083e-38
-0.024807621 0.058331434 0.70400006 1.3012888e-38
-0.023466667 0.058331434 0.70400006 1.3104362e-38
-0.022188572 0.058497142 0.70600003 1.3012166e-38
-0.020843811 0.058497142 0.70600003 1.2644102e-38
-0.019499049 0.058497142 0.70600003 1.2644102e-38
-0.018154286 0.058497142 0.70600003 1.2828478e-38
-0.016809525 0.058497142 0.70600003 1.2551891e-38
-0.015486666 0.058580004 0.70700002 1.2089506e-38
-0.01416 0.058662858 0.708 1.1351941e-38
-0.01284762 0.058828574 0.71000004 1.0615445e-38
-0.011495238 0.058828574 0.71000004 9.6012935e-39
-0.010157143 0.058911432 0.71100003 9.9690068e-39
-0.0088276202 0.059077147 0.71300006 9.8768112e-39
-0.0075009526 0.059325717 0.71600002 9.9664887e-39
-0.0061457143 0.059408572 0.71700001 1.0058684e-38
-0.0047999998 0.059657145 0.72000003 1.0334545e-38
-0.0034285716 0.059657145 0.72000003 1.0518937e-38
-0.0020657144 0.059905719 0.72300005 1.097812e-38
-0.00068857148 0.059905719 0.72300005 1.0424946e-38
0.00069047621 0.060071427 0.72500002 1.097488e-38
0.0020714288 0.060071427 0.72500002 1.4570509e-38
-0.071900003 0.060943812 0.71900004 1.2265634e-38
-0.070334285 0.060774285 0.71700001 1.1254704e-38
-0.068872385 0.060689528 0.71600002 8.6732261e-39
-0.067508571 0.060689528 0.71600002 8.3980434e-39
-0.065960005 0.060520004 0.71400005 9.5043909e-39
-0.064509533 0.060435243 0.71300006 9.5980047e-39
-0.062974289 0.060265716 0.71100003 9.7823959e-39
-0.061533332 0.060180955 0.71000004 8.405602e-39
-0.060180955 0.060180955 0.71000004 7.2992544e-39
-0.058662858 0.060011428 0.708 6.6552807e-39
-0.057314284 0.060011428 0.708 8.4991933e-39
-0.055886667 0.059926666 0.70700002 1.0797644e-38
-0.054462858 0.059841909 0.70600003 1.2088382e-38
-0.053118095 0.059841909 0.70600003 1.3470266e-38
-0.051626671 0.059672385 0.70400006 1.402344e-38
-0.050285716 0.059672385 0.70400006 1.4391869e-38
-0.048875239 0.05958762 0.70300001 1.4484065e-38
-0.047536191 0.05958762 0.70300001 1.4761005e-38
-0.046197142 0.05958762 0.70300001 1.4945396e-38
-0.044858098 0.05958762 0.70300001 1.4945409e-38
-0.04339524 0.059418097 0.70100003 1.4853213e-38
-0.042060003 0.059418097 0.70100003 1.4578065e-38
-0.040724762 0.059418097 0.70100003 1.4670261e-38
-0.039389525 0.059418097 0.70100003 1.4670624e-38
-0.038162857 0.05958762 0.70300001 1.4394037e-38
-0.036823809 0.05958762 0.70300001 1.4576633e-38
-0.035484761 0.05958762 0.70300001 1.4392242e-38
-0.034145713 0.05958762 0.70300001 1.393234e-38
-0.032806665 0.05958762 0.70300001 1.4024536e-38
-0.03146762 0.05958762 0.70300001 1.3748665e-38
-0.030128572 0.05958762 0.70300001 1.384086e-38
-0.028789524 0.05958762 0.70300001 1.420929e-38
-0.027450476 0.05958762 0.70300001 1.356392e-38
-0.026148573 0.059672385 0.70400006 1.3288756e-38
-0.024807621 0.059672385 0.70400006 1.3104365e-38
-0.023533335 0.059841909 0.70600003 1.3288403e-38
-0.022188572 0.059841909 0.70600003 1.2827424e-38
-0.020843811 0.059841909 0.70600003 1.291961e-38
-0.019499049 0.059841909 0.70600003 1.3011806e-38
-0.018154286 0.059841909 0.70600003 1.2735569e-38
-0.016833335 0.059926666 0.70700002 1.1998004e-38
-0.015486666 0.059926666 0.70700002 1.1351581e-38
-0.014200001 0.060180955 0.71000004 1.1259386e-38
-0.012865715 0.060265716 0.71100003 1.0615445e-38
-0.011511429 0.060265716 0.71100003 9.6934891e-39
-0.010185715 0.060435243 0.71300006 1.0059773e-38
-0.0088276202 0.060435243 0.71300006 1.0244164e-38
-0.0075009526 0.060689528 0.71600002 1.0702987e-38
-0.0061457143 0.060774285 0.71700001 1.0887379e-38
-0.0047999998 0.061028574 0.72000003 1.1439483e-38
-0.0034285716 0.061028574 0.72000003 1.1255092e-38
-0.0020657144 0.061282866 0.72300005 1.1162168e-38
-0.00068857148 0.061282866 0.72300005 1.0608994e-38
0.00069047621 0.061452381 0.72500002 1.134366e-38
0.0020714288 0.061452381 0.72500002 1.4478311e-38
-0.070334285 0.062139999 0.71700001 1.1346902e-38
-0.068872385 0.06205333 0.71600002 8.7654246e-39
-0.067508571 0.06205333 0.71600002 7.9388631e-39
-0.065960005 0.061880007 0.71400005 8.1232543e-39
-0.064599998 0.061880007 0.71400005 8.2165444e-39
-0.062974289 0.061620004 0.71100003 9.9682613e-39
-0.061620004 0.061620004 0.71100003 9.7860253e-39
-0.060180955 0.061533332 0.71000004 1.0615786e-38
-0.058662858 0.061360002 0.708 9.9696851e-39
-0.057314284 0.061360002 0.708 9.23212e-39
-0.055886667 0.061273329 0.70700002 9.6938198e-39
-0.054540001 0.061273329 0.70700002 1.2275297e-38
-0.053118095 0.061186668 0.70600003 1.4299648e-38
-0.051626671 0.061013337 0.70400006 1.4760626e-38
-0.050285716 0.061013337 0.70400006 1.5129059e-38
-0.048944768 0.061013337 0.70400006 1.531345e-38
-0.047536191 0.060926665 0.70300001 1.4945746e-38
-0.046197142 0.060926665 0.70300001 1.4484768e-38
-0.044858098 0.060926665 0.70300001 1.4208554e-38
-0.043519046 0.060926665 0.70300001 1.4208554e-38
-0.042180002 0.060926665 0.70300001 1.4485497e-38
-0.04084095 0.060926665 0.70300001 1.4485497e-38
-0.039501905 0.060926665 0.70300001 1.4301476e-38
-0.038162857 0.060926665 0.70300001 1.4301476e-38
-0.036823809 0.060926665 0.70300001 1.420928e-38
-0.035484761 0.060926665 0.70300001 1.4117084e-38
-0.034145713 0.060926665 0.70300001 1.4209277e-38
-0.032806665 0.060926665 0.70300001 1.4301473e-38
-0.03146762 0.060926665 0.70300001 1.4025602e-38
-0.030128572 0.060926665 0.70300001 1.4117798e-38
-0.028789524 0.060926665 0.70300001 1.4301838e-38
-0.027450476 0.060926665 0.70300001 1.4025252e-38
-0.026148573 0.061013337 0.70400006 1.3657535e-38
-0.024807621 0.061013337 0.70400006 1.3288753e-38
-0.023533335 0.061186668 0.70600003 1.2366827e-38
-0.022188572 0.061186668 0.70600003 1.1813654e-38
-0.020843811 0.061186668 0.70600003 1.1722878e-38
-0.019526666 0.061273329 0.70700002 1.1722878e-38
-0.01818 0.061273329 0.70700002 1.061619e-38
-0.016857143 0.061360002 0.708 1.0339603e-38
-0.015508572 0.061360002 0.708 1.0707301e-38
-0.01422 0.061620004 0.71100003 1.135267e-38
-0.012865715 0.061620004 0.71100003 1.1812559e-38
-0.011511429 0.061620004 0.71100003 1.2181342e-38
-0.010185715 0.061793335 0.71300006 1.3008597e-38
-0.0088400003 0.061880007 0.71400005 1.3561771e-38
-0.0075009526 0.06205333 0.71600002 1.3652534e-38
-0.0061457143 0.062139999 0.71700001 1.3560339e-38
-0.0047999998 0.062400002 0.72000003 1.3466358e-38
-0.0034285716 0.062400002 0.72000003 1.2728793e-38
-0.0020657144 0.062660009 0.72300005 1.1991575e-38
-0.00069047621 0.062833332 0.72500002 1.125401e-38
0.00069047621 0.062833332 0.72500002 1.1436224e-38
0.0020714288 0.062833332 0.72500002 1.4294288e-38
-0.070334285 0.063505717 0.71700001 1.1071044e-38
-0.068968572 0.063505717 0.71700001 8.8583489e-39
-0.067508571 0.063417144 0.71600002 7.6633552e-39
-0.066144764 0.063417144 0.71600002 7.6633552e-39
-0.064599998 0.063240007 0.71400005 7.4814722e-39
-0.063151434 0.063151434 0.71300006 8.4956242e-39
-0.061620004 0.062974289 0.71100003 9.0459295e-39
-0.060180955 0.062885717 0.71000004 1.0336668e-38
-0.058662858 0.062708572 0.708 1.0795849e-38
-0.057314284 0.062708572 0.708 1.033487e-38
-0.055965714 0.062708572 0.708 1.0428145e-38
-0.054540001 0.062619999 0.70700002 1.264084e-38
-0.053118095 0.062531434 0.70600003 1.310255e-38
-0.051773336 0.062531434 0.70600003 1.4669876e-38
-0.050285716 0.062354293 0.70400006 1.4853185e-38
-0.048944768 0.062354293 0.70400006 1.4760989e-38
-0.047603812 0.062354293 0.70400006 1.4669494e-38
-0.046197142 0.062265713 0.70300001 1.4577299e-38
-0.044858098 0.062265713 0.70300001 1.4668806e-38
-0.043519046 0.062265713 0.70300001 1.4761002e-38
-0.042180002 0.062265713 0.70300001 1.4669888e-38
-0.04084095 0.062265713 0.70300001 1.4762084e-38
-0.039501905 0.062265713 0.70300001 1.4577709e-38
-0.038162857 0.062265713 0.70300001 1.4577709e-38
-0.036823809 0.062265713 0.70300001 1.4485867e-38
-0.035484761 0.062265713 0.70300001 1.4301476e-38
-0.034145713 0.062265713 0.70300001 1.420928e-38
-0.032806665 0.062265713 0.70300001 1.4485867e-38
-0.03146762 0.062265713 0.70300001 1.4301473e-38
-0.030128572 0.062265713 0.70300001 1.4117082e-38
-0.028789524 0.062265713 0.70300001 1.4209643e-38
-0.027450476 0.062265713 0.70300001 1.384086e-38
-0.026148573 0.062354293 0.70400006 1.3013611e-38
-0.024878096 0.062531434 0.70600003 1.2460437e-38
-0.023533335 0.062531434 0.70600003 1.1814004e-38
-0.022188572 0.062531434 0.70600003 1.1998395e-38
-0.020873332 0.062619999 0.70700002 1.1631771e-38
-0.019526666 0.062619999 0.70700002 1.1078597e-38
-0.018205713 0.062708572 0.708 9.6971143e-39
-0.016857143 0.062708572 0.708 1.0803462e-38
-0.015552383 0.062885717 0.71000004 1.2549421e-38
-0.01422 0.062974289 0.71100003 1.2641617e-38
-0.012865715 0.062974289 0.71100003 1.2824939e-38
-0.01154381 0.063151434 0.71300006 1.3101525e-38
-0.010185715 0.063151434 0.71300006 1.4296834e-38
-0.0088647623 0.063417144 0.71600002 1.4296834e-38
-0.0075009526 0.063417144 0.71600002 1.3652191e-38
-0.0061628572 0.063682862 0.71900004 1.3559995e-38
-0.0047999998 0.063771427 0.72000003 1.2914274e-38
-0.0034285716 0.063771427 0.72000003 1.2084513e-38
-0.0020657144 0.064037152 0.72300005 1.1899385e-38
-0.00069047621 0.064214289 0.72500002 1.0885233e-38
-0.070334285 0.064871423 0.71700001 1.1070691e-38
-0.068968572 0.064871423 0.71700001 8.8579958e-39
-0.067602858 0.064871423 0.71700001 8.4931187e-39
-0.066144764 0.064780958 0.71600002 8.7697055e-39
-0.064780958 0.064780958 0.71600002 8.0343181e-39
-0.063151434 0.064509533 0.71300006 9.4172526e-39
-0.061620004 0.064328574 0.71100003 9.5094286e-39
-0.060265716 0.064328574 0.71100003 9.0484504e-39
-0.058828574 0.064238101 0.71000004 9.2317529e-39
-0.057314284 0.064057142 0.708 9.2317529e-39
-0.055965714 0.064057142 0.708 9.5094412e-39
-0.054540001 0.063966669 0.70700002 9.5094412e-39
-0.053193334 0.063966669 0.70700002 9.6023501e-39
-0.051773336 0.063876189 0.70600003 1.0432111e-38
-0.050285716 0.063695244 0.70400006 1.0983837e-38
-0.048944768 0.063695244 0.70400006 1.1629206e-38
-0.047603812 0.063695244 0.70400006 1.1445887e-38
-0.04626286 0.063695244 0.70400006 1.3842974e-38
-0.044858098 0.063604765 0.70300001 1.4946469e-38
-0.043519046 0.063604765 0.70300001 1.4762078e-38
-0.042180002 0.063604765 0.70300001 1.4854279e-38
-0.04084095 0.063604765 0.70300001 1.4946475e-38
-0.039501905 0.063604765 0.70300001 1.4853943e-38
-0.038162857 0.063604765 0.70300001 1.4669552e-38
-0.036823809 0.063604765 0.70300001 1.439439e-38
-0.035484761 0.063604765 0.70300001 1.4117803e-38
-0.034145713 0.063604765 0.70300001 1.3565721e-38
-0.032806665 0.063604765 0.70300001 1.338133e-38
-0.03146762 0.063604765 0.70300001 1.2275711e-38
-0.030128572 0.063604765 0.70300001 1.1906928e-38
-0.028789524 0.063604765 0.70300001 1.181507e-38
-0.027450476 0.063604765 0.70300001 1.1907266e-38
-0.026148573 0.063695244 0.70400006 1.2090576e-38
-0.024878096 0.063876189 0.70600003 1.1813989e-38
-0.023533335 0.063876189 0.70600003 1.2181727e-38
-0.022188572 0.063876189 0.70600003 1.3656857e-38
-0.020873332 0.063966669 0.70700002 1.4300775e-38
-0.019554285 0.064057142 0.708 1.4300775e-38
-0.018205713 0.064057142 0.708 1.5313848e-38
-0.016904762 0.064238101 0.71000004 1.6235804e-38
-0.015552383 0.064238101 0.71000004 1.6325854e-38
-0.01422 0.064328574 0.71100003 1.6233659e-38
-0.012901906 0.064509533 0.71300006 1.5956366e-38
-0.01154381 0.064509533 0.71300006 1.5771974e-38
-0.010185715 0.064509533 0.71300006 1.5218086e-38
-0.0088647623 0.064780958 0.71600002 1.4757108e-38
-0.0075114286 0.064871423 0.71700001 1.383623e-38
-0.0061628572 0.065052383 0.71900004 1.3928426e-38
-0.0047999998 0.065142855 0.72000003 1.3649677e-38
-0.0034285716 0.065142855 0.72000003 1.2543329e-38
-0.0020657144 0.065414287 0.72300005 1.1990872e-38
-0.00069047621 0.065595239 0.72500002 1.0700133e-38
0.00069333339 0.065866672 0.72800004 1.0883063e-38
0.00208 0.065866672 0.72800004 1.3741127e-38
-0.072499998 0.066976197 0.72500002 1.2634424e-38
-0.070628576 0.066514291 0.72000003 1.0610789e-38
-0.069160953 0.066421911 0.71900004 9.6888326e-39
-0.067791432 0.066421911 0.71900004 9.8757028e-39
-0.066237144 0.066237144 0.71700001 9.0459421e-39
-0.064780958 0.066144764 0.71600002 7.8495513e-39
-0.063240007 0.065960005 0.71400005 1.0431029e-38
-0.061793335 0.065867618 0.71300006 1.1168594e-38
-0.060265716 0.065682858 0.71100003 1.0246638e-38
-0.058828574 0.065590478 0.71000004 9.7860127e-39
-0.057314284 0.065405719 0.708 1.0154795e-38
-0.055965714 0.065405719 0.708 1.1719262e-38
-0.05461714 0.065405719 0.708 1.070511e-38
-0.053193334 0.065313332 0.70700002 7.3032173e-39
-0.051846668 0.065313332 0.70700002 6.7500435e-39
-0.050428573 0.065220952 0.70600003 7.0248101e-39
-0.048944768 0.065036193 0.70400006 8.1311577e-39
-0.047603812 0.065036193 0.70400006 8.4955653e-39
-0.04626286 0.065036193 0.70400006 1.3935107e-38
-0.044921909 0.065036193 0.70400006 1.5039394e-38
-0.043580953 0.065036193 0.70400006 1.4578416e-38
-0.042180002 0.064943813 0.70300001 1.4394375e-38
-0.04084095 0.064943813 0.70300001 1.448657e-38
-0.039501905 0.064943813 0.70300001 1.4670261e-38
-0.038162857 0.064943813 0.70300001 1.4578065e-38
-0.03687619 0.065036193 0.70400006 1.365863e-38
-0.035535242 0.065036193 0.70400006 1.3289847e-38
-0.034194287 0.065036193 0.70400006 1.1909797e-38
-0.032853335 0.065036193 0.70400006 1.1909797e-38
-0.031512383 0.065036193 0.70400006 1.1540304e-38
-0.03017143 0.065036193 0.70400006 1.1632499e-38
-0.02883048 0.065036193 0.70400006 1.1445234e-38
-0.027489526 0.065036193 0.70400006 1.2459386e-38
-0.026222857 0.065220952 0.70600003 1.3287349e-38
-0.024878096 0.065220952 0.70600003 1.3656131e-38
-0.023533335 0.065220952 0.70600003 1.4300071e-38
-0.022220001 0.065313332 0.70700002 1.4576658e-38
-0.020873332 0.065313332 0.70700002 1.5680495e-38
-0.019554285 0.065405719 0.708 1.6141473e-38
-0.018205713 0.065405719 0.708 1.6418403e-38
-0.016904762 0.065590478 0.71000004 1.6418403e-38
-0.015552383 0.065590478 0.71000004 1.6417684e-38
-0.01422 0.065682858 0.71100003 1.6325489e-38
-0.012901906 0.065867618 0.71300006 1.6324419e-38
-0.01154381 0.065867618 0.71300006 1.5586854e-38
-0.010185715 0.065867618 0.71300006 1.5033707e-38
-0.0088771433 0.066237144 0.71700001 1.4019555e-38
-0.0075114286 0.066237144 0.71700001 1.3651136e-38
-0.0061714291 0.066514291 0.72000003 1.3466744e-38
-0.0047999998 0.066514291 0.72000003 1.365003e-38
-0.0034380956 0.06669905 0.72200006 1.3004661e-38
-0.0020714288 0.066976197 0.72500002 1.2359654e-38
-0.00069047621 0.066976197 0.72500002 1.0884524e-38
0.00069333339 0.067253336 0.72800004 1.1159274e-38
0.0020857144 0.067438096 0.73000002 1.3832947e-38
-0.074084766 0.068545721 0.72700006 1.300213e-38
-0.072499998 0.068357147 0.72500002 1.2356761e-38
-0.070824765 0.068074286 0.72200006 1.0977776e-38
-0.06925714 0.067885719 0.72000003 1.005582e-38
-0.067885719 0.067885719 0.72000003 1.042782e-38
-0.066237144 0.067602858 0.71700001 1.1534168e-38
-0.064780958 0.067508571 0.71600002 1.1718168e-38
-0.063240007 0.067320004 0.71400005 1.2179146e-38
-0.061793335 0.067225717 0.71300006 1.3377316e-38
-0.060435243 0.067225717 0.71300006 1.3746099e-38
-0.058828574 0.066942856 0.71000004 1.3378055e-38
-0.057476193 0.066942856 0.71000004 1.3931229e-38
-0.055965714 0.066754289 0.708 1.4115635e-38
-0.05461714 0.066754289 0.708 1.4300027e-38
-0.053193334 0.066660002 0.70700002 1.3564617e-38
-0.051846668 0.066660002 0.70700002 1.3103639e-38
-0.050428573 0.066565715 0.70600003 1.3103633e-38
-0.04908381 0.066565715 0.70600003 1.2827046e-38
-0.047603812 0.066377148 0.70400006 1.209054e-38
-0.04626286 0.066377148 0.70400006 1.3012497e-38
-0.044921909 0.066377148 0.70400006 1.2735592e-38
-0.043580953 0.066377148 0.70400006 1.2090222e-38
-0.042240005 0.066377148 0.70400006 1.2367506e-38
-0.040899049 0.066377148 0.70400006 1.2459701e-38
-0.039558098 0.066377148 0.70400006 1.3380233e-38
-0.038217146 0.066377148 0.70400006 1.3656819e-38
-0.03687619 0.066377148 0.70400006 1.3288768e-38
-0.035535242 0.066377148 0.70400006 1.2919986e-38
-0.034194287 0.066377148 0.70400006 1.3473525e-38
-0.032853335 0.066377148 0.70400006 1.4672069e-38
-0.031512383 0.066377148 0.70400006 1.6880082e-38
-0.03017143 0.066377148 0.70400006 1.7156669e-38
-0.02883048 0.066377148 0.70400006 1.770806e-38
-0.027489526 0.066377148 0.70400006 1.8261234e-38
-0.026222857 0.066565715 0.70600003 1.8076502e-38
-0.024878096 0.066565715 0.70600003 1.8168698e-38
-0.023566667 0.066660002 0.70700002 1.7799915e-38
-0.022251429 0.066754289 0.708 1.770772e-38
-0.020902857 0.066754289 0.708 1.6694313e-38
-0.019609524 0.066942856 0.71000004 1.6602118e-38
-0.018257145 0.066942856 0.71000004 1.6234722e-38
-0.016904762 0.066942856 0.71000004 1.4851788e-38
-0.015574286 0.067037143 0.71100003 1.3563573e-38
-0.01422 0.067037143 0.71100003 1.2549421e-38
-0.012901906 0.067225717 0.71300006 9.2322321e-39
-0.01154381 0.067225717 0.71300006 8.5868627e-39
-0.010200001 0.067320004 0.71400005 8.1244679e-39
-0.0088771433 0.067602858 0.71700001 6.5571421e-39
-0.0075114286 0.067602858 0.71700001 6.3745712e-39
-0.0061714291 0.067885719 0.72000003 6.0057887e-39
-0.0047999998 0.067885719 0.72000003 8.030117e-39
-0.0034380956 0.068074286 0.72200006 1.2271116e-38
-0.0020714288 0.068357147 0.72500002 1.3096123e-38
-0.00069333339 0.068640009 0.72800004 1.1252211e-38
0.00069523812 0.068828575 0.73000002 1.1067088e-38
0.0020857144 0.068828575 0.73000002 1.3464175e-38
-0.074084766 0.069930486 0.72700006 1.3462379e-38
-0.072700009 0.069930486 0.72700006 1.281701e-38
-0.071119048 0.069738097 0.72500002 1.2174517e-38
-0.069449529 0.069449529 0.72200006 1.0607192e-38
-0.067885719 0.06925714 0.72000003 1.0702587e-38
-0.066421911 0.069160953 0.71900004 1.2085521e-38
-0.064871423 0.068968572 0.71700001 1.2730165e-38
-0.063417144 0.068872385 0.71600002 1.3006751e-38
-0.061880007 0.068680003 0.71400005 1.3743954e-38
-0.060435243 0.068583816 0.71300006 1.402054e-38
-0.058911432 0.068391435 0.71100003 1.3378058e-38
-0.057476193 0.06829524 0.71000004 1.3562449e-38
-0.055965714 0.068102859 0.708 1.3471332e-38
-0.05461714 0.068102859 0.708 1.3840115e-38
-0.05326857 0.068102859 0.708 1.3931955e-38
-0.051846668 0.068006672 0.70700002 1.402415e-38
-0.050500002 0.068006672 0.70700002 1.3471712e-38
-0.04908381 0.067910478 0.70600003 1.3010734e-38
-0.047739051 0.067910478 0.70600003 1.2274601e-38
-0.046394285 0.067910478 0.70600003 1.2366797e-38
-0.044921909 0.067718096 0.70400006 1.1629257e-38
-0.043580953 0.067718096 0.70400006 1.2551213e-38
-0.042240005 0.067718096 0.70400006 1.3655756e-38
-0.040899049 0.067718096 0.70400006 1.3840147e-38
-0.039558098 0.067718096 0.70400006 1.4114942e-38
-0.038217146 0.067718096 0.70400006 1.4391529e-38
-0.03687619 0.067718096 0.70400006 1.4116391e-38
-0.035535242 0.067718096 0.70400006 1.4392978e-38
-0.034194287 0.067718096 0.70400006 1.6877581e-38
-0.032853335 0.067718096 0.70400006 1.7707341e-38
-0.031512383 0.067718096 0.70400006 1.7799903e-38
-0.03017143 0.067718096 0.70400006 1.7984294e-38
-0.02883048 0.067718096 0.70400006 1.8444906e-38
-0.027489526 0.067718096 0.70400006 1.8260515e-38
-0.026222857 0.067910478 0.70600003 1.7616946e-38
-0.024913333 0.068006672 0.70700002 1.7616946e-38
-0.023600001 0.068102859 0.708 1.7892083e-38
-0.022251429 0.068102859 0.708 1.6970127e-38
-0.020902857 0.068102859 0.708 1.5866306e-38
-0.019609524 0.06829524 0.71000004 1.5036545e-38
-0.018257145 0.06829524 0.71000004 1.4209283e-38
-0.016928572 0.068391435 0.71100003 1.3748305e-38
-0.015574286 0.068391435 0.71100003 9.7925343e-39
-0.014260001 0.068583816 0.71300006 7.5798392e-39
-0.012901906 0.068583816 0.71300006 2.8869018e-39
-0.01156 0.068680003 0.71400005 4.2698363e-39
-0.010228572 0.068872385 0.71600002 7.2961519e-39
-0.0088771433 0.068968572 0.71700001 5.1756524e-39
-0.0075323815 0.069160953 0.71900004 2.7861541e-39
-0.0061628572 0.069160953 0.71900004 1.6798065e-39
-0.0047999998 0.06925714 0.72000003 7.1113501e-39
-0.0034428574 0.069545716 0.72300005 1.1905523e-38
-0.0020771429 0.069930486 0.72700006 1.3372357e-38
-0.00069523812 0.070219047 0.73000002 1.1436249e-38
0.00069523812 0.070219047 0.73000002 1.125147e-38
0.0020857144 0.070219047 0.73000002 1.3371969e-38
-0.074084766 0.071315244 0.72700006 1.3463812e-38
-0.072700009 0.071315244 0.72700006 1.2541855e-38
-0.071119048 0.071119048 0.72500002 1.1714988e-38
-0.069449529 0.070824765 0.72200006 9.3179019e-39
-0.067885719 0.070628576 0.72000003 8.4938571e-39
-0.066421911 0.070530482 0.71900004 1.0522161e-38
-0.064871423 0.070334285 0.71700001 1.1349388e-38
-0.063417144 0.070236191 0.71600002 1.1810366e-38
-0.061880007 0.07004001 0.71400005 1.135083e-38
-0.060520004 0.07004001 0.71400005 1.1719613e-38
-0.058911432 0.069745712 0.71100003 1.0522884e-38
-0.057476193 0.069647625 0.71000004 1.0154102e-38
-0.056123812 0.069647625 0.71000004 1.1075682e-38
-0.05461714 0.069451429 0.708 1.1167878e-38
-0.05326857 0.069451429 0.708 1.2274228e-38
-0.051919997 0.069451429 0.708 1.2550815e-38
-0.050500002 0.069353335 0.70700002 1.2918201e-38
-0.049153332 0.069353335 0.70700002 1.3840157e-38
-0.047806669 0.069353335 0.70700002 1.5681526e-38
-0.046394285 0.06925524 0.70600003 1.6050309e-38
-0.045049526 0.06925524 0.70600003 1.7432164e-38
-0.043704763 0.06925524 0.70600003 1.7893142e-38
-0.04236 0.06925524 0.70600003 1.8352714e-38
-0.040899049 0.069059052 0.70400006 1.8813692e-38
-0.039558098 0.069059052 0.70400006 1.8813692e-38
-0.038217146 0.069059052 0.70400006 1.8998083e-38
-0.03687619 0.069059052 0.70400006 1.8905531e-38
-0.035535242 0.069059052 0.70400006 1.8997727e-38
-0.034194287 0.069059052 0.70400006 1.8537483e-38
-0.032853335 0.069059052 0.70400006 1.8260896e-38
-0.031601906 0.06925524 0.70600003 1.8168332e-38
-0.030257143 0.06925524 0.70600003 1.8076136e-38
-0.028912382 0.06925524 0.70600003 1.779989e-38
-0.027567619 0.06925524 0.70600003 1.7062325e-38
-0.02626 0.069353335 0.70700002 1.5590072e-38
-0.024913333 0.069353335 0.70700002 1.4852507e-38
-0.023600001 0.069451429 0.708 1.2457578e-38
-0.022314286 0.069647625 0.71000004 1.1259035e-38
-0.020961907 0.069647625 0.71000004 9.4197273e-39
-0.019609524 0.069647625 0.71000004 8.4055753e-39
-0.018282857 0.069745712 0.71100003 2.7932222e-39
-0.016928572 0.069745712 0.71100003 1.8712659e-39
-0.015574286 0.069745712 0.71100003 9.5212625e-40
-0.014260001 0.069941908 0.71300006 1.1365175e-39
-0.012920001 0.07004001 0.71400005 9.4933487e-40
-0.011592381 0.070236191 0.71600002 1.9634868e-39
-0.010228572 0.070236191 0.71600002 3.7077348e-39
-0.0088771433 0.070334285 0.71700001 2.7857785e-39
-0.0075323815 0.070530482 0.71900004 1.2206501e-39
-0.0061628572 0.070530482 0.71900004 2.066635e-41
-0.0047999998 0.070628576 0.72000003 3.7041223e-39
-0.0034380956 0.070824765 0.72200006 1.0803186e-38
-0.00208 0.071413331 0.72800004 1.3464903e-38
-0.00069523812 0.071609527 0.73000002 1.1436599e-38
0.00069523812 0.071609527 0.73000002 1.1251126e-38
0.0020857144 0.071609527 0.73000002 1.3371626e-38
-0.074186668 0.072800003 0.72800004 1.3463814e-38
-0.072700009 0.072700009 0.72700006 1.2541858e-38
-0.071119048 0.072499998 0.72500002 1.1622077e-38
-0.069449529 0.072200008 0.72200006 9.1327946e-39
-0.067885719 0.072000004 0.72000003 7.9410113e-39
-0.066421911 0.071900003 0.71900004 1.0153706e-38
-0.064871423 0.071699999 0.71700001 9.5083692e-39
-0.063417144 0.071599998 0.71600002 1.0061543e-38
-0.061880007 0.071400002 0.71400005 9.6945583e-39
-0.060520004 0.071400002 0.71400005 1.0155536e-38
-0.058911432 0.071100004 0.71100003 9.3265073e-39
-0.057476193 0.071000002 0.71000004 1.0617246e-38
-0.056123812 0.071000002 0.71000004 1.2363941e-38
-0.05461714 0.070800006 0.708 1.300931e-38
-0.05326857 0.070800006 0.708 1.3194427e-38
-0.051919997 0.070800006 0.708 1.3286623e-38
-0.050571427 0.070800006 0.708 1.420715e-38
-0.049153332 0.070699997 0.70700002 1.5313498e-38
-0.047806669 0.070699997 0.70700002 1.7337473e-38
-0.046459999 0.070699997 0.70700002 1.8075038e-38
-0.045049526 0.070600003 0.70600003 1.7708423e-38
-0.043704763 0.070600003 0.70600003 1.7800619e-38
-0.04236 0.070600003 0.70600003 1.8168688e-38
-0.041015241 0.070600003 0.70600003 1.8260884e-38
-0.039670479 0.070600003 0.70600003 1.8629651e-38
-0.038325716 0.070600003 0.70600003 1.8629651e-38
-0.036980953 0.070600003 0.70600003 1.8354133e-38
-0.035636194 0.070600003 0.70600003 1.8077546e-38
-0.034291428 0.070600003 0.70600003 1.7525802e-38
-0.032946669 0.070600003 0.70600003 1.7249215e-38
-0.031601906 0.070600003 0.70600003 1.7433228e-38
-0.030257143 0.070600003 0.70600003 1.7156641e-38
-0.028912382 0.070600003 0.70600003 1.6143561e-38
-0.027567619 0.070600003 0.70600003 1.5866974e-38
-0.02626 0.070699997 0.70700002 1.375148e-38
-0.024948573 0.070800006 0.708 1.2368545e-38
-0.023666669 0.071000002 0.71000004 1.1446221e-38
-0.022314286 0.071000002 0.71000004 9.5101124e-39
-0.020961907 0.071000002 0.71000004 9.2338492e-39
-0.019637143 0.071100004 0.71100003 6.7445672e-39
-0.018282857 0.071100004 0.71100003 4.4483057e-39
-0.016928572 0.071100004 0.71100003 2.4200088e-39
-0.015574286 0.071100004 0.71100003 1.136128e-39
-0.014260001 0.071300007 0.71300006 2.0580843e-39
-0.012956191 0.071599998 0.71600002 1.687267e-39
-0.011592381 0.071599998 0.71600002 2.0560496e-39
-0.010242857 0.071699999 0.71700001 2.5135231e-39
-0.0088771433 0.071699999 0.71700001 1.4071755e-39
-0.0075323815 0.071900003 0.71900004 1.9560473e-39
-0.0061714291 0.072000004 0.72000003 4.8091723e-40
-0.0047999998 0.072000004 0.72000003 5.0816365e-39
-0.0034380956 0.072200008 0.72200006 1.1811918e-38
-0.00208 0.072800003 0.72800004 1.3556746e-38
-0.00069523812 0.072999999 0.73000002 1.1620637e-38
0.00069523812 0.072999999 0.73000002 1.0883416e-38
-0.074186668 0.074186668 0.72800004 1.3463458e-38
-0.072800003 0.074186668 0.72800004 1.2725893e-38
-0.071119048 0.073880956 0.72500002 1.1715357e-38
-0.069545716 0.073677152 0.72300005 9.0416836e-39
-0.068074286 0.073575243 0.72200006 7.8499269e-39
-0.066514291 0.073371425 0.72000003 1.0154818e-38
-0.065052383 0.073269531 0.71900004 1.0429259e-38
-0.063505717 0.073065713 0.71700001 1.1443411e-38
-0.06205333 0.072963811 0.71600002 1.365356e-38
-0.060520004 0.072760001 0.71400005 1.4575516e-38
-0.059160002 0.072760001 0.71400005 1.5680797e-38
-0.057557143 0.072454289 0.71100003 1.6418363e-38
-0.056123812 0.07235238 0.71000004 1.7060543e-38
-0.054771431 0.07235238 0.71000004 1.7890303e-38
-0.05326857 0.072148569 0.708 1.7798113e-38
-0.051919997 0.072148569 0.708 1.8166896e-38
-0.050571427 0.072148569 0.708 1.8167972e-38
-0.049222857 0.072148569 0.708 1.862895e-38
-0.047874287 0.072148569 0.708 1.8996641e-38
-0.046459999 0.072046667 0.70700002 1.9181032e-38
-0.045113333 0.072046667 0.70700002 1.9087767e-38
-0.043704763 0.071944758 0.70600003 1.8995572e-38
-0.04236 0.071944758 0.70600003 1.8719325e-38
-0.041015241 0.071944758 0.70600003 1.7705173e-38
-0.039670479 0.071944758 0.70600003 1.7521135e-38
-0.038325716 0.071944758 0.70600003 1.7060157e-38
-0.036980953 0.071944758 0.70600003 1.6601299e-38
-0.035636194 0.071944758 0.70600003 1.6509104e-38
-0.034291428 0.071944758 0.70600003 1.614385e-38
-0.032993335 0.072046667 0.70700002 1.6051654e-38
-0.031646665 0.072046667 0.70700002 1.4762319e-38
-0.030300001 0.072046667 0.70700002 1.3287189e-38
-0.028953334 0.072046667 0.70700002 1.3012011e-38
-0.027606668 0.072046667 0.70700002 1.218225e-38
-0.026297143 0.072148569 0.708 1.052772e-38
-0.025019048 0.07235238 0.71000004 9.7901661e-39
-0.023666669 0.07235238 0.71000004 9.421797e-39
-0.022314286 0.07235238 0.71000004 7.3934931e-39
-0.020961907 0.07235238 0.71000004 4.4511517e-39
-0.019637143 0.072454289 0.71100003 3.5292094e-39
-0.018282857 0.072454289 0.71100003 1.8750943e-39
-0.016928572 0.072454289 0.71100003 1.4141231e-39
-0.015618097 0.072658099 0.71300006 9.5280028e-40
-0.014260001 0.072658099 0.71300006 1.5981697e-39
-0.012956191 0.072963811 0.71600002 1.0419074e-39
-0.011592381 0.072963811 0.71600002 1.5028856e-39
-0.010242857 0.073065713 0.71700001 2.144749e-39
-0.0088771433 0.073065713 0.71700001 1.130597e-39
-0.0075323815 0.073269531 0.71900004 1.218855e-39
-0.0061714291 0.073371425 0.72000003 1.9951688e-41
-0.0047999998 0.073371425 0.72000003 3.8863457e-39
-0.0034380956 0.073575243 0.72200006 1.0801018e-38
-0.00208 0.074186668 0.72800004 1.3189035e-38
-0.00069523812 0.074390478 0.73000002 1.1990492e-38
0.00069523812 0.074390478 0.73000002 1.1160022e-38
0.0020857144 0.074390478 0.73000002 1.3003935e-38
-0.074390478 0.07578095 0.73000002 1.3463458e-38
-0.072800003 0.07557334 0.72800004 1.2541502e-38
-0.071315244 0.075469524 0.72700006 1.180755e-38
-0.069545716 0.075054288 0.72300005 9.9636371e-39
-0.068074286 0.074950479 0.72200006 9.3218382e-39
-0.066514291 0.074742861 0.72000003 1.0889164e-38
-0.065142855 0.074742861 0.72000003 1.1716408e-38
-0.063505717 0.074431427 0.71700001 1.3375929e-38
-0.062139999 0.074431427 0.71700001 1.4848188e-38
-0.060689528 0.074327618 0.71600002 1.6323318e-38
-0.059160002 0.07412 0.71400005 1.6324763e-38
-0.057557143 0.073808573 0.71100003 1.6877937e-38
-0.056202859 0.073808573 0.71100003 1.7060533e-38
-0.054771431 0.073704764 0.71000004 1.7521511e-38
-0.05341905 0.073704764 0.71000004 1.7613356e-38
-0.051919997 0.073497139 0.708 1.7889943e-38
-0.050571427 0.073497139 0.708 1.8259076e-38
-0.049222857 0.073497139 0.708 1.8351272e-38
-0.047874287 0.073497139 0.708 1.8351622e-38
-0.046459999 0.073393337 0.70700002 1.7982839e-38
-0.045113333 0.073393337 0.70700002 1.7890268e-38
-0.043766666 0.073393337 0.70700002 1.7152703e-38
-0.04236 0.073289528 0.70600003 1.6782103e-38
-0.041015241 0.073289528 0.70600003 1.6874299e-38
-0.039670479 0.073289528 0.70600003 1.7243045e-38
-0.038325716 0.073289528 0.70600003 1.6321089e-38
-0.036980953 0.073289528 0.70600003 1.5309745e-38
-0.035686668 0.073393337 0.70700002 1.6416092e-38
-0.034339998 0.073393337 0.70700002 1.7338716e-38
-0.032993335 0.073393337 0.70700002 1.724652e-38
-0.031646665 0.073393337 0.70700002 1.5499803e-38
-0.030300001 0.073393337 0.70700002 1.3287108e-38
-0.028953334 0.073393337 0.70700002 1.3287841e-38
-0.027606668 0.073393337 0.70700002 1.2273689e-38
-0.026297143 0.073497139 0.708 1.1998523e-38
-0.025019048 0.073704764 0.71000004 1.1629746e-38
-0.023666669 0.073704764 0.71000004 1.0157912e-38
-0.022314286 0.073704764 0.71000004 7.4842384e-39
-0.020961907 0.073704764 0.71000004 4.2674807e-39
-0.019637143 0.073808573 0.71100003 4.2674807e-39
-0.018282857 0.073808573 0.71100003 2.0587975e-39
-0.016928572 0.073808573 0.71100003 1.8744063e-39
-0.015618097 0.074016191 0.71300006 1.0439716e-39
-0.014260001 0.074016191 0.71300006 1.3205584e-39
-0.012956191 0.074327618 0.71600002 9.4794198e-40
-0.011592381 0.074327618 0.71600002 1.5933114e-39
-0.010242857 0.074431427 0.71700001 2.2369572e-39
-0.0088771433 0.074431427 0.71700001 4.8524023e-40
-0.0075323815 0.074639052 0.71900004 8.4967312e-40
-0.0061714291 0.074742861 0.72000003 1.2184556e-39
-0.0047999998 0.074742861 0.72000003 4.2547625e-39
-0.0034380956 0.074950479 0.72200006 1.0708457e-38
-0.0020857144 0.07578095 0.73000002 1.2911389e-38
-0.00069523812 0.07578095 0.73000002 1.1897237e-38
0.00069523812 0.07578095 0.73000002 1.1252558e-38
0.0020857144 0.07578095 0.73000002 1.2635493e-38
-0.072999999 0.07717143 0.73000002 1.2265271e-38
-0.071413331 0.076960005 0.72800004 1.2359995e-38
-0.069545716 0.076431431 0.72300005 1.2636582e-38
-0.068074286 0.076325722 0.72200006 1.2914241e-38
-0.06669905 0.076325722 0.72200006 1.4112784e-38
-0.065142855 0.076114289 0.72000003 1.4664162e-38
-0.063682862 0.076008573 0.71900004 1.5678314e-38
-0.062139999 0.075797141 0.71700001 1.586199e-38
-0.060689528 0.075691432 0.71600002 1.6599555e-38
-0.059325717 0.075691432 0.71600002 1.6967984e-38
-0.057800002 0.075480007 0.71400005 1.7521158e-38
-0.056202859 0.075162858 0.71100003 1.7889568e-38
-0.054771431 0.075057149 0.71000004 1.8073959e-38
-0.05341905 0.075057149 0.71000004 1.7704092e-38
-0.052066669 0.075057149 0.71000004 1.5860179e-38
-0.050714288 0.075057149 0.71000004 1.558144e-38
-0.049222857 0.074845709 0.708 1.4751679e-38
-0.047874287 0.074845709 0.708 1.2537202e-38
-0.046525717 0.074845709 0.708 1.1615245e-38
-0.045113333 0.074740008 0.70700002 1.2353039e-38
-0.043766666 0.074740008 0.70700002 1.2353039e-38
-0.04242 0.074740008 0.70700002 1.2815715e-38
-0.041015241 0.074634291 0.70600003 1.3645463e-38
-0.039670479 0.074634291 0.70600003 1.4199705e-38
-0.038380001 0.074740008 0.70700002 1.3830928e-38
-0.037033334 0.074740008 0.70700002 1.3557574e-38
-0.035686668 0.074740008 0.70700002 1.6507806e-38
-0.034339998 0.074740008 0.70700002 1.6142241e-38
-0.033040002 0.074845709 0.708 1.6326629e-38
-0.031691428 0.074845709 0.708 1.4947662e-38
-0.030342858 0.074845709 0.708 1.3011583e-38
-0.028994286 0.074845709 0.708 1.2184346e-38
-0.027645715 0.074845709 0.708 1.1262404e-38
-0.026371431 0.075057149 0.71000004 1.0617762e-38
-0.025019048 0.075057149 0.71000004 1.0248985e-38
-0.023700001 0.075162858 0.71100003 8.4083639e-39
-0.022345716 0.075162858 0.71100003 6.8410382e-39
-0.020991428 0.075162858 0.71100003 6.6585415e-39
-0.019637143 0.075162858 0.71100003 7.6726934e-39
-0.018282857 0.075162858 0.71100003 8.5910666e-39
-0.016976191 0.07537429 0.71300006 9.1442404e-39
-0.015618097 0.07537429 0.71300006 9.3272304e-39
-0.014280002 0.075480007 0.71400005 9.7882085e-39
-0.012956191 0.075691432 0.71600002 9.8779519e-39
-0.011592381 0.075691432 0.71600002 1.0062343e-38
-0.010242857 0.075797141 0.71700001 8.5890515e-39
-0.0089019043 0.076008573 0.71900004 3.7026832e-39
-0.007542857 0.076114289 0.72000003 1.6851693e-39
-0.0061714291 0.076114289 0.72000003 6.2949508e-39
-0.0048133335 0.076325722 0.72200006 1.1161491e-38
-0.0034666669 0.076960005 0.72800004 1.2544425e-38
-0.0020857144 0.07717143 0.73000002 1.2635525e-38
-0.00069523812 0.07717143 0.73000002 1.1713569e-38
0.00069523812 0.07717143 0.73000002 1.106818e-38
-0.07190381 0.078884766 0.73300004 1.2726612e-38
-0.069545716 0.077808574 0.72300005 1.3556373e-38
-0.068074286 0.077700958 0.72200006 1.3372705e-38
-0.06669905 0.077700958 0.72200006 1.4479052e-38
-0.065142855 0.07748571 0.72000003 1.4756355e-38
-0.063682862 0.077378094 0.71900004 1.549392e-38
-0.062313333 0.077378094 0.71900004 1.5494296e-38
-0.060774285 0.077162862 0.71700001 1.6231861e-38
-0.059325717 0.077055238 0.71600002 1.6416249e-38
-0.057800002 0.076840006 0.71400005 1.6508445e-38
-0.056360956 0.07673239 0.71300006 1.7427505e-38
-0.054848574 0.076517142 0.71100003 1.6136766e-38
-0.05341905 0.076409526 0.71000004 1.5395604e-38
-0.052066669 0.076409526 0.71000004 1.4565843e-38
-0.050714288 0.076409526 0.71000004 1.483736e-38
-0.049222857 0.076194286 0.708 1.3270034e-38
-0.047874287 0.076194286 0.708 1.3079463e-38
-0.046525717 0.076194286 0.708 1.2895072e-38
-0.045177143 0.076194286 0.708 1.4277909e-38
-0.043766666 0.076086663 0.70700002 1.4370103e-38
