# .PCD v0.7 - Point Cloud Data file format
VERSION 0.7
FIELDS x y z rgb
SIZE 4 4 4 4
TYPE F F F F
COUNT 1 1 1 1
WIDTH 332
HEIGHT 1
VIEWPOINT 0 0 0 1 0 0 0
POINTS 332
DATA ascii
0.15996477 -0.38803336 1.6630001 8.210055e-39
0.1631324 -0.38803336 1.6630001 5.4441861e-39
0.14482 -0.38671717 1.6710001 4.0756668e-39
0.14800286 -0.38671717 1.6710001 3.3409884e-39
0.15118572 -0.38671717 1.6710001 1.6814671e-39
0.15996477 -0.38486576 1.6630001 1.216861e-39
0.1631324 -0.38486576 1.6630001 1.4934479e-39
0.16946763 -0.38486576 1.6630001 8.0260547e-39
0.14482 -0.38353431 1.6710001 1.3155236e-39
0.14800286 -0.38353431 1.6710001 1.1311323e-39
0.15118572 -0.38353431 1.6710001 8.5454543e-40
0.15436858 -0.38353431 1.6710001 1.4963121e-39
0.15755144 -0.38353431 1.6710001 1.2197252e-39
0.1607343 -0.38353431 1.6710001 9.4346763e-40
0.1631324 -0.3816981 1.6630001 9.4346763e-40
0.14163715 -0.38035145 1.6710001 3.2455081e-39
0.14482 -0.38035145 1.6710001 3.522095e-39
0.14800286 -0.38035145 1.6710001 3.8872776e-39
0.15118572 -0.38035145 1.6710001 3.7028864e-39
0.15436858 -0.38035145 1.6710001 2.6012177e-39
0.15755144 -0.38035145 1.6710001 1.6792614e-39
0.1607343 -0.38035145 1.6710001 1.0360192e-39
0.14163715 -0.3771686 1.6710001 1.2208014e-39
0.14482 -0.3771686 1.6710001 1.5895839e-39
0.14800286 -0.3771686 1.6710001 1.3108573e-39
0.15118572 -0.3771686 1.6710001 1.126466e-39
0.15436858 -0.3771686 1.6710001 1.0353241e-39
0.15755144 -0.3771686 1.6710001 6.6654163e-40
0.1607343 -0.3771686 1.6710001 2.2288086e-39
0.14163715 -0.37398574 1.6710001 2.139183e-39
0.14482 -0.37398574 1.6710001 2.3235743e-39
0.14800286 -0.37398574 1.6710001 2.9671612e-39
0.15118572 -0.37398574 1.6710001 3.0593568e-39
0.15436858 -0.37398574 1.6710001 3.3348745e-39
0.15755144 -0.37398574 1.6710001 3.1504833e-39
0.1607343 -0.37398574 1.6710001 6.7355947e-39
0.1744 -0.37600002 1.6800001 1.0326617e-38
0.17760001 -0.37600002 1.6800001 1.1064182e-38
0.1384543 -0.37080288 1.6710001 1.3098234e-38
0.14163715 -0.37080288 1.6710001 1.2638351e-38
0.14482 -0.37080288 1.6710001 1.2361765e-38
0.14800286 -0.37080288 1.6710001 1.2269575e-38
0.15118572 -0.37080288 1.6710001 1.2177379e-38
0.15436858 -0.37080288 1.6710001 1.1991195e-38
0.15755144 -0.37080288 1.6710001 1.1069239e-38
0.1607343 -0.37080288 1.6710001 1.1896441e-38
0.1744 -0.37279999 1.6800001 1.189182e-38
0.17760001 -0.37279999 1.6800001 1.2629385e-38
0.1384543 -0.36762002 1.6710001 1.4665572e-38
0.14163715 -0.36762002 1.6710001 1.4390787e-38
0.14482 -0.36762002 1.6710001 1.4206396e-38
0.14800286 -0.36762002 1.6710001 1.3468841e-38
0.15118572 -0.36762002 1.6710001 1.3192254e-38
0.15436858 -0.36762002 1.6710001 1.2177386e-38
0.15755144 -0.36762002 1.6710001 1.1532017e-38
0.1607343 -0.36762002 1.6710001 1.1713148e-38
0.1744 -0.3696 1.6800001 1.2721167e-38
0.17760001 -0.3696 1.6800001 1.3550927e-38
0.1384543 -0.36443716 1.6710001 1.5124399e-38
0.14163715 -0.36443716 1.6710001 1.4757768e-38
0.14482 -0.36443716 1.6710001 1.4757768e-38
0.14800286 -0.36443716 1.6710001 1.4664863e-38
0.15118572 -0.36443716 1.6710001 1.4480472e-38
0.15436858 -0.36443716 1.6710001 1.4387197e-38
0.15755144 -0.36443716 1.6710001 1.411061e-38
0.1607343 -0.36443716 1.6710001 1.4017333e-38
0.17760001 -0.3664 1.6800001 1.4291714e-38
0.1384543 -0.3612543 1.6710001 1.5400273e-38
0.14163715 -0.3612543 1.6710001 1.5216961e-38
0.14482 -0.3612543 1.6710001 1.5124765e-38
0.14800286 -0.3612543 1.6710001 1.4940384e-38
0.1607343 -0.3612543 1.6710001 1.4386494e-38
0.13527143 -0.35807145 1.6710001 1.6782491e-38
0.1384543 -0.35807145 1.6710001 1.6966883e-38
0.14163715 -0.35807145 1.6710001 1.6966883e-38
0.14482 -0.35807145 1.6710001 1.6505904e-38
0.14800286 -0.35807145 1.6710001 1.6230041e-38
0.15046191 -0.35635716 1.6630001 1.6045649e-38
0.15362953 -0.35635716 1.6630001 1.6137848e-38
0.15679716 -0.35635716 1.6630001 1.5584674e-38
0.1607343 -0.35807145 1.6710001 1.5400293e-38
0.13527143 -0.35488859 1.6710001 1.6966895e-38
0.1384543 -0.35488859 1.6710001 1.7335678e-38
0.14163715 -0.35488859 1.6710001 1.7795221e-38
0.14482 -0.35488859 1.6710001 1.7703025e-38
0.14800286 -0.35488859 1.6710001 1.6599557e-38
0.15046191 -0.35318956 1.6630001 1.6322971e-38
0.15362953 -0.35318956 1.6630001 1.5771589e-38
0.15679716 -0.35318956 1.6630001 1.5771589e-38
0.1607343 -0.35488859 1.6710001 1.5493926e-38
0.13527143 -0.35170573 1.6710001 1.7335322e-38
0.1384543 -0.35170573 1.6710001 1.8533865e-38
0.14163715 -0.35170573 1.6710001 1.8257278e-38
0.14482 -0.35170573 1.6710001 1.8072887e-38
0.15046191 -0.3500219 1.6630001 1.6692116e-38
0.15362953 -0.3500219 1.6630001 1.6415867e-38
0.15755144 -0.35170573 1.6710001 1.613928e-38
0.1607343 -0.35170573 1.6710001 1.5953106e-38
0.13527143 -0.3485229 1.6710001 1.7059814e-38
0.1384543 -0.3485229 1.6710001 1.7889575e-38
0.14163715 -0.3485229 1.6710001 1.7797379e-38
0.1472943 -0.3468543 1.6630001 1.6509883e-38
0.15046191 -0.3468543 1.6630001 1.6233296e-38
0.15362953 -0.3468543 1.6630001 1.6232567e-38
0.15755144 -0.3485229 1.6710001 1.5863785e-38
0.1607343 -0.3485229 1.6710001 1.5953466e-38
0.13527143 -0.34534001 1.6710001 1.7520432e-38
0.1384543 -0.34534001 1.6710001 1.7612628e-38
0.14163715 -0.34534001 1.6710001 1.7613697e-38
0.14412667 -0.3436867 1.6630001 1.7613697e-38
0.1472943 -0.3436867 1.6630001 1.6877934e-38
0.15046191 -0.3436867 1.6630001 1.6509151e-38
0.15362953 -0.3436867 1.6630001 1.6509151e-38
0.15755144 -0.34534001 1.6710001 1.5771586e-38
0.1607343 -0.34534001 1.6710001 1.5770863e-38
0.13527143 -0.34215716 1.6710001 1.6600621e-38
0.1384543 -0.34215716 1.6710001 1.641623e-38
0.14163715 -0.34215716 1.6710001 1.6416586e-38
0.14412667 -0.34051907 1.6630001 1.632439e-38
0.1472943 -0.34051907 1.6630001 1.5588274e-38
0.15046191 -0.34051907 1.6630001 1.5496078e-38
0.1648 -0.34400001 1.6800001 1.3838345e-38
0.13527143 -0.33897433 1.6710001 1.3836544e-38
0.1384543 -0.33897433 1.6710001 1.4297523e-38
0.14412667 -0.33735144 1.6630001 1.3008569e-38
0.1472943 -0.33735144 1.6630001 1.2640518e-38
0.15046191 -0.33735144 1.6630001 1.2271735e-38
0.15436858 -0.33897433 1.6710001 1.1628153e-38
0.13527143 -0.33579144 1.6710001 1.3007458e-38
0.1384543 -0.33579144 1.6710001 1.402161e-38
0.14412667 -0.33418384 1.6630001 1.337627e-38
0.1472943 -0.33418384 1.6630001 1.2456477e-38
0.15436858 -0.33579144 1.6710001 1.1534881e-38
0.13600001 -0.33440003 1.6800001 1.26401e-38
0.1384543 -0.33260858 1.6710001 1.4484013e-38
0.14163715 -0.33260858 1.6710001 1.4758838e-38
0.14482 -0.33260858 1.6710001 1.494323e-38
0.14800286 -0.33260858 1.6710001 1.5218733e-38
0.15118572 -0.33260858 1.6710001 1.5218733e-38
0.15436858 -0.33260858 1.6710001 1.5587898e-38
0.13600001 -0.3312 1.6800001 1.5124371e-38
0.1392 -0.3312 1.6800001 1.5308763e-38
0.14163715 -0.32942575 1.6710001 1.531021e-38
0.14482 -0.32942575 1.6710001 1.5771188e-38
0.14800286 -0.32942575 1.6710001 1.6324347e-38
0.15118572 -0.32942575 1.6710001 1.6232151e-38
0.15436858 -0.32942575 1.6710001 1.6141741e-38
0.13600001 -0.32800001 1.6800001 1.7150172e-38
0.1392 -0.32800001 1.6800001 1.6596999e-38
0.14163715 -0.32624286 1.6710001 1.6320399e-38
0.14482 -0.32624286 1.6710001 1.6412595e-38
0.14800286 -0.32624286 1.6710001 1.5493473e-38
0.15118572 -0.32624286 1.6710001 1.4755908e-38
0.15436858 -0.32624286 1.6710001 1.1166702e-38
0.1584 -0.32800001 1.6800001 7.7554639e-39
0.13600001 -0.32480001 1.6800001 1.5674637e-38
0.1392 -0.32480001 1.6800001 1.5490246e-38
0.1424 -0.32480001 1.6800001 1.5487728e-38
0.14560001 -0.32480001 1.6800001 1.585651e-38
0.1488 -0.32480001 1.6800001 1.5029956e-38
0.15200001 -0.32480001 1.6800001 1.5029956e-38
0.1552 -0.32480001 1.6800001 1.1625911e-38
0.1584 -0.32480001 1.6800001 8.9522373e-39
0.13600001 -0.32160002 1.6800001 1.3551534e-38
0.1392 -0.32160002 1.6800001 1.5764229e-38
0.1424 -0.32160002 1.6800001 1.604158e-38
0.14800286 -0.31987718 1.6710001 1.6229581e-38
0.15200001 -0.32160002 1.6800001 1.6598363e-38
0.1552 -0.32160002 1.6800001 1.6507309e-38
0.1584 -0.32160002 1.6800001 1.6599504e-38
0.18898286 -0.32466286 1.6960001 1.8809049e-38
0.13600001 -0.3184 1.6800001 1.6218477e-38
0.1392 -0.3184 1.6800001 1.8338977e-38
0.1424 -0.3184 1.6800001 1.6962901e-38
0.15200001 -0.3184 1.6800001 1.7425327e-38
0.1552 -0.3184 1.6800001 1.7888088e-38
0.1584 -0.3184 1.6800001 1.7611501e-38
0.18898286 -0.32143241 1.6960001 1.8348797e-38
0.13600001 -0.31520003 1.6800001 1.6037048e-38
0.1392 -0.31520003 1.6800001 1.8895113e-38
0.1424 -0.31520003 1.6800001 1.7239173e-38
0.14560001 -0.31520003 1.6800001 1.6132826e-38
0.1488 -0.31520003 1.6800001 1.4752101e-38
0.15200001 -0.31520003 1.6800001 1.3553558e-38
0.1552 -0.31520003 1.6800001 1.3555609e-38
0.1584 -0.31520003 1.6800001 1.438537e-38
0.18575239 -0.31820193 1.6960001 1.9085636e-38
0.13664763 -0.31348571 1.6880001 1.3002846e-38
0.1392 -0.31200001 1.6800001 1.4754563e-38
0.1424 -0.31200001 1.6800001 1.3835811e-38
0.14560001 -0.31200001 1.6800001 1.3006051e-38
0.1527238 -0.31348571 1.6880001 9.7831989e-39
0.13664763 -0.31027049 1.6880001 1.1161419e-38
0.13986287 -0.31027049 1.6880001 1.0239463e-38
0.1430781 -0.31027049 1.6880001 7.5746362e-39
0.14629333 -0.31027049 1.6880001 7.9434187e-39
0.14950858 -0.31027049 1.6880001 8.3126805e-39
0.1527238 -0.31027049 1.6880001 8.4970717e-39
0.13664763 -0.30705526 1.6880001 8.0253456e-39
0.13986287 -0.30705526 1.6880001 7.4721718e-39
0.1430781 -0.30705526 1.6880001 2.2327743e-39
0.14629333 -0.30705526 1.6880001 5.551817e-39
0.14950858 -0.30705526 1.6880001 7.3893271e-39
0.1527238 -0.30705526 1.6880001 7.3893271e-39
0.16636953 -0.30851048 1.6960001 8.5767495e-39
0.13343239 -0.30384001 1.6880001 1.3190427e-38
0.13664763 -0.30384001 1.6880001 1.438361e-38
0.13986287 -0.30384001 1.6880001 1.4568001e-38
0.1430781 -0.30384001 1.6880001 1.4477973e-38
0.14629333 -0.30384001 1.6880001 1.475456e-38
0.14950858 -0.30384001 1.6880001 1.4572667e-38
0.1527238 -0.30384001 1.6880001 1.3005342e-38
0.11529048 -0.30365241 1.705 1.585908e-38
0.13343239 -0.30062476 1.6880001 1.7056885e-38
0.13664763 -0.30062476 1.6880001 1.7702588e-38
0.13986287 -0.30062476 1.6880001 1.724161e-38
0.1430781 -0.30062476 1.6880001 1.6873923e-38
0.14629333 -0.30062476 1.6880001 1.6412945e-38
0.14950858 -0.30062476 1.6880001 1.5770106e-38
0.1527238 -0.30062476 1.6880001 1.4571563e-38
0.11529048 -0.30040479 1.705 1.6227144e-38
0.13343239 -0.29740953 1.6880001 1.576686e-38
0.13664763 -0.29740953 1.6880001 1.493915e-38
0.13986287 -0.29740953 1.6880001 1.493915e-38
0.1430781 -0.29740953 1.6880001 1.3189987e-38
0.14629333 -0.29740953 1.6880001 1.2636813e-38
0.14950858 -0.29740953 1.6880001 9.0495028e-39
0.1527238 -0.29740953 1.6880001 8.496329e-39
0.18809143 -0.29740953 1.6880001 1.7979642e-38
0.11529048 -0.29715717 1.705 1.62275e-38
0.13343239 -0.29419431 1.6880001 1.5676417e-38
0.13664763 -0.29419431 1.6880001 1.4664356e-38
0.13986287 -0.29419431 1.6880001 1.4387769e-38
0.1430781 -0.29419431 1.6880001 1.2363832e-38
0.14629333 -0.29419431 1.6880001 1.1995049e-38
0.14950858 -0.29419431 1.6880001 6.6614226e-39
0.1527238 -0.29419431 1.6880001 4.9097056e-39
0.11529048 -0.29390952 1.705 1.6687033e-38
0.12378668 -0.29097906 1.6880001 1.7334949e-38
0.13021715 -0.29097906 1.6880001 1.4941669e-38
0.13343239 -0.29097906 1.6880001 1.5587038e-38
0.13664763 -0.29097906 1.6880001 1.4665107e-38
0.13986287 -0.29097906 1.6880001 1.3558759e-38
0.1430781 -0.29097906 1.6880001 1.1627015e-38
0.14629333 -0.29097906 1.6880001 1.1811406e-38
0.14950858 -0.29097906 1.6880001 9.2339431e-39
0.1527238 -0.29097906 1.6880001 9.3261387e-39
0.13021715 -0.2877638 1.6880001 1.494064e-38
0.13343239 -0.2877638 1.6880001 1.5954792e-38
0.13664763 -0.2877638 1.6880001 1.5403445e-38
0.13986287 -0.2877638 1.6880001 1.3098555e-38
0.1430781 -0.2877638 1.6880001 1.1717439e-38
0.14629333 -0.2877638 1.6880001 1.1994026e-38
0.14950858 -0.2877638 1.6880001 1.1256839e-38
0.1527238 -0.2877638 1.6880001 1.1349035e-38
0.11529048 -0.28741428 1.705 1.4291755e-38
0.1185381 -0.28741428 1.705 1.4569061e-38
0.13343239 -0.28454858 1.6880001 1.7704763e-38
0.13664763 -0.28454858 1.6880001 1.7337069e-38
0.13986287 -0.28454858 1.6880001 1.6415113e-38
0.1430781 -0.28454858 1.6880001 1.6048141e-38
0.14629333 -0.28454858 1.6880001 1.6140336e-38
0.14950858 -0.28454858 1.6880001 1.6138904e-38
0.1527238 -0.28454858 1.6880001 1.6046709e-38
0.11529048 -0.28416666 1.705 1.3187209e-38
0.1185381 -0.28416666 1.705 1.2267767e-38
0.13343239 -0.28133336 1.6880001 1.8348703e-38
0.13664763 -0.28133336 1.6880001 1.7889189e-38
0.13986287 -0.28133336 1.6880001 1.7796994e-38
0.1430781 -0.28133336 1.6880001 1.7889199e-38
0.14629333 -0.28133336 1.6880001 1.7704808e-38
0.14950858 -0.28133336 1.6880001 1.6600611e-38
0.1527238 -0.28133336 1.6880001 1.6877198e-38
0.11583143 -0.28223714 1.7130001 1.3924411e-38
0.1185381 -0.28091905 1.705 1.4016985e-38
0.13343239 -0.2781181 1.6880001 1.844235e-38
0.13664763 -0.2781181 1.6880001 1.844201e-38
0.13986287 -0.2781181 1.6880001 1.8349814e-38
0.1430781 -0.2781181 1.6880001 1.8165082e-38
0.14629333 -0.2781181 1.6880001 1.7888496e-38
0.14950858 -0.2781181 1.6880001 1.7336018e-38
0.1527238 -0.2781181 1.6880001 1.7428214e-38
0.11583143 -0.27897429 1.7130001 1.4476865e-38
0.1185381 -0.27767143 1.705 1.4568705e-38
0.13664763 -0.27490285 1.6880001 1.6785015e-38
0.13986287 -0.27490285 1.6880001 1.6692819e-38
0.1430781 -0.27490285 1.6880001 1.6967611e-38
0.14629333 -0.27490285 1.6880001 1.6875416e-38
0.14950858 -0.27490285 1.6880001 1.623075e-38
0.1527238 -0.27490285 1.6880001 1.5861967e-38
0.11583143 -0.27571145 1.7130001 1.4292474e-38
0.11909429 -0.27571145 1.7130001 1.438502e-38
0.1308343 -0.27297527 1.6960001 1.4846393e-38
0.13406476 -0.27297527 1.6960001 1.5030784e-38
0.13729525 -0.27297527 1.6960001 1.5033648e-38
0.14052571 -0.27297527 1.6960001 1.4941453e-38
0.14375621 -0.27297527 1.6960001 1.4849254e-38
0.14629333 -0.27168763 1.6880001 1.494145e-38
0.14950858 -0.27168763 1.6880001 1.4202456e-38
0.1527238 -0.27168763 1.6880001 1.3280499e-38
0.11583143 -0.27244857 1.7130001 1.4754172e-38
0.11909429 -0.27244857 1.7130001 1.4938193e-38
0.12178572 -0.27117619 1.705 1.4845998e-38
0.1308343 -0.26974478 1.6960001 1.493786e-38
0.13406476 -0.26974478 1.6960001 1.5583229e-38
0.13729525 -0.26974478 1.6960001 1.5401712e-38
0.14052571 -0.26974478 1.6960001 1.5217321e-38
0.14375621 -0.26974478 1.6960001 1.4848551e-38
0.14698668 -0.26974478 1.6960001 1.4756355e-38
0.1308343 -0.2665143 1.6960001 1.5308087e-38
0.13406476 -0.2665143 1.6960001 1.5861261e-38
0.13729525 -0.2665143 1.6960001 1.5586106e-38
0.14052571 -0.2665143 1.6960001 1.5770497e-38
0.14375621 -0.2665143 1.6960001 1.5124787e-38
0.14698668 -0.2665143 1.6960001 1.4848201e-38
0.11583143 -0.26592287 1.7130001 1.3649632e-38
0.11909429 -0.26592287 1.7130001 1.2821306e-38
0.1308343 -0.26328385 1.6960001 1.5584661e-38
0.13406476 -0.26328385 1.6960001 1.5492466e-38
0.13729525 -0.26328385 1.6960001 1.4573749e-38
0.14052571 -0.26328385 1.6960001 1.4942532e-38
0.14375621 -0.26328385 1.6960001 1.5309166e-38
0.14698668 -0.26328385 1.6960001 1.4940384e-38
0.11583143 -0.26266 1.7130001 1.5030406e-38
0.11909429 -0.26266 1.7130001 1.5398816e-38
0.13477619 -0.26143333 1.705 1.5769053e-38
0.13729525 -0.26005337 1.6960001 1.558574e-38
0.14052571 -0.26005337 1.6960001 1.558574e-38
0.14698668 -0.26005337 1.6960001 1.5402434e-38
0.11909429 -0.25939715 1.7130001 1.6687762e-38
0.13477619 -0.25818571 1.705 1.7149106e-38
0.12178572 -0.2549381 1.705 1.7978145e-38
