# .PCD v0.7 - Point Cloud Data file format
VERSION 0.7
FIELDS x y z rgb
SIZE 4 4 4 4
TYPE F F F F
COUNT 1 1 1 1
WIDTH 1013
HEIGHT 1
VIEWPOINT 0 0 0 1 0 0 0
POINTS 1013
DATA ascii
-0.096188575 0.18546857 0.55800003 1.1531319e-38
-0.09512572 0.18546857 0.55800003 1.1530963e-38
-0.094062865 0.18546857 0.55800003 1.1530963e-38
-0.09283334 0.18513621 0.55700004 1.15306e-38
-0.091772385 0.18513621 0.55700004 1.15306e-38
-0.090711437 0.18513621 0.55700004 1.1162549e-38
-0.089650482 0.18513621 0.55700004 1.1807918e-38
-0.088589527 0.18513621 0.55700004 1.1441305e-38
-0.087528579 0.18513621 0.55700004 1.1533501e-38
-0.086467624 0.18513621 0.55700004 1.1901207e-38
-0.085406676 0.18513621 0.55700004 1.1809011e-38
-0.084345713 0.18513621 0.55700004 1.162462e-38
-0.083284765 0.18513621 0.55700004 1.1901207e-38
-0.082223818 0.18513621 0.55700004 1.19934e-38
-0.081162862 0.18513621 0.55700004 1.1901204e-38
-0.080101915 0.18513621 0.55700004 1.1808648e-38
-0.079040952 0.18513621 0.55700004 1.1900844e-38
-0.078120001 0.18546857 0.55800003 1.2268545e-38
-0.077057146 0.18546857 0.55800003 1.2176349e-38
-0.07599429 0.18546857 0.55800003 1.2175993e-38
-0.074931428 0.18546857 0.55800003 1.2175993e-38
-0.074000955 0.18580095 0.55900002 1.1900841e-38
-0.073066667 0.18613334 0.56 1.171645e-38
-0.072128579 0.18646573 0.56100005 1.1532061e-38
-0.071186669 0.18679811 0.56200004 1.1532061e-38
-0.069045715 0.18679811 0.56200004 1.134767e-38
-0.068096191 0.18713048 0.56300002 1.1347317e-38
-0.067261904 0.18779524 0.565 1.1255121e-38
-0.066185713 0.18779524 0.565 1.1438428e-38
-0.065224767 0.18812762 0.56600004 1.1346232e-38
-0.064146668 0.18812762 0.56600004 1.1254037e-38
-0.06329143 0.18879239 0.56800002 1.1161841e-38
-0.059067618 0.18912476 0.56900001 1.0609386e-38
-0.058289524 0.1901219 0.57200003 1.0516472e-38
-0.057500005 0.19111906 0.57500005 1.0424276e-38
-0.05650286 0.19145145 0.57600003 1.0240241e-38
-0.055598095 0.19211619 0.57800001 1.005585e-38
-0.054685719 0.19278096 0.58000004 9.8714582e-39
-0.053765714 0.19344573 0.58200002 9.7792626e-39
-0.11474382 0.19087715 0.57100004 8.9494599e-39
-0.11217429 0.19020858 0.56900001 9.6873935e-39
-0.1107 0.18954001 0.56700003 8.9498284e-39
-0.10923333 0.18887143 0.565 8.6729109e-39
-0.10796572 0.18853715 0.56400001 9.3182803e-39
-0.10689143 0.18853715 0.56400001 1.0055119e-38
-0.10562953 0.18820286 0.56300002 1.1069271e-38
-0.10437143 0.18786858 0.56200004 1.1070341e-38
-0.10330095 0.18786858 0.56200004 1.0978145e-38
-0.10204858 0.18753429 0.56100005 1.1162183e-38
-0.10098001 0.18753429 0.56100005 1.1346574e-38
-0.09973333 0.18719999 0.56 1.1438767e-38
-0.09866666 0.18719999 0.56 1.1438767e-38
-0.097425714 0.18686572 0.55900002 1.1623514e-38
-0.096360952 0.18686572 0.55900002 1.1807906e-38
-0.095296197 0.18686572 0.55900002 1.1991958e-38
-0.094062865 0.18653144 0.55800003 1.1899762e-38
-0.09283334 0.18619716 0.55700004 1.1899395e-38
-0.091772385 0.18619716 0.55700004 1.1991591e-38
-0.090711437 0.18619716 0.55700004 1.1899758e-38
-0.089811429 0.18653144 0.55800003 1.1991954e-38
-0.088589527 0.18619716 0.55700004 1.1716446e-38
-0.087528579 0.18619716 0.55700004 1.1716446e-38
-0.086467624 0.18619716 0.55700004 1.1900837e-38
-0.085406676 0.18619716 0.55700004 1.1993033e-38
-0.084345713 0.18619716 0.55700004 1.1900844e-38
-0.083284765 0.18619716 0.55700004 1.1900844e-38
-0.082223818 0.18619716 0.55700004 1.1900837e-38
-0.081162862 0.18619716 0.55700004 1.1716446e-38
-0.080245718 0.18653144 0.55800003 1.1716446e-38
-0.079182863 0.18653144 0.55800003 1.1716446e-38
-0.078120001 0.18653144 0.55800003 1.171645e-38
-0.077057146 0.18653144 0.55800003 1.1808645e-38
-0.07599429 0.18653144 0.55800003 1.1808292e-38
-0.075065717 0.18686572 0.55900002 1.1716097e-38
-0.074133337 0.18719999 0.56 1.1716453e-38
-0.073197149 0.18753429 0.56100005 1.1624257e-38
-0.072257146 0.18786858 0.56200004 1.1624257e-38
-0.071186669 0.18786858 0.56200004 1.1624257e-38
-0.070116192 0.18786858 0.56200004 1.1532061e-38
-0.069168575 0.18820286 0.56300002 1.134767e-38
-0.068217143 0.18853715 0.56400001 1.1347317e-38
-0.067261904 0.18887143 0.565 1.1255121e-38
-0.066185713 0.18887143 0.565 1.1438428e-38
-0.065224767 0.18920572 0.56600004 1.1346232e-38
-0.064146668 0.18920572 0.56600004 1.1346588e-38
-0.06329143 0.18987429 0.56800002 1.1162197e-38
-0.060151428 0.19020858 0.56900001 1.0701582e-38
-0.059275243 0.19087715 0.57100004 1.0517191e-38
-0.058493331 0.19188 0.574 1.0424276e-38
-0.057600003 0.19254857 0.57600003 1.033208e-38
-0.056600954 0.19288287 0.57700002 1.0240241e-38
-0.055598095 0.19321714 0.57800001 1.005585e-38
-0.054685719 0.19388573 0.58000004 1.0148397e-38
-0.053765714 0.1945543 0.58200002 9.87181e-39
-0.11494477 0.19230096 0.57200003 8.3955659e-39
-0.11345715 0.19162859 0.57000005 9.594109e-39
-0.11237144 0.19162859 0.57000005 1.005582e-38
-0.1107 0.19062002 0.56700003 9.5948419e-39
-0.10923333 0.18994761 0.565 9.5944888e-39
-0.10815714 0.18994761 0.565 9.6866844e-39
-0.10689143 0.18961143 0.56400001 9.8707254e-39
-0.10562953 0.18927525 0.56300002 1.0977073e-38
-0.10437143 0.18893906 0.56200004 1.1070341e-38
-0.10330095 0.18893906 0.56200004 1.1070341e-38
-0.10223048 0.18893906 0.56200004 1.1069987e-38
-0.10098001 0.18860288 0.56100005 1.1162183e-38
-0.099911436 0.18860288 0.56100005 1.1345855e-38
-0.09866666 0.18826668 0.56 1.1438051e-38
-0.097600006 0.18826668 0.56 1.1530966e-38
-0.096533336 0.18826668 0.56 1.1807552e-38
-0.095296197 0.18793048 0.55900002 1.162425e-38
-0.094231427 0.18793048 0.55900002 1.1532054e-38
-0.093000002 0.18759429 0.55800003 1.1623171e-38
-0.091937147 0.18759429 0.55800003 1.1807562e-38
-0.090874292 0.18759429 0.55800003 1.1716446e-38
-0.089811429 0.18759429 0.55800003 1.1808641e-38
-0.088748574 0.18759429 0.55800003 1.1716446e-38
-0.087685719 0.18759429 0.55800003 1.1716446e-38
-0.086622857 0.18759429 0.55800003 1.1991958e-38
-0.085560001 0.18759429 0.55800003 1.2176349e-38
-0.084497146 0.18759429 0.55800003 1.2083797e-38
-0.083434291 0.18759429 0.55800003 1.1991602e-38
-0.082371436 0.18759429 0.55800003 1.1808645e-38
-0.081308573 0.18759429 0.55800003 1.1808645e-38
-0.080389529 0.18793048 0.55900002 1.1716446e-38
-0.07932476 0.18793048 0.55900002 1.162425e-38
-0.078260005 0.18793048 0.55900002 1.1624257e-38
-0.077195235 0.18793048 0.55900002 1.1532061e-38
-0.07613048 0.18793048 0.55900002 1.171645e-38
-0.075199999 0.18826668 0.56 1.171645e-38
-0.074265718 0.18860288 0.56100005 1.1716453e-38
-0.073327623 0.18893906 0.56200004 1.1716453e-38
-0.072514281 0.18961143 0.56400001 1.171645e-38
-0.066185713 0.18994761 0.565 1.1346232e-38
-0.065224767 0.19028382 0.56600004 1.1346232e-38
-0.064146668 0.19028382 0.56600004 1.1254393e-38
-0.06329143 0.19095621 0.56800002 1.1162197e-38
-0.061127625 0.19095621 0.56800002 1.0885254e-38
-0.060257148 0.19162859 0.57000005 1.0701582e-38
-0.059586667 0.19297333 0.574 1.0609386e-38
-0.058595244 0.19330955 0.57500005 1.0332797e-38
-0.057600003 0.19364573 0.57600003 1.0148405e-38
-0.054591436 0.1946543 0.57900006 1.005585e-38
-0.053673334 0.19532669 0.58100003 9.3182845e-39
-0.11345715 0.1927143 0.57000005 8.1175412e-39
-0.11237144 0.1927143 0.57000005 8.7643652e-39
-0.1107 0.1917 0.56700003 9.5941259e-39
-0.10942668 0.19136192 0.56600004 9.8699869e-39
-0.10815714 0.19102381 0.565 1.0791943e-38
-0.10689143 0.19068572 0.56400001 1.0516095e-38
-0.10581715 0.19068572 0.56400001 1.125366e-38
-0.10348476 0.19034763 0.56300002 1.125401e-38
-0.10241239 0.19034763 0.56300002 1.1161464e-38
-0.10116 0.19000953 0.56200004 1.125366e-38
-0.099911436 0.18967144 0.56100005 1.1254379e-38
-0.098842867 0.18967144 0.56100005 1.1346574e-38
-0.097774297 0.18967144 0.56100005 1.1623158e-38
-0.096533336 0.18933333 0.56 1.1623158e-38
-0.095466666 0.18933333 0.56 1.1623521e-38
-0.094400004 0.18933333 0.56 1.1623521e-38
-0.093166672 0.18899524 0.55900002 1.1715723e-38
-0.092101902 0.18899524 0.55900002 1.1715723e-38
-0.091037147 0.18899524 0.55900002 1.1807562e-38
-0.089972384 0.18899524 0.55900002 1.1807562e-38
-0.088748574 0.18865715 0.55800003 1.1899758e-38
-0.087685719 0.18865715 0.55800003 1.1899758e-38
-0.086778097 0.18899524 0.55900002 1.1991958e-38
-0.085713334 0.18899524 0.55900002 1.1991958e-38
-0.084648572 0.18899524 0.55900002 1.1899406e-38
-0.083583809 0.18899524 0.55900002 1.1899406e-38
-0.082371436 0.18865715 0.55800003 1.1716446e-38
-0.081308573 0.18865715 0.55800003 1.1716446e-38
-0.080389529 0.18899524 0.55900002 1.1900114e-38
-0.078260005 0.18899524 0.55900002 1.1716446e-38
-0.077195235 0.18899524 0.55900002 1.1716446e-38
-0.07613048 0.18899524 0.55900002 1.1716802e-38
-0.075199999 0.18933333 0.56 1.1716802e-38
-0.074265718 0.18967144 0.56100005 1.171645e-38
-0.073458098 0.19034763 0.56300002 1.1624254e-38
-0.072514281 0.19068572 0.56400001 1.1624257e-38
-0.070365719 0.19068572 0.56400001 1.1715371e-38
-0.069414288 0.19102381 0.565 1.1623175e-38
-0.066185713 0.19102381 0.565 1.1346232e-38
-0.065224767 0.19136192 0.56600004 1.1346232e-38
-0.064146668 0.19136192 0.56600004 1.1254388e-38
-0.06329143 0.19203809 0.56800002 1.1162193e-38
-0.061127625 0.19203809 0.56800002 1.079378e-38
-0.060362861 0.1930524 0.57100004 1.0794129e-38
-0.059586667 0.19406667 0.574 1.0517542e-38
-0.058595244 0.19440478 0.57500005 1.0425347e-38
-0.057700001 0.19508095 0.57700002 1.0240955e-38
-0.054591436 0.19575715 0.57900006 1.0424268e-38
-0.053673334 0.19643334 0.58100003 8.856942e-39
-0.11365619 0.19414002 0.57100004 8.392689e-39
-0.11256858 0.19414002 0.57100004 8.1168406e-39
-0.11109048 0.19345999 0.56900001 9.3153838e-39
-0.10962 0.19278 0.56700003 9.041308e-39
-0.10815714 0.1921 0.565 1.005546e-38
-0.10581715 0.19176 0.56400001 1.1345846e-38
-0.10474286 0.19176 0.56400001 1.0978848e-38
-0.10366858 0.19176 0.56400001 1.1071044e-38
-0.10241239 0.19142 0.56300002 1.1162183e-38
-0.10116 0.19108002 0.56200004 1.1162183e-38
-0.099911436 0.19074002 0.56100005 1.1254026e-38
-0.098842867 0.19074002 0.56100005 1.1438417e-38
-0.097774297 0.19074002 0.56100005 1.1530966e-38
-0.09670572 0.19074002 0.56100005 1.1623161e-38
-0.09563715 0.19074002 0.56100005 1.1531331e-38
-0.094400004 0.19039999 0.56 1.1531331e-38
-0.093333334 0.19039999 0.56 1.1530975e-38
-0.092266664 0.19039999 0.56 1.1623171e-38
-0.091200002 0.19039999 0.56 1.1715371e-38
-0.089972384 0.19006 0.55900002 1.1715371e-38
-0.088907622 0.19006 0.55900002 1.1807566e-38
-0.087842859 0.19006 0.55900002 1.1899762e-38
-0.086778097 0.19006 0.55900002 1.1991602e-38
-0.085713334 0.19006 0.55900002 1.1991602e-38
-0.084648572 0.19006 0.55900002 1.1716453e-38
-0.083583809 0.19006 0.55900002 1.1716453e-38
-0.082519054 0.19006 0.55900002 1.171645e-38
-0.081454284 0.19006 0.55900002 1.171645e-38
-0.080533333 0.19039999 0.56 1.1807566e-38
-0.078260005 0.19006 0.55900002 1.1808645e-38
-0.077195235 0.19006 0.55900002 1.171645e-38
-0.07613048 0.19006 0.55900002 1.1899762e-38
-0.075199999 0.19039999 0.56 1.1991958e-38
-0.074265718 0.19074002 0.56100005 1.1716097e-38
-0.073458098 0.19142 0.56300002 1.1716097e-38
-0.072514281 0.19176 0.56400001 1.1532061e-38
-0.070365719 0.19176 0.56400001 1.1623175e-38
-0.069414288 0.1921 0.565 1.1715371e-38
-0.068338089 0.1921 0.565 1.1622459e-38
-0.066302858 0.19244 0.56600004 1.1346232e-38
-0.064260006 0.19278 0.56700003 1.1162197e-38
-0.063402854 0.19345999 0.56900001 1.1162197e-38
-0.061235234 0.19345999 0.56900001 1.0793777e-38
-0.060468573 0.19448 0.57200003 1.0884891e-38
-0.059586667 0.19516 0.574 1.07005e-38
-0.058595244 0.19550002 0.57500005 1.0332797e-38
-0.057600003 0.19584002 0.57600003 1.0240601e-38
-0.056699049 0.19652 0.57800001 1.0056929e-38
-0.053673334 0.19754 0.58100003 8.1190084e-39
-0.1177381 0.19659525 0.57500005 8.4870552e-39
-0.11385524 0.19556953 0.57200003 8.6707178e-39
-0.11256858 0.19522762 0.57100004 8.486349e-39
-0.11109048 0.19454381 0.56900001 8.7629359e-39
-0.10962 0.19386001 0.56700003 8.0271561e-39
-0.10708095 0.1931762 0.565 8.6728758e-39
-0.10600476 0.1931762 0.565 9.5948321e-39
-0.10474286 0.19283429 0.56400001 9.9635922e-39
-0.10366858 0.19283429 0.56400001 1.106994e-38
-0.10241239 0.19249238 0.56300002 1.1714272e-38
-0.10134 0.19249238 0.56300002 1.1622077e-38
-0.10008954 0.19215049 0.56200004 1.1622442e-38
-0.099019058 0.19215049 0.56200004 1.1806834e-38
-0.097774297 0.19180858 0.56100005 1.1715357e-38
-0.09670572 0.19180858 0.56100005 1.1623161e-38
-0.09563715 0.19180858 0.56100005 1.1623527e-38
-0.09456858 0.19180858 0.56100005 1.1623527e-38
-0.093333334 0.19146666 0.56 1.1715723e-38
-0.092266664 0.19146666 0.56 1.1807918e-38
-0.091200002 0.19146666 0.56 1.1716446e-38
-0.090133332 0.19146666 0.56 1.1716446e-38
-0.088907622 0.19112477 0.55900002 1.1808994e-38
-0.087842859 0.19112477 0.55900002 1.190119e-38
-0.08693333 0.19146666 0.56 1.199304e-38
-0.085866667 0.19146666 0.56 1.199304e-38
-0.084799998 0.19146666 0.56 1.1900844e-38
-0.083733328 0.19146666 0.56 1.1900844e-38
-0.082519054 0.19112477 0.55900002 1.2083797e-38
-0.081454284 0.19112477 0.55900002 1.2083797e-38
-0.080533333 0.19146666 0.56 1.2084153e-38
-0.078260005 0.19112477 0.55900002 1.1900844e-38
-0.077195235 0.19112477 0.55900002 1.1624257e-38
-0.07613048 0.19112477 0.55900002 1.1532061e-38
-0.075334288 0.19180858 0.56100005 1.1716453e-38
-0.074265718 0.19180858 0.56100005 1.1808292e-38
-0.073458098 0.19249238 0.56300002 1.1623901e-38
-0.072642855 0.1931762 0.565 1.1532061e-38
-0.070490472 0.1931762 0.565 1.1439866e-38
-0.069414288 0.1931762 0.565 1.134767e-38
-0.068459049 0.1935181 0.56600004 1.1346235e-38
-0.067380957 0.1935181 0.56600004 1.1346235e-38
-0.066420004 0.19386001 0.56700003 1.125404e-38
-0.064260006 0.19386001 0.56700003 1.1254393e-38
-0.063402854 0.19454381 0.56900001 1.1070001e-38
-0.061342862 0.19488573 0.57000005 1.0793059e-38
-0.060468573 0.19556953 0.57200003 1.0884891e-38
-0.059586667 0.19625333 0.574 1.07005e-38
-0.058595244 0.19659525 0.57500005 1.0424632e-38
-0.057600003 0.19693716 0.57600003 1.0424632e-38
-0.056699049 0.19762094 0.57800001 1.0516463e-38
-0.054685719 0.19830477 0.58000004 7.4754467e-39
-0.053858094 0.19933046 0.583 5.7237297e-39
-0.11405428 0.19700287 0.57300001 9.0405793e-39
-0.11256858 0.19631524 0.57100004 8.8565608e-39
-0.11128572 0.19597144 0.57000005 8.7643652e-39
-0.10981333 0.19528382 0.56800002 8.2111942e-39
-0.10834858 0.1945962 0.56600004 7.7502161e-39
-0.10708095 0.19425237 0.565 7.8427718e-39
-0.10600476 0.19425237 0.565 7.9349675e-39
-0.10474286 0.19390857 0.56400001 9.130254e-39
-0.10259429 0.19390857 0.56400001 1.1160025e-38
-0.10134 0.19356477 0.56300002 1.1344416e-38
-0.10008954 0.19322097 0.56200004 1.1346211e-38
-0.099019058 0.19322097 0.56200004 1.1530603e-38
-0.097774297 0.19287716 0.56100005 1.1531326e-38
-0.09670572 0.19287716 0.56100005 1.1531326e-38
-0.09563715 0.19287716 0.56100005 1.116542e-38
-0.09456858 0.19287716 0.56100005 1.1073224e-38
-0.093333334 0.19253333 0.56 1.1440215e-38
-0.092266664 0.19253333 0.56 1.153241e-38
-0.091200002 0.19253333 0.56 1.1716802e-38
-0.090133332 0.19253333 0.56 1.1716802e-38
-0.089066662 0.19253333 0.56 1.1717162e-38
-0.088 0.19253333 0.56 1.1717162e-38
-0.08693333 0.19253333 0.56 1.1901207e-38
-0.085866667 0.19253333 0.56 1.1901207e-38
-0.084799998 0.19253333 0.56 1.2085232e-38
-0.083733328 0.19253333 0.56 1.1900841e-38
-0.082666665 0.19253333 0.56 1.1991954e-38
-0.081600003 0.19253333 0.56 1.2084149e-38
-0.080533333 0.19253333 0.56 1.2084149e-38
-0.079466671 0.19253333 0.56 1.1899758e-38
-0.078400001 0.19253333 0.56 1.153241e-38
-0.077333331 0.19253333 0.56 1.1440215e-38
-0.076266669 0.19253333 0.56 1.1532061e-38
-0.075468577 0.19322097 0.56200004 1.1624257e-38
-0.0743981 0.19322097 0.56200004 1.1624257e-38
-0.073588565 0.19390857 0.56400001 1.1532061e-38
-0.072642855 0.19425237 0.565 1.1532061e-38
-0.070490472 0.19425237 0.565 1.134767e-38
-0.069537148 0.1945962 0.56600004 1.1439866e-38
-0.068459049 0.1945962 0.56600004 1.1438428e-38
-0.06750001 0.19494002 0.56700003 1.1346232e-38
-0.066420004 0.19494002 0.56700003 1.1254037e-38
-0.064373337 0.19528382 0.56800002 1.1254037e-38
-0.063402854 0.19562761 0.56900001 1.097745e-38
-0.061342862 0.19597144 0.57000005 1.0793777e-38
-0.060468573 0.19665904 0.57200003 1.0701215e-38
-0.059586667 0.19734667 0.574 1.0424628e-38
-0.058697145 0.1980343 0.57600003 1.0608304e-38
-0.057700001 0.1983781 0.57700002 1.0608304e-38
-0.054685719 0.19940954 0.58000004 7.1063012e-39
-0.053858094 0.20044094 0.583 6.0921493e-39
-0.11945333 0.19982286 0.57800001 8.2097397e-39
-0.11794286 0.19913144 0.57600003 8.0253484e-39
-0.11405428 0.19809429 0.57300001 9.3168159e-39
-0.11276572 0.19774859 0.57200003 9.1331477e-39
-0.11128572 0.19705716 0.57000005 9.5941259e-39
-0.11000667 0.19671142 0.56900001 8.9498355e-39
-0.10834858 0.1956743 0.56600004 8.2122704e-39
-0.10708095 0.19532856 0.565 8.1182923e-39
-0.10600476 0.19532856 0.565 7.8417054e-39
-0.10474286 0.19498287 0.56400001 7.9335311e-39
-0.10259429 0.19498287 0.56400001 7.9349801e-39
-0.10134 0.19463715 0.56300002 8.3959582e-39
-0.10026763 0.19463715 0.56300002 8.396324e-39
-0.099019058 0.19429144 0.56200004 9.3182803e-39
-0.097948581 0.19429144 0.56200004 9.5952231e-39
-0.096878104 0.19429144 0.56200004 1.0332788e-38
-0.095807627 0.19429144 0.56200004 1.0333138e-38
-0.09456858 0.19394574 0.56100005 1.0333138e-38
-0.093500011 0.19394574 0.56100005 9.872526e-39
-0.092431433 0.19394574 0.56100005 9.5959391e-39
-0.091362864 0.19394574 0.56100005 1.0609372e-38
-0.090133332 0.1936 0.56 1.1531329e-38
-0.089066662 0.1936 0.56 1.1623161e-38
-0.088 0.1936 0.56 1.1346574e-38
-0.08693333 0.1936 0.56 1.0794506e-38
-0.085866667 0.1936 0.56 1.0425724e-38
-0.084799998 0.1936 0.56 1.0334957e-38
-0.083733328 0.1936 0.56 1.0334957e-38
-0.082666665 0.1936 0.56 1.0424992e-38
-0.081600003 0.1936 0.56 1.0332797e-38
-0.080533333 0.1936 0.56 1.0147689e-38
-0.079466671 0.1936 0.56 9.6867111e-39
-0.078400001 0.1936 0.56 9.0434814e-39
-0.077471435 0.19394574 0.56100005 9.7810465e-39
-0.076402865 0.19394574 0.56100005 1.0794509e-38
-0.075468577 0.19429144 0.56200004 1.1532074e-38
-0.074530482 0.19463715 0.56300002 1.1624254e-38
-0.073588565 0.19498287 0.56400001 1.1532059e-38
-0.072642855 0.19532856 0.565 1.1623171e-38
-0.071566664 0.19532856 0.565 1.1623171e-38
-0.070490472 0.19532856 0.565 1.1715371e-38
-0.069537148 0.1956743 0.56600004 1.153098e-38
-0.068459049 0.1956743 0.56600004 1.1438428e-38
-0.06750001 0.19602001 0.56700003 1.1346232e-38
-0.066420004 0.19602001 0.56700003 1.1346588e-38
-0.065455243 0.19636571 0.56800002 1.1254393e-38
-0.064373337 0.19636571 0.56800002 1.1254393e-38
-0.063514285 0.19705716 0.57000005 1.0977806e-38
-0.062428575 0.19705716 0.57000005 1.0793777e-38
-0.061450478 0.19740286 0.57100004 1.0701582e-38
-0.060574286 0.19809429 0.57300001 1.088524e-38
-0.059690483 0.19878574 0.57500005 1.0793045e-38
-0.058697145 0.19913144 0.57600003 1.0516463e-38
-0.057700001 0.19947715 0.57700002 1.0239876e-38
-0.053950481 0.20189716 0.58400005 7.1992269e-39
-0.11794286 0.20022857 0.57600003 8.1168406e-39
-0.11276572 0.1988381 0.57200003 9.1335008e-39
-0.11148096 0.19849049 0.57100004 9.5022834e-39
-0.11020001 0.19814287 0.57000005 9.3186208e-39
-0.10854 0.19710001 0.56700003 8.765447e-39
-0.10727049 0.19675238 0.56600004 8.9484061e-39
-0.10600476 0.19640477 0.565 8.3952323e-39
-0.10259429 0.19605714 0.56400001 7.4725698e-39
-0.10152 0.19605714 0.56400001 8.4867217e-39
-0.10026763 0.19570953 0.56300002 8.5792705e-39
-0.099195242 0.19570953 0.56300002 8.4870749e-39
-0.097948581 0.19536193 0.56200004 8.6721696e-39
-0.096878104 0.19536193 0.56200004 9.5941259e-39
-0.095807627 0.19536193 0.56200004 1.0146579e-38
-0.09456858 0.1950143 0.56100005 1.0146579e-38
-0.093500011 0.1950143 0.56100005 1.0054771e-38
-0.092431433 0.1950143 0.56100005 9.8703792e-39
-0.091362864 0.1950143 0.56100005 1.0239864e-38
-0.090294287 0.1950143 0.56100005 1.0885233e-38
-0.089225724 0.1950143 0.56100005 1.088488e-38
-0.088157155 0.1950143 0.56100005 1.088488e-38
-0.087088577 0.1950143 0.56100005 1.0424992e-38
-0.086020008 0.1950143 0.56100005 9.964014e-39
-0.084951431 0.1950143 0.56100005 9.5966692e-39
-0.083882868 0.1950143 0.56100005 9.412278e-39
-0.082814291 0.1950143 0.56100005 9.5952203e-39
-0.081745721 0.1950143 0.56100005 9.2264378e-39
-0.080677144 0.1950143 0.56100005 9.4097472e-39
-0.078540012 0.1950143 0.56100005 8.0278848e-39
-0.077471435 0.1950143 0.56100005 1.0148384e-38
-0.076402865 0.1950143 0.56100005 1.1161844e-38
-0.074662857 0.19605714 0.56400001 1.1624257e-38
-0.073719047 0.19640477 0.565 1.1532061e-38
-0.072642855 0.19640477 0.565 1.1806848e-38
-0.071693338 0.19675238 0.56600004 1.1806848e-38
-0.070739999 0.19710001 0.56700003 1.180685e-38
-0.066537149 0.19744763 0.56800002 1.1254037e-38
-0.065455243 0.19744763 0.56800002 1.1069646e-38
-0.064486668 0.19779523 0.56900001 1.1069648e-38
-0.063514285 0.19814287 0.57000005 1.0885257e-38
-0.062538095 0.19849049 0.57100004 1.0701229e-38
-0.061558098 0.1988381 0.57200003 1.0793424e-38
-0.060574286 0.19918571 0.57300001 1.0794129e-38
-0.059690483 0.19988096 0.57500005 1.014876e-38
-0.058799051 0.2005762 0.57700002 9.8717847e-39
-0.057800002 0.20092382 0.57800001 1.0240567e-38
-0.053950481 0.20300955 0.58400005 7.9342808e-39
-0.11425333 0.20062667 0.574 8.1186483e-39
-0.11276572 0.19992763 0.57200003 8.9494627e-39
-0.11148096 0.19957812 0.57100004 9.3182452e-39
-0.11020001 0.19922858 0.57000005 9.4108066e-39
-0.10873143 0.19852953 0.56800002 9.5951979e-39
-0.10746001 0.19818 0.56700003 1.0146596e-38
-0.10277619 0.19748095 0.565 9.1342393e-39
-0.10152 0.19713144 0.56400001 8.5810655e-39
-0.10044572 0.19713144 0.56400001 8.5803635e-39
-0.099195242 0.1967819 0.56300002 8.0271897e-39
-0.098122865 0.1967819 0.56300002 8.3962889e-39
-0.097050481 0.1967819 0.56300002 8.8572671e-39
-0.095807627 0.1964324 0.56200004 8.3973833e-39
-0.09473715 0.1964324 0.56200004 8.489579e-39
-0.093500011 0.19608288 0.56100005 9.133903e-39
-0.092431433 0.19608288 0.56100005 8.7651205e-39
-0.091362864 0.19608288 0.56100005 8.4888755e-39
-0.090294287 0.19608288 0.56100005 8.120093e-39
-0.089225724 0.19608288 0.56100005 8.1200902e-39
-0.088157155 0.19608288 0.56100005 8.2122858e-39
-0.087088577 0.19608288 0.56100005 7.8449452e-39
-0.086020008 0.19608288 0.56100005 7.7527496e-39
-0.084951431 0.19608288 0.56100005 7.9367779e-39
-0.084032387 0.1964324 0.56200004 7.9367779e-39
-0.082814291 0.19608288 0.56100005 7.9367779e-39
-0.081745721 0.19608288 0.56100005 7.7523867e-39
-0.077471435 0.19608288 0.56100005 9.872889e-39
-0.076402865 0.19608288 0.56100005 1.1161491e-38
-0.074795231 0.19748095 0.565 1.1716097e-38
-0.073719047 0.19748095 0.565 1.1531705e-38
-0.072642855 0.19748095 0.565 1.1715015e-38
-0.071820006 0.19818 0.56700003 1.1622819e-38
-0.070739999 0.19818 0.56700003 1.1622822e-38
-0.064486668 0.19887905 0.56900001 1.1162923e-38
-0.063625723 0.19957812 0.57100004 1.0978532e-38
-0.062538095 0.19957812 0.57100004 1.125404e-38
-0.061558098 0.19992763 0.57200003 1.125404e-38
-0.060574286 0.20027713 0.57300001 1.0056929e-38
-0.059794288 0.20132573 0.57600003 6.5534946e-39
-0.058799051 0.20167524 0.57700002 5.8209504e-39
-0.057800002 0.20202477 0.57800001 8.5868193e-39
-0.053950481 0.20412192 0.58400005 9.410162e-39
-0.11835238 0.20312572 0.57800001 7.933178e-39
-0.11445239 0.20207144 0.57500005 8.3023136e-39
-0.11296286 0.20136859 0.57300001 8.4867021e-39
-0.11167619 0.20101714 0.57200003 9.2242671e-39
-0.11039334 0.20066573 0.57100004 9.0420339e-39
-0.10892286 0.19996285 0.56900001 9.3186208e-39
-0.10764953 0.19961144 0.56800002 9.8703652e-39
-0.10638 0.19926001 0.56700003 1.0146952e-38
-0.10277619 0.19855714 0.565 9.688132e-39
-0.10152 0.19820571 0.56400001 9.5959363e-39
-0.10044572 0.19820571 0.56400001 9.5030246e-39
-0.099371433 0.19820571 0.56400001 8.9498509e-39
-0.098122865 0.1978543 0.56300002 8.765447e-39
-0.097050481 0.1978543 0.56300002 8.8576426e-39
-0.095978096 0.1978543 0.56300002 8.3059164e-39
-0.094905712 0.1978543 0.56300002 8.5825033e-39
-0.093500011 0.19715144 0.56100005 1.014625e-38
-0.090455242 0.19750287 0.56200004 8.671113e-39
-0.089384764 0.19750287 0.56200004 7.9353458e-39
-0.088314287 0.19750287 0.56200004 8.0275414e-39
-0.08724381 0.19750287 0.56200004 8.2119369e-39
-0.086173333 0.19750287 0.56200004 8.5807194e-39
-0.085102864 0.19750287 0.56200004 8.8565762e-39
-0.084032387 0.19750287 0.56200004 9.0409675e-39
-0.082961909 0.19750287 0.56200004 9.3175516e-39
-0.081891432 0.19750287 0.56200004 9.5019428e-39
-0.078400001 0.19679999 0.56 9.5952231e-39
-0.077471435 0.19715144 0.56100005 1.0424984e-38
-0.076402865 0.19715144 0.56100005 1.1437712e-38
-0.073980004 0.19926001 0.56700003 1.1532061e-38
-0.071820006 0.19926001 0.56700003 1.1530624e-38
-0.070864767 0.19961144 0.56800002 1.1530624e-38
-0.066654287 0.19996285 0.56900001 1.0887052e-38
-0.065570474 0.19996285 0.56900001 1.0979248e-38
-0.064600006 0.2003143 0.57000005 1.1439513e-38
-0.063625723 0.20066573 0.57100004 1.0794143e-38
-0.062647626 0.20101714 0.57200003 1.1069634e-38
-0.061558098 0.20101714 0.57200003 1.1254026e-38
-0.060574286 0.20136859 0.57300001 8.4939048e-39
-0.059794288 0.20242286 0.57600003 5.2670577e-39
-0.058799051 0.20277429 0.57700002 5.7287239e-39
-0.057800002 0.20312572 0.57800001 8.3102016e-39
-0.056797147 0.20347716 0.57900006 1.0055117e-38
-0.054780003 0.20418 0.58100003 8.6732808e-39
-0.054042861 0.20558573 0.58500004 9.4108458e-39
-0.11725143 0.20422667 0.57800001 8.0264498e-39
-0.11594953 0.20387334 0.57700002 8.0264498e-39
-0.11445239 0.20316668 0.57500005 8.2108411e-39
-0.11316 0.20281333 0.574 8.1186455e-39
-0.11187143 0.20246001 0.57300001 8.3952323e-39
-0.11039334 0.20175335 0.57100004 8.6721724e-39
-0.10892286 0.20104666 0.56900001 8.8565636e-39
-0.10764953 0.20069334 0.56800002 8.9484061e-39
-0.10638 0.20034 0.56700003 9.3171886e-39
-0.1053 0.20034 0.56700003 9.4108192e-39
-0.10277619 0.19963333 0.565 9.8721575e-39
-0.10169999 0.19963333 0.565 1.0056549e-38
-0.10062381 0.19963333 0.565 1.0056196e-38
-0.099371433 0.19927999 0.56400001 1.0424978e-38
-0.098297149 0.19927999 0.56400001 1.0609009e-38
-0.097222857 0.19927999 0.56400001 1.0977792e-38
-0.096148573 0.19927999 0.56400001 1.0884517e-38
-0.094905712 0.19892667 0.56300002 1.0792322e-38
-0.093500011 0.19822001 0.56100005 1.0976371e-38
-0.091688573 0.19892667 0.56300002 1.0516458e-38
-0.090616189 0.19892667 0.56300002 1.0147675e-38
-0.089384764 0.19857335 0.56200004 9.5952315e-39
-0.088314287 0.19857335 0.56200004 9.5030359e-39
-0.087399051 0.19892667 0.56300002 1.1161454e-38
-0.086326674 0.19892667 0.56300002 1.1438041e-38
-0.085254289 0.19892667 0.56300002 1.1437691e-38
-0.084181912 0.19892667 0.56300002 1.1437691e-38
-0.082961909 0.19857335 0.56200004 1.1437691e-38
-0.081891432 0.19857335 0.56200004 1.12533e-38
-0.078400001 0.19786666 0.56 1.1899043e-38
-0.077471435 0.19822001 0.56100005 1.1991239e-38
-0.076402865 0.19822001 0.56100005 1.1807566e-38
-0.074795231 0.19963333 0.565 1.1715015e-38
-0.071820006 0.20034 0.56700003 1.134767e-38
-0.070864767 0.20069334 0.56800002 1.1439863e-38
-0.067619048 0.20069334 0.56800002 1.1623171e-38
-0.066654287 0.20104666 0.56900001 1.153241e-38
-0.065685719 0.20140001 0.57000005 1.1255823e-38
-0.064713337 0.20175335 0.57100004 1.125404e-38
-0.063625723 0.20175335 0.57100004 8.9491488e-39
-0.062647626 0.20210667 0.57200003 8.9505669e-39
-0.061665714 0.20246001 0.57300001 9.8725232e-39
-0.060679998 0.20281333 0.574 8.9516081e-39
-0.059794288 0.20352001 0.57600003 3.9730441e-39
-0.058799051 0.20387334 0.57700002 5.6361808e-39
-0.057800002 0.20422667 0.57800001 7.6644846e-39
-0.056797147 0.20458002 0.57900006 9.5033778e-39
-0.05579048 0.20493336 0.58000004 9.7799647e-39
-0.054968569 0.20599332 0.583 9.6881348e-39
-0.11445239 0.20426193 0.57500005 8.3030367e-39
-0.11316 0.20390667 0.574 8.5789005e-39
-0.11187143 0.20355143 0.57300001 8.6710962e-39
-0.11058667 0.2031962 0.57200003 8.6721724e-39
-0.10930572 0.20284097 0.57100004 8.9487593e-39
-0.10783905 0.20213047 0.56900001 9.1327946e-39
-0.10656762 0.20177525 0.56800002 9.1327946e-39
-0.1053 0.20142001 0.56700003 8.8569266e-39
-0.10422 0.20142001 0.56700003 9.6866872e-39
-0.10295811 0.20106477 0.56600004 9.5044596e-39
-0.10169999 0.20070952 0.565 9.5966552e-39
-0.10062381 0.20070952 0.565 9.7803304e-39
-0.099547617 0.20070952 0.565 9.9647217e-39
-0.098471425 0.20070952 0.565 1.0424981e-38
-0.097222857 0.20035429 0.56400001 1.0517177e-38
-0.096148573 0.20035429 0.56400001 1.125366e-38
-0.095074289 0.20035429 0.56400001 1.1438051e-38
-0.094000004 0.20035429 0.56400001 1.143842e-38
-0.09276095 0.19999905 0.56300002 1.079305e-38
-0.091688573 0.19999905 0.56300002 1.0609738e-38
-0.090616189 0.19999905 0.56300002 1.0517542e-38
-0.089543812 0.19999905 0.56300002 9.9665265e-39
-0.088471435 0.19999905 0.56300002 9.9665265e-39
-0.087399051 0.19999905 0.56300002 1.0701579e-38
-0.086326674 0.19999905 0.56300002 1.1070362e-38
-0.085254289 0.19999905 0.56300002 1.1530261e-38
-0.084181912 0.19999905 0.56300002 1.1345869e-38
-0.083109528 0.19999905 0.56300002 1.1346224e-38
-0.082037143 0.19999905 0.56300002 1.0977441e-38
-0.080964759 0.19999905 0.56300002 1.0885246e-38
-0.079892382 0.19999905 0.56300002 1.1715007e-38
-0.078960001 0.20035429 0.56400001 1.1624257e-38
-0.07788571 0.20035429 0.56400001 1.1532061e-38
-0.076947615 0.20070952 0.565 1.1715015e-38
-0.07587143 0.20070952 0.565 1.1807211e-38
-0.074795231 0.20070952 0.565 1.1715015e-38
-0.071820006 0.20142001 0.56700003 1.134767e-38
-0.070864767 0.20177525 0.56800002 1.134803e-38
-0.068700954 0.20177525 0.56800002 1.1716453e-38
-0.067738093 0.20213047 0.56900001 1.1163279e-38
-0.066771433 0.20248573 0.57000005 1.0886675e-38
-0.065685719 0.20248573 0.57000005 1.0425697e-38
-0.064713337 0.20284097 0.57100004 9.5966622e-39
-0.063737147 0.2031962 0.57200003 8.1215321e-39
-0.062647626 0.2031962 0.57200003 8.4892132e-39
-0.061665714 0.20355143 0.57300001 8.7658001e-39
-0.060679998 0.20390667 0.574 8.0278918e-39
-0.059794288 0.20461714 0.57600003 6.9215442e-39
-0.057800002 0.20532763 0.57800001 8.3062765e-39
-0.056797147 0.20568287 0.57900006 9.410113e-39
-0.055886671 0.20639335 0.58100003 9.8710911e-39
-0.055157147 0.20781431 0.58500004 9.7803416e-39
-0.11574858 0.2057143 0.57600003 8.5796236e-39
-0.11316 0.205 0.574 8.3952352e-39
-0.11187143 0.20464286 0.57300001 8.5796264e-39
-0.11058667 0.20428573 0.57200003 8.6721724e-39
-0.10930572 0.20392859 0.57100004 8.8565636e-39
-0.10783905 0.20321429 0.56900001 8.9484061e-39
-0.10675524 0.20321429 0.56900001 9.1327974e-39
-0.10548571 0.20285714 0.56800002 9.0413206e-39
-0.10422 0.20250002 0.56700003 9.2257119e-39
-0.10314 0.20250002 0.56700003 9.3182676e-39
-0.10169999 0.20178571 0.565 8.8572895e-39
-0.098471425 0.20178571 0.565 8.9498649e-39
-0.097395234 0.20178571 0.565 9.0420605e-39
-0.09631905 0.20178571 0.565 9.5023198e-39
-0.095074289 0.20142856 0.56400001 1.0239885e-38
-0.094000004 0.20142856 0.56400001 1.0331706e-38
-0.092925712 0.20142856 0.56400001 1.0239511e-38
-0.091851428 0.20142856 0.56400001 1.0056561e-38
-0.090777144 0.20142856 0.56400001 1.0425344e-38
-0.08970286 0.20142856 0.56400001 1.0424981e-38
-0.088628575 0.20142856 0.56400001 1.024059e-38
-0.087554283 0.20142856 0.56400001 1.0609372e-38
-0.086479999 0.20142856 0.56400001 1.0978155e-38
-0.085405715 0.20142856 0.56400001 1.1160762e-38
-0.08433143 0.20142856 0.56400001 1.0423197e-38
-0.083257139 0.20142856 0.56400001 1.0147695e-38
-0.082182854 0.20142856 0.56400001 1.0332086e-38
-0.08110857 0.20142856 0.56400001 1.0056561e-38
-0.080034286 0.20142856 0.56400001 1.0701931e-38
-0.078960001 0.20142856 0.56400001 1.1623175e-38
-0.078023814 0.20178571 0.565 1.1623175e-38
-0.076947615 0.20178571 0.565 1.1622819e-38
-0.07587143 0.20178571 0.565 1.1715015e-38
-0.074795231 0.20178571 0.565 1.1715018e-38
-0.073849529 0.20214286 0.56600004 1.1622822e-38
-0.07277143 0.20214286 0.56600004 1.1532059e-38
-0.071820006 0.20250002 0.56700003 1.1624254e-38
-0.070864767 0.20285714 0.56800002 1.1807562e-38
-0.069782861 0.20285714 0.56800002 1.1715367e-38
-0.068821907 0.20321429 0.56900001 1.143951e-38
-0.067738093 0.20321429 0.56900001 8.5814453e-39
-0.066771433 0.20357144 0.57000005 5.6376563e-39
-0.065685719 0.20357144 0.57000005 4.7157e-39
-0.064713337 0.20392859 0.57100004 5.0844391e-39
-0.063737147 0.20428573 0.57200003 4.8078522e-39
-0.062647626 0.20428573 0.57200003 5.2663445e-39
-0.061773334 0.205 0.574 6.8336702e-39
-0.060785718 0.20535715 0.57500005 8.9498481e-39
-0.059898097 0.20607144 0.57700002 9.8718044e-39
-0.057800002 0.20642857 0.57800001 1.0332797e-38
-0.056895241 0.20714287 0.58000004 1.033208e-38
-0.055982858 0.20785715 0.58200002 1.0055494e-38
-0.055251431 0.20928572 0.58600003 9.87254e-39
-0.11684573 0.20681143 0.57600003 8.9487593e-39
-0.11206666 0.20609333 0.574 8.671822e-39
-0.11058667 0.20537525 0.57200003 8.6718192e-39
-0.10713048 0.2050162 0.57100004 9.0413206e-39
-0.10567143 0.20429809 0.56900001 9.0413206e-39
-0.10440381 0.20393905 0.56800002 9.2257119e-39
-0.10314 0.20358002 0.56700003 9.3179075e-39
-0.10206001 0.20358002 0.56700003 9.0413206e-39
-0.10062381 0.20286191 0.565 9.0409675e-39
-0.099547617 0.20286191 0.565 9.2253588e-39
-0.09631905 0.20286191 0.565 9.4101102e-39
-0.09524285 0.20286191 0.565 9.686697e-39
-0.094166666 0.20286191 0.565 9.5945014e-39
-0.093090475 0.20286191 0.565 9.7788927e-39
-0.091851428 0.20250286 0.56400001 9.8710883e-39
-0.090777144 0.20250286 0.56400001 9.9632839e-39
-0.08970286 0.20250286 0.56400001 1.0056201e-38
-0.088628575 0.20250286 0.56400001 1.0056201e-38
-0.087554283 0.20250286 0.56400001 9.9632979e-39
-0.086479999 0.20250286 0.56400001 1.0055494e-38
-0.085405715 0.20250286 0.56400001 1.0699424e-38
-0.08433143 0.20250286 0.56400001 1.0422837e-38
-0.083257139 0.20250286 0.56400001 9.6867139e-39
-0.082182854 0.20250286 0.56400001 1.0055496e-38
-0.08110857 0.20250286 0.56400001 9.9640056e-39
-0.080034286 0.20250286 0.56400001 1.0793766e-38
-0.079099998 0.20286191 0.565 1.1715371e-38
-0.078023814 0.20286191 0.565 1.153098e-38
-0.076947615 0.20286191 0.565 1.1439866e-38
-0.07587143 0.20286191 0.565 1.1532061e-38
-0.074927621 0.20322096 0.56600004 1.1439866e-38
-0.073980004 0.20358002 0.56700003 1.1532061e-38
-0.072900005 0.20358002 0.56700003 1.1991602e-38
-0.071946666 0.20393905 0.56800002 1.0793059e-38
-0.069782861 0.20393905 0.56800002 1.1347262e-38
-0.068821907 0.20429809 0.56900001 1.1254037e-38
-0.067738093 0.20429809 0.56900001 7.8427985e-39
-0.066771433 0.20465715 0.57000005 6.4648877e-39
-0.065685719 0.20465715 0.57000005 6.5570833e-39
-0.064713337 0.2050162 0.57100004 7.014809e-39
-0.063737147 0.20537525 0.57200003 6.3694396e-39
-0.062757149 0.2057343 0.57300001 4.9901079e-39
-0.061880957 0.2064524 0.57500005 7.0184118e-39
-0.060891431 0.20681143 0.57600003 9.1335429e-39
-0.056895241 0.20824763 0.58000004 1.0149127e-38
-0.056079045 0.20932476 0.583 9.87254e-39
-0.055251431 0.21040191 0.58600003 9.9640168e-39
-0.1174543 0.20899145 0.57900006 9.1327946e-39
-0.11635144 0.20899145 0.57900006 9.1335163e-39
-0.1073181 0.20646477 0.57200003 9.0409675e-39
-0.10604286 0.20610382 0.57100004 9.0413206e-39
-0.10458762 0.2053819 0.56900001 9.0413206e-39
-0.10332191 0.20502095 0.56800002 8.9491222e-39
-0.10206001 0.20466 0.56700003 8.8569266e-39
-0.10080191 0.20429906 0.56600004 8.8576552e-39
-0.099723816 0.20429906 0.56600004 9.2264378e-39
-0.098471425 0.20393808 0.565 9.5023058e-39
-0.09524285 0.20393808 0.565 9.7788955e-39
-0.094166666 0.20393808 0.565 9.7788955e-39
-0.093090475 0.20393808 0.565 9.9632867e-39
-0.092014283 0.20393808 0.565 9.9629238e-39
-0.090777144 0.20357713 0.56400001 1.0055119e-38
-0.08970286 0.20357713 0.56400001 9.9640028e-39
-0.088785715 0.20393808 0.565 9.9640028e-39
-0.087709524 0.20393808 0.565 9.8711023e-39
-0.086633332 0.20393808 0.565 9.7789067e-39
-0.08555714 0.20393808 0.565 1.0331718e-38
-0.084480956 0.20393808 0.565 1.0331718e-38
-0.083404757 0.20393808 0.565 1.0976727e-38
-0.082328573 0.20393808 0.565 1.1345509e-38
-0.081252381 0.20393808 0.565 1.0701579e-38
-0.08017619 0.20393808 0.565 1.0609383e-38
-0.079099998 0.20393808 0.565 1.143878e-38
-0.078023814 0.20393808 0.565 1.1530975e-38
-0.077083811 0.20429906 0.56600004 1.1439866e-38
-0.07600572 0.20429906 0.56600004 1.1532061e-38
-0.075060003 0.20466 0.56700003 1.1715015e-38
-0.073980004 0.20466 0.56700003 1.1991602e-38
-0.073028572 0.20502095 0.56800002 1.1991602e-38
-0.069782861 0.20502095 0.56800002 7.6679977e-39
-0.06894286 0.20574287 0.57000005 7.8485452e-39
-0.067857146 0.20574287 0.57000005 5.8202413e-39
-0.066888571 0.20610382 0.57100004 6.5578204e-39
-0.065800957 0.20610382 0.57100004 7.2953854e-39
-0.064826667 0.20646477 0.57200003 9.0434688e-39
-0.06384857 0.20682572 0.57300001 9.4122513e-39
-0.062757149 0.20682572 0.57300001 9.6874005e-39
-0.057189524 0.21043524 0.583 1.0241323e-38
-0.056175243 0.21079621 0.58400005 9.9647357e-39
-0.055251431 0.21151811 0.58600003 1.0147689e-38
-0.11635144 0.2100943 0.57900006 9.2257119e-39
-0.11097334 0.20828 0.574 8.8562077e-39
-0.10988 0.20828 0.574 8.9484033e-39
-0.1073181 0.2075543 0.57200003 8.9484089e-39
-0.10604286 0.20719144 0.57100004 8.7650939e-39
-0.10477144 0.20682858 0.57000005 8.7650939e-39
-0.10350381 0.20646571 0.56900001 8.9491194e-39
-0.10224 0.20610286 0.56800002 9.1335106e-39
-0.10098001 0.20574 0.56700003 9.0420465e-39
-0.099723816 0.20537715 0.56600004 9.410829e-39
-0.098645724 0.20537715 0.56600004 9.5952203e-39
-0.097395234 0.20501429 0.565 9.6874159e-39
-0.09631905 0.20501429 0.565 9.5962993e-39
-0.09524285 0.20501429 0.565 9.5041036e-39
-0.094166666 0.20501429 0.565 9.5952203e-39
-0.093090475 0.20501429 0.565 9.5952203e-39
-0.092014283 0.20501429 0.565 9.7788927e-39
-0.090938091 0.20501429 0.565 9.7788927e-39
-0.089861907 0.20501429 0.565 9.686697e-39
-0.088785715 0.20501429 0.565 9.5945014e-39
-0.087864771 0.20537715 0.56600004 9.7788955e-39
-0.086786672 0.20537715 0.56600004 9.9632867e-39
-0.08555714 0.20501429 0.565 1.0423549e-38
-0.084480956 0.20501429 0.565 1.0976723e-38
-0.083404757 0.20501429 0.565 1.1162197e-38
-0.082328573 0.20501429 0.565 1.1162197e-38
-0.081252381 0.20501429 0.565 1.0793777e-38
-0.080318101 0.20537715 0.56600004 1.0701582e-38
-0.079240002 0.20537715 0.56600004 1.1531331e-38
-0.078299999 0.20574 0.56700003 1.1715723e-38
-0.07722 0.20574 0.56700003 1.1439866e-38
-0.076140001 0.20574 0.56700003 1.1532061e-38
-0.075060003 0.20574 0.56700003 1.1807213e-38
-0.073980004 0.20574 0.56700003 1.20838e-38
-0.073028572 0.20610286 0.56800002 1.1347663e-38
-0.071946666 0.20610286 0.56800002 7.1066641e-39
-0.070864767 0.20610286 0.56800002 5.5489794e-39
-0.069905713 0.20646571 0.56900001 6.9319138e-39
-0.06894286 0.20682858 0.57000005 6.9290972e-39
-0.067857146 0.20682858 0.57000005 5.8227496e-39
-0.066888571 0.20719144 0.57100004 6.0982716e-39
-0.065800957 0.20719144 0.57100004 7.2968147e-39
-0.065053329 0.20828 0.574 9.3186446e-39
-0.064071439 0.20864287 0.57500005 9.964014e-39
-0.06308572 0.20900571 0.57600003 1.0332066e-38
-0.062203813 0.20973143 0.57800001 1.0793045e-38
-0.05627143 0.21227144 0.58500004 1.0055496e-38
-0.10750572 0.20900857 0.57300001 8.5810683e-39
-0.10622858 0.20864381 0.57200003 8.4888699e-39
-0.10477144 0.20791429 0.57000005 8.4888699e-39
-0.10350381 0.20754953 0.56900001 8.4888573e-39
-0.10224 0.20718476 0.56800002 8.9498355e-39
-0.1011581 0.20718476 0.56800002 9.0420493e-39
-0.0999 0.20682001 0.56700003 9.5030274e-39
-0.098820008 0.20682001 0.56700003 9.4115451e-39
-0.097567625 0.20645525 0.56600004 9.5037407e-39
-0.096489534 0.20645525 0.56600004 9.7792486e-39
-0.095411435 0.20645525 0.56600004 9.9636399e-39
-0.094333343 0.20645525 0.56600004 9.9632713e-39
-0.093255244 0.20645525 0.56600004 9.6866844e-39
-0.092177153 0.20645525 0.56600004 9.5952203e-39
-0.091099054 0.20645525 0.56600004 9.410829e-39
-0.090020962 0.20645525 0.56600004 9.1349582e-39
-0.088942863 0.20645525 0.56600004 9.0427626e-39
-0.087864771 0.20645525 0.56600004 9.2271706e-39
-0.086786672 0.20645525 0.56600004 9.87254e-39
-0.085708573 0.20645525 0.56600004 1.0332432e-38
-0.084630482 0.20645525 0.56600004 1.1069997e-38
-0.083552383 0.20645525 0.56600004 1.1531682e-38
-0.082474291 0.20645525 0.56600004 1.1531682e-38
-0.081396192 0.20645525 0.56600004 1.0427519e-38
-0.080318101 0.20645525 0.56600004 9.7821493e-39
-0.079380006 0.20682001 0.56700003 1.1254388e-38
-0.078299999 0.20682001 0.56700003 1.1623171e-38
-0.07722 0.20682001 0.56700003 1.1622819e-38
-0.075060003 0.20682001 0.56700003 1.1716097e-38
-0.074110478 0.20718476 0.56800002 1.0056575e-38
-0.073028572 0.20718476 0.56800002 7.3872209e-39
-0.071946666 0.20718476 0.56800002 4.1603739e-39
-0.070989527 0.20754953 0.56900001 4.9029317e-39
-0.070028573 0.20791429 0.57000005 5.6404968e-39
-0.06894286 0.20791429 0.57000005 6.5606678e-39
-0.067976199 0.20827906 0.57100004 6.5606678e-39
-0.067005716 0.20864381 0.57200003 8.6775702e-39
-0.065916196 0.20864381 0.57200003 1.0337092e-38
-0.065053329 0.20937333 0.574 1.1529908e-38
-0.064071439 0.20973812 0.57500005 1.1529908e-38
-0.06308572 0.21010287 0.57600003 1.1253677e-38
-0.062203813 0.21083239 0.57800001 1.1069285e-38
-0.058100004 0.21192667 0.58100003 1.0332799e-38
-0.057385717 0.21338572 0.58500004 1.0149127e-38
-0.10769334 0.21046667 0.574 9.410829e-39
-0.10641429 0.21010001 0.57300001 9.4101102e-39
-0.10495525 0.20936668 0.57100004 8.8569364e-39
-0.10368572 0.20900002 0.57000005 8.8565636e-39
-0.10242 0.20863333 0.56900001 9.1331505e-39
-0.1011581 0.20826668 0.56800002 8.8573021e-39
-0.10007619 0.20826668 0.56800002 9.3182803e-39
-0.098994285 0.20826668 0.56800002 9.4108402e-39
-0.097740002 0.20790002 0.56700003 9.3186446e-39
-0.096660003 0.20790002 0.56700003 9.1342421e-39
-0.095580004 0.20790002 0.56700003 9.410829e-39
-0.094333343 0.20753334 0.56600004 9.9629112e-39
-0.093255244 0.20753334 0.56600004 9.7785199e-39
-0.092177153 0.20753334 0.56600004 9.962921e-39
-0.091099054 0.20753334 0.56600004 1.0516095e-38
-0.090020962 0.20753334 0.56600004 1.0332785e-38
-0.088942863 0.20753334 0.56600004 1.0332785e-38
-0.087864771 0.20753334 0.56600004 1.0424628e-38
-0.086939998 0.20790002 0.56700003 1.0609019e-38
-0.085860007 0.20790002 0.56700003 1.1069637e-38
-0.08478 0.20790002 0.56700003 1.143842e-38
-0.083700001 0.20790002 0.56700003 1.1348382e-38
-0.082474291 0.20753334 0.56600004 1.1256186e-38
-0.081396192 0.20753334 0.56600004 1.0980327e-38
-0.080459997 0.20790002 0.56700003 1.005837e-38
-0.079380006 0.20790002 0.56700003 1.1254026e-38
-0.078299999 0.20790002 0.56700003 1.1807199e-38
-0.07722 0.20790002 0.56700003 1.1622456e-38
-0.076140001 0.20790002 0.56700003 1.1806848e-38
-0.075060003 0.20790002 0.56700003 1.1716097e-38
-0.074110478 0.20826668 0.56800002 9.5955972e-39
-0.071946666 0.20826668 0.56800002 6.1919007e-39
-0.070989527 0.20863333 0.56900001 7.0191376e-39
-0.070028573 0.20900002 0.57000005 7.5723114e-39
-0.06894286 0.20900002 0.57000005 8.4913965e-39
-0.067976199 0.20936668 0.57100004 8.860179e-39
-0.067005716 0.20973335 0.57200003 1.0792331e-38
-0.066031426 0.21010001 0.57300001 1.1345505e-38
-0.065166667 0.21083334 0.57500005 1.0795582e-38
-0.064071439 0.21083334 0.57500005 1.0611191e-38
-0.063195243 0.21156667 0.57700002 1.0702664e-38
-0.062203813 0.21193333 0.57800001 1.0518272e-38
-0.0583 0.21376666 0.583 1.033208e-38
-0.057385717 0.21450002 0.58500004 9.9647357e-39
-0.05627143 0.21450002 0.58500004 9.87254e-39
-0.1089762 0.21192859 0.57500005 1.0239508e-38
-0.10769334 0.21156 0.574 1.0331704e-38
-0.10641429 0.21119143 0.57300001 9.8711023e-39
-0.10495525 0.2104543 0.57100004 9.5945154e-39
-0.10386762 0.2104543 0.57100004 1.005547e-38
-0.10260001 0.21008573 0.57000005 1.0239861e-38
-0.10133619 0.20971714 0.56900001 9.6874187e-39
-0.10025238 0.20971714 0.56900001 9.3186362e-39
-0.098994285 0.20934857 0.56800002 9.3182943e-39
-0.097912386 0.20934857 0.56800002 9.2260986e-39
-0.09683048 0.20934857 0.56800002 8.8580182e-39
-0.095580004 0.20898001 0.56700003 8.7658225e-39
-0.094500005 0.20898001 0.56700003 8.6732612e-39
-0.093419999 0.20898001 0.56700003 8.6732612e-39
-0.092340007 0.20898001 0.56700003 9.6874159e-39
-0.091260001 0.20898001 0.56700003 1.1531329e-38
-0.090180002 0.20898001 0.56700003 1.1806848e-38
-0.089100003 0.20898001 0.56700003 1.1806848e-38
-0.088020004 0.20898001 0.56700003 1.1715367e-38
-0.086939998 0.20898001 0.56700003 1.1715367e-38
-0.085860007 0.20898001 0.56700003 1.1624257e-38
-0.08478 0.20898001 0.56700003 1.1532061e-38
-0.083700001 0.20898001 0.56700003 1.1530975e-38
-0.082620002 0.20898001 0.56700003 1.1530975e-38
-0.081540003 0.20898001 0.56700003 1.1254393e-38
-0.080459997 0.20898001 0.56700003 1.0424632e-38
-0.079380006 0.20898001 0.56700003 1.0517191e-38
-0.078299999 0.20898001 0.56700003 1.1623538e-38
-0.077356189 0.20934857 0.56800002 1.1715367e-38
-0.076274291 0.20934857 0.56800002 1.1715367e-38
-0.075192384 0.20934857 0.56800002 1.1624257e-38
-0.074110478 0.20934857 0.56800002 9.6881488e-39
-0.073028572 0.20934857 0.56800002 9.5984573e-39
-0.071946666 0.20934857 0.56800002 1.0889196e-38
-0.070989527 0.20971714 0.56900001 1.1532059e-38
-0.070028573 0.21008573 0.57000005 1.1439863e-38
-0.069063812 0.2104543 0.57100004 1.1347317e-38
-0.067976199 0.2104543 0.57100004 1.1162926e-38
-0.067122862 0.21119143 0.57300001 1.1162926e-38
-0.066146672 0.21156 0.574 1.107073e-38
-0.065280005 0.21229716 0.57600003 1.0794859e-38
-0.064182863 0.21229716 0.57600003 1.0702664e-38
-0.06330476 0.21303429 0.57800001 1.0702664e-38
-0.062311437 0.21340288 0.57900006 1.0518272e-38
-0.059206668 0.21414001 0.58100003 1.0609023e-38
-0.0583 0.21487714 0.583 1.0424632e-38
-0.11454 0.21524668 0.58100003 9.6866844e-39
-0.11304287 0.21450573 0.57900006 1.0055467e-38
-0.11155333 0.21376476 0.57700002 1.0239142e-38
-0.1089762 0.21302383 0.57500005 1.0423536e-38
-0.10788096 0.21302383 0.57500005 1.0423536e-38
-0.10641429 0.21228285 0.57300001 1.0056561e-38
-0.10513905 0.21191239 0.57200003 1.0148757e-38
-0.10404953 0.21191239 0.57200003 1.0240587e-38
-0.10278001 0.21154192 0.57100004 1.0240587e-38
-0.10151429 0.21117145 0.57000005 9.5966622e-39
-0.10042858 0.21117145 0.57000005 9.6888578e-39
-0.099168569 0.21080096 0.56900001 1.0147689e-38
-0.098084763 0.21080096 0.56900001 9.6867111e-39
-0.09683048 0.21043049 0.56800002 9.8703792e-39
-0.095748574 0.21043049 0.56800002 9.7781836e-39
-0.094666667 0.21043049 0.56800002 9.6863341e-39
-0.093584761 0.21043049 0.56800002 9.6863341e-39
-0.092340007 0.21006002 0.56700003 9.6874159e-39
-0.091260001 0.21006002 0.56700003 1.0793763e-38
-0.090180002 0.21006002 0.56700003 1.1254393e-38
-0.089100003 0.21006002 0.56700003 1.1438784e-38
-0.088020004 0.21006002 0.56700003 1.1348019e-38
-0.086939998 0.21006002 0.56700003 1.1255823e-38
-0.086011432 0.21043049 0.56800002 1.1439866e-38
-0.084929526 0.21043049 0.56800002 1.1255474e-38
-0.08384762 0.21043049 0.56800002 1.1254028e-38
-0.082765713 0.21043049 0.56800002 1.1161833e-38
-0.081683815 0.21043049 0.56800002 1.097709e-38
-0.080601908 0.21043049 0.56800002 1.0884894e-38
-0.079520002 0.21043049 0.56800002 1.0608667e-38
-0.078438096 0.21043049 0.56800002 1.1438428e-38
-0.077356189 0.21043049 0.56800002 1.153098e-38
-0.076274291 0.21043049 0.56800002 1.153098e-38
-0.075192384 0.21043049 0.56800002 1.1532061e-38
-0.074110478 0.21043049 0.56800002 1.0794496e-38
-0.073157147 0.21080096 0.56900001 1.0793777e-38
-0.072073333 0.21080096 0.56900001 1.1531343e-38
-0.071114287 0.21117145 0.57000005 1.1532061e-38
-0.070028573 0.21117145 0.57000005 1.1532061e-38
-0.069063812 0.21154192 0.57100004 1.143951e-38
-0.068095237 0.21191239 0.57200003 1.1347314e-38
-0.06724 0.21265332 0.574 1.0978897e-38
-0.06626191 0.21302383 0.57500005 1.0702311e-38
-0.064182863 0.2133943 0.57600003 1.0702308e-38
-0.06330476 0.21413524 0.57800001 1.0610115e-38
-0.062311437 0.21450573 0.57900006 1.0610115e-38
-0.059206668 0.21524668 0.58100003 1.0517191e-38
-0.11454 0.21635334 0.58100003 9.6870376e-39
-0.11304287 0.2156086 0.57900006 9.8714288e-39
-0.11174667 0.21523619 0.57800001 1.0331694e-38
-0.10916572 0.21449144 0.57600003 1.0424252e-38
-0.10788096 0.21411906 0.57500005 1.0424252e-38
-0.1066 0.21374667 0.574 1.051753e-38
