# .PCD v0.7 - Point Cloud Data file format
VERSION 0.7
FIELDS x y z rgb
SIZE 4 4 4 4
TYPE F F F F
COUNT 1 1 1 1
WIDTH 263
HEIGHT 1
VIEWPOINT 0 0 0 1 0 0 0
POINTS 263
DATA ascii
0.34437242 -0.35339525 1.5790001 3.6096341e-39
0.34437242 -0.35038763 1.5790001 4.3478886e-39
0.34437242 -0.34738001 1.5790001 3.4277638e-39
0.34883428 -0.34584001 1.572 2.5076054e-39
0.34584001 -0.34284571 1.572 1.8636751e-39
0.34883428 -0.34284571 1.572 1.4044948e-39
0.34584001 -0.33985141 1.572 8.531007e-40
0.34883428 -0.33985141 1.572 9.4457045e-40
0.35182858 -0.33985141 1.572 9.4457045e-40
0.32777333 -0.33985713 1.5860001 3.8873126e-39
0.34437242 -0.33835715 1.5790001 2.8778172e-39
0.34738001 -0.33835715 1.5790001 2.9700129e-39
0.34437242 -0.33534956 1.5790001 7.8485003e-39
0.34738001 -0.33534956 1.5790001 7.6641091e-39
0.3307943 -0.33381525 1.5860001 1.5306993e-38
0.34136477 -0.33234191 1.5790001 1.567686e-38
0.34437242 -0.33234191 1.5790001 1.5124046e-38
0.34738001 -0.33234191 1.5790001 1.4663068e-38
0.34136477 -0.32933432 1.5790001 1.6134601e-38
0.34437242 -0.32933432 1.5790001 1.5859096e-38
0.34738001 -0.32933432 1.5790001 1.5582509e-38
0.32475239 -0.32777333 1.5860001 1.751717e-38
0.34136477 -0.3263267 1.5790001 1.7886315e-38
0.34437242 -0.3263267 1.5790001 1.7517898e-38
0.34738001 -0.3263267 1.5790001 1.7149116e-38
0.35038763 -0.3263267 1.5790001 1.6873248e-38
0.34136477 -0.32331905 1.5790001 1.8255461e-38
0.34437242 -0.32331905 1.5790001 1.7702655e-38
0.34738001 -0.32331905 1.5790001 1.761046e-38
0.35038763 -0.32331905 1.5790001 1.7058728e-38
0.34136477 -0.32031146 1.5790001 1.8441294e-38
0.34437242 -0.32031146 1.5790001 1.7795577e-38
0.34738001 -0.32031146 1.5790001 1.7703381e-38
0.35038763 -0.32031146 1.5790001 1.7243482e-38
0.31266859 -0.31871051 1.5860001 1.6965443e-38
0.33835715 -0.31730384 1.5790001 1.844166e-38
0.34136477 -0.31730384 1.5790001 1.844166e-38
0.34437242 -0.31730384 1.5790001 1.7520082e-38
0.34738001 -0.31730384 1.5790001 1.733569e-38
0.35182858 -0.31589717 1.572 1.6692113e-38
0.31266859 -0.31568953 1.5860001 1.6871803e-38
0.3233543 -0.31728193 1.5940001 1.6783227e-38
0.33835715 -0.31429622 1.5790001 1.8165801e-38
0.34284571 -0.31290287 1.572 1.7981425e-38
0.34584001 -0.31290287 1.572 1.7704839e-38
0.34883428 -0.31290287 1.572 1.669175e-38
0.35182858 -0.31290287 1.572 1.6783946e-38
0.35482284 -0.31290287 1.572 1.678287e-38
0.3233543 -0.31424573 1.5940001 1.6691753e-38
0.33835715 -0.3112886 1.5790001 1.7982492e-38
0.34284571 -0.30990857 1.572 1.6877233e-38
0.34584001 -0.30990857 1.572 1.6969429e-38
0.34883428 -0.30990857 1.572 1.6783949e-38
0.35182858 -0.30990857 1.572 1.6507362e-38
0.35482284 -0.30990857 1.572 1.659776e-38
0.3203181 -0.31120953 1.5940001 1.7151612e-38
0.33835715 -0.30828097 1.5790001 1.7614072e-38
0.33985141 -0.3069143 1.572 1.724529e-38
0.34284571 -0.3069143 1.572 1.7244924e-38
0.34584001 -0.3069143 1.572 1.733712e-38
0.34883428 -0.3069143 1.572 1.7152728e-38
0.35182858 -0.3069143 1.572 1.6415163e-38
0.35482284 -0.3069143 1.572 1.6322592e-38
0.3203181 -0.30817336 1.5940001 1.5035794e-38
0.33534956 -0.30527335 1.5790001 1.604817e-38
0.33835715 -0.30527335 1.5790001 1.6232564e-38
0.34136477 -0.30527335 1.5790001 1.6140369e-38
0.34437242 -0.30527335 1.5790001 1.6048886e-38
0.34584001 -0.30392 1.572 1.5956691e-38
0.34883428 -0.30392 1.572 1.5036182e-38
0.35182858 -0.30392 1.572 1.4759595e-38
0.35482284 -0.30392 1.572 1.3930188e-38
0.31120953 -0.30513716 1.5940001 7.4782086e-39
0.31266859 -0.30360574 1.5860001 8.123578e-39
0.33835715 -0.30226573 1.5790001 1.3010734e-38
0.34136477 -0.30226573 1.5790001 1.3010734e-38
0.34437242 -0.30226573 1.5790001 1.2458276e-38
0.34584001 -0.30092573 1.572 1.1997298e-38
0.34883428 -0.30092573 1.572 1.0982799e-38
0.35182858 -0.30092573 1.572 1.052182e-38
0.35482284 -0.30092573 1.572 1.1348694e-38
0.35781714 -0.30092573 1.572 1.1533086e-38
0.31266859 -0.30058476 1.5860001 9.2281109e-39
0.33985713 -0.30058476 1.5860001 1.2458995e-38
0.34136477 -0.29925811 1.5790001 1.2458995e-38
0.34437242 -0.29925811 1.5790001 1.1721796e-38
0.34883428 -0.29793143 1.572 1.0983512e-38
0.35182858 -0.29793143 1.572 1.1075708e-38
0.35482284 -0.29793143 1.572 1.1349423e-38
0.33985713 -0.29756382 1.5860001 1.4574825e-38
0.34287813 -0.29756382 1.5860001 1.4851412e-38
0.34738001 -0.29625049 1.5790001 1.5219822e-38
0.35038763 -0.29625049 1.5790001 1.5587901e-38
0.35339525 -0.29625049 1.5790001 1.5680097e-38
0.35640287 -0.29625049 1.5790001 1.5127652e-38
0.36704573 -0.29756382 1.5860001 1.4481226e-38
0.33381525 -0.29454288 1.5860001 1.6322589e-38
0.33985713 -0.29454288 1.5860001 1.5126185e-38
0.34287813 -0.29454288 1.5860001 1.6416923e-38
0.34589908 -0.29454288 1.5860001 1.6968637e-38
0.35038763 -0.29324287 1.5790001 1.6601299e-38
0.35339525 -0.29324287 1.5790001 1.5771539e-38
0.35640287 -0.29324287 1.5790001 1.4943958e-38
0.34287813 -0.29152194 1.5860001 1.7242355e-38
0.34589908 -0.29152194 1.5860001 1.5864033e-38
0.34892002 -0.29152194 1.5860001 1.3005968e-38
0.35194096 -0.29152194 1.5860001 9.143125e-39
0.35339525 -0.29023525 1.5790001 6.3772561e-39
0.35640287 -0.29023525 1.5790001 1.8737168e-39
0.34287813 -0.28850096 1.5860001 1.6596947e-38
0.34589908 -0.28850096 1.5860001 1.4114492e-38
0.34892002 -0.28850096 1.5860001 1.1993992e-38
0.35194096 -0.28850096 1.5860001 7.488979e-39
0.35496193 -0.28850096 1.5860001 4.9075014e-39
0.30187908 -0.28962001 1.6090001 1.1341883e-38
0.3247743 -0.28818002 1.6010001 1.0315881e-38
0.34287813 -0.28548002 1.5860001 1.6597287e-38
0.34589908 -0.28548002 1.5860001 1.4942107e-38
0.34892002 -0.28548002 1.5860001 1.3927955e-38
0.35194096 -0.28548002 1.5860001 1.153594e-38
0.35496193 -0.28548002 1.5860001 1.1720331e-38
0.33985713 -0.28245905 1.5860001 1.7422453e-38
0.34287813 -0.28245905 1.5860001 1.7606844e-38
0.34589908 -0.28245905 1.5860001 1.7150876e-38
0.34892002 -0.28245905 1.5860001 1.705868e-38
0.35194096 -0.28245905 1.5860001 1.6690643e-38
0.35496193 -0.28245905 1.5860001 1.6875034e-38
0.33985713 -0.27943811 1.5860001 1.7794534e-38
0.34287813 -0.27943811 1.5860001 1.7241361e-38
0.34589908 -0.27943811 1.5860001 1.6967233e-38
0.34892002 -0.27943811 1.5860001 1.7520407e-38
0.35194096 -0.27943811 1.5860001 1.706018e-38
0.35496193 -0.27943811 1.5860001 1.7152375e-38
0.30952668 -0.27903143 1.6010001 1.6501951e-38
0.33985713 -0.27641714 1.5860001 1.4942204e-38
0.34287813 -0.27641714 1.5860001 1.4020248e-38
0.34589908 -0.27641714 1.5860001 1.2914591e-38
0.34892002 -0.27641714 1.5860001 1.3191178e-38
0.35194096 -0.27641714 1.5860001 1.3651806e-38
0.35496193 -0.27641714 1.5860001 1.3651806e-38
0.35798287 -0.27641714 1.5860001 1.3007856e-38
0.30319241 -0.27856761 1.6160001 1.1619902e-38
0.33985713 -0.27339619 1.5860001 7.6023945e-40
0.34287813 -0.27339619 1.5860001 1.5900001e-39
0.34589908 -0.27339619 1.5860001 6.6489006e-39
0.34892002 -0.27339619 1.5860001 5.8191399e-39
0.35194096 -0.27339619 1.5860001 8.1225537e-39
0.3567524 -0.27477524 1.5940001 7.292793e-39
0.30319241 -0.27548954 1.6160001 1.1712097e-38
0.3125762 -0.27293238 1.6010001 1.6226431e-38
0.33985713 -0.27037525 1.5860001 3.0579766e-39
0.34287813 -0.27037525 1.5860001 3.8877372e-39
0.34589908 -0.27037525 1.5860001 9.2263971e-39
0.34892002 -0.27037525 1.5860001 9.9639622e-39
0.35194096 -0.27037525 1.5860001 1.0606113e-38
0.3125762 -0.26988286 1.6010001 1.6411551e-38
0.34157145 -0.26870289 1.5940001 9.7810801e-39
0.34287813 -0.26735431 1.5860001 1.042645e-38
0.34589908 -0.26735431 1.5860001 1.1896849e-38
0.34892002 -0.26735431 1.5860001 1.3925153e-38
0.3125762 -0.26683334 1.6010001 1.5767621e-38
0.31424573 -0.26566666 1.5940001 1.6781772e-38
0.33392286 -0.26683334 1.6010001 1.4293895e-38
0.34157145 -0.26566666 1.5940001 1.4480141e-38
0.34589908 -0.26433334 1.5860001 1.2818833e-38
0.35068002 -0.26566666 1.5940001 1.4386159e-38
0.35371622 -0.26566666 1.5940001 1.4380069e-38
0.3125762 -0.26378384 1.6010001 1.5952368e-38
0.31424573 -0.26263049 1.5940001 1.7058715e-38
0.34157145 -0.26263049 1.5940001 1.3746162e-38
0.34460762 -0.26263049 1.5940001 1.3653966e-38
0.34764382 -0.26263049 1.5940001 1.2914287e-38
0.35068002 -0.26263049 1.5940001 1.3375265e-38
0.35371622 -0.26263049 1.5940001 1.1805469e-38
0.31413811 -0.26203716 1.6090001 1.604457e-38
0.33853528 -0.25959429 1.5940001 1.3282259e-38
0.34157145 -0.25959429 1.5940001 1.0065849e-38
0.34460762 -0.25959429 1.5940001 8.1297409e-39
0.34764382 -0.25959429 1.5940001 7.207559e-39
0.35068002 -0.25959429 1.5940001 7.3919503e-39
0.35371622 -0.25959429 1.5940001 6.378527e-39
0.3567524 -0.25959429 1.5940001 1.0311805e-39
0.31413811 -0.25897241 1.6090001 1.6136053e-38
0.33853528 -0.25655812 1.5940001 1.1258535e-38
0.34157145 -0.25655812 1.5940001 8.0414143e-39
0.34460762 -0.25655812 1.5940001 6.1053061e-39
0.34764382 -0.25655812 1.5940001 6.8402311e-39
0.35068002 -0.25655812 1.5940001 6.8402311e-39
0.35371622 -0.25655812 1.5940001 5.2757542e-39
0.3567524 -0.25655812 1.5940001 2.0603291e-41
0.37543336 -0.25897241 1.6090001 1.4198105e-38
0.31413811 -0.25590762 1.6090001 1.604386e-38
0.31562573 -0.25463524 1.6010001 1.7242403e-38
0.33549905 -0.25352192 1.5940001 1.217982e-38
0.34764382 -0.25352192 1.5940001 7.5766891e-39
0.35068002 -0.25352192 1.5940001 7.6688847e-39
0.35371622 -0.25352192 1.5940001 6.5646755e-39
0.3567524 -0.25352192 1.5940001 2.3236766e-39
0.38156289 -0.25590762 1.6090001 1.1428623e-38
0.32026762 -0.25284287 1.6090001 1.7794485e-38
0.34307143 -0.25158572 1.6010001 1.365502e-38
0.34612095 -0.25158572 1.6010001 1.365502e-38
0.35068002 -0.25048572 1.5940001 1.3654e-38
0.35371622 -0.25048572 1.5940001 1.3192635e-38
0.3567524 -0.25048572 1.5940001 1.0795549e-38
0.38156289 -0.25284287 1.6090001 1.1244226e-38
0.34307143 -0.2485362 1.6010001 1.4666671e-38
0.34612095 -0.2485362 1.6010001 1.4482279e-38
0.34917051 -0.2485362 1.6010001 1.3928418e-38
0.35222003 -0.2485362 1.6010001 1.4112809e-38
0.37966573 -0.2485362 1.6010001 1.1428973e-38
0.33559147 -0.24671334 1.6090001 1.8994818e-38
0.34002191 -0.24548668 1.6010001 1.8349474e-38
0.34307143 -0.24548668 1.6010001 1.8073956e-38
0.34612095 -0.24548668 1.6010001 1.7797369e-38
0.34917051 -0.24548668 1.6010001 1.7336038e-38
0.35222003 -0.24548668 1.6010001 1.7243842e-38
0.35526955 -0.24548668 1.6010001 1.7243482e-38
0.38156289 -0.24671334 1.6090001 1.1705204e-38
0.34612095 -0.24243714 1.6010001 1.7981047e-38
0.34917051 -0.24243714 1.6010001 1.7428589e-38
0.35222003 -0.24243714 1.6010001 1.7152003e-38
0.35526955 -0.24243714 1.6010001 1.7152003e-38
0.32944003 -0.24282669 1.6240001 1.4942179e-38
0.33559147 -0.24058381 1.6090001 1.7428221e-38
0.34478572 -0.24058381 1.6090001 1.6875425e-38
0.34785047 -0.24058381 1.6090001 1.6045665e-38
0.34917051 -0.23938763 1.6010001 1.540173e-38
0.35222003 -0.23938763 1.6010001 1.5493926e-38
0.35526955 -0.23938763 1.6010001 1.6138564e-38
0.32944003 -0.23973335 1.6240001 1.2822055e-38
0.34478572 -0.23751907 1.6090001 1.5400293e-38
0.34785047 -0.23751907 1.6090001 1.4570532e-38
0.35091525 -0.23751907 1.6090001 1.429538e-38
0.32944003 -0.23664001 1.6240001 1.4388677e-38
0.34785047 -0.2344543 1.6090001 1.3835831e-38
0.35091525 -0.2344543 1.6090001 1.4203907e-38
0.32944003 -0.23354667 1.6240001 1.4573421e-38
0.34785047 -0.23138954 1.6090001 1.4573762e-38
0.35091525 -0.23138954 1.6090001 1.4942179e-38
0.34478572 -0.22832477 1.6090001 1.5585393e-38
0.34785047 -0.22832477 1.6090001 1.5677588e-38
0.35091525 -0.22832477 1.6090001 1.5953454e-38
0.34172097 -0.22526 1.6090001 1.5401365e-38
0.34478572 -0.22526 1.6090001 1.6136065e-38
0.34785047 -0.22526 1.6090001 1.6320457e-38
0.35091525 -0.22526 1.6090001 1.6229327e-38
0.35398 -0.22526 1.6090001 1.7151284e-38
0.30619431 -0.22537144 1.6320001 1.5119718e-38
0.34478572 -0.22219524 1.6090001 1.7610842e-38
0.34785047 -0.22219524 1.6090001 1.7518647e-38
0.35091525 -0.22219524 1.6090001 1.6782148e-38
0.35398 -0.22219524 1.6090001 1.6874344e-38
0.33252668 -0.21913049 1.6090001 1.7704823e-38
0.33559147 -0.21913049 1.6090001 1.7336041e-38
0.34478572 -0.21913049 1.6090001 1.66914e-38
0.34785047 -0.21913049 1.6090001 1.6783596e-38
0.35091525 -0.21913049 1.6090001 1.6690308e-38
0.35398 -0.21913049 1.6090001 1.6782504e-38
0.33397332 -0.21700571 1.6160001 1.8534218e-38
0.34478572 -0.21606573 1.6090001 1.7704823e-38
0.34785047 -0.21606573 1.6090001 1.7704823e-38
0.35091525 -0.21606573 1.6090001 1.7520066e-38
