# .PCD v0.7 - Point Cloud Data file format
VERSION 0.7
FIELDS x y z rgb
SIZE 4 4 4 4
TYPE F F F F
COUNT 1 1 1 1
WIDTH 109
HEIGHT 1
VIEWPOINT 0 0 0 1 0 0 0
POINTS 109
DATA ascii
0.33795714 -0.41379145 1.7310001 3.6993088e-39
0.34125429 -0.41379145 1.7310001 3.7915045e-39
0.33795714 -0.4104943 1.7310001 3.0578799e-39
0.34125429 -0.4104943 1.7310001 3.0578799e-39
0.33795714 -0.40719715 1.7310001 2.5987038e-39
0.34125429 -0.40719715 1.7310001 2.7830951e-39
0.37884003 -0.38868001 1.7220001 2.0300667e-39
0.32806572 -0.37752286 1.7310001 1.7056207e-38
0.34276 -0.37556002 1.7220001 1.853205e-38
0.32806572 -0.37422574 1.7310001 1.6688873e-38
0.34276 -0.37228003 1.7220001 1.7980328e-38
0.32806572 -0.37092859 1.7310001 1.6781069e-38
0.34276 -0.36900002 1.7220001 1.8164369e-38
0.32806572 -0.36763144 1.7310001 1.6688873e-38
0.34276 -0.36572003 1.7220001 1.7611549e-38
0.32806572 -0.36433432 1.7310001 1.6227169e-38
0.33136284 -0.36433432 1.7310001 1.5215901e-38
0.33948004 -0.36244002 1.7220001 1.5954523e-38
0.34276 -0.36244002 1.7220001 1.57705e-38
0.33136284 -0.36103716 1.7310001 1.355779e-38
0.33948004 -0.35916004 1.7220001 1.2640868e-38
0.34276 -0.35916004 1.7220001 1.3560313e-38
0.34604004 -0.35916004 1.7220001 1.3283727e-38
0.33948004 -0.35587999 1.7220001 9.6023375e-39
0.34276 -0.35587999 1.7220001 1.0060444e-38
0.34604004 -0.35587999 1.7220001 9.2306837e-39
0.33292004 -0.35260004 1.7220001 9.4129113e-39
0.33948004 -0.35260004 1.7220001 1.0982754e-38
0.34276 -0.35260004 1.7220001 1.125719e-38
0.34604004 -0.35260004 1.7220001 1.1072798e-38
0.33795714 -0.35114571 1.7310001 1.2362811e-38
0.33948004 -0.34931999 1.7220001 1.3930137e-38
0.34276 -0.34931999 1.7220001 1.4204581e-38
0.34604004 -0.34931999 1.7220001 1.4204581e-38
0.33948004 -0.34604004 1.7220001 1.4296421e-38
0.34276 -0.34604004 1.7220001 1.4479396e-38
0.34604004 -0.34604004 1.7220001 1.4848178e-38
0.34931999 -0.34604004 1.7220001 1.5766547e-38
0.33948004 -0.34276 1.7220001 1.7981723e-38
0.34276 -0.34276 1.7220001 1.7979595e-38
0.34604004 -0.34276 1.7220001 1.7057639e-38
0.34931999 -0.34276 1.7220001 1.4564813e-38
0.33948004 -0.33948004 1.7220001 1.7884898e-38
0.34276 -0.33948004 1.7220001 1.7977785e-38
0.34604004 -0.33948004 1.7220001 1.6502655e-38
0.34931999 -0.33948004 1.7220001 1.2912045e-38
0.34125429 -0.33795714 1.7310001 1.3918715e-38
0.34276 -0.3362 1.7220001 1.0229049e-38
0.34604004 -0.3362 1.7220001 1.0044657e-38
0.34931999 -0.3362 1.7220001 1.0692413e-38
0.34125429 -0.33465999 1.7310001 1.3826117e-38
0.34455144 -0.33465999 1.7310001 9.3949943e-39
0.34784859 -0.33465999 1.7310001 1.0040364e-38
0.34125429 -0.33136284 1.7310001 1.4289901e-38
0.34455144 -0.33136284 1.7310001 1.26248e-38
0.34784859 -0.33136284 1.7310001 1.1795039e-38
0.34125429 -0.32806572 1.7310001 1.585516e-38
0.34455144 -0.32806572 1.7310001 1.5856957e-38
0.34784859 -0.32806572 1.7310001 1.1431567e-38
0.33795714 -0.32476857 1.7310001 1.8254419e-38
0.34125429 -0.32476857 1.7310001 1.7793441e-38
0.34455144 -0.32476857 1.7310001 1.4110948e-38
0.34784859 -0.32476857 1.7310001 6.7352976e-39
0.34614381 -0.32295716 1.7390001 1.3562131e-38
0.34614381 -0.31964478 1.7390001 1.7243495e-38
0.34283143 -0.3163324 1.7390001 1.7335337e-38
0.34614381 -0.3163324 1.7390001 1.761083e-38
0.37124193 -0.31796953 1.748 8.584559e-39
0.34283143 -0.31302002 1.7390001 1.7243495e-38
0.34614381 -0.31302002 1.7390001 1.7610104e-38
0.34283143 -0.30970764 1.7390001 1.7243139e-38
0.34614381 -0.30970764 1.7390001 1.7793766e-38
0.34945619 -0.30970764 1.7390001 1.5949854e-38
0.34455144 -0.30498573 1.7310001 1.7611163e-38
0.34784859 -0.30498573 1.7310001 1.6043837e-38
0.35114571 -0.30498573 1.7310001 1.5581356e-38
0.34455144 -0.30168858 1.7310001 1.7611889e-38
0.34784859 -0.30168858 1.7310001 1.5952368e-38
0.35114571 -0.30168858 1.7310001 1.5397008e-38
0.35444286 -0.30168858 1.7310001 1.5857986e-38
0.34283143 -0.29977047 1.7390001 1.4938601e-38
0.34455144 -0.29839143 1.7310001 1.5399216e-38
0.34784859 -0.29839143 1.7310001 1.6321173e-38
0.35114571 -0.29839143 1.7310001 1.6873248e-38
0.35444286 -0.29839143 1.7310001 1.7610813e-38
0.34283143 -0.2964581 1.7390001 1.4938964e-38
0.34784859 -0.29509428 1.7310001 1.5399945e-38
0.35444286 -0.29509428 1.7310001 1.6321876e-38
0.35774001 -0.29509428 1.7310001 1.6597394e-38
0.33794665 -0.29466286 1.748 1.5954185e-38
0.33951905 -0.29314572 1.7390001 1.586092e-38
0.34283143 -0.29314572 1.7390001 1.5399942e-38
0.34614381 -0.29314572 1.7390001 1.466239e-38
0.34945619 -0.29314572 1.7390001 1.4570194e-38
0.35276857 -0.29314572 1.7390001 1.4017714e-38
0.30778858 -0.29433334 1.766 1.1433019e-38
0.33951905 -0.28983334 1.7390001 1.4846406e-38
0.34283143 -0.28983334 1.7390001 1.4662014e-38
0.34614381 -0.28983334 1.7390001 1.4754576e-38
0.34945619 -0.28983334 1.7390001 1.4570184e-38
0.35276857 -0.28983334 1.7390001 1.3280146e-38
0.34460571 -0.2880038 1.748 1.5584311e-38
0.34614381 -0.28652096 1.7390001 1.5493197e-38
0.34945619 -0.28652096 1.7390001 1.5124415e-38
0.34460571 -0.28467429 1.748 1.5678305e-38
0.34793523 -0.28467429 1.748 1.6229327e-38
0.35126477 -0.28467429 1.748 1.5307371e-38
0.32462859 -0.27468571 1.748 1.7149479e-38
0.32462859 -0.2713562 1.748 1.6965811e-38
