# .PCD v0.7 - Point Cloud Data file format
VERSION 0.7
FIELDS x y z rgb
SIZE 4 4 4 4
TYPE F F F F
COUNT 1 1 1 1
WIDTH 182
HEIGHT 1
VIEWPOINT 0 0 0 1 0 0 0
POINTS 182
DATA ascii
0.20190668 -0.3597886 1.5940001 8.0285826e-39
0.20279334 -0.35526955 1.6010001 2.5072523e-39
0.19787239 -0.34589908 1.5860001 2.0448266e-39
0.19364478 -0.34612095 1.6010001 1.4923969e-39
0.19787239 -0.34287813 1.5860001 2.2270654e-39
0.20693524 -0.34287813 1.5860001 2.3196394e-39
0.19364478 -0.34307143 1.6010001 9.2253209e-39
0.19787239 -0.33985713 1.5860001 9.686655e-39
0.19364478 -0.34002191 1.6010001 1.134366e-38
0.17839715 -0.3247743 1.6010001 1.3463812e-38
0.20797907 -0.3233543 1.5940001 1.4294661e-38
0.21101524 -0.3233543 1.5940001 1.4294661e-38
0.1646781 -0.32473907 1.6160001 1.5857648e-38
0.17839715 -0.32172477 1.6010001 1.3464528e-38
0.20494287 -0.3203181 1.5940001 1.4571254e-38
0.20797907 -0.3203181 1.5940001 1.4111712e-38
0.21101524 -0.3203181 1.5940001 1.392732e-38
0.21405144 -0.3203181 1.5940001 1.3373794e-38
0.20494287 -0.31728193 1.5940001 1.4386857e-38
0.20797907 -0.31728193 1.5940001 1.4387576e-38
0.21101524 -0.31728193 1.5940001 1.4018793e-38
0.21405144 -0.31728193 1.5940001 1.4110273e-38
0.20494287 -0.31424573 1.5940001 1.4295733e-38
0.20797907 -0.31424573 1.5940001 1.4387213e-38
0.21101524 -0.31424573 1.5940001 1.4202821e-38
0.21405144 -0.31424573 1.5940001 1.4202465e-38
0.20190668 -0.31120953 1.5940001 1.3742184e-38
0.20494287 -0.31120953 1.5940001 1.3465597e-38
0.20797907 -0.31120953 1.5940001 1.2728407e-38
0.21101524 -0.31120953 1.5940001 1.2359625e-38
0.21405144 -0.31120953 1.5940001 1.1438757e-38
0.19583429 -0.30817336 1.5940001 1.2358884e-38
0.20190668 -0.30817336 1.5940001 1.1899703e-38
0.20494287 -0.30817336 1.5940001 1.1530921e-38
0.20797907 -0.30817336 1.5940001 1.1161429e-38
0.21101524 -0.30817336 1.5940001 1.1069234e-38
0.21405144 -0.30817336 1.5940001 1.0701527e-38
0.21708763 -0.30817336 1.5940001 1.0517136e-38
0.20279334 -0.30647716 1.6010001 1.1715297e-38
0.20494287 -0.30513716 1.5940001 1.1530905e-38
0.20797907 -0.30513716 1.5940001 1.1162858e-38
0.21101524 -0.30513716 1.5940001 1.0978467e-38
0.21405144 -0.30513716 1.5940001 1.0794782e-38
0.21708763 -0.30513716 1.5940001 9.7806303e-39
0.16858667 -0.30778667 1.6240001 6.4554275e-39
0.17083429 -0.30627048 1.6160001 1.0235448e-38
0.20494287 -0.30210099 1.5940001 1.226778e-38
0.20797907 -0.30210099 1.5940001 1.2359972e-38
0.21101524 -0.30210099 1.5940001 1.2267777e-38
0.21405144 -0.30210099 1.5940001 1.1992632e-38
0.21708763 -0.30210099 1.5940001 1.1716045e-38
0.23023905 -0.30342761 1.6010001 8.8572797e-39
0.16858667 -0.30469334 1.6240001 7.7436692e-39
0.20279334 -0.30037808 1.6010001 1.282062e-38
0.20494287 -0.29906476 1.5940001 1.2451837e-38
0.20797907 -0.29906476 1.5940001 1.2269231e-38
0.21101524 -0.29906476 1.5940001 1.2361427e-38
0.21405144 -0.29906476 1.5940001 1.2637301e-38
0.21708763 -0.29906476 1.5940001 1.328267e-38
0.16858667 -0.30160001 1.6240001 8.0185017e-39
0.20279334 -0.29732856 1.6010001 1.0522862e-38
0.20584287 -0.29732856 1.6010001 9.2321228e-39
0.20889239 -0.29732856 1.6010001 9.1388538e-39
0.21101524 -0.29602858 1.5940001 9.9686145e-39
0.21405144 -0.29602858 1.5940001 1.0243464e-38
0.21804096 -0.29732856 1.6010001 1.0520051e-38
0.22316 -0.29602858 1.5940001 1.3280875e-38
0.16858667 -0.29850668 1.6240001 9.9503387e-39
0.19059525 -0.29427907 1.6010001 1.1438542e-38
0.19974381 -0.29427907 1.6010001 8.3997571e-39
0.20279334 -0.29427907 1.6010001 7.2065753e-39
0.20584287 -0.29427907 1.6010001 3.1500293e-39
0.20889239 -0.29427907 1.6010001 6.708296e-40
0.21194191 -0.29427907 1.6010001 8.5521806e-40
0.21499144 -0.29427907 1.6010001 8.5214641e-40
0.20584287 -0.29122955 1.6010001 7.841606e-39
0.20889239 -0.29122955 1.6010001 5.6354367e-39
0.21194191 -0.29122955 1.6010001 3.7915241e-39
0.21499144 -0.29122955 1.6010001 8.5072409e-40
0.20380667 -0.28962001 1.6090001 1.5400286e-38
0.20687144 -0.28962001 1.6090001 1.5492481e-38
0.2099362 -0.28962001 1.6090001 1.4663446e-38
0.21194191 -0.28818002 1.6010001 1.4294664e-38
0.21499144 -0.28818002 1.6010001 1.37429e-38
0.20380667 -0.28655526 1.6090001 1.5307724e-38
0.20687144 -0.28655526 1.6090001 1.5492115e-38
0.2099362 -0.28655526 1.6090001 1.5676156e-38
0.20380667 -0.28349048 1.6090001 1.0607192e-38
0.20687144 -0.28349048 1.6090001 1.0883779e-38
0.2099362 -0.28349048 1.6090001 1.0237364e-38
0.17786667 -0.28304002 1.6240001 9.0384115e-39
0.2007419 -0.28042573 1.6090001 7.9357017e-39
0.20380667 -0.28042573 1.6090001 6.8286199e-39
0.20687144 -0.28042573 1.6090001 6.9208155e-39
0.2099362 -0.28042573 1.6090001 5.6326033e-39
0.2007419 -0.27736095 1.6090001 8.6696739e-39
0.20380667 -0.27736095 1.6090001 6.7371726e-39
0.20687144 -0.27736095 1.6090001 5.9996075e-39
0.2099362 -0.27736095 1.6090001 6.0017389e-39
0.21300097 -0.27736095 1.6090001 7.2002821e-39
0.17786667 -0.27685335 1.6240001 1.0140075e-38
0.2007419 -0.27429619 1.6090001 1.0510361e-38
0.20380667 -0.27429619 1.6090001 9.0424262e-39
0.20687144 -0.27429619 1.6090001 5.9999705e-39
0.2099362 -0.27429619 1.6090001 7.3817867e-39
0.21300097 -0.27429619 1.6090001 8.3959386e-39
0.19853714 -0.27241144 1.6160001 1.3832985e-38
0.2007419 -0.27123144 1.6090001 1.3925181e-38
0.20380667 -0.27123144 1.6090001 1.2545494e-38
0.20687144 -0.27123144 1.6090001 1.1346951e-38
0.2099362 -0.27123144 1.6090001 1.1347631e-38
0.21300097 -0.27123144 1.6090001 1.1716413e-38
0.2007419 -0.26816666 1.6090001 1.2176737e-38
0.20380667 -0.26816666 1.6090001 1.1809734e-38
0.20687144 -0.26816666 1.6090001 1.0795582e-38
0.2099362 -0.26816666 1.6090001 1.0335975e-38
0.21300097 -0.26816666 1.6090001 1.0059388e-38
0.2007419 -0.26510194 1.6090001 5.8217631e-39
0.20380667 -0.26510194 1.6090001 4.2605261e-39
0.20687144 -0.26510194 1.6090001 9.4148339e-40
0.2099362 -0.26510194 1.6090001 7.6056735e-40
0.21300097 -0.26510194 1.6090001 5.7617609e-40
0.20161524 -0.26317713 1.6160001 3.9821637e-39
0.20380667 -0.26203716 1.6090001 1.9610247e-39
0.20687144 -0.26203716 1.6090001 2.3115819e-41
0.2099362 -0.26203716 1.6090001 5.7468932e-40
0.21300097 -0.26203716 1.6090001 9.4346763e-40
0.18714668 -0.26138669 1.6240001 8.9522751e-39
0.19853714 -0.26009905 1.6160001 9.046434e-39
0.20161524 -0.26009905 1.6160001 7.7556951e-39
0.20380667 -0.25897241 1.6090001 4.1668955e-39
0.20687144 -0.25897241 1.6090001 2.5995698e-39
0.2099362 -0.25897241 1.6090001 2.7845804e-39
0.21300097 -0.25897241 1.6090001 6.4724056e-39
0.23354667 -0.26138669 1.6240001 1.1067451e-38
0.19853714 -0.25702095 1.6160001 1.1992336e-38
0.20161524 -0.25702095 1.6160001 1.0701597e-38
0.20380667 -0.25590762 1.6090001 1.0793761e-38
0.20687144 -0.25590762 1.6090001 8.3044787e-39
0.2099362 -0.25590762 1.6090001 8.4873803e-39
0.21300097 -0.25590762 1.6090001 1.0239097e-38
0.23664001 -0.25829333 1.6240001 9.3182004e-39
0.19853714 -0.25394288 1.6160001 1.4571986e-38
0.20161524 -0.25394288 1.6160001 1.3834421e-38
0.20469333 -0.25394288 1.6160001 1.4019496e-38
0.20687144 -0.25284287 1.6090001 1.3189736e-38
0.2099362 -0.25284287 1.6090001 1.3741477e-38
0.21300097 -0.25284287 1.6090001 1.4202456e-38
0.2293181 -0.25394288 1.6160001 1.3095755e-38
0.19545905 -0.25086477 1.6160001 1.5308437e-38
0.19853714 -0.25086477 1.6160001 1.5215914e-38
0.20161524 -0.25086477 1.6160001 1.4847131e-38
0.20469333 -0.25086477 1.6160001 1.4295383e-38
0.20777144 -0.25086477 1.6160001 1.4295383e-38
0.21084954 -0.25086477 1.6160001 1.438685e-38
0.19853714 -0.24778666 1.6160001 1.5031879e-38
0.20161524 -0.24778666 1.6160001 1.4663096e-38
0.20469333 -0.24778666 1.6160001 1.4202471e-38
0.20777144 -0.24778666 1.6160001 1.4110275e-38
0.21084954 -0.24778666 1.6160001 1.4109907e-38
0.19952001 -0.24592 1.6240001 1.4294664e-38
0.20161524 -0.24470857 1.6160001 1.4018077e-38
0.20469333 -0.24470857 1.6160001 1.3281598e-38
0.20777144 -0.24470857 1.6160001 1.3834772e-38
0.21084954 -0.24470857 1.6160001 1.401843e-38
0.22008382 -0.24470857 1.6160001 1.3649645e-38
0.19952001 -0.24282669 1.6240001 1.263514e-38
0.20261334 -0.24282669 1.6240001 1.3188313e-38
0.20469333 -0.24163048 1.6160001 1.3648578e-38
0.20777144 -0.24163048 1.6160001 1.466273e-38
0.23664001 -0.24282669 1.6240001 1.0238006e-38
0.18575333 -0.24194764 1.6390001 1.2908467e-38
0.18806858 -0.24091429 1.6320001 1.2909909e-38
0.19117714 -0.24091429 1.6320001 1.2172344e-38
0.19642667 -0.23973335 1.6240001 1.2818439e-38
0.19952001 -0.23973335 1.6240001 1.2725893e-38
0.20261334 -0.23973335 1.6240001 1.3740045e-38
0.20570667 -0.23973335 1.6240001 1.3832604e-38
0.18806858 -0.23780572 1.6320001 1.2725518e-38
0.19642667 -0.23664001 1.6240001 1.4293582e-38
0.19952001 -0.23664001 1.6240001 1.4202105e-38
0.20261334 -0.23664001 1.6240001 1.4663083e-38
