# .PCD v0.7 - Point Cloud Data file format
VERSION 0.7
FIELDS x y z rgb
SIZE 4 4 4 4
TYPE F F F F
COUNT 1 1 1 1
WIDTH 296
HEIGHT 1
VIEWPOINT 0 0 0 1 0 0 0
POINTS 296
DATA ascii
0.33418384 -0.3785305 1.6630001 3.0596819e-39
0.33735144 -0.3785305 1.6630001 2.6923568e-39
0.3120105 -0.37536287 1.6630001 3.8242136e-40
0.33418384 -0.37536287 1.6630001 1.5867155e-39
0.33735144 -0.37536287 1.6630001 9.4351387e-40
0.31366193 -0.37040478 1.6550001 1.0253301e-39
0.33418384 -0.37219524 1.6630001 1.1243052e-39
0.33735144 -0.37219524 1.6630001 8.4953579e-40
0.3120105 -0.36902764 1.6630001 1.2356733e-38
0.33418384 -0.36902764 1.6630001 1.0241621e-38
0.33735144 -0.36902764 1.6630001 1.0057956e-38
0.34051907 -0.36902764 1.6630001 1.0057956e-38
0.33101621 -0.36586002 1.6630001 1.309753e-38
0.33418384 -0.36586002 1.6630001 1.3005335e-38
0.33735144 -0.36586002 1.6630001 1.3005695e-38
0.34051907 -0.36586002 1.6630001 1.2913499e-38
0.37080288 -0.36762002 1.6710001 1.3876582e-39
0.33101621 -0.36269242 1.6630001 1.6503734e-38
0.33418384 -0.36269242 1.6630001 1.6595929e-38
0.33735144 -0.36269242 1.6630001 1.6412254e-38
0.34051907 -0.36269242 1.6630001 1.650445e-38
0.30559999 -0.36320001 1.6800001 1.5304866e-38
0.33101621 -0.35952479 1.6630001 1.7239148e-38
0.33418384 -0.35952479 1.6630001 1.7515735e-38
0.33888096 -0.35779527 1.6550001 1.7516091e-38
0.34203333 -0.35779527 1.6550001 1.7148037e-38
0.33101621 -0.35635716 1.6630001 1.7886684e-38
0.33418384 -0.35635716 1.6630001 1.8439857e-38
0.33572859 -0.35464287 1.6550001 1.8255461e-38
0.33888096 -0.35464287 1.6550001 1.8163265e-38
0.34203333 -0.35464287 1.6550001 1.7703008e-38
0.34518573 -0.35464287 1.6550001 1.7149835e-38
0.33101621 -0.35318956 1.6630001 1.7519353e-38
0.33418384 -0.35318956 1.6630001 1.7888135e-38
0.33572859 -0.3514905 1.6550001 1.7612628e-38
0.33888096 -0.3514905 1.6550001 1.7428236e-38
0.33101621 -0.3500219 1.6630001 1.8165082e-38
0.33418384 -0.3500219 1.6630001 1.8810452e-38
0.33572859 -0.3483381 1.6550001 1.8534218e-38
0.33888096 -0.3483381 1.6550001 1.7981044e-38
0.34203333 -0.3483381 1.6550001 1.7520082e-38
0.34518573 -0.3483381 1.6550001 1.7059103e-38
0.3483381 -0.3483381 1.6550001 1.6689589e-38
0.3514905 -0.3483381 1.6550001 1.6781785e-38
0.33101621 -0.3468543 1.6630001 1.7705186e-38
0.33418384 -0.3468543 1.6630001 1.8442751e-38
0.33572859 -0.34518573 1.6550001 1.8442391e-38
0.33888096 -0.34518573 1.6550001 1.7704826e-38
0.34203333 -0.34518573 1.6550001 1.7243858e-38
0.34518573 -0.34518573 1.6550001 1.6782879e-38
0.3483381 -0.34518573 1.6550001 1.641445e-38
0.3514905 -0.34518573 1.6550001 1.641445e-38
0.3103286 -0.34534001 1.6710001 1.6411548e-38
0.31351143 -0.34534001 1.6710001 1.6411917e-38
0.33101621 -0.3436867 1.6630001 1.8165438e-38
0.33418384 -0.3436867 1.6630001 1.834983e-38
0.33572859 -0.34203333 1.6550001 1.8257634e-38
0.33888096 -0.34203333 1.6550001 1.7427873e-38
0.34203333 -0.34203333 1.6550001 1.7427883e-38
0.34518573 -0.34203333 1.6550001 1.6874709e-38
0.3483381 -0.34203333 1.6550001 1.6966905e-38
0.31351143 -0.34215716 1.6710001 1.6595957e-38
0.33101621 -0.34051907 1.6630001 1.751935e-38
0.33418384 -0.34051907 1.6630001 1.7703741e-38
0.33888096 -0.33888096 1.6550001 1.7520419e-38
0.34203333 -0.33888096 1.6550001 1.7336391e-38
0.34518573 -0.33888096 1.6550001 1.6691022e-38
0.3483381 -0.33888096 1.6550001 1.6598113e-38
0.31351143 -0.33897433 1.6710001 1.7056214e-38
0.33101621 -0.33735144 1.6630001 1.3651097e-38
0.33418384 -0.33735144 1.6630001 1.3466705e-38
0.33735144 -0.33735144 1.6630001 1.3835478e-38
0.34051907 -0.33735144 1.6630001 1.5126217e-38
0.34518573 -0.33572859 1.6550001 1.4204225e-38
0.3483381 -0.33572859 1.6550001 1.2913534e-38
0.31351143 -0.33579144 1.6710001 1.6874349e-38
0.32784858 -0.33418384 1.6630001 1.1168947e-38
0.33101621 -0.33418384 1.6630001 1.2087004e-38
0.33418384 -0.33418384 1.6630001 1.153383e-38
0.33735144 -0.33418384 1.6630001 1.1718536e-38
0.34051907 -0.33418384 1.6630001 1.2640493e-38
0.3436867 -0.33418384 1.6630001 1.4295339e-38
0.31351143 -0.33260858 1.6710001 1.7058009e-38
0.32784858 -0.33101621 1.6630001 1.0803353e-38
0.33101621 -0.33101621 1.6630001 1.1720364e-38
0.33418384 -0.33101621 1.6630001 1.0982799e-38
0.33735144 -0.33101621 1.6630001 1.0246994e-38
0.34051907 -0.33101621 1.6630001 1.0431385e-38
0.3436867 -0.33101621 1.6630001 1.1257205e-38
0.3468543 -0.33101621 1.6630001 1.199477e-38
0.3500219 -0.33101621 1.6630001 1.2547215e-38
0.33101621 -0.32784858 1.6630001 1.1997664e-38
0.33418384 -0.32784858 1.6630001 1.1352294e-38
0.33735144 -0.32784858 1.6630001 1.05236e-38
0.34051907 -0.32784858 1.6630001 1.0247013e-38
0.3436867 -0.32784858 1.6630001 9.6920696e-39
0.3468543 -0.32784858 1.6630001 1.199696e-38
0.3500219 -0.32784858 1.6630001 1.4110979e-38
0.33101621 -0.32468095 1.6630001 1.4483346e-38
0.33418384 -0.32468095 1.6630001 1.4298955e-38
0.33735144 -0.32468095 1.6630001 1.5218393e-38
0.34051907 -0.32468095 1.6630001 1.6509132e-38
0.3436867 -0.32468095 1.6630001 1.7243479e-38
0.3468543 -0.32468095 1.6630001 1.7059088e-38
0.3500219 -0.32468095 1.6630001 1.567545e-38
0.30384001 -0.3263467 1.6880001 1.2724076e-38
0.30705526 -0.3263467 1.6880001 1.4844575e-38
0.33418384 -0.32151335 1.6630001 1.5126217e-38
0.33735144 -0.32151335 1.6630001 1.6505548e-38
0.34051907 -0.32151335 1.6630001 1.6874331e-38
0.3436867 -0.32151335 1.6630001 1.7703343e-38
0.3468543 -0.32151335 1.6630001 1.65048e-38
0.3500219 -0.32151335 1.6630001 1.4387866e-38
0.30204952 -0.32466286 1.6960001 9.8678163e-39
0.30705526 -0.32313144 1.6880001 1.4383995e-38
0.32800001 -0.32160002 1.6800001 1.6230737e-38
0.33735144 -0.31834573 1.6630001 1.3180835e-38
0.34051907 -0.31834573 1.6630001 1.17979e-38
0.3436867 -0.31834573 1.6630001 1.1061208e-38
0.3468543 -0.31834573 1.6630001 1.0047056e-38
0.3500219 -0.31834573 1.6630001 1.2263985e-38
0.30204952 -0.32143241 1.6960001 9.7756234e-39
0.33260858 -0.31669429 1.6710001 1.816146e-38
0.33418384 -0.3151781 1.6630001 1.5119004e-38
0.33735144 -0.3151781 1.6630001 1.2350952e-38
0.34051907 -0.3151781 1.6630001 1.2258757e-38
0.3436867 -0.3151781 1.6630001 1.2433434e-38
0.3468543 -0.3151781 1.6630001 1.4277347e-38
0.3500219 -0.3151781 1.6630001 1.5206081e-38
0.35318956 -0.3151781 1.6630001 1.6957798e-38
0.30204952 -0.31820193 1.6960001 1.0421381e-38
0.33260858 -0.31351143 1.6710001 1.1154177e-38
0.33418384 -0.3120105 1.6630001 1.0324417e-38
0.33735144 -0.3120105 1.6630001 1.078529e-38
0.34051907 -0.3120105 1.6630001 1.5026285e-38
0.3436867 -0.3120105 1.6630001 1.7051522e-38
0.3468543 -0.3120105 1.6630001 1.9725196e-38
0.3500219 -0.3120105 1.6630001 1.8439104e-38
0.35318956 -0.3120105 1.6630001 1.8254712e-38
0.30204952 -0.31497145 1.6960001 1.0974902e-38
0.33260858 -0.3103286 1.6710001 1.0685044e-38
0.33418384 -0.3088429 1.6630001 1.0777239e-38
0.33735144 -0.3088429 1.6630001 9.5890097e-39
0.34051907 -0.3088429 1.6630001 1.3922204e-38
0.3436867 -0.3088429 1.6630001 1.5766184e-38
0.3468543 -0.3088429 1.6630001 1.6319358e-38
0.3500219 -0.3088429 1.6630001 1.5861949e-38
0.35488859 -0.3103286 1.6710001 1.521658e-38
0.30204952 -0.31174099 1.6960001 1.1528079e-38
0.30528 -0.31174099 1.6960001 1.3001031e-38
0.33260858 -0.30714574 1.6710001 1.4193933e-38
0.33579144 -0.30714574 1.6710001 1.152026e-38
0.33735144 -0.30567524 1.6630001 1.1157864e-38
0.34051907 -0.30567524 1.6630001 1.3370559e-38
0.3468543 -0.30567524 1.6630001 5.9949356e-39
0.30204952 -0.30851048 1.6960001 1.1159296e-38
0.33260858 -0.30396286 1.6710001 1.6596707e-38
0.33579144 -0.30396286 1.6710001 1.0788382e-38
0.34534001 -0.30396286 1.6710001 7.9349128e-39
0.3485229 -0.30396286 1.6710001 6.0910002e-39
0.35170573 -0.30396286 1.6710001 5.2515608e-39
0.35999998 -0.30559999 1.6800001 1.2968177e-39
0.30040479 -0.30689999 1.705 9.1310079e-39
0.30204952 -0.30528 1.6960001 1.0790529e-38
0.33260858 -0.30078003 1.6710001 1.5678305e-38
0.33579144 -0.30078003 1.6710001 6.4587416e-39
0.33897433 -0.30078003 1.6710001 8.8615831e-39
0.34215716 -0.30078003 1.6710001 1.0152322e-38
0.34534001 -0.30078003 1.6710001 1.0055062e-38
0.3485229 -0.30078003 1.6710001 1.1069214e-38
0.35170573 -0.30078003 1.6710001 1.3366606e-38
0.30040479 -0.30365241 1.705 9.4994247e-39
0.30204952 -0.30204952 1.6960001 1.0974555e-38
0.33260858 -0.29759717 1.6710001 1.5036934e-38
0.33579144 -0.29759717 1.6710001 9.2286098e-39
0.33897433 -0.29759717 1.6710001 1.060612e-38
0.34215716 -0.29759717 1.6710001 1.1343685e-38
0.34534001 -0.29759717 1.6710001 1.0515674e-38
0.3485229 -0.29759717 1.6710001 1.2543978e-38
0.35170573 -0.29759717 1.6710001 1.5395951e-38
0.30040479 -0.30040479 1.705 1.1063511e-38
0.30204952 -0.29881907 1.6960001 1.2999619e-38
0.33260858 -0.29441428 1.6710001 1.8626789e-38
0.33579144 -0.29441428 1.6710001 1.7520442e-38
0.33897433 -0.29441428 1.6710001 1.715057e-38
0.34215716 -0.29441428 1.6710001 1.715057e-38
0.34534001 -0.29441428 1.6710001 1.5491367e-38
0.3485229 -0.29441428 1.6710001 1.5306976e-38
0.35170573 -0.29441428 1.6710001 1.3649594e-38
0.30040479 -0.29715717 1.705 1.1338646e-38
0.30365241 -0.29715717 1.705 1.272158e-38
0.30528 -0.29558858 1.6960001 1.4748783e-38
0.33260858 -0.29123145 1.6710001 1.8717553e-38
0.33579144 -0.29123145 1.6710001 1.7426814e-38
0.33897433 -0.29123145 1.6710001 1.7059007e-38
0.34215716 -0.29123145 1.6710001 1.7059007e-38
0.34534001 -0.29123145 1.6710001 1.4574e-38
0.3485229 -0.29123145 1.6710001 1.3006674e-38
0.35170573 -0.29123145 1.6710001 1.0982349e-38
0.30204952 -0.2923581 1.6960001 1.0879816e-38
0.33579144 -0.2880486 1.6710001 1.5858392e-38
0.33897433 -0.2880486 1.6710001 1.4387681e-38
0.34215716 -0.2880486 1.6710001 1.4203292e-38
0.34534001 -0.2880486 1.6710001 1.3191667e-38
0.3485229 -0.2880486 1.6710001 1.0886811e-38
0.35170573 -0.2880486 1.6710001 9.0511774e-39
0.30204952 -0.28912762 1.6960001 9.7763619e-39
0.31520003 -0.28639999 1.6800001 1.6689589e-38
0.33440003 -0.28639999 1.6800001 1.8993041e-38
0.33759999 -0.28639999 1.6800001 1.6411563e-38
0.34080002 -0.28639999 1.6800001 1.5767116e-38
0.34400001 -0.28639999 1.6800001 1.5490529e-38
0.34720004 -0.28639999 1.6800001 1.4385963e-38
0.35170573 -0.28486571 1.6710001 1.0703967e-38
0.35488859 -0.28486571 1.6710001 9.5054237e-39
0.30204952 -0.28589717 1.6960001 1.189398e-38
0.31991622 -0.28454858 1.6880001 1.7058362e-38
0.33440003 -0.28320003 1.6800001 1.8533492e-38
0.33759999 -0.28320003 1.6800001 1.6597384e-38
0.34080002 -0.28320003 1.6800001 1.5491705e-38
0.34400001 -0.28320003 1.6800001 1.6505857e-38
0.34720004 -0.28320003 1.6800001 1.4292821e-38
0.3504 -0.28320003 1.6800001 1.3739647e-38
0.35170573 -0.28168288 1.6710001 1.2914578e-38
0.38281146 -0.28589717 1.6960001 8.7615234e-39
0.30365241 -0.28416666 1.705 1.336695e-38
0.33440003 -0.28 1.6800001 1.8166154e-38
0.33759999 -0.28 1.6800001 1.6230046e-38
0.34080002 -0.28 1.6800001 1.5031485e-38
0.34400001 -0.28 1.6800001 1.5861245e-38
0.34720004 -0.28 1.6800001 1.5491384e-38
0.3504 -0.28 1.6800001 1.4569428e-38
0.32160002 -0.27680001 1.6800001 1.3373033e-38
0.33440003 -0.27680001 1.6800001 1.6414084e-38
0.33759999 -0.27680001 1.6800001 1.650628e-38
0.34080002 -0.27680001 1.6800001 1.7058728e-38
0.34400001 -0.27680001 1.6800001 1.8165075e-38
0.34720004 -0.27680001 1.6800001 1.7795577e-38
0.3504 -0.27680001 1.6800001 1.7703381e-38
0.35360003 -0.27680001 1.6800001 1.6965829e-38
0.35999998 -0.27680001 1.6800001 1.6596305e-38
0.3359924 -0.27490285 1.6880001 1.4757459e-38
0.33759999 -0.27359998 1.6800001 1.5310633e-38
0.34080002 -0.27359998 1.6800001 1.6782504e-38
0.34720004 -0.27359998 1.6800001 1.7519706e-38
0.3504 -0.27359998 1.6800001 1.7150924e-38
0.35360003 -0.27359998 1.6800001 1.7057659e-38
0.3456381 -0.27168763 1.6880001 1.4663809e-38
0.34885335 -0.27168763 1.6880001 1.4662365e-38
0.33920765 -0.2684724 1.6880001 1.3930231e-38
0.34242287 -0.2684724 1.6880001 1.3006093e-38
0.3456381 -0.2684724 1.6880001 1.3467071e-38
0.34885335 -0.2684724 1.6880001 1.4109544e-38
0.3520686 -0.2684724 1.6880001 1.4386131e-38
0.33920765 -0.26525715 1.6880001 1.5769809e-38
0.34242287 -0.26525715 1.6880001 1.5401377e-38
0.3456381 -0.26525715 1.6880001 1.5401377e-38
0.34885335 -0.26525715 1.6880001 1.5031851e-38
0.3520686 -0.26525715 1.6880001 1.5031851e-38
0.31014761 -0.26468095 1.705 1.6595952e-38
0.31339523 -0.26468095 1.705 1.6688147e-38
0.33920765 -0.26204193 1.6880001 1.6044586e-38
0.34242287 -0.26204193 1.6880001 1.5401374e-38
0.3456381 -0.26204193 1.6880001 1.5124787e-38
0.34885335 -0.26204193 1.6880001 1.4940011e-38
0.3520686 -0.26204193 1.6880001 1.475562e-38
0.31014761 -0.26143333 1.705 1.6687787e-38
0.31339523 -0.26143333 1.705 1.6688503e-38
0.34404573 -0.26005337 1.6960001 1.4847835e-38
0.34727621 -0.26005337 1.6960001 1.3741487e-38
0.31339523 -0.25818571 1.705 1.6780343e-38
0.34404573 -0.25682285 1.6960001 1.4755642e-38
0.34727621 -0.25682285 1.6960001 1.4663446e-38
0.35050666 -0.25682285 1.6960001 1.4663437e-38
0.31339523 -0.2549381 1.705 1.6596678e-38
0.31497145 -0.25359237 1.6960001 1.7334243e-38
0.31820193 -0.25359237 1.6960001 1.6874331e-38
0.34404573 -0.25359237 1.6960001 1.7059078e-38
0.34727621 -0.25359237 1.6960001 1.6505904e-38
0.35050666 -0.25359237 1.6960001 1.6598113e-38
0.31339523 -0.25169048 1.705 1.6596678e-38
0.31497145 -0.25036192 1.6960001 1.7149852e-38
0.31820193 -0.25036192 1.6960001 1.7058722e-38
0.34081525 -0.25036192 1.6960001 1.742752e-38
0.34404573 -0.25036192 1.6960001 1.7427154e-38
0.34727621 -0.25036192 1.6960001 1.7334959e-38
0.35050666 -0.25036192 1.6960001 1.678287e-38
0.31664285 -0.24844287 1.705 1.7610109e-38
0.31820193 -0.24713144 1.6960001 1.7426789e-38
0.34081525 -0.24713144 1.6960001 1.8256928e-38
0.34404573 -0.24713144 1.6960001 1.7704104e-38
0.34727621 -0.24713144 1.6960001 1.7888496e-38
0.31820193 -0.24390095 1.6960001 1.7151637e-38
0.32143241 -0.24390095 1.6960001 1.7704811e-38
0.32313144 -0.2427505 1.6880001 1.7704457e-38
0.3263467 -0.2427505 1.6880001 1.7981044e-38
