# .PCD v0.7 - Point Cloud Data file format
VERSION 0.7
FIELDS x y z rgb
SIZE 4 4 4 4
TYPE F F F F
COUNT 1 1 1 1
WIDTH 965
HEIGHT 1
VIEWPOINT 0 0 0 1 0 0 0
POINTS 965
DATA ascii
-0.058397144 0.033884764 0.75700003 1.8352711e-38
-0.056955241 0.033884764 0.75700003 1.8352714e-38
-0.055366673 0.033795241 0.75500005 1.8260518e-38
-0.053928573 0.033795241 0.75500005 1.835236e-38
-0.05249048 0.033795241 0.75500005 1.8813339e-38
-0.051052384 0.033795241 0.75500005 1.835236e-38
-0.049614292 0.033795241 0.75500005 1.8260165e-38
-0.048176192 0.033795241 0.75500005 1.8260884e-38
-0.046738099 0.033795241 0.75500005 1.8260884e-38
-0.045300003 0.033795241 0.75500005 1.8076492e-38
-0.043861907 0.033795241 0.75500005 1.7984297e-38
-0.042536192 0.033884764 0.75700003 1.7984291e-38
-0.041094288 0.033884764 0.75700003 1.7246726e-38
-0.039652381 0.033884764 0.75700003 1.687866e-38
-0.038210478 0.033884764 0.75700003 1.6509877e-38
-0.036865719 0.03397429 0.75900006 1.5313147e-38
-0.035420001 0.03397429 0.75900006 1.4852169e-38
-0.03397429 0.03397429 0.75900006 1.3378852e-38
-0.032614287 0.034063812 0.76100004 1.301007e-38
-0.031164765 0.034063812 0.76100004 1.2734503e-38
-0.026921906 0.034198094 0.76400006 1.1628869e-38
-0.025533335 0.03428762 0.76600003 1.190509e-38
-0.024105715 0.03433238 0.76700002 1.1720699e-38
-0.022644762 0.03433238 0.76700002 1.1349792e-38
-0.02123905 0.034421906 0.76900005 1.0520031e-38
-0.019774286 0.034421906 0.76900005 1.0703678e-38
-0.018428572 0.034645718 0.77400005 1.02427e-38
-0.016998095 0.034735236 0.77600002 9.3218255e-39
-0.087946668 0.036213335 0.77600002 1.3279418e-38
-0.086245723 0.036120001 0.77400005 1.0790136e-38
-0.084661908 0.036073335 0.77300006 9.227116e-39
-0.082974285 0.035980001 0.77100003 7.8441815e-39
-0.081294291 0.035886671 0.76900005 7.7558801e-39
-0.079829529 0.035886671 0.76900005 8.8622277e-39
-0.078160949 0.035793334 0.76700002 1.0609638e-38
-0.0766 0.035746668 0.76600003 1.0701834e-38
-0.075140953 0.035746668 0.76600003 1.2357027e-38
-0.073489532 0.035653338 0.76400006 1.4569722e-38
-0.071845718 0.035560001 0.76200002 1.5768652e-38
-0.070301905 0.035513334 0.76100004 1.6506217e-38
-0.068852387 0.035513334 0.76100004 1.577227e-38
-0.067402862 0.035513334 0.76100004 1.6417639e-38
-0.065780006 0.035420001 0.75900006 1.6509504e-38
-0.064334288 0.035420001 0.75900006 1.7154874e-38
-0.062888578 0.035420001 0.75900006 1.7247067e-38
-0.061442863 0.035420001 0.75900006 1.7247067e-38
-0.059839047 0.035326667 0.75700003 1.7338542e-38
-0.058397144 0.035326667 0.75700003 1.7615129e-38
-0.056955241 0.035326667 0.75700003 1.7983555e-38
-0.055513334 0.035326667 0.75700003 1.7983555e-38
-0.05407143 0.035326667 0.75700003 1.7984281e-38
-0.052629523 0.035326667 0.75700003 1.7892086e-38
-0.051052384 0.035233337 0.75500005 1.7892088e-38
-0.049614292 0.035233337 0.75500005 1.7707697e-38
-0.048176192 0.035233337 0.75500005 1.7615502e-38
-0.046738099 0.035233337 0.75500005 1.743111e-38
-0.045300003 0.035233337 0.75500005 1.6971208e-38
-0.043861907 0.035233337 0.75500005 1.6786817e-38
-0.042536192 0.035326667 0.75700003 1.6511312e-38
-0.041094288 0.035326667 0.75700003 1.6326921e-38
-0.039652381 0.035326667 0.75700003 1.5682981e-38
-0.038311433 0.035420001 0.75900006 1.5406394e-38
-0.036865719 0.035420001 0.75900006 1.3749756e-38
-0.035420001 0.035420001 0.75900006 1.3012191e-38
-0.034063812 0.035513334 0.76100004 1.2644844e-38
-0.032614287 0.035513334 0.76100004 1.209167e-38
-0.02971524 0.035513334 0.76100004 1.1812191e-38
-0.028302858 0.035560001 0.76200002 1.1812544e-38
-0.026921906 0.035653338 0.76400006 1.1812544e-38
-0.025533335 0.035746668 0.76600003 1.1904742e-38
-0.024105715 0.035793334 0.76700002 1.1628155e-38
-0.02270381 0.035886671 0.76900005 1.0981354e-38
-0.019825716 0.035980001 0.77100003 1.0702959e-38
-0.018428572 0.036120001 0.77400005 1.0241981e-38
-0.016998095 0.036213335 0.77600002 9.6888102e-39
-0.08646857 0.037691429 0.77600002 1.1065999e-38
-0.084661908 0.037545718 0.77300006 9.6873879e-39
-0.082974285 0.037448574 0.77100003 7.5668884e-39
-0.081294291 0.037351429 0.76900005 7.3853642e-39
-0.079829529 0.037351429 0.76900005 8.8604943e-39
-0.078160949 0.037254285 0.76700002 9.7809568e-39
-0.0766 0.037205715 0.76600003 9.227783e-39
-0.075140953 0.037205715 0.76600003 8.4001775e-39
-0.073489532 0.037108574 0.76400006 9.3221338e-39
-0.071845718 0.037011426 0.76200002 9.2306809e-39
-0.070301905 0.036962859 0.76100004 1.1535572e-38
-0.068852387 0.036962859 0.76100004 1.1810729e-38
-0.067402862 0.036962859 0.76100004 1.3285859e-38
-0.065780006 0.036865719 0.75900006 1.3377001e-38
-0.064334288 0.036865719 0.75900006 1.4206762e-38
-0.062888578 0.036865719 0.75900006 1.4391501e-38
-0.061442863 0.036865719 0.75900006 1.4483696e-38
-0.059997149 0.036865719 0.75900006 1.4300384e-38
-0.058397144 0.036768574 0.75700003 1.439258e-38
-0.056955241 0.036768574 0.75700003 1.4301106e-38
-0.055513334 0.036768574 0.75700003 1.4301106e-38
-0.05407143 0.036768574 0.75700003 1.4025605e-38
-0.052629523 0.036768574 0.75700003 1.3933409e-38
-0.05118762 0.036768574 0.75700003 1.3933056e-38
-0.049614292 0.03667143 0.75500005 1.3656469e-38
-0.048176192 0.03667143 0.75500005 1.36554e-38
-0.046738099 0.03667143 0.75500005 1.3563204e-38
-0.045300003 0.03667143 0.75500005 1.3564629e-38
-0.043978095 0.036768574 0.75700003 1.3749021e-38
-0.042536192 0.036768574 0.75700003 1.3565343e-38
-0.041094288 0.036768574 0.75700003 1.3473147e-38
-0.039652381 0.036768574 0.75700003 1.3380586e-38
-0.038311433 0.036865719 0.75900006 1.2919608e-38
-0.036865719 0.036865719 0.75900006 1.2736298e-38
-0.035420001 0.036865719 0.75900006 1.2551907e-38
-0.034063812 0.036962859 0.76100004 1.26441e-38
-0.032614287 0.036962859 0.76100004 1.2736295e-38
-0.031164765 0.036962859 0.76100004 1.2458279e-38
-0.029754287 0.037011426 0.76200002 1.1628518e-38
-0.028302858 0.037011426 0.76200002 1.1076426e-38
-0.026992382 0.037205715 0.76600003 1.0338861e-38
-0.025566667 0.037254285 0.76700002 9.9697285e-39
-0.024168573 0.037351429 0.76900005 1.0061924e-38
-0.02270381 0.037351429 0.76900005 1.0703678e-38
-0.021294286 0.037448574 0.77100003 1.0980265e-38
-0.019825716 0.037448574 0.77100003 1.0335627e-38
-0.018476192 0.037691429 0.77600002 1.0427823e-38
-0.016998095 0.037691429 0.77600002 1.0701906e-38
-0.086914286 0.039371427 0.78000003 1.143335e-38
-0.084771432 0.039068572 0.77400005 9.6888256e-39
-0.083189532 0.039018098 0.77300006 7.107348e-39
-0.081294291 0.038816195 0.76900005 6.9243454e-39
-0.079829529 0.038816195 0.76900005 9.1370405e-39
-0.078160949 0.03871524 0.76700002 1.0517454e-38
-0.076700002 0.03871524 0.76700002 9.6876934e-39
-0.075140953 0.038664766 0.76600003 8.2186715e-39
-0.073489532 0.038563814 0.76400006 7.849889e-39
-0.071845718 0.038462859 0.76200002 5.4592682e-39
-0.070394285 0.038462859 0.76200002 9.0548978e-39
-0.068852387 0.038412381 0.76100004 1.070725e-38
-0.065953337 0.038412381 0.76100004 1.3838327e-38
-0.064503811 0.038412381 0.76100004 1.4022718e-38
-0.062888578 0.038311433 0.75900006 1.4207828e-38
-0.061442863 0.038311433 0.75900006 1.4023437e-38
-0.059997149 0.038311433 0.75900006 1.3931955e-38
-0.058551431 0.038311433 0.75900006 1.3931955e-38
-0.05710572 0.038311433 0.75900006 1.319656e-38
-0.055660002 0.038311433 0.75900006 1.3473147e-38
-0.05407143 0.038210478 0.75700003 1.338167e-38
-0.052629523 0.038210478 0.75700003 1.3658257e-38
-0.05118762 0.038210478 0.75700003 1.3933406e-38
-0.049745716 0.038210478 0.75700003 1.3841211e-38
-0.048303809 0.038210478 0.75700003 1.3656822e-38
-0.046861906 0.038210478 0.75700003 1.3564627e-38
-0.045420002 0.038210478 0.75700003 1.3656822e-38
-0.043978095 0.038210478 0.75700003 1.3749018e-38
-0.042648572 0.038311433 0.75900006 1.3933409e-38
-0.041202862 0.038311433 0.75900006 1.3564627e-38
-0.039757144 0.038311433 0.75900006 1.3472065e-38
-0.038311433 0.038311433 0.75900006 1.3195478e-38
-0.036962859 0.038412381 0.76100004 1.3195844e-38
-0.035513334 0.038412381 0.76100004 1.3011453e-38
-0.034063812 0.038412381 0.76100004 1.2735569e-38
-0.032657143 0.038462859 0.76200002 1.2551178e-38
-0.031205716 0.038462859 0.76200002 1.1720714e-38
-0.029832384 0.038563814 0.76400006 1.1536323e-38
-0.02845143 0.038664766 0.76600003 1.1076073e-38
-0.02702762 0.03871524 0.76700002 1.0246313e-38
-0.025633333 0.038816195 0.76900005 1.0060486e-38
-0.024168573 0.038816195 0.76900005 1.0429269e-38
-0.022762857 0.038917147 0.77100003 1.116324e-38
-0.021294286 0.038917147 0.77100003 1.1439827e-38
-0.019877145 0.039018098 0.77300006 1.1440189e-38
-0.018476192 0.039169524 0.77600002 1.1255798e-38
-0.087248579 0.041014288 0.78300005 1.1249682e-38
-0.085209534 0.040752385 0.77800006 9.9643307e-39
-0.075239047 0.04017619 0.76700002 8.2190653e-39
-0.073681906 0.040123809 0.76600003 9.4176085e-39
-0.072034292 0.04001905 0.76400006 7.6670056e-39
-0.070394285 0.039914284 0.76200002 1.0248483e-38
-0.068852387 0.039861906 0.76100004 1.1351193e-38
-0.067402862 0.039861906 0.76100004 1.3287301e-38
-0.064503811 0.039861906 0.76100004 1.4759194e-38
-0.063054286 0.039861906 0.76100004 1.4483689e-38
-0.061442863 0.039757144 0.75900006 1.4391494e-38
-0.059997149 0.039757144 0.75900006 1.420926e-38
-0.058551431 0.039757144 0.75900006 1.420926e-38
-0.05710572 0.039757144 0.75900006 1.3933409e-38
-0.055660002 0.039757144 0.75900006 1.4209996e-38
-0.054214288 0.039757144 0.75900006 1.4302182e-38
-0.052768577 0.039757144 0.75900006 1.4394377e-38
-0.051322859 0.039757144 0.75900006 1.4394375e-38
-0.049745716 0.039652381 0.75700003 1.448657e-38
-0.048303809 0.039652381 0.75700003 1.4485491e-38
-0.046861906 0.039652381 0.75700003 1.43011e-38
-0.045420002 0.039652381 0.75700003 1.4025958e-38
-0.043978095 0.039652381 0.75700003 1.3841567e-38
-0.042648572 0.039757144 0.75900006 1.3380961e-38
-0.041202862 0.039757144 0.75900006 1.2919983e-38
-0.039757144 0.039757144 0.75900006 1.1998758e-38
-0.038412381 0.039861906 0.76100004 1.1722171e-38
-0.036962859 0.039861906 0.76100004 1.1536698e-38
-0.035513334 0.039861906 0.76100004 1.1260111e-38
-0.034063812 0.039861906 0.76100004 1.1076061e-38
-0.032657143 0.039914284 0.76200002 1.1260452e-38
-0.031205716 0.039914284 0.76200002 1.1627805e-38
-0.029832384 0.04001905 0.76400006 1.2180979e-38
-0.02845143 0.040123809 0.76600003 1.2456857e-38
-0.02702762 0.04017619 0.76700002 1.2733444e-38
-0.025633333 0.040280953 0.76900005 1.3560686e-38
-0.024168573 0.040280953 0.76900005 1.3929469e-38
-0.022762857 0.040385716 0.77100003 1.4296822e-38
-0.021349525 0.040490478 0.77300006 1.4389017e-38
-0.019877145 0.040490478 0.77300006 1.4388649e-38
-0.018476192 0.040647618 0.77600002 1.3466693e-38
-0.015560001 0.040752385 0.77800006 1.2820253e-38
-0.014114286 0.040857144 0.78000003 1.2082688e-38
-0.087248579 0.042505719 0.78300005 1.1066728e-38
-0.085428573 0.04234286 0.78000003 9.8724882e-39
-0.083512381 0.042125717 0.77600002 8.8583363e-39
-0.081822865 0.042017147 0.77400005 7.1995156e-39
-0.078772388 0.041962862 0.77300006 9.1366804e-39
-0.077100001 0.041854288 0.77100003 8.9522891e-39
-0.075435244 0.041745719 0.76900005 7.3900207e-39
-0.073681906 0.04158286 0.76600003 7.9431945e-39
-0.072034292 0.04147429 0.76400006 8.0350244e-39
-0.070394285 0.041365717 0.76200002 1.0247719e-38
-0.068942852 0.041365717 0.76200002 1.0796227e-38
-0.067402862 0.041311432 0.76100004 1.0796227e-38
-0.065953337 0.041311432 0.76100004 1.2453565e-38
-0.064503811 0.041311432 0.76100004 1.2730152e-38
-0.063054286 0.041311432 0.76100004 1.3467337e-38
-0.061604768 0.041311432 0.76100004 1.4389294e-38
-0.060155239 0.041311432 0.76100004 1.4852479e-38
-0.058551431 0.041202862 0.75900006 1.4760283e-38
-0.05710572 0.041202862 0.75900006 1.4301829e-38
-0.05580667 0.041311432 0.76100004 1.4209633e-38
-0.054214288 0.041202862 0.75900006 1.4209986e-38
-0.052768577 0.041202862 0.75900006 1.4209986e-38
-0.051322859 0.041202862 0.75900006 1.4025602e-38
-0.049877148 0.041202862 0.75900006 1.4025602e-38
-0.048431434 0.041202862 0.75900006 1.3933762e-38
-0.046985716 0.041202862 0.75900006 1.3933762e-38
-0.045540005 0.041202862 0.75900006 1.3289119e-38
-0.044094287 0.041202862 0.75900006 1.3012532e-38
-0.042648572 0.041202862 0.75900006 1.2460803e-38
-0.041311432 0.041311432 0.76100004 1.2368607e-38
-0.039861906 0.041311432 0.76100004 1.1447374e-38
-0.038412381 0.041311432 0.76100004 1.1355178e-38
-0.036962859 0.041311432 0.76100004 1.1076805e-38
-0.035560001 0.041365717 0.76200002 1.0984609e-38
-0.034108575 0.041365717 0.76200002 1.0799849e-38
-0.032742858 0.04147429 0.76400006 1.1998392e-38
-0.031287622 0.04147429 0.76400006 1.3377379e-38
-0.029910479 0.04158286 0.76600003 1.3469575e-38
-0.02845143 0.04158286 0.76600003 1.3560699e-38
-0.02702762 0.041637145 0.76700002 1.4113873e-38
-0.025633333 0.041745719 0.76900005 1.5033318e-38
-0.024231428 0.041854288 0.77100003 1.5217709e-38
-0.022762857 0.041854288 0.77100003 1.5125866e-38
-0.021349525 0.041962862 0.77300006 1.4572693e-38
-0.019877145 0.041962862 0.77300006 1.4388311e-38
-0.018476192 0.042125717 0.77600002 1.3466355e-38
-0.015560001 0.04223429 0.77800006 1.2912092e-38
-0.087248579 0.043997146 0.78300005 1.1433703e-38
-0.085428573 0.043828573 0.78000003 9.5962642e-39
-0.083512381 0.043603808 0.77600002 9.9650468e-39
-0.081822865 0.043491431 0.77400005 8.9512676e-39
-0.078772388 0.043435238 0.77300006 9.136693e-39
-0.077100001 0.043322857 0.77100003 1.1810366e-38
-0.075631432 0.043322857 0.77100003 1.2178077e-38
-0.073970482 0.043210477 0.76900005 1.2085881e-38
-0.072222859 0.043041904 0.76600003 1.1719613e-38
-0.070579059 0.042929526 0.76400006 1.2088395e-38
-0.069123812 0.042929526 0.76400006 1.1075332e-38
-0.067491435 0.042817142 0.76200002 8.9548325e-39
-0.066040002 0.042817142 0.76200002 1.0151183e-38
-0.064588569 0.042817142 0.76200002 1.0796552e-38
-0.063054286 0.042760953 0.76100004 1.0060758e-38
-0.061604768 0.042760953 0.76100004 1.319541e-38
-0.060155239 0.042760953 0.76100004 1.4761718e-38
-0.058705717 0.042760953 0.76100004 1.4577327e-38
-0.057256192 0.042760953 0.76100004 1.4025602e-38
-0.05580667 0.042760953 0.76100004 1.3749015e-38
-0.054357145 0.042760953 0.76100004 1.3289469e-38
-0.052768577 0.042648572 0.75900006 1.3012882e-38
-0.051322859 0.042648572 0.75900006 1.2459373e-38
-0.049877148 0.042648572 0.75900006 1.1998395e-38
-0.048431434 0.042648572 0.75900006 1.19069e-38
-0.046985716 0.042648572 0.75900006 1.1814705e-38
-0.045540005 0.042648572 0.75900006 1.2458645e-38
-0.044094287 0.042648572 0.75900006 1.2643036e-38
-0.042648572 0.042648572 0.75900006 1.3102592e-38
-0.041311432 0.042760953 0.76100004 1.4116744e-38
-0.039861906 0.042760953 0.76100004 1.4576636e-38
-0.038412381 0.042760953 0.76100004 1.4945418e-38
-0.036962859 0.042760953 0.76100004 1.5957059e-38
-0.035560001 0.042817142 0.76200002 1.6418037e-38
-0.034108575 0.042817142 0.76200002 1.6694261e-38
-0.032742858 0.042929526 0.76400006 1.7063044e-38
-0.031369522 0.043041904 0.76600003 1.7154536e-38
-0.029910479 0.043041904 0.76600003 1.6877949e-38
-0.027098097 0.043210477 0.76900005 1.6048912e-38
-0.025633333 0.043210477 0.76900005 1.5587223e-38
-0.024231428 0.043322857 0.77100003 1.5495027e-38
-0.022821905 0.043435238 0.77300006 1.5218062e-38
-0.019902857 0.043491431 0.77400005 1.4664532e-38
-0.018476192 0.043603808 0.77600002 1.3558185e-38
-0.017041905 0.043716192 0.77800006 1.3557452e-38
-0.014114286 0.043828573 0.78000003 1.2174865e-38
-0.087248579 0.045488574 0.78300005 1.1342599e-38
-0.085428573 0.045314286 0.78000003 9.5959083e-39
-0.083727628 0.045198098 0.77800006 9.9646908e-39
-0.077300005 0.044907622 0.77300006 1.273196e-38
-0.075631432 0.04479143 0.77100003 1.3191869e-38
-0.073970482 0.044675242 0.76900005 1.2915282e-38
-0.07250572 0.044675242 0.76900005 1.309967e-38
-0.070763811 0.044500954 0.76600003 1.3376257e-38
-0.069123812 0.044384766 0.76400006 1.2549386e-38
-0.067668572 0.044384766 0.76400006 1.0613278e-38
-0.066213332 0.044384766 0.76400006 1.1255388e-38
-0.064588569 0.044268575 0.76200002 1.1900757e-38
-0.063137144 0.044268575 0.76200002 1.0705412e-38
-0.061685719 0.044268575 0.76200002 1.3840063e-38
-0.060155239 0.044210479 0.76100004 1.4024891e-38
-0.058705717 0.044210479 0.76100004 1.3563913e-38
-0.057256192 0.044210479 0.76100004 1.3196563e-38
-0.05580667 0.044210479 0.76100004 1.3012172e-38
-0.054357145 0.044210479 0.76100004 1.1632121e-38
-0.05290762 0.044210479 0.76100004 1.2093099e-38
-0.051458098 0.044210479 0.76100004 1.2183512e-38
-0.049877148 0.044094287 0.75900006 1.2183512e-38
-0.048431434 0.044094287 0.75900006 1.2366822e-38
-0.047109526 0.044210479 0.76100004 1.2643409e-38
-0.04566 0.044210479 0.76100004 1.3471377e-38
-0.044210479 0.044210479 0.76100004 1.3932355e-38
-0.042760953 0.044210479 0.76100004 1.5679393e-38
-0.041311432 0.044210479 0.76100004 1.5863785e-38
-0.039861906 0.044210479 0.76100004 1.5680485e-38
-0.038462859 0.044268575 0.76200002 1.6602441e-38
-0.037011426 0.044268575 0.76200002 1.7338912e-38
-0.035560001 0.044268575 0.76200002 1.6970129e-38
-0.034198094 0.044384766 0.76400006 1.7062322e-38
-0.032742858 0.044384766 0.76400006 1.7338909e-38
-0.031369522 0.044500954 0.76600003 1.752295e-38
-0.027098097 0.044675242 0.76900005 1.5127308e-38
-0.025700001 0.04479143 0.77100003 1.4758192e-38
-0.024231428 0.04479143 0.77100003 1.438941e-38
-0.022821905 0.044907622 0.77300006 1.4019192e-38
-0.019902857 0.044965718 0.77400005 1.4388301e-38
-0.018476192 0.045081906 0.77600002 1.3835128e-38
-0.017041905 0.045198098 0.77800006 1.3465989e-38
-0.014114286 0.045314286 0.78000003 1.2359256e-38
-0.012741906 0.045720957 0.78700006 1.2174865e-38
-0.087248579 0.046980001 0.78300005 1.1711379e-38
-0.085538097 0.046860002 0.78100002 9.5037155e-39
-0.083727628 0.046680003 0.77800006 9.5037155e-39
-0.08203429 0.046560001 0.77600002 9.7820876e-39
-0.07887429 0.046440005 0.77400005 1.1625612e-38
-0.077300005 0.046380006 0.77300006 1.2363177e-38
-0.075631432 0.046260003 0.77100003 1.2362458e-38
-0.073970482 0.04614 0.76900005 1.2178067e-38
-0.07250572 0.04614 0.76900005 1.2362821e-38
-0.070763811 0.045960002 0.76600003 1.2362821e-38
-0.069304764 0.045960002 0.76600003 1.1628509e-38
-0.067845717 0.045960002 0.76600003 1.1905095e-38
-0.066213332 0.045840003 0.76400006 1.217989e-38
-0.0647581 0.045840003 0.76400006 1.2640868e-38
-0.06330286 0.045840003 0.76400006 1.2272086e-38
-0.061685719 0.04572 0.76200002 1.3562825e-38
-0.060234286 0.04572 0.76200002 1.3286617e-38
-0.058705717 0.04566 0.76100004 1.301003e-38
-0.057256192 0.04566 0.76100004 1.374651e-38
-0.055880003 0.04572 0.76200002 1.4760661e-38
-0.054357145 0.04566 0.76100004 1.6418372e-38
-0.05290762 0.04566 0.76100004 1.6971546e-38
-0.051458098 0.04566 0.76100004 1.7431108e-38
-0.050008573 0.04566 0.76100004 1.7707694e-38
-0.048559051 0.04566 0.76100004 1.7800256e-38
-0.047109526 0.04566 0.76100004 1.8169038e-38
-0.04566 0.04566 0.76100004 1.8537102e-38
-0.044210479 0.04566 0.76100004 1.8629298e-38
-0.042760953 0.04566 0.76100004 1.8260518e-38
-0.041311432 0.04566 0.76100004 1.8352714e-38
-0.039914284 0.04572 0.76200002 1.7246753e-38
-0.035560001 0.04572 0.76200002 1.5680091e-38
-0.034198094 0.045840003 0.76400006 1.4668113e-38
-0.032828573 0.045960002 0.76600003 1.4114939e-38
-0.031369522 0.045960002 0.76600003 1.07077e-38
-0.029910479 0.045960002 0.76600003 9.4169611e-39
-0.028488571 0.046020001 0.76700002 7.7606585e-39
-0.027098097 0.04614 0.76900005 6.7465066e-39
-0.025700001 0.046260003 0.77100003 6.9302309e-39
-0.024294289 0.046380006 0.77300006 7.2068177e-39
-0.022821905 0.046380006 0.77300006 6.5600414e-39
-0.019902857 0.046440005 0.77400005 6.0043537e-39
-0.01852381 0.046680003 0.77800006 1.2365852e-38
-0.087248579 0.048471432 0.78300005 1.1803571e-38
-0.085538097 0.048347618 0.78100002 9.5037155e-39
-0.08394286 0.048285715 0.78000003 9.2271286e-39
-0.082245722 0.048161909 0.77800006 9.1381349e-39
-0.080556192 0.048038095 0.77600002 1.0613265e-38
-0.07887429 0.047914285 0.77400005 1.0889486e-38
-0.077300005 0.047852382 0.77300006 1.1719247e-38
-0.075827621 0.047852382 0.77300006 1.1810379e-38
-0.074162856 0.047728572 0.77100003 1.199477e-38
-0.07250572 0.047604766 0.76900005 1.1811102e-38
-0.070856191 0.047480952 0.76700002 1.1534515e-38
-0.069304764 0.047419049 0.76600003 1.0523618e-38
-0.067845717 0.047419049 0.76600003 1.1076792e-38
-0.06638667 0.047419049 0.76600003 1.1443787e-38
-0.0647581 0.047295243 0.76400006 1.2365743e-38
-0.06330286 0.047295243 0.76400006 1.264197e-38
-0.061685719 0.047171429 0.76200002 1.3010752e-38
-0.060234286 0.047171429 0.76200002 1.3286273e-38
-0.058782857 0.047171429 0.76200002 1.4023838e-38
-0.057331428 0.047171429 0.76200002 1.7150918e-38
-0.055880003 0.047171429 0.76200002 1.7796287e-38
-0.054428574 0.047171429 0.76200002 1.7889928e-38
-0.05290762 0.047109526 0.76100004 1.825871e-38
-0.051458098 0.047109526 0.76100004 1.8167587e-38
-0.050008573 0.047109526 0.76100004 1.7983195e-38
-0.048559051 0.047109526 0.76100004 1.7983911e-38
-0.047171429 0.047171429 0.76200002 1.8168303e-38
-0.04572 0.047171429 0.76200002 1.8353044e-38
-0.044268575 0.047171429 0.76200002 1.8168653e-38
-0.042817142 0.047171429 0.76200002 1.7525076e-38
-0.041365717 0.047171429 0.76200002 1.7064098e-38
-0.04001905 0.047295243 0.76400006 1.6511653e-38
-0.038563814 0.047295243 0.76400006 1.5958479e-38
-0.035653338 0.047295243 0.76400006 1.4576964e-38
-0.03428762 0.047419049 0.76600003 1.1265837e-38
-0.032828573 0.047419049 0.76600003 9.2375332e-39
-0.029910479 0.047419049 0.76600003 5.3725265e-39
-0.028488571 0.047480952 0.76700002 6.3791562e-39
-0.027098097 0.047604766 0.76900005 6.1025693e-39
-0.025700001 0.047728572 0.77100003 4.539994e-39
-0.024294289 0.047852382 0.77300006 3.2492552e-39
-0.02285143 0.047914285 0.77400005 2.4213274e-39
-0.021377144 0.047914285 0.77400005 9.4619736e-40
-0.019954285 0.048038095 0.77600002 2.8786454e-39
-0.01852381 0.048161909 0.77800006 1.080747e-38
-0.08394286 0.049771432 0.78000003 8.765447e-39
-0.082245722 0.049643811 0.77800006 8.4009356e-39
-0.080763817 0.049643811 0.77800006 9.5072832e-39
-0.07887429 0.049388573 0.77400005 9.9682459e-39
-0.077400006 0.049388573 0.77400005 1.0798007e-38
-0.075827621 0.049324766 0.77300006 1.089024e-38
-0.074162856 0.049197145 0.77100003 1.2180979e-38
-0.072694287 0.049197145 0.77100003 1.4114178e-38
-0.071040951 0.049069528 0.76900005 1.4390765e-38
-0.069395244 0.048941903 0.76700002 1.5865189e-38
-0.067845717 0.048878096 0.76600003 1.6418363e-38
-0.06638667 0.048878096 0.76600003 1.6970129e-38
-0.064927623 0.048878096 0.76600003 1.7707694e-38
-0.06330286 0.048750479 0.76400006 1.7891012e-38
-0.06184762 0.048750479 0.76400006 1.835199e-38
-0.060234286 0.048622858 0.76200002 1.8536382e-38
-0.058782857 0.048622858 0.76200002 1.899736e-38
-0.057331428 0.048622858 0.76200002 1.9272502e-38
-0.055880003 0.048622858 0.76200002 1.9180306e-38
-0.054428574 0.048622858 0.76200002 1.9087029e-38
-0.052977145 0.048622858 0.76200002 1.8902638e-38
-0.051525716 0.048622858 0.76200002 1.8534568e-38
-0.050074287 0.048622858 0.76200002 1.8257982e-38
-0.048622858 0.048622858 0.76200002 1.7799489e-38
-0.047171429 0.048622858 0.76200002 1.715412e-38
-0.04572 0.048622858 0.76200002 1.5312731e-38
-0.044268575 0.048622858 0.76200002 1.4943948e-38
-0.042817142 0.048622858 0.76200002 1.3287992e-38
-0.041365717 0.048622858 0.76200002 1.227384e-38
-0.04001905 0.048750479 0.76400006 1.0803693e-38
-0.038563814 0.048750479 0.76400006 9.9739324e-39
-0.035653338 0.048750479 0.76400006 5.5503849e-39
-0.03428762 0.048878096 0.76600003 3.3484083e-39
-0.032828573 0.048878096 0.76600003 1.8733006e-39
-0.031369522 0.048878096 0.76600003 8.6167524e-40
-0.029949524 0.048941903 0.76700002 1.2304522e-39
-0.028488571 0.048941903 0.76700002 1.3195593e-39
-0.027098097 0.049069528 0.76900005 1.7805375e-39
-0.025700001 0.049197145 0.77100003 1.8720913e-39
-0.024294289 0.049324766 0.77300006 1.8720913e-39
-0.02285143 0.049388573 0.77400005 1.4082657e-39
-0.080763817 0.051125716 0.77800006 1.0334896e-38
-0.079078101 0.050994288 0.77600002 1.0980265e-38
-0.077400006 0.05086286 0.77400005 1.1533439e-38
-0.075827621 0.050797146 0.77300006 1.1534906e-38
-0.074162856 0.050665714 0.77100003 1.2825645e-38
-0.072694287 0.050665714 0.77100003 1.49411e-38
-0.071040951 0.050534289 0.76900005 1.6047447e-38
-0.069395244 0.050402857 0.76700002 1.6692103e-38
-0.06793429 0.050402857 0.76700002 1.7245277e-38
-0.066473335 0.050402857 0.76700002 1.7614425e-38
-0.064927623 0.050337147 0.76600003 1.7614425e-38
-0.063468575 0.050337147 0.76600003 1.7706615e-38
-0.06184762 0.050205719 0.76400006 1.8075398e-38
-0.060392387 0.050205719 0.76400006 1.8720039e-38
-0.058937147 0.050205719 0.76400006 1.8351256e-38
-0.057481907 0.050205719 0.76400006 1.7983177e-38
-0.055880003 0.050074287 0.76200002 1.7522199e-38
-0.054428574 0.050074287 0.76200002 1.7429277e-38
-0.052977145 0.050074287 0.76200002 1.7244886e-38
-0.051525716 0.050074287 0.76200002 1.7154434e-38
-0.050074287 0.050074287 0.76200002 1.7431021e-38
-0.048622858 0.050074287 0.76200002 1.7063305e-38
-0.047171429 0.050074287 0.76200002 1.6141348e-38
-0.04572 0.050074287 0.76200002 1.4670492e-38
-0.044268575 0.050074287 0.76200002 1.4117318e-38
-0.042817142 0.050074287 0.76200002 1.3840353e-38
-0.04147429 0.050205719 0.76400006 1.1719854e-38
-0.04001905 0.050205719 0.76400006 1.1169554e-38
-0.038563814 0.050205719 0.76400006 9.0490544e-39
-0.037108574 0.050205719 0.76400006 8.1313875e-39
-0.035653338 0.050205719 0.76400006 6.1031144e-39
-0.03428762 0.050337147 0.76600003 4.7259407e-39
-0.032828573 0.050337147 0.76600003 3.5274158e-39
-0.031410474 0.050402857 0.76700002 2.3325005e-39
-0.028488571 0.050402857 0.76700002 1.5961462e-39
-0.027168572 0.050665714 0.77100003 1.7805375e-39
-0.025700001 0.050665714 0.77100003 2.4231071e-39
-0.024325715 0.05086286 0.77400005 2.5153027e-39
-0.022910476 0.050994288 0.77600002 2.7865044e-39
-0.018595237 0.051322855 0.78100002 1.0528041e-38
-0.079078101 0.052472383 0.77600002 1.4571957e-38
-0.077400006 0.052337144 0.77400005 1.5401718e-38
-0.075827621 0.052269526 0.77300006 1.5677608e-38
-0.074162856 0.052134287 0.77100003 1.6322978e-38
-0.072694287 0.052134287 0.77100003 1.6876495e-38
-0.071040951 0.051999051 0.76900005 1.7521864e-38
-0.069395244 0.051863808 0.76700002 1.7797372e-38
-0.06793429 0.051863808 0.76700002 1.7981763e-38
-0.066473335 0.051863808 0.76700002 1.7889199e-38
-0.064927623 0.05179619 0.76600003 1.659846e-38
-0.063468575 0.05179619 0.76600003 1.6413346e-38
-0.062009525 0.05179619 0.76600003 1.5675781e-38
-0.060392387 0.051660955 0.76400006 1.5212276e-38
-0.058937147 0.051660955 0.76400006 1.4659102e-38
-0.057481907 0.051660955 0.76400006 1.4016508e-38
-0.056026667 0.051660955 0.76400006 1.3555529e-38
-0.054428574 0.051525716 0.76200002 1.3740977e-38
-0.052977145 0.051525716 0.76200002 1.3187803e-38
-0.051525716 0.051525716 0.76200002 1.4572815e-38
-0.050074287 0.051525716 0.76200002 1.6693314e-38
-0.048622858 0.051525716 0.76200002 1.6143317e-38
-0.047171429 0.051525716 0.76200002 1.4760404e-38
-0.04572 0.051525716 0.76200002 1.2460929e-38
-0.044268575 0.051525716 0.76200002 1.227654e-38
-0.042929526 0.051660955 0.76400006 1.1632974e-38
-0.04147429 0.051660955 0.76400006 1.043445e-38
-0.04001905 0.051660955 0.76400006 9.3317061e-39
-0.038664766 0.05179619 0.76600003 7.67221e-39
-0.037205715 0.05179619 0.76600003 5.1887055e-39
-0.035746668 0.05179619 0.76600003 3.5292094e-39
-0.03428762 0.05179619 0.76600003 2.335348e-39
-0.032828573 0.05179619 0.76600003 9.5243454e-40
-0.031410474 0.051863808 0.76700002 8.5772918e-40
-0.029949524 0.051863808 0.76700002 1.4108974e-39
-0.028488571 0.051863808 0.76700002 1.0404543e-39
-0.027168572 0.052134287 0.77100003 1.6858237e-39
-0.025766669 0.052269526 0.77300006 1.5018823e-39
-0.024325715 0.052337144 0.77400005 1.5940779e-39
-0.022969525 0.052607622 0.77800006 1.314275e-39
-0.021542858 0.052742857 0.78000003 2.1375407e-41
-0.018595237 0.052810475 0.78100002 9.6982928e-39
-0.079281911 0.054089524 0.77800006 1.4571604e-38
-0.077400006 0.053811431 0.77400005 1.5401365e-38
-0.075827621 0.05374191 0.77300006 1.5862002e-38
-0.074355245 0.05374191 0.77300006 1.632298e-38
-0.072694287 0.053602856 0.77100003 1.6508801e-38
-0.071040951 0.053463813 0.76900005 1.6508801e-38
-0.069576196 0.053463813 0.76900005 1.706052e-38
-0.06793429 0.053324763 0.76700002 1.6046368e-38
-0.066473335 0.053324763 0.76700002 1.5490308e-38
-0.06501238 0.053324763 0.76700002 1.5121525e-38
-0.063468575 0.053255241 0.76600003 1.5855099e-38
-0.062009525 0.053255241 0.76600003 1.4748752e-38
-0.060550477 0.053255241 0.76600003 1.3915339e-38
-0.05909143 0.053255241 0.76600003 1.3915339e-38
-0.057481907 0.053116191 0.76400006 1.4193262e-38
-0.056026667 0.053116191 0.76400006 1.5207414e-38
-0.054571431 0.053116191 0.76400006 1.5026597e-38
-0.053116191 0.053116191 0.76400006 1.5303184e-38
-0.051660955 0.053116191 0.76400006 1.5676965e-38
-0.050205719 0.053116191 0.76400006 1.8074026e-38
-0.048750479 0.053116191 0.76400006 1.6786929e-38
-0.047295243 0.053116191 0.76400006 1.5219604e-38
-0.045840003 0.053116191 0.76400006 1.3288525e-38
-0.044384766 0.053116191 0.76400006 1.319633e-38
-0.042929526 0.053116191 0.76400006 1.2000031e-38
-0.04147429 0.053116191 0.76400006 1.0801487e-38
-0.040123809 0.053255241 0.76600003 9.6058533e-39
-0.038664766 0.053255241 0.76600003 8.0385276e-39
-0.035746668 0.053255241 0.76600003 4.4483085e-39
-0.03428762 0.053255241 0.76600003 2.1506666e-39
-0.032871429 0.053324763 0.76700002 1.7818841e-39
-0.029949524 0.053324763 0.76700002 1.5968118e-39
-0.028562859 0.053463813 0.76900005 1.3192104e-39
-0.027239049 0.05374191 0.77300006 1.5957973e-39
-0.025800001 0.053811431 0.77400005 1.4107754e-39
-0.024388572 0.053950477 0.77600002 8.5760167e-40
-0.022969525 0.054089524 0.77800006 1.0369384e-39
-0.021542858 0.054228574 0.78000003 8.5254718e-40
-0.079281911 0.055571433 0.77800006 1.4478689e-38
-0.077400006 0.055285718 0.77400005 1.5585037e-38
-0.074355245 0.05521429 0.77300006 1.5398863e-38
-0.072694287 0.055071428 0.77100003 1.262873e-38
-0.071040951 0.054928575 0.76900005 1.1337991e-38
-0.069576196 0.054928575 0.76900005 9.9513673e-39
-0.06793429 0.054785714 0.76700002 6.8167159e-39
-0.066473335 0.054785714 0.76700002 8.4718245e-39
-0.06501238 0.054785714 0.76700002 9.393778e-39
-0.063468575 0.054714285 0.76600003 1.0407903e-38
-0.062009525 0.054714285 0.76600003 1.0868874e-38
-0.060550477 0.054714285 0.76600003 1.1697905e-38
-0.05909143 0.054714285 0.76600003 1.3173014e-38
-0.057632383 0.054714285 0.76600003 1.2900376e-38
-0.056026667 0.054571431 0.76400006 1.4652069e-38
-0.054571431 0.054571431 0.76400006 1.3922405e-38
-0.053116191 0.054571431 0.76400006 1.4659959e-38
-0.051660955 0.054571431 0.76400006 1.4939802e-38
-0.050205719 0.054571431 0.76400006 1.7152497e-38
-0.048750479 0.054571431 0.76400006 1.5867811e-38
-0.047295243 0.054571431 0.76400006 1.4669286e-38
-0.045840003 0.054571431 0.76400006 1.3841058e-38
-0.044384766 0.054571431 0.76400006 1.4394232e-38
-0.042929526 0.054571431 0.76400006 1.3840436e-38
-0.04158286 0.054714285 0.76600003 1.374824e-38
-0.040123809 0.054714285 0.76600003 1.3564229e-38
-0.038664766 0.054714285 0.76600003 1.3564229e-38
-0.037205715 0.054714285 0.76600003 1.3932673e-38
-0.035746668 0.054714285 0.76600003 1.4301456e-38
-0.03433238 0.054785714 0.76700002 1.4945403e-38
-0.032871429 0.054785714 0.76700002 1.5498577e-38
-0.031410474 0.054785714 0.76700002 1.5958479e-38
-0.029949524 0.054785714 0.76700002 1.6050674e-38
-0.028562859 0.054928575 0.76900005 1.5405681e-38
-0.027239049 0.05521429 0.77300006 1.5221289e-38
-0.025800001 0.055285718 0.77400005 1.5312772e-38
-0.024388572 0.055428572 0.77600002 1.1071773e-38
-0.022969525 0.055571433 0.77800006 9.8757742e-39
-0.021542858 0.055714291 0.78000003 1.0060166e-38
-0.020082857 0.055785716 0.78100002 1.1254765e-38
-0.018642858 0.055928573 0.78300005 1.2729896e-38
-0.077600002 0.05690667 0.77600002 1.484784e-38
-0.075925723 0.056760002 0.77400005 1.6226443e-38
-0.074355245 0.05668667 0.77300006 1.3921553e-38
-0.072694287 0.056540001 0.77100003 1.2164416e-38
-0.071225718 0.056540001 0.77100003 7.9234166e-39
-0.069576196 0.056393337 0.76900005 1.001832e-38
-0.068111435 0.056393337 0.76900005 1.0755874e-38
-0.066473335 0.056246668 0.76700002 1.0758744e-38
-0.06501238 0.056246668 0.76700002 1.3248012e-38
-0.063551433 0.056246668 0.76700002 1.1966596e-38
-0.062090475 0.056246668 0.76700002 1.3533903e-38
-0.060550477 0.056173336 0.76600003 1.3353455e-38
-0.05909143 0.056173336 0.76600003 1.4920772e-38
-0.057632383 0.056173336 0.76600003 1.3636889e-38
-0.056173336 0.056173336 0.76600003 1.5941779e-38
-0.054714285 0.056173336 0.76600003 1.4749033e-38
-0.053116191 0.056026667 0.76400006 1.5947577e-38
-0.051660955 0.056026667 0.76400006 1.6320007e-38
-0.050205719 0.056026667 0.76400006 1.7426354e-38
-0.048750479 0.056026667 0.76400006 1.6694537e-38
-0.047295243 0.056026667 0.76400006 1.5311603e-38
-0.045840003 0.056026667 0.76400006 1.494321e-38
-0.044500954 0.056173336 0.76600003 1.5496384e-38
-0.043041904 0.056173336 0.76600003 1.5773006e-38
-0.04158286 0.056173336 0.76600003 1.568081e-38
-0.040123809 0.056173336 0.76600003 1.5865204e-38
-0.038664766 0.056173336 0.76600003 1.6418378e-38
-0.037205715 0.056173336 0.76600003 1.6509864e-38
-0.035793334 0.056246668 0.76700002 1.660206e-38
-0.03433238 0.056246668 0.76700002 1.6694256e-38
-0.032871429 0.056246668 0.76700002 1.6786451e-38
-0.031410474 0.056246668 0.76700002 1.6602792e-38
-0.030027622 0.056393337 0.76900005 1.6602792e-38
-0.028637143 0.056540001 0.77100003 1.6234019e-38
-0.027239049 0.05668667 0.77300006 1.6326215e-38
-0.025800001 0.056760002 0.77400005 1.6507756e-38
-0.024388572 0.05690667 0.77600002 1.3649691e-38
-0.022969525 0.057053339 0.77800006 1.1991602e-38
-0.021542858 0.0572 0.78000003 1.1715015e-38
-0.020082857 0.057273332 0.78100002 1.3006051e-38
-0.018642858 0.057420004 0.78300005 1.3282638e-38
-0.077799998 0.058535244 0.77800006 1.3368745e-38
-0.075925723 0.058234289 0.77400005 9.7634406e-39
-0.074451432 0.058234289 0.77400005 3.1253552e-39
-0.072882861 0.058159053 0.77300006 6.4306371e-39
-0.069757141 0.05800857 0.77100003 1.0396065e-38
-0.068288572 0.05800857 0.77100003 1.168679e-38
-0.066646673 0.057858098 0.76900005 1.3999228e-38
-0.065181904 0.057858098 0.76900005 1.6857293e-38
-0.063551433 0.057707619 0.76700002 1.6679416e-38
-0.062090475 0.057707619 0.76700002 1.658722e-38
-0.060629524 0.057707619 0.76700002 1.7329457e-38
-0.059168573 0.057707619 0.76700002 1.7513849e-38
-0.057707619 0.057707619 0.76700002 1.8531247e-38
-0.056173336 0.057632383 0.76600003 1.890003e-38
-0.054714285 0.057632383 0.76600003 1.8532757e-38
-0.053255241 0.057632383 0.76600003 1.9178126e-38
-0.05179619 0.057632383 0.76600003 1.8902285e-38
-0.050337147 0.057632383 0.76600003 1.8810089e-38
-0.048750479 0.057481907 0.76400006 1.8443464e-38
-0.047295243 0.057481907 0.76400006 1.853566e-38
-0.045960002 0.057632383 0.76600003 1.7982852e-38
-0.044500954 0.057632383 0.76600003 1.8351635e-38
-0.043041904 0.057632383 0.76600003 1.8351274e-38
-0.04158286 0.057632383 0.76600003 1.8166883e-38
-0.040123809 0.057632383 0.76600003 1.7523316e-38
-0.038664766 0.057632383 0.76600003 1.7523316e-38
-0.037254285 0.057707619 0.76700002 1.6970861e-38
-0.035793334 0.057707619 0.76700002 1.6970861e-38
-0.03433238 0.057707619 0.76700002 1.6786467e-38
-0.032957144 0.057858098 0.76900005 1.6694271e-38
-0.031492382 0.057858098 0.76900005 1.6325501e-38
-0.030027622 0.057858098 0.76900005 1.6509893e-38
-0.028637143 0.05800857 0.77100003 1.6325504e-38
-0.027274288 0.058234289 0.77400005 1.64177e-38
-0.025800001 0.058234289 0.77400005 1.6692466e-38
-0.024388572 0.058384761 0.77600002 1.4387576e-38
-0.022969525 0.058535244 0.77800006 9.8722163e-39
-0.021542858 0.058685716 0.78000003 4.4326742e-39
-0.020082857 0.058760952 0.78100002 3.9781476e-39
-0.085757144 0.060402859 0.78300005 1.1527706e-38
-0.077799998 0.060017146 0.77800006 9.2174274e-39
-0.076121904 0.05986286 0.77600002 1.0300642e-38
-0.074451432 0.059708573 0.77400005 8.1801751e-39
-0.072882861 0.059631433 0.77300006 9.2786137e-39
-0.071410477 0.059631433 0.77300006 1.3335213e-38
-0.069938101 0.059631433 0.77300006 1.3068039e-38
-0.068288572 0.059477147 0.77100003 1.3989995e-38
-0.066646673 0.05932286 0.76900005 1.6213774e-38
-0.065181904 0.05932286 0.76900005 1.7043535e-38
-0.063551433 0.059168573 0.76700002 1.6405765e-38
-0.062090475 0.059168573 0.76700002 1.8802851e-38
-0.060629524 0.059168573 0.76700002 1.7152713e-38
-0.059168573 0.059168573 0.76700002 1.7613691e-38
-0.057707619 0.059168573 0.76700002 1.7430019e-38
-0.056173336 0.05909143 0.76600003 1.7798801e-38
-0.054714285 0.05909143 0.76600003 1.75233e-38
-0.053255241 0.05909143 0.76600003 1.7799887e-38
-0.05179619 0.05909143 0.76600003 1.761623e-38
-0.050337147 0.05909143 0.76600003 1.7339643e-38
-0.048878096 0.05909143 0.76600003 1.743112e-38
-0.047419049 0.05909143 0.76600003 1.7615511e-38
-0.045960002 0.05909143 0.76600003 1.7430757e-38
-0.044500954 0.05909143 0.76600003 1.7430757e-38
-0.043041904 0.05909143 0.76600003 1.7615502e-38
-0.04158286 0.05909143 0.76600003 1.7707697e-38
-0.040123809 0.05909143 0.76600003 1.6879391e-38
-0.038664766 0.05909143 0.76600003 1.6695e-38
-0.037254285 0.059168573 0.76700002 1.6510972e-38
-0.035793334 0.059168573 0.76700002 1.6510972e-38
-0.03433238 0.059168573 0.76700002 1.669499e-38
-0.032957144 0.05932286 0.76900005 1.6510599e-38
-0.031492382 0.05932286 0.76900005 1.6325498e-38
-0.030105716 0.059477147 0.77100003 1.6325498e-38
-0.028711431 0.059631433 0.77300006 1.6692133e-38
-0.027274288 0.059708573 0.77400005 1.5217003e-38
-0.025866667 0.05986286 0.77600002 1.3835488e-38
-0.024388572 0.05986286 0.77600002 1.2636945e-38
-0.022969525 0.060017146 0.77800006 5.0016406e-39
-0.021542858 0.060171433 0.78000003 3.918591e-40
-0.020082857 0.060248572 0.78100002 7.587849e-40
-0.085976191 0.06205238 0.78500003 1.1897202e-38
-0.084265716 0.06189429 0.78300005 1.1989398e-38
-0.078000002 0.061657146 0.78000003 5.2544446e-39
-0.076121904 0.061340958 0.77600002 6.0668825e-39
-0.074451432 0.06118286 0.77400005 1.0861045e-38
-0.072977148 0.06118286 0.77400005 1.6035068e-38
-0.069938101 0.061103813 0.77300006 1.4007309e-38
-0.068465717 0.061103813 0.77300006 9.7663104e-39
-0.066820003 0.060945716 0.77100003 1.0790742e-38
-0.065351434 0.060945716 0.77100003 1.1528307e-38
-0.062252384 0.060787622 0.76900005 1.9176732e-38
-0.060787622 0.060787622 0.76900005 1.9730609e-38
-0.059168573 0.060629524 0.76700002 1.9454022e-38
-0.057707619 0.060629524 0.76700002 1.8627496e-38
-0.056173336 0.060550477 0.76600003 1.85353e-38
-0.054714285 0.060550477 0.76600003 1.835199e-38
-0.053255241 0.060550477 0.76600003 1.8536382e-38
-0.05179619 0.060550477 0.76600003 1.8260518e-38
-0.050337147 0.060550477 0.76600003 1.8260518e-38
-0.048878096 0.060550477 0.76600003 1.8351635e-38
-0.047419049 0.060550477 0.76600003 1.8167243e-38
-0.045960002 0.060550477 0.76600003 1.5864523e-38
-0.044500954 0.060550477 0.76600003 1.3928415e-38
-0.043041904 0.060550477 0.76600003 1.7154851e-38
-0.04158286 0.060550477 0.76600003 1.8814373e-38
-0.040123809 0.060550477 0.76600003 1.872042e-38
-0.03871524 0.060629524 0.76700002 1.8351637e-38
-0.037254285 0.060629524 0.76700002 1.7892814e-38
-0.035793334 0.060629524 0.76700002 1.7247445e-38
-0.034421906 0.060787622 0.76900005 1.7155227e-38
-0.032957144 0.060787622 0.76900005 1.6417662e-38
-0.031574287 0.060945716 0.77100003 1.5403883e-38
-0.030183813 0.061103813 0.77300006 1.1347275e-38
-0.028711431 0.061103813 0.77300006 6.925594e-39
-0.027274288 0.06118286 0.77400005 1.3938562e-39
-0.025866667 0.061340958 0.77600002 4.7359824e-40
-0.024388572 0.061340958 0.77600002 9.0187569e-42
-0.022969525 0.061499052 0.77800006 2.9678745e-39
-0.021542858 0.061657146 0.78000003 3.2444614e-39
-0.020082857 0.061736189 0.78100002 5.3585541e-39
-0.018690476 0.06205238 0.78500003 1.347177e-38
-0.01574 0.062210482 0.78700006 1.3004638e-38
-0.078000002 0.063142858 0.78000003 5.9905832e-39
-0.0763181 0.062980957 0.77800006 4.8687162e-39
-0.074643806 0.062819049 0.77600002 1.4457056e-38
-0.072977148 0.06265714 0.77400005 1.6311851e-38
-0.068465717 0.06257619 0.77300006 3.2419657e-39
-0.066993333 0.06257619 0.77300006 7.5915765e-40
-0.065351434 0.062414289 0.77100003 1.4967227e-39
-0.063882858 0.062414289 0.77100003 5.1698272e-39
-0.062414289 0.062414289 0.77100003 1.7155259e-38
-0.060787622 0.062252384 0.76900005 1.8168682e-38
-0.05932286 0.062252384 0.76900005 1.7523313e-38
-0.057707619 0.062090475 0.76700002 1.7798811e-38
-0.056246668 0.062090475 0.76700002 1.8351985e-38
-0.054785714 0.062090475 0.76700002 1.8535673e-38
-0.053324763 0.062090475 0.76700002 1.8443477e-38
-0.051863808 0.062090475 0.76700002 1.8260518e-38
-0.050402857 0.062090475 0.76700002 1.8168322e-38
-0.048941903 0.062090475 0.76700002 1.8719341e-38
-0.047480952 0.062090475 0.76700002 1.853495e-38
-0.046020001 0.062090475 0.76700002 1.421074e-38
-0.04455905 0.062090475 0.76700002 1.2274632e-38
-0.043098096 0.062090475 0.76700002 1.3931942e-38
-0.041637145 0.062090475 0.76700002 1.798855e-38
-0.04017619 0.062090475 0.76700002 1.8628597e-38
-0.03871524 0.062090475 0.76700002 1.7245662e-38
-0.037351429 0.062252384 0.76900005 1.5957785e-38
-0.035886671 0.062252384 0.76900005 1.4574851e-38
-0.034511428 0.062414289 0.77100003 1.3744699e-38
-0.033042856 0.062414289 0.77100003 1.4851047e-38
-0.031656191 0.06257619 0.77300006 1.3284494e-38
-0.030183813 0.06257619 0.77300006 8.398126e-39
-0.028748574 0.06265714 0.77400005 4.0768074e-39
-0.027344763 0.062819049 0.77600002 2.9678661e-40
-0.024388572 0.062819049 0.77600002 1.2115781e-39
-0.022969525 0.062980957 0.77800006 6.5527519e-39
-0.021542858 0.063142858 0.78000003 6.276165e-39
-0.020134287 0.063385718 0.78300005 7.2903267e-39
-0.078000002 0.064628571 0.78000003 9.2195854e-39
-0.0763181 0.064462863 0.77800006 7.835792e-39
-0.074643806 0.06429714 0.77600002 1.7885111e-38
-0.072977148 0.064131431 0.77400005 1.7793081e-38
-0.06855429 0.064131431 0.77400005 3.5295962e-39
-0.066993333 0.064048581 0.77300006 1.3102184e-38
-0.065520957 0.064048581 0.77300006 1.4392923e-38
-0.063882858 0.063882858 0.77100003 1.4109557e-38
-0.062414289 0.063882858 0.77100003 1.3095405e-38
-0.060787622 0.063717149 0.76900005 1.3003925e-38
-0.05932286 0.063717149 0.76900005 1.3003925e-38
-0.057707619 0.063551433 0.76700002 1.5216945e-38
-0.056246668 0.063551433 0.76700002 1.742964e-38
-0.054785714 0.063551433 0.76700002 1.6784665e-38
-0.053324763 0.063551433 0.76700002 1.3742209e-38
-0.051863808 0.063551433 0.76700002 1.2640913e-38
-0.050402857 0.063551433 0.76700002 1.3194087e-38
-0.048941903 0.063551433 0.76700002 1.4663833e-38
-0.047480952 0.063551433 0.76700002 1.4663833e-38
-0.046020001 0.063551433 0.76700002 1.09803e-38
-0.04455905 0.063551433 0.76700002 3.789041e-39
-0.043098096 0.063551433 0.76700002 1.3176451e-39
-0.041637145 0.063551433 0.76700002 9.7074475e-39
-0.04017619 0.063551433 0.76700002 7.5670271e-39
-0.034511428 0.063882858 0.77100003 8.4772812e-40
-0.033042856 0.063882858 0.77100003 8.4999654e-39
-0.031656191 0.064048581 0.77300006 1.0702271e-38
-0.030222857 0.064131431 0.77400005 4.6173597e-39
-0.028748574 0.064131431 0.77400005 1.0336216e-39
-0.027344763 0.06429714 0.77600002 3.7994905e-39
-0.024388572 0.06429714 0.77600002 3.8823829e-39
-0.022969525 0.064462863 0.77800006 5.1759873e-39
-0.021542858 0.064628571 0.78000003 3.4242704e-39
-0.020134287 0.064877145 0.78300005 6.1882882e-39
-0.018738097 0.065208569 0.78700006 1.3656134e-38
-0.078000002 0.066114292 0.78000003 9.8678317e-39
-0.076514289 0.066114292 0.78000003 8.4790468e-39
-0.074836195 0.065944768 0.77800006 1.7329827e-38
-0.073165715 0.065775238 0.77600002 1.7886367e-38
-0.071687624 0.065775238 0.77600002 8.3902171e-39
-0.070028573 0.065605715 0.77400005 1.926393e-40
-0.067080006 0.065605715 0.77400005 1.6595241e-38
-0.065520957 0.065520957 0.77300006 1.8070371e-38
-0.064048581 0.065520957 0.77300006 1.6323308e-38
-0.062414289 0.065351434 0.77100003 8.5788753e-39
-0.060787622 0.065181904 0.76900005 8.022131e-39
-0.05932286 0.065181904 0.76900005 8.8518917e-39
-0.057858098 0.065181904 0.76900005 1.2444556e-38
-0.056246668 0.06501238 0.76700002 1.594799e-38
-0.054785714 0.06501238 0.76700002 1.4847497e-38
-0.053324763 0.06501238 0.76700002 1.2173824e-38
-0.051863808 0.06501238 0.76700002 9.3233123e-39
-0.050402857 0.06501238 0.76700002 1.0060877e-38
-0.048941903 0.06501238 0.76700002 1.235996e-38
-0.047480952 0.06501238 0.76700002 1.2728742e-38
-0.046020001 0.06501238 0.76700002 9.9675327e-39
-0.04455905 0.06501238 0.76700002 6.64849e-39
-0.043098096 0.06501238 0.76700002 1.402058e-39
-0.041637145 0.06501238 0.76700002 5.1820788e-39
-0.034511428 0.065351434 0.77100003 2.9057325e-40
-0.033042856 0.065351434 0.77100003 9.5101292e-39
-0.031656191 0.065520957 0.77300006 1.1897587e-38
-0.030222857 0.065605715 0.77400005 7.0112189e-39
-0.028748574 0.065605715 0.77400005 1.8597319e-39
-0.027344763 0.065775238 0.77600002 6.561709e-39
-0.024388572 0.065775238 0.77600002 5.7280527e-39
-0.022969525 0.065944768 0.77800006 5.915311e-39
-0.021542858 0.066114292 0.78000003 4.7167678e-39
-0.020185716 0.066538103 0.78500003 6.1918979e-39
-0.082985714 0.068033338 0.78500003 1.1899373e-38
-0.081490479 0.068033338 0.78500003 1.3190111e-38
-0.075028576 0.067600004 0.78000003 1.5491367e-38
-0.073354289 0.067426667 0.77800006 1.5952756e-38
-0.071687624 0.067253336 0.77600002 6.7331929e-39
-0.070028573 0.067080006 0.77400005 5.0222537e-42
-0.06855429 0.067080006 0.77400005 1.2820212e-38
-0.067080006 0.067080006 0.77400005 1.7703331e-38
-0.065520957 0.066993333 0.77300006 1.751894e-38
-0.064048581 0.066993333 0.77300006 1.4389656e-38
-0.06257619 0.066993333 0.77300006 3.6027678e-39
-0.060945716 0.066820003 0.77100003 4.4405607e-39
-0.05932286 0.066646673 0.76900005 6.0078864e-39
-0.057858098 0.066646673 0.76900005 2.5943528e-39
-0.056393337 0.066646673 0.76900005 4.438257e-39
-0.054785714 0.066473335 0.76700002 6.8286493e-39
-0.053324763 0.066473335 0.76700002 5.906693e-39
-0.051863808 0.066473335 0.76700002 4.9004725e-39
-0.050402857 0.066473335 0.76700002 8.3419298e-42
-0.048941903 0.066473335 0.76700002 9.7237502e-41
-0.047480952 0.066473335 0.76700002 8.6714311e-39
-0.046020001 0.066473335 0.76700002 8.4895187e-39
-0.04455905 0.066473335 0.76700002 1.1347583e-38
-0.043098096 0.066473335 0.76700002 1.3649697e-38
-0.041637145 0.066473335 0.76700002 1.1621393e-38
-0.030222857 0.067080006 0.77400005 7.839525e-39
-0.028748574 0.067080006 0.77400005 3.8823394e-39
-0.027344763 0.067253336 0.77600002 7.5701646e-39
-0.023028571 0.067600004 0.78000003 5.0833923e-39
-0.021570476 0.067686662 0.78100002 7.8492612e-39
-0.020185716 0.068033338 0.78500003 8.952411e-39
-0.083408572 0.069882862 0.78900003 1.1899735e-38
-0.081490479 0.069528572 0.78500003 1.3006083e-38
-0.079791434 0.069351435 0.78300005 1.3649292e-38
-0.078100003 0.06917429 0.78100002 1.4571248e-38
-0.075028576 0.069085717 0.78000003 1.5769055e-38
-0.073542856 0.069085717 0.78000003 1.5860923e-38
-0.071872383 0.068908572 0.77800006 5.9037951e-39
-0.070209526 0.068731427 0.77600002 1.9084564e-40
-0.068731427 0.068731427 0.77600002 1.3374818e-38
-0.067080006 0.06855429 0.77400005 1.8624984e-38
-0.065605715 0.06855429 0.77400005 1.6412289e-38
-0.064131431 0.06855429 0.77400005 9.6941926e-39
-0.06257619 0.068465717 0.77300006 3.8858679e-39
-0.060945716 0.068288572 0.77100003 7.3832314e-39
-0.05932286 0.068111435 0.76900005 8.0286008e-39
-0.057858098 0.068111435 0.76900005 4.7859808e-40
-0.056393337 0.068111435 0.76900005 2.8756845e-39
-0.054785714 0.06793429 0.76700002 7.291309e-39
-0.053324763 0.06793429 0.76700002 1.1347917e-38
-0.051863808 0.06793429 0.76700002 1.3094355e-38
-0.050402857 0.06793429 0.76700002 1.0167275e-39
-0.048941903 0.06793429 0.76700002 2.1523944e-42
-0.047480952 0.06793429 0.76700002 7.3778014e-39
-0.046020001 0.06793429 0.76700002 5.9093989e-39
-0.04455905 0.06793429 0.76700002 1.4022599e-38
-0.043098096 0.06793429 0.76700002 1.6968374e-38
-0.028822856 0.068731427 0.77600002 3.973805e-39
