# .PCD v0.7 - Point Cloud Data file format
VERSION 0.7
FIELDS x y z rgb
SIZE 4 4 4 4
TYPE F F F F
COUNT 1 1 1 1
WIDTH 1005
HEIGHT 1
VIEWPOINT 0 0 0 1 0 0 0
POINTS 1005
DATA ascii
-0.17655715 0.11147334 0.72700006 9.9569767e-39
-0.17469047 0.11116667 0.72500002 1.0602342e-38
-0.17330953 0.11116667 0.72500002 9.2255213e-39
-0.1714543 0.11086001 0.72300005 8.0269963e-39
-0.16984192 0.11070668 0.72200006 7.4792204e-39
-0.16846667 0.11070668 0.72200006 7.9401985e-39
-0.16709144 0.11070668 0.72200006 7.6629404e-39
-0.1657162 0.11070668 0.72200006 8.0317229e-39
-0.16388571 0.11040001 0.72000003 7.6622341e-39
-0.16251428 0.11040001 0.72000003 4.9885609e-39
-0.16114287 0.11040001 0.72000003 1.4052739e-39
-0.15977144 0.11040001 0.72000003 3.8023603e-39
-0.1584 0.11040001 0.72000003 4.7186372e-39
-0.15702857 0.11040001 0.72000003 3.1513115e-39
-0.15565714 0.11040001 0.72000003 1.2234849e-39
-0.15428571 0.11040001 0.72000003 2.9752019e-39
-0.1529143 0.11040001 0.72000003 4.71864e-39
-0.15154287 0.11040001 0.72000003 4.6264443e-39
-0.15017143 0.11040001 0.72000003 5.0838099e-39
-0.1488 0.11040001 0.72000003 1.6725716e-39
-0.14742857 0.11040001 0.72000003 7.5587581e-40
-0.14605714 0.11040001 0.72000003 2.5997884e-39
-0.14468573 0.11040001 0.72000003 4.5308492e-39
-0.1433143 0.11040001 0.72000003 5.2684142e-39
-0.14194286 0.11040001 0.72000003 5.4503252e-39
-0.14096192 0.11070668 0.72200006 4.5283689e-39
-0.13958667 0.11070668 0.72200006 1.4040955e-39
-0.13840286 0.11086001 0.72300005 3.1558124e-39
-0.13702573 0.11086001 0.72300005 8.5824753e-39
-0.13602382 0.11116667 0.72500002 1.3007865e-38
-0.13464285 0.11116667 0.72500002 1.3189035e-38
-0.13362953 0.11147334 0.72700006 1.2543666e-38
-0.12965333 0.11162667 0.72800004 1.2084124e-38
-0.12861905 0.11193334 0.73000002 1.1991928e-38
-0.12775144 0.11239334 0.73300004 1.1991568e-38
-0.12635525 0.11239334 0.73300004 1.1714981e-38
-0.12547049 0.11285334 0.73600006 1.162243e-38
-0.12440572 0.11316001 0.73800004 1.1530234e-38
-0.12175905 0.11331333 0.73900002 1.1529511e-38
-0.12067715 0.11362001 0.74100006 1.0423166e-38
-0.11974857 0.11408 0.74400002 8.487058e-39
-0.11864953 0.11438668 0.74600005 8.7625631e-39
-0.18575239 0.11425525 0.73600006 9.7759738e-39
-0.18220286 0.11378953 0.73300004 9.8674533e-39
-0.18031332 0.11347905 0.73100001 1.0236868e-38
-0.17818667 0.11301334 0.72800004 1.0513455e-38
-0.17517239 0.1128581 0.72700006 1.1158045e-38
-0.17330953 0.11254762 0.72500002 8.7667026e-39
-0.17192858 0.11254762 0.72500002 6.1852642e-39
-0.17007715 0.11223715 0.72300005 6.0062567e-39
-0.16870001 0.11223715 0.72300005 7.3891897e-39
-0.16709144 0.11208192 0.72200006 7.5707448e-39
-0.16434096 0.11208192 0.72200006 6.558741e-39
-0.16251428 0.11177143 0.72000003 3.9772662e-39
-0.16114287 0.11177143 0.72000003 1.3134749e-39
-0.15977144 0.11177143 0.72000003 3.8949525e-39
-0.1584 0.11177143 0.72000003 5.0870539e-39
-0.15702857 0.11177143 0.72000003 3.7963151e-39
-0.15565714 0.11177143 0.72000003 2.7864918e-39
-0.15428571 0.11177143 0.72000003 3.8928394e-39
-0.1529143 0.11177143 0.72000003 4.4442111e-39
-0.15154287 0.11177143 0.72000003 3.8910373e-39
-0.15017143 0.11177143 0.72000003 3.5208128e-39
-0.1488 0.11177143 0.72000003 2.9396579e-40
-0.14742857 0.11177143 0.72000003 4.7712811e-40
-0.14605714 0.11177143 0.72000003 7.53715e-40
-0.14468573 0.11177143 0.72000003 5.7184468e-40
-0.1433143 0.11177143 0.72000003 3.4299092e-39
-0.14194286 0.11177143 0.72000003 4.3464985e-39
-0.14096192 0.11208192 0.72200006 2.5025859e-39
-0.13978001 0.11223715 0.72300005 9.4384738e-40
-0.13840286 0.11223715 0.72300005 5.5536289e-39
-0.13740477 0.11254762 0.72500002 8.5828844e-39
-0.13602382 0.11254762 0.72500002 1.2547297e-38
-0.1350143 0.1128581 0.72700006 1.3097913e-38
-0.12965333 0.11301334 0.72800004 1.2176675e-38
-0.12861905 0.11332382 0.73000002 1.1992284e-38
-0.12775144 0.11378953 0.73300004 1.1991565e-38
-0.12687238 0.11425525 0.73600006 1.189937e-38
-0.12581143 0.11456572 0.73800004 1.1807174e-38
-0.12067715 0.11503144 0.74100006 1.0883428e-38
-0.11974857 0.11549714 0.74400002 8.6707332e-39
-0.18220286 0.11518572 0.73300004 9.5912168e-39
-0.18031332 0.11487143 0.73100001 9.8673945e-39
-0.17867619 0.11471429 0.73000002 1.0143981e-38
-0.17680001 0.11440001 0.72800004 1.0790389e-38
-0.17517239 0.11424287 0.72700006 1.1066976e-38
-0.17378764 0.11424287 0.72700006 8.3079567e-39
-0.17192858 0.11392858 0.72500002 6.0030659e-39
-0.17007715 0.11361429 0.72300005 6.1892523e-39
-0.16870001 0.11361429 0.72300005 7.2034042e-39
-0.16709144 0.11345715 0.72200006 8.214675e-39
-0.1657162 0.11345715 0.72200006 8.214675e-39
-0.16434096 0.11345715 0.72200006 5.6396784e-39
-0.16296573 0.11345715 0.72200006 3.1503964e-39
-0.16159049 0.11345715 0.72200006 8.5249674e-40
-0.15977144 0.11314286 0.72000003 3.4339744e-39
-0.1584 0.11314286 0.72000003 5.2699963e-39
-0.15702857 0.11314286 0.72000003 4.9934094e-39
-0.15565714 0.11314286 0.72000003 4.0746901e-39
-0.15428571 0.11314286 0.72000003 4.9044507e-39
-0.1529143 0.11314286 0.72000003 5.7342114e-39
-0.15154287 0.11314286 0.72000003 4.1668857e-39
-0.15017143 0.11314286 0.72000003 1.3149617e-39
-0.1488 0.11314286 0.72000003 1.9180973e-41
-0.14742857 0.11314286 0.72000003 4.7605192e-40
-0.14605714 0.11314286 0.72000003 9.3703007e-40
-0.14468573 0.11314286 0.72000003 4.7962523e-40
-0.14371239 0.11345715 0.72200006 2.9689044e-39
-0.14233714 0.11345715 0.72200006 3.2430573e-39
-0.14115715 0.11361429 0.72300005 2.2289053e-39
-0.13978001 0.11361429 0.72300005 1.6796496e-39
-0.13840286 0.11361429 0.72300005 7.3957786e-39
-0.13740477 0.11392858 0.72500002 1.125401e-38
-0.13602382 0.11392858 0.72500002 1.2821336e-38
-0.1350143 0.11424287 0.72700006 1.2820973e-38
-0.13086002 0.11424287 0.72700006 1.2176322e-38
-0.12965333 0.11440001 0.72800004 1.2084124e-38
-0.12879524 0.11487143 0.73100001 1.1991928e-38
-0.12792572 0.11534286 0.73400003 1.1807537e-38
-0.12687238 0.11565715 0.73600006 1.1715341e-38
-0.12581143 0.11597143 0.73800004 1.1807177e-38
-0.12208858 0.11644286 0.74100006 1.162206e-38
-0.12084001 0.11660001 0.74200004 1.1252211e-38
-0.18080668 0.11658191 0.73300004 9.5911817e-39
-0.17892095 0.11626381 0.73100001 9.4067905e-39
-0.17680001 0.11578667 0.72800004 9.8695301e-39
-0.17541334 0.11578667 0.72800004 1.0791486e-38
-0.17378764 0.11562763 0.72700006 9.5955033e-39
-0.17240286 0.11562763 0.72700006 8.8579383e-39
-0.17054763 0.11530953 0.72500002 8.3991125e-39
-0.16870001 0.11499143 0.72300005 8.4913082e-39
-0.16732286 0.11499143 0.72300005 8.4001523e-39
-0.16594572 0.11499143 0.72300005 8.5845436e-39
-0.16434096 0.11483239 0.72200006 6.0992539e-39
-0.16296573 0.11483239 0.72200006 5.3616888e-39
-0.16159049 0.11483239 0.72200006 4.3516021e-39
-0.16021524 0.11483239 0.72200006 4.4437977e-39
-0.1584 0.11451429 0.72000003 5.7309618e-39
-0.15702857 0.11451429 0.72000003 6.5607225e-39
-0.15565714 0.11451429 0.72000003 6.3752466e-39
-0.15428571 0.11451429 0.72000003 6.0064641e-39
-0.15333906 0.11483239 0.72200006 5.457256e-39
-0.15196382 0.11483239 0.72200006 5.2728647e-39
-0.15017143 0.11451429 0.72000003 3.9814379e-39
-0.1488 0.11451429 0.72000003 3.5204597e-39
-0.1478381 0.11483239 0.72200006 3.9802369e-39
-0.14646287 0.11483239 0.72200006 4.5334107e-39
-0.14508763 0.11483239 0.72200006 5.5432439e-39
-0.14371239 0.11483239 0.72200006 6.5573958e-39
-0.1425343 0.11499143 0.72300005 8.952327e-39
-0.14115715 0.11499143 0.72300005 8.3069576e-39
-0.14016667 0.11530953 0.72500002 7.7541467e-39
-0.13878572 0.11530953 0.72500002 1.1441972e-38
-0.13740477 0.11530953 0.72500002 1.2820973e-38
-0.13639906 0.11562763 0.72700006 1.2820973e-38
-0.1350143 0.11562763 0.72700006 1.2636582e-38
-0.13381335 0.11578667 0.72800004 1.2267799e-38
-0.13242666 0.11578667 0.72800004 1.2083771e-38
-0.13104001 0.11578667 0.72800004 1.2083771e-38
-0.13000953 0.11610477 0.73000002 1.208448e-38
-0.12879524 0.11626381 0.73100001 1.1992284e-38
-0.12792572 0.11674096 0.73400003 1.1991565e-38
-0.12687238 0.11705906 0.73600006 1.1622783e-38
-0.12581143 0.11737715 0.73800004 1.1530234e-38
-0.12316667 0.11753619 0.73900002 1.162206e-38
-0.12208858 0.11785429 0.74100006 1.1714255e-38
-0.12084001 0.11801334 0.74200004 1.1252211e-38
-0.18650953 0.11894382 0.73900002 8.9451439e-39
-0.17941049 0.1179781 0.73300004 9.5912168e-39
-0.17752858 0.11765619 0.73100001 9.4082296e-39
-0.17589524 0.11749524 0.73000002 1.0145795e-38
-0.17402668 0.11717334 0.72800004 9.9628537e-39
-0.17264001 0.11717334 0.72800004 9.1330931e-39
-0.17101811 0.11701239 0.72700006 8.8575726e-39
-0.16916667 0.11669048 0.72500002 8.7653769e-39
-0.16778572 0.11669048 0.72500002 8.5834926e-39
-0.16594572 0.11636858 0.72300005 8.5834926e-39
-0.16456859 0.11636858 0.72300005 8.032844e-39
-0.16319144 0.11636858 0.72300005 7.7562571e-39
-0.16159049 0.11620763 0.72200006 6.8361883e-39
-0.16021524 0.11620763 0.72200006 6.3752102e-39
-0.15884002 0.11620763 0.72200006 6.4681485e-39
-0.15702857 0.11588572 0.72000003 6.836931e-39
-0.15565714 0.11588572 0.72000003 7.0209593e-39
-0.15428571 0.11588572 0.72000003 6.7443724e-39
-0.15333906 0.11620763 0.72200006 6.5614259e-39
-0.15196382 0.11620763 0.72200006 7.0224041e-39
-0.15058859 0.11620763 0.72200006 8.3081052e-39
-0.14921334 0.11620763 0.72200006 6.8329751e-39
-0.1478381 0.11620763 0.72200006 6.1871839e-39
-0.14646287 0.11620763 0.72200006 7.1091402e-39
-0.14528857 0.11636858 0.72300005 8.213327e-39
-0.14391144 0.11636858 0.72300005 8.6743051e-39
-0.1425343 0.11636858 0.72300005 8.4920775e-39
-0.14154762 0.11669048 0.72500002 8.3076862e-39
-0.14016667 0.11669048 0.72500002 8.3076806e-39
-0.13878572 0.11669048 0.72500002 1.1811115e-38
-0.13778381 0.11701239 0.72700006 1.3189035e-38
-0.13639906 0.11701239 0.72700006 1.2820253e-38
-0.1350143 0.11701239 0.72700006 1.2635861e-38
-0.13381335 0.11717334 0.72800004 1.2543666e-38
-0.13242666 0.11717334 0.72800004 1.2176322e-38
-0.1314 0.11749524 0.73000002 1.2176322e-38
-0.13000953 0.11749524 0.73000002 1.2084124e-38
-0.12879524 0.11765619 0.73100001 1.1991928e-38
-0.12792572 0.11813905 0.73400003 1.1991928e-38
-0.12687238 0.11846096 0.73600006 1.1807537e-38
-0.12581143 0.11878286 0.73800004 1.1623149e-38
-0.12316667 0.11894382 0.73900002 1.1529511e-38
-0.12208858 0.11926573 0.74100006 1.1621707e-38
-0.12084001 0.11942668 0.74200004 1.1252211e-38
-0.12007048 0.12007048 0.74600005 8.9473201e-39
-0.1870143 0.12067715 0.74100006 7.470367e-39
-0.18485144 0.12018858 0.73800004 7.7484112e-39
-0.18245143 0.11953715 0.73400003 9.5001282e-39
-0.17941049 0.1193743 0.73300004 1.1342246e-38
-0.17752858 0.11904857 0.73100001 1.134329e-38
-0.17589524 0.11888572 0.73000002 1.1251094e-38
-0.17450477 0.11888572 0.73000002 9.9635894e-39
-0.17264001 0.11856001 0.72800004 8.3040681e-39
-0.17101811 0.11839715 0.72700006 7.7530299e-39
-0.16963336 0.11839715 0.72700006 7.6608342e-39
-0.16778572 0.11807143 0.72500002 7.8466576e-39
-0.16640477 0.11807143 0.72500002 8.0310489e-39
-0.16456859 0.11774572 0.72300005 8.1232515e-39
-0.16319144 0.11774572 0.72300005 9.0452078e-39
-0.1618143 0.11774572 0.72300005 8.3091506e-39
-0.16043715 0.11774572 0.72300005 7.9403681e-39
-0.15884002 0.11758287 0.72200006 7.7567055e-39
-0.15746477 0.11758287 0.72200006 8.0332924e-39
-0.15608953 0.11758287 0.72200006 8.2169648e-39
-0.15492858 0.11774572 0.72300005 8.1247691e-39
-0.15355143 0.11774572 0.72300005 7.9403919e-39
-0.15217429 0.11774572 0.72300005 9.5077176e-39
-0.15079714 0.11774572 0.72300005 1.005942e-38
-0.14942001 0.11774572 0.72300005 8.9530725e-39
-0.14804286 0.11774572 0.72300005 7.8467277e-39
-0.14666572 0.11774572 0.72300005 7.2935539e-39
-0.14528857 0.11774572 0.72300005 7.7520139e-39
-0.14391144 0.11774572 0.72300005 8.1207965e-39
-0.1425343 0.11774572 0.72300005 7.938538e-39
-0.14154762 0.11807143 0.72500002 1.0151233e-38
-0.13878572 0.11807143 0.72500002 1.2177401e-38
-0.13778381 0.11839715 0.72700006 1.2729133e-38
-0.13658668 0.11856001 0.72800004 1.2544742e-38
-0.13520001 0.11856001 0.72800004 1.2360711e-38
-0.13381335 0.11856001 0.72800004 1.2268515e-38
-0.13279048 0.11888572 0.73000002 1.2084487e-38
-0.1314 0.11888572 0.73000002 1.1992291e-38
-0.13000953 0.11888572 0.73000002 1.2084124e-38
-0.12879524 0.11904857 0.73100001 1.1899733e-38
-0.12792572 0.11953715 0.73400003 1.1991568e-38
-0.12687238 0.11986287 0.73600006 1.1807177e-38
-0.12581143 0.12018858 0.73800004 1.1714625e-38
-0.12316667 0.12035143 0.73900002 1.1438394e-38
-0.12208858 0.12067715 0.74100006 1.1346199e-38
-0.12084001 0.12084001 0.74200004 1.1344767e-38
-0.12007048 0.12149144 0.74600005 9.6852453e-39
-0.11880857 0.12165429 0.74700004 8.7636421e-39
-0.1870143 0.12208858 0.74100006 7.4707327e-39
-0.18485144 0.12159429 0.73800004 7.1941458e-39
-0.18294857 0.12126477 0.73600006 8.5770803e-39
-0.18105334 0.12093524 0.73400003 9.7756234e-39
-0.17801429 0.12077048 0.73300004 1.1252183e-38
-0.1761362 0.12044095 0.73100001 1.1067792e-38
-0.17450477 0.12027619 0.73000002 1.0517855e-38
-0.17311428 0.12027619 0.73000002 9.6880941e-39
-0.17125334 0.11994667 0.72800004 9.4111415e-39
-0.16963336 0.11978191 0.72700006 9.1345546e-39
-0.16778572 0.11945238 0.72500002 8.76757e-39
-0.16502382 0.11945238 0.72500002 8.7668511e-39
-0.16364287 0.11945238 0.72500002 9.1356336e-39
-0.1622619 0.11945238 0.72500002 9.1353113e-39
-0.16043715 0.11912286 0.72300005 8.8587244e-39
-0.15906002 0.11912286 0.72300005 8.0322106e-39
-0.15768287 0.11912286 0.72300005 8.0322106e-39
-0.15630573 0.11912286 0.72300005 8.5835865e-39
-0.15492858 0.11912286 0.72300005 8.5835865e-39
-0.15355143 0.11912286 0.72300005 8.12333e-39
-0.15217429 0.11912286 0.72300005 9.7828513e-39
-0.15079714 0.11912286 0.72300005 1.0151265e-38
-0.14942001 0.11912286 0.72300005 9.3215046e-39
-0.14804286 0.11912286 0.72300005 9.4122513e-39
-0.14666572 0.11912286 0.72300005 8.5824907e-39
-0.14528857 0.11912286 0.72300005 8.2129893e-39
-0.14391144 0.11912286 0.72300005 9.1349456e-39
-0.1425343 0.11912286 0.72300005 9.5959083e-39
-0.14154762 0.11945238 0.72500002 1.0978843e-38
-0.14016667 0.11945238 0.72500002 1.1992284e-38
-0.13916859 0.11978191 0.72700006 1.2268871e-38
-0.13778381 0.11978191 0.72700006 1.2637301e-38
-0.13658668 0.11994667 0.72800004 1.2452909e-38
-0.13520001 0.11994667 0.72800004 1.2268878e-38
-0.13418095 0.12027619 0.73000002 1.2268878e-38
-0.13279048 0.12027619 0.73000002 1.2084487e-38
-0.13018763 0.12044095 0.73100001 1.1900096e-38
-0.12914763 0.12077048 0.73300004 1.1900096e-38
-0.12792572 0.12093524 0.73400003 1.180754e-38
-0.12687238 0.12126477 0.73600006 1.180754e-38
-0.12581143 0.12159429 0.73800004 1.1714625e-38
-0.1245743 0.12175905 0.73900002 1.1530234e-38
-0.1235 0.12208858 0.74100006 1.1254366e-38
-0.12208858 0.12208858 0.74100006 1.1254366e-38
-0.12116572 0.12258286 0.74400002 1.1437318e-38
-0.12023143 0.12307715 0.74700004 9.7777969e-39
-0.18485144 0.12300001 0.73800004 7.7480581e-39
-0.18344572 0.12300001 0.73800004 7.3792755e-39
-0.18105334 0.12233334 0.73400003 8.3933924e-39
-0.17965524 0.12233334 0.73400003 9.8685225e-39
-0.17801429 0.12216667 0.73300004 1.0975959e-38
-0.1761362 0.12183333 0.73100001 1.116035e-38
-0.17474382 0.12183333 0.73100001 1.1161082e-38
-0.17311428 0.12166666 0.73000002 1.1714255e-38
-0.17125334 0.12133334 0.72800004 1.1897928e-38
-0.16963336 0.12116668 0.72700006 1.1990123e-38
-0.16824858 0.12116668 0.72700006 1.1990842e-38
-0.16640477 0.12083334 0.72500002 1.2083038e-38
-0.16502382 0.12083334 0.72500002 1.189937e-38
-0.16364287 0.12083334 0.72500002 1.189937e-38
-0.1622619 0.12083334 0.72500002 1.1899373e-38
-0.16043715 0.12050001 0.72300005 1.1991568e-38
-0.15906002 0.12050001 0.72300005 1.1715707e-38
-0.15768287 0.12050001 0.72300005 1.1715707e-38
-0.15630573 0.12050001 0.72300005 1.180755e-38
-0.15397619 0.12083334 0.72500002 1.1992294e-38
-0.15259524 0.12083334 0.72500002 1.2361077e-38
-0.15121429 0.12083334 0.72500002 1.2452553e-38
-0.14983334 0.12083334 0.72500002 1.2452553e-38
-0.14845239 0.12083334 0.72500002 1.2544749e-38
-0.14707144 0.12083334 0.72500002 1.2544749e-38
-0.14569049 0.12083334 0.72500002 1.309684e-38
-0.14430954 0.12083334 0.72500002 1.3281231e-38
-0.14292859 0.12083334 0.72500002 1.3189032e-38
-0.14154762 0.12083334 0.72500002 1.3373424e-38
-0.14016667 0.12083334 0.72500002 1.2913885e-38
-0.13916859 0.12116668 0.72700006 1.2545102e-38
-0.13797334 0.12133334 0.72800004 1.2269597e-38
-0.13696191 0.12166666 0.73000002 1.2269597e-38
-0.13418095 0.12166666 0.73000002 1.2268515e-38
-0.13018763 0.12183333 0.73100001 1.2084124e-38
-0.12914763 0.12216667 0.73300004 1.1991928e-38
-0.12792572 0.12233334 0.73400003 1.1807184e-38
-0.12687238 0.12266668 0.73600006 1.1714988e-38
-0.12581143 0.12300001 0.73800004 1.1623146e-38
-0.1245743 0.12316667 0.73900002 1.1438755e-38
-0.1235 0.1235 0.74100006 1.1254366e-38
-0.12225334 0.12366667 0.74200004 1.116217e-38
-0.12165429 0.12450001 0.74700004 1.1620988e-38
-0.12023143 0.12450001 0.74700004 9.7770752e-39
-0.18485144 0.12440572 0.73800004 8.8554594e-39
-0.18344572 0.12440572 0.73800004 8.7632638e-39
-0.18154669 0.12406857 0.73600006 8.3948316e-39
-0.18014477 0.12406857 0.73600006 9.9621573e-39
-0.17825715 0.12373143 0.73400003 1.0239478e-38
-0.1761362 0.12322572 0.73100001 1.0792652e-38
-0.17474382 0.12322572 0.73100001 1.0701177e-38
-0.17311428 0.12305715 0.73000002 1.1162155e-38
-0.17125334 0.12272 0.72800004 1.162206e-38
-0.16963336 0.12255144 0.72700006 1.1898647e-38
-0.16824858 0.12255144 0.72700006 1.1990486e-38
-0.16686383 0.12255144 0.72700006 1.2174878e-38
-0.16502382 0.12221428 0.72500002 1.2083761e-38
-0.16364287 0.12221428 0.72500002 1.2175957e-38
-0.1622619 0.12221428 0.72500002 1.208448e-38
-0.16088095 0.12221428 0.72500002 1.2176675e-38
-0.15906002 0.12187715 0.72300005 1.2268155e-38
-0.15768287 0.12187715 0.72300005 1.2636938e-38
-0.15535714 0.12221428 0.72500002 1.2728777e-38
-0.15397619 0.12221428 0.72500002 1.2728777e-38
-0.15259524 0.12221428 0.72500002 1.2913169e-38
-0.15121429 0.12221428 0.72500002 1.2913887e-38
-0.14983334 0.12221428 0.72500002 1.2913887e-38
-0.14845239 0.12221428 0.72500002 1.300608e-38
-0.14707144 0.12221428 0.72500002 1.2913885e-38
-0.14569049 0.12221428 0.72500002 1.2821692e-38
-0.14430954 0.12221428 0.72500002 1.2913887e-38
-0.14292859 0.12221428 0.72500002 1.2913885e-38
-0.14154762 0.12221428 0.72500002 1.2913885e-38
-0.14055334 0.12255144 0.72700006 1.2729496e-38
-0.13936 0.12272 0.72800004 1.2545105e-38
-0.13835238 0.12305715 0.73000002 1.2269597e-38
-0.13714953 0.12322572 0.73100001 1.2269597e-38
-0.13158 0.12322572 0.73100001 1.2084487e-38
-0.13054383 0.12356286 0.73300004 1.1992291e-38
-0.12932381 0.12373143 0.73400003 1.1992291e-38
-0.12792572 0.12373143 0.73400003 1.18079e-38
-0.12687238 0.12406857 0.73600006 1.1715704e-38
-0.12581143 0.12440572 0.73800004 1.1623146e-38
-0.1245743 0.1245743 0.73900002 1.1438755e-38
-0.12258286 0.12541714 0.74400002 1.1254366e-38
-0.12165429 0.12592286 0.74700004 1.1805379e-38
-0.12023143 0.12592286 0.74700004 9.8692708e-39
-0.11673905 0.12676571 0.75200003 9.406485e-39
-0.1836943 0.12598191 0.73900002 9.1309925e-39
-0.18204001 0.12581143 0.73800004 9.407194e-39
-0.18014477 0.12547049 0.73600006 1.097452e-38
-0.17825715 0.12512952 0.73400003 1.088341e-38
-0.1766181 0.12495904 0.73300004 1.1252193e-38
-0.17474382 0.12461809 0.73100001 1.1161069e-38
-0.17311428 0.12444761 0.73000002 1.1253265e-38
-0.17125334 0.12410668 0.72800004 1.143695e-38
-0.16986668 0.12410668 0.72800004 1.1621341e-38
-0.16824858 0.1239362 0.72700006 1.1529514e-38
-0.16686383 0.1239362 0.72700006 1.1806101e-38
-0.16547906 0.1239362 0.72700006 1.1807171e-38
-0.16364287 0.12359525 0.72500002 1.1807171e-38
-0.1622619 0.12359525 0.72500002 1.1807177e-38
-0.16088095 0.12359525 0.72500002 1.1991568e-38
-0.1595 0.12359525 0.72500002 1.2175954e-38
-0.15811905 0.12359525 0.72500002 1.2268149e-38
-0.1567381 0.12359525 0.72500002 1.2360345e-38
-0.15535714 0.12359525 0.72500002 1.2360345e-38
-0.15397619 0.12359525 0.72500002 1.2268518e-38
-0.15259524 0.12359525 0.72500002 1.2452909e-38
-0.15121429 0.12359525 0.72500002 1.2821326e-38
-0.14983334 0.12359525 0.72500002 1.272913e-38
-0.14845239 0.12359525 0.72500002 1.2637654e-38
-0.14707144 0.12359525 0.72500002 1.2545458e-38
-0.1460924 0.1239362 0.72700006 1.2452906e-38
-0.14470762 0.1239362 0.72700006 1.2545102e-38
-0.14332287 0.1239362 0.72700006 1.2637654e-38
-0.14193811 0.1239362 0.72700006 1.2729849e-38
-0.14055334 0.1239362 0.72700006 1.2637301e-38
-0.13936 0.12410668 0.72800004 1.2545105e-38
-0.13835238 0.12444761 0.73000002 1.2545102e-38
-0.13714953 0.12461809 0.73100001 1.2452906e-38
-0.13158 0.12461809 0.73100001 1.2176322e-38
-0.13054383 0.12495904 0.73300004 1.2084127e-38
-0.12932381 0.12512952 0.73400003 1.1991931e-38
-0.12827431 0.12547049 0.73600006 1.1899733e-38
-0.12687238 0.12547049 0.73600006 1.1715341e-38
-0.12581143 0.12581143 0.73800004 1.1715697e-38
-0.1245743 0.12598191 0.73900002 1.1531306e-38
-0.12055333 0.12768666 0.74900001 9.5934028e-39
-0.11928572 0.12785715 0.75000006 9.131696e-39
-0.18918858 0.12825143 0.74400002 9.6837781e-39
-0.1836943 0.12738952 0.73900002 8.7611156e-39
-0.18204001 0.12721714 0.73800004 9.5908636e-39
-0.18014477 0.12687238 0.73600006 1.0881602e-38
-0.17825715 0.12652762 0.73400003 1.0607892e-38
-0.1766181 0.12635525 0.73300004 1.1161066e-38
-0.17522192 0.12635525 0.73300004 1.125363e-38
-0.17335142 0.12601048 0.73100001 1.125363e-38
-0.1717238 0.1258381 0.73000002 1.1344754e-38
-0.17033334 0.1258381 0.73000002 1.1529145e-38
-0.16848001 0.12549333 0.72800004 1.1713183e-38
-0.16686383 0.12532096 0.72700006 1.1897575e-38
-0.16547906 0.12532096 0.72700006 1.1807174e-38
-0.1640943 0.12532096 0.72700006 1.189937e-38
-0.16270953 0.12532096 0.72700006 1.1899367e-38
-0.16132477 0.12532096 0.72700006 1.2083758e-38
-0.15994 0.12532096 0.72700006 1.1992284e-38
-0.15811905 0.1249762 0.72500002 1.208448e-38
-0.1567381 0.1249762 0.72500002 1.2176673e-38
-0.15578572 0.12532096 0.72700006 1.2361064e-38
-0.15440097 0.12532096 0.72700006 1.2177036e-38
-0.15301619 0.12532096 0.72700006 1.2269231e-38
-0.15163144 0.12532096 0.72700006 1.2729496e-38
-0.15024668 0.12532096 0.72700006 1.2637301e-38
-0.14886191 0.12532096 0.72700006 1.2545102e-38
-0.14747715 0.12532096 0.72700006 1.2545102e-38
-0.1460924 0.12532096 0.72700006 1.2269594e-38
-0.14470762 0.12532096 0.72700006 1.2269594e-38
-0.14332287 0.12532096 0.72700006 1.2637298e-38
-0.14213334 0.12549333 0.72800004 1.2729493e-38
-0.14074668 0.12549333 0.72800004 1.2544749e-38
-0.13974287 0.1258381 0.73000002 1.2544749e-38
-0.13854189 0.12601048 0.73100001 1.2545105e-38
-0.13714953 0.12601048 0.73100001 1.2452909e-38
-0.13575713 0.12601048 0.73100001 1.2268878e-38
-0.1347324 0.12635525 0.73300004 1.2176682e-38
-0.13054383 0.12635525 0.73300004 1.2084124e-38
-0.12967619 0.12687238 0.73600006 1.1991928e-38
-0.12827431 0.12687238 0.73600006 1.1808256e-38
-0.12721714 0.12721714 0.73800004 1.1531669e-38
-0.12055333 0.12911333 0.74900001 9.7777969e-39
-0.18444002 0.12932001 0.74200004 8.0232002e-39
-0.18228666 0.12879714 0.73900002 8.2090012e-39
-0.1806343 0.12862286 0.73800004 8.1168056e-39
-0.17874287 0.12827431 0.73600006 8.9490647e-39
-0.1766181 0.12775144 0.73300004 1.0424195e-38
-0.17382573 0.12775144 0.73300004 1.1804641e-38
-0.17195906 0.12740286 0.73100001 1.1988679e-38
-0.17056666 0.12740286 0.73100001 1.2080874e-38
-0.16894285 0.12722857 0.73000002 1.2173436e-38
-0.16709335 0.12688001 0.72800004 1.2265631e-38
-0.16570666 0.12688001 0.72800004 1.2175234e-38
-0.16432001 0.12688001 0.72800004 1.2175234e-38
-0.16293335 0.12688001 0.72800004 1.1991916e-38
-0.16132477 0.12670572 0.72700006 1.2084111e-38
-0.15994 0.12670572 0.72700006 1.2176307e-38
-0.15855525 0.12670572 0.72700006 1.2360698e-38
-0.15717047 0.12670572 0.72700006 1.2361417e-38
-0.15578572 0.12670572 0.72700006 1.2361417e-38
-0.15440097 0.12670572 0.72700006 1.2361427e-38
-0.15301619 0.12670572 0.72700006 1.2545818e-38
-0.15163144 0.12670572 0.72700006 1.300572e-38
-0.15024668 0.12670572 0.72700006 1.2821329e-38
-0.14886191 0.12670572 0.72700006 1.2636938e-38
-0.14747715 0.12670572 0.72700006 1.2544742e-38
-0.14629334 0.12688001 0.72800004 1.2452909e-38
-0.14490667 0.12688001 0.72800004 1.2452909e-38
-0.14352001 0.12688001 0.72800004 1.2544386e-38
-0.14213334 0.12688001 0.72800004 1.2636582e-38
-0.14074668 0.12688001 0.72800004 1.2545105e-38
-0.13974287 0.12722857 0.73000002 1.2545105e-38
-0.13854189 0.12740286 0.73100001 1.2452909e-38
-0.13575713 0.12740286 0.73100001 1.2360714e-38
-0.1347324 0.12775144 0.73300004 1.2268518e-38
-0.12967619 0.12827431 0.73600006 1.1991928e-38
-0.12862286 0.12862286 0.73800004 1.1992284e-38
-0.1245743 0.12879714 0.73900002 1.143911e-38
-0.1235 0.12914573 0.74100006 1.1254366e-38
-0.12208858 0.12914573 0.74100006 1.116217e-38
-0.12055333 0.13054 0.74900001 9.7785171e-39
-0.18278001 0.13055715 0.74100006 8.0260491e-39
-0.18087906 0.13020477 0.73900002 7.5650709e-39
-0.17874287 0.12967619 0.73600006 7.9320612e-39
-0.17685905 0.12932381 0.73400003 9.5915825e-39
-0.17382573 0.12914763 0.73300004 1.1435142e-38
-0.17242953 0.12914763 0.73300004 1.1712811e-38
-0.17056666 0.12879524 0.73100001 1.1897202e-38
-0.16917428 0.12879524 0.73100001 1.2357827e-38
-0.16755238 0.12861905 0.73000002 1.2265631e-38
-0.16616191 0.12861905 0.73000002 1.1623133e-38
-0.16432001 0.12826668 0.72800004 1.1991916e-38
-0.16293335 0.12826668 0.72800004 1.1900805e-38
-0.16154668 0.12826668 0.72800004 1.1900805e-38
-0.15994 0.12809049 0.72700006 1.2360348e-38
-0.15855525 0.12809049 0.72700006 1.2544739e-38
-0.15717047 0.12809049 0.72700006 1.2544742e-38
-0.15578572 0.12809049 0.72700006 1.2360351e-38
-0.15440097 0.12809049 0.72700006 1.2452906e-38
-0.15301619 0.12809049 0.72700006 1.2637298e-38
-0.15163144 0.12809049 0.72700006 1.2821329e-38
-0.15024668 0.12809049 0.72700006 1.2729133e-38
-0.14906667 0.12826668 0.72800004 1.2636935e-38
-0.14768001 0.12826668 0.72800004 1.2544739e-38
-0.14629334 0.12826668 0.72800004 1.2452909e-38
-0.14490667 0.12826668 0.72800004 1.2452909e-38
-0.14352001 0.12826668 0.72800004 1.2544742e-38
-0.14213334 0.12826668 0.72800004 1.2636938e-38
-0.14074668 0.12826668 0.72800004 1.2545105e-38
-0.13854189 0.12879524 0.73100001 1.2360714e-38
-0.13575713 0.12879524 0.73100001 1.2268518e-38
-0.1347324 0.12914763 0.73300004 1.2176322e-38
-0.12967619 0.12967619 0.73600006 1.1900096e-38
-0.12862286 0.13002859 0.73800004 1.171606e-38
-0.1245743 0.13020477 0.73900002 1.1438394e-38
-0.1235 0.13055715 0.74100006 1.1254366e-38
-0.12258286 0.13108571 0.74400002 1.116217e-38
-0.12055333 0.13196667 0.74900001 1.0054384e-38
-0.18302667 0.13214667 0.74200004 8.7636197e-39
-0.18087906 0.13161239 0.73900002 8.4870328e-39
-0.17922857 0.13143429 0.73800004 8.4859762e-39
-0.17685905 0.13072191 0.73400003 8.2093893e-39
-0.17546096 0.13072191 0.73400003 8.3930421e-39
-0.17406286 0.13072191 0.73400003 8.3008465e-39
-0.17242953 0.13054383 0.73300004 7.7498601e-39
-0.17056666 0.13018763 0.73100001 9.4093815e-39
-0.16917428 0.13018763 0.73100001 9.9621853e-39
-0.16755238 0.13000953 0.73000002 1.0054381e-38
-0.16616191 0.13000953 0.73000002 1.0239476e-38
-0.16477144 0.13000953 0.73000002 1.0977041e-38
-0.16338095 0.13000953 0.73000002 1.1621691e-38
-0.16154668 0.12965333 0.72800004 1.1713887e-38
-0.16016001 0.12965333 0.72800004 1.1713905e-38
-0.15855525 0.12947524 0.72700006 1.1713905e-38
-0.15717047 0.12947524 0.72700006 1.1899017e-38
-0.15578572 0.12947524 0.72700006 1.1806821e-38
-0.15440097 0.12947524 0.72700006 1.1992284e-38
-0.15301619 0.12947524 0.72700006 1.1992284e-38
-0.15163144 0.12947524 0.72700006 1.1715341e-38
-0.15024668 0.12947524 0.72700006 1.217632e-38
-0.14906667 0.12965333 0.72800004 1.2635856e-38
-0.14768001 0.12965333 0.72800004 1.2635856e-38
-0.14629334 0.12965333 0.72800004 1.2452906e-38
-0.14490667 0.12965333 0.72800004 1.2360711e-38
-0.14352001 0.12965333 0.72800004 1.2360711e-38
-0.14213334 0.12965333 0.72800004 1.2452906e-38
-0.14074668 0.12965333 0.72800004 1.2728777e-38
-0.13854189 0.13018763 0.73100001 1.245219e-38
-0.13575713 0.13018763 0.73100001 1.245219e-38
-0.1347324 0.13054383 0.73300004 1.2359995e-38
-0.12967619 0.13107811 0.73600006 1.1807903e-38
-0.12862286 0.13143429 0.73800004 1.1900089e-38
-0.1245743 0.13161239 0.73900002 1.1622786e-38
-0.1235 0.13196859 0.74100006 1.1714976e-38
-0.12258286 0.13250287 0.74400002 1.1530584e-38
-0.12165429 0.13303715 0.74700004 1.1713902e-38
-0.18352 0.13392 0.74400002 9.4071912e-39
-0.18087906 0.13302 0.73900002 9.3149956e-39
-0.17922857 0.13284001 0.73800004 9.2220937e-39
-0.17734095 0.13248 0.73600006 9.1298981e-39
-0.17593907 0.13248 0.73600006 8.66892e-39
-0.17406286 0.13212 0.73400003 8.2079418e-39
-0.17242953 0.13194001 0.73300004 7.1980961e-39
-0.17103334 0.13194001 0.73300004 8.949813e-39
-0.16917428 0.13158 0.73100001 9.0420311e-39
-0.1677819 0.13158 0.73100001 8.8576398e-39
-0.16616191 0.1314 0.73000002 9.5004785e-39
-0.16477144 0.1314 0.73000002 1.0145848e-38
-0.16338095 0.1314 0.73000002 1.0974527e-38
-0.16199048 0.1314 0.73000002 1.0974527e-38
-0.16016001 0.13104001 0.72800004 1.0516065e-38
-0.15877333 0.13104001 0.72800004 1.0608261e-38
-0.15738668 0.13104001 0.72800004 1.0700827e-38
-0.15578572 0.13086002 0.72700006 1.0885218e-38
-0.15440097 0.13086002 0.72700006 1.0977416e-38
-0.15301619 0.13086002 0.72700006 1.0700829e-38
-0.15163144 0.13086002 0.72700006 1.0517489e-38
-0.15024668 0.13086002 0.72700006 1.1439445e-38
-0.14906667 0.13104001 0.72800004 1.3003559e-38
-0.14768001 0.13104001 0.72800004 1.2819168e-38
-0.14629334 0.13104001 0.72800004 1.2360714e-38
-0.14490667 0.13104001 0.72800004 1.2452909e-38
-0.14352001 0.13104001 0.72800004 1.2635859e-38
-0.14213334 0.13104001 0.72800004 1.2728054e-38
-0.14074668 0.13104001 0.72800004 1.2636582e-38
-0.13854189 0.13158 0.73100001 1.2728057e-38
-0.13575713 0.13158 0.73100001 1.2635859e-38
-0.1347324 0.13194001 0.73300004 1.2543663e-38
-0.13002859 0.13284001 0.73800004 1.18079e-38
-0.12862286 0.13284001 0.73800004 1.1900089e-38
-0.12598191 0.13302 0.73900002 1.1806824e-38
-0.12491144 0.13338001 0.74100006 1.1806824e-38
-0.12366667 0.13356 0.74200004 1.1623489e-38
-0.12258286 0.13392 0.74400002 1.1346902e-38
-0.12165429 0.13446002 0.74700004 1.1621341e-38
-0.18136857 0.13479143 0.74100006 9.2242419e-39
-0.17947143 0.13442762 0.73900002 9.4082801e-39
-0.17734095 0.13388193 0.73600006 1.0606823e-38
-0.17593907 0.13388193 0.73600006 1.0698306e-38
-0.17406286 0.1335181 0.73400003 1.0421719e-38
-0.17266476 0.1335181 0.73400003 9.9625258e-39
-0.17103334 0.1333362 0.73300004 9.9625258e-39
-0.16963714 0.1333362 0.73300004 9.8699869e-39
-0.1677819 0.13297237 0.73100001 9.7777912e-39
-0.16638952 0.13297237 0.73100001 9.3171886e-39
-0.16499713 0.13297237 0.73100001 8.6718192e-39
-0.16360477 0.13297237 0.73100001 8.3962861e-39
-0.16199048 0.13279048 0.73000002 7.4743298e-39
-0.16060001 0.13279048 0.73000002 7.9356611e-39
-0.15920952 0.13279048 0.73000002 8.1200524e-39
-0.15738668 0.13242666 0.72800004 7.8438438e-39
-0.156 0.13242666 0.72800004 7.7516482e-39
-0.15461335 0.13242666 0.72800004 8.0282449e-39
-0.15322667 0.13242666 0.72800004 7.5672667e-39
-0.15184 0.13242666 0.72800004 9.0434282e-39
-0.15045334 0.13242666 0.72800004 1.1071732e-38
-0.14906667 0.13242666 0.72800004 1.245219e-38
-0.14768001 0.13242666 0.72800004 1.2359995e-38
-0.14629334 0.13242666 0.72800004 1.2635859e-38
-0.14530477 0.13279048 0.73000002 1.2728054e-38
-0.14213334 0.13242666 0.72800004 1.2728057e-38
-0.14074668 0.13242666 0.72800004 1.2728054e-38
-0.13854189 0.13297237 0.73100001 1.2728054e-38
-0.13575713 0.13297237 0.73100001 1.2728407e-38
-0.1347324 0.1333362 0.73300004 1.2544016e-38
-0.13194001 0.1333362 0.73300004 1.1992647e-38
-0.13072191 0.1335181 0.73400003 1.1992647e-38
-0.13002859 0.13424572 0.73800004 1.1900452e-38
-0.12879714 0.13442762 0.73900002 1.1992281e-38
-0.12738952 0.13442762 0.73900002 1.2084477e-38
-0.12632287 0.13479143 0.74100006 1.189938e-38
-0.12508002 0.13497335 0.74200004 1.0885228e-38
-0.12366667 0.13497335 0.74200004 8.6761128e-39
-0.12258286 0.13533714 0.74400002 8.3995259e-39
-0.18401335 0.13712192 0.74600005 8.3944813e-39
-0.18161334 0.13638668 0.74200004 9.1320463e-39
-0.17947143 0.13583523 0.73900002 9.2253265e-39
-0.17734095 0.13528381 0.73600006 9.9628916e-39
-0.17593907 0.13528381 0.73600006 1.0514628e-38
-0.17453715 0.13528381 0.73600006 1.0606823e-38
-0.17266476 0.13491619 0.73400003 1.0514621e-38
-0.17126666 0.13491619 0.73400003 1.0330229e-38
-0.16963714 0.1347324 0.73300004 1.0054381e-38
-0.16824096 0.1347324 0.73300004 1.0515359e-38
-0.16684477 0.1347324 0.73300004 1.0424242e-38
-0.16499713 0.13436477 0.73100001 9.5944818e-39
-0.16360477 0.13436477 0.73100001 8.8569168e-39
-0.16221237 0.13436477 0.73100001 8.3959386e-39
-0.16060001 0.13418095 0.73000002 8.2129767e-39
-0.15920952 0.13418095 0.73000002 8.9505417e-39
-0.15781905 0.13418095 0.73000002 9.4104381e-39
-0.156 0.13381335 0.72800004 9.3182424e-39
-0.15461335 0.13381335 0.72800004 9.1345826e-39
-0.15322667 0.13381335 0.72800004 8.9501914e-39
-0.15184 0.13381335 0.72800004 1.0055438e-38
-0.15045334 0.13381335 0.72800004 1.1714959e-38
-0.14906667 0.13381335 0.72800004 1.263514e-38
-0.14768001 0.13381335 0.72800004 1.263514e-38
-0.14629334 0.13381335 0.72800004 1.2728057e-38
-0.14530477 0.13418095 0.73000002 1.2728057e-38
-0.14352001 0.13381335 0.72800004 1.2635861e-38
-0.14213334 0.13381335 0.72800004 1.2728057e-38
-0.14074668 0.13381335 0.72800004 1.2452909e-38
-0.13974287 0.13418095 0.73000002 1.2360714e-38
-0.13854189 0.13436477 0.73100001 1.2361074e-38
-0.13575713 0.13436477 0.73100001 1.2177038e-38
-0.1347324 0.1347324 0.73300004 1.2084843e-38
-0.13194001 0.1347324 0.73300004 1.2084843e-38
-0.13072191 0.13491619 0.73400003 1.1900814e-38
-0.13002859 0.13565144 0.73800004 1.1808619e-38
-0.12879714 0.13583523 0.73900002 1.2268515e-38
-0.12738952 0.13583523 0.73900002 1.1807537e-38
-0.12632287 0.13620287 0.74100006 1.0703328e-38
-0.12508002 0.13638668 0.74200004 9.5047847e-39
-0.124 0.13675429 0.74400002 6.9279958e-39
-0.12258286 0.13675429 0.74400002 7.0201914e-39
-0.1199219 0.13859238 0.75400001 9.5944818e-39
-0.18426001 0.13872857 0.74700004 8.0249981e-39
-0.18210286 0.13817143 0.74400002 8.7625631e-39
-0.17995715 0.13761429 0.74100006 8.9473019e-39
-0.17782286 0.13705714 0.73800004 9.1316932e-39
-0.17641714 0.13705714 0.73800004 9.5930244e-39
-0.17453715 0.13668573 0.73600006 1.0054003e-38
-0.17313525 0.13668573 0.73600006 9.9618098e-39
-0.17173333 0.13668573 0.73600006 1.0146201e-38
-0.16986857 0.13631429 0.73400003 1.0146577e-38
-0.16824096 0.13612859 0.73300004 1.0791946e-38
-0.16684477 0.13612859 0.73300004 1.1068167e-38
-0.16499713 0.13575713 0.73100001 1.1897928e-38
-0.16360477 0.13575713 0.73100001 1.1436597e-38
-0.16221237 0.13575713 0.73100001 1.1436597e-38
-0.16082001 0.13575713 0.73100001 1.1620991e-38
-0.15920952 0.13557144 0.73000002 1.2174164e-38
-0.15781905 0.13557144 0.73000002 1.2082319e-38
-0.15642858 0.13557144 0.73000002 1.2082319e-38
-0.1550381 0.13557144 0.73000002 1.1990489e-38
-0.15364762 0.13557144 0.73000002 1.217488e-38
-0.15225714 0.13557144 0.73000002 1.300391e-38
-0.15086667 0.13557144 0.73000002 1.3372692e-38
-0.14947619 0.13557144 0.73000002 1.2820247e-38
-0.14808571 0.13557144 0.73000002 1.2728051e-38
-0.14669524 0.13557144 0.73000002 1.2544389e-38
-0.14530477 0.13557144 0.73000002 1.2544389e-38
-0.14391428 0.13557144 0.73000002 1.2635859e-38
-0.14252381 0.13557144 0.73000002 1.2635859e-38
-0.14113334 0.13557144 0.73000002 1.2452906e-38
-0.13993429 0.13575713 0.73100001 1.2360711e-38
-0.13854189 0.13575713 0.73100001 1.2544749e-38
-0.13714953 0.13575713 0.73100001 1.2544749e-38
-0.13575713 0.13575713 0.73100001 1.2545458e-38
-0.1347324 0.13612859 0.73300004 1.2453262e-38
-0.1335181 0.13631429 0.73400003 1.2452906e-38
-0.13212 0.13631429 0.73400003 1.2452906e-38
-0.13107811 0.13668573 0.73600006 1.2269587e-38
-0.13002859 0.13705714 0.73800004 1.1624218e-38
-0.12738952 0.13724287 0.73900002 9.2260622e-39
-0.12632287 0.13761429 0.74100006 7.7541117e-39
-0.12508002 0.13780001 0.74200004 8.5838723e-39
-0.124 0.13817143 0.74400002 8.3069828e-39
-0.12291239 0.13854288 0.74600005 6.1864833e-39
-0.12165429 0.13872857 0.74700004 8.3984343e-39
-0.1199219 0.14002857 0.75400001 1.1068167e-38
-0.18426001 0.14015144 0.74700004 8.3923331e-39
-0.18210286 0.13958858 0.74400002 8.9455068e-39
-0.18020001 0.13921334 0.74200004 8.7629134e-39
-0.17782286 0.13846286 0.73800004 9.131696e-39
-0.17641714 0.13846286 0.73800004 9.1316932e-39
-0.17501144 0.13846286 0.73800004 9.2238888e-39
-0.17313525 0.13808762 0.73600006 9.9600119e-39
-0.17173333 0.13808762 0.73600006 1.0236599e-38
-0.16986857 0.13771239 0.73400003 9.9618224e-39
-0.16824096 0.13752477 0.73300004 1.0422801e-38
-0.16684477 0.13752477 0.73300004 1.0332047e-38
-0.16544858 0.13752477 0.73300004 1.0700829e-38
-0.16360477 0.13714953 0.73100001 1.1160731e-38
-0.16221237 0.13714953 0.73100001 1.1345123e-38
-0.16082001 0.13714953 0.73100001 1.1529511e-38
-0.15942761 0.13714953 0.73100001 1.1898294e-38
-0.15803523 0.13714953 0.73100001 1.1714978e-38
-0.15664285 0.13714953 0.73100001 1.1622783e-38
-0.15525047 0.13714953 0.73100001 1.2082322e-38
-0.1538581 0.13714953 0.73100001 1.2174517e-38
-0.15225714 0.13696191 0.73000002 1.3003915e-38
-0.15086667 0.13696191 0.73000002 1.3188306e-38
-0.14968096 0.13714953 0.73100001 1.2820247e-38
-0.14808571 0.13696191 0.73000002 1.2635856e-38
-0.14669524 0.13696191 0.73000002 1.2360714e-38
-0.14550382 0.13714953 0.73100001 1.2360714e-38
-0.14411142 0.13714953 0.73100001 1.2268518e-38
-0.14271905 0.13714953 0.73100001 1.2360714e-38
-0.14132667 0.13714953 0.73100001 1.2452909e-38
-0.13993429 0.13714953 0.73100001 1.2452909e-38
-0.13854189 0.13714953 0.73100001 1.2452553e-38
-0.13752477 0.13752477 0.73300004 1.2544749e-38
-0.13612859 0.13752477 0.73300004 1.2636938e-38
-0.1347324 0.13752477 0.73300004 1.2636938e-38
-0.1335181 0.13771239 0.73400003 1.2545105e-38
-0.13212 0.13771239 0.73400003 1.1991931e-38
-0.13107811 0.13808762 0.73600006 1.1531666e-38
-0.13020477 0.13865048 0.73900002 1.1347275e-38
-0.12738952 0.13865048 0.73900002 8.9494753e-39
-0.12649333 0.13921334 0.74200004 7.1995184e-39
-0.12541714 0.13958858 0.74400002 9.3200179e-39
-0.12433334 0.13996382 0.74600005 9.4115171e-39
-0.12291239 0.13996382 0.74600005 8.673952e-39
-0.12198 0.14052667 0.74900001 8.8590649e-39
-0.12055333 0.14052667 0.74900001 1.0518586e-38
-0.1199219 0.14146475 0.75400001 1.0976337e-38
-0.11895715 0.14202763 0.75700003 1.069975e-38
-0.18426001 0.14157429 0.74700004 8.3934303e-39
-0.18210286 0.14100571 0.74400002 8.6700172e-39
-0.18020001 0.14062667 0.74200004 8.7625631e-39
-0.17854571 0.14043716 0.74100006 8.8547588e-39
-0.17501144 0.13986857 0.73800004 9.2235413e-39
-0.17313525 0.13948955 0.73600006 9.3168131e-39
-0.17173333 0.13948955 0.73600006 9.6855956e-39
-0.16986857 0.13911049 0.73400003 9.8699799e-39
-0.16847049 0.13911049 0.73400003 9.8699799e-39
-0.16684477 0.13892095 0.73300004 9.5022862e-39
-0.16544858 0.13892095 0.73300004 9.5022862e-39
-0.16360477 0.13854189 0.73100001 9.9621881e-39
-0.16221237 0.13854189 0.73100001 1.0146579e-38
-0.16082001 0.13854189 0.73100001 1.0330968e-38
-0.15942761 0.13854189 0.73100001 1.0884142e-38
-0.15803523 0.13854189 0.73100001 1.0423887e-38
-0.15664285 0.13854189 0.73100001 9.9629084e-39
-0.15525047 0.13854189 0.73100001 1.06994e-38
-0.1538581 0.13854189 0.73100001 1.1529161e-38
-0.15246572 0.13854189 0.73100001 1.2267782e-38
-0.15107334 0.13854189 0.73100001 1.272876e-38
-0.14968096 0.13854189 0.73100001 1.2453262e-38
-0.14828858 0.13854189 0.73100001 1.2361067e-38
-0.14689618 0.13854189 0.73100001 1.2452906e-38
-0.14550382 0.13854189 0.73100001 1.2452906e-38
-0.14411142 0.13854189 0.73100001 1.2728777e-38
-0.14271905 0.13854189 0.73100001 1.2636582e-38
-0.14132667 0.13854189 0.73100001 1.2729493e-38
-0.14031714 0.13892095 0.73300004 1.2452906e-38
-0.13892095 0.13892095 0.73300004 1.1623158e-38
-0.13612859 0.13892095 0.73300004 1.1070335e-38
-0.1347324 0.13892095 0.73300004 1.1162531e-38
-0.1335181 0.13911049 0.73400003 9.5037547e-39
-0.13212 0.13911049 0.73400003 8.6739941e-39
-0.13107811 0.13948955 0.73600006 8.0318196e-39
-0.13020477 0.1400581 0.73900002 8.0318196e-39
-0.12879714 0.1400581 0.73900002 8.4913614e-39
-0.1277343 0.14043716 0.74100006 8.4913614e-39
-0.12649333 0.14062667 0.74200004 9.5030022e-39
-0.12541714 0.14100571 0.74400002 1.0517154e-38
-0.12433334 0.14138477 0.74600005 1.1162135e-38
-0.1199219 0.14290096 0.75400001 1.1345107e-38
-0.11895715 0.14346953 0.75700003 1.0607542e-38
-0.18426001 0.14299715 0.74700004 8.7611156e-39
-0.18210286 0.14242285 0.74400002 9.0377025e-39
-0.18020001 0.14204001 0.74200004 9.3142894e-39
-0.17854571 0.14184858 0.74100006 9.1298981e-39
-0.17665619 0.14146571 0.73900002 8.7625631e-39
-0.17360573 0.1412743 0.73800004 9.5015575e-39
-0.17220001 0.1412743 0.73800004 9.6859487e-39
-0.17033145 0.14089143 0.73600006 9.8696267e-39
-0.16847049 0.14050858 0.73400003 9.8696267e-39
-0.16684477 0.14031714 0.73300004 9.8692708e-39
-0.16544858 0.14031714 0.73300004 9.8692708e-39
-0.16405238 0.14031714 0.73300004 1.0145142e-38
-0.1626562 0.14031714 0.73300004 1.0145142e-38
-0.16082001 0.13993429 0.73100001 1.0237681e-38
-0.15942761 0.13993429 0.73100001 1.0514267e-38
-0.15803523 0.13993429 0.73100001 1.0238409e-38
-0.15664285 0.13993429 0.73100001 1.0699387e-38
-0.15525047 0.13993429 0.73100001 1.0883791e-38
-0.1538581 0.13993429 0.73100001 1.1529161e-38
-0.15246572 0.13993429 0.73100001 1.153095e-38
-0.15107334 0.13993429 0.73100001 1.2360711e-38
-0.14968096 0.13993429 0.73100001 1.2452909e-38
-0.14828858 0.13993429 0.73100001 1.2360714e-38
-0.14689618 0.13993429 0.73100001 1.2544742e-38
-0.14550382 0.13993429 0.73100001 1.2636938e-38
-0.14450571 0.14031714 0.73300004 1.2452906e-38
-0.14310953 0.14031714 0.73300004 1.2452906e-38
-0.14171334 0.14031714 0.73300004 1.2913524e-38
-0.14031714 0.14031714 0.73300004 1.2175959e-38
-0.13892095 0.14031714 0.73300004 9.23146e-39
-0.13752477 0.14031714 0.73300004 9.1392644e-39
-0.13612859 0.14031714 0.73300004 1.0057255e-38
-0.13491619 0.14050858 0.73400003 9.5962769e-39
-0.1335181 0.14050858 0.73400003 8.859781e-39
-0.13248 0.14089143 0.73600006 8.7675854e-39
-0.13143429 0.1412743 0.73800004 7.7552327e-39
-0.13020477 0.14146571 0.73900002 7.2020589e-39
-0.12879714 0.14146571 0.73900002 6.2815376e-39
-0.12790667 0.14204001 0.74200004 8.4942327e-39
-0.12649333 0.14204001 0.74200004 1.0148016e-38
-0.12541714 0.14242285 0.74400002 1.0793385e-38
-0.12433334 0.14280573 0.74600005 1.162206e-38
-0.12023143 0.14299715 0.74700004 1.1161452e-38
-0.12008096 0.14452857 0.75500005 1.134512e-38
-0.18210286 0.14384 0.74400002 9.6852201e-39
-0.18020001 0.14345334 0.74200004 9.2249706e-39
-0.17854571 0.14326 0.74100006 8.6717968e-39
-0.17665619 0.14287333 0.73900002 8.7632918e-39
-0.17501144 0.14268 0.73800004 9.4086612e-39
-0.17220001 0.14268 0.73800004 9.5012044e-39
-0.17033145 0.14229335 0.73600006 9.5934028e-39
-0.16892953 0.14229335 0.73600006 9.7777941e-39
-0.16707239 0.14190666 0.73400003 9.7774311e-39
-0.16567428 0.14190666 0.73400003 9.7774311e-39
-0.16405238 0.14171334 0.73300004 9.8692736e-39
-0.1626562 0.14171334 0.73300004 9.8692736e-39
-0.16126001 0.14171334 0.73300004 9.7770654e-39
-0.15986381 0.14171334 0.73300004 9.7770654e-39
-0.15846762 0.14171334 0.73300004 1.0238772e-38
-0.15707143 0.14171334 0.73300004 1.2635859e-38
-0.15567525 0.14171334 0.73300004 1.2359642e-38
-0.15427905 0.14171334 0.73300004 1.1622077e-38
-0.15246572 0.14132667 0.73100001 1.1438404e-38
-0.15107334 0.14132667 0.73100001 1.2636947e-38
-0.15009047 0.14171334 0.73300004 1.2729496e-38
-0.14828858 0.14132667 0.73100001 1.2637301e-38
-0.14689618 0.14132667 0.73100001 1.2729849e-38
-0.1459019 0.14171334 0.73300004 1.1346915e-38
-0.14450571 0.14171334 0.73300004 8.0315057e-39
-0.14310953 0.14171334 0.73300004 7.9393101e-39
-0.14190666 0.14190666 0.73400003 8.5832165e-39
-0.14050858 0.14190666 0.73400003 8.5832165e-39
-0.13911049 0.14190666 0.73400003 8.3069674e-39
-0.13771239 0.14190666 0.73400003 7.7537936e-39
-0.13631429 0.14190666 0.73400003 7.2024121e-39
-0.13528381 0.14229335 0.73600006 6.0038689e-39
-0.13388193 0.14229335 0.73600006 7.2931658e-39
-0.13284001 0.14268 0.73800004 9.0448827e-39
-0.13143429 0.14268 0.73800004 8.3991756e-39
-0.13020477 0.14287333 0.73900002 7.8460018e-39
-0.12914573 0.14326 0.74100006 9.3211067e-39
-0.12790667 0.14345334 0.74200004 1.1441606e-38
-0.12649333 0.14345334 0.74200004 1.1900089e-38
-0.12541714 0.14384 0.74400002 1.1807893e-38
-0.12433334 0.14422667 0.74600005 1.189937e-38
-0.12165429 0.14442 0.74700004 1.1161454e-38
-0.12055333 0.14480667 0.74900001 1.1069259e-38
-0.12008096 0.14596668 0.75500005 1.1069606e-38
-0.18210286 0.14525715 0.74400002 9.685583e-39
-0.18020001 0.14486668 0.74200004 9.3182424e-39
-0.17713429 0.14467144 0.74100006 9.4093619e-39
-0.17524858 0.14428096 0.73900002 9.4093619e-39
-0.17079429 0.14408572 0.73800004 9.5926867e-39
-0.16892953 0.14369524 0.73600006 9.6848824e-39
-0.16752765 0.14369524 0.73600006 9.5022834e-39
-0.16567428 0.14330477 0.73400003 9.4100877e-39
-0.1642762 0.14330477 0.73400003 9.9614692e-39
-0.1626562 0.14310953 0.73300004 1.0145861e-38
-0.16126001 0.14310953 0.73300004 9.9621755e-39
-0.15986381 0.14310953 0.73300004 1.0146567e-38
-0.15846762 0.14310953 0.73300004 1.1252558e-38
-0.15707143 0.14310953 0.73300004 1.2727688e-38
-0.15567525 0.14310953 0.73300004 1.2728057e-38
-0.15427905 0.14310953 0.73300004 1.1806101e-38
-0.15288286 0.14310953 0.73300004 1.1438401e-38
-0.15148667 0.14310953 0.73300004 1.2544749e-38
-0.15009047 0.14310953 0.73300004 1.2545105e-38
-0.14869429 0.14310953 0.73300004 1.2729496e-38
-0.1472981 0.14310953 0.73300004 1.2822045e-38
-0.1459019 0.14310953 0.73300004 8.7654372e-39
-0.14470285 0.14330477 0.73400003 7.8448948e-39
-0.14330477 0.14330477 0.73400003 8.3058729e-39
-0.14190666 0.14330477 0.73400003 8.3988155e-39
-0.14050858 0.14330477 0.73400003 8.3988155e-39
-0.13911049 0.14330477 0.73400003 8.5828284e-39
-0.13771239 0.14330477 0.73400003 8.4906327e-39
-0.13631429 0.14330477 0.73400003 7.9378373e-39
-0.13528381 0.14369524 0.73600006 7.2924679e-39
-0.13388193 0.14369524 0.73600006 7.3868033e-39
-0.13284001 0.14408572 0.73800004 9.1385203e-39
-0.13161239 0.14428096 0.73900002 1.0056176e-38
-0.13020477 0.14428096 0.73900002 1.0332763e-38
-0.12914573 0.14467144 0.74100006 1.1714609e-38
-0.12790667 0.14486668 0.74200004 1.2267782e-38
-0.12683429 0.14525715 0.74400002 1.1808256e-38
-0.12541714 0.14525715 0.74400002 1.1531669e-38
-0.12433334 0.14564763 0.74600005 1.1531313e-38
-0.12165429 0.14584287 0.74700004 1.1069619e-38
-0.12071429 0.14642859 0.75000006 1.1069619e-38
-0.12008096 0.14740478 0.75500005 1.0884865e-38
-0.18210286 0.14667429 0.74400002 9.7792234e-39
-0.18068571 0.14667429 0.74400002 1.0239829e-38
-0.17878668 0.14628001 0.74200004 1.0332024e-38
-0.17572287 0.14608286 0.74100006 1.0514984e-38
-0.17384095 0.14568858 0.73900002 1.0330605e-38
-0.17220001 0.14549144 0.73800004 1.0330605e-38
-0.16938858 0.14549144 0.73800004 9.2249958e-39
-0.16752765 0.14509717 0.73600006 9.3179047e-39
-0.16612571 0.14509717 0.73600006 1.005547e-38
-0.16472383 0.14509717 0.73600006 1.1160363e-38
-0.1628781 0.14470285 0.73400003 1.2358906e-38
-0.16147999 0.14470285 0.73400003 1.226671e-38
-0.15986381 0.14450571 0.73300004 1.2451102e-38
-0.15846762 0.14450571 0.73300004 1.2083764e-38
-0.15728572 0.14470285 0.73400003 1.2360351e-38
-0.15567525 0.14450571 0.73300004 1.2175954e-38
-0.15427905 0.14450571 0.73300004 1.1714976e-38
-0.15288286 0.14450571 0.73300004 1.15306e-38
-0.15148667 0.14450571 0.73300004 1.2452556e-38
-0.15009047 0.14450571 0.73300004 1.245326e-38
-0.14869429 0.14450571 0.73300004 1.2545455e-38
-0.1472981 0.14450571 0.73300004 1.1994089e-38
-0.1459019 0.14450571 0.73300004 6.5545469e-39
-0.14470285 0.14470285 0.73400003 4.7195942e-39
-0.14330477 0.14470285 0.73400003 6.3791156e-39
-0.14229335 0.14509717 0.73600006 7.939624e-39
-0.14089143 0.14509717 0.73600006 7.6630371e-39
-0.13948955 0.14509717 0.73600006 8.3995161e-39
