# .PCD v0.7 - Point Cloud Data file format
VERSION 0.7
FIELDS x y z rgb
SIZE 4 4 4 4
TYPE F F F F
COUNT 1 1 1 1
WIDTH 950
HEIGHT 1
VIEWPOINT 0 0 0 1 0 0 0
POINTS 950
DATA ascii
-0.069071427 -0.019340001 0.96700007 4.0601334e-39
-0.067020953 -0.019280002 0.96400005 7.747946e-39
-0.065049522 -0.019240001 0.96200007 9.0348438e-39
-0.063020006 -0.019180002 0.95900005 8.3894744e-39
-0.061001904 -0.01912 0.95600003 9.4996657e-39
-0.059180956 -0.01912 0.95600003 1.3648469e-38
-0.057240006 -0.01908 0.95400006 1.4014815e-38
-0.051788572 -0.01908 0.95400006 1.4109531e-38
-0.049814284 -0.01902 0.95100003 1.411025e-38
-0.048002861 -0.01902 0.95100003 1.4386837e-38
-0.046191432 -0.01902 0.95100003 1.4110979e-38
-0.044380002 -0.01902 0.95100003 1.4479761e-38
-0.04243429 -0.018960001 0.94800007 1.4111339e-38
-0.040628575 -0.018960001 0.94800007 9.2249706e-39
-0.03882286 -0.018960001 0.94800007 1.8624139e-39
-0.037017144 -0.018960001 0.94800007 9.4045764e-40
-0.035137143 -0.018920001 0.94600004 1.0347874e-39
-0.033335239 -0.018920001 0.94600004 7.2118947e-39
-0.031533334 -0.018920001 0.94600004 1.208448e-38
-0.029731428 -0.018920001 0.94600004 1.4020588e-38
-0.027988574 -0.018960001 0.94800007 1.4110623e-38
-0.02618286 -0.018960001 0.94800007 1.374184e-38
-0.024454286 -0.01902 0.95100003 1.374184e-38
-0.022642858 -0.01902 0.95100003 1.374184e-38
-0.020897144 -0.01908 0.95400006 1.3558538e-38
-0.01908 -0.01908 0.95400006 1.1806821e-38
-0.017299049 -0.01912 0.95600003 1.0147663e-38
-0.013657142 -0.01912 0.95600003 1.0975618e-38
-0.011873334 -0.019180002 0.95900005 1.1067814e-38
-0.010046667 -0.019180002 0.95900005 1.0883426e-38
-0.0082457149 -0.019240001 0.96200007 1.079123e-38
-0.0045904764 -0.019280002 0.96400005 1.1620615e-38
-0.0027628574 -0.019340001 0.96700007 1.1528031e-38
-0.069071427 -0.017498096 0.96700007 2.1523944e-42
-0.067020953 -0.01744381 0.96400005 4.6119325e-39
-0.065049522 -0.01740762 0.96200007 7.7451644e-39
-0.063020006 -0.017353334 0.95900005 4.0573392e-39
-0.061001904 -0.017299049 0.95600003 4.7019057e-39
-0.059180956 -0.017299049 0.95600003 1.235413e-38
-0.057240006 -0.017262857 0.95400006 1.3829698e-38
-0.051788572 -0.017262857 0.95400006 1.3648525e-38
-0.049814284 -0.017208571 0.95100003 1.3925859e-38
-0.048002861 -0.017208571 0.95100003 1.4202446e-38
-0.046191432 -0.017208571 0.95100003 1.4570512e-38
-0.044380002 -0.017208571 0.95100003 1.503149e-38
-0.042568572 -0.017208571 0.95100003 1.5121916e-38
-0.040628575 -0.017154286 0.94800007 1.1526287e-38
-0.03882286 -0.017154286 0.94800007 7.8449719e-39
-0.037017144 -0.017154286 0.94800007 6.9230156e-39
-0.035211433 -0.017154286 0.94800007 7.0195272e-39
-0.033405717 -0.017154286 0.94800007 9.9697874e-39
-0.031600002 -0.017154286 0.94800007 1.1992291e-38
-0.029794287 -0.017154286 0.94800007 1.3744008e-38
-0.027988574 -0.017154286 0.94800007 1.4019146e-38
-0.02618286 -0.017154286 0.94800007 1.3742559e-38
-0.022642858 -0.017208571 0.95100003 1.3466695e-38
-0.020897144 -0.017262857 0.95400006 1.3558538e-38
-0.01908 -0.017262857 0.95400006 1.1991212e-38
-0.017299049 -0.017299049 0.95600003 1.0883423e-38
-0.013657142 -0.017299049 0.95600003 1.1434426e-38
-0.011873334 -0.017353334 0.95900005 1.1526622e-38
-0.010078096 -0.01740762 0.96200007 1.1251126e-38
-0.0082457149 -0.01740762 0.96200007 1.1251126e-38
-0.0064266669 -0.01744381 0.96400005 1.1711369e-38
-0.0046047624 -0.017498096 0.96700007 1.1434782e-38
-0.0027628574 -0.017498096 0.96700007 1.0514265e-38
-0.069071427 -0.015656192 0.96700007 1.6638471e-39
-0.067020953 -0.01560762 0.96400005 3.5077597e-39
-0.065049522 -0.015575239 0.96200007 4.5229711e-39
-0.063020006 -0.015526668 0.95900005 2.3102759e-39
-0.061001904 -0.015478096 0.95600003 3.7839122e-39
-0.059180956 -0.015478096 0.95600003 6.1809986e-39
-0.057240006 -0.015445715 0.95400006 7.3759881e-39
-0.055422861 -0.015445715 0.95400006 7.652575e-39
-0.051788572 -0.015445715 0.95400006 1.0884076e-38
-0.049814284 -0.015397143 0.95100003 1.1159271e-38
-0.048002861 -0.015397143 0.95100003 1.1159271e-38
-0.046191432 -0.015397143 0.95100003 1.1159284e-38
-0.044380002 -0.015397143 0.95100003 1.1343675e-38
-0.042568572 -0.015397143 0.95100003 1.2173773e-38
-0.040628575 -0.015348572 0.94800007 1.2542556e-38
-0.03882286 -0.015348572 0.94800007 1.1252924e-38
-0.035322856 -0.015397143 0.95100003 1.0241669e-38
-0.03351143 -0.015397143 0.95100003 1.190119e-38
-0.029794287 -0.015348572 0.94800007 1.3651818e-38
-0.027988574 -0.015348572 0.94800007 1.4110623e-38
-0.02453143 -0.015445715 0.95400006 1.3466695e-38
-0.022714287 -0.015445715 0.95400006 1.3466695e-38
-0.020897144 -0.015445715 0.95400006 1.374149e-38
-0.01912 -0.015478096 0.95600003 1.2635143e-38
-0.017299049 -0.015478096 0.95600003 1.116001e-38
-0.013657142 -0.015478096 0.95600003 1.1712092e-38
-0.011873334 -0.015526668 0.95900005 1.2080874e-38
-0.010078096 -0.015575239 0.96200007 1.208088e-38
-0.0082628578 -0.01560762 0.96400005 1.1527706e-38
-0.0064266669 -0.01560762 0.96400005 1.1342586e-38
-0.0046047624 -0.015656192 0.96700007 1.0697217e-38
-0.069285713 -0.013857143 0.97000003 3.226812e-39
-0.067020953 -0.01377143 0.96400005 5.2551159e-39
-0.065184765 -0.01377143 0.96400005 6.4547479e-39
-0.063217148 -0.013742859 0.96200007 5.8093785e-39
-0.06119334 -0.013700001 0.95900005 4.6173499e-39
-0.059180956 -0.013657142 0.95600003 3.603198e-39
-0.057360001 -0.013657142 0.95600003 3.3200965e-39
-0.055422861 -0.013628571 0.95400006 5.4405959e-39
-0.053605717 -0.013628571 0.95400006 5.4398182e-39
-0.051788572 -0.013628571 0.95400006 8.1134845e-39
-0.049971428 -0.013628571 0.95400006 8.7596666e-39
-0.048002861 -0.013585715 0.95100003 8.3908841e-39
-0.046191432 -0.013585715 0.95100003 8.4859384e-39
-0.044380002 -0.013585715 0.95100003 8.578134e-39
-0.042568572 -0.013585715 0.95100003 8.7636197e-39
-0.040628575 -0.013542858 0.94800007 9.5933804e-39
-0.03882286 -0.013542858 0.94800007 1.0330249e-38
-0.037017144 -0.013542858 0.94800007 9.5926839e-39
-0.031600002 -0.013542858 0.94800007 1.1623874e-38
-0.029794287 -0.013542858 0.94800007 1.3467787e-38
-0.027988574 -0.013542858 0.94800007 1.4018427e-38
-0.02453143 -0.013628571 0.95400006 1.3466698e-38
-0.022714287 -0.013628571 0.95400006 1.3466698e-38
-0.020897144 -0.013628571 0.95400006 1.3649294e-38
-0.01912 -0.013657142 0.95600003 1.2174164e-38
-0.013657142 -0.013657142 0.95600003 1.1712092e-38
-0.011873334 -0.013700001 0.95900005 1.217307e-38
-0.010078096 -0.013742859 0.96200007 1.2357111e-38
-0.0082628578 -0.01377143 0.96400005 1.1435155e-38
-0.006446667 -0.013814286 0.96700007 1.0974883e-38
0.00092666672 -0.013900001 0.97300005 9.3117586e-39
-0.067229524 -0.011972382 0.96700007 5.1676118e-39
-0.065184765 -0.011935239 0.96400005 4.9846527e-39
-0.063217148 -0.011910477 0.96200007 5.5378264e-39
-0.06119334 -0.011873334 0.95900005 6.6420762e-39
-0.059180956 -0.011836191 0.95600003 6.3654894e-39
-0.057360001 -0.011836191 0.95600003 7.0075965e-39
-0.055539049 -0.011836191 0.95600003 9.9578567e-39
-0.053718098 -0.011836191 0.95600003 8.3897897e-39
-0.051788572 -0.011811429 0.95400006 8.0210072e-39
-0.049971428 -0.011811429 0.95400006 7.9313423e-39
-0.048154291 -0.011811429 0.95400006 6.0874297e-39
-0.046191432 -0.011774287 0.95100003 4.799869e-39
-0.044380002 -0.011774287 0.95100003 5.814021e-39
-0.042568572 -0.011774287 0.95100003 3.4238514e-39
-0.040628575 -0.011737144 0.94800007 1.0092152e-41
-0.03882286 -0.011737144 0.94800007 1.0318433e-39
-0.037017144 -0.011737144 0.94800007 1.5530591e-41
-0.035211433 -0.011737144 0.94800007 1.0385303e-39
-0.031600002 -0.011737144 0.94800007 1.4202819e-38
-0.024582857 -0.011836191 0.95600003 1.374149e-38
-0.022761906 -0.011836191 0.95600003 1.374149e-38
-0.020940954 -0.011836191 0.95600003 1.3832967e-38
-0.01912 -0.011836191 0.95600003 1.2265641e-38
-0.017299049 -0.011836191 0.95600003 1.106852e-38
-0.015478096 -0.011836191 0.95600003 1.1252912e-38
-0.013700001 -0.011873334 0.95900005 1.1251833e-38
-0.011873334 -0.011873334 0.95900005 1.1251833e-38
-0.010099048 -0.011935239 0.96400005 1.1435861e-38
-0.0082885725 -0.011972382 0.96700007 1.0698296e-38
-0.006446667 -0.011972382 0.96700007 1.0422072e-38
-0.067646675 -0.010193334 0.97300005 7.1926422e-39
-0.065387622 -0.010130477 0.96700007 4.798151e-39
-0.063348576 -0.010099048 0.96400005 5.1669336e-39
-0.06119334 -0.010046667 0.95900005 6.9164995e-39
-0.05936667 -0.010046667 0.95900005 5.810152e-39
-0.057360001 -0.010015239 0.95600003 5.5349902e-39
-0.053718098 -0.010015239 0.95600003 7.5636318e-39
-0.051897142 -0.010015239 0.95600003 7.6558274e-39
-0.049971428 -0.0099942861 0.95400006 9.127017e-39
-0.048154291 -0.0099942861 0.95400006 5.1626049e-39
-0.046337146 -0.0099942861 0.95400006 4.4235573e-39
-0.044520002 -0.0099942861 0.95400006 9.2177301e-39
-0.042568572 -0.0099628577 0.95100003 6.0960743e-39
-0.040757146 -0.0099628577 0.95100003 3.9755748e-39
-0.038945716 -0.0099628577 0.95100003 5.359954e-39
-0.037134286 -0.0099628577 0.95100003 1.0267594e-39
-0.035322856 -0.0099628577 0.95100003 4.0716128e-39
-0.03351143 -0.0099628577 0.95100003 1.3106769e-38
-0.028165715 -0.0099942861 0.95400006 1.3649648e-38
-0.024582857 -0.010015239 0.95600003 1.3833323e-38
-0.020940954 -0.010015239 0.95600003 1.4109191e-38
-0.019180002 -0.010046667 0.95900005 1.2726256e-38
-0.013700001 -0.010046667 0.95900005 9.8699743e-39
-0.011910477 -0.010078096 0.96200007 1.0607539e-38
-0.010099048 -0.010099048 0.96400005 1.079123e-38
-0.0082885725 -0.010130477 0.96700007 1.0422447e-38
-0.006446667 -0.010130477 0.96700007 9.7767151e-39
-0.004619048 -0.010161905 0.97000003 9.6845194e-39
-0.067646675 -0.0083400002 0.97300005 1.1617363e-38
-0.065387622 -0.0082885725 0.96700007 1.1248573e-38
-0.063545719 -0.0082885725 0.96700007 8.2983129e-39
-0.061512385 -0.0082628578 0.96400005 5.3542185e-39
-0.059552386 -0.0082457149 0.96200007 4.0634797e-39
-0.057540003 -0.0082200002 0.95900005 5.0762065e-39
-0.055539049 -0.0081942854 0.95600003 8.0264666e-39
-0.051897142 -0.0081942854 0.95600003 1.7596231e-39
-0.05007619 -0.0081942854 0.95600003 9.3246744e-40
-0.048154291 -0.0081771435 0.95400006 1.949024e-40
-0.046337146 -0.0081771435 0.95400006 1.8515329e-39
-0.044520002 -0.0081771435 0.95400006 7.291075e-39
-0.042568572 -0.0081514288 0.95100003 7.4743298e-39
-0.040757146 -0.0081514288 0.95100003 6.2757866e-39
-0.038945716 -0.0081514288 0.95100003 4.99154e-39
-0.037134286 -0.0081514288 0.95100003 1.1175355e-41
-0.035322856 -0.0081514288 0.95100003 1.9584197e-39
-0.03351143 -0.0081514288 0.95100003 1.1638961e-38
-0.0317 -0.0081514288 0.95100003 1.4571604e-38
-0.029982859 -0.0081771435 0.95400006 1.3649648e-38
-0.028165715 -0.0081771435 0.95400006 1.3649292e-38
-0.026348574 -0.0081771435 0.95400006 1.3649292e-38
-0.024582857 -0.0081942854 0.95600003 1.3741124e-38
-0.020940954 -0.0081942854 0.95600003 1.3833683e-38
-0.019180002 -0.0082200002 0.95900005 1.2542944e-38
-0.015526668 -0.0082200002 0.95900005 9.8699897e-39
-0.013700001 -0.0082200002 0.95900005 1.0056176e-38
-0.011910477 -0.0082457149 0.96200007 1.0978132e-38
-0.010099048 -0.0082628578 0.96400005 1.0516451e-38
-0.0082885725 -0.0082885725 0.96700007 1.0332059e-38
-0.006446667 -0.0082885725 0.96700007 1.0145863e-38
-0.004619048 -0.0083142864 0.97000003 9.5926895e-39
-0.067646675 -0.0064866669 0.97300005 1.1525845e-38
-0.065590478 -0.0064666667 0.97000003 1.1987918e-38
-0.063545719 -0.006446667 0.96700007 1.0604983e-38
-0.061703809 -0.006446667 0.96700007 8.8558406e-39
-0.059676193 -0.0064266669 0.96400005 9.1324274e-39
-0.057720002 -0.006413334 0.96200007 9.5934028e-39
-0.055539049 -0.0063733337 0.95600003 9.4090115e-39
-0.05007619 -0.0063733337 0.95600003 2.8419174e-40
-0.048255239 -0.0063733337 0.95600003 1.7593218e-39
-0.046434287 -0.0063733337 0.95600003 4.1578109e-39
-0.044613335 -0.0063733337 0.95600003 6.5548973e-39
-0.039068572 -0.0063600005 0.95400006 4.9911869e-39
-0.037251431 -0.0063600005 0.95400006 2.5019049e-39
-0.035434287 -0.0063600005 0.95400006 1.4081326e-39
-0.033617143 -0.0063600005 0.95400006 1.0904282e-38
-0.031800002 -0.0063600005 0.95400006 1.4387573e-38
-0.029982859 -0.0063600005 0.95400006 1.3650008e-38
-0.028165715 -0.0063600005 0.95400006 1.3649648e-38
-0.026348574 -0.0063600005 0.95400006 1.3741843e-38
-0.024660001 -0.0063933334 0.95900005 1.3649645e-38
-0.022833334 -0.0063933334 0.95900005 1.3834036e-38
-0.015526668 -0.0063933334 0.95900005 1.0334571e-38
-0.013742859 -0.006413334 0.96200007 1.0978483e-38
-0.011910477 -0.006413334 0.96200007 1.0240918e-38
-0.010130477 -0.006446667 0.96700007 9.7796087e-39
-0.0082885725 -0.006446667 0.96700007 1.0148391e-38
-0.0064666667 -0.0064666667 0.97000003 1.1158924e-38
-0.067646675 -0.0046333335 0.97300005 7.6567845e-39
-0.065590478 -0.004619048 0.97000003 8.5805204e-39
-0.063545719 -0.0046047624 0.96700007 1.0332226e-38
-0.061703809 -0.0046047624 0.96700007 1.023733e-38
-0.059676193 -0.0045904764 0.96400005 1.1989047e-38
-0.057840001 -0.0045904764 0.96400005 1.2357111e-38
-0.055539049 -0.0045523811 0.95600003 1.3740045e-38
-0.048406668 -0.0045666667 0.95900005 1.226489e-38
-0.046434287 -0.0045523811 0.95600003 1.2539685e-38
-0.044613335 -0.0045523811 0.95600003 1.2447489e-38
-0.042792384 -0.0045523811 0.95600003 1.2448561e-38
-0.040971428 -0.0045523811 0.95600003 1.2725148e-38
-0.039068572 -0.0045428574 0.95400006 1.0976337e-38
-0.037251431 -0.0045428574 0.95400006 9.2246203e-39
-0.035434287 -0.0045428574 0.95400006 8.3077423e-39
-0.033617143 -0.0045428574 0.95400006 1.2917524e-38
-0.031800002 -0.0045428574 0.95400006 1.401879e-38
-0.029982859 -0.0045428574 0.95400006 1.3557812e-38
-0.028165715 -0.0045428574 0.95400006 1.374184e-38
-0.026348574 -0.0045428574 0.95400006 1.374184e-38
-0.024660001 -0.0045666667 0.95900005 1.3649645e-38
-0.017353334 -0.0045666667 0.95900005 1.0425331e-38
-0.015575239 -0.0045809527 0.96200007 1.0609723e-38
-0.013742859 -0.0045809527 0.96200007 1.0239861e-38
-0.011935239 -0.0045904764 0.96400005 9.8710785e-39
-0.010130477 -0.0046047624 0.96700007 1.0146947e-38
-0.0083142864 -0.004619048 0.97000003 1.0146947e-38
-0.0064666667 -0.004619048 0.97000003 1.0514277e-38
-0.0046333335 -0.0046333335 0.97300005 1.023769e-38
-0.069642857 -0.0027857143 0.97500002 7.1043366e-39
-0.067646675 -0.0027800002 0.97300005 7.3809193e-39
-0.065590478 -0.0027714286 0.97000003 6.0033868e-39
-0.063545719 -0.0027628574 0.96700007 6.464358e-39
-0.061703809 -0.0027628574 0.96700007 7.6569442e-39
-0.059676193 -0.0027542859 0.96400005 1.0422813e-38
-0.057840001 -0.0027542859 0.96400005 1.0332072e-38
-0.048406668 -0.0027400001 0.95900005 1.4567613e-38
-0.046434287 -0.0027314285 0.95600003 1.4660534e-38
-0.044613335 -0.0027314285 0.95600003 1.4383948e-38
-0.042792384 -0.0027314285 0.95600003 1.4477563e-38
-0.040971428 -0.0027314285 0.95600003 1.4385367e-38
-0.039068572 -0.0027257146 0.95400006 1.3740761e-38
-0.037251431 -0.0027257146 0.95400006 1.3464175e-38
-0.035434287 -0.0027257146 0.95400006 1.2912799e-38
-0.033617143 -0.0027257146 0.95400006 1.3834755e-38
-0.031800002 -0.0027257146 0.95400006 1.3742203e-38
-0.029982859 -0.0027257146 0.95400006 1.3650008e-38
-0.028165715 -0.0027257146 0.95400006 1.3466695e-38
-0.024660001 -0.0027400001 0.95900005 1.33745e-38
-0.019180002 -0.0027400001 0.95900005 1.2450748e-38
-0.01740762 -0.0027485716 0.96200007 1.0333126e-38
-0.015575239 -0.0027485716 0.96200007 1.024093e-38
-0.01377143 -0.0027542859 0.96400005 1.0054381e-38
-0.011972382 -0.0027628574 0.96700007 1.0884142e-38
-0.010130477 -0.0027628574 0.96700007 1.1804293e-38
-0.0083142864 -0.0027714286 0.97000003 1.1343315e-38
-0.0064666667 -0.0027714286 0.97000003 9.8710659e-39
-0.0046333335 -0.0027800002 0.97300005 9.8710659e-39
-0.069642857 -0.00092857145 0.97500002 7.2880076e-39
-0.065793335 -0.00092666672 0.97300005 4.6222699e-39
-0.063742854 -0.00092380954 0.97000003 3.4237421e-39
-0.061703809 -0.00092095241 0.96700007 4.1621633e-39
-0.059861906 -0.00092095241 0.96700007 6.0982716e-39
-0.057840001 -0.00091809529 0.96400005 5.9095923e-39
-0.055887621 -0.00091619056 0.96200007 4.8032448e-39
-0.053886667 -0.00091333338 0.95900005 4.3451603e-39
-0.052060001 -0.00091333338 0.95900005 2.685639e-39
-0.048406668 -0.00091333338 0.95900005 6.5591628e-39
-0.046434287 -0.0009104762 0.95600003 8.0274868e-39
-0.044613335 -0.0009104762 0.95600003 8.9494431e-39
-0.042792384 -0.0009104762 0.95600003 8.8593774e-39
-0.040971428 -0.0009104762 0.95600003 1.1440855e-38
-0.039150476 -0.0009104762 0.95600003 1.1898666e-38
-0.037329525 -0.0009104762 0.95600003 1.4295753e-38
-0.035508573 -0.0009104762 0.95600003 1.4294298e-38
-0.033687621 -0.0009104762 0.95600003 1.383332e-38
-0.031800002 -0.00090857147 0.95400006 1.3649648e-38
-0.029982859 -0.00090857147 0.95400006 1.3741843e-38
-0.028224763 -0.0009104762 0.95600003 1.3741843e-38
-0.024660001 -0.00091333338 0.95900005 1.33745e-38
-0.019180002 -0.00091333338 0.95900005 1.1805379e-38
-0.01740762 -0.00091619056 0.96200007 1.0516445e-38
-0.015575239 -0.00091619056 0.96200007 1.0700836e-38
-0.01377143 -0.00091809529 0.96400005 1.0606486e-38
-0.011972382 -0.00092095241 0.96700007 1.1159659e-38
-0.010130477 -0.00092095241 0.96700007 1.1620249e-38
-0.0083142864 -0.00092380954 0.97000003 1.1712445e-38
-0.0064666667 -0.00092380954 0.97000003 1.0514277e-38
-0.0046333335 -0.00092666672 0.97300005 1.0422082e-38
0.0046571433 -0.00093142863 0.97800004 1.3920448e-38
-0.069642857 0.00092857145 0.97500002 7.3802018e-39
-0.065793335 0.00092666672 0.97300005 4.4389604e-39
-0.063742854 0.00092380954 0.97000003 3.6092067e-39
-0.061703809 0.00092095241 0.96700007 4.162892e-39
-0.059861906 0.00092095241 0.96700007 3.9785007e-39
-0.057840001 0.00091809529 0.96400005 2.6928346e-39
-0.055887621 0.00091619056 0.96200007 2.600639e-39
-0.05405524 0.00091619056 0.96200007 2.8747148e-39
-0.052222859 0.00091619056 0.96200007 1.484956e-41
-0.050233334 0.00091333338 0.95900005 3.8420241e-40
-0.048406668 0.00091333338 0.95900005 2.9656702e-39
-0.046580002 0.00091333338 0.95900005 3.6121327e-39
-0.044753335 0.00091333338 0.95900005 2.0448069e-39
-0.042792384 0.0009104762 0.95600003 5.7791791e-40
-0.040971428 0.0009104762 0.95600003 7.5847746e-39
-0.039150476 0.0009104762 0.95600003 1.1163252e-38
-0.037329525 0.0009104762 0.95600003 1.3652534e-38
-0.035508573 0.0009104762 0.95600003 1.4202102e-38
-0.033687621 0.0009104762 0.95600003 1.3741124e-38
-0.03186667 0.0009104762 0.95600003 1.3741124e-38
-0.030045714 0.0009104762 0.95600003 1.3925516e-38
-0.028224763 0.0009104762 0.95600003 1.3741487e-38
-0.026403811 0.0009104762 0.95600003 1.3649292e-38
-0.024660001 0.00091333338 0.95900005 1.3190827e-38
-0.019180002 0.00091333338 0.95900005 1.2542944e-38
-0.01740762 0.00091619056 0.96200007 1.2450376e-38
-0.01560762 0.00091809529 0.96400005 1.0790854e-38
-0.01377143 0.00091809529 0.96400005 1.0699024e-38
-0.011972382 0.00092095241 0.96700007 1.1160003e-38
-0.010130477 0.00092095241 0.96700007 1.125183e-38
-0.0064666667 0.00092380954 0.97000003 1.0422082e-38
-0.0046333335 0.00092666672 0.97300005 1.0422082e-38
-0.069642857 0.0027857143 0.97500002 7.0118159e-39
-0.065793335 0.0027800002 0.97300005 4.0705899e-39
-0.063742854 0.0027714286 0.97000003 2.9642423e-39
-0.061703809 0.0027628574 0.96700007 3.0601724e-39
-0.059861906 0.0027628574 0.96700007 3.152368e-39
-0.057840001 0.0027542859 0.96400005 3.7970186e-39
-0.056003813 0.0027542859 0.96400005 5.0877574e-39
-0.05405524 0.0027485716 0.96200007 3.4271697e-39
-0.050390478 0.0027485716 0.96200007 6.6442847e-40
-0.048558097 0.0027485716 0.96200007 3.6146886e-39
-0.046580002 0.0027400001 0.95900005 4.5333729e-39
-0.044753335 0.0027400001 0.95900005 2.2284821e-39
-0.042792384 0.0027314285 0.95600003 6.6831847e-40
-0.040971428 0.0027314285 0.95600003 7.5829795e-39
-0.039150476 0.0027314285 0.95600003 1.2729846e-38
-0.037329525 0.0027314285 0.95600003 1.3743998e-38
-0.035508573 0.0027314285 0.95600003 1.3834039e-38
-0.033687621 0.0027314285 0.95600003 1.3649648e-38
-0.03186667 0.0027314285 0.95600003 1.3649648e-38
-0.030045714 0.0027314285 0.95600003 1.3649648e-38
-0.028224763 0.0027314285 0.95600003 1.3649294e-38
-0.026403811 0.0027314285 0.95600003 1.3649294e-38
-0.024660001 0.0027400001 0.95900005 1.3374497e-38
-0.021006668 0.0027400001 0.95900005 1.3649648e-38
-0.019240001 0.0027485716 0.96200007 1.2912083e-38
-0.01740762 0.0027485716 0.96200007 1.1806804e-38
-0.01560762 0.0027542859 0.96400005 9.9628916e-39
-0.013814286 0.0027628574 0.96700007 1.0055457e-38
-0.011972382 0.0027628574 0.96700007 1.0608631e-38
-0.010161905 0.0027714286 0.97000003 1.0423163e-38
-0.0064666667 0.0027714286 0.97000003 1.0146214e-38
-0.0046333335 0.0027800002 0.97300005 1.0146214e-38
0.0027942858 0.0027942858 0.97800004 1.2541477e-38
-0.069642857 0.0046428572 0.97500002 8.300066e-39
-0.065793335 0.0046333335 0.97300005 6.0027422e-39
-0.063742854 0.004619048 0.97000003 4.5276122e-39
-0.061703809 0.0046047624 0.96700007 2.6006012e-39
-0.059861906 0.0046047624 0.96700007 3.1537749e-39
-0.057840001 0.0045904764 0.96400005 4.4402202e-39
-0.056003813 0.0045904764 0.96400005 4.7168071e-39
-0.05405524 0.0045809527 0.96200007 2.0489015e-39
-0.052222859 0.0045809527 0.96200007 1.9157151e-41
-0.048558097 0.0045809527 0.96200007 3.7983386e-39
-0.046580002 0.0045666667 0.95900005 4.8099626e-39
-0.044753335 0.0045666667 0.95900005 2.4128762e-39
-0.042926669 0.0045666667 0.95900005 5.7361312e-40
-0.040971428 0.0045523811 0.95600003 1.034634e-38
-0.039150476 0.0045523811 0.95600003 1.2548708e-38
-0.037329525 0.0045523811 0.95600003 1.3101881e-38
-0.035508573 0.0045523811 0.95600003 1.3834039e-38
-0.033687621 0.0045523811 0.95600003 1.3649648e-38
-0.03186667 0.0045523811 0.95600003 1.3649648e-38
-0.030045714 0.0045523811 0.95600003 1.3649648e-38
-0.028224763 0.0045523811 0.95600003 1.3374503e-38
-0.026403811 0.0045523811 0.95600003 1.3374503e-38
-0.024660001 0.0045666667 0.95900005 1.3649648e-38
-0.022833334 0.0045666667 0.95900005 1.3834039e-38
-0.021006668 0.0045666667 0.95900005 1.3741843e-38
-0.019240001 0.0045809527 0.96200007 1.1990126e-38
-0.01744381 0.0045904764 0.96400005 1.1161435e-38
-0.01560762 0.0045904764 0.96400005 1.0331674e-38
-0.013814286 0.0046047624 0.96700007 1.0333113e-38
-0.011972382 0.0046047624 0.96700007 1.0517504e-38
-0.010161905 0.004619048 0.97000003 1.0147653e-38
-0.0083142864 0.004619048 0.97000003 9.8710659e-39
-0.0064866669 0.0046333335 0.97300005 1.0238409e-38
-0.0046333335 0.0046333335 0.97300005 1.0054018e-38
-0.0027857143 0.0046428572 0.97500002 1.0054005e-38
-0.069642857 0.0065000001 0.97500002 8.8540203e-39
-0.065793335 0.0064866669 0.97300005 8.3047743e-39
-0.063742854 0.0064666667 0.97000003 8.5813612e-39
-0.061703809 0.006446667 0.96700007 8.1214971e-39
-0.059861906 0.006446667 0.96700007 8.3058884e-39
-0.057840001 0.0064266669 0.96400005 7.9389359e-39
-0.056003813 0.0064266669 0.96400005 6.5560015e-39
-0.054167621 0.0064266669 0.96400005 2.8761413e-39
-0.052222859 0.006413334 0.96200007 1.4932068e-39
-0.050390478 0.006413334 0.96200007 1.3122992e-39
-0.048558097 0.006413334 0.96200007 2.5108424e-39
-0.046580002 0.0063933334 0.95900005 3.9812851e-39
-0.044753335 0.0063933334 0.95900005 1.5841987e-39
-0.042926669 0.0063933334 0.95900005 8.5557679e-40
-0.041100003 0.0063933334 0.95900005 1.0443921e-38
-0.039273337 0.0063933334 0.95900005 1.4387566e-38
-0.037329525 0.0063733337 0.95600003 1.4110979e-38
-0.035508573 0.0063733337 0.95600003 1.3833676e-38
-0.033687621 0.0063733337 0.95600003 1.3649285e-38
-0.03186667 0.0063733337 0.95600003 1.3649648e-38
-0.030045714 0.0063733337 0.95600003 1.3649648e-38
-0.028224763 0.0063733337 0.95600003 1.3557096e-38
-0.026403811 0.0063733337 0.95600003 1.3649292e-38
-0.024660001 0.0063933334 0.95900005 1.3557452e-38
-0.022833334 0.0063933334 0.95900005 1.3741843e-38
-0.021072382 0.006413334 0.96200007 1.3741124e-38
-0.019240001 0.006413334 0.96200007 1.1897212e-38
-0.01744381 0.0064266669 0.96400005 1.1345826e-38
-0.01560762 0.0064266669 0.96400005 1.0977043e-38
-0.013814286 0.006446667 0.96700007 1.1161435e-38
-0.012009524 0.0064666667 0.97000003 1.1438022e-38
-0.010161905 0.0064666667 0.97000003 1.0424242e-38
-0.0083142864 0.0064666667 0.97000003 1.0147656e-38
-0.0064866669 0.0064866669 0.97300005 1.0330249e-38
-0.0046428572 0.0065000001 0.97500002 1.0053662e-38
-0.067785718 0.008357143 0.97500002 9.590128e-39
-0.063940004 0.0083400002 0.97300005 9.684113e-39
-0.061895244 0.0083142864 0.97000003 9.0409353e-39
-0.059861906 0.0082885725 0.96700007 9.0409353e-39
-0.058020003 0.0082885725 0.96700007 8.3981064e-39
-0.056003813 0.0082628578 0.96400005 7.1995632e-39
-0.054167621 0.0082628578 0.96400005 7.2899806e-39
-0.052331429 0.0082628578 0.96400005 5.6304593e-39
-0.050495241 0.0082628578 0.96400005 4.7138363e-39
-0.048558097 0.0082457149 0.96200007 4.9904232e-39
-0.046725716 0.0082457149 0.96200007 5.1766095e-39
-0.044753335 0.0082200002 0.95900005 3.9780663e-39
-0.042926669 0.0082200002 0.95900005 4.9933001e-39
-0.041100003 0.0082200002 0.95900005 1.2461146e-38
-0.039273337 0.0082200002 0.95900005 1.4478326e-38
-0.037446667 0.0082200002 0.95900005 1.4017348e-38
-0.033687621 0.0081942854 0.95600003 1.374148e-38
-0.03186667 0.0081942854 0.95600003 1.3741843e-38
-0.030045714 0.0081942854 0.95600003 1.3649648e-38
-0.028224763 0.0081942854 0.95600003 1.3649648e-38
-0.024737146 0.0082457149 0.96200007 1.3374503e-38
-0.022904763 0.0082457149 0.96200007 1.3466698e-38
-0.021072382 0.0082457149 0.96200007 1.3649648e-38
-0.019280002 0.0082628578 0.96400005 1.2266713e-38
-0.01744381 0.0082628578 0.96400005 1.2542203e-38
-0.015656192 0.0082885725 0.96700007 1.1435855e-38
-0.013814286 0.0082885725 0.96700007 1.1160363e-38
-0.012009524 0.0083142864 0.97000003 1.1160363e-38
-0.010161905 0.0083142864 0.97000003 1.042424e-38
-0.0083400002 0.0083400002 0.97300005 1.0332044e-38
-0.0064866669 0.0083400002 0.97300005 1.0790148e-38
-0.0046428572 0.008357143 0.97500002 1.0513561e-38
-0.0027942858 0.0083828568 0.97800004 1.014405e-38
-0.067785718 0.010214286 0.97500002 1.1987214e-38
-0.063940004 0.010193334 0.97300005 1.2079773e-38
-0.061895244 0.010161905 0.97000003 1.16206e-38
-0.060047623 0.010161905 0.97000003 1.0698643e-38
-0.058020003 0.010130477 0.96700007 9.9639678e-39
-0.056178097 0.010130477 0.96700007 1.0148359e-38
-0.054167621 0.010099048 0.96400005 8.7665526e-39
-0.050495241 0.010099048 0.96400005 7.4761179e-39
-0.048659049 0.010099048 0.96400005 7.3839223e-39
-0.046725716 0.010078096 0.96200007 7.109143e-39
-0.044893336 0.010078096 0.96200007 9.1374469e-39
-0.043060955 0.010078096 0.96200007 9.965072e-39
-0.041100003 0.010046667 0.95900005 1.3745093e-38
-0.039273337 0.010046667 0.95900005 1.4294286e-38
-0.03562 0.010046667 0.95900005 1.374148e-38
-0.033793334 0.010046667 0.95900005 1.374148e-38
-0.031966668 0.010046667 0.95900005 1.3649645e-38
-0.030140001 0.010046667 0.95900005 1.3649645e-38
-0.028313335 0.010046667 0.95900005 1.3649645e-38
-0.024737146 0.010078096 0.96200007 1.3466342e-38
-0.022904763 0.010078096 0.96200007 1.3650734e-38
-0.021116192 0.010099048 0.96400005 1.3741127e-38
-0.019280002 0.010099048 0.96400005 1.2542584e-38
-0.01744381 0.010099048 0.96400005 1.2081934e-38
-0.015656192 0.010130477 0.96700007 1.0791195e-38
-0.013814286 0.010130477 0.96700007 9.5015897e-39
-0.012009524 0.010161905 0.97000003 9.4093941e-39
-0.010193334 0.010193334 0.97300005 1.0607192e-38
-0.0046428572 0.010214286 0.97500002 1.1434801e-38
-0.067785718 0.012071429 0.97500002 1.1986861e-38
-0.065928571 0.012071429 0.97500002 1.1895735e-38
-0.063940004 0.012046667 0.97300005 1.2264517e-38
-0.062086668 0.012046667 0.97300005 1.2172344e-38
-0.060047623 0.012009524 0.97000003 1.1895757e-38
-0.058020003 0.011972382 0.96700007 1.1253265e-38
-0.056178097 0.011972382 0.96700007 1.1529852e-38
-0.054167621 0.011935239 0.96400005 1.1530234e-38
-0.052331429 0.011935239 0.96400005 9.7785171e-39
-0.048659049 0.011935239 0.96400005 9.4089891e-39
-0.046725716 0.011910477 0.96200007 8.3984343e-39
-0.044893336 0.011910477 0.96200007 9.8735644e-39
-0.043060955 0.011910477 0.96200007 1.1806804e-38
-0.041228574 0.011910477 0.96200007 1.3835108e-38
-0.039396197 0.011910477 0.96200007 1.3649645e-38
-0.033793334 0.011873334 0.95900005 1.3649645e-38
-0.031966668 0.011873334 0.95900005 1.33745e-38
-0.030140001 0.011873334 0.95900005 1.33745e-38
-0.028313335 0.011873334 0.95900005 1.33745e-38
-0.026486667 0.011873334 0.95900005 1.33745e-38
-0.024788573 0.011935239 0.96400005 1.3282667e-38
-0.022952382 0.011935239 0.96400005 1.3282667e-38
-0.021116192 0.011935239 0.96400005 1.3833323e-38
-0.019280002 0.011935239 0.96400005 1.2450388e-38
-0.017498096 0.011972382 0.96700007 1.1804638e-38
-0.015656192 0.011972382 0.96700007 1.0513899e-38
-0.013857143 0.012009524 0.97000003 8.3963113e-39
-0.012009524 0.012009524 0.97000003 9.4104633e-39
-0.010193334 0.012046667 0.97300005 1.1159637e-38
-0.065928571 0.013928572 0.97500002 1.1895369e-38
-0.063940004 0.013900001 0.97300005 1.2171956e-38
-0.062086668 0.013900001 0.97300005 1.1804991e-38
-0.060047623 0.013857143 0.97000003 1.2358165e-38
-0.058200002 0.013857143 0.97000003 1.2267417e-38
-0.056178097 0.013814286 0.96700007 1.282059e-38
-0.054336194 0.013814286 0.96700007 1.291207e-38
-0.052494287 0.013814286 0.96700007 1.3096461e-38
-0.050495241 0.01377143 0.96400005 1.3280134e-38
-0.048659049 0.01377143 0.96400005 1.3372329e-38
-0.046822857 0.01377143 0.96400005 1.3188657e-38
-0.044986669 0.01377143 0.96400005 1.3373048e-38
-0.043150477 0.01377143 0.96400005 1.3189385e-38
-0.041228574 0.013742859 0.96200007 1.3650364e-38
-0.039396197 0.013742859 0.96200007 1.3649279e-38
-0.037563812 0.013742859 0.96200007 1.3649279e-38
-0.031966668 0.013700001 0.95900005 1.3649645e-38
-0.030140001 0.013700001 0.95900005 1.374184e-38
-0.028401908 0.013742859 0.96200007 1.3649648e-38
-0.024788573 0.01377143 0.96400005 1.33745e-38
-0.021116192 0.01377143 0.96400005 1.3741127e-38
-0.019340001 0.013814286 0.96700007 1.2173801e-38
-0.017498096 0.013814286 0.96700007 1.1713164e-38
-0.015704762 0.013857143 0.97000003 1.0883403e-38
-0.013857143 0.013857143 0.97000003 1.079123e-38
-0.012046667 0.013900001 0.97300005 1.0883426e-38
-0.010214286 0.013928572 0.97500002 1.0976325e-38
-0.066131428 0.015834287 0.97800004 1.1987565e-38
-0.064071432 0.015785715 0.97500002 1.2264152e-38
-0.062086668 0.015753334 0.97300005 1.1713164e-38
-0.060233336 0.015753334 0.97300005 1.2266338e-38
-0.058200002 0.015704762 0.97000003 1.2175221e-38
-0.056178097 0.015656192 0.96700007 1.2636199e-38
-0.052494287 0.015656192 0.96700007 1.2912786e-38
-0.050495241 0.01560762 0.96400005 1.3096461e-38
-0.048659049 0.01560762 0.96400005 1.3373048e-38
-0.046822857 0.01560762 0.96400005 1.3281215e-38
-0.044986669 0.01560762 0.96400005 1.3557802e-38
-0.043150477 0.01560762 0.96400005 1.3189385e-38
-0.041314285 0.01560762 0.96400005 1.3465972e-38
-0.039478097 0.01560762 0.96400005 1.3649282e-38
-0.037641905 0.01560762 0.96400005 1.3741477e-38
-0.032066669 0.015575239 0.96200007 1.374184e-38
-0.030234287 0.015575239 0.96200007 1.3834036e-38
-0.028401908 0.015575239 0.96200007 1.3649648e-38
-0.026569527 0.015575239 0.96200007 1.3649648e-38
-0.024865715 0.015656192 0.96700007 1.3557452e-38
-0.02302381 0.015656192 0.96700007 1.3649648e-38
-0.021181906 0.015656192 0.96700007 1.3557096e-38
-0.019340001 0.015656192 0.96700007 1.2174162e-38
-0.017498096 0.015656192 0.96700007 1.1621691e-38
-0.015704762 0.015704762 0.97000003 1.1068517e-38
-0.013857143 0.015704762 0.97000003 1.1067814e-38
-0.012046667 0.015753334 0.97300005 1.0975618e-38
-0.010214286 0.015785715 0.97500002 1.0330968e-38
-0.0083828568 0.015834287 0.97800004 1.0423163e-38
-0.0065200003 0.015834287 0.97800004 1.0973448e-38
-0.068202861 0.017751429 0.98100007 9.7759584e-39
-0.066131428 0.017697142 0.97800004 1.1341472e-38
-0.064071432 0.017642858 0.97500002 1.2724407e-38
-0.062086668 0.017606668 0.97300005 1.2724079e-38
-0.060233336 0.017606668 0.97300005 1.3185057e-38
-0.058200002 0.017552381 0.97000003 1.2817713e-38
-0.056178097 0.017498096 0.96700007 1.3002105e-38
-0.054336194 0.017498096 0.96700007 1.2727316e-38
-0.052494287 0.017498096 0.96700007 1.2819511e-38
-0.050495241 0.01744381 0.96400005 1.2819518e-38
-0.048659049 0.01744381 0.96400005 1.3188301e-38
-0.046822857 0.01744381 0.96400005 1.291208e-38
-0.044986669 0.01744381 0.96400005 1.3465254e-38
-0.043150477 0.01744381 0.96400005 1.3465607e-38
-0.041314285 0.01744381 0.96400005 1.3465607e-38
-0.039478097 0.01744381 0.96400005 1.3649282e-38
-0.037641905 0.01744381 0.96400005 1.3649282e-38
-0.035805713 0.01744381 0.96400005 1.3649645e-38
-0.03389905 0.01740762 0.96200007 1.374184e-38
-0.032066669 0.01740762 0.96200007 1.3649645e-38
-0.030234287 0.01740762 0.96200007 1.3649645e-38
-0.028460953 0.01744381 0.96400005 1.3557452e-38
-0.024865715 0.017498096 0.96700007 1.3557452e-38
-0.019340001 0.017498096 0.96700007 1.2358909e-38
-0.017552381 0.017552381 0.97000003 1.1530217e-38
-0.015704762 0.017552381 0.97000003 1.0884848e-38
-0.013900001 0.017606668 0.97300005 1.1067814e-38
-0.012071429 0.017642858 0.97500002 1.1067814e-38
-0.010245714 0.017697142 0.97800004 1.0330618e-38
-0.068202861 0.019620001 0.98100007 9.499335e-39
-0.066131428 0.01956 0.97800004 1.0234418e-38
-0.064071432 0.0195 0.97500002 1.1525157e-38
-0.060233336 0.01946 0.97300005 1.345983e-38
-0.058200002 0.019400001 0.97000003 1.2634398e-38
-0.056352381 0.019400001 0.97000003 1.2726594e-38
-0.054336194 0.019340001 0.96700007 1.2910991e-38
-0.052494287 0.019340001 0.96700007 1.3095382e-38
-0.050652385 0.019340001 0.96700007 1.291207e-38
-0.048659049 0.019280002 0.96400005 1.3004266e-38
-0.046822857 0.019280002 0.96400005 1.2912433e-38
-0.044986669 0.019280002 0.96400005 1.3373411e-38
-0.043150477 0.019280002 0.96400005 1.337413e-38
-0.041314285 0.019280002 0.96400005 1.3466326e-38
-0.039478097 0.019280002 0.96400005 1.3557449e-38
-0.037641905 0.019280002 0.96400005 1.3649645e-38
-0.035805713 0.019280002 0.96400005 1.3649648e-38
-0.033969525 0.019280002 0.96400005 1.3741843e-38
-0.032133333 0.019280002 0.96400005 1.3649998e-38
-0.030297145 0.019280002 0.96400005 1.3649998e-38
-0.028460953 0.019280002 0.96400005 1.3282301e-38
-0.026624763 0.019280002 0.96400005 1.3282301e-38
-0.024865715 0.019340001 0.96700007 1.3190109e-38
-0.019340001 0.019340001 0.96700007 1.2452906e-38
-0.017552381 0.019400001 0.97000003 1.1623502e-38
-0.015704762 0.019400001 0.97000003 1.0793741e-38
-0.013900001 0.01946 0.97300005 1.116001e-38
-0.012071429 0.0195 0.97500002 1.116001e-38
-0.0065200003 0.01956 0.97800004 1.0790501e-38
-0.074636191 0.021729525 0.99200004 1.1340769e-38
-0.070500001 0.02162 0.98700005 9.5004407e-39
-0.068202861 0.021488573 0.98100007 9.7770275e-39
-0.066131428 0.021422857 0.97800004 1.0143305e-38
-0.064071432 0.021357143 0.97500002 8.9447614e-39
-0.062214289 0.021357143 0.97500002 8.9447614e-39
-0.060357142 0.021357143 0.97500002 1.0604283e-38
-0.058380004 0.021313334 0.97300005 1.0054005e-38
-0.056526672 0.021313334 0.97300005 1.0975962e-38
-0.054504763 0.02124762 0.97000003 1.1620993e-38
-0.052494287 0.021181906 0.96700007 1.2819537e-38
-0.050652385 0.021181906 0.96700007 1.3096095e-38
-0.048810478 0.021181906 0.96700007 1.30039e-38
-0.046968576 0.021181906 0.96700007 1.291208e-38
-0.045126669 0.021181906 0.96700007 1.3373058e-38
-0.043284763 0.021181906 0.96700007 1.3281934e-38
-0.04144286 0.021181906 0.96700007 1.337413e-38
-0.039478097 0.021116192 0.96400005 1.3557449e-38
-0.037641905 0.021116192 0.96400005 1.3649645e-38
-0.035805713 0.021116192 0.96400005 1.3833323e-38
-0.033969525 0.021116192 0.96400005 1.3648932e-38
-0.032133333 0.021116192 0.96400005 1.337413e-38
-0.030297145 0.021116192 0.96400005 1.3650717e-38
-0.028460953 0.021116192 0.96400005 1.3282301e-38
-0.026624763 0.021116192 0.96400005 1.3190106e-38
-0.024865715 0.021181906 0.96700007 1.3097913e-38
-0.021181906 0.021181906 0.96700007 1.3282307e-38
-0.019400001 0.02124762 0.97000003 1.2821329e-38
-0.017552381 0.02124762 0.97000003 1.1806824e-38
-0.015753334 0.021313334 0.97300005 1.0977063e-38
-0.013928572 0.021357143 0.97500002 1.116001e-38
-0.012108572 0.021422857 0.97800004 1.1252205e-38
-0.076757148 0.023690477 0.99500006 1.2907e-38
-0.070642859 0.02354762 0.98900002 9.8692078e-39
-0.068202861 0.023357144 0.98100007 1.023799e-38
-0.066131428 0.023285715 0.97800004 1.0512087e-38
-0.064268574 0.023285715 0.97800004 9.4057395e-39
-0.062214289 0.023214286 0.97500002 8.6696108e-39
-0.060357142 0.023214286 0.97500002 8.7618064e-39
-0.058380004 0.023166668 0.97300005 8.21009e-39
-0.056526672 0.023166668 0.97300005 1.0330589e-38
-0.054504763 0.023095237 0.97000003 1.1252912e-38
-0.052657142 0.023095237 0.97000003 1.2912433e-38
-0.050652385 0.02302381 0.96700007 1.3096461e-38
-0.048810478 0.02302381 0.96700007 1.3096461e-38
-0.046968576 0.02302381 0.96700007 1.2820603e-38
-0.045126669 0.02302381 0.96700007 1.3281581e-38
-0.043284763 0.02302381 0.96700007 1.3281934e-38
-0.04144286 0.02302381 0.96700007 1.337413e-38
-0.039600953 0.02302381 0.96700007 1.3740761e-38
-0.037759051 0.02302381 0.96700007 1.3925153e-38
-0.032133333 0.022952382 0.96400005 1.3281581e-38
-0.030297145 0.022952382 0.96400005 1.3650364e-38
-0.028549524 0.02302381 0.96700007 1.3374497e-38
-0.026707619 0.02302381 0.96700007 1.3282301e-38
-0.024942858 0.023095237 0.97000003 1.3465256e-38
-0.021181906 0.02302381 0.96700007 1.3190471e-38
-0.019400001 0.023095237 0.97000003 1.2084124e-38
-0.017552381 0.023095237 0.97000003 1.1530234e-38
-0.015785715 0.023214286 0.97500002 1.097706e-38
-0.013928572 0.023214286 0.97500002 1.1251126e-38
-0.012108572 0.023285715 0.97800004 1.1527713e-38
-0.010245714 0.023285715 0.97800004 1.1620615e-38
-0.0084085716 0.023357144 0.98100007 1.088305e-38
-0.068202861 0.025225716 0.98100007 1.0511734e-38
-0.066334285 0.025225716 0.98100007 1.0696125e-38
-0.064268574 0.025148572 0.97800004 1.1802473e-38
-0.062214289 0.025071429 0.97500002 1.1341495e-38
-0.060357142 0.025071429 0.97500002 1.1064908e-38
-0.058380004 0.025020001 0.97300005 1.0421368e-38
-0.056526672 0.025020001 0.97300005 1.060576e-38
-0.054504763 0.024942858 0.97000003 1.1252912e-38
-0.052657142 0.024942858 0.97000003 1.2912433e-38
-0.050652385 0.024865715 0.96700007 1.3096824e-38
-0.048810478 0.024865715 0.96700007 1.3004628e-38
-0.046968576 0.024865715 0.96700007 1.2820603e-38
-0.045126669 0.024865715 0.96700007 1.3281581e-38
-0.043284763 0.024865715 0.96700007 1.3281934e-38
-0.04144286 0.024865715 0.96700007 1.3281934e-38
-0.039600953 0.024865715 0.96700007 1.3557089e-38
-0.037759051 0.024865715 0.96700007 1.4018067e-38
-0.035917144 0.024865715 0.96700007 1.374148e-38
-0.034075242 0.024865715 0.96700007 1.3649285e-38
-0.032233335 0.024865715 0.96700007 1.3649285e-38
-0.03039143 0.024865715 0.96700007 1.374148e-38
-0.028549524 0.024865715 0.96700007 1.3557449e-38
-0.024942858 0.024942858 0.97000003 1.3557452e-38
-0.02124762 0.024942858 0.97000003 1.3557096e-38
-0.017552381 0.024942858 0.97000003 1.1438394e-38
-0.015785715 0.025071429 0.97500002 1.0793025e-38
-0.013971429 0.025148572 0.97800004 1.1252211e-38
-0.010245714 0.025148572 0.97800004 1.0699034e-38
-0.068411432 0.027177144 0.98400003 1.0602106e-38
-0.066334285 0.027094286 0.98100007 1.0419538e-38
-0.064268574 0.02701143 0.97800004 1.0880516e-38
-0.062405713 0.02701143 0.97800004 1.152516e-38
-0.060542859 0.02701143 0.97800004 1.2078334e-38
-0.058500003 0.026928572 0.97500002 1.2080151e-38
-0.056526672 0.026873333 0.97300005 1.2172347e-38
-0.054504763 0.026790477 0.97000003 1.162241e-38
-0.052657142 0.026790477 0.97000003 1.2728758e-38
-0.050809525 0.026790477 0.97000003 1.2820956e-38
-0.048810478 0.026707619 0.96700007 1.2913152e-38
-0.046968576 0.026707619 0.96700007 1.272876e-38
-0.045126669 0.026707619 0.96700007 1.3189739e-38
-0.043284763 0.026707619 0.96700007 1.3373411e-38
-0.04144286 0.026707619 0.96700007 1.3465607e-38
-0.039600953 0.026707619 0.96700007 1.3280865e-38
-0.037759051 0.026707619 0.96700007 1.3649648e-38
-0.035917144 0.026707619 0.96700007 1.3649645e-38
-0.034075242 0.026707619 0.96700007 1.3649645e-38
-0.032233335 0.026707619 0.96700007 1.374148e-38
-0.03039143 0.026707619 0.96700007 1.3833676e-38
-0.028549524 0.026707619 0.96700007 1.3649645e-38
-0.026707619 0.026707619 0.96700007 1.3557449e-38
-0.024942858 0.026790477 0.97000003 1.3190111e-38
-0.019400001 0.026790477 0.97000003 1.2451104e-38
-0.017606668 0.026873333 0.97300005 1.1806098e-38
-0.015785715 0.026928572 0.97500002 1.1713902e-38
-0.013971429 0.02701143 0.97800004 1.1621707e-38
-0.012108572 0.02701143 0.97800004 1.1068533e-38
-0.010277143 0.027094286 0.98100007 1.0513924e-38
-0.070500001 0.029140001 0.98700005 9.4979351e-39
-0.068411432 0.029051431 0.98400003 9.9589133e-39
-0.066334285 0.028962858 0.98100007 9.9585602e-39
-0.064465716 0.028962858 0.98100007 9.8663645e-39
-0.062405713 0.028874286 0.97800004 9.8681568e-39
-0.060542859 0.028874286 0.97800004 1.10667e-38
-0.058500003 0.028785715 0.97500002 1.1343665e-38
-0.05664286 0.028785715 0.97500002 1.2818795e-38
-0.054673333 0.028726669 0.97300005 1.2359259e-38
-0.052657142 0.028638097 0.97000003 1.2820237e-38
-0.050809525 0.028638097 0.97000003 1.2820234e-38
-0.048810478 0.028549524 0.96700007 1.3004626e-38
-0.046968576 0.028549524 0.96700007 1.2913152e-38
-0.045126669 0.028549524 0.96700007 1.3189739e-38
-0.043284763 0.028549524 0.96700007 1.3374127e-38
-0.04144286 0.028549524 0.96700007 1.374291e-38
-0.039600953 0.028549524 0.96700007 1.3557805e-38
-0.037759051 0.028549524 0.96700007 1.3557805e-38
-0.035917144 0.028549524 0.96700007 1.3741477e-38
-0.034075242 0.028549524 0.96700007 1.3649282e-38
-0.032233335 0.028549524 0.96700007 1.3649645e-38
-0.03039143 0.028549524 0.96700007 1.374184e-38
-0.028549524 0.028549524 0.96700007 1.3649645e-38
-0.026707619 0.028549524 0.96700007 1.3649645e-38
-0.024942858 0.028638097 0.97000003 1.3282301e-38
-0.019400001 0.028638097 0.97000003 1.2268155e-38
-0.017606668 0.028726669 0.97300005 1.1899e-38
-0.015785715 0.028785715 0.97500002 1.1899e-38
-0.013971429 0.028874286 0.97800004 1.1067464e-38
-0.012108572 0.028874286 0.97800004 1.0606486e-38
-0.010277143 0.028962858 0.98100007 1.1712445e-38
-0.070500001 0.031020002 0.98700005 9.4979351e-39
-0.068411432 0.030925713 0.98400003 9.5901308e-39
-0.066334285 0.03083143 0.98100007 9.8667176e-39
-0.064465716 0.03083143 0.98100007 1.0419891e-38
-0.062405713 0.030737145 0.97800004 9.9603524e-39
-0.060542859 0.030737145 0.97800004 1.0421331e-38
-0.058500003 0.030642856 0.97500002 1.0054721e-38
-0.05664286 0.030642856 0.97500002 1.2267417e-38
-0.054785714 0.030642856 0.97500002 1.2451455e-38
-0.052820001 0.030580001 0.97300005 1.2912433e-38
-0.050966669 0.030580001 0.97300005 1.291243e-38
-0.047114287 0.030485716 0.97000003 1.3005345e-38
-0.045266669 0.030485716 0.97000003 1.3189736e-38
-0.043284763 0.03039143 0.96700007 1.3098263e-38
-0.04144286 0.03039143 0.96700007 1.337485e-38
-0.039600953 0.03039143 0.96700007 1.3741475e-38
-0.037759051 0.03039143 0.96700007 1.383367e-38
-0.035917144 0.03039143 0.96700007 1.3741477e-38
-0.034075242 0.03039143 0.96700007 1.3649282e-38
-0.032233335 0.03039143 0.96700007 1.3282301e-38
-0.03039143 0.03039143 0.96700007 1.3282301e-38
-0.028549524 0.03039143 0.96700007 1.3649645e-38
-0.026707619 0.03039143 0.96700007 1.3649645e-38
-0.024942858 0.030485716 0.97000003 1.3282304e-38
-0.019400001 0.030485716 0.97000003 1.2452546e-38
-0.017606668 0.030580001 0.97300005 1.1898291e-38
-0.015834287 0.030737145 0.97800004 1.106853e-38
-0.012108572 0.030737145 0.97800004 1.1251482e-38
-0.010277143 0.03083143 0.98100007 1.1896496e-38
-0.0084085716 0.03083143 0.98100007 1.1343322e-38
-0.0065600001 0.030925713 0.98400003 1.0606836e-38
-0.070500001 0.032900002 0.98700005 1.0329138e-38
-0.068411432 0.0328 0.98400003 1.0329138e-38
-0.064465716 0.032700002 0.98100007 1.2448543e-38
-0.060728572 0.032700002 0.98100007 1.2448561e-38
-0.058680002 0.032600004 0.97800004 1.1989382e-38
-0.05664286 0.032499999 0.97500002 1.2542556e-38
-0.054785714 0.032499999 0.97500002 1.2359259e-38
-0.052928571 0.032499999 0.97500002 1.2728042e-38
-0.050966669 0.032433335 0.97300005 1.3188654e-38
-0.049113337 0.032433335 0.97300005 1.328085e-38
-0.047114287 0.032333333 0.97000003 1.3557076e-38
-0.045266669 0.032333333 0.97000003 1.3833663e-38
-0.043419048 0.032333333 0.97000003 1.4017336e-38
-0.041571431 0.032333333 0.97000003 1.4201727e-38
-0.039723814 0.032333333 0.97000003 1.4294641e-38
-0.037876189 0.032333333 0.97000003 1.4202446e-38
-0.036028571 0.032333333 0.97000003 1.4018064e-38
-0.03418095 0.032333333 0.97000003 1.3925869e-38
-0.032333333 0.032333333 0.97000003 1.3926588e-38
-0.030485716 0.032333333 0.97000003 1.3742196e-38
-0.028638097 0.032333333 0.97000003 1.3465254e-38
-0.026790477 0.032333333 0.97000003 1.3280862e-38
-0.025020001 0.032433335 0.97300005 1.309684e-38
-0.02124762 0.032333333 0.97000003 1.3004638e-38
-0.01946 0.032433335 0.97300005 1.2728051e-38
-0.017606668 0.032433335 0.97300005 1.1621709e-38
-0.012108572 0.032600004 0.97800004 1.1252205e-38
-0.010277143 0.032700002 0.98100007 1.0515009e-38
-0.0084085716 0.032700002 0.98100007 9.6852481e-39
-0.0065600001 0.0328 0.98400003 9.6855858e-39
-0.062597148 0.034568571 0.98100007 1.2080499e-38
-0.060728572 0.034568571 0.98100007 1.2449281e-38
-0.058680002 0.034462858 0.97800004 1.217342e-38
-0.056817144 0.034462858 0.97800004 1.2634398e-38
-0.054785714 0.034357142 0.97500002 1.2451452e-38
-0.052928571 0.034357142 0.97500002 1.2728039e-38
-0.051071428 0.034357142 0.97500002 1.3096105e-38
-0.049113337 0.03428667 0.97300005 1.2266345e-38
-0.047114287 0.03418095 0.97000003 1.2541457e-38
-0.045266669 0.03418095 0.97000003 1.3279022e-38
-0.043419048 0.03418095 0.97000003 1.2819499e-38
-0.041571431 0.03418095 0.97000003 1.3280477e-38
-0.039723814 0.03418095 0.97000003 1.3925846e-38
-0.037876189 0.03418095 0.97000003 1.4018042e-38
-0.036028571 0.03418095 0.97000003 1.3649998e-38
-0.03418095 0.03418095 0.97000003 1.3465607e-38
-0.032333333 0.03418095 0.97000003 1.3557802e-38
-0.030485716 0.03418095 0.97000003 1.318902e-38
-0.028638097 0.03418095 0.97000003 1.1716408e-38
-0.026790477 0.03418095 0.97000003 1.125543e-38
-0.025020001 0.03428667 0.97300005 1.1621694e-38
-0.01946 0.03428667 0.97300005 1.2634417e-38
-0.017606668 0.03428667 0.97300005 1.097706e-38
-0.015834287 0.034462858 0.97800004 1.0700473e-38
-0.013971429 0.034462858 0.97800004 1.1251833e-38
-0.012145716 0.034568571 0.98100007 1.1251833e-38
-0.010277143 0.034568571 0.98100007 1.023876e-38
-0.0084342854 0.034674287 0.98400003 1.0054368e-38
-0.0065600001 0.034674287 0.98400003 1.0146201e-38
-0.064662859 0.03654857 0.98400003 1.1618795e-38
-0.062788568 0.03654857 0.98400003 1.1803912e-38
-0.060728572 0.036437146 0.98100007 1.2080499e-38
-0.058680002 0.036325715 0.97800004 1.1896839e-38
-0.056817144 0.036325715 0.97800004 1.2450013e-38
-0.054785714 0.036214288 0.97500002 1.2452158e-38
-0.052928571 0.036214288 0.97500002 1.2544354e-38
-0.051071428 0.036214288 0.97500002 9.872889e-39
-0.049113337 0.036140002 0.97300005 8.3977589e-39
-0.047260001 0.036140002 0.97300005 8.2172352e-39
-0.045406669 0.036140002 0.97300005 8.8626046e-39
-0.043419048 0.036028571 0.97000003 8.583529e-39
-0.041571431 0.036028571 0.97000003 6.8318121e-39
-0.039723814 0.036028571 0.97000003 7.0176929e-39
-0.037876189 0.036028571 0.97000003 1.0428931e-38
-0.036028571 0.036028571 0.97000003 1.1070675e-38
-0.03418095 0.036028571 0.97000003 1.0425306e-38
-0.032333333 0.036028571 0.97000003 1.0150517e-38
-0.030485716 0.036028571 0.97000003 1.0058321e-38
-0.028638097 0.036028571 0.97000003 1.0241265e-38
-0.026790477 0.036028571 0.97000003 1.0056874e-38
-0.025020001 0.036140002 0.97300005 9.5969901e-39
-0.01946 0.036140002 0.97300005 1.1069972e-38
-0.017642858 0.036214288 0.97500002 1.106818e-38
-0.015834287 0.036325715 0.97800004 1.106818e-38
-0.014014287 0.036437146 0.98100007 1.1437303e-38
-0.012145716 0.036437146 0.98100007 1.171389e-38
-0.010277143 0.036437146 0.98100007 1.2081944e-38
-0.0084342854 0.03654857 0.98400003 1.2450726e-38
-0.062788568 0.03842286 0.98400003 1.2080499e-38
-0.060914289 0.03842286 0.98400003 1.2080499e-38
