# .PCD v0.7 - Point Cloud Data file format
VERSION 0.7
FIELDS x y z rgb
SIZE 4 4 4 4
TYPE F F F F
COUNT 1 1 1 1
WIDTH 147
HEIGHT 1
VIEWPOINT 0 0 0 1 0 0 0
POINTS 147
DATA ascii
0.31639242 -0.56628197 2.1160002 4.2531889e-39
0.31639242 -0.56225151 2.1160002 3.79401e-39
0.31639242 -0.55822098 2.1160002 1.6788845e-39
0.31639242 -0.55419052 2.1160002 2.0469649e-39
0.32042289 -0.55016005 2.1160002 1.2268468e-38
0.32042289 -0.54612952 2.1160002 1.3558493e-38
0.31639242 -0.54209906 2.1160002 1.4663399e-38
0.32042289 -0.54209906 2.1160002 1.4571203e-38
0.31639242 -0.53806859 2.1160002 1.5491014e-38
0.32042289 -0.53806859 2.1160002 1.5398818e-38
0.32445335 -0.53806859 2.1160002 1.5306626e-38
0.31639242 -0.53403813 2.1160002 1.7334929e-38
0.32042289 -0.53403813 2.1160002 1.6966147e-38
0.32445335 -0.53403813 2.1160002 1.669028e-38
0.31639242 -0.53000766 2.1160002 1.7151987e-38
0.32042289 -0.53000766 2.1160002 1.6783205e-38
0.32445335 -0.53000766 2.1160002 1.6322589e-38
0.31639242 -0.52597719 2.1160002 1.7244548e-38
0.32042289 -0.52597719 2.1160002 1.6967962e-38
0.32445335 -0.52597719 2.1160002 1.6598811e-38
0.32646576 -0.52274579 2.1030002 1.5861245e-38
0.33047146 -0.52274579 2.1030002 1.5952365e-38
0.31639242 -0.52194673 2.1160002 1.6693876e-38
0.32042289 -0.52194673 2.1160002 1.6232898e-38
0.32246003 -0.51874006 2.1030002 1.5403132e-38
0.32646576 -0.51874006 2.1030002 1.5126545e-38
0.33047146 -0.51874006 2.1030002 1.457266e-38
0.36699906 -0.5251534 2.1290002 8.5785446e-39
0.31236196 -0.51791626 2.1160002 1.4206021e-38
0.31639242 -0.51791626 2.1160002 1.2731619e-38
0.3184543 -0.51473433 2.1030002 1.1994054e-38
0.32246003 -0.51473433 2.1030002 1.1718874e-38
0.32646576 -0.51473433 2.1030002 1.0981309e-38
0.33047146 -0.51473433 2.1030002 1.1716363e-38
0.31236196 -0.51388574 2.1160002 1.3561367e-38
0.31639242 -0.51388574 2.1160002 1.27309e-38
0.3184543 -0.5107286 2.1030002 1.2269922e-38
0.32246003 -0.5107286 2.1030002 1.1718536e-38
0.32646576 -0.5107286 2.1030002 1.1626341e-38
0.33047146 -0.5107286 2.1030002 1.2452862e-38
0.31236196 -0.50985527 2.1160002 1.7795889e-38
0.31639242 -0.50985527 2.1160002 1.6875375e-38
0.3184543 -0.50672287 2.1030002 1.5861223e-38
0.32246003 -0.50672287 2.1030002 1.4481181e-38
0.32848382 -0.50985527 2.1160002 1.3743616e-38
0.33251429 -0.50985527 2.1160002 1.273054e-38
0.35483336 -0.51298761 2.1290002 5.6275109e-39
0.31236196 -0.5058248 2.1160002 1.7979866e-38
0.31639242 -0.5058248 2.1160002 1.7334522e-38
0.3184543 -0.50271714 2.1030002 1.6043783e-38
0.32246003 -0.50271714 2.1030002 1.3837918e-38
0.32848382 -0.5058248 2.1160002 1.1533027e-38
0.33251429 -0.5058248 2.1160002 1.0243738e-38
0.31639242 -0.50179434 2.1160002 1.5953964e-38
0.3184543 -0.49871147 2.1030002 1.3280291e-38
0.32246003 -0.49871147 2.1030002 1.1996389e-38
0.32646576 -0.49871147 2.1030002 8.0320186e-39
0.33251429 -0.50179434 2.1160002 5.9212371e-39
0.31639242 -0.49776384 2.1160002 1.7240871e-38
0.3184543 -0.49470574 2.1030002 1.5028176e-38
0.32246003 -0.49470574 2.1030002 1.4201682e-38
0.32646576 -0.49470574 2.1030002 1.2449965e-38
0.33251429 -0.49776384 2.1160002 9.2314292e-39
0.31639242 -0.49373338 2.1160002 1.751752e-38
0.32042289 -0.49373338 2.1160002 1.6318977e-38
0.32246003 -0.49070004 2.1030002 1.6228962e-38
0.32646576 -0.49070004 2.1030002 1.6597744e-38
0.33251429 -0.49373338 2.1160002 1.3648605e-38
0.33654478 -0.49373338 2.1160002 1.2357866e-38
0.36533049 -0.50003338 2.1430001 6.7292496e-39
0.36941239 -0.50003338 2.1430001 4.6080509e-39
0.31639242 -0.48970291 2.1160002 1.4017673e-38
0.32042289 -0.48970291 2.1160002 1.3648891e-38
0.32445335 -0.48970291 2.1160002 1.2728427e-38
0.32848382 -0.48970291 2.1160002 1.3189405e-38
0.33251429 -0.48970291 2.1160002 1.3462382e-38
0.33654478 -0.48970291 2.1160002 1.1987252e-38
0.31639242 -0.48567241 2.1160002 7.7536941e-39
0.32042289 -0.48567241 2.1160002 8.3990635e-39
0.32445335 -0.48567241 2.1160002 8.3973805e-39
0.32848382 -0.48567241 2.1160002 4.2485772e-39
0.33251429 -0.48567241 2.1160002 3.1472393e-39
0.33654478 -0.48567241 2.1160002 8.4234853e-40
0.32239145 -0.48460099 2.1290002 1.014976e-38
0.32445335 -0.48164192 2.1160002 1.0516798e-38
0.32848382 -0.48164192 2.1160002 5.9070167e-39
0.32239145 -0.48054576 2.1290002 1.3833651e-38
0.32644671 -0.48054576 2.1290002 1.3375206e-38
0.33050194 -0.48054576 2.1290002 1.1162511e-38
0.33455718 -0.48054576 2.1290002 1.0427069e-38
0.32239145 -0.4764905 2.1290002 1.3373048e-38
0.32644671 -0.4764905 2.1290002 1.3190131e-38
0.33050194 -0.4764905 2.1290002 1.0700849e-38
0.33455718 -0.4764905 2.1290002 9.6905926e-39
0.35716668 -0.47962385 2.1430001 8.2108089e-39
0.31833622 -0.47243527 2.1290002 1.0336363e-38
0.32239145 -0.47243527 2.1290002 8.1236677e-39
0.32644671 -0.47243527 2.1290002 8.3088241e-39
0.33050194 -0.47243527 2.1290002 8.1244328e-39
0.33455718 -0.47243527 2.1290002 7.9410435e-39
0.33861241 -0.47243527 2.1290002 8.4942173e-39
0.32239145 -0.46838003 2.1290002 7.021646e-39
0.32644671 -0.46838003 2.1290002 7.5705332e-39
0.33050194 -0.46838003 2.1290002 7.8471201e-39
0.33455718 -0.46838003 2.1290002 7.7570054e-39
0.32859334 -0.46737814 2.1430001 1.3836184e-38
0.35933334 -0.47021335 2.1560001 7.656203e-39
0.27073336 -0.46913335 2.1700001 6.6424756e-39
0.32859334 -0.4632962 2.1430001 1.448085e-38
0.33267525 -0.4632962 2.1430001 1.4296459e-38
0.32859334 -0.4592143 2.1430001 1.6046368e-38
0.33267525 -0.4592143 2.1430001 1.6046368e-38
0.32859334 -0.45513242 2.1430001 1.5311314e-38
0.33267525 -0.45513242 2.1430001 1.5495706e-38
0.32859334 -0.45105049 2.1430001 1.5031122e-38
0.33267525 -0.45105049 2.1430001 1.6045274e-38
0.32859334 -0.44696859 2.1430001 1.5766882e-38
0.33267525 -0.44696859 2.1430001 1.622786e-38
0.33675718 -0.44696859 2.1430001 1.6503731e-38
0.32859334 -0.44288671 2.1430001 1.6045624e-38
0.33267525 -0.44288671 2.1430001 1.4478298e-38
0.33675718 -0.44288671 2.1430001 1.1622442e-38
0.32859334 -0.43880478 2.1430001 1.5770497e-38
0.33267525 -0.43880478 2.1430001 1.401878e-38
0.33675718 -0.43880478 2.1430001 9.6924199e-39
0.34083906 -0.43880478 2.1430001 9.9690068e-39
0.35933334 -0.44146669 2.1560001 1.1155296e-38
0.32859334 -0.43472287 2.1430001 1.6691728e-38
0.33267525 -0.43472287 2.1430001 1.5400989e-38
0.33675718 -0.43472287 2.1430001 1.4665572e-38
0.34083906 -0.43472287 2.1430001 1.4388985e-38
0.35933334 -0.43736002 2.1560001 1.0879084e-38
0.32859334 -0.430641 2.1430001 1.6782491e-38
0.33267525 -0.430641 2.1430001 1.6413709e-38
0.33675718 -0.430641 2.1430001 1.5677576e-38
0.34083906 -0.430641 2.1430001 1.5216598e-38
0.3552267 -0.43325335 2.1560001 1.1432608e-38
0.35933334 -0.43325335 2.1560001 1.097163e-38
0.28726667 -0.43193334 2.1700001 1.5307346e-38
0.34083906 -0.42655906 2.1430001 1.5307709e-38
0.34492096 -0.42655906 2.1430001 1.438574e-38
0.35933334 -0.42914671 2.1560001 1.1524088e-38
0.32859334 -0.42247716 2.1430001 1.6690646e-38
0.33267525 -0.42247716 2.1430001 1.6414059e-38
0.33675718 -0.42247716 2.1430001 1.5125113e-38
0.34083906 -0.42247716 2.1430001 1.4295352e-38
0.34492096 -0.42247716 2.1430001 1.2361404e-38
