# .PCD v0.7 - Point Cloud Data file format
VERSION 0.7
FIELDS x y z rgb
SIZE 4 4 4 4
TYPE F F F F
COUNT 1 1 1 1
WIDTH 999
HEIGHT 1
VIEWPOINT 0 0 0 1 0 0 0
POINTS 999
DATA ascii
-0.10334668 0.10591429 0.67400002 1.1070691e-38
-0.10206286 0.10591429 0.67400002 1.1436612e-38
-0.10077905 0.10591429 0.67400002 1.1067829e-38
-0.09949524 0.10591429 0.67400002 1.0975637e-38
-0.09821143 0.10591429 0.67400002 1.0975637e-38
-0.09692762 0.10591429 0.67400002 1.0424632e-38
-0.095643811 0.10591429 0.67400002 1.1715371e-38
-0.094499998 0.10607143 0.67500001 1.2268884e-38
-0.093214288 0.10607143 0.67500001 1.0609362e-38
-0.092064768 0.10622858 0.67600006 1.0882719e-38
-0.090777151 0.10622858 0.67600006 1.1435893e-38
-0.089754291 0.10654286 0.67800003 1.1344419e-38
-0.088593334 0.1067 0.67900002 1.1436615e-38
-0.08742857 0.10685714 0.68000001 1.1345493e-38
-0.086133331 0.10685714 0.68000001 1.0700123e-38
-0.08508762 0.10717143 0.68200004 9.686697e-39
-0.083788574 0.10717143 0.68200004 1.0424262e-38
-0.08261048 0.10732858 0.68300003 1.0607574e-38
-0.081428573 0.10748571 0.68400002 1.0607574e-38
-0.080125719 0.10748571 0.68400002 1.0699424e-38
-0.079053335 0.10780001 0.68600005 1.0422837e-38
-0.077860005 0.10795715 0.68700004 1.0332054e-38
-0.076662861 0.10811429 0.68800002 9.9632713e-39
-0.075571433 0.10842858 0.69000006 9.3179047e-39
-0.074580006 0.1089 0.69300002 9.2257091e-39
-0.073365718 0.10905714 0.69400001 9.3161096e-39
-0.070100002 0.11015715 0.70100003 9.775999e-39
-0.13865715 0.10974286 0.69000006 4.3397555e-39
-0.13694477 0.10942476 0.68800002 5.3539074e-39
-0.13524002 0.10910667 0.68600005 9.1302092e-39
-0.13354285 0.10878857 0.68400002 1.1988274e-38
-0.13017143 0.10815237 0.68000001 1.2352805e-38
-0.12868667 0.10799333 0.67900002 1.1157469e-38
-0.12683049 0.1075162 0.67600006 1.0880882e-38
-0.12554286 0.1075162 0.67600006 6.8308171e-39
-0.12407143 0.10735714 0.67500001 6.5370994e-40
-0.12278572 0.10735714 0.67500001 4.7084749e-40
-0.11892857 0.10735714 0.67500001 1.3096123e-38
-0.11764286 0.10735714 0.67500001 1.282062e-38
-0.11635715 0.10735714 0.67500001 1.2912815e-38
-0.11507143 0.10735714 0.67500001 1.2912828e-38
-0.11361714 0.1071981 0.67400002 1.3373806e-38
-0.11233333 0.1071981 0.67400002 1.328232e-38
-0.11104953 0.1071981 0.67400002 1.328232e-38
-0.10976572 0.1071981 0.67400002 1.3557114e-38
-0.10848191 0.1071981 0.67400002 1.3925897e-38
-0.1071981 0.1071981 0.67400002 1.3926973e-38
-0.10591429 0.1071981 0.67400002 1.12533e-38
-0.10463049 0.1071981 0.67400002 1.0057958e-38
-0.10334668 0.1071981 0.67400002 9.412589e-39
-0.10206286 0.1071981 0.67400002 1.0607225e-38
-0.10077905 0.1071981 0.67400002 1.051503e-38
-0.09949524 0.1071981 0.67400002 1.12533e-38
-0.09821143 0.1071981 0.67400002 1.2636234e-38
-0.097071432 0.10735714 0.67500001 1.2359998e-38
-0.095785715 0.10735714 0.67500001 1.1714628e-38
-0.094499998 0.10735714 0.67500001 1.143877e-38
-0.093352392 0.1075162 0.67600006 1.0148031e-38
-0.092064768 0.1075162 0.67600006 1.0331718e-38
-0.091045722 0.10783429 0.67800003 1.0977087e-38
-0.089754291 0.10783429 0.67800003 1.1252947e-38
-0.088723809 0.10815237 0.68000001 1.1160751e-38
-0.08742857 0.10815237 0.68000001 1.0977073e-38
-0.086386673 0.10847048 0.68200004 1.0331704e-38
-0.08508762 0.10847048 0.68200004 9.6874187e-39
-0.083911426 0.10862952 0.68300003 1.0240592e-38
-0.08261048 0.10862952 0.68300003 1.0516451e-38
-0.081428573 0.10878857 0.68400002 1.0424255e-38
-0.080360003 0.10910667 0.68600005 1.0239511e-38
-0.079053335 0.10910667 0.68600005 1.0147315e-38
-0.077860005 0.10926571 0.68700004 1.0331338e-38
-0.076662861 0.10942476 0.68800002 1.0423533e-38
-0.075680956 0.10990191 0.69100004 9.68669e-39
-0.074580006 0.11022 0.69300002 9.68669e-39
-0.073577143 0.11069715 0.69600004 1.0332047e-38
-0.070100002 0.11149239 0.70100003 9.4079325e-39
-0.14149047 0.1112181 0.69100004 8.1179224e-39
-0.13825524 0.11073524 0.68800002 2.6841998e-39
-0.13674572 0.11057429 0.68700004 1.5778523e-39
-0.13524002 0.11041334 0.68600005 3.1460986e-39
-0.13354285 0.11009143 0.68400002 8.6778364e-39
-0.13204667 0.10993048 0.68300003 1.1985782e-38
-0.13074572 0.10993048 0.68300003 1.2262369e-38
-0.12887619 0.10944761 0.68000001 1.2817344e-38
-0.12739334 0.10928667 0.67900002 1.2448561e-38
-0.12591429 0.10912572 0.67800003 8.8612692e-39
-0.12425525 0.10880382 0.67600006 6.3719872e-39
-0.12278572 0.10864286 0.67500001 6.9251441e-39
-0.11910477 0.10880382 0.67600006 1.2912095e-38
-0.11781715 0.10880382 0.67600006 1.2728427e-38
-0.11635715 0.10864286 0.67500001 1.2912818e-38
-0.11507143 0.10864286 0.67500001 1.2728793e-38
-0.11378571 0.10864286 0.67500001 1.3189771e-38
-0.1125 0.10864286 0.67500001 1.3465992e-38
-0.11121429 0.10864286 0.67500001 1.3465992e-38
-0.10992857 0.10864286 0.67500001 1.3373443e-38
-0.10864286 0.10864286 0.67500001 1.3742226e-38
-0.10735714 0.10864286 0.67500001 1.4111364e-38
-0.10607143 0.10864286 0.67500001 1.1714278e-38
-0.10478572 0.10864286 0.67500001 1.097706e-38
-0.10334668 0.10848191 0.67400002 1.1438038e-38
-0.10206286 0.10848191 0.67400002 1.1713925e-38
-0.10092857 0.10864286 0.67500001 1.1529533e-38
-0.099642858 0.10864286 0.67500001 1.1897587e-38
-0.098357141 0.10864286 0.67500001 1.2819544e-38
-0.097071432 0.10864286 0.67500001 1.2452559e-38
-0.095785715 0.10864286 0.67500001 1.1622798e-38
-0.094640009 0.10880382 0.67600006 1.1162899e-38
-0.093352392 0.10880382 0.67600006 1.0333138e-38
-0.092337146 0.10912572 0.67800003 1.0516463e-38
-0.091180004 0.10928667 0.67900002 1.0977441e-38
-0.089886673 0.10928667 0.67900002 1.1160762e-38
-0.088723809 0.10944761 0.68000001 1.0884175e-38
-0.08742857 0.10944761 0.68000001 1.0609019e-38
-0.086386673 0.10976952 0.68200004 1.0148041e-38
-0.08508762 0.10976952 0.68200004 9.8718072e-39
-0.083911426 0.10993048 0.68300003 1.024059e-38
-0.082731433 0.11009143 0.68400002 1.0883438e-38
-0.081428573 0.11009143 0.68400002 1.0238069e-38
-0.080360003 0.11041334 0.68600005 1.0054031e-38
-0.077860005 0.11057429 0.68700004 1.0239142e-38
-0.076662861 0.11073524 0.68800002 1.0331338e-38
-0.075680956 0.1112181 0.69100004 1.0055119e-38
-0.074580006 0.11154 0.69300002 1.0239511e-38
-0.073577143 0.11202286 0.69600004 1.0516451e-38
-0.070100002 0.11282763 0.70100003 9.4090115e-39
-0.14149047 0.11253429 0.69100004 8.7629134e-39
-0.13524002 0.11172 0.68600005 2.8736428e-40
-0.13354285 0.11139429 0.68400002 1.6702987e-39
-0.13074572 0.11123143 0.68300003 7.1069052e-39
-0.12925524 0.11106858 0.68200004 9.2238888e-39
-0.12739334 0.11058 0.67900002 1.1897562e-38
-0.12591429 0.11041714 0.67800003 1.1713573e-38
-0.12425525 0.11009143 0.67600006 1.2727725e-38
-0.12296763 0.11009143 0.67600006 1.2360711e-38
-0.11910477 0.11009143 0.67600006 1.2912448e-38
-0.11781715 0.11009143 0.67600006 1.2820623e-38
-0.11652953 0.11009143 0.67600006 1.3005014e-38
-0.11524191 0.11009143 0.67600006 1.2820632e-38
-0.11395429 0.11009143 0.67600006 1.3189415e-38
-0.1125 0.10992857 0.67500001 1.3189771e-38
-0.11121429 0.10992857 0.67500001 1.3189771e-38
-0.10992857 0.10992857 0.67500001 1.3373443e-38
-0.10864286 0.10992857 0.67500001 1.3557834e-38
-0.10735714 0.10992857 0.67500001 1.3742589e-38
-0.10607143 0.10992857 0.67500001 1.2544046e-38
-0.10478572 0.10992857 0.67500001 1.1161833e-38
-0.1035 0.10992857 0.67500001 1.1530615e-38
-0.10221429 0.10992857 0.67500001 1.1806483e-38
-0.10092857 0.10992857 0.67500001 1.1529896e-38
-0.099642858 0.10992857 0.67500001 1.1529881e-38
-0.098357141 0.10992857 0.67500001 1.1622077e-38
-0.09721525 0.11009143 0.67600006 1.1529881e-38
-0.095927626 0.11009143 0.67600006 1.1529881e-38
-0.094640009 0.11009143 0.67600006 1.1346927e-38
-0.093628578 0.11041714 0.67800003 1.1070341e-38
-0.092337146 0.11041714 0.67800003 1.1253307e-38
-0.091180004 0.11058 0.67900002 1.1529894e-38
-0.089886673 0.11058 0.67900002 1.1621387e-38
-0.088723809 0.11074285 0.68000001 1.0976018e-38
-0.08742857 0.11074285 0.68000001 1.0609019e-38
-0.086386673 0.11106858 0.68200004 1.0701215e-38
-0.08508762 0.11106858 0.68200004 1.0517174e-38
-0.083911426 0.11123143 0.68300003 1.0424978e-38
-0.082731433 0.11139429 0.68400002 1.0332069e-38
-0.081428573 0.11139429 0.68400002 9.1335261e-39
-0.080360003 0.11172 0.68600005 9.3182705e-39
-0.07916858 0.11188286 0.68700004 1.0055835e-38
-0.077860005 0.11188286 0.68700004 1.0331343e-38
-0.076885715 0.11237144 0.69000006 1.0976713e-38
-0.075680956 0.11253429 0.69100004 1.1529884e-38
-0.074687615 0.11302286 0.69400001 1.1529884e-38
-0.073577143 0.11334857 0.69600004 1.0423549e-38
-0.071129531 0.11367428 0.69800001 9.9621699e-39
-0.070100002 0.11416285 0.70100003 9.2246049e-39
-0.14149047 0.11385048 0.69100004 8.6703675e-39
-0.13997145 0.11368572 0.69000006 7.0108462e-39
-0.13524002 0.11302667 0.68600005 2.8986559e-40
-0.13354285 0.11269714 0.68400002 2.0415826e-39
-0.13074572 0.11253238 0.68300003 1.5816512e-39
-0.12925524 0.11236762 0.68200004 5.2626296e-39
-0.12758096 0.11203809 0.68000001 9.5036286e-39
-0.1261 0.11187334 0.67900002 1.2079442e-38
-0.12462286 0.11170857 0.67800003 1.3554572e-38
-0.12296763 0.11137906 0.67600006 1.3004644e-38
-0.11945715 0.11170857 0.67800003 1.2636947e-38
-0.11781715 0.11137906 0.67600006 1.2820623e-38
-0.11652953 0.11137906 0.67600006 1.3005014e-38
-0.11524191 0.11137906 0.67600006 1.2913184e-38
-0.11395429 0.11137906 0.67600006 1.3097575e-38
-0.11266667 0.11137906 0.67600006 1.3097928e-38
-0.11137906 0.11137906 0.67600006 1.3190124e-38
-0.11009143 0.11137906 0.67600006 1.3097935e-38
-0.10864286 0.11121429 0.67500001 1.3282327e-38
-0.10735714 0.11121429 0.67500001 1.3467084e-38
-0.10607143 0.11121429 0.67500001 1.2360736e-38
-0.10478572 0.11121429 0.67500001 1.0977802e-38
-0.1035 0.11121429 0.67500001 1.1346584e-38
-0.10221429 0.11121429 0.67500001 1.1529896e-38
-0.10092857 0.11121429 0.67500001 1.1068918e-38
-0.099790484 0.11137906 0.67600006 1.097671e-38
-0.098502867 0.11137906 0.67600006 1.0884514e-38
-0.09721525 0.11137906 0.67600006 1.0147312e-38
-0.095927626 0.11137906 0.67600006 1.1161464e-38
-0.094920009 0.11170857 0.67800003 1.1254013e-38
-0.093766667 0.11187334 0.67900002 1.1254013e-38
-0.092473336 0.11187334 0.67900002 1.1437691e-38
-0.091314279 0.11203809 0.68000001 1.1622082e-38
-0.090019047 0.11203809 0.68000001 1.2265668e-38
-0.088723809 0.11203809 0.68000001 1.1528103e-38
-0.087685719 0.11236762 0.68200004 9.4122639e-39
-0.086386673 0.11236762 0.68200004 1.0426416e-38
-0.08508762 0.11236762 0.68200004 1.116218e-38
-0.083911426 0.11253238 0.68300003 1.0609006e-38
-0.082731433 0.11269714 0.68400002 1.0332066e-38
-0.081666671 0.11302667 0.68600005 9.7788927e-39
-0.080360003 0.11302667 0.68600005 1.0239145e-38
-0.07916858 0.11319143 0.68700004 1.0792319e-38
-0.077973336 0.11335619 0.68800002 1.0882733e-38
-0.076885715 0.11368572 0.69000006 1.1067125e-38
-0.075899996 0.11418 0.69300002 1.1714275e-38
-0.074687615 0.11434477 0.69400001 1.1068906e-38
-0.073577143 0.11467429 0.69600004 9.9629238e-39
-0.071129531 0.11500382 0.69800001 9.4075766e-39
-0.070600003 0.11632191 0.70600003 9.2231853e-39
-0.1419 0.1155 0.69300002 9.3167935e-39
-0.13997145 0.11500001 0.69000006 7.1040984e-39
-0.13524002 0.11433334 0.68600005 6.612195e-40
-0.13354285 0.114 0.68400002 3.1505015e-39
-0.13074572 0.11383333 0.68300003 1.3036616e-39
-0.12944476 0.11383333 0.68300003 2.9093198e-40
-0.12758096 0.11333333 0.68000001 6.1914523e-39
-0.1261 0.11316667 0.67900002 1.0147986e-38
-0.12480666 0.11316667 0.67900002 1.2545073e-38
-0.12333143 0.11300001 0.67800003 1.2727701e-38
-0.12074857 0.11300001 0.67800003 1.2176332e-38
-0.11945715 0.11300001 0.67800003 1.2545115e-38
-0.11816572 0.11300001 0.67800003 1.263695e-38
-0.11652953 0.11266667 0.67600006 1.2729146e-38
-0.11524191 0.11266667 0.67600006 1.2913184e-38
-0.11395429 0.11266667 0.67600006 1.3097575e-38
-0.11266667 0.11266667 0.67600006 1.3282317e-38
-0.11137906 0.11266667 0.67600006 1.3282317e-38
-0.11009143 0.11266667 0.67600006 1.3281966e-38
-0.10880382 0.11266667 0.67600006 1.3466358e-38
-0.1075162 0.11266667 0.67600006 1.3742596e-38
-0.10622858 0.11266667 0.67600006 1.2636248e-38
-0.10478572 0.1125 0.67500001 1.0977802e-38
-0.1035 0.1125 0.67500001 1.1346584e-38
-0.10221429 0.1125 0.67500001 1.1254376e-38
-0.10107811 0.11266667 0.67600006 1.0793398e-38
-0.099790484 0.11266667 0.67600006 1.0884877e-38
-0.098502867 0.11266667 0.67600006 1.1069269e-38
-0.09721525 0.11266667 0.67600006 1.1252218e-38
-0.096211433 0.11300001 0.67800003 1.1344414e-38
-0.095060006 0.11316667 0.67900002 1.1438038e-38
-0.093904756 0.11333333 0.68000001 1.1438038e-38
-0.092609517 0.11333333 0.68000001 1.1345855e-38
-0.091314279 0.11333333 0.68000001 1.1345855e-38
-0.090019047 0.11333333 0.68000001 1.1621729e-38
-0.088984765 0.11366667 0.68200004 1.1437338e-38
-0.087685719 0.11366667 0.68200004 1.0424968e-38
-0.086386673 0.11366667 0.68200004 1.0701555e-38
-0.085212387 0.11383333 0.68300003 1.1069622e-38
-0.084034286 0.114 0.68400002 1.1069622e-38
-0.082973339 0.11433334 0.68600005 1.1530597e-38
-0.081666671 0.11433334 0.68600005 1.1622793e-38
-0.07916858 0.1145 0.68700004 1.3188667e-38
-0.077973336 0.11466667 0.68800002 1.2449695e-38
-0.076885715 0.11500001 0.69000006 1.106676e-38
-0.075899996 0.1155 0.69300002 9.5023086e-39
-0.074687615 0.11566667 0.69400001 9.5023086e-39
-0.073577143 0.11600001 0.69600004 1.0054028e-38
-0.07245905 0.11633334 0.69800001 9.1320715e-39
-0.071333334 0.11666667 0.70000005 9.3153838e-39
-0.070400007 0.11733335 0.70400006 9.0387969e-39
-0.13997145 0.1163143 0.69000006 7.3799762e-39
-0.13393334 0.11564001 0.68600005 3.0572016e-39
-0.13224 0.11530285 0.68400002 3.6085776e-39
-0.12963428 0.11530285 0.68400002 2.9057325e-40
-0.1279562 0.11496571 0.68200004 6.9286516e-39
-0.12628572 0.11462857 0.68000001 1.0147653e-38
-0.12480666 0.11446001 0.67900002 1.2452544e-38
-0.12333143 0.11429143 0.67800003 1.2359642e-38
-0.12204001 0.11429143 0.67800003 1.2359642e-38
-0.11945715 0.11429143 0.67800003 1.2452919e-38
-0.11816572 0.11429143 0.67800003 1.2544755e-38
-0.11652953 0.11395429 0.67600006 1.2821341e-38
-0.11524191 0.11395429 0.67600006 1.2913537e-38
-0.11395429 0.11395429 0.67600006 1.3097928e-38
-0.11266667 0.11395429 0.67600006 1.3190124e-38
-0.11137906 0.11395429 0.67600006 1.3190124e-38
-0.11009143 0.11395429 0.67600006 1.3190131e-38
-0.10880382 0.11395429 0.67600006 1.3466718e-38
-0.1075162 0.11395429 0.67600006 1.3742589e-38
-0.10622858 0.11395429 0.67600006 1.245185e-38
-0.10494096 0.11395429 0.67600006 1.0517542e-38
-0.10365334 0.11395429 0.67600006 1.0517542e-38
-0.10236572 0.11395429 0.67600006 1.0516823e-38
-0.10107811 0.11395429 0.67600006 9.7792584e-39
-0.099790484 0.11395429 0.67600006 9.8711023e-39
-0.098502867 0.11395429 0.67600006 1.033208e-38
-0.097502865 0.11429143 0.67800003 1.162064e-38
-0.096353337 0.11446001 0.67900002 1.1805032e-38
-0.095199995 0.11462857 0.68000001 1.1346206e-38
-0.093904756 0.11462857 0.68000001 1.125401e-38
-0.092609517 0.11462857 0.68000001 1.116183e-38
-0.091314279 0.11462857 0.68000001 1.116183e-38
-0.090283811 0.11496571 0.68200004 1.1253309e-38
-0.088984765 0.11496571 0.68200004 1.1161114e-38
-0.087685719 0.11496571 0.68200004 1.0701205e-38
-0.086513333 0.11513429 0.68300003 1.0793401e-38
-0.085337147 0.11530285 0.68400002 1.1068908e-38
-0.084034286 0.11530285 0.68400002 1.1714278e-38
-0.082973339 0.11564001 0.68600005 1.1898316e-38
-0.080477148 0.11580858 0.68700004 1.3096121e-38
-0.07916858 0.11580858 0.68700004 1.2911729e-38
-0.077973336 0.11597715 0.68800002 1.1714288e-38
-0.076997146 0.11648286 0.69100004 9.9625707e-39
-0.075899996 0.11682 0.69300002 9.5015827e-39
-0.074687615 0.11698857 0.69400001 9.9625609e-39
-0.07368286 0.11749429 0.69700003 1.0330252e-38
-0.07245905 0.11766286 0.69800001 9.4082955e-39
-0.070400007 0.11867429 0.70400006 9.4997778e-39
-0.13805428 0.11711715 0.68700004 6.8300941e-39
-0.13393334 0.11694667 0.68600005 1.5863904e-39
-0.13224 0.11660571 0.68400002 3.2401706e-39
-0.12814382 0.11643524 0.68300003 7.2074287e-39
-0.12665714 0.11626477 0.68200004 1.1622786e-38
-0.12499048 0.11592381 0.68000001 1.2452546e-38
-0.12351334 0.11575333 0.67900002 1.2268162e-38
-0.11963334 0.11575333 0.67900002 1.2545471e-38
-0.11816572 0.11558286 0.67800003 1.2636947e-38
-0.11687429 0.11558286 0.67800003 1.2821339e-38
-0.11558286 0.11558286 0.67800003 1.2913534e-38
-0.11429143 0.11558286 0.67800003 1.300573e-38
-0.11266667 0.11524191 0.67600006 1.3097926e-38
-0.11137906 0.11524191 0.67600006 1.3097926e-38
-0.11009143 0.11524191 0.67600006 1.3097575e-38
-0.10880382 0.11524191 0.67600006 1.3281966e-38
-0.1075162 0.11524191 0.67600006 1.365003e-38
-0.10622858 0.11524191 0.67600006 1.2267096e-38
-0.10494096 0.11524191 0.67600006 1.0608667e-38
-0.10365334 0.11524191 0.67600006 1.0147689e-38
-0.10236572 0.11524191 0.67600006 1.0056931e-38
-0.10107811 0.11524191 0.67600006 9.7803444e-39
-0.098794296 0.11558286 0.67800003 9.8714709e-39
-0.097646669 0.11575333 0.67900002 1.1713196e-38
-0.096353337 0.11575333 0.67900002 1.2635152e-38
-0.095199995 0.11592381 0.68000001 1.1623149e-38
-0.093904756 0.11592381 0.68000001 1.1069975e-38
-0.092609517 0.11592381 0.68000001 1.0793777e-38
-0.091582857 0.11626477 0.68200004 1.0885973e-38
-0.090283811 0.11626477 0.68200004 1.0977441e-38
-0.088984765 0.11626477 0.68200004 1.0516463e-38
-0.087814286 0.11643524 0.68300003 1.0516823e-38
-0.08664 0.11660571 0.68400002 1.0516823e-38
-0.085586667 0.11694667 0.68600005 1.1437691e-38
-0.084279999 0.11694667 0.68600005 1.3281604e-38
-0.079283811 0.11728762 0.68800002 1.0884161e-38
-0.078200005 0.11762858 0.69000006 1.0423887e-38
-0.076997146 0.11779906 0.69100004 9.5941259e-39
-0.075899996 0.11814 0.69300002 9.5941413e-39
-0.074902862 0.11865143 0.69600004 9.7785325e-39
-0.07368286 0.11882191 0.69700003 1.0054381e-38
-0.072666667 0.11933334 0.70000005 9.3168159e-39
-0.071333334 0.11933334 0.70000005 9.4079423e-39
-0.070400007 0.12001524 0.70400006 9.500138e-39
-0.13794 0.11946 0.69300002 6.5520456e-39
-0.13602859 0.11894286 0.69000006 4.2535938e-39
-0.13412857 0.11842572 0.68700004 3.6082244e-39
-0.13262668 0.11825334 0.68600005 2.5955229e-39
-0.13093714 0.11790857 0.68400002 1.3969797e-39
-0.12814382 0.1177362 0.68300003 8.2215638e-39
-0.12684287 0.1177362 0.68300003 1.1346934e-38
-0.1253581 0.11756381 0.68200004 1.2268891e-38
-0.12369524 0.11721905 0.68000001 1.2268162e-38
-0.12110476 0.11721905 0.68000001 1.2452556e-38
-0.11980952 0.11721905 0.68000001 1.2636947e-38
-0.11834 0.11704667 0.67900002 1.2636947e-38
-0.11704667 0.11704667 0.67900002 1.2729143e-38
-0.11558286 0.11687429 0.67800003 1.2913534e-38
-0.11429143 0.11687429 0.67800003 1.300573e-38
-0.11266667 0.11652953 0.67600006 1.3097928e-38
-0.11137906 0.11652953 0.67600006 1.3097928e-38
-0.11009143 0.11652953 0.67600006 1.2913544e-38
-0.10880382 0.11652953 0.67600006 1.3190131e-38
-0.1075162 0.11652953 0.67600006 1.3742229e-38
-0.10622858 0.11652953 0.67600006 1.2543685e-38
-0.10494096 0.11652953 0.67600006 1.1622082e-38
-0.10365334 0.11652953 0.67600006 1.0700126e-38
-0.10236572 0.11652953 0.67600006 1.1161454e-38
-0.097646669 0.11704667 0.67900002 1.2172393e-38
-0.096495233 0.11721905 0.68000001 1.2356784e-38
-0.095199995 0.11721905 0.68000001 1.1530963e-38
-0.093904756 0.11721905 0.68000001 1.0977789e-38
-0.092881911 0.11756381 0.68200004 9.5055694e-39
-0.091582857 0.11756381 0.68200004 1.0427526e-38
-0.090416193 0.1177362 0.68300003 1.143877e-38
-0.089115247 0.1177362 0.68300003 1.0977792e-38
-0.087942861 0.11790857 0.68400002 1.0516823e-38
-0.08664 0.11790857 0.68400002 1.0609019e-38
-0.085586667 0.11825334 0.68600005 1.1989423e-38
-0.084279999 0.11825334 0.68600005 1.2358205e-38
-0.079283811 0.1185981 0.68800002 1.0698684e-38
-0.078200005 0.11894286 0.69000006 1.0146226e-38
-0.076997146 0.11911524 0.69100004 1.0054031e-38
-0.076009519 0.11963238 0.69400001 9.5012268e-39
-0.074902862 0.11997715 0.69600004 9.5934224e-39
-0.073788576 0.12032191 0.69800001 9.5941385e-39
-0.13813905 0.12095428 0.69400001 7.6598183e-39
-0.13602859 0.12025715 0.69000006 6.5548973e-39
-0.13412857 0.11973429 0.68700004 6.1861147e-39
-0.13262668 0.11956001 0.68600005 3.9752371e-39
-0.13093714 0.11921144 0.68400002 1.3015638e-39
-0.12833142 0.11921144 0.68400002 8.2233813e-39
-0.12684287 0.11903714 0.68300003 1.2359995e-38
-0.1253581 0.11886286 0.68200004 1.2544386e-38
-0.12369524 0.11851428 0.68000001 1.2175603e-38
-0.12110476 0.11851428 0.68000001 1.2452553e-38
-0.11980952 0.11851428 0.68000001 1.2544749e-38
-0.11834 0.11834 0.67900002 1.2636947e-38
-0.11704667 0.11834 0.67900002 1.2729143e-38
-0.11575333 0.11834 0.67900002 1.2913534e-38
-0.11429143 0.11816572 0.67800003 1.2913534e-38
-0.11300001 0.11816572 0.67800003 1.2913897e-38
-0.11170857 0.11816572 0.67800003 1.3006093e-38
-0.11041714 0.11816572 0.67800003 1.3005743e-38
-0.10880382 0.11781715 0.67600006 1.3190134e-38
-0.1075162 0.11781715 0.67600006 1.3742229e-38
-0.10622858 0.11781715 0.67600006 1.2635881e-38
-0.10494096 0.11781715 0.67600006 1.1991581e-38
-0.10365334 0.11781715 0.67600006 1.0516451e-38
-0.10236572 0.11781715 0.67600006 1.0977764e-38
-0.10107811 0.11781715 0.67600006 1.1715329e-38
-0.099790484 0.11781715 0.67600006 1.1898296e-38
-0.097646669 0.11834 0.67900002 1.2265673e-38
-0.096495233 0.11851428 0.68000001 1.2081282e-38
-0.095199995 0.11851428 0.68000001 1.1622442e-38
-0.094180956 0.11886286 0.68200004 1.2267812e-38
-0.092881911 0.11886286 0.68200004 1.1622106e-38
-0.091582857 0.11886286 0.68200004 1.152991e-38
-0.090416193 0.11903714 0.68300003 1.1806473e-38
-0.089115247 0.11903714 0.68300003 1.1806473e-38
-0.087942861 0.11921144 0.68400002 1.1161111e-38
-0.086893335 0.11956001 0.68600005 1.1345502e-38
-0.085586667 0.11956001 0.68600005 1.1621e-38
-0.084402859 0.11973429 0.68700004 1.1621e-38
-0.083094291 0.11973429 0.68700004 1.1620637e-38
-0.080594286 0.11990858 0.68800002 1.0791243e-38
-0.079514287 0.12025715 0.69000006 1.0699047e-38
-0.078313336 0.12043144 0.69100004 1.0146596e-38
-0.07722 0.12078 0.69300002 1.0146596e-38
-0.076009519 0.12095428 0.69400001 9.4094011e-39
-0.074902862 0.12130286 0.69600004 9.4094011e-39
-0.074000001 0.122 0.70000005 9.5023086e-39
-0.071639046 0.12252286 0.70300001 9.5026463e-39
-0.13813905 0.12227619 0.69400001 8.3051849e-39
-0.13622572 0.12174763 0.69100004 7.5665535e-39
-0.13432382 0.12121905 0.68800002 6.7367928e-39
-0.13262668 0.12086668 0.68600005 6.2761524e-39
-0.13132001 0.12086668 0.68600005 3.879066e-39
-0.12702857 0.12051429 0.68400002 1.2635145e-38
-0.1253581 0.12016191 0.68200004 1.2635145e-38
-0.12276001 0.12016191 0.68200004 1.2359995e-38
-0.12146095 0.12016191 0.68200004 1.2360358e-38
-0.11980952 0.11980952 0.68000001 1.2452553e-38
-0.11851428 0.11980952 0.68000001 1.2544752e-38
-0.11704667 0.11963334 0.67900002 1.2729143e-38
-0.11575333 0.11963334 0.67900002 1.2729862e-38
-0.11446001 0.11963334 0.67900002 1.2822058e-38
-0.11300001 0.11945715 0.67800003 1.3005733e-38
-0.11170857 0.11945715 0.67800003 1.3097928e-38
-0.11058 0.11963334 0.67900002 1.282243e-38
-0.10912572 0.11945715 0.67800003 1.3006822e-38
-0.10783429 0.11945715 0.67800003 1.3557837e-38
-0.10396 0.11945715 0.67800003 1.1161111e-38
-0.10266857 0.11945715 0.67800003 1.1436962e-38
-0.10137715 0.11945715 0.67800003 1.2174527e-38
-0.10008572 0.11945715 0.67800003 1.2265654e-38
-0.09894 0.11963334 0.67900002 1.2265654e-38
-0.097790472 0.11980952 0.68000001 1.3003585e-38
-0.096495233 0.11980952 0.68000001 1.162065e-38
-0.095480002 0.12016191 0.68200004 1.0884527e-38
-0.092881911 0.12016191 0.68200004 1.1529887e-38
-0.091582857 0.12016191 0.68200004 1.1714278e-38
-0.090416193 0.1203381 0.68300003 1.1990512e-38
-0.089115247 0.1203381 0.68300003 1.1621729e-38
-0.087942861 0.12051429 0.68400002 1.088524e-38
-0.086893335 0.12086668 0.68600005 1.1069631e-38
-0.085711427 0.12104286 0.68700004 1.1345142e-38
-0.084402859 0.12104286 0.68700004 1.1252947e-38
-0.080594286 0.12121905 0.68800002 1.0975631e-38
-0.079514287 0.12157144 0.69000006 1.0975631e-38
-0.078313336 0.12174763 0.69100004 1.0239155e-38
-0.07722 0.1221 0.69300002 9.9625679e-39
-0.076009519 0.12227619 0.69400001 1.0054031e-38
-0.075010478 0.12280477 0.69700003 1.0330618e-38
-0.074105717 0.12350953 0.70100003 1.0239155e-38
-0.072978094 0.12386191 0.70300001 9.9625679e-39
-0.071639046 0.12386191 0.70300001 9.4111667e-39
-0.13622572 0.12306382 0.69100004 8.5803663e-39
-0.13471429 0.12288573 0.69000006 7.65841e-39
-0.13262668 0.12217335 0.68600005 7.1995436e-39
-0.13132001 0.12217335 0.68600005 6.8307611e-39
-0.12963428 0.12181715 0.68400002 7.0141056e-39
-0.12702857 0.12181715 0.68400002 1.2542947e-38
-0.1253581 0.12146095 0.68200004 1.2358556e-38
-0.12405905 0.12146095 0.68200004 1.2175603e-38
-0.12016191 0.12146095 0.68200004 1.2360358e-38
-0.11851428 0.12110476 0.68000001 1.2452556e-38
-0.11721905 0.12110476 0.68000001 1.2729143e-38
-0.11575333 0.12092667 0.67900002 1.2729146e-38
-0.11446001 0.12092667 0.67900002 1.2913537e-38
-0.11316667 0.12092667 0.67900002 1.3097926e-38
-0.11187334 0.12092667 0.67900002 1.3097926e-38
-0.11058 0.12092667 0.67900002 1.3097575e-38
-0.10928667 0.12092667 0.67900002 1.3189771e-38
-0.10799333 0.12092667 0.67900002 1.3465992e-38
-0.10685714 0.12110476 0.68000001 1.3097209e-38
-0.1055619 0.12110476 0.68000001 1.2083797e-38
-0.10411333 0.12092667 0.67900002 1.0793059e-38
-0.10282 0.12092667 0.67900002 1.0239885e-38
-0.10152667 0.12092667 0.67900002 1.0516472e-38
-0.10023333 0.12092667 0.67900002 1.0423916e-38
-0.09894 0.12092667 0.67900002 1.0147329e-38
-0.097790472 0.12110476 0.68000001 9.965072e-39
-0.096495233 0.12110476 0.68000001 9.7806807e-39
-0.095480002 0.12146095 0.68200004 9.9643825e-39
-0.092881911 0.12146095 0.68200004 9.5955734e-39
-0.091717146 0.12163905 0.68300003 1.051753e-38
-0.090416193 0.12163905 0.68300003 1.1345493e-38
-0.089245714 0.12181715 0.68400002 1.097671e-38
-0.08820001 0.12217335 0.68600005 1.0701205e-38
-0.086893335 0.12217335 0.68600005 1.1069987e-38
-0.085711427 0.12235144 0.68700004 1.1436982e-38
-0.084402859 0.12235144 0.68700004 1.1068199e-38
-0.083215237 0.12252953 0.68800002 1.1252218e-38
-0.080828577 0.12288573 0.69000006 1.0884512e-38
-0.079514287 0.12288573 0.69000006 1.0976707e-38
-0.078540005 0.12342 0.69300002 1.0054054e-38
-0.077331424 0.12359809 0.69400001 9.6852719e-39
-0.076228574 0.12395429 0.69600004 9.5941287e-39
-0.075118095 0.12431048 0.69800001 1.0423889e-38
-0.074105717 0.12484477 0.70100003 1.0700123e-38
-0.072978094 0.12520096 0.70300001 1.0515732e-38
-0.071740955 0.12537906 0.70400006 9.4111569e-39
-0.13721143 0.12528001 0.69600004 1.0055107e-38
-0.13490954 0.12438001 0.69100004 8.3955855e-39
-0.13282001 0.12366 0.68700004 8.0275064e-39
-0.13132001 0.12348001 0.68600005 8.0275064e-39
-0.12963428 0.12312 0.68400002 9.2253433e-39
-0.12554191 0.12294 0.68300003 1.217488e-38
-0.12405905 0.12276001 0.68200004 1.2083408e-38
-0.12276001 0.12276001 0.68200004 1.2267799e-38
-0.12146095 0.12276001 0.68200004 1.2359998e-38
-0.11886286 0.12276001 0.68200004 1.2544389e-38
-0.11721905 0.1224 0.68000001 1.2820976e-38
-0.11592381 0.1224 0.68000001 1.2729143e-38
-0.11462857 0.1224 0.68000001 1.2913534e-38
-0.11316667 0.12222001 0.67900002 1.2913897e-38
-0.11187334 0.12222001 0.67900002 1.3006093e-38
-0.11074285 0.1224 0.68000001 1.3097575e-38
-0.10928667 0.12222001 0.67900002 1.3281966e-38
-0.10799333 0.12222001 0.67900002 1.365003e-38
-0.10685714 0.1224 0.68000001 1.3096856e-38
-0.1055619 0.1224 0.68000001 1.1532059e-38
-0.10411333 0.12222001 0.67900002 1.0425711e-38
-0.10282 0.12222001 0.67900002 9.3197152e-39
-0.10152667 0.12222001 0.67900002 9.5963021e-39
-0.10023333 0.12222001 0.67900002 9.2268147e-39
-0.09894 0.12222001 0.67900002 9.7799885e-39
-0.097790472 0.1224 0.68000001 9.5981084e-39
-0.096779048 0.12276001 0.68200004 9.9668909e-39
-0.095480002 0.12276001 0.68200004 1.1254026e-38
-0.094180956 0.12276001 0.68200004 1.0147678e-38
-0.092881911 0.12276001 0.68200004 9.4115423e-39
-0.091717146 0.12294 0.68300003 1.0610085e-38
-0.090548575 0.12312 0.68400002 1.1529182e-38
-0.089245714 0.12312 0.68400002 1.1252595e-38
-0.08820001 0.12348001 0.68600005 1.0792684e-38
-0.087020002 0.12366 0.68700004 1.1069271e-38
-0.085711427 0.12366 0.68700004 1.1252591e-38
-0.084525719 0.12384 0.68800002 1.0883808e-38
-0.08345715 0.1242 0.69000006 1.0883808e-38
-0.079629533 0.12438001 0.69100004 1.0607927e-38
-0.078540005 0.12474 0.69300002 1.005368e-38
-0.077331424 0.12492 0.69400001 1.0238072e-38
-0.076228574 0.12528001 0.69600004 9.3171886e-39
-0.075118095 0.12563999 0.69800001 1.0239145e-38
-0.074105717 0.12618001 0.70100003 1.12533e-38
-0.071740955 0.12672001 0.70400006 9.1356462e-39
-0.13721143 0.12660572 0.69600004 1.0975959e-38
-0.1353 0.12606001 0.69300002 1.1252546e-38
-0.13301334 0.12515049 0.68800002 1.1252205e-38
-0.13132001 0.12478668 0.68600005 1.116001e-38
-0.12963428 0.12442286 0.68400002 1.0975631e-38
-0.12702857 0.12442286 0.68400002 1.1899367e-38
-0.12554191 0.12424096 0.68300003 1.1991563e-38
-0.12424096 0.12424096 0.68300003 1.2083411e-38
-0.12294 0.12424096 0.68300003 1.2175606e-38
-0.12146095 0.12405905 0.68200004 1.2635861e-38
-0.12016191 0.12405905 0.68200004 1.2728057e-38
-0.11886286 0.12405905 0.68200004 1.2544389e-38
-0.11756381 0.12405905 0.68200004 1.272878e-38
-0.11626477 0.12405905 0.68200004 1.2729143e-38
-0.11462857 0.12369524 0.68000001 1.2913534e-38
-0.11333333 0.12369524 0.68000001 1.300573e-38
-0.11203809 0.12369524 0.68000001 1.3097926e-38
-0.11074285 0.12369524 0.68000001 1.3097575e-38
-0.10944761 0.12369524 0.68000001 1.3189771e-38
-0.10815237 0.12369524 0.68000001 1.3465642e-38
-0.10685714 0.12369524 0.68000001 1.328125e-38
-0.1055619 0.12369524 0.68000001 1.1716802e-38
-0.10426667 0.12369524 0.68000001 1.1163628e-38
-0.10297143 0.12369524 0.68000001 1.1531316e-38
-0.10152667 0.12351334 0.67900002 1.1162533e-38
-0.10023333 0.12351334 0.67900002 1.1346221e-38
-0.099085711 0.12369524 0.68000001 1.2360373e-38
-0.097790472 0.12369524 0.68000001 1.2176332e-38
-0.096779048 0.12405905 0.68200004 1.1991941e-38
-0.095480002 0.12405905 0.68200004 1.1254379e-38
-0.094180956 0.12405905 0.68200004 1.0977792e-38
-0.0930181 0.12424096 0.68300003 1.1254366e-38
-0.091717146 0.12424096 0.68300003 1.1530953e-38
-0.090548575 0.12442286 0.68400002 1.1806134e-38
-0.089506678 0.12478668 0.68600005 1.189833e-38
-0.08820001 0.12478668 0.68600005 1.1068204e-38
-0.087020002 0.12496858 0.68700004 1.1160399e-38
-0.085836194 0.12515049 0.68800002 1.0885246e-38
-0.084525719 0.12515049 0.68800002 1.0147681e-38
-0.08345715 0.1255143 0.69000006 1.0239525e-38
-0.079629533 0.1256962 0.69100004 1.0331341e-38
-0.078540005 0.12606001 0.69300002 1.1620991e-38
-0.077331424 0.12624191 0.69400001 1.1989773e-38
-0.076338097 0.12678762 0.69700003 1.208088e-38
-0.075333342 0.12733334 0.70000005 1.0697945e-38
-0.07431715 0.12787904 0.70300001 9.8693072e-39
-0.073081911 0.12806095 0.70400006 9.5005247e-39
-0.13893524 0.12829906 0.69800001 1.0697933e-38
-0.13740857 0.12811525 0.69700003 1.1066722e-38
-0.13588572 0.12793143 0.69600004 1.1619896e-38
-0.13340001 0.12682858 0.69000006 1.1620262e-38
-0.13132001 0.12609334 0.68600005 1.1620262e-38
-0.12963428 0.12572572 0.68400002 1.1252571e-38
-0.12702857 0.12572572 0.68400002 1.1807174e-38
-0.12554191 0.12554191 0.68300003 1.1991565e-38
-0.12424096 0.12554191 0.68300003 1.2083408e-38
-0.12294 0.12554191 0.68300003 1.2267799e-38
-0.12163905 0.12554191 0.68300003 1.2268518e-38
-0.1203381 0.12554191 0.68300003 1.2452909e-38
-0.11903714 0.12554191 0.68300003 1.2636584e-38
-0.11756381 0.1253581 0.68200004 1.272878e-38
-0.11626477 0.1253581 0.68200004 1.272914e-38
-0.11496571 0.1253581 0.68200004 1.2913531e-38
-0.11333333 0.12499048 0.68000001 1.2913534e-38
-0.11203809 0.12499048 0.68000001 1.3097926e-38
-0.11106858 0.1253581 0.68200004 1.3097575e-38
-0.10944761 0.12499048 0.68000001 1.3097575e-38
-0.10815237 0.12499048 0.68000001 1.2822433e-38
-0.10685714 0.12499048 0.68000001 1.2822433e-38
-0.1055619 0.12499048 0.68000001 1.2361092e-38
-0.10426667 0.12499048 0.68000001 1.1623527e-38
-0.10297143 0.12499048 0.68000001 1.1899385e-38
-0.10167619 0.12499048 0.68000001 1.1438407e-38
-0.10038095 0.12499048 0.68000001 1.1622079e-38
-0.099377148 0.1253581 0.68200004 1.1806471e-38
-0.098078102 0.1253581 0.68200004 1.1622082e-38
-0.096779048 0.1253581 0.68200004 1.1437691e-38
-0.095480002 0.1253581 0.68200004 1.1069271e-38
-0.094319053 0.12554191 0.68300003 1.1253663e-38
-0.093154289 0.12572572 0.68400002 1.2175969e-38
-0.091851428 0.12572572 0.68400002 1.1254013e-38
-0.090548575 0.12572572 0.68400002 1.1161111e-38
-0.089506678 0.12609334 0.68600005 1.1161111e-38
-0.08832857 0.12627715 0.68700004 1.0884527e-38
-0.087020002 0.12627715 0.68700004 1.1068918e-38
-0.085836194 0.12646097 0.68800002 1.0701579e-38
-0.084525719 0.12646097 0.68800002 9.5952315e-39
-0.08345715 0.12682858 0.69000006 9.5019569e-39
-0.082142867 0.12682858 0.69000006 1.0516109e-38
-0.080945715 0.12701239 0.69100004 1.0699047e-38
-0.079629533 0.12701239 0.69100004 1.0975634e-38
-0.078540005 0.12738001 0.69300002 1.2081616e-38
-0.077331424 0.1275638 0.69400001 1.198942e-38
-0.076447621 0.12829906 0.69800001 1.2172732e-38
-0.075440958 0.12885047 0.70100003 1.0052233e-38
-0.07431715 0.1292181 0.70300001 1.0050803e-38
-0.073081911 0.12940191 0.70400006 9.9586078e-39
-0.13760573 0.12962857 0.69800001 1.0974527e-38
-0.13588572 0.12925714 0.69600004 1.1251114e-38
-0.13359334 0.12832858 0.69100004 1.1435505e-38
-0.13132001 0.1274 0.68600005 1.1527701e-38
-0.13001333 0.1274 0.68600005 1.1252571e-38
-0.12833142 0.12702857 0.68400002 1.1990136e-38
-0.12702857 0.12702857 0.68400002 1.1807177e-38
-0.12572572 0.12702857 0.68400002 1.1899373e-38
-0.12424096 0.12684287 0.68300003 1.2083408e-38
-0.12294 0.12684287 0.68300003 1.2267799e-38
-0.1203381 0.12684287 0.68300003 1.2544386e-38
-0.11903714 0.12684287 0.68300003 1.2636582e-38
-0.11756381 0.12665714 0.68200004 1.2728777e-38
-0.11626477 0.12665714 0.68200004 1.2729496e-38
-0.11496571 0.12665714 0.68200004 1.2729496e-38
-0.11366667 0.12665714 0.68200004 1.2912815e-38
-0.11236762 0.12665714 0.68200004 1.3097207e-38
-0.11106858 0.12665714 0.68200004 1.300538e-38
-0.10976952 0.12665714 0.68200004 1.300538e-38
-0.10815237 0.12628572 0.68000001 1.300574e-38
-0.10685714 0.12628572 0.68000001 1.3097935e-38
-0.10587239 0.12665714 0.68200004 1.2083797e-38
-0.10457334 0.12665714 0.68200004 1.0700863e-38
-0.10327429 0.12665714 0.68200004 9.5037575e-39
-0.10197524 0.12665714 0.68200004 9.6881488e-39
-0.10067619 0.12665714 0.68200004 9.5026589e-39
-0.099377148 0.12665714 0.68200004 9.226072e-39
-0.098078102 0.12665714 0.68200004 9.1346219e-39
-0.096779048 0.12665714 0.68200004 1.0425361e-38
-0.095480002 0.12665714 0.68200004 1.0977436e-38
-0.094319053 0.12684287 0.68300003 1.0977436e-38
-0.093154289 0.12702857 0.68400002 1.088524e-38
-0.091851428 0.12702857 0.68400002 1.0516458e-38
-0.090813339 0.1274 0.68600005 1.033277e-38
-0.089506678 0.1274 0.68600005 1.0609357e-38
-0.08832857 0.12758572 0.68700004 1.0792684e-38
-0.087020002 0.12758572 0.68700004 1.1345858e-38
-0.086085722 0.12814288 0.69000006 1.097709e-38
-0.084771439 0.12814288 0.69000006 1.0608307e-38
-0.080945715 0.12832858 0.69100004 1.2267096e-38
-0.079860002 0.1287 0.69300002 1.1898313e-38
-0.078653328 0.12888572 0.69400001 1.1437685e-38
-0.077554293 0.12925714 0.69600004 1.0423533e-38
-0.076447621 0.12962857 0.69800001 1.0698681e-38
-0.075333342 0.13000001 0.70000005 9.1313555e-39
-0.07431715 0.13055715 0.70300001 9.5919833e-39
-0.071944758 0.1311143 0.70600003 9.3164628e-39
-0.13760573 0.1309581 0.69800001 1.0973804e-38
-0.13608097 0.13077047 0.69700003 1.1434782e-38
-0.13417333 0.13020761 0.69400001 1.1527706e-38
-0.12870668 0.12870668 0.68600005 1.189794e-38
-0.1274 0.12870668 0.68600005 1.1807177e-38
-0.12572572 0.12833142 0.68400002 1.1807177e-38
-0.12181715 0.12833142 0.68400002 1.2268162e-38
-0.12051429 0.12833142 0.68400002 1.2268162e-38
-0.11903714 0.12814382 0.68300003 1.2727701e-38
-0.1177362 0.12814382 0.68300003 1.2912092e-38
-0.11626477 0.1279562 0.68200004 1.2820976e-38
-0.11496571 0.1279562 0.68200004 1.3005367e-38
-0.11366667 0.1279562 0.68200004 1.3005367e-38
-0.11236762 0.1279562 0.68200004 1.3189758e-38
-0.11106858 0.1279562 0.68200004 1.3097209e-38
-0.10976952 0.1279562 0.68200004 1.3097209e-38
-0.10847048 0.1279562 0.68200004 1.3005743e-38
-0.10717143 0.1279562 0.68200004 1.3097938e-38
-0.10587239 0.1279562 0.68200004 1.2175985e-38
-0.10457334 0.1279562 0.68200004 1.0147681e-38
-0.10327429 0.1279562 0.68200004 9.5941413e-39
-0.10197524 0.1279562 0.68200004 1.0055119e-38
-0.10067619 0.1279562 0.68200004 9.5945014e-39
-0.099377148 0.1279562 0.68200004 9.3179145e-39
-0.098221906 0.12814382 0.68300003 8.6757877e-39
-0.09692096 0.12814382 0.68300003 1.05197e-38
-0.095619999 0.12814382 0.68300003 1.1531682e-38
-0.094457142 0.12833142 0.68400002 1.0886312e-38
-0.093154289 0.12833142 0.68400002 9.8721701e-39
-0.091851428 0.12833142 0.68400002 1.0148757e-38
-0.090945721 0.12889428 0.68700004 1.0792316e-38
-0.089637145 0.12889428 0.68700004 1.1068903e-38
-0.08832857 0.12889428 0.68700004 1.1252595e-38
-0.087020002 0.12889428 0.68700004 1.1436986e-38
-0.086085722 0.12945715 0.69000006 1.1714288e-38
-0.083578095 0.12964478 0.69100004 1.2635878e-38
-0.082261913 0.12964478 0.69100004 1.2543683e-38
-0.081180006 0.13001999 0.69300002 1.2083067e-38
-0.079860002 0.13001999 0.69300002 1.1529894e-38
-0.078653328 0.13020761 0.69400001 1.0609372e-38
-0.077554293 0.13058287 0.69600004 1.0148394e-38
-0.076447621 0.1309581 0.69800001 1.0239145e-38
-0.075333342 0.13133334 0.70000005 9.6859712e-39
-0.074105717 0.13152096 0.70100003 9.960763e-39
-0.072978094 0.13189618 0.70300001 9.8685674e-39
-0.071740955 0.13208382 0.70400006 9.3178949e-39
-0.13760573 0.13228762 0.69800001 9.315381e-39
-0.13608097 0.13209809 0.69700003 1.1067098e-38
-0.13417333 0.13152952 0.69400001 1.1619549e-38
-0.13227715 0.13096096 0.69100004 1.1619549e-38
-0.12889428 0.13020287 0.68700004 1.1805382e-38
-0.1274 0.13001333 0.68600005 1.1714981e-38
-0.12572572 0.12963428 0.68400002 1.1807177e-38
-0.12051429 0.12963428 0.68400002 1.2359642e-38
-0.11921144 0.12963428 0.68400002 1.2544033e-38
-0.1177362 0.12944476 0.68300003 1.2728424e-38
-0.11643524 0.12944476 0.68300003 1.2913169e-38
-0.11513429 0.12944476 0.68300003 1.2913169e-38
-0.11366667 0.12925524 0.68200004 1.3097563e-38
-0.11236762 0.12925524 0.68200004 1.3189758e-38
-0.11106858 0.12925524 0.68200004 1.3190121e-38
-0.10976952 0.12925524 0.68200004 1.3190121e-38
-0.10847048 0.12925524 0.68200004 1.3465639e-38
-0.10717143 0.12925524 0.68200004 1.3465639e-38
-0.10587239 0.12925524 0.68200004 1.1991593e-38
-0.10457334 0.12925524 0.68200004 1.0055485e-38
-0.10327429 0.12925524 0.68200004 1.0423913e-38
-0.10197524 0.12925524 0.68200004 1.1253674e-38
-0.10082381 0.12944476 0.68300003 1.1529887e-38
-0.099522859 0.12944476 0.68300003 1.12533e-38
-0.098221906 0.12944476 0.68300003 1.1069271e-38
-0.09692096 0.12944476 0.68300003 1.153025e-38
-0.095619999 0.12944476 0.68300003 1.1530234e-38
-0.094457142 0.12963428 0.68400002 1.162243e-38
-0.093426675 0.13001333 0.68600005 1.1898669e-38
-0.092120007 0.13001333 0.68600005 1.1898669e-38
-0.090945721 0.13020287 0.68700004 1.3372695e-38
-0.08832857 0.13020287 0.68700004 1.3003959e-38
-0.08714667 0.13039239 0.68800002 1.2542981e-38
-0.086085722 0.13077144 0.69000006 1.2083789e-38
-0.084771439 0.13077144 0.69000006 1.2175985e-38
-0.083578095 0.13096096 0.69100004 1.1252598e-38
-0.082261913 0.13096096 0.69100004 1.0515033e-38
-0.081180006 0.13134 0.69300002 1.0423197e-38
-0.07997524 0.13152952 0.69400001 9.7778277e-39
-0.078880005 0.13190858 0.69600004 9.3172125e-39
-0.077665716 0.13209809 0.69700003 9.4094081e-39
-0.076447621 0.13228762 0.69800001 1.005368e-38
-0.075333342 0.13266666 0.70000005 1.0330267e-38
-0.074105717 0.13285619 0.70100003 9.778164e-39
-0.072978094 0.13323525 0.70300001 9.5937727e-39
-0.071740955 0.13342477 0.70400006 9.4097346e-39
-0.070600003 0.13380381 0.70600003 9.317539e-39
-0.13760573 0.13361715 0.69800001 9.03915e-39
-0.13608097 0.13342571 0.69700003 1.1067454e-38
-0.13417333 0.13285144 0.69400001 1.1435871e-38
-0.13227715 0.13227715 0.69100004 1.1528066e-38
-0.13039239 0.13170287 0.68800002 1.1437318e-38
-0.12889428 0.13151143 0.68700004 1.1713905e-38
-0.1274 0.13132001 0.68600005 1.162243e-38
-0.12609334 0.13132001 0.68600005 1.1714625e-38
-0.12442286 0.13093714 0.68400002 1.2174527e-38
-0.12051429 0.13093714 0.68400002 1.2451837e-38
-0.11921144 0.13093714 0.68400002 1.2452556e-38
-0.1177362 0.13074572 0.68300003 1.2636947e-38
-0.11643524 0.13074572 0.68300003 1.2729143e-38
-0.11513429 0.13074572 0.68300003 1.2913534e-38
-0.11383333 0.13074572 0.68300003 1.3005011e-38
-0.11236762 0.13055429 0.68200004 1.3097207e-38
-0.11106858 0.13055429 0.68200004 1.3190124e-38
-0.10976952 0.13055429 0.68200004 1.3190124e-38
-0.10847048 0.13055429 0.68200004 1.3373799e-38
-0.10717143 0.13055429 0.68200004 1.3465995e-38
-0.10587239 0.13055429 0.68200004 1.1991593e-38
-0.10457334 0.13055429 0.68200004 1.0885246e-38
-0.10327429 0.13055429 0.68200004 1.116183e-38
-0.10197524 0.13055429 0.68200004 1.1715004e-38
-0.10082381 0.13074572 0.68300003 1.1899395e-38
-0.099522859 0.13074572 0.68300003 1.0977439e-38
-0.098365717 0.13093714 0.68400002 1.1068199e-38
-0.097062856 0.13093714 0.68400002 1.0976004e-38
-0.095760003 0.13093714 0.68400002 1.0700476e-38
-0.094733343 0.13132001 0.68600005 1.2083411e-38
-0.093426675 0.13132001 0.68600005 1.2912112e-38
-0.092254288 0.13151143 0.68700004 1.2819916e-38
-0.090945721 0.13151143 0.68700004 1.3740774e-38
-0.08832857 0.13151143 0.68700004 1.2820635e-38
-0.08714667 0.13170287 0.68800002 1.2175266e-38
-0.086085722 0.13208573 0.69000006 1.1715717e-38
-0.084771439 0.13208573 0.69000006 1.1070348e-38
-0.083578095 0.13227715 0.69100004 1.0239155e-38
-0.082499996 0.13266 0.69300002 1.033135e-38
-0.081180006 0.13266 0.69300002 1.0974565e-38
-0.07997524 0.13285144 0.69400001 1.0421391e-38
-0.078880005 0.13323429 0.69600004 9.6856208e-39
-0.077665716 0.13342571 0.69700003 9.7778165e-39
-0.076447621 0.13361715 0.69800001 9.9614847e-39
-0.075333342 0.134 0.70000005 1.005368e-38
-0.074105717 0.13419142 0.70100003 9.961835e-39
-0.071740955 0.13476573 0.70400006 9.4101003e-39
-0.068391435 0.13610572 0.71100003 9.4097374e-39
-0.13933334 0.13533334 0.70000005 9.4054186e-39
-0.13760573 0.13494666 0.69800001 9.3150363e-39
-0.13608097 0.13475335 0.69700003 1.1158949e-38
-0.13417333 0.13417333 0.69400001 1.1251833e-38
-0.13227715 0.13359334 0.69100004 1.1528419e-38
-0.13039239 0.13301334 0.68800002 1.1345123e-38
-0.12908192 0.13301334 0.68800002 1.1713905e-38
-0.12758572 0.13282001 0.68700004 1.1990486e-38
-0.12609334 0.13262668 0.68600005 1.1990486e-38
-0.12478668 0.13262668 0.68600005 1.1990859e-38
-0.12217335 0.13262668 0.68600005 1.2267449e-38
-0.12086668 0.13262668 0.68600005 1.245184e-38
-0.11921144 0.13224 0.68400002 1.2452556e-38
-0.11790857 0.13224 0.68400002 1.2544752e-38
-0.11643524 0.13204667 0.68300003 1.2728427e-38
-0.11513429 0.13204667 0.68300003 1.2820623e-38
-0.11383333 0.13204667 0.68300003 1.2821341e-38
-0.11253238 0.13204667 0.68300003 1.2913537e-38
-0.11123143 0.13204667 0.68300003 1.3097928e-38
-0.10993048 0.13204667 0.68300003 1.3005733e-38
-0.10847048 0.13185334 0.68200004 1.3097928e-38
-0.10717143 0.13185334 0.68200004 1.3374515e-38
-0.10602762 0.13204667 0.68300003 1.2729143e-38
-0.10472667 0.13204667 0.68300003 1.1254013e-38
-0.10342572 0.13204667 0.68300003 1.1161833e-38
-0.10227428 0.13224 0.68400002 1.1530615e-38
-0.10097143 0.13224 0.68400002 1.1345493e-38
-0.09966857 0.13224 0.68400002 1.0792319e-38
-0.098653339 0.13262668 0.68600005 1.0699417e-38
-0.097346671 0.13262668 0.68600005 1.0515026e-38
-0.09604001 0.13262668 0.68600005 1.0792322e-38
-0.094733343 0.13262668 0.68600005 1.2359647e-38
-0.093562864 0.13282001 0.68700004 1.2726649e-38
-0.092254288 0.13282001 0.68700004 1.2081279e-38
-0.089637145 0.13282001 0.68700004 1.0423916e-38
-0.08832857 0.13282001 0.68700004 1.0149113e-38
-0.08714667 0.13301334 0.68800002 1.0333504e-38
-0.086085722 0.13340001 0.69000006 1.0424968e-38
-0.084894292 0.13359334 0.69100004 1.0148381e-38
-0.083578095 0.13359334 0.69100004 1.0239861e-38
-0.082499996 0.13398001 0.69300002 1.0424252e-38
-0.081180006 0.13398001 0.69300002 1.0791245e-38
-0.07997524 0.13417333 0.69400001 1.069905e-38
-0.078880005 0.13456 0.69600004 1.014625e-38
-0.07777714 0.13494666 0.69800001 1.014625e-38
-0.076666676 0.13533334 0.70000005 1.0238066e-38
-0.13760573 0.13627619 0.69800001 1.0328091e-38
-0.13608097 0.13608097 0.69700003 1.1342243e-38
-0.13456 0.13588572 0.69600004 1.0975972e-38
-0.13266 0.1353 0.69300002 1.1344754e-38
-0.13077144 0.13471429 0.69000006 1.1345123e-38
-0.12908192 0.13432382 0.68800002 1.1713905e-38
-0.12777144 0.13432382 0.68800002 1.1714625e-38
-0.12627715 0.13412857 0.68700004 1.1899017e-38
-0.12478668 0.13393334 0.68600005 1.189938e-38
-0.12348001 0.13393334 0.68600005 1.2175966e-38
-0.12217335 0.13393334 0.68600005 1.2175969e-38
-0.12086668 0.13393334 0.68600005 1.236036e-38
-0.11956001 0.13393334 0.68600005 1.2451837e-38
-0.11790857 0.13354285 0.68400002 1.2544033e-38
-0.11660571 0.13354285 0.68400002 1.2728424e-38
-0.11513429 0.13334762 0.68300003 1.2912815e-38
-0.11383333 0.13334762 0.68300003 1.2729506e-38
-0.11253238 0.13334762 0.68300003 1.2821702e-38
-0.11123143 0.13334762 0.68300003 1.2913897e-38
-0.10993048 0.13334762 0.68300003 1.2913897e-38
-0.10862952 0.13334762 0.68300003 1.3006093e-38
-0.10732858 0.13334762 0.68300003 1.328268e-38
-0.10602762 0.13334762 0.68300003 1.2820632e-38
-0.10472667 0.13334762 0.68300003 1.0792329e-38
-0.10357714 0.13354285 0.68400002 1.0424632e-38
-0.10227428 0.13354285 0.68400002 1.0793415e-38
-0.10097143 0.13354285 0.68400002 1.0883808e-38
-0.09966857 0.13354285 0.68400002 1.0976004e-38
-0.098653339 0.13393334 0.68600005 1.0883808e-38
-0.097346671 0.13393334 0.68600005 1.0976004e-38
-0.09604001 0.13393334 0.68600005 1.1529161e-38
-0.094871432 0.13412857 0.68700004 1.1805748e-38
-0.093562864 0.13412857 0.68700004 1.1346211e-38
-0.090945721 0.13412857 0.68700004 1.0423546e-38
-0.089637145 0.13412857 0.68700004 1.0423546e-38
-0.088457145 0.13432382 0.68800002 1.0516095e-38
-0.08714667 0.13432382 0.68800002 1.060829e-38
-0.086085722 0.13471429 0.69000006 1.070012e-38
-0.084894292 0.13490954 0.69100004 1.0792316e-38
-0.083578095 0.13490954 0.69100004 1.0791966e-38
-0.082499996 0.1353 0.69300002 1.0515379e-38
-0.081297144 0.13549525 0.69400001 1.0516095e-38
-0.080205716 0.13588572 0.69600004 1.0516095e-38
-0.078993335 0.13608097 0.69700003 1.0239162e-38
-0.078000009 0.13666669 0.70000005 1.0239162e-38
-0.076776192 0.13686191 0.70100003 9.9622049e-39
-0.071740955 0.13744763 0.70400006 8.764368e-39
-0.070600003 0.13783811 0.70600003 9.501933e-39
-0.13760573 0.13760573 0.69800001 1.0053302e-38
-0.13266 0.13662 0.69300002 1.1252205e-38
-0.13077144 0.13602859 0.69000006 1.1436602e-38
-0.12945715 0.13602859 0.69000006 1.1620993e-38
-0.12777144 0.13563429 0.68800002 1.1898294e-38
-0.12627715 0.13543716 0.68700004 1.1990489e-38
-0.12235144 0.13543716 0.68700004 1.2268162e-38
-0.12086668 0.13524002 0.68600005 1.2268162e-38
-0.11956001 0.13524002 0.68600005 1.2635508e-38
-0.11825334 0.13524002 0.68600005 1.2727704e-38
-0.11660571 0.1348457 0.68400002 1.2728427e-38
-0.11530285 0.1348457 0.68400002 1.2912818e-38
-0.114 0.1348457 0.68400002 1.2821341e-38
-0.11269714 0.1348457 0.68400002 1.2913537e-38
-0.11139429 0.1348457 0.68400002 1.300573e-38
-0.11009143 0.1348457 0.68400002 1.300573e-38
-0.10878857 0.1348457 0.68400002 1.3097928e-38
-0.10748571 0.1348457 0.68400002 1.3466711e-38
-0.10618286 0.1348457 0.68400002 1.3097575e-38
-0.10488 0.1348457 0.68400002 1.0516098e-38
-0.10357714 0.1348457 0.68400002 1.0423916e-38
-0.10227428 0.1348457 0.68400002 1.0792698e-38
-0.10126667 0.13524002 0.68600005 1.0883815e-38
-0.099960007 0.13524002 0.68600005 1.1160402e-38
-0.098653339 0.13524002 0.68600005 1.1068204e-38
-0.097488575 0.13543716 0.68700004 1.0976008e-38
-0.096180007 0.13543716 0.68700004 1.134549e-38
-0.094871432 0.13543716 0.68700004 1.1437685e-38
