# .PCD v0.7 - Point Cloud Data file format
VERSION 0.7
FIELDS x y z rgb
SIZE 4 4 4 4
TYPE F F F F
COUNT 1 1 1 1
WIDTH 329
HEIGHT 1
VIEWPOINT 0 0 0 1 0 0 0
POINTS 329
DATA ascii
0.097314283 -0.34584001 1.572 1.0711582e-38
0.10030857 -0.34584001 1.572 7.7613214e-39
0.080055244 -0.34589908 1.5860001 9.8651412e-41
0.094319999 -0.34284571 1.572 1.3097362e-39
0.097314283 -0.34284571 1.572 7.6267631e-40
0.10030857 -0.34284571 1.572 1.0392632e-39
0.10330286 -0.34284571 1.572 8.552615e-40
0.077034287 -0.34287813 1.5860001 8.316328e-40
0.094319999 -0.33985141 1.572 1.1293218e-39
0.097314283 -0.33985141 1.572 8.5523487e-40
0.10030857 -0.33985141 1.572 1.5006043e-39
0.10330286 -0.33985141 1.572 1.8679813e-39
0.077034287 -0.33985713 1.5860001 1.94013e-39
0.082709529 -0.33835715 1.5790001 2.2220558e-39
0.094319999 -0.33685714 1.572 1.1289869e-39
0.097314283 -0.33685714 1.572 1.2222195e-39
0.10075524 -0.33835715 1.5790001 1.591002e-39
0.10330286 -0.33685714 1.572 1.8658205e-39
0.077422865 -0.33853528 1.5940001 1.2081265e-38
0.080459051 -0.33853528 1.5940001 4.623908e-39
0.089118101 -0.33683619 1.5860001 1.5852679e-39
0.097747624 -0.33534956 1.5790001 1.2204273e-39
0.10075524 -0.33534956 1.5790001 1.6814054e-39
0.10376287 -0.33534956 1.5790001 1.4052235e-39
0.12782381 -0.33534956 1.5790001 1.6411234e-38
0.077422865 -0.33549905 1.5940001 1.9548017e-38
0.097747624 -0.33234191 1.5790001 1.1716739e-38
0.10075524 -0.33234191 1.5790001 1.190113e-38
0.10376287 -0.33234191 1.5790001 1.1624555e-38
0.085717149 -0.32933432 1.5790001 1.2725486e-38
0.097747624 -0.32933432 1.5790001 1.4203875e-38
0.10075524 -0.32933432 1.5790001 1.4111679e-38
0.10376287 -0.32933432 1.5790001 1.4111329e-38
0.097747624 -0.3263267 1.5790001 1.5123683e-38
0.10075524 -0.3263267 1.5790001 1.4754901e-38
0.10376287 -0.3263267 1.5790001 1.4847106e-38
0.071350485 -0.3263905 1.5940001 1.3920821e-38
0.089118101 -0.32475239 1.5860001 1.585908e-38
0.097747624 -0.32331905 1.5790001 1.5491387e-38
0.10075524 -0.32331905 1.5790001 1.5306995e-38
0.10376287 -0.32331905 1.5790001 1.5030772e-38
0.10677049 -0.32331905 1.5790001 1.5215163e-38
0.11932763 -0.32475239 1.5860001 1.4663434e-38
0.071350485 -0.3233543 1.5940001 1.4480472e-38
0.094740003 -0.32031146 1.5790001 1.7243101e-38
0.097747624 -0.32031146 1.5790001 1.7151627e-38
0.10075524 -0.32031146 1.5790001 1.7151627e-38
0.10376287 -0.32031146 1.5790001 1.6599532e-38
0.10677049 -0.32031146 1.5790001 1.6507337e-38
0.071350485 -0.3203181 1.5940001 1.6319668e-38
0.094740003 -0.31730384 1.5790001 1.7336388e-38
0.097747624 -0.31730384 1.5790001 1.7337107e-38
0.10075524 -0.31730384 1.5790001 1.7244911e-38
0.10376287 -0.31730384 1.5790001 1.696869e-38
0.10677049 -0.31730384 1.5790001 1.6784299e-38
0.094740003 -0.31429622 1.5790001 1.7797372e-38
0.097747624 -0.31429622 1.5790001 1.8257987e-38
0.10075524 -0.31429622 1.5790001 1.9087748e-38
0.10376287 -0.31429622 1.5790001 1.927142e-38
0.10677049 -0.31429622 1.5790001 1.844166e-38
0.1097781 -0.31429622 1.5790001 1.7889915e-38
0.14349525 -0.31568953 1.5860001 1.9917898e-38
0.074013337 -0.31266859 1.5860001 1.6135327e-38
0.094740003 -0.3112886 1.5790001 1.8073603e-38
0.097314283 -0.30990857 1.572 1.8073959e-38
0.10030857 -0.30990857 1.572 1.8903719e-38
0.10330286 -0.30990857 1.572 1.9271783e-38
0.10629714 -0.30990857 1.572 1.8442022e-38
0.14349525 -0.31266859 1.5860001 1.9458003e-38
0.074013337 -0.30964762 1.5860001 1.6686703e-38
0.094319999 -0.3069143 1.572 1.835019e-38
0.097314283 -0.3069143 1.572 1.8350183e-38
0.10030857 -0.3069143 1.572 1.8811161e-38
0.10330286 -0.3069143 1.572 1.8719679e-38
0.10629714 -0.3069143 1.572 1.82587e-38
0.10929143 -0.3069143 1.572 1.8073953e-38
0.071350485 -0.30817336 1.5940001 1.5767549e-38
0.074013337 -0.30662668 1.5860001 1.6411175e-38
0.091325715 -0.30392 1.572 1.7705171e-38
0.094319999 -0.30392 1.572 1.8073953e-38
0.097314283 -0.30392 1.572 1.8166149e-38
0.10030857 -0.30392 1.572 1.8166149e-38
0.10330286 -0.30392 1.572 1.82587e-38
0.10629714 -0.30392 1.572 1.8074309e-38
0.10929143 -0.30392 1.572 1.7982113e-38
0.074013337 -0.30360574 1.5860001 1.3647805e-38
0.077034287 -0.30360574 1.5860001 1.4477566e-38
0.091325715 -0.30092573 1.572 1.6691725e-38
0.094319999 -0.30092573 1.572 1.6783921e-38
0.097314283 -0.30092573 1.572 1.6785002e-38
0.10030857 -0.30092573 1.572 1.6692807e-38
0.10330286 -0.30092573 1.572 1.6325461e-38
0.10629714 -0.30092573 1.572 1.6325461e-38
0.10929143 -0.30092573 1.572 1.669352e-38
0.11278573 -0.30226573 1.5790001 1.6048151e-38
0.074386671 -0.30210099 1.5940001 1.2545408e-38
0.077034287 -0.30058476 1.5860001 1.3190777e-38
0.091325715 -0.29793143 1.572 1.4021273e-38
0.094319999 -0.29793143 1.572 1.4390056e-38
0.097314283 -0.29793143 1.572 1.4851403e-38
0.10030857 -0.29793143 1.572 1.4574816e-38
0.10330286 -0.29793143 1.572 1.4023447e-38
0.10629714 -0.29793143 1.572 1.3931251e-38
0.10929143 -0.29793143 1.572 1.4207475e-38
0.11278573 -0.29925811 1.5790001 1.3377714e-38
0.074386671 -0.29906476 1.5940001 1.2821641e-38
0.077034287 -0.29756382 1.5860001 1.3282619e-38
0.080055244 -0.29756382 1.5860001 1.3099651e-38
0.094319999 -0.29493713 1.572 1.3745746e-38
0.097314283 -0.29493713 1.572 1.3746837e-38
0.10030857 -0.29493713 1.572 1.3654642e-38
0.10330286 -0.29493713 1.572 1.2640875e-38
0.10629714 -0.29493713 1.572 1.254868e-38
0.10929143 -0.29493713 1.572 1.2456471e-38
0.11278573 -0.29625049 1.5790001 1.2548667e-38
0.074386671 -0.29602858 1.5940001 1.3098216e-38
0.077422865 -0.29602858 1.5940001 1.3927976e-38
0.080055244 -0.29454288 1.5860001 1.3927994e-38
0.083076194 -0.29454288 1.5860001 1.3927994e-38
0.09173239 -0.29324287 1.5790001 1.4482251e-38
0.094319999 -0.29194286 1.572 1.4666643e-38
0.097314283 -0.29194286 1.572 1.4482645e-38
0.10030857 -0.29194286 1.572 1.4206058e-38
0.10330286 -0.29194286 1.572 1.3008597e-38
0.10629714 -0.29194286 1.572 1.3008597e-38
0.10929143 -0.29194286 1.572 1.2823462e-38
0.11278573 -0.29324287 1.5790001 1.2915657e-38
0.077422865 -0.29299241 1.5940001 1.6873906e-38
0.080055244 -0.29152194 1.5860001 1.6322927e-38
0.09173239 -0.29023525 1.5790001 1.5496422e-38
0.094319999 -0.28894857 1.572 1.7155943e-38
0.097314283 -0.28894857 1.572 1.7797745e-38
0.10030857 -0.28894857 1.572 1.8350918e-38
0.10330286 -0.28894857 1.572 1.7429678e-38
0.10629714 -0.28894857 1.572 1.6876504e-38
0.1097781 -0.29023525 1.5790001 1.641622e-38
0.11278573 -0.29023525 1.5790001 1.5770851e-38
0.062827617 -0.29268479 1.6090001 1.7056966e-38
0.065892383 -0.29268479 1.6090001 1.0418881e-38
0.080459051 -0.28995618 1.5940001 1.4666221e-38
0.094740003 -0.28722763 1.5790001 1.5408151e-38
0.097747624 -0.28722763 1.5790001 1.632658e-38
0.10075524 -0.28722763 1.5790001 1.6787558e-38
0.10376287 -0.28722763 1.5790001 1.788994e-38
0.10677049 -0.28722763 1.5790001 1.7428962e-38
0.1097781 -0.28722763 1.5790001 1.7154151e-38
0.11278573 -0.28722763 1.5790001 1.6785368e-38
0.080459051 -0.28692001 1.5940001 1.2823249e-38
0.09173239 -0.28422004 1.5790001 7.6661115e-40
0.094740003 -0.28422004 1.5790001 2.149533e-39
0.097747624 -0.28422004 1.5790001 5.4611992e-39
0.10075524 -0.28422004 1.5790001 6.2909599e-39
0.10376287 -0.28422004 1.5790001 8.9546041e-39
0.10677049 -0.28422004 1.5790001 1.3195603e-38
0.1097781 -0.28422004 1.5790001 1.6415526e-38
0.11278573 -0.28422004 1.5790001 1.7798461e-38
0.11630668 -0.28548002 1.5860001 1.7705161e-38
0.080459051 -0.28388384 1.5940001 1.4661189e-38
0.083495244 -0.28388384 1.5940001 1.2817276e-38
0.094740003 -0.28121239 1.5790001 2.0577577e-39
0.097747624 -0.28121239 1.5790001 1.2285198e-39
0.10075524 -0.28121239 1.5790001 6.7534599e-40
0.10376287 -0.28121239 1.5790001 1.3199713e-39
0.10677049 -0.28121239 1.5790001 7.5892741e-39
0.1097781 -0.28121239 1.5790001 1.6414072e-38
0.11278573 -0.28121239 1.5790001 1.7981397e-38
0.14485238 -0.2851305 1.6010001 1.9546969e-38
0.14790191 -0.2851305 1.6010001 2.0007578e-38
0.080459051 -0.28084764 1.5940001 1.8162892e-38
0.094740003 -0.27820477 1.5790001 1.6691725e-38
0.097747624 -0.27820477 1.5790001 1.4483734e-38
0.10075524 -0.27820477 1.5790001 7.1080837e-39
0.10376287 -0.27820477 1.5790001 4.1715744e-39
0.10677049 -0.27820477 1.5790001 8.3203778e-39
0.11026477 -0.27943811 1.5860001 1.5679015e-38
0.11328572 -0.27943811 1.5860001 1.7799514e-38
0.14421906 -0.28084764 1.5940001 1.8624668e-38
0.094740003 -0.27519718 1.5790001 1.9361082e-38
0.097747624 -0.27519718 1.5790001 1.770412e-38
0.10075524 -0.27519718 1.5790001 1.1250426e-38
0.10376287 -0.27519718 1.5790001 7.5730737e-39
0.10724381 -0.27641714 1.5860001 1.1537486e-38
0.11026477 -0.27641714 1.5860001 1.5676879e-38
0.11328572 -0.27641714 1.5860001 1.7797379e-38
0.080812387 -0.2759819 1.6010001 9.684113e-39
0.095160007 -0.27339619 1.5860001 1.6505536e-38
0.097747624 -0.27218953 1.5790001 1.5861967e-38
0.10075524 -0.27218953 1.5790001 1.2727316e-38
0.10376287 -0.27218953 1.5790001 9.0456955e-39
0.10724381 -0.27339619 1.5860001 1.3655477e-38
0.11026477 -0.27339619 1.5860001 1.5495022e-38
0.11328572 -0.27339619 1.5860001 1.7338934e-38
0.12536952 -0.27339619 1.5860001 1.3927301e-38
0.095160007 -0.27037525 1.5860001 1.1529852e-38
0.098180957 -0.27037525 1.5860001 1.1346897e-38
0.10120191 -0.27037525 1.5860001 1.0517136e-38
0.11026477 -0.27037525 1.5860001 1.5404627e-38
0.11328572 -0.27037525 1.5860001 1.660317e-38
0.095160007 -0.26735431 1.5860001 9.4115072e-39
0.098180957 -0.26735431 1.5860001 9.044786e-39
0.10474858 -0.26870289 1.5940001 6.4709357e-39
0.10778476 -0.26870289 1.5940001 1.3385608e-38
0.11082096 -0.26870289 1.5940001 1.7431458e-38
0.14557619 -0.27123144 1.6090001 1.8717579e-38
0.095160007 -0.26433334 1.5860001 1.0054353e-38
0.098180957 -0.26433334 1.5860001 7.103692e-39
0.10474858 -0.26566666 1.5940001 7.8484975e-39
0.11082096 -0.26566666 1.5940001 1.7798095e-38
0.089567624 -0.26263049 1.5940001 1.4754573e-38
0.092603818 -0.26263049 1.5940001 1.50315e-38
0.10474858 -0.26263049 1.5940001 1.6691728e-38
0.11082096 -0.26263049 1.5940001 1.7613691e-38
0.11385715 -0.26263049 1.5940001 1.7152713e-38
0.10215905 -0.26073432 1.6010001 1.798459e-38
0.10520857 -0.26073432 1.6010001 1.8350909e-38
0.1082581 -0.26073432 1.6010001 1.788993e-38
0.11385715 -0.25959429 1.5940001 1.7428584e-38
0.078151435 -0.25897241 1.6090001 5.920912e-39
0.10215905 -0.25768477 1.6010001 1.5414653e-38
0.10520857 -0.25768477 1.6010001 1.9272496e-38
0.1082581 -0.25768477 1.6010001 1.8258344e-38
0.10215905 -0.25463524 1.6010001 1.4133966e-38
0.10520857 -0.25463524 1.6010001 1.8629298e-38
0.1082581 -0.25463524 1.6010001 1.7338559e-38
0.11130763 -0.25463524 1.6010001 1.6692819e-38
0.10215905 -0.25158572 1.6010001 1.7344352e-38
0.10520857 -0.25158572 1.6010001 1.8904082e-38
0.1082581 -0.25158572 1.6010001 1.7428952e-38
0.11130763 -0.25158572 1.6010001 1.6968687e-38
0.077762857 -0.2485362 1.6010001 1.3465935e-38
0.099109523 -0.2485362 1.6010001 1.4755279e-38
0.10215905 -0.2485362 1.6010001 1.8811887e-38
0.10520857 -0.2485362 1.6010001 1.862713e-38
0.1082581 -0.2485362 1.6010001 1.7520782e-38
0.11130763 -0.2485362 1.6010001 1.7245627e-38
0.099109523 -0.24548668 1.6010001 1.7706252e-38
0.10215905 -0.24548668 1.6010001 1.8167231e-38
0.10520857 -0.24548668 1.6010001 1.7982474e-38
0.1082581 -0.24548668 1.6010001 1.7337104e-38
0.11130763 -0.24548668 1.6010001 1.7337823e-38
0.12412287 -0.24671334 1.6090001 1.4664513e-38
0.099109523 -0.24243714 1.6010001 1.7890644e-38
0.10215905 -0.24243714 1.6010001 1.7982839e-38
0.10520857 -0.24243714 1.6010001 1.7983195e-38
0.1082581 -0.24243714 1.6010001 1.7614413e-38
0.11130763 -0.24243714 1.6010001 1.7154151e-38
0.11435714 -0.24243714 1.6010001 1.7338542e-38
0.072335243 -0.24163048 1.6160001 1.5767283e-38
0.075413339 -0.24163048 1.6160001 1.7148737e-38
0.099109523 -0.23938763 1.6010001 1.8535284e-38
0.10215905 -0.23938763 1.6010001 1.8443089e-38
0.10520857 -0.23938763 1.6010001 1.7982839e-38
0.1082581 -0.23938763 1.6010001 1.7706252e-38
0.11130763 -0.23938763 1.6010001 1.7153432e-38
0.11435714 -0.23938763 1.6010001 1.7245627e-38
0.075413339 -0.23855239 1.6160001 1.5398818e-38
0.099109523 -0.23633811 1.6010001 1.7523303e-38
0.10215905 -0.23633811 1.6010001 1.779989e-38
0.10520857 -0.23633811 1.6010001 1.7706255e-38
0.1082581 -0.23633811 1.6010001 1.7521864e-38
0.11130763 -0.23633811 1.6010001 1.7336744e-38
0.11435714 -0.23633811 1.6010001 1.7613331e-38
0.1204562 -0.23633811 1.6010001 1.6138201e-38
0.075413339 -0.23547429 1.6160001 1.4752355e-38
0.099109523 -0.23328859 1.6010001 1.853565e-38
0.10215905 -0.23328859 1.6010001 1.853565e-38
0.10520857 -0.23328859 1.6010001 1.7982479e-38
0.1082581 -0.23328859 1.6010001 1.7521501e-38
0.11130763 -0.23328859 1.6010001 1.7613331e-38
0.11435714 -0.23328859 1.6010001 1.8074309e-38
0.090410486 -0.23138954 1.6090001 1.8072511e-38
0.099109523 -0.23023905 1.6010001 1.8167587e-38
0.10215905 -0.23023905 1.6010001 1.8259782e-38
0.10520857 -0.23023905 1.6010001 1.8166152e-38
0.1082581 -0.23023905 1.6010001 1.7705173e-38
0.11130763 -0.23023905 1.6010001 1.7705527e-38
0.078880005 -0.23045334 1.6240001 1.5767929e-38
0.081569523 -0.2293181 1.6160001 1.5766194e-38
0.096060008 -0.22718953 1.6010001 1.9088461e-38
0.099109523 -0.22718953 1.6010001 1.8903707e-38
0.10215905 -0.22718953 1.6010001 1.8811511e-38
0.10520857 -0.22718953 1.6010001 1.8719313e-38
0.1082581 -0.22718953 1.6010001 1.8166139e-38
0.11130763 -0.22718953 1.6010001 1.7798082e-38
0.078880005 -0.22736001 1.6240001 1.595198e-38
0.081569523 -0.22623999 1.6160001 1.5952368e-38
0.099109523 -0.22414002 1.6010001 1.8442013e-38
0.10215905 -0.22414002 1.6010001 1.8442013e-38
0.10520857 -0.22414002 1.6010001 1.8350183e-38
0.1082581 -0.22414002 1.6010001 1.7704813e-38
0.11130763 -0.22414002 1.6010001 1.6785012e-38
0.078880005 -0.22426668 1.6240001 1.7425687e-38
0.081569523 -0.22316191 1.6160001 1.6965791e-38
0.084647626 -0.22316191 1.6160001 1.761116e-38
0.087345719 -0.22219524 1.6090001 1.706017e-38
0.090410486 -0.22219524 1.6090001 1.3095758e-38
0.099109523 -0.22109048 1.6010001 1.3008604e-38
0.10215905 -0.22109048 1.6010001 1.2732017e-38
0.10520857 -0.22109048 1.6010001 1.3561427e-38
0.1082581 -0.22109048 1.6010001 1.2823862e-38
0.11130763 -0.22109048 1.6010001 1.3100071e-38
0.087345719 -0.21913049 1.6090001 1.7060886e-38
0.090410486 -0.21913049 1.6090001 1.3465256e-38
0.099109523 -0.21804096 1.6010001 1.2734891e-38
0.10215905 -0.21804096 1.6010001 1.2734891e-38
0.10520857 -0.21804096 1.6010001 1.3655415e-38
0.1082581 -0.21804096 1.6010001 1.3378828e-38
0.11492857 -0.21913049 1.6090001 1.3928392e-38
0.12466287 -0.22008382 1.6160001 1.5309516e-38
0.087725714 -0.21700571 1.6160001 1.7889918e-38
0.096060008 -0.21499144 1.6010001 1.8075388e-38
0.099109523 -0.21499144 1.6010001 1.7983192e-38
0.10266953 -0.21606573 1.6090001 1.8259779e-38
0.10573429 -0.21606573 1.6090001 1.7706971e-38
0.10879906 -0.21606573 1.6090001 1.7430384e-38
0.11186381 -0.21606573 1.6090001 1.7705527e-38
0.11492857 -0.21606573 1.6090001 1.7705527e-38
0.085066676 -0.21498667 1.6240001 1.8073583e-38
0.087725714 -0.21392763 1.6160001 1.7981395e-38
0.090410486 -0.21300097 1.6090001 1.8165786e-38
0.099604771 -0.21300097 1.6090001 1.8350183e-38
0.10266953 -0.21300097 1.6090001 1.8718965e-38
0.10573429 -0.21300097 1.6090001 1.835019e-38
0.10879906 -0.21300097 1.6090001 1.8165799e-38
0.11186381 -0.21300097 1.6090001 1.7706608e-38
0.11492857 -0.21300097 1.6090001 1.7614413e-38
0.1210581 -0.21300097 1.6090001 1.7152726e-38
0.099604771 -0.2099362 1.6090001 1.899448e-38
0.10266953 -0.2099362 1.6090001 1.9271067e-38
