# .PCD v0.7 - Point Cloud Data file format
VERSION 0.7
FIELDS x y z rgb
SIZE 4 4 4 4
TYPE F F F F
COUNT 1 1 1 1
WIDTH 980
HEIGHT 1
VIEWPOINT 0 0 0 1 0 0 0
POINTS 980
DATA ascii
-0.087636195 0.06620001 0.66200006 1.3283057e-38
-0.086505719 0.066300005 0.66300005 1.3190861e-38
-0.08524286 0.066300005 0.66300005 1.3007189e-38
-0.084106669 0.066399999 0.66400003 1.3007189e-38
-0.082841903 0.066399999 0.66400003 1.2914626e-38
-0.081822857 0.066600002 0.66600001 1.2638039e-38
-0.080554284 0.066600002 0.66600001 1.3005024e-38
-0.079880953 0.067100003 0.671 1.2820632e-38
-0.078720003 0.067200005 0.67200005 1.3096486e-38
-0.077440001 0.067200005 0.67200005 1.2912095e-38
-0.076386668 0.067400001 0.67400002 1.1255092e-38
-0.07532572 0.067600004 0.67600006 7.4750711e-39
-0.074038103 0.067600004 0.67600006 7.2881589e-39
-0.072965719 0.0678 0.67800003 6.4583982e-39
-0.071780004 0.067900002 0.67900002 7.7433763e-39
-0.070798099 0.0682 0.68200004 8.573137e-39
-0.069499053 0.0682 0.68200004 8.0231904e-39
-0.14207143 0.068785712 0.67500001 7.4685719e-39
-0.13995144 0.068378091 0.671 4.615517e-39
-0.13867332 0.068378091 0.671 6.7360165e-39
-0.13719048 0.068276189 0.67000002 7.9334288e-39
-0.13550858 0.068072386 0.66800004 9.4085589e-39
-0.1342362 0.068072386 0.66800004 1.0882286e-38
-0.13276477 0.067970477 0.66700006 1.1712047e-38
-0.13129714 0.067868568 0.66600001 1.1896483e-38
-0.12963811 0.067664765 0.66400003 1.2726244e-38
-0.12818 0.067562856 0.66300005 1.2635143e-38
-0.1265343 0.067359053 0.66100001 1.2635143e-38
-0.12527524 0.067359053 0.66100001 1.2359644e-38
-0.12401619 0.067359053 0.66100001 1.2636231e-38
-0.12238572 0.067155235 0.65900004 1.2728437e-38
-0.12113048 0.067155235 0.65900004 1.3189415e-38
-0.11987524 0.067155235 0.65900004 1.2914253e-38
-0.11898 0.067359053 0.66100001 1.3006449e-38
-0.11772095 0.067359053 0.66100001 1.3097938e-38
-0.11610953 0.067155235 0.65900004 1.3374525e-38
-0.11485429 0.067155235 0.65900004 1.3466358e-38
-0.11359905 0.067155235 0.65900004 1.3558553e-38
-0.11234381 0.067155235 0.65900004 1.3650393e-38
-0.11108857 0.067155235 0.65900004 1.3834784e-38
-0.10983334 0.067155235 0.65900004 1.3834784e-38
-0.10841334 0.06705334 0.65800005 1.4019176e-38
-0.10716 0.06705334 0.65800005 1.3743675e-38
-0.10590667 0.06705334 0.65800005 1.3743675e-38
-0.10465334 0.06705334 0.65800005 1.3744035e-38
-0.10340001 0.06705334 0.65800005 1.3744035e-38
-0.10214667 0.06705334 0.65800005 1.3744038e-38
-0.10089334 0.06705334 0.65800005 1.3836233e-38
-0.09979143 0.067155235 0.65900004 1.3744038e-38
-0.098536193 0.067155235 0.65900004 1.3744038e-38
-0.097280957 0.067155235 0.65900004 1.3744035e-38
-0.09602572 0.067155235 0.65900004 1.383623e-38
-0.094770476 0.067155235 0.65900004 1.3836585e-38
-0.093799047 0.067359053 0.66100001 1.3744389e-38
-0.092539996 0.067359053 0.66100001 1.3744387e-38
-0.091280952 0.067359053 0.66100001 1.3652191e-38
-0.090021908 0.067359053 0.66100001 1.3467802e-38
-0.088897154 0.067460962 0.66200006 1.3375607e-38
-0.087768577 0.067562856 0.66300005 1.3375607e-38
-0.086505719 0.067562856 0.66300005 1.3191216e-38
-0.08524286 0.067562856 0.66300005 1.3375607e-38
-0.084106669 0.067664765 0.66400003 1.3375607e-38
-0.08309143 0.067868568 0.66600001 1.3558551e-38
-0.081822857 0.067868568 0.66600001 1.3189768e-38
-0.080554284 0.067868568 0.66600001 1.2912828e-38
-0.079880953 0.068378091 0.671 1.2175263e-38
-0.078720003 0.068480007 0.67200005 1.1990862e-38
-0.077440001 0.068480007 0.67200005 1.1253297e-38
-0.076386668 0.068683811 0.67400002 1.0332394e-38
-0.07532572 0.068887629 0.67600006 6.0913954e-39
-0.074038103 0.068887629 0.67600006 7.5654689e-39
-0.072965719 0.069091432 0.67800003 8.3952295e-39
-0.07188572 0.069295242 0.68000001 8.3912793e-39
-0.070798099 0.069499053 0.68200004 9.0366487e-39
-0.069600955 0.069600955 0.68300003 9.2217434e-39
-0.13995144 0.069656193 0.671 4.6165708e-39
-0.13867332 0.069656193 0.671 6.552679e-39
-0.13719048 0.069552377 0.67000002 7.3806418e-39
-0.1359143 0.069552377 0.67000002 8.6713806e-39
-0.1342362 0.069344766 0.66800004 8.6739072e-39
-0.13276477 0.069240957 0.66700006 1.0333429e-38
-0.13129714 0.069137141 0.66600001 1.1527325e-38
-0.12963811 0.068929531 0.66400003 1.2541477e-38
-0.12837334 0.068929531 0.66400003 1.2083385e-38
-0.1265343 0.068618096 0.66100001 1.2544364e-38
-0.12527524 0.068618096 0.66100001 1.2452909e-38
-0.12401619 0.068618096 0.66100001 1.2452909e-38
-0.12275714 0.068618096 0.66100001 1.2361074e-38
-0.12113048 0.068410479 0.65900004 1.2637661e-38
-0.11987524 0.068410479 0.65900004 1.2821348e-38
-0.11898 0.068618096 0.66100001 1.3097935e-38
-0.11772095 0.068618096 0.66100001 1.3007172e-38
-0.11610953 0.068410479 0.65900004 1.3191563e-38
-0.11485429 0.068410479 0.65900004 1.3283043e-38
-0.11359905 0.068410479 0.65900004 1.3375238e-38
-0.11234381 0.068410479 0.65900004 1.3467437e-38
-0.11108857 0.068410479 0.65900004 1.3651828e-38
-0.10983334 0.068410479 0.65900004 1.3927336e-38
-0.10841334 0.06830667 0.65800005 1.3927336e-38
-0.10716 0.06830667 0.65800005 1.374367e-38
-0.10590667 0.06830667 0.65800005 1.3835866e-38
-0.10465334 0.06830667 0.65800005 1.3835866e-38
-0.10355715 0.068410479 0.65900004 1.3835866e-38
-0.10230191 0.068410479 0.65900004 1.383587e-38
-0.10104667 0.068410479 0.65900004 1.3928066e-38
-0.09979143 0.068410479 0.65900004 1.3744035e-38
-0.098536193 0.068410479 0.65900004 1.3744035e-38
-0.097280957 0.068410479 0.65900004 1.3744035e-38
-0.09602572 0.068410479 0.65900004 1.383623e-38
-0.094770476 0.068410479 0.65900004 1.3652554e-38
-0.093799047 0.068618096 0.66100001 1.3652554e-38
-0.092539996 0.068618096 0.66100001 1.3652194e-38
-0.091280952 0.068618096 0.66100001 1.3652194e-38
-0.090021908 0.068618096 0.66100001 1.3559998e-38
-0.088897154 0.068721905 0.66200006 1.3375607e-38
-0.087768577 0.068825722 0.66300005 1.3190861e-38
-0.086505719 0.068825722 0.66300005 1.3098665e-38
-0.085371435 0.068929531 0.66400003 1.3190861e-38
-0.084106669 0.068929531 0.66400003 1.3098665e-38
-0.08309143 0.069137141 0.66600001 1.3006093e-38
-0.081822857 0.069137141 0.66600001 1.2821702e-38
-0.080554284 0.069137141 0.66600001 1.1716446e-38
-0.079880953 0.069656193 0.671 1.0886685e-38
-0.078720003 0.06976001 0.67200005 1.1068903e-38
-0.077440001 0.06976001 0.67200005 1.1161098e-38
-0.076386668 0.06996762 0.67400002 1.0423166e-38
-0.07532572 0.070175245 0.67600006 8.1182755e-39
-0.074038103 0.070175245 0.67600006 8.3945093e-39
-0.073073335 0.070486665 0.67900002 8.5789005e-39
-0.072097145 0.070798099 0.68200004 8.3934303e-39
-0.071005717 0.071005717 0.68400002 9.4997778e-39
-0.069702856 0.071005717 0.68400002 9.9618098e-39
-0.14057714 0.07125143 0.67400002 6.0895807e-39
-0.13888 0.071040004 0.67200005 6.6427545e-39
-0.13739523 0.070934288 0.671 6.4605338e-39
-0.1359143 0.070828572 0.67000002 7.8434683e-39
-0.1346381 0.070828572 0.67000002 8.3965916e-39
-0.13276477 0.070511431 0.66700006 8.5809829e-39
-0.13129714 0.070405714 0.66600001 8.7646735e-39
-0.13002858 0.070405714 0.66600001 9.3178473e-39
-0.12837334 0.070194289 0.66400003 9.22816e-39
-0.12672572 0.069982864 0.66200006 1.0795486e-38
-0.12527524 0.069877148 0.66100001 1.1806085e-38
-0.12401619 0.069877148 0.66100001 1.2082672e-38
-0.12275714 0.069877148 0.66100001 1.2729098e-38
-0.12113048 0.069665715 0.65900004 1.3097881e-38
-0.11987524 0.069665715 0.65900004 1.3833333e-38
-0.11898 0.069877148 0.66100001 1.4202115e-38
-0.11772095 0.069877148 0.66100001 1.3926244e-38
-0.11646191 0.069877148 0.66100001 1.401844e-38
-0.11520286 0.069877148 0.66100001 1.4019163e-38
-0.11359905 0.069665715 0.65900004 1.4111359e-38
-0.11234381 0.069665715 0.65900004 1.4111724e-38
-0.11108857 0.069665715 0.65900004 1.420392e-38
-0.10983334 0.069665715 0.65900004 1.4203923e-38
-0.10841334 0.069559999 0.65800005 1.4111727e-38
-0.10716 0.069559999 0.65800005 1.3928062e-38
-0.10590667 0.069559999 0.65800005 1.3928062e-38
-0.10465334 0.069559999 0.65800005 1.3928412e-38
-0.10355715 0.069665715 0.65900004 1.3836216e-38
-0.10230191 0.069665715 0.65900004 1.3928062e-38
-0.10104667 0.069665715 0.65900004 1.4020257e-38
-0.09979143 0.069665715 0.65900004 1.3928781e-38
-0.098536193 0.069665715 0.65900004 1.3836585e-38
-0.097576194 0.069877148 0.66100001 1.4020262e-38
-0.096317142 0.069877148 0.66100001 1.4020262e-38
-0.095058098 0.069877148 0.66100001 1.4111738e-38
-0.093799047 0.069877148 0.66100001 1.4019543e-38
-0.092539996 0.069877148 0.66100001 1.4204289e-38
-0.091280952 0.069877148 0.66100001 1.4112093e-38
-0.090158105 0.069982864 0.66200006 1.420356e-38
-0.089031436 0.070088573 0.66300005 1.3834777e-38
-0.087768577 0.070088573 0.66300005 1.3465642e-38
-0.086505719 0.070088573 0.66300005 1.2820272e-38
-0.085371435 0.070194289 0.66400003 1.245222e-38
-0.084106669 0.070194289 0.66400003 1.0884894e-38
-0.08309143 0.070405714 0.66600001 8.8594713e-39
-0.081822857 0.070405714 0.66600001 9.1360582e-39
-0.080675244 0.070511431 0.66700006 7.3854385e-39
-0.079880953 0.070934288 0.671 5.9103084e-39
-0.078720003 0.071040004 0.67200005 7.752737e-39
-0.077440001 0.071040004 0.67200005 8.6746933e-39
-0.076386668 0.07125143 0.67400002 9.8685674e-39
-0.07532572 0.071462862 0.67600006 8.3934373e-39
-0.074257143 0.071674287 0.67800003 8.0264526e-39
-0.073180959 0.07188572 0.68000001 8.3030395e-39
-0.072097145 0.072097145 0.68200004 9.2231881e-39
-0.071005717 0.072308578 0.68400002 9.8685576e-39
-0.069702856 0.072308578 0.68400002 1.0144043e-38
-0.13995144 0.072212376 0.671 6.1824798e-39
-0.13867332 0.072212376 0.671 6.2746754e-39
-0.13739523 0.072212376 0.671 5.8162406e-39
-0.13611715 0.072212376 0.671 7.5679576e-39
-0.1346381 0.07210476 0.67000002 8.0285378e-39
-0.13296382 0.071889527 0.66800004 8.0285378e-39
-0.1314943 0.071781911 0.66700006 8.5817143e-39
-0.13002858 0.071674287 0.66600001 8.67391e-39
-0.12837334 0.071459055 0.66400003 8.6749862e-39
-0.12672572 0.071243815 0.66200006 9.4125512e-39
-0.12546477 0.071243815 0.66200006 1.0607527e-38
-0.12401619 0.071136191 0.66100001 1.1437287e-38
-0.12275714 0.071136191 0.66100001 1.1990098e-38
-0.1214981 0.071136191 0.66100001 1.2727663e-38
-0.12023905 0.071136191 0.66100001 1.2360348e-38
-0.11898 0.071136191 0.66100001 1.3005717e-38
-0.11772095 0.071136191 0.66100001 1.3006068e-38
-0.11646191 0.071136191 0.66100001 1.3651437e-38
-0.11520286 0.071136191 0.66100001 1.374328e-38
-0.11359905 0.070920952 0.65900004 1.3835475e-38
-0.11234381 0.070920952 0.65900004 1.4112065e-38
-0.11108857 0.070920952 0.65900004 1.4112065e-38
-0.10983334 0.070920952 0.65900004 1.4112065e-38
-0.10841334 0.070813335 0.65800005 1.4112065e-38
-0.10716 0.070813335 0.65800005 1.3928768e-38
-0.10590667 0.070813335 0.65800005 1.3928768e-38
-0.10465334 0.070813335 0.65800005 1.3836935e-38
-0.10355715 0.070920952 0.65900004 1.374474e-38
-0.10230191 0.070920952 0.65900004 1.3652191e-38
-0.10104667 0.070920952 0.65900004 1.3744387e-38
-0.09979143 0.070920952 0.65900004 1.3744742e-38
-0.098835237 0.071136191 0.66100001 1.3652547e-38
-0.097576194 0.071136191 0.66100001 1.3928415e-38
-0.096317142 0.071136191 0.66100001 1.4112806e-38
-0.095058098 0.071136191 0.66100001 1.4204639e-38
-0.093799047 0.071136191 0.66100001 1.4204639e-38
-0.092539996 0.071136191 0.66100001 1.4204286e-38
-0.091419049 0.071243815 0.66200006 1.3743308e-38
-0.090158105 0.071243815 0.66200006 1.3559283e-38
-0.089031436 0.071351431 0.66300005 1.3374892e-38
-0.087768577 0.071351431 0.66300005 1.2544764e-38
-0.086636193 0.071459055 0.66400003 1.2452569e-38
-0.085371435 0.071459055 0.66400003 1.2360363e-38
-0.084360003 0.071674287 0.66600001 1.0516451e-38
-0.08309143 0.071674287 0.66600001 8.9509299e-39
-0.081945717 0.071781911 0.66700006 9.0431255e-39
-0.080675244 0.071781911 0.66700006 7.1091781e-39
-0.079880953 0.072212376 0.671 6.8325912e-39
-0.078720003 0.072320007 0.67200005 8.3977561e-39
-0.077440001 0.072320007 0.67200005 9.5962993e-39
-0.076386668 0.072535239 0.67400002 1.1525215e-38
-0.07532572 0.072750486 0.67600006 8.8515414e-39
-0.074257143 0.072965719 0.67800003 7.9324521e-39
-0.073180959 0.073180959 0.68000001 8.8544084e-39
-0.072308578 0.073611431 0.68400002 1.0235179e-38
-0.071005717 0.073611431 0.68400002 9.7742011e-39
-0.069702856 0.073611431 0.68400002 9.7734682e-39
-0.13995144 0.073490478 0.671 7.5636262e-39
-0.13867332 0.073490478 0.671 7.8402131e-39
-0.13739523 0.073490478 0.671 7.5650765e-39
-0.13611715 0.073490478 0.671 7.3806853e-39
-0.1346381 0.073380955 0.67000002 7.56578e-39
-0.13296382 0.073161907 0.66800004 8.1189537e-39
-0.1314943 0.073052391 0.66700006 8.1204027e-39
-0.13022383 0.073052391 0.66700006 8.8579677e-39
-0.12876 0.07294286 0.66600001 9.0427093e-39
-0.12691715 0.07261429 0.66300005 9.2271006e-39
-0.12546477 0.072504766 0.66200006 9.0434282e-39
-0.12420382 0.072504766 0.66200006 9.4122107e-39
-0.12275714 0.072395235 0.66100001 9.5966048e-39
-0.1214981 0.072395235 0.66100001 9.4122135e-39
-0.12023905 0.072395235 0.66100001 9.1363651e-39
-0.11898 0.072395235 0.66100001 9.9661258e-39
-0.11772095 0.072395235 0.66100001 1.0518921e-38
-0.11646191 0.072395235 0.66100001 1.0795508e-38
-0.11520286 0.072395235 0.66100001 1.1072098e-38
-0.11359905 0.072176196 0.65900004 1.1256489e-38
-0.11234381 0.072176196 0.65900004 1.1348334e-38
-0.11108857 0.072176196 0.65900004 1.1348334e-38
-0.10983334 0.072176196 0.65900004 1.1255795e-38
-0.1085781 0.072176196 0.65900004 1.2546534e-38
-0.10716 0.072066672 0.65800005 1.3836191e-38
-0.10590667 0.072066672 0.65800005 1.4020582e-38
-0.10481239 0.072176196 0.65900004 1.4111712e-38
-0.10355715 0.072176196 0.65900004 1.3742929e-38
-0.10261238 0.072395235 0.66100001 1.3742576e-38
-0.10135334 0.072395235 0.66100001 1.3373794e-38
-0.10009428 0.072395235 0.66100001 1.3742929e-38
-0.098835237 0.072395235 0.66100001 1.2820973e-38
-0.097723819 0.072504766 0.66200006 1.3558188e-38
-0.096462868 0.072504766 0.66200006 1.3650383e-38
-0.09520191 0.072504766 0.66200006 1.3558541e-38
-0.093940958 0.072504766 0.66200006 1.3742932e-38
-0.092680007 0.072504766 0.66200006 1.2913531e-38
-0.091557153 0.07261429 0.66300005 1.1438401e-38
-0.090294287 0.07261429 0.66300005 1.1253326e-38
-0.089031436 0.07261429 0.66300005 1.0607957e-38
-0.087900959 0.072723806 0.66400003 8.1176155e-39
-0.086636193 0.072723806 0.66400003 7.1034636e-39
-0.085371435 0.072723806 0.66400003 8.6721822e-39
-0.084360003 0.07294286 0.66600001 1.0055117e-38
-0.08309143 0.07294286 0.66600001 1.0054763e-38
-0.081945717 0.073052391 0.66700006 9.7781766e-39
-0.080675244 0.073052391 0.66700006 1.1716032e-38
-0.080000006 0.073600002 0.67200005 1.3098967e-38
-0.078720003 0.073600002 0.67200005 1.3740421e-38
-0.077670477 0.073819049 0.67400002 1.3463834e-38
-0.076386668 0.073819049 0.67400002 1.1527029e-38
-0.07532572 0.074038103 0.67600006 9.9597036e-39
-0.074257143 0.074257143 0.67800003 9.3168187e-39
-0.073396191 0.074695244 0.68200004 9.5934056e-39
-0.072308578 0.074914292 0.68400002 9.8692764e-39
-0.071005717 0.074914292 0.68400002 9.4082983e-39
-0.069702856 0.074914292 0.68400002 9.4061375e-39
-0.13888 0.074880004 0.67200005 8.3937274e-39
-0.1376 0.074880004 0.67200005 8.3026416e-39
-0.13632001 0.074880004 0.67200005 7.8416634e-39
-0.13483904 0.074768573 0.671 7.3813887e-39
-0.13336191 0.074657142 0.67000002 8.2111494e-39
-0.13169144 0.074434288 0.66800004 8.1196824e-39
-0.13041905 0.074434288 0.66800004 8.6728562e-39
-0.12895335 0.074322864 0.66700006 9.0427093e-39
-0.12749143 0.074211434 0.66600001 9.3192962e-39
-0.1256543 0.073877148 0.66300005 9.2281852e-39
-0.12439144 0.073877148 0.66300005 9.1359895e-39
-0.12312857 0.073877148 0.66300005 9.5047693e-39
-0.12168191 0.073765725 0.66200006 9.4125736e-39
-0.12042096 0.073765725 0.66200006 9.3214626e-39
-0.11916001 0.073765725 0.66200006 9.7824408e-39
-0.11789906 0.073765725 0.66200006 1.0150858e-38
-0.11646191 0.073654287 0.66100001 1.0335249e-38
-0.11520286 0.073654287 0.66100001 1.0702959e-38
-0.11394381 0.073654287 0.66100001 1.0610764e-38
-0.11234381 0.073431432 0.65900004 1.0518574e-38
-0.11108857 0.073431432 0.65900004 1.0518574e-38
-0.10983334 0.073431432 0.65900004 1.0703315e-38
-0.1085781 0.073431432 0.65900004 1.2362837e-38
-0.10732286 0.073431432 0.65900004 1.3374866e-38
-0.10606763 0.073431432 0.65900004 1.328267e-38
-0.10481239 0.073431432 0.65900004 1.3189035e-38
-0.10387143 0.073654287 0.66100001 1.3373426e-38
-0.10261238 0.073654287 0.66100001 1.4018067e-38
-0.10150667 0.073765725 0.66200006 1.4202458e-38
-0.10024572 0.073765725 0.66200006 1.4386859e-38
-0.098984763 0.073765725 0.66200006 1.374149e-38
-0.097723819 0.073765725 0.66200006 1.3926247e-38
-0.096462868 0.073765725 0.66200006 1.3280878e-38
-0.09520191 0.073765725 0.66200006 1.0520401e-38
-0.094082862 0.073877148 0.66300005 1.0796988e-38
-0.092820004 0.073877148 0.66300005 1.0977429e-38
-0.091557153 0.073877148 0.66300005 1.0332059e-38
-0.090430476 0.073988572 0.66400003 1.0239162e-38
-0.089165725 0.073988572 0.66400003 9.2250098e-39
-0.087900959 0.073988572 0.66400003 9.0362886e-39
-0.086636193 0.073988572 0.66400003 9.4972667e-39
-0.085628577 0.074211434 0.66600001 1.0050803e-38
-0.084360003 0.074211434 0.66600001 1.2263499e-38
-0.083216198 0.074322864 0.66700006 1.254226e-38
-0.082068577 0.074434288 0.66800004 1.2450065e-38
-0.081038095 0.074657142 0.67000002 1.3003925e-38
-0.080000006 0.074880004 0.67200005 1.3464903e-38
-0.078954287 0.075102858 0.67400002 1.3373061e-38
-0.077670477 0.075102858 0.67400002 1.2266713e-38
-0.076386668 0.075102858 0.67400002 9.7803276e-39
-0.07532572 0.07532572 0.67600006 9.4115451e-39
-0.074695244 0.07599429 0.68200004 9.8692708e-39
-0.073396191 0.07599429 0.68200004 9.7770752e-39
-0.072308578 0.076217145 0.68400002 9.4093815e-39
-0.071317144 0.07655143 0.68700004 9.040599e-39
-0.070008576 0.07655143 0.68700004 9.4986806e-39
-0.068700001 0.07655143 0.68700004 9.406485e-39
-0.13929334 0.076386668 0.67400002 8.1178593e-39
-0.13800952 0.076386668 0.67400002 8.7618246e-39
-0.13672572 0.076386668 0.67400002 1.0605737e-38
-0.13544191 0.076386668 0.67400002 1.0236936e-38
-0.13356096 0.076046668 0.671 9.4993715e-39
-0.13208571 0.075933337 0.67000002 7.9356611e-39
-0.13041905 0.075706668 0.66800004 7.5668786e-39
-0.12914667 0.075706668 0.66800004 8.1221907e-39
-0.12749143 0.075479999 0.66600001 8.3987776e-39
-0.12584381 0.075253338 0.66400003 8.5828284e-39
-0.12439144 0.075139999 0.66300005 8.9516109e-39
-0.12312857 0.075139999 0.66300005 9.4125764e-39
-0.12168191 0.075026676 0.66200006 9.781359e-39
-0.12042096 0.075026676 0.66200006 9.8728385e-39
-0.11934 0.075139999 0.66300005 1.0333817e-38
-0.11789906 0.075026676 0.66200006 1.0518921e-38
-0.11646191 0.074913338 0.66100001 1.0795508e-38
-0.11520286 0.074913338 0.66100001 1.0703678e-38
-0.11394381 0.074913338 0.66100001 1.0703678e-38
-0.11268476 0.074913338 0.66100001 1.0978836e-38
-0.11142571 0.074913338 0.66100001 1.0794444e-38
-0.11016667 0.074913338 0.66100001 1.0243066e-38
-0.10890763 0.074913338 0.66100001 1.1902587e-38
-0.10764857 0.074913338 0.66100001 1.3466695e-38
-0.10638952 0.074913338 0.66100001 1.3190109e-38
-0.10513048 0.074913338 0.66100001 8.2148488e-39
-0.10402858 0.075026676 0.66200006 7.2928925e-39
-0.10276763 0.075026676 0.66200006 7.8470878e-39
-0.10150667 0.075026676 0.66200006 1.0059783e-38
-0.10039715 0.075139999 0.66300005 7.6634575e-39
-0.099134296 0.075139999 0.66300005 7.0180881e-39
-0.097871438 0.075139999 0.66300005 6.92624e-39
-0.096608579 0.075139999 0.66300005 6.2808705e-39
-0.095345721 0.075139999 0.66300005 7.1066291e-39
-0.094082862 0.075139999 0.66300005 6.8300422e-39
-0.09296 0.075253338 0.66400003 8.0282477e-39
-0.091695242 0.075253338 0.66400003 8.3970302e-39
-0.090430476 0.075253338 0.66400003 9.4093941e-39
-0.089165725 0.075253338 0.66400003 9.685981e-39
-0.088165708 0.075479999 0.66600001 1.1805359e-38
-0.08689715 0.075479999 0.66600001 1.2542924e-38
-0.085628577 0.075479999 0.66600001 1.3001438e-38
-0.084486671 0.075593337 0.66700006 1.4753155e-38
-0.083340958 0.075706668 0.66800004 1.355534e-38
-0.082314283 0.075933337 0.67000002 1.2633384e-38
-0.081159048 0.076046668 0.671 9.5945406e-39
-0.080000006 0.076159999 0.67200005 8.76478e-39
-0.078954287 0.076386668 0.67400002 5.6322866e-39
-0.077670477 0.076386668 0.67400002 5.6322866e-39
-0.076500006 0.076500006 0.67500001 8.9494431e-39
-0.075548574 0.076840006 0.67800003 9.6870081e-39
-0.074914292 0.077520005 0.68400002 9.8696267e-39
-0.073611431 0.077520005 0.68400002 9.7774311e-39
-0.072520003 0.077746667 0.68600005 9.3157467e-39
-0.071317144 0.077860005 0.68700004 9.1313555e-39
-0.070008576 0.077860005 0.68700004 9.3149984e-39
-0.068700001 0.077860005 0.68700004 9.407194e-39
-0.067489527 0.077973336 0.68800002 1.0051494e-38
-0.14141144 0.07813143 0.67800003 7.195903e-39
-0.13970669 0.077900954 0.67600006 7.4724899e-39
-0.13821429 0.077785715 0.67500001 8.8550096e-39
-0.13672572 0.077670477 0.67400002 1.0883313e-38
-0.13544191 0.077670477 0.67400002 1.0974507e-38
-0.13356096 0.077324763 0.671 9.9603552e-39
-0.13208571 0.077209525 0.67000002 8.8579831e-39
-0.13080953 0.077209525 0.67000002 8.397005e-39
-0.12914667 0.076979049 0.66800004 8.213327e-39
-0.12768286 0.076863818 0.66700006 8.213327e-39
-0.12622285 0.076748572 0.66600001 8.1218474e-39
-0.12457906 0.076518096 0.66400003 8.8594125e-39
-0.12312857 0.076402865 0.66300005 8.9519584e-39
-0.12186572 0.076402865 0.66300005 9.3207409e-39
-0.12060287 0.076402865 0.66300005 9.7813463e-39
-0.11934 0.076402865 0.66300005 1.0242324e-38
-0.11807715 0.076402865 0.66300005 1.0150867e-38
-0.1166381 0.07628762 0.66200006 1.0427454e-38
-0.11537715 0.07628762 0.66200006 1.0888069e-38
-0.11394381 0.076172382 0.66100001 1.0888069e-38
-0.11268476 0.076172382 0.66100001 1.0888069e-38
-0.11142571 0.076172382 0.66100001 1.0795874e-38
-0.11016667 0.076172382 0.66100001 1.0334896e-38
-0.10890763 0.076172382 0.66100001 1.1902221e-38
-0.10764857 0.076172382 0.66100001 1.319119e-38
-0.10638952 0.076172382 0.66100001 1.2914603e-38
-0.10528953 0.07628762 0.66200006 7.2975196e-39
-0.10402858 0.07628762 0.66200006 6.0067808e-39
-0.10276763 0.07628762 0.66200006 1.5918344e-39
-0.10150667 0.07628762 0.66200006 3.1591601e-39
-0.10039715 0.076402865 0.66300005 1.5860961e-39
-0.099134296 0.076402865 0.66300005 2.9690305e-39
-0.097871438 0.076402865 0.66300005 6.4627535e-39
-0.096608579 0.076402865 0.66300005 7.7534923e-39
-0.095345721 0.076402865 0.66300005 8.9480362e-39
-0.094224766 0.076518096 0.66400003 9.3168187e-39
-0.09296 0.076518096 0.66400003 1.0238072e-38
-0.091695242 0.076518096 0.66400003 1.0883441e-38
-0.090430476 0.076518096 0.66400003 1.2171677e-38
-0.089165725 0.076518096 0.66400003 1.1618503e-38
-0.088165708 0.076748572 0.66600001 1.1622433e-38
-0.08689715 0.076748572 0.66600001 1.1622433e-38
-0.085628577 0.076748572 0.66600001 1.1990512e-38
-0.084486671 0.076863818 0.66700006 1.2912468e-38
-0.083340958 0.076979049 0.66800004 1.2177048e-38
-0.082314283 0.077209525 0.67000002 1.0886309e-38
-0.081159048 0.077324763 0.671 7.1142368e-39
-0.080238096 0.077670477 0.67400002 6.7454542e-39
-0.078954287 0.077670477 0.67400002 4.8957669e-39
-0.077785715 0.077785715 0.67500001 6.6474839e-39
-0.076500006 0.077785715 0.67500001 1.0695419e-38
-0.075548574 0.07813143 0.67800003 1.0787615e-38
-0.074914292 0.078822859 0.68400002 9.7788731e-39
-0.073611431 0.078822859 0.68400002 9.5944818e-39
-0.072520003 0.079053335 0.68600005 9.040599e-39
-0.071317144 0.07916858 0.68700004 8.8562077e-39
-0.070008576 0.07916858 0.68700004 9.130254e-39
-0.068700001 0.07916858 0.68700004 9.6834278e-39
-0.067489527 0.079283811 0.68800002 1.0696138e-38
-0.14141144 0.079422861 0.67800003 7.9306066e-39
-0.13970669 0.079188578 0.67600006 5.0725421e-39
-0.13821429 0.079071432 0.67500001 6.2760235e-39
-0.13672572 0.078954287 0.67400002 9.4106595e-39
-0.13544191 0.078954287 0.67400002 1.0880867e-38
-0.13356096 0.07860285 0.671 1.2448192e-38
-0.13228285 0.07860285 0.671 1.1896136e-38
-0.13080953 0.07848572 0.67000002 1.1342962e-38
-0.12914667 0.078251429 0.66800004 1.0425309e-38
-0.12768286 0.078134291 0.66700006 9.4111569e-39
-0.12622285 0.078017138 0.66600001 8.6757499e-39
-0.12495428 0.078017138 0.66600001 8.4913586e-39
-0.12331429 0.077782862 0.66400003 8.6753743e-39
-0.12186572 0.077665716 0.66300005 8.5831787e-39
-0.12060287 0.077665716 0.66300005 8.676075e-39
-0.11934 0.077665716 0.66300005 9.3214444e-39
-0.11807715 0.077665716 0.66300005 9.5966244e-39
-0.1166381 0.077548578 0.66200006 9.9654069e-39
-0.11537715 0.077548578 0.66200006 1.0334543e-38
-0.1141162 0.077548578 0.66200006 1.0887716e-38
-0.11268476 0.077431425 0.66100001 1.0888067e-38
-0.11142571 0.077431425 0.66100001 1.0795871e-38
-0.11016667 0.077431425 0.66100001 1.0611485e-38
-0.10890763 0.077431425 0.66100001 1.1902224e-38
-0.10764857 0.077431425 0.66100001 1.3557799e-38
-0.10655048 0.077548578 0.66200006 1.4018778e-38
-0.10528953 0.077548578 0.66200006 1.1622442e-38
-0.10418572 0.077665716 0.66300005 1.1438051e-38
-0.10292286 0.077665716 0.66300005 1.1530612e-38
-0.10166001 0.077665716 0.66300005 1.116183e-38
-0.10039715 0.077665716 0.66300005 1.0977436e-38
-0.099134296 0.077665716 0.66300005 1.1161827e-38
-0.097871438 0.077665716 0.66300005 1.2359654e-38
-0.09675429 0.077782862 0.66400003 1.2912828e-38
-0.095489532 0.077782862 0.66400003 1.2819183e-38
-0.094224766 0.077782862 0.66400003 1.3187966e-38
-0.09296 0.077782862 0.66400003 1.3187976e-38
-0.091695242 0.077782862 0.66400003 1.3925541e-38
-0.090702854 0.078017138 0.66600001 1.2080579e-38
-0.089434281 0.078017138 0.66600001 1.014447e-38
-0.088165708 0.078017138 0.66600001 9.0423968e-39
-0.08689715 0.078017138 0.66600001 8.5814187e-39
-0.085757144 0.078134291 0.66700006 8.3044787e-39
-0.084613338 0.078251429 0.66800004 8.212283e-39
-0.083590478 0.07848572 0.67000002 9.8721028e-39
-0.082437143 0.07860285 0.671 1.0701864e-38
-0.081280008 0.078720003 0.67200005 1.0424279e-38
-0.080238096 0.078954287 0.67400002 9.5023226e-39
-0.079071432 0.079071432 0.67500001 7.9346466e-39
-0.077785715 0.079071432 0.67500001 8.9487985e-39
-0.076613337 0.079188578 0.67600006 1.032882e-38
-0.075659998 0.079540007 0.67900002 1.0881993e-38
-0.074476197 0.079657145 0.68000001 1.0054381e-38
-0.073611431 0.080125719 0.68400002 9.9621853e-39
-0.072520003 0.080360003 0.68600005 9.500138e-39
-0.071317144 0.080477148 0.68700004 9.3157467e-39
-0.070008576 0.080477148 0.68700004 9.7752731e-39
-0.068700001 0.080477148 0.68700004 1.005186e-38
-0.067391433 0.080477148 0.68700004 1.0420627e-38
-0.066082858 0.080477148 0.68700004 1.0697214e-38
-0.14182857 0.080952384 0.68000001 8.3915876e-39
-0.14012 0.080714293 0.67800003 5.533523e-39
-0.13821429 0.080357142 0.67500001 4.8920338e-39
-0.13672572 0.080238096 0.67400002 7.1969106e-39
-0.13544191 0.080238096 0.67400002 9.0387128e-39
-0.13376001 0.080000006 0.67200005 1.1527995e-38
-0.13228285 0.079880953 0.671 1.1989738e-38
-0.13080953 0.079761907 0.67000002 1.152876e-38
-0.12914667 0.079523817 0.66800004 1.0702271e-38
-0.12787428 0.079523817 0.66800004 9.8725106e-39
-0.12641239 0.079404771 0.66700006 9.4129646e-39
-0.12495428 0.079285711 0.66600001 9.0441821e-39
-0.12331429 0.079047628 0.66400003 8.8590719e-39
-0.12186572 0.078928575 0.66300005 8.7668763e-39
-0.12060287 0.078928575 0.66300005 8.8594125e-39
-0.11952001 0.079047628 0.66400003 9.3203906e-39
-0.11807715 0.078928575 0.66300005 9.3211095e-39
-0.11681429 0.078928575 0.66300005 9.7820876e-39
-0.11537715 0.07880953 0.66200006 9.8739203e-39
-0.1141162 0.07880953 0.66200006 1.0334898e-38
-0.11285525 0.07880953 0.66200006 1.061148e-38
-0.1115943 0.07880953 0.66200006 1.0519284e-38
-0.11033335 0.07880953 0.66200006 1.0703315e-38
-0.10907239 0.07880953 0.66200006 1.1809663e-38
-0.10781144 0.07880953 0.66200006 1.3189385e-38
-0.10655048 0.07880953 0.66200006 1.3650364e-38
-0.10544858 0.078928575 0.66300005 1.245219e-38
-0.10418572 0.078928575 0.66300005 1.1991212e-38
-0.10292286 0.078928575 0.66300005 1.3003206e-38
-0.10166001 0.078928575 0.66300005 1.2818815e-38
-0.10054857 0.079047628 0.66400003 1.2634429e-38
-0.099283814 0.079047628 0.66400003 1.2542234e-38
-0.098019049 0.079047628 0.66400003 1.3280522e-38
-0.09675429 0.079047628 0.66400003 1.3003935e-38
-0.095489532 0.079047628 0.66400003 1.1073224e-38
-0.094224766 0.079047628 0.66400003 1.1257616e-38
-0.09324 0.079285711 0.66600001 1.2084137e-38
-0.091971427 0.079285711 0.66600001 1.1530963e-38
-0.090702854 0.079285711 0.66600001 8.8612664e-39
-0.089434281 0.079285711 0.66600001 8.3080926e-39
-0.088298097 0.079404771 0.66700006 9.0423996e-39
-0.087027624 0.079404771 0.66700006 8.950204e-39
-0.085757144 0.079404771 0.66700006 7.5669192e-39
-0.084613338 0.079523817 0.66800004 8.3966799e-39
-0.083590478 0.079761907 0.67000002 1.1432984e-38
-0.082437143 0.079880953 0.671 1.2815918e-38
-0.081521906 0.080238096 0.67400002 1.364642e-38
-0.080238096 0.080238096 0.67400002 1.0235182e-38
-0.079071432 0.080357142 0.67500001 7.7509588e-39
-0.077900954 0.080476195 0.67600006 8.8573063e-39
-0.076613337 0.080476195 0.67600006 9.4093871e-39
-0.075771429 0.080952384 0.68000001 9.9625609e-39
-0.074476197 0.080952384 0.68000001 1.0146579e-38
-0.073611431 0.081428573 0.68400002 9.9621881e-39
-0.072520003 0.081666671 0.68600005 9.2249902e-39
-0.071317144 0.081785724 0.68700004 9.040599e-39
-0.070008576 0.081785724 0.68700004 9.8674631e-39
-0.068700001 0.081785724 0.68700004 9.8674631e-39
-0.14182857 0.082247622 0.68000001 9.0369542e-39
-0.14032666 0.08212667 0.67900002 4.8881508e-39
-0.13821429 0.081642851 0.67500001 3.6945851e-39
-0.13672572 0.081521906 0.67400002 3.6945851e-39
-0.13544191 0.081521906 0.67400002 4.4357262e-39
-0.13376001 0.081280008 0.67200005 6.7406015e-39
-0.13228285 0.081159048 0.671 9.9624614e-39
-0.13080953 0.081038095 0.67000002 1.1806374e-38
-0.12953334 0.081038095 0.67000002 1.208088e-38
-0.12787428 0.080796197 0.66800004 1.3095032e-38
-0.12641239 0.080675244 0.66700006 1.2267076e-38
-0.12495428 0.080554284 0.66600001 1.1898294e-38
-0.12331429 0.080312386 0.66400003 1.1623502e-38
-0.12204953 0.080312386 0.66400003 1.0701545e-38
-0.12078477 0.080312386 0.66400003 9.9647034e-39
-0.11952001 0.080312386 0.66400003 9.5037253e-39
-0.11825524 0.080312386 0.66400003 9.2289237e-39
-0.11681429 0.080191433 0.66300005 9.5977062e-39
-0.11555143 0.080191433 0.66300005 9.4136652e-39
-0.1141162 0.080070481 0.66200006 9.4136652e-39
-0.11285525 0.080070481 0.66200006 9.7827883e-39
-0.1115943 0.080070481 0.66200006 9.598397e-39
-0.11033335 0.080070481 0.66200006 8.955208e-39
-0.10907239 0.080070481 0.66200006 1.0245947e-38
-0.10781144 0.080070481 0.66200006 1.2913149e-38
-0.10655048 0.080070481 0.66200006 1.3558518e-38
-0.10544858 0.080191433 0.66300005 1.2358556e-38
-0.10418572 0.080191433 0.66300005 8.2097523e-39
-0.1030781 0.080312386 0.66400003 8.7647309e-39
-0.10181334 0.080312386 0.66400003 9.4101003e-39
-0.10054857 0.080312386 0.66400003 9.40975e-39
-0.099283814 0.080312386 0.66400003 8.4877937e-39
-0.098019049 0.080312386 0.66400003 8.3055773e-39
-0.09675429 0.080312386 0.66400003 9.3197292e-39
-0.095489532 0.080312386 0.66400003 8.0297135e-39
-0.094508573 0.080554284 0.66600001 7.9375178e-39
-0.09324 0.080554284 0.66600001 7.5669038e-39
-0.091971427 0.080554284 0.66600001 5.3542087e-39
-0.090702854 0.080554284 0.66600001 8.7668259e-39
-0.089568578 0.080675244 0.66700006 9.0434128e-39
-0.088298097 0.080675244 0.66700006 9.0427626e-39
-0.087158099 0.080796197 0.66800004 8.9505669e-39
-0.085885718 0.080796197 0.66800004 7.4747572e-39
-0.084866665 0.081038095 0.67000002 9.2264742e-39
-0.083715238 0.081159048 0.671 1.0331341e-38
-0.082560003 0.081280008 0.67200005 1.097671e-38
-0.081521906 0.081521906 0.67400002 1.014552e-38
-0.080357142 0.081642851 0.67500001 9.0391724e-39
-0.079071432 0.081642851 0.67500001 9.3175684e-39
-0.077900954 0.081763811 0.67600006 1.0516112e-38
-0.076840006 0.082005717 0.67800003 1.0884144e-38
-0.075771429 0.082247622 0.68000001 1.0238775e-38
-0.074476197 0.082247622 0.68000001 9.8692862e-39
-0.073611431 0.082731433 0.68400002 9.5926993e-39
-0.072520003 0.082973339 0.68600005 9.1327946e-39
-0.071317144 0.083094291 0.68700004 9.040599e-39
-0.070008576 0.083094291 0.68700004 9.3160872e-39
-0.068800002 0.083215237 0.68800002 9.5004785e-39
-0.067489527 0.083215237 0.68800002 1.0051494e-38
-0.14182857 0.083542861 0.68000001 8.5785194e-39
-0.14032666 0.083420001 0.67900002 4.7063029e-39
-0.13821429 0.082928576 0.67500001 4.4299865e-39
-0.13692857 0.082928576 0.67500001 4.1534038e-39
-0.13544191 0.082805723 0.67400002 1.1228324e-39
-0.1341581 0.082805723 0.67400002 2.3213644e-39
-0.13248 0.082560003 0.67200005 7.1047444e-39
-0.13100477 0.082437143 0.671 1.0331591e-38
-0.12953334 0.082314283 0.67000002 1.2262369e-38
-0.12787428 0.082068577 0.66800004 1.3368717e-38
-0.12641239 0.081945717 0.66700006 1.2726619e-38
-0.12514192 0.081945717 0.66700006 1.2726619e-38
-0.12368571 0.081822857 0.66600001 1.2176688e-38
-0.12204953 0.081577145 0.66400003 1.1531319e-38
-0.12078477 0.081577145 0.66400003 1.0701918e-38
-0.11952001 0.081577145 0.66400003 1.024094e-38
-0.11825524 0.081577145 0.66400003 9.7810409e-39
-0.11699048 0.081577145 0.66400003 9.5966496e-39
-0.11572572 0.081577145 0.66400003 9.6888228e-39
-0.11428858 0.081454292 0.66300005 9.9654097e-39
-0.11302572 0.081454292 0.66300005 1.0059391e-38
-0.11176286 0.081454292 0.66300005 9.3218255e-39
-0.11050001 0.081454292 0.66300005 8.0353999e-39
-0.10923715 0.081454292 0.66300005 9.9715082e-39
-0.10797429 0.081454292 0.66300005 1.2637654e-38
-0.10671143 0.081454292 0.66300005 1.3006436e-38
-0.10544858 0.081454292 0.66300005 1.2634429e-38
-0.10434286 0.081577145 0.66400003 9.5919735e-39
-0.1030781 0.081577145 0.66400003 1.0788709e-38
-0.10181334 0.081577145 0.66400003 1.0327731e-38
-0.10054857 0.081577145 0.66400003 1.0054403e-38
-0.099283814 0.081577145 0.66400003 9.1324471e-39
-0.098019049 0.081577145 0.66400003 6.6475049e-39
-0.097045712 0.081822857 0.66600001 6.5553092e-39
-0.095777147 0.081822857 0.66600001 6.1847275e-39
-0.094508573 0.081822857 0.66600001 7.3832707e-39
-0.09324 0.081822857 0.66600001 8.4831092e-39
-0.091971427 0.081822857 0.66600001 8.9440873e-39
-0.090839051 0.081945717 0.66700006 1.1526605e-38
-0.089568578 0.081945717 0.66700006 1.0973431e-38
-0.088430479 0.082068577 0.66800004 8.5832165e-39
-0.087419048 0.082314283 0.67000002 7.8456515e-39
-0.08614286 0.082314283 0.67000002 5.5436614e-39
-0.084993333 0.082437143 0.671 8.6783129e-39
-0.083715238 0.082437143 0.671 1.0792684e-38
-0.082560003 0.082560003 0.67200005 1.0147315e-38
-0.081642851 0.082928576 0.67500001 9.0420493e-39
-0.080357142 0.082928576 0.67500001 1.0148397e-38
-0.079071432 0.082928576 0.67500001 1.244862e-38
-0.077900954 0.083051436 0.67600006 1.2264229e-38
-0.076953337 0.083420001 0.67900002 1.1346206e-38
-0.07599429 0.083788574 0.68200004 1.0055467e-38
-0.074695244 0.083788574 0.68200004 9.5015799e-39
-0.073826671 0.084279999 0.68600005 9.3171886e-39
-0.072520003 0.084279999 0.68600005 9.317539e-39
-0.071317144 0.084402859 0.68700004 8.8565608e-39
-0.070008576 0.084402859 0.68700004 8.8551063e-39
-0.068800002 0.084525719 0.68800002 9.5004757e-39
-0.14182857 0.0848381 0.68000001 9.3142894e-39
-0.14032666 0.08471334 0.67900002 6.917203e-39
-0.13821429 0.084214285 0.67500001 3.6996942e-39
-0.13692857 0.084214285 0.67500001 1.3026078e-39
-0.13544191 0.084089532 0.67400002 6.6150256e-40
-0.13376001 0.083840005 0.67200005 5.6930833e-40
-0.13248 0.083840005 0.67200005 1.1217562e-39
-0.13100477 0.083715238 0.671 3.4266386e-39
-0.12953334 0.083590478 0.67000002 7.472134e-39
-0.12787428 0.083340958 0.66800004 1.0422394e-38
-0.1266019 0.083340958 0.66800004 1.2079095e-38
-0.12514192 0.083216198 0.66700006 1.3554225e-38
-0.12387145 0.083216198 0.66700006 1.3095405e-38
-0.12204953 0.082841903 0.66400003 1.3003209e-38
-0.12078477 0.082841903 0.66400003 1.2636229e-38
-0.11988 0.08309143 0.66600001 1.3097207e-38
-0.11861143 0.08309143 0.66600001 1.300573e-38
-0.11699048 0.082841903 0.66400003 1.1991578e-38
-0.11572572 0.082841903 0.66400003 1.144054e-38
-0.11446096 0.082841903 0.66400003 1.1256149e-38
-0.11302572 0.082717143 0.66300005 1.0337073e-38
-0.11176286 0.082717143 0.66300005 9.5073126e-39
-0.11050001 0.082717143 0.66300005 8.5882332e-39
-0.10940191 0.082841903 0.66400003 9.878972e-39
-0.10813715 0.082841903 0.66400003 1.2177404e-38
-0.10671143 0.082717143 0.66300005 1.2546187e-38
-0.10544858 0.082717143 0.66300005 1.2819181e-38
-0.10434286 0.082841903 0.66400003 9.8689205e-39
-0.1030781 0.082841903 0.66400003 9.9625553e-39
-0.10181334 0.082841903 0.66400003 1.0054751e-38
-0.10054857 0.082841903 0.66400003 1.1068206e-38
-0.099582858 0.08309143 0.66600001 1.226675e-38
-0.098314285 0.08309143 0.66600001 9.3190103e-39
-0.097045712 0.08309143 0.66600001 8.9502278e-39
-0.095777147 0.08309143 0.66600001 7.2896625e-39
-0.094508573 0.08309143 0.66600001 8.2116188e-39
-0.09324 0.08309143 0.66600001 9.1324443e-39
-0.092109531 0.083216198 0.66700006 9.3168355e-39
-0.090839051 0.083216198 0.66700006 1.0147302e-38
-0.08970286 0.083340958 0.66800004 1.0516085e-38
-0.088695243 0.083590478 0.67000002 1.0423887e-38
-0.087419048 0.083590478 0.67000002 1.0516082e-38
-0.08614286 0.083590478 0.67000002 1.2912761e-38
-0.084993333 0.083715238 0.671 1.3742521e-38
-0.083840005 0.083840005 0.67200005 1.3650033e-38
-0.082560003 0.083840005 0.67200005 1.3373446e-38
-0.081642851 0.084214285 0.67500001 1.3096856e-38
-0.080357142 0.084214285 0.67500001 1.3281248e-38
-0.079071432 0.084214285 0.67500001 1.2174567e-38
-0.07813143 0.084588572 0.67800003 1.1621393e-38
-0.076953337 0.08471334 0.67900002 1.1254003e-38
-0.07599429 0.08508762 0.68200004 1.0147656e-38
-0.074804768 0.085212387 0.68300003 9.4101003e-39
-0.073826671 0.085586667 0.68600005 9.3179047e-39
-0.072520003 0.085586667 0.68600005 9.3178949e-39
-0.071317144 0.085711427 0.68700004 9.041308e-39
-0.070008576 0.085711427 0.68700004 8.7636421e-39
-0.068800002 0.085836194 0.68800002 9.4090115e-39
-0.14224571 0.086386673 0.68200004 9.2220937e-39
-0.14053333 0.086133331 0.68000001 7.2859855e-39
-0.13821429 0.085500002 0.67500001 6.1857392e-39
-0.13692857 0.085500002 0.67500001 3.6042616e-39
-0.13544191 0.085373335 0.67400002 1.2129233e-39
-0.13376001 0.085120007 0.67200005 1.3973146e-39
-0.13248 0.085120007 0.67200005 6.6186129e-40
-0.13100477 0.084993333 0.671 1.0306382e-39
-0.12953334 0.084866665 0.67000002 2.5050844e-39
-0.12787428 0.084613338 0.66800004 5.9163228e-39
-0.1266019 0.084613338 0.66800004 1.0602909e-38
-0.12532952 0.084613338 0.66800004 1.2631213e-38
-0.12387145 0.084486671 0.66700006 1.2911011e-38
-0.12241714 0.084360003 0.66600001 1.2818815e-38
-0.12114857 0.084360003 0.66600001 1.2544046e-38
-0.11988 0.084360003 0.66600001 1.3005024e-38
-0.11861143 0.084360003 0.66600001 1.300538e-38
-0.11734285 0.084360003 0.66600001 1.2820988e-38
-0.11572572 0.084106669 0.66400003 1.1903335e-38
-0.11446096 0.084106669 0.66400003 1.1350162e-38
-0.11319619 0.084106669 0.66400003 1.070659e-38
-0.11193144 0.084106669 0.66400003 9.6924382e-39
-0.11066667 0.084106669 0.66400003 9.2311069e-39
-0.10940191 0.084106669 0.66400003 1.0245259e-38
-0.10813715 0.084106669 0.66400003 1.1992657e-38
-0.10687238 0.084106669 0.66400003 1.2453635e-38
-0.10560763 0.084106669 0.66400003 1.2728074e-38
-0.10434286 0.084106669 0.66400003 9.4090312e-39
-0.1030781 0.084106669 0.66400003 1.0606473e-38
-0.10181334 0.084106669 0.66400003 1.023769e-38
-0.10085143 0.084360003 0.66600001 1.0883072e-38
-0.099582858 0.084360003 0.66600001 1.0698681e-38
-0.098314285 0.084360003 0.66600001 7.0159273e-39
-0.097045712 0.084360003 0.66600001 7.1081229e-39
-0.095777147 0.084360003 0.66600001 7.7491763e-39
-0.094508573 0.084360003 0.66600001 9.6852845e-39
-0.09324 0.084360003 0.66600001 1.1344414e-38
-0.092109531 0.084486671 0.66700006 1.0053675e-38
-0.090975247 0.084613338 0.66800004 8.1215349e-39
-0.08970286 0.084613338 0.66800004 9.5044694e-39
-0.088695243 0.084866665 0.67000002 1.0974918e-38
-0.087549523 0.084993333 0.671 1.2265657e-38
-0.086271428 0.084993333 0.671 1.4016635e-38
-0.084993333 0.084993333 0.671 1.3832244e-38
-0.083840005 0.085120007 0.67200005 1.3097938e-38
-0.082805723 0.085373335 0.67400002 1.3005743e-38
-0.081642851 0.085500002 0.67500001 1.300574e-38
-0.080357142 0.085500002 0.67500001 1.2268175e-38
-0.079188578 0.085626669 0.67600006 1.0795212e-38
-0.07813143 0.085880004 0.67800003 1.0334234e-38
-0.077066667 0.086133331 0.68000001 1.0240587e-38
-0.076105714 0.086513333 0.68300003 9.8718044e-39
-0.074914292 0.08664 0.68400002 9.4101031e-39
-0.073826671 0.086893335 0.68600005 9.2257119e-39
-0.072520003 0.086893335 0.68600005 9.5926867e-39
-0.071317144 0.087020002 0.68700004 9.3160998e-39
-0.070110478 0.08714667 0.68800002 8.7629134e-39
-0.068800002 0.08714667 0.68800002 9.7770654e-39
-0.06778381 0.087526672 0.69100004 1.0328434e-38
-0.1424543 0.087814286 0.68300003 8.8551091e-39
-0.14094667 0.087685719 0.68200004 7.1955877e-39
-0.13882858 0.087171435 0.67800003 7.5658052e-39
-0.13753714 0.087171435 0.67800003 8.3033702e-39
-0.13564286 0.086785711 0.67500001 5.0805183e-39
-0.1341581 0.086657144 0.67400002 1.66928e-39
-0.13248 0.08640001 0.67200005 4.778638e-40
-0.13100477 0.086271428 0.671 8.4664632e-40
-0.12953334 0.08614286 0.67000002 5.7045319e-40
-0.12825714 0.08614286 0.67000002 1.9533876e-39
-0.1266019 0.085885718 0.66800004 5.0805603e-39
-0.12532952 0.085885718 0.66800004 6.1869079e-39
-0.12405715 0.085885718 0.66800004 1.0238059e-38
-0.12241714 0.085628577 0.66600001 1.2635145e-38
-0.12114857 0.085628577 0.66600001 1.2725217e-38
-0.11988 0.085628577 0.66600001 1.3554977e-38
-0.11861143 0.085628577 0.66600001 1.2821336e-38
-0.11734285 0.085628577 0.66600001 1.3282314e-38
-0.11607429 0.085628577 0.66600001 1.3007172e-38
-0.11446096 0.085371435 0.66400003 1.3375954e-38
-0.11319619 0.085371435 0.66400003 1.3100086e-38
-0.11193144 0.085371435 0.66400003 1.2915695e-38
-0.11066667 0.085371435 0.66400003 1.2914976e-38
-0.10940191 0.085371435 0.66400003 1.2085216e-38
-0.10813715 0.085371435 0.66400003 1.1901193e-38
-0.10687238 0.085371435 0.66400003 1.2269975e-38
-0.10560763 0.085371435 0.66400003 1.2085584e-38
-0.10434286 0.085371435 0.66400003 7.2914113e-39
-0.10338857 0.085628577 0.66600001 6.4645317e-39
-0.10212 0.085628577 0.66600001 6.3723361e-39
-0.10085143 0.085628577 0.66600001 8.5828508e-39
-0.099582858 0.085628577 0.66600001 8.8594377e-39
-0.098314285 0.085628577 0.66600001 9.2271706e-39
-0.097045712 0.085628577 0.66600001 9.87254e-39
-0.095777147 0.085628577 0.66600001 1.1254379e-38
-0.094650485 0.085757144 0.66700006 1.1623161e-38
-0.093380012 0.085757144 0.66700006 1.1806824e-38
-0.092109531 0.085757144 0.66700006 1.1899019e-38
-0.090975247 0.085885718 0.66800004 1.1437691e-38
-0.089971431 0.08614286 0.67000002 1.1345495e-38
-0.088827617 0.086271428 0.671 1.1896525e-38
-0.087549523 0.086271428 0.671 1.2080916e-38
-0.086271428 0.086271428 0.671 1.1436612e-38
-0.085120007 0.08640001 0.67200005 1.1344416e-38
-0.084089532 0.086657144 0.67400002 1.1807566e-38
-0.082805723 0.086657144 0.67400002 1.2084153e-38
-0.081642851 0.086785711 0.67500001 1.2268175e-38
-0.080357142 0.086785711 0.67500001 1.0977436e-38
-0.079188578 0.086914293 0.67600006 9.411908e-39
-0.07813143 0.087171435 0.67800003 9.0431255e-39
-0.077066667 0.08742857 0.68000001 1.0147312e-38
-0.076105714 0.087814286 0.68300003 9.8707254e-39
-0.074914292 0.087942861 0.68400002 9.5019428e-39
-0.073826671 0.08820001 0.68600005 9.3175516e-39
-0.072625719 0.08832857 0.68700004 9.5022862e-39
-0.071317144 0.08832857 0.68700004 9.2256993e-39
-0.070110478 0.088457145 0.68800002 9.5001254e-39
-0.069100007 0.088842861 0.69100004 9.9611035e-39
-0.06778381 0.088842861 0.69100004 1.0236236e-38
-0.14438668 0.089506678 0.68600005 1.0880163e-38
-0.14266287 0.089245714 0.68400002 9.5905133e-39
-0.14094667 0.088984765 0.68200004 7.2856226e-39
-0.13903333 0.088593334 0.67900002 8.3912092e-39
-0.13774 0.088593334 0.67900002 9.8663393e-39
-0.13584383 0.08820191 0.67600006 8.3033898e-39
-0.1341581 0.087940954 0.67400002 4.0623909e-39
-0.13248 0.087680012 0.67200005 6.6267404e-40
-0.13100477 0.087549523 0.671 5.7047841e-40
-0.12972666 0.087549523 0.671 6.6408095e-40
-0.12825714 0.087419048 0.67000002 2.0470154e-39
-0.12698095 0.087419048 0.67000002 1.0351406e-39
-0.12570477 0.087419048 0.67000002 8.5074932e-40
-0.12405715 0.087158099 0.66800004 6.1832827e-39
-0.12278477 0.087158099 0.66800004 9.6867167e-39
-0.12151238 0.087158099 0.66800004 1.3183287e-38
-0.12006001 0.087027624 0.66700006 1.4289635e-38
-0.11878953 0.087027624 0.66700006 1.3190121e-38
-0.11734285 0.08689715 0.66600001 1.3097926e-38
-0.11607429 0.08689715 0.66600001 1.3006093e-38
-0.11480572 0.08689715 0.66600001 1.3467071e-38
-0.11353715 0.08689715 0.66600001 1.3375591e-38
-0.11193144 0.086636193 0.66400003 1.3467787e-38
-0.11066667 0.086636193 0.66400003 1.3467434e-38
-0.10973143 0.08689715 0.66600001 1.3283043e-38
-0.10846286 0.08689715 0.66600001 1.2730237e-38
-0.10719428 0.08689715 0.66600001 1.2638042e-38
-0.10592572 0.08689715 0.66600001 1.1810799e-38
-0.10465714 0.08689715 0.66600001 9.6902998e-39
-0.10338857 0.08689715 0.66600001 8.9541571e-39
-0.10212 0.08689715 0.66600001 9.7839177e-39
-0.10085143 0.08689715 0.66600001 1.1254013e-38
-0.099582858 0.08689715 0.66600001 1.1899382e-38
-0.098314285 0.08689715 0.66600001 1.2175985e-38
-0.097045712 0.08689715 0.66600001 1.1899398e-38
-0.095920965 0.087027624 0.66700006 1.2359654e-38
-0.094650485 0.087027624 0.66700006 1.1529894e-38
-0.093380012 0.087027624 0.66700006 1.1254016e-38
-0.092247628 0.087158099 0.66800004 1.1714994e-38
-0.091247626 0.087419048 0.67000002 1.1622079e-38
-0.089971431 0.087419048 0.67000002 1.1622079e-38
-0.088827617 0.087549523 0.671 1.1621729e-38
-0.087549523 0.087549523 0.671 1.1160751e-38
-0.08640001 0.087680012 0.67200005 9.2271706e-39
-0.085373335 0.087940954 0.67400002 1.0794496e-38
-0.084089532 0.087940954 0.67400002 1.2267096e-38
-0.082928576 0.088071428 0.67500001 1.2267096e-38
-0.081642851 0.088071428 0.67500001 1.2175982e-38
-0.080357142 0.088071428 0.67500001 1.1069634e-38
-0.079188578 0.08820191 0.67600006 9.9629084e-39
-0.07813143 0.088462859 0.67800003 9.9629084e-39
-0.077066667 0.088723809 0.68000001 1.1158583e-38
-0.076105714 0.089115247 0.68300003 1.0513214e-38
-0.074914292 0.089245714 0.68400002 9.9614819e-39
-0.073934287 0.089637145 0.68700004 9.5926993e-39
-0.072625719 0.089637145 0.68700004 9.7770808e-39
-0.071420953 0.08976762 0.68800002 9.6848852e-39
-0.070314296 0.090028577 0.69000006 9.6845166e-39
-0.069100007 0.090159051 0.69100004 9.7767122e-39
-0.06778381 0.090159051 0.69100004 1.014404e-38
-0.067140952 0.091072381 0.69800001 1.0236236e-38
-0.14438668 0.090813339 0.68600005 1.1063829e-38
-0.14308001 0.090813339 0.68600005 9.4986806e-39
-0.14136 0.090548575 0.68400002 5.2576816e-39
-0.13964762 0.090283811 0.68200004 5.447098e-39
-0.13774 0.089886673 0.67900002 9.5037057e-39
-0.13624573 0.089754291 0.67800003 1.0237681e-38
-0.13435714 0.089357145 0.67500001 9.9610937e-39
-0.1328743 0.089224763 0.67400002 6.3719872e-39
-0.1312 0.088960007 0.67200005 2.4997707e-39
-0.12972666 0.088827617 0.671 6.6552989e-40
-0.12825714 0.088695243 0.67000002 1.8640731e-39
-0.12698095 0.088695243 0.67000002 1.6790807e-39
-0.12570477 0.088695243 0.67000002 2.9614621e-40
-0.12405715 0.088430479 0.66800004 8.4212993e-40
-0.12278477 0.088430479 0.66800004 2.2250644e-39
-0.12151238 0.088430479 0.66800004 6.9176402e-39
-0.12024 0.088430479 0.66800004 1.3094747e-38
-0.11878953 0.088298097 0.66700006 1.3925518e-38
-0.11751906 0.088298097 0.66700006 1.346454e-38
-0.11624859 0.088298097 0.66700006 1.2914253e-38
-0.11480572 0.088165708 0.66600001 1.319084e-38
-0.11353715 0.088165708 0.66600001 1.3190484e-38
-0.11226857 0.088165708 0.66600001 1.328268e-38
-0.111 0.088165708 0.66600001 1.3466711e-38
-0.10973143 0.088165708 0.66600001 1.3651102e-38
-0.10846286 0.088165708 0.66600001 1.3742589e-38
-0.10719428 0.088165708 0.66600001 1.2820632e-38
-0.10592572 0.088165708 0.66600001 1.2546559e-38
-0.10465714 0.088165708 0.66600001 1.2730951e-38
-0.10338857 0.088165708 0.66600001 1.2454351e-38
-0.10212 0.088165708 0.66600001 1.1624591e-38
