# .PCD v0.7 - Point Cloud Data file format
VERSION 0.7
FIELDS x y z rgb
SIZE 4 4 4 4
TYPE F F F F
COUNT 1 1 1 1
WIDTH 986
HEIGHT 1
VIEWPOINT 0 0 0 1 0 0 0
POINTS 986
DATA ascii
-0.048620004 0.083882868 0.56100005 2.1344219e-38
-0.047551431 0.083882868 0.56100005 2.1344219e-38
-0.046482861 0.083882868 0.56100005 2.1344219e-38
-0.045495242 0.084032387 0.56200004 2.1712996e-38
-0.044424765 0.084032387 0.56200004 2.1345677e-38
-0.043277148 0.083882868 0.56100005 2.1714459e-38
-0.042208575 0.083882868 0.56100005 2.1438235e-38
-0.041140001 0.083882868 0.56100005 2.1807018e-38
-0.040071432 0.083882868 0.56100005 2.1531905e-38
-0.039072383 0.084032387 0.56200004 2.1716296e-38
-0.033288572 0.085677139 0.57300001 2.3460092e-38
-0.024771428 0.086424761 0.57800001 2.2178405e-38
-0.020226667 0.085826673 0.574 2.1423249e-38
-0.019133333 0.085826673 0.574 2.1247449e-38
-0.01804 0.085826673 0.574 2.3464825e-38
-0.016946668 0.085826673 0.574 2.2000209e-38
-0.015880954 0.085976198 0.57500005 2.3478581e-38
-0.014811429 0.086125717 0.57600003 2.266105e-38
-0.013714286 0.086125717 0.57600003 2.2292268e-38
-0.012617144 0.086125717 0.57600003 2.2472356e-38
-0.011500001 0.085976198 0.57500005 2.0628443e-38
-0.010404763 0.085976198 0.57500005 2.2000886e-38
-0.0093095247 0.085976198 0.57500005 2.0802343e-38
-0.0081857145 0.085677139 0.57300001 2.1625194e-38
-0.0070942859 0.085677139 0.57300001 1.9412499e-38
-0.0060028569 0.085677139 0.57300001 2.1153776e-38
-0.0049028574 0.085527621 0.57200003 2.106158e-38
-0.0038133336 0.085527621 0.57200003 2.1343176e-38
-0.0027238096 0.085527621 0.57200003 2.3466916e-38
-0.0016342858 0.085527621 0.57200003 2.1908986e-38
-0.00054571428 0.085677139 0.57300001 1.6100662e-38
0.00054571428 0.085677139 0.57300001 1.7374522e-38
-0.098535232 0.08752571 0.57800001 1.630672e-38
-0.097434282 0.08752571 0.57800001 2.2760414e-38
-0.096500009 0.087677151 0.57900006 2.3050431e-38
-0.095232382 0.08752571 0.57800001 2.3509615e-38
-0.094131432 0.08752571 0.57800001 2.3142315e-38
-0.093030475 0.08752571 0.57800001 2.3142315e-38
-0.091929525 0.08752571 0.57800001 2.3142315e-38
-0.090828575 0.08752571 0.57800001 2.3142315e-38
-0.089727625 0.08752571 0.57800001 2.2958632e-38
-0.088626668 0.08752571 0.57800001 2.3509664e-38
-0.08752571 0.08752571 0.57800001 2.3418031e-38
-0.085176192 0.087374285 0.57700002 2.3322257e-38
-0.08407715 0.087374285 0.57700002 2.2861279e-38
-0.0829781 0.087374285 0.57700002 2.2943411e-38
-0.078581907 0.087374285 0.57700002 2.2474845e-38
-0.07611905 0.087071441 0.57500005 2.2473049e-38
-0.075023815 0.087071441 0.57500005 2.2196463e-38
-0.074057147 0.087222867 0.57600003 2.256739e-38
-0.072833337 0.087071441 0.57500005 2.2751782e-38
-0.071738102 0.087071441 0.57500005 2.2659962e-38
-0.070642859 0.087071441 0.57500005 2.1092636e-38
-0.069547623 0.087071441 0.57500005 2.2283584e-38
-0.068571433 0.087222867 0.57600003 1.8503563e-38
-0.067474291 0.087222867 0.57600003 2.1340711e-38
-0.061442863 0.084951431 0.56100005 2.1153733e-38
-0.0592 0.084799998 0.56 2.1531122e-38
-0.053578097 0.084345713 0.55700004 2.1161649e-38
-0.052517146 0.084345713 0.55700004 2.1252031e-38
-0.051548574 0.084497146 0.55800003 2.1344226e-38
-0.050485715 0.084497146 0.55800003 2.1345296e-38
-0.049422856 0.084497146 0.55800003 2.1068713e-38
-0.048360001 0.084497146 0.55800003 2.1250949e-38
-0.047297146 0.084497146 0.55800003 2.1343143e-38
-0.046482861 0.084951431 0.56100005 2.1343143e-38
-0.04533333 0.084799998 0.56 2.1527532e-38
-0.041982856 0.084497146 0.55800003 2.1626602e-38
-0.040920004 0.084497146 0.55800003 2.273295e-38
-0.039002858 0.084951431 0.56100005 2.0615348e-38
-0.036997143 0.085254289 0.56300002 2.0240759e-38
-0.035223808 0.086162858 0.56900001 2.0048143e-38
-0.030066665 0.086920001 0.574 2.2096977e-38
-0.028973334 0.086920001 0.574 2.1543804e-38
-0.02783143 0.086768575 0.57300001 2.2000141e-38
-0.026740002 0.086768575 0.57300001 2.1723554e-38
-0.022374285 0.086768575 0.57300001 2.2180914e-38
-0.021282857 0.086768575 0.57300001 2.1528377e-38
-0.020191429 0.086768575 0.57300001 1.9961051e-38
-0.019099999 0.086768575 0.57300001 2.1432234e-38
-0.018008571 0.086768575 0.57300001 2.3465219e-38
-0.016917143 0.086768575 0.57300001 2.2184966e-38
-0.015825715 0.086768575 0.57300001 2.3476425e-38
-0.01476 0.086920001 0.574 2.2568835e-38
-0.013690477 0.087071441 0.57500005 2.2753226e-38
-0.012595239 0.087071441 0.57500005 2.2566334e-38
-0.01148 0.086920001 0.574 2.0814617e-38
-0.010386666 0.086920001 0.574 2.2095243e-38
-0.0092771426 0.086768575 0.57300001 2.0804504e-38
-0.0081857145 0.086768575 0.57300001 2.1530843e-38
-0.0070942859 0.086768575 0.57300001 1.9779126e-38
-0.0059923814 0.086617149 0.57200003 2.1337842e-38
-0.0049028574 0.086617149 0.57200003 2.1153451e-38
-0.0038133336 0.086617149 0.57200003 2.1342483e-38
-0.0027238096 0.086617149 0.57200003 2.3464063e-38
-0.0016342858 0.086617149 0.57200003 2.181599e-38
-0.00054476195 0.086617149 0.57200003 1.6560882e-38
0.00054476195 0.086617149 0.57200003 1.7468156e-38
0.0016342858 0.086617149 0.57200003 1.7836939e-38
-0.098535232 0.088626668 0.57800001 1.6949917e-38
-0.097434282 0.088626668 0.57800001 2.3501569e-38
-0.096333332 0.088626668 0.57800001 2.3234145e-38
-0.095232382 0.088626668 0.57800001 2.3234145e-38
-0.093968578 0.088473335 0.57700002 2.3142286e-38
-0.09286952 0.088473335 0.57700002 2.3234123e-38
-0.091770478 0.088473335 0.57700002 2.3234145e-38
-0.090671428 0.088473335 0.57700002 2.3509656e-38
-0.089572385 0.088473335 0.57700002 2.3234254e-38
-0.085976198 0.088166669 0.57500005 2.2865222e-38
-0.084880956 0.088166669 0.57500005 2.3138572e-38
-0.083931431 0.088320009 0.57600003 2.2861985e-38
-0.082690477 0.088166669 0.57500005 2.2302322e-38
-0.081595249 0.088166669 0.57500005 2.2302322e-38
-0.080500007 0.088166669 0.57500005 2.2580714e-38
-0.079404771 0.088166669 0.57500005 2.3041692e-38
-0.077079996 0.088013336 0.574 2.2398496e-38
-0.075986668 0.088013336 0.574 2.2854393e-38
-0.074893333 0.088013336 0.574 2.2946589e-38
-0.073799998 0.088013336 0.574 2.3227871e-38
-0.07270667 0.088013336 0.574 2.3505179e-38
-0.071613334 0.088013336 0.574 2.3229696e-38
-0.070519999 0.088013336 0.574 2.018724e-38
-0.069426671 0.088013336 0.574 2.2567766e-38
-0.068452388 0.088166669 0.57500005 1.7681398e-38
-0.067474291 0.088320009 0.57600003 2.133965e-38
-0.061442863 0.086020008 0.56100005 2.0776346e-38
-0.0592 0.085866667 0.56 2.1343901e-38
-0.057925716 0.085560001 0.55800003 2.1897075e-38
-0.053578097 0.085406676 0.55700004 2.1254536e-38
-0.052517146 0.085406676 0.55700004 2.1252743e-38
-0.051456194 0.085406676 0.55700004 2.1529325e-38
-0.050395243 0.085406676 0.55700004 2.1438566e-38
-0.049422856 0.085560001 0.55800003 2.1438566e-38
-0.048273336 0.085406676 0.55700004 2.1344961e-38
-0.047212381 0.085406676 0.55700004 2.1529352e-38
-0.046151433 0.085406676 0.55700004 2.1529365e-38
-0.038933333 0.085866667 0.56 2.0707193e-38
-0.037866663 0.085866667 0.56 2.1341368e-38
-0.036800001 0.085866667 0.56 2.0603803e-38
-0.034139998 0.087246664 0.56900001 2.0962887e-38
-0.031051429 0.08770667 0.57200003 2.2005908e-38
-0.029961905 0.08770667 0.57200003 2.2189201e-38
-0.028872382 0.08770667 0.57200003 2.1728223e-38
-0.027782857 0.08770667 0.57200003 2.1909381e-38
-0.026693335 0.08770667 0.57200003 2.1540599e-38
-0.025648572 0.087860003 0.57300001 2.1907216e-38
-0.024557142 0.087860003 0.57300001 2.1446238e-38
-0.023465713 0.087860003 0.57300001 2.1810699e-38
-0.022374285 0.087860003 0.57300001 2.2363873e-38
-0.021282857 0.087860003 0.57300001 2.1812497e-38
-0.020156192 0.08770667 0.57200003 2.0245171e-38
-0.019066667 0.08770667 0.57200003 2.143366e-38
-0.018008571 0.087860003 0.57300001 2.3465205e-38
-0.016917143 0.087860003 0.57300001 2.2000197e-38
-0.015825715 0.087860003 0.57300001 2.2737762e-38
-0.014734286 0.087860003 0.57300001 2.2189593e-38
-0.013642858 0.087860003 0.57300001 2.2650572e-38
-0.012551429 0.087860003 0.57300001 2.2284337e-38
-0.01146 0.087860003 0.57300001 2.1823358e-38
-0.010368572 0.087860003 0.57300001 2.2001602e-38
-0.0092609534 0.08770667 0.57200003 2.1079646e-38
-0.008171428 0.08770667 0.57200003 2.1529784e-38
-0.0070819049 0.08770667 0.57200003 1.9962458e-38
-0.0059923814 0.08770667 0.57200003 2.1338555e-38
-0.0048942859 0.087553337 0.57100004 2.1430751e-38
-0.0038066669 0.087553337 0.57100004 2.1338909e-38
-0.0027238096 0.08770667 0.57200003 2.2445256e-38
-0.0016314286 0.087553337 0.57100004 2.1531539e-38
-0.00054380955 0.087553337 0.57100004 1.7106155e-38
0.00054476195 0.08770667 0.57200003 1.7561421e-38
-0.098364763 0.089572385 0.57700002 1.6676204e-38
-0.09726572 0.089572385 0.57700002 2.3502282e-38
-0.09270858 0.089417152 0.57600003 2.3234107e-38
-0.091611437 0.089417152 0.57600003 2.3142286e-38
-0.088166669 0.089261912 0.57500005 2.3418e-38
-0.087071441 0.089261912 0.57500005 2.341804e-38
-0.085976198 0.089261912 0.57500005 2.0836563e-38
-0.084880956 0.089261912 0.57500005 2.2492462e-38
-0.08378572 0.089261912 0.57500005 2.2400266e-38
-0.082690477 0.089261912 0.57500005 2.1563289e-38
-0.081595249 0.089261912 0.57500005 2.1010115e-38
-0.080500007 0.089261912 0.57500005 2.2213736e-38
-0.074632384 0.088796198 0.57200003 2.008737e-38
-0.073542856 0.088796198 0.57200003 2.2395918e-38
-0.072580002 0.088951431 0.57300001 2.3503346e-38
-0.071488574 0.088951431 0.57300001 2.285838e-38
-0.070397139 0.088951431 0.57300001 1.990812e-38
-0.069305718 0.088951431 0.57300001 2.2102435e-38
-0.060266666 0.08693333 0.56 2.1145127e-38
-0.051363815 0.086312383 0.55600005 2.1905329e-38
-0.050304763 0.086312383 0.55600005 2.1818155e-38
-0.049334288 0.086467624 0.55700004 2.3480198e-38
-0.048273336 0.086467624 0.55700004 2.247478e-38
-0.04533333 0.08693333 0.56 2.3493989e-38
-0.044266667 0.08693333 0.56 2.2571311e-38
-0.030997144 0.088640958 0.57100004 2.2197843e-38
-0.029857146 0.088485725 0.57000005 2.2285357e-38
-0.02877143 0.088485725 0.57000005 2.1732183e-38
-0.027734287 0.088640958 0.57100004 2.2095217e-38
-0.026646668 0.088640958 0.57100004 2.1910826e-38
-0.025559049 0.088640958 0.57100004 2.2095568e-38
-0.02447143 0.088640958 0.57100004 2.2279959e-38
-0.023383811 0.088640958 0.57100004 2.2095205e-38
-0.022296192 0.088640958 0.57100004 2.0896662e-38
-0.021245714 0.088796198 0.57200003 2.1813926e-38
-0.020156192 0.088796198 0.57200003 2.2735883e-38
-0.019066667 0.088796198 0.57200003 2.2001557e-38
-0.017945714 0.088640958 0.57100004 2.1079601e-38
-0.016858097 0.088640958 0.57100004 2.1811093e-38
-0.015798096 0.088796198 0.57200003 1.9782789e-38
-0.014708571 0.088796198 0.57200003 2.0147488e-38
-0.013619049 0.088796198 0.57200003 2.0424071e-38
-0.012529524 0.088796198 0.57200003 2.1436146e-38
-0.01144 0.088796198 0.57200003 2.2081515e-38
-0.010350476 0.088796198 0.57200003 2.1435443e-38
-0.0092447624 0.088640958 0.57100004 2.106666e-38
-0.0081571434 0.088640958 0.57100004 2.1435445e-38
-0.0070695239 0.088640958 0.57100004 2.1896424e-38
-0.0059714289 0.088485725 0.57000005 2.1437588e-38
-0.004885715 0.088485725 0.57000005 2.1437588e-38
-0.0038000003 0.088485725 0.57000005 2.1436509e-38
-0.0027142861 0.088485725 0.57000005 2.1436509e-38
-0.0016285715 0.088485725 0.57000005 2.1345373e-38
-0.00054380955 0.088640958 0.57100004 1.7104374e-38
-0.089106664 0.0902 0.574 2.3326091e-38
-0.088013336 0.0902 0.574 2.3509765e-38
-0.086920001 0.0902 0.574 2.3234302e-38
-0.085826673 0.0902 0.574 2.3142465e-38
-0.084733337 0.0902 0.574 2.3234313e-38
-0.083639994 0.0902 0.574 2.3234313e-38
-0.082546666 0.0902 0.574 2.2215534e-38
-0.078990474 0.089885719 0.57200003 2.3508434e-38
-0.077900954 0.089885719 0.57200003 2.341769e-38
-0.076677151 0.089728571 0.57100004 2.2587929e-38
-0.075589523 0.089728571 0.57100004 2.1749849e-38
-0.074501909 0.089728571 0.57100004 2.1749849e-38
-0.073414288 0.089728571 0.57100004 2.202754e-38
-0.072326675 0.089728571 0.57100004 2.267291e-38
-0.071239047 0.089728571 0.57100004 2.2397042e-38
-0.070151433 0.089728571 0.57100004 2.0092151e-38
-0.069184765 0.089885719 0.57200003 2.2375494e-38
-0.068095237 0.089885719 0.57200003 1.8503277e-38
-0.067005716 0.089885719 0.57200003 2.1712119e-38
-0.045171432 0.087685719 0.55800003 2.256842e-38
-0.044108573 0.087685719 0.55800003 2.2476232e-38
-0.043045714 0.087685719 0.55800003 2.2476232e-38
-0.041982856 0.087685719 0.55800003 2.1906876e-38
-0.032084763 0.089728571 0.57100004 2.2475168e-38
-0.029804762 0.089414284 0.56900001 2.2286458e-38
-0.028720953 0.089414284 0.56900001 2.1641089e-38
-0.027685717 0.089571439 0.57000005 2.2191369e-38
-0.026600001 0.089571439 0.57000005 2.2099173e-38
-0.025514288 0.089571439 0.57000005 2.2191013e-38
-0.024428573 0.089571439 0.57000005 2.24676e-38
-0.023342859 0.089571439 0.57000005 2.2282518e-38
-0.022257145 0.089571439 0.57000005 2.0438605e-38
-0.021208571 0.089728571 0.57100004 2.1812847e-38
-0.020120952 0.089728571 0.57100004 2.3103586e-38
-0.019033333 0.089728571 0.57100004 2.2002296e-38
-0.017945714 0.089728571 0.57100004 2.2186687e-38
-0.016858097 0.089728571 0.57100004 2.1628847e-38
-0.015770478 0.089728571 0.57100004 1.8678587e-38
-0.014682857 0.089728571 0.57100004 1.7936979e-38
-0.013595238 0.089728571 0.57100004 1.9596478e-38
-0.01250762 0.089728571 0.57100004 2.0514903e-38
-0.011420001 0.089728571 0.57100004 2.0607099e-38
-0.010332381 0.089728571 0.57100004 2.1154131e-38
-0.0092447624 0.089728571 0.57100004 2.1615109e-38
-0.0081571434 0.089728571 0.57100004 2.1341079e-38
-0.0070571434 0.089571439 0.57000005 2.217084e-38
-0.0059714289 0.089571439 0.57000005 2.1529786e-38
-0.004885715 0.089571439 0.57000005 2.1437591e-38
-0.0038000003 0.089571439 0.57000005 2.1529436e-38
-0.0027142861 0.089571439 0.57000005 2.2174806e-38
-0.0016285715 0.089571439 0.57000005 2.0884407e-38
-0.00054285716 0.089571439 0.57000005 1.6827799e-38
-0.094408579 0.091134287 0.57300001 2.2774914e-38
-0.089728571 0.0908162 0.57100004 2.3325941e-38
-0.088640958 0.0908162 0.57100004 2.314234e-38
-0.085677139 0.091134287 0.57300001 2.3417848e-38
-0.084585719 0.091134287 0.57300001 2.3234252e-38
-0.083494283 0.091134287 0.57300001 2.3509769e-38
-0.082402855 0.091134287 0.57300001 2.3324778e-38
-0.081169531 0.09097524 0.57200003 2.1573061e-38
-0.080080003 0.09097524 0.57200003 2.2032232e-38
-0.078990474 0.09097524 0.57200003 2.3508802e-38
-0.077764772 0.0908162 0.57100004 2.3417687e-38
-0.076677151 0.0908162 0.57100004 2.3417687e-38
-0.075589523 0.0908162 0.57100004 2.267474e-38
-0.074371435 0.090657152 0.57000005 2.2398153e-38
-0.073285721 0.090657152 0.57000005 2.3140021e-38
-0.072326675 0.0908162 0.57100004 2.3232217e-38
-0.071239047 0.0908162 0.57100004 2.3048182e-38
-0.070151433 0.0908162 0.57100004 2.350952e-38
-0.069063812 0.0908162 0.57100004 2.3324778e-38
-0.067976199 0.0908162 0.57100004 2.0927692e-38
-0.045090482 0.088589527 0.55700004 2.1162732e-38
-0.044029526 0.088589527 0.55700004 2.1250614e-38
-0.042968575 0.088589527 0.55700004 2.0144267e-38
-0.041982856 0.088748574 0.55800003 2.1059745e-38
-0.036307618 0.090498097 0.56900001 2.0871769e-38
-0.035223808 0.090498097 0.56900001 2.3459348e-38
-0.034139998 0.090498097 0.56900001 2.2090593e-38
-0.033056188 0.090498097 0.56900001 2.3485412e-38
-0.032028574 0.090657152 0.57000005 2.2850442e-38
-0.03088857 0.090498097 0.56900001 2.2297268e-38
-0.029804762 0.090498097 0.56900001 2.2479857e-38
-0.028720953 0.090498097 0.56900001 2.1926683e-38
-0.027685717 0.090657152 0.57000005 2.238261e-38
-0.026600001 0.090657152 0.57000005 2.173724e-38
-0.025514288 0.090657152 0.57000005 2.2472657e-38
-0.024385713 0.090498097 0.56900001 2.348825e-38
-0.023301905 0.090498097 0.56900001 2.2377251e-38
-0.022257145 0.090657152 0.57000005 2.0441143e-38
-0.02117143 0.090657152 0.57000005 2.2000844e-38
-0.020085717 0.090657152 0.57000005 2.2369627e-38
-0.019000003 0.090657152 0.57000005 2.200334e-38
-0.017914288 0.090657152 0.57000005 2.2187731e-38
-0.016828572 0.090657152 0.57000005 2.1906163e-38
-0.015742857 0.090657152 0.57000005 1.9324685e-38
-0.014682857 0.0908162 0.57100004 2.0520978e-38
-0.013571429 0.090657152 0.57000005 2.2272695e-38
-0.012463809 0.090498097 0.56900001 2.1625216e-38
-0.01138 0.090498097 0.56900001 1.9873499e-38
-0.010314287 0.090657152 0.57000005 2.106049e-38
-0.0092285722 0.090657152 0.57000005 2.1244881e-38
-0.0081428578 0.090657152 0.57000005 2.1337845e-38
-0.0070447619 0.090498097 0.56900001 2.2351997e-38
-0.005960952 0.090498097 0.56900001 2.1434717e-38
-0.0048771431 0.090498097 0.56900001 2.1342521e-38
-0.0037933334 0.090498097 0.56900001 2.1435073e-38
-0.0027095238 0.090498097 0.56900001 2.2357029e-38
-0.0016257142 0.090498097 0.56900001 2.1530856e-38
-0.00054190477 0.090498097 0.56900001 1.6552292e-38
-0.09734191 0.091903813 0.57100004 1.8612593e-38
-0.096254297 0.091903813 0.57100004 2.3503643e-38
-0.095333338 0.092064768 0.57200003 2.3050443e-38
-0.09424381 0.092064768 0.57200003 2.2774933e-38
-0.092991434 0.091903813 0.57100004 2.3142265e-38
-0.091903813 0.091903813 0.57100004 2.3234102e-38
-0.0908162 0.091903813 0.57100004 2.3050438e-38
-0.089728571 0.091903813 0.57100004 2.3142275e-38
-0.088640958 0.091903813 0.57100004 2.31423e-38
-0.087553337 0.091903813 0.57100004 2.31423e-38
-0.086465724 0.091903813 0.57100004 2.3142305e-38
-0.085527621 0.092064768 0.57200003 2.3325979e-38
-0.0844381 0.092064768 0.57200003 2.2958661e-38
-0.08334858 0.092064768 0.57200003 2.3509692e-38
-0.082259052 0.092064768 0.57200003 2.341769e-38
-0.08102762 0.091903813 0.57100004 2.2587929e-38
-0.079940006 0.091903813 0.57100004 2.2032235e-38
-0.078852385 0.091903813 0.57100004 2.3322973e-38
-0.077764772 0.091903813 0.57100004 2.3326188e-38
-0.076542869 0.091742866 0.57000005 2.3509862e-38
-0.075457156 0.091742866 0.57000005 2.2308468e-38
-0.074371435 0.091742866 0.57000005 2.2124077e-38
-0.073285721 0.091742866 0.57000005 2.3048542e-38
-0.072200008 0.091742866 0.57000005 2.2956346e-38
-0.071114287 0.091742866 0.57000005 2.2587201e-38
-0.070028573 0.091742866 0.57000005 2.3509517e-38
-0.036243808 0.091420956 0.56800002 2.087428e-38
-0.035161905 0.091420956 0.56800002 2.347266e-38
-0.034079999 0.091420956 0.56800002 2.2568455e-38
-0.032998096 0.091420956 0.56800002 2.3491492e-38
-0.03191619 0.091420956 0.56800002 2.2578909e-38
-0.030834286 0.091420956 0.56800002 2.2025735e-38
-0.029752383 0.091420956 0.56800002 2.2299073e-38
-0.028670477 0.091420956 0.56800002 2.1838095e-38
-0.027637143 0.091581903 0.56900001 2.2478415e-38
-0.026553333 0.091581903 0.56900001 2.1833046e-38
-0.025469523 0.091581903 0.56900001 2.2474826e-38
-0.024385713 0.091581903 0.56900001 2.3028e-38
-0.023301905 0.091581903 0.56900001 2.2379036e-38
-0.022218095 0.091581903 0.56900001 2.0535124e-38
-0.021134285 0.091581903 0.56900001 2.2002659e-38
-0.020050475 0.091581903 0.56900001 2.2002659e-38
-0.018966667 0.091581903 0.56900001 2.2003365e-38
-0.017882857 0.091581903 0.56900001 2.1911169e-38
-0.016799048 0.091581903 0.56900001 2.2001229e-38
-0.015715238 0.091581903 0.56900001 1.9235361e-38
-0.014631429 0.091581903 0.56900001 2.1437919e-38
-0.013547619 0.091581903 0.56900001 2.3005244e-38
-0.012441905 0.091420956 0.56800002 2.1722091e-38
-0.01136 0.091420956 0.56800002 1.9140613e-38
-0.01029619 0.091581903 0.56900001 2.1246676e-38
-0.0092123812 0.091581903 0.56900001 2.1431068e-38
-0.0081285713 0.091581903 0.56900001 2.1248518e-38
-0.0070323814 0.091420956 0.56800002 2.2078278e-38
-0.005950476 0.091420956 0.56800002 2.1436512e-38
-0.0048685712 0.091420956 0.56800002 2.1252121e-38
-0.0037866668 0.091420956 0.56800002 2.1436852e-38
-0.0027047619 0.091420956 0.56800002 2.2266613e-38
-0.0016228572 0.091420956 0.56800002 2.1530518e-38
-0.097171433 0.092828579 0.57000005 1.9626005e-38
-0.09608572 0.092828579 0.57000005 2.3501823e-38
-0.095166676 0.092991434 0.57100004 2.2958578e-38
-0.094079047 0.092991434 0.57100004 2.3142252e-38
-0.092991434 0.092991434 0.57100004 2.3142315e-38
-0.091903813 0.092991434 0.57100004 2.2958641e-38
-0.090657152 0.092828579 0.57000005 2.3050407e-38
-0.089571439 0.092828579 0.57000005 2.3050407e-38
-0.088485725 0.092828579 0.57000005 2.3142252e-38
-0.087400012 0.092828579 0.57000005 2.3142252e-38
-0.086314291 0.092828579 0.57000005 2.3050438e-38
-0.085378096 0.092991434 0.57100004 2.3050438e-38
-0.084290482 0.092991434 0.57100004 2.2866748e-38
-0.083202861 0.092991434 0.57100004 2.3509619e-38
-0.082115248 0.092991434 0.57100004 2.3418043e-38
-0.08102762 0.092991434 0.57100004 2.3418043e-38
-0.07980001 0.092828579 0.57000005 2.341769e-38
-0.078714296 0.092828579 0.57000005 2.129719e-38
-0.077628583 0.092828579 0.57000005 2.1938883e-38
-0.076408572 0.092665717 0.56900001 2.2953035e-38
-0.075324766 0.092665717 0.56900001 2.2769802e-38
-0.074240953 0.092665717 0.56900001 2.240102e-38
-0.073157147 0.092665717 0.56900001 2.2955247e-38
-0.072073333 0.092665717 0.56900001 2.2955247e-38
-0.070989527 0.092665717 0.56900001 2.2679033e-38
-0.069905713 0.092665717 0.56900001 2.3509514e-38
-0.034019999 0.092340007 0.56700003 2.341768e-38
-0.03294 0.092340007 0.56700003 2.3141093e-38
-0.031860001 0.092340007 0.56700003 2.33244e-38
-0.030780001 0.092340007 0.56700003 2.2125857e-38
-0.029700002 0.092340007 0.56700003 2.2213717e-38
-0.027637143 0.092665717 0.56900001 2.183882e-38
-0.026506668 0.092502862 0.56800002 2.1931016e-38
-0.025424764 0.092502862 0.56800002 2.2021066e-38
-0.024342857 0.092502862 0.56800002 2.1652284e-38
-0.023260953 0.092502862 0.56800002 2.210821e-38
-0.017851429 0.092502862 0.56800002 2.1916208e-38
-0.016769523 0.092502862 0.56800002 2.2098457e-38
-0.015687618 0.092502862 0.56800002 2.182187e-38
-0.010278095 0.092502862 0.56800002 2.2000851e-38
-0.0091961902 0.092502862 0.56800002 2.2000851e-38
-0.0081142858 0.092502862 0.56800002 2.2001577e-38
-0.0070323814 0.092502862 0.56800002 2.2554751e-38
-0.005950476 0.092502862 0.56800002 2.2096289e-38
-0.0048685712 0.092502862 0.56800002 2.1911898e-38
-0.0037866668 0.092502862 0.56800002 2.2004444e-38
-0.0027047619 0.092502862 0.56800002 2.2834205e-38
-0.098257147 0.093914293 0.57000005 1.6953894e-38
-0.097171433 0.093914293 0.57000005 2.1098233e-38
-0.09608572 0.093914293 0.57000005 2.3500001e-38
-0.095166676 0.094079047 0.57100004 2.2954599e-38
-0.093914293 0.093914293 0.57000005 2.3509579e-38
-0.092828579 0.093914293 0.57000005 2.3142305e-38
-0.091742866 0.093914293 0.57000005 2.2958632e-38
-0.090657152 0.093914293 0.57000005 2.3050418e-38
-0.089571439 0.093914293 0.57000005 2.3234092e-38
-0.088485725 0.093914293 0.57000005 2.3142268e-38
-0.087400012 0.093914293 0.57000005 2.3234104e-38
-0.086314291 0.093914293 0.57000005 2.3142305e-38
-0.084290482 0.094079047 0.57100004 2.3142291e-38
-0.083202861 0.094079047 0.57100004 2.3509645e-38
-0.081971437 0.093914293 0.57000005 2.3326163e-38
-0.080885723 0.093914293 0.57000005 2.3326163e-38
-0.07980001 0.093914293 0.57000005 2.332618e-38
-0.078576185 0.093749523 0.56900001 2.1759213e-38
-0.077492386 0.093749523 0.56900001 2.2584178e-38
-0.076408572 0.093749523 0.56900001 2.3509743e-38
-0.075324766 0.093749523 0.56900001 2.3418028e-38
-0.074110478 0.093584761 0.56800002 2.3141441e-38
-0.073028572 0.093584761 0.56800002 2.3141416e-38
-0.071946666 0.093584761 0.56800002 2.304922e-38
-0.070864767 0.093584761 0.56800002 2.2215858e-38
-0.069782861 0.093584761 0.56800002 2.3507317e-38
-0.068700954 0.093584761 0.56800002 2.3326201e-38
-0.03396 0.093255244 0.56600004 2.3417687e-38
-0.032881904 0.093255244 0.56600004 2.3417687e-38
-0.031803809 0.093255244 0.56600004 2.3418043e-38
-0.030725716 0.093255244 0.56600004 2.2680478e-38
-0.029595239 0.093090475 0.565 2.2401005e-38
-0.028519047 0.093090475 0.565 2.1110266e-38
-0.027491432 0.093255244 0.56600004 2.2026098e-38
-0.023138095 0.093090475 0.565 2.2479844e-38
-0.022061903 0.093090475 0.565 2.2664236e-38
-0.020985713 0.093090475 0.565 2.2478089e-38
-0.019909523 0.093090475 0.565 2.1648328e-38
-0.018833334 0.093090475 0.565 2.237902e-38
-0.015604762 0.093090475 0.565 2.2006634e-38
-0.014528572 0.093090475 0.565 2.2098457e-38
-0.013452381 0.093090475 0.565 2.1360892e-38
-0.01237619 0.093090475 0.565 2.1815015e-38
-0.011299999 0.093090475 0.565 2.255258e-38
-0.010241905 0.093255244 0.56600004 2.2094164e-38
-0.0091638099 0.093255244 0.56600004 2.1725381e-38
-0.0080857147 0.093255244 0.56600004 2.1909381e-38
-0.0059190476 0.093090475 0.565 2.2189564e-38
-0.0048428569 0.093090475 0.565 2.1820781e-38
-0.0037666666 0.093090475 0.565 2.2095921e-38
-0.0026904761 0.093090475 0.565 2.2925681e-38
-0.0016142856 0.093090475 0.565 2.2097738e-38
-0.098084763 0.094833337 0.56900001 1.8520141e-38
-0.097000949 0.094833337 0.56900001 2.1741406e-38
-0.093914293 0.095000006 0.57000005 2.2586151e-38
-0.092828579 0.095000006 0.57000005 2.2769466e-38
-0.091581903 0.094833337 0.56900001 2.2677271e-38
-0.090498097 0.094833337 0.56900001 2.2678345e-38
-0.089414284 0.094833337 0.56900001 2.2678345e-38
-0.081971437 0.095000006 0.57000005 2.3048683e-38
-0.080885723 0.095000006 0.57000005 2.2864292e-38
-0.077492386 0.094833337 0.56900001 2.2955777e-38
-0.076408572 0.094833337 0.56900001 2.3509681e-38
-0.072900005 0.094500005 0.56700003 2.3234305e-38
-0.071820006 0.094500005 0.56700003 2.3234305e-38
-0.070739999 0.094500005 0.56700003 2.2768611e-38
-0.069660008 0.094500005 0.56700003 2.2676416e-38
-0.068700954 0.094666667 0.56800002 2.3139218e-38
-0.0339 0.094166666 0.565 2.3417687e-38
-0.032823808 0.094166666 0.565 2.3417687e-38
-0.031747617 0.094166666 0.565 2.3417687e-38
-0.030671427 0.094166666 0.565 2.3417687e-38
-0.029595239 0.094166666 0.565 2.3417687e-38
-0.028519047 0.094166666 0.565 2.3417687e-38
-0.027442858 0.094166666 0.565 2.3417687e-38
-0.026366666 0.094166666 0.565 2.3417687e-38
-0.015604762 0.094166666 0.565 2.1644338e-38
-0.014528572 0.094166666 0.565 2.2191028e-38
-0.013452381 0.094166666 0.565 2.1822246e-38
-0.01237619 0.094166666 0.565 2.2098089e-38
-0.011299999 0.094166666 0.565 2.3481383e-38
-0.010223809 0.094166666 0.565 2.2470879e-38
-0.0091476189 0.094166666 0.565 2.118014e-38
-0.0080714291 0.094166666 0.565 2.2003728e-38
-0.0069952379 0.094166666 0.565 2.1727141e-38
-0.0059190476 0.094166666 0.565 2.2003009e-38
-0.0048428569 0.094166666 0.565 2.1634227e-38
-0.0037666666 0.094166666 0.565 2.2000839e-38
-0.0026904761 0.094166666 0.565 2.2830599e-38
-0.0016142856 0.094166666 0.565 2.1910451e-38
-0.097912386 0.095748574 0.56800002 1.9072579e-38
-0.096660003 0.095580004 0.56700003 2.2199854e-38
-0.095580004 0.095580004 0.56700003 2.3495634e-38
-0.091420956 0.095748574 0.56800002 2.2667684e-38
-0.09033905 0.095748574 0.56800002 2.2576249e-38
-0.085860007 0.095580004 0.56700003 2.295081e-38
-0.08478 0.095580004 0.56700003 2.2213245e-38
-0.081971437 0.09608572 0.57000005 2.2856476e-38
-0.080885723 0.09608572 0.57000005 2.2579889e-38
-0.078576185 0.095917143 0.56900001 2.2763152e-38
-0.077492386 0.095917143 0.56900001 2.2761749e-38
-0.076408572 0.095917143 0.56900001 2.3507597e-38
-0.073849529 0.095411435 0.56600004 2.3233611e-38
-0.07277143 0.095411435 0.56600004 2.3418025e-38
-0.071693338 0.095411435 0.56600004 2.2588623e-38
-0.070615239 0.095411435 0.56600004 2.2860141e-38
-0.069537148 0.095411435 0.56600004 2.2860141e-38
-0.068459049 0.095411435 0.56600004 2.2951608e-38
-0.067380957 0.095411435 0.56600004 2.2859413e-38
-0.056100007 0.09456858 0.56100005 1.7374131e-38
-0.055031434 0.09456858 0.56100005 1.7464887e-38
-0.030671427 0.09524285 0.565 2.3325492e-38
-0.029595239 0.09524285 0.565 2.3417687e-38
-0.028519047 0.09524285 0.565 2.3417687e-38
-0.027442858 0.09524285 0.565 2.3417687e-38
-0.026366666 0.09524285 0.565 2.3417687e-38
-0.025290476 0.09524285 0.565 2.3048542e-38
-0.024214284 0.09524285 0.565 2.2218781e-38
-0.023138095 0.09524285 0.565 2.2401005e-38
-0.022061903 0.09524285 0.565 2.3507712e-38
-0.020985713 0.09524285 0.565 2.3231854e-38
-0.019909523 0.09524285 0.565 2.1019159e-38
-0.018833334 0.09524285 0.565 2.1931382e-38
-0.017757144 0.09524285 0.565 2.1562599e-38
-0.015604762 0.09524285 0.565 2.1465345e-38
-0.014502858 0.095074289 0.56400001 2.237902e-38
-0.013428572 0.095074289 0.56400001 2.1364868e-38
-0.01237619 0.09524285 0.565 2.2099508e-38
-0.011299999 0.09524285 0.565 2.3487484e-38
-0.010223809 0.09524285 0.565 2.2757192e-38
-0.0091476189 0.09524285 0.565 2.1927431e-38
-0.0080714291 0.09524285 0.565 2.2470529e-38
-0.0069828574 0.095074289 0.56400001 2.1548572e-38
-0.0059085712 0.095074289 0.56400001 2.2002646e-38
-0.0048342859 0.095074289 0.56400001 2.2002646e-38
-0.00376 0.095074289 0.56400001 2.1909732e-38
-0.0026857145 0.095074289 0.56400001 2.2831688e-38
-0.097740002 0.096660003 0.56700003 2.0083489e-38
-0.096660003 0.096660003 0.56700003 2.2383897e-38
-0.095580004 0.096660003 0.56700003 2.3490245e-38
-0.094500005 0.096660003 0.56700003 2.2291031e-38
-0.093419999 0.096660003 0.56700003 2.2106639e-38
-0.092340007 0.096660003 0.56700003 2.2380414e-38
-0.091260001 0.096660003 0.56700003 2.330237e-38
-0.090180002 0.096660003 0.56700003 2.2661381e-38
-0.087709524 0.09631905 0.565 2.2664952e-38
-0.086633332 0.09631905 0.565 2.312593e-38
-0.085708573 0.096489534 0.56600004 2.2470541e-38
-0.084630482 0.096489534 0.56600004 2.0718824e-38
-0.083552383 0.096489534 0.56600004 2.1822921e-38
-0.077609532 0.095807627 0.56200004 2.2194911e-38
-0.07587143 0.09631905 0.565 2.3120196e-38
-0.074795231 0.09631905 0.565 2.1835218e-38
-0.073719047 0.09631905 0.565 2.0083501e-38
-0.072642855 0.09631905 0.565 2.1005109e-38
-0.071566664 0.09631905 0.565 2.0820718e-38
-0.070615239 0.096489534 0.56600004 2.2022123e-38
-0.069537148 0.096489534 0.56600004 2.229871e-38
-0.068459049 0.096489534 0.56600004 2.2019563e-38
-0.067380957 0.096489534 0.56600004 2.1927367e-38
-0.066302858 0.096489534 0.56600004 2.1928129e-38
-0.065224767 0.096489534 0.56600004 2.1190564e-38
-0.057168573 0.09563715 0.56100005 2.0272492e-38
-0.056100007 0.09563715 0.56100005 1.6400276e-38
-0.055031434 0.09563715 0.56100005 1.6557786e-38
-0.037128571 0.09631905 0.565 2.3417687e-38
-0.03605238 0.09631905 0.565 2.3325492e-38
-0.034976188 0.09631905 0.565 2.3233296e-38
-0.0339 0.09631905 0.565 2.3233296e-38
-0.032823808 0.09631905 0.565 2.3233296e-38
-0.031747617 0.09631905 0.565 2.3233296e-38
-0.030671427 0.09631905 0.565 2.3233296e-38
-0.029542858 0.096148573 0.56400001 2.3233296e-38
-0.028468572 0.096148573 0.56400001 2.3233296e-38
-0.027394285 0.096148573 0.56400001 2.3233296e-38
-0.026319999 0.096148573 0.56400001 2.3325492e-38
-0.025245715 0.096148573 0.56400001 2.3417687e-38
-0.024171429 0.096148573 0.56400001 2.3417687e-38
-0.023097143 0.096148573 0.56400001 2.341769e-38
-0.022022858 0.096148573 0.56400001 2.2956712e-38
-0.020985713 0.09631905 0.565 2.2771582e-38
-0.019874286 0.096148573 0.56400001 2.1941821e-38
-0.0188 0.096148573 0.56400001 2.2029345e-38
-0.017757144 0.09631905 0.565 2.1752758e-38
-0.016680952 0.09631905 0.565 2.2209035e-38
-0.015577144 0.096148573 0.56400001 2.2116839e-38
-0.014502858 0.096148573 0.56400001 2.2298354e-38
-0.013428572 0.096148573 0.56400001 2.1192006e-38
-0.012354285 0.096148573 0.56400001 2.2107828e-38
-0.01128 0.096148573 0.56400001 2.3494724e-38
-0.010205715 0.096148573 0.56400001 2.30399e-38
-0.0069828574 0.096148573 0.56400001 1.9995649e-38
-0.097567625 0.097567625 0.56600004 2.0173154e-38
-0.096489534 0.097567625 0.56600004 2.2387479e-38
-0.095411435 0.097567625 0.56600004 2.2756262e-38
-0.094333343 0.097567625 0.56600004 2.2198723e-38
-0.093255244 0.097567625 0.56600004 2.2198723e-38
-0.092177153 0.097567625 0.56600004 2.2008986e-38
-0.091099054 0.097567625 0.56600004 2.3207529e-38
-0.090020962 0.097567625 0.56600004 2.2381871e-38
-0.088785715 0.097395234 0.565 2.2381871e-38
-0.087709524 0.097395234 0.565 2.2568796e-38
-0.086633332 0.097395234 0.565 2.2753187e-38
-0.08555714 0.097395234 0.565 2.2283601e-38
-0.084480956 0.097395234 0.565 2.0992862e-38
-0.083404757 0.097395234 0.565 2.2006567e-38
-0.082328573 0.097395234 0.565 2.3482777e-38
-0.074795231 0.097395234 0.565 2.2107854e-38
-0.073719047 0.097395234 0.565 2.1831267e-38
-0.072642855 0.097395234 0.565 2.1831255e-38
-0.071566664 0.097395234 0.565 2.192345e-38
-0.070490472 0.097395234 0.565 2.2296196e-38
-0.069414288 0.097395234 0.565 2.2204e-38
-0.068459049 0.097567625 0.56600004 2.2109988e-38
-0.066185713 0.097395234 0.565 2.2021066e-38
-0.065109521 0.097395234 0.565 2.0822523e-38
-0.064033337 0.097395234 0.565 2.2574857e-38
-0.055999998 0.096533336 0.56 2.0744999e-38
-0.054933332 0.096533336 0.56 2.1100895e-38
-0.039141908 0.097050481 0.56300002 2.3417687e-38
-0.038204763 0.097395234 0.565 2.3417687e-38
-0.037128571 0.097395234 0.565 2.3325492e-38
-0.035988573 0.097222857 0.56400001 2.3233296e-38
-0.034914285 0.097222857 0.56400001 2.3233296e-38
-0.033840001 0.097222857 0.56400001 2.3233296e-38
-0.03270762 0.097050481 0.56300002 2.3233296e-38
-0.03163524 0.097050481 0.56300002 2.3233296e-38
-0.030562857 0.097050481 0.56300002 2.3233296e-38
-0.029490478 0.097050481 0.56300002 2.3233296e-38
-0.028418096 0.097050481 0.56300002 2.3233296e-38
-0.027394285 0.097222857 0.56400001 2.3233296e-38
-0.026319999 0.097222857 0.56400001 2.3325492e-38
-0.025245715 0.097222857 0.56400001 2.3325492e-38
-0.024171429 0.097222857 0.56400001 2.3417687e-38
-0.023097143 0.097222857 0.56400001 2.341769e-38
-0.022022858 0.097222857 0.56400001 2.3233299e-38
-0.020948572 0.097222857 0.56400001 2.2863788e-38
-0.019874286 0.097222857 0.56400001 2.2218418e-38
-0.0188 0.097222857 0.56400001 2.2585045e-38
-0.017725714 0.097222857 0.56400001 2.1478698e-38
-0.016651429 0.097222857 0.56400001 2.2210837e-38
-0.015549525 0.097050481 0.56300002 2.257962e-38
-0.014477143 0.097050481 0.56300002 2.239597e-38
-0.013404762 0.097050481 0.56300002 2.1105231e-38
-0.012332381 0.097050481 0.56300002 2.1925597e-38
-0.011260001 0.097050481 0.56300002 2.3494003e-38
-0.0037333334 0.096533336 0.56 2.2191379e-38
-0.0026666666 0.096533336 0.56 2.3389922e-38
-0.09631905 0.098471425 0.565 2.2294528e-38
-0.09524285 0.098471425 0.565 2.2939898e-38
-0.093255244 0.098645724 0.56600004 2.2295219e-38
-0.090938091 0.098471425 0.565 2.266077e-38
-0.089861907 0.098471425 0.565 2.2475474e-38
-0.088785715 0.098471425 0.565 2.2659865e-38
-0.087709524 0.098471425 0.565 2.2663162e-38
-0.086633332 0.098471425 0.565 2.3308532e-38
-0.085405715 0.098297149 0.56400001 2.2473773e-38
-0.08433143 0.098297149 0.56400001 2.0722056e-38
-0.083404757 0.098471425 0.565 2.2283597e-38
-0.082328573 0.098471425 0.565 2.3486822e-38
-0.078680001 0.097948581 0.56200004 2.3038806e-38
-0.077609532 0.097948581 0.56200004 2.1010502e-38
-0.076539055 0.097948581 0.56200004 2.2102735e-38
-0.074662857 0.098297149 0.56400001 2.2849388e-38
-0.073588565 0.098297149 0.56400001 2.3310366e-38
-0.072514281 0.098297149 0.56400001 2.2020331e-38
-0.071440004 0.098297149 0.56400001 2.3403265e-38
-0.070365719 0.098297149 0.56400001 2.2393792e-38
-0.069291435 0.098297149 0.56400001 2.2301596e-38
-0.066185713 0.098471425 0.565 2.2393089e-38
-0.065109521 0.098471425 0.565 2.0272589e-38
-0.064033337 0.098471425 0.565 2.1374245e-38
-0.062957145 0.098471425 0.565 2.3498706e-38
-0.054933332 0.097600006 0.56 2.3417687e-38
-0.040214289 0.098122865 0.56300002 2.3325492e-38
-0.038069528 0.098122865 0.56300002 2.3325492e-38
-0.037062857 0.098297149 0.56400001 2.3233296e-38
-0.035988573 0.098297149 0.56400001 2.3233296e-38
-0.034852382 0.098122865 0.56300002 2.3233296e-38
-0.033780001 0.098122865 0.56300002 2.3233296e-38
-0.03270762 0.098122865 0.56300002 2.3233296e-38
-0.03163524 0.098122865 0.56300002 2.3233296e-38
-0.030562857 0.098122865 0.56300002 2.3233296e-38
-0.029490478 0.098122865 0.56300002 2.3233296e-38
-0.028418096 0.098122865 0.56300002 2.3233296e-38
-0.027345715 0.098122865 0.56300002 2.3233296e-38
-0.026273334 0.098122865 0.56300002 2.3233296e-38
-0.025200952 0.098122865 0.56300002 2.3233296e-38
-0.024128573 0.098122865 0.56300002 2.3233296e-38
-0.023056192 0.098122865 0.56300002 2.3325492e-38
-0.02198381 0.098122865 0.56300002 2.3325492e-38
-0.019839048 0.098122865 0.56300002 2.3417687e-38
-0.018766666 0.098122865 0.56300002 2.3417687e-38
-0.017694285 0.098122865 0.56300002 2.2680122e-38
-0.016621906 0.098122865 0.56300002 2.2863778e-38
-0.015549525 0.098122865 0.56300002 2.3416952e-38
-0.014451429 0.097948581 0.56200004 2.2861992e-38
-0.013380953 0.097948581 0.56200004 2.1386862e-38
-0.012310477 0.097948581 0.56200004 2.2026446e-38
-0.011240001 0.097948581 0.56200004 2.1657663e-38
-0.0090666674 0.097600006 0.56 2.1654052e-38
-0.0079999994 0.097600006 0.56 2.2570594e-38
-0.0069457148 0.097774297 0.56100005 2.2386203e-38
-0.0058771432 0.097774297 0.56100005 2.2473747e-38
-0.0047999998 0.097600006 0.56 2.2381552e-38
-0.0037333334 0.097600006 0.56 2.2380452e-38
-0.0026666666 0.097600006 0.56 2.2564843e-38
-0.099195242 0.099195242 0.56300002 1.5022828e-38
-0.098122865 0.099195242 0.56300002 1.8692233e-38
-0.096148573 0.099371433 0.56400001 2.2385653e-38
-0.095074289 0.099371433 0.56400001 2.330761e-38
-0.094000004 0.099371433 0.56400001 2.2481812e-38
-0.092925712 0.099371433 0.56400001 2.2666203e-38
-0.091851428 0.099371433 0.56400001 2.2481482e-38
-0.090777144 0.099371433 0.56400001 2.2573678e-38
-0.08970286 0.099371433 0.56400001 2.2571957e-38
-0.088628575 0.099371433 0.56400001 2.2203175e-38
-0.087399051 0.099195242 0.56300002 2.2478355e-38
-0.086326674 0.099195242 0.56300002 2.2754942e-38
-0.085254289 0.099195242 0.56300002 2.256986e-38
-0.084181912 0.099195242 0.56300002 2.0633751e-38
-0.083257139 0.099371433 0.56400001 2.2100199e-38
-0.082037143 0.099195242 0.56300002 2.3486375e-38
-0.080964759 0.099195242 0.56300002 2.2666349e-38
-0.079892382 0.099195242 0.56300002 2.3219523e-38
-0.077609532 0.099019058 0.56200004 2.1379563e-38
-0.076539055 0.099019058 0.56200004 2.1365385e-38
-0.073588565 0.099371433 0.56400001 2.3126196e-38
-0.072514281 0.099371433 0.56400001 2.2572672e-38
-0.071440004 0.099371433 0.56400001 2.3495349e-38
-0.070365719 0.099371433 0.56400001 2.2853957e-38
-0.069291435 0.099371433 0.56400001 2.3038349e-38
-0.067261904 0.099547617 0.565 2.2667819e-38
-0.066185713 0.099547617 0.565 2.2025379e-38
-0.065109521 0.099547617 0.565 1.990488e-38
-0.064033337 0.099547617 0.565 2.1740067e-38
-0.037062857 0.099371433 0.56400001 2.3233296e-38
-0.033720002 0.099019058 0.56200004 2.3233296e-38
-0.032649525 0.099019058 0.56200004 2.3233296e-38
-0.031579047 0.099019058 0.56200004 2.3233296e-38
-0.030508572 0.099019058 0.56200004 2.3233296e-38
-0.029438097 0.099019058 0.56200004 2.3233296e-38
-0.02836762 0.099019058 0.56200004 2.3233296e-38
-0.027345715 0.099195242 0.56300002 2.3233296e-38
-0.026273334 0.099195242 0.56300002 2.3233296e-38
-0.025156192 0.099019058 0.56200004 2.3233296e-38
-0.024085715 0.099019058 0.56200004 2.3233296e-38
-0.02301524 0.099019058 0.56200004 2.3233296e-38
-0.018733336 0.099019058 0.56200004 2.341769e-38
-0.017662859 0.099019058 0.56200004 2.3233299e-38
-0.016592382 0.099019058 0.56200004 2.3048898e-38
-0.015521904 0.099019058 0.56200004 2.3141093e-38
-0.014425715 0.098842867 0.56100005 2.2679399e-38
-0.013357144 0.098842867 0.56100005 2.1665247e-38
-0.012288572 0.098842867 0.56100005 2.2305206e-38
-0.011220001 0.098842867 0.56100005 2.1936424e-38
-0.010133334 0.09866666 0.56 2.2207956e-38
-0.0090666674 0.09866666 0.56 2.1654782e-38
-0.0079999994 0.09866666 0.56 2.2385133e-38
-0.0069333334 0.09866666 0.56 2.266172e-38
-0.0058666663 0.09866666 0.56 2.256882e-38
-0.0047914288 0.098490477 0.55900002 2.2292233e-38
-0.0037266668 0.098490477 0.55900002 2.247302e-38
-0.0026666666 0.09866666 0.56 2.3026194e-38
-0.0016000001 0.09866666 0.56 2.2286105e-38
-0.10026763 0.10026763 0.56300002 1.6590519e-38
-0.099195242 0.10026763 0.56300002 1.4562215e-38
-0.098122865 0.10026763 0.56300002 1.8232339e-38
-0.097050481 0.10026763 0.56300002 2.1090404e-38
-0.095978096 0.10026763 0.56300002 2.2201231e-38
-0.094905712 0.10026763 0.56300002 2.2293425e-38
-0.093833335 0.10026763 0.56300002 2.2295578e-38
-0.09276095 0.10026763 0.56300002 2.2572161e-38
-0.091688573 0.10026763 0.56300002 2.2293784e-38
-0.090616189 0.10026763 0.56300002 2.1832813e-38
-0.089543812 0.10026763 0.56300002 2.2196241e-38
-0.088471435 0.10026763 0.56300002 2.1735263e-38
-0.087399051 0.10026763 0.56300002 2.2195891e-38
-0.086326674 0.10026763 0.56300002 2.2288086e-38
-0.085254289 0.10026763 0.56300002 2.2104065e-38
-0.083257139 0.10044572 0.56400001 2.2010038e-38
-0.082037143 0.10026763 0.56300002 2.2286625e-38
-0.080964759 0.10026763 0.56300002 2.1926442e-38
-0.079892382 0.10026763 0.56300002 2.2018636e-38
-0.078680001 0.10008954 0.56200004 2.2209123e-38
-0.077609532 0.10008954 0.56200004 2.2301318e-38
-0.076539055 0.10008954 0.56200004 2.2394257e-38
-0.074662857 0.10044572 0.56400001 2.2683009e-38
-0.073588565 0.10044572 0.56400001 2.3509528e-38
-0.072514281 0.10044572 0.56400001 2.3234246e-38
-0.071313336 0.10026763 0.56300002 2.3142409e-38
-0.07024096 0.10026763 0.56300002 2.3234229e-38
-0.069168575 0.10026763 0.56300002 2.350974e-38
-0.066185713 0.10062381 0.565 2.2212635e-38
-0.065109521 0.10062381 0.565 2.147507e-38
-0.034728575 0.099911436 0.56100005 2.3233296e-38
-0.033660002 0.099911436 0.56100005 2.3233296e-38
-0.032591432 0.099911436 0.56100005 2.3233296e-38
-0.031522859 0.099911436 0.56100005 2.3233296e-38
-0.030454289 0.099911436 0.56100005 2.3233296e-38
-0.029385718 0.099911436 0.56100005 2.3233296e-38
-0.028317144 0.099911436 0.56100005 2.3233296e-38
-0.027297145 0.10008954 0.56200004 2.3233296e-38
-0.026226668 0.10008954 0.56200004 2.3233296e-38
-0.025156192 0.10008954 0.56200004 2.3233296e-38
-0.02404286 0.099911436 0.56100005 2.3233296e-38
-0.022974288 0.099911436 0.56100005 2.3233296e-38
-0.019698096 0.099555239 0.55900002 2.3325492e-38
-0.018633334 0.099555239 0.55900002 2.3325492e-38
-0.013333334 0.09973333 0.56 2.2679759e-38
-0.012288572 0.099911436 0.56100005 2.2493203e-38
-0.010115238 0.099555239 0.55900002 2.2305199e-38
-0.0090504764 0.099555239 0.55900002 2.1752025e-38
-0.0079857148 0.099555239 0.55900002 2.1930656e-38
-0.0069209523 0.099555239 0.55900002 2.1930656e-38
-0.0058561903 0.099555239 0.55900002 2.2203287e-38
-0.0047828574 0.099377148 0.55800003 2.2018896e-38
-0.0037200002 0.099377148 0.55800003 2.2661004e-38
-0.0026619048 0.099555239 0.55900002 2.2845395e-38
-0.0015942857 0.099377148 0.55800003 2.2472308e-38
-0.00053142861 0.099377148 0.55800003 1.463568e-38
-0.10026763 0.10134 0.56300002 1.7050055e-38
-0.099195242 0.10134 0.56300002 1.4191991e-38
-0.098122865 0.10134 0.56300002 1.8321638e-38
-0.097050481 0.10134 0.56300002 2.2101659e-38
-0.095978096 0.10134 0.56300002 2.2013255e-38
-0.094905712 0.10134 0.56300002 2.2843003e-38
-0.093833335 0.10134 0.56300002 2.2200155e-38
-0.09276095 0.10134 0.56300002 2.2015767e-38
-0.091688573 0.10134 0.56300002 2.2199079e-38
-0.090616189 0.10134 0.56300002 2.2106885e-38
-0.089543812 0.10134 0.56300002 2.201182e-38
-0.088471435 0.10134 0.56300002 2.1919626e-38
-0.087399051 0.10134 0.56300002 2.2196926e-38
-0.086326674 0.10134 0.56300002 2.2196926e-38
-0.085254289 0.10134 0.56300002 2.2199817e-38
-0.084181912 0.10134 0.56300002 2.2292013e-38
-0.083257139 0.10152 0.56400001 2.2203025e-38
-0.081891432 0.10116 0.56200004 2.2387413e-38
-0.080820955 0.10116 0.56200004 2.2298806e-38
-0.079750478 0.10116 0.56200004 2.2759778e-38
-0.078680001 0.10116 0.56200004 2.2488217e-38
-0.077609532 0.10116 0.56200004 2.3503071e-38
-0.076402865 0.10098001 0.56100005 2.2956457e-38
-0.075334288 0.10098001 0.56100005 2.3509642e-38
-0.074265718 0.10098001 0.56100005 2.3326128e-38
-0.07024096 0.10134 0.56300002 2.332615e-38
-0.069168575 0.10134 0.56300002 2.332615e-38
-0.066185713 0.10169999 0.565 2.3418043e-38
-0.065109521 0.10169999 0.565 2.3049261e-38
-0.062734284 0.10134 0.56300002 2.350987e-38
-0.057168573 0.10098001 0.56100005 1.2273312e-38
-0.039999999 0.1008 0.56 2.2680122e-38
-0.038933333 0.1008 0.56 2.3325492e-38
-0.037866663 0.1008 0.56 2.3325492e-38
-0.034666669 0.1008 0.56 2.3233296e-38
-0.033599999 0.1008 0.56 2.3233296e-38
-0.032533333 0.1008 0.56 2.3233296e-38
-0.031466667 0.1008 0.56 2.3233296e-38
-0.030400001 0.1008 0.56 2.3233296e-38
-0.029333333 0.1008 0.56 2.3233296e-38
-0.027297145 0.10116 0.56200004 2.3233296e-38
-0.026226668 0.10116 0.56200004 2.3233296e-38
-0.025111431 0.10098001 0.56100005 2.3233296e-38
-0.020762857 0.10062 0.55900002 2.3233296e-38
-0.019698096 0.10062 0.55900002 2.3325492e-38
-0.018633334 0.10062 0.55900002 2.3325492e-38
-0.017568571 0.10062 0.55900002 2.3325492e-38
-0.016503809 0.10062 0.55900002 2.3325492e-38
-0.014374286 0.10062 0.55900002 2.3417687e-38
-0.013309524 0.10062 0.55900002 2.2864513e-38
-0.01118 0.10062 0.55900002 2.1941834e-38
-0.010097143 0.10044 0.55800003 2.2307011e-38
-0.0090342853 0.10044 0.55800003 2.1385055e-38
-0.0079714293 0.10044 0.55800003 2.2116492e-38
-0.0069085713 0.10044 0.55800003 2.1932101e-38
-0.0058457148 0.10044 0.55800003 2.2112889e-38
-0.0047828574 0.10044 0.55800003 2.1836302e-38
-0.0037200002 0.10044 0.55800003 2.2570259e-38
-0.0026571429 0.10044 0.55800003 2.3215628e-38
-0.0015942857 0.10044 0.55800003 2.2475178e-38
-0.00053142861 0.10044 0.55800003 1.4822941e-38
-0.10026763 0.10241239 0.56300002 1.7049332e-38
-0.099019058 0.10223048 0.56200004 1.4283463e-38
-0.097948581 0.10223048 0.56200004 1.8507882e-38
-0.096878104 0.10223048 0.56200004 2.3486446e-38
-0.095807627 0.10223048 0.56200004 2.2297371e-38
-0.09456858 0.10204858 0.56100005 2.1559818e-38
-0.084032387 0.10223048 0.56200004 2.3491635e-38
-0.083109528 0.10241239 0.56300002 2.2582205e-38
-0.080677144 0.10204858 0.56100005 2.2958581e-38
-0.079750478 0.10223048 0.56200004 2.3325929e-38
-0.078680001 0.10223048 0.56200004 2.3050412e-38
-0.077471435 0.10204858 0.56100005 2.3509597e-38
-0.076402865 0.10204858 0.56100005 2.3142315e-38
-0.075199999 0.10186666 0.56 2.3509671e-38
-0.074133337 0.10186666 0.56 2.3418031e-38
-0.073066667 0.10186666 0.56 2.3509867e-38
-0.070806667 0.10168476 0.55900002 2.3418043e-38
-0.069741905 0.10168476 0.55900002 2.3418031e-38
-0.068677142 0.10168476 0.55900002 2.3233639e-38
-0.068096191 0.10241239 0.56300002 2.286625e-38
-0.067023806 0.10241239 0.56300002 2.3509825e-38
-0.065951429 0.10241239 0.56300002 2.3417687e-38
-0.064763814 0.10223048 0.56200004 2.3417687e-38
-0.063806668 0.10241239 0.56300002 2.3417687e-38
-0.062734284 0.10241239 0.56300002 2.3417687e-38
-0.061661907 0.10241239 0.56300002 2.341769e-38
-0.059411433 0.10223048 0.56200004 2.1580286e-38
-0.058237147 0.10204858 0.56100005 2.3509579e-38
-0.057168573 0.10204858 0.56100005 2.3234323e-38
-0.056100007 0.10204858 0.56100005 2.3509834e-38
-0.055031434 0.10204858 0.56100005 2.341769e-38
-0.04533333 0.10186666 0.56 2.2218434e-38
-0.044266667 0.10186666 0.56 2.3141819e-38
-0.042133335 0.10186666 0.56 2.3325494e-38
-0.040993333 0.10168476 0.55900002 2.3325494e-38
-0.039928574 0.10168476 0.55900002 2.3325492e-38
-0.038933333 0.10186666 0.56 2.3325492e-38
-0.036668573 0.10150286 0.55800003 2.3325492e-38
-0.035605714 0.10150286 0.55800003 2.3233296e-38
-0.034604762 0.10168476 0.55900002 2.3233296e-38
-0.033540003 0.10168476 0.55900002 2.3233296e-38
-0.032475237 0.10168476 0.55900002 2.3233296e-38
-0.031410478 0.10168476 0.55900002 2.3233296e-38
-0.030345716 0.10168476 0.55900002 2.3233296e-38
-0.029280953 0.10168476 0.55900002 2.3233296e-38
-0.027248573 0.10204858 0.56100005 2.3233296e-38
-0.026180001 0.10204858 0.56100005 2.3233296e-38
-0.025111431 0.10204858 0.56100005 2.3233296e-38
-0.020725716 0.10150286 0.55800003 2.3233296e-38
-0.019662859 0.10150286 0.55800003 2.3233296e-38
-0.0186 0.10150286 0.55800003 2.3325492e-38
-0.017537145 0.10150286 0.55800003 2.3325492e-38
-0.016474286 0.10150286 0.55800003 2.3325492e-38
-0.015411429 0.10150286 0.55800003 2.3325492e-38
-0.014348572 0.10150286 0.55800003 2.3417687e-38
-0.013285715 0.10150286 0.55800003 2.3417687e-38
-0.012222857 0.10150286 0.55800003 2.3417687e-38
-0.01116 0.10150286 0.55800003 2.3417687e-38
-0.010079049 0.10132096 0.55700004 2.3232933e-38
-0.0090180961 0.10132096 0.55700004 2.2310977e-38
-0.0079571437 0.10132096 0.55700004 2.230773e-38
-0.0068961908 0.10132096 0.55700004 2.1846752e-38
-0.0058457148 0.10150286 0.55800003 2.1842067e-38
-0.0047742859 0.10132096 0.55700004 2.1196698e-38
