# .PCD v0.7 - Point Cloud Data file format
VERSION 0.7
FIELDS x y z rgb
SIZE 4 4 4 4
TYPE F F F F
COUNT 1 1 1 1
WIDTH 988
HEIGHT 1
VIEWPOINT 0 0 0 1 0 0 0
POINTS 988
DATA ascii
-0.079482861 0.079482861 0.84300005 2.3417687e-38
-0.077877149 0.079482861 0.84300005 2.3970836e-39
-0.076271437 0.079482861 0.84300005 1.9162897e-40
-0.074665718 0.079482861 0.84300005 1.2979765e-39
-0.11480858 0.081088573 0.84300005 5.9253892e-39
-0.095540009 0.081088573 0.84300005 2.341804e-38
-0.09393429 0.081088573 0.84300005 2.341804e-38
-0.092109524 0.080896191 0.84100002 2.341769e-38
-0.087511435 0.081088573 0.84300005 2.3325494e-38
-0.084300004 0.081088573 0.84300005 2.3325492e-38
-0.082694285 0.081088573 0.84300005 2.3325492e-38
-0.081088573 0.081088573 0.84300005 2.3417687e-38
-0.079482861 0.081088573 0.84300005 2.3326213e-38
-0.077877149 0.081088573 0.84300005 6.1778261e-39
-0.076271437 0.081088573 0.84300005 9.199104e-41
-0.074665718 0.081088573 0.84300005 1.5274153e-43
-0.073060006 0.081088573 0.84300005 9.3040837e-39
-0.068242863 0.081088573 0.84300005 2.341769e-38
-0.11480858 0.082694285 0.84300005 1.0145876e-38
-0.10381429 0.082890481 0.84500003 2.341769e-38
-0.10196286 0.082694285 0.84300005 2.341769e-38
-0.097145721 0.082694285 0.84300005 1.9729865e-38
-0.095540009 0.082694285 0.84300005 2.0653567e-38
-0.09393429 0.082694285 0.84300005 2.3509838e-38
-0.092109524 0.082498096 0.84100002 2.341769e-38
-0.087511435 0.082694285 0.84300005 2.3325494e-38
-0.085905716 0.082694285 0.84300005 2.341769e-38
-0.084500007 0.082890481 0.84500003 2.341769e-38
-0.082694285 0.082694285 0.84300005 2.341769e-38
-0.081088573 0.082694285 0.84300005 2.341769e-38
-0.079482861 0.082694285 0.84300005 2.341769e-38
-0.077877149 0.082694285 0.84300005 2.0283039e-38
-0.076271437 0.082694285 0.84300005 3.6874749e-40
-0.074665718 0.082694285 0.84300005 3.0968696e-43
-0.073060006 0.082694285 0.84300005 1.1946644e-39
-0.10381429 0.084500007 0.84500003 2.341769e-38
-0.10196286 0.084300004 0.84300005 2.341769e-38
-0.095540009 0.084300004 0.84300005 1.0963939e-38
-0.09393429 0.084300004 0.84300005 2.2396177e-38
-0.092328578 0.084300004 0.84300005 2.341769e-38
-0.089117147 0.084300004 0.84300005 2.341769e-38
-0.087511435 0.084300004 0.84300005 2.341769e-38
-0.084500007 0.084500007 0.84500003 2.341769e-38
-0.081088573 0.084300004 0.84300005 2.341769e-38
-0.079482861 0.084300004 0.84300005 2.341769e-38
-0.077877149 0.084300004 0.84300005 2.2495734e-38
-0.076271437 0.084300004 0.84300005 1.4012776e-38
-0.074665718 0.084300004 0.84300005 9.1953205e-41
-0.073060006 0.084300004 0.84300005 1.8546465e-40
-0.095766664 0.086109526 0.84500003 9.1972823e-41
-0.09393429 0.085905716 0.84300005 1.6871184e-38
-0.092328578 0.085905716 0.84300005 2.341769e-38
-0.090722859 0.085905716 0.84300005 2.341769e-38
-0.089117147 0.085905716 0.84300005 2.3417687e-38
-0.087511435 0.085905716 0.84300005 2.3417687e-38
-0.081088573 0.085905716 0.84300005 1.1351218e-38
-0.079482861 0.085905716 0.84300005 1.658922e-38
-0.077877149 0.085905716 0.84300005 2.2674039e-38
-0.076271437 0.085905716 0.84300005 1.5394281e-38
-0.074665718 0.085905716 0.84300005 8.2737145e-40
-0.073060006 0.085905716 0.84300005 9.3739861e-41
-0.095766664 0.087719053 0.84500003 2.7765888e-40
-0.094157144 0.087719053 0.84500003 1.7610434e-38
-0.092547618 0.087719053 0.84500003 2.341769e-38
-0.090722859 0.087511435 0.84300005 2.341769e-38
-0.089117147 0.087511435 0.84300005 2.341769e-38
-0.087511435 0.087511435 0.84300005 2.0283039e-38
-0.084500007 0.087719053 0.84500003 9.7883977e-39
-0.082890481 0.087719053 0.84500003 1.0345366e-39
-0.081280954 0.087719053 0.84500003 3.8916721e-40
-0.079671435 0.087719053 0.84500003 9.318255e-39
-0.074665718 0.087511435 0.84300005 1.8372845e-40
-0.073060006 0.087511435 0.84300005 3.2285917e-42
-0.069848575 0.087511435 0.84300005 2.3326213e-38
-0.10567334 0.089540005 0.84700006 2.341769e-38
-0.10381429 0.08932858 0.84500003 2.341769e-38
-0.095766664 0.08932858 0.84500003 1.0369609e-43
-0.094157144 0.08932858 0.84500003 1.6133263e-38
-0.092547618 0.08932858 0.84500003 2.3326175e-38
-0.090938091 0.08932858 0.84500003 2.3509851e-38
-0.08932858 0.08932858 0.84500003 2.341769e-38
-0.087719053 0.08932858 0.84500003 3.8722165e-39
-0.084500007 0.08932858 0.84500003 1.7993292e-38
-0.082890481 0.08932858 0.84500003 1.6969835e-38
-0.081280954 0.08932858 0.84500003 8.0268674e-39
-0.079671435 0.08932858 0.84500003 1.2081215e-38
-0.074665718 0.089117147 0.84300005 1.474442e-39
-0.073060006 0.089117147 0.84300005 1.8381252e-40
-0.069848575 0.089117147 0.84300005 2.3417687e-38
-0.06342572 0.089117147 0.84300005 1.8416565e-40
-0.10567334 0.091153339 0.84700006 2.341769e-38
-0.10381429 0.090938091 0.84500003 2.341769e-38
-0.095766664 0.090938091 0.84500003 1.1023847e-39
-0.094157144 0.090938091 0.84500003 1.6867835e-38
-0.092547618 0.090938091 0.84500003 2.2673285e-38
-0.090938091 0.090938091 0.84500003 2.3505567e-38
-0.08932858 0.090938091 0.84500003 2.3229346e-38
-0.087719053 0.090938091 0.84500003 1.9321552e-39
-0.086109526 0.090938091 0.84500003 1.9515043e-40
-0.084700003 0.091153339 0.84700006 2.1856812e-38
-0.082890481 0.090938091 0.84500003 2.3326213e-38
-0.081280954 0.090938091 0.84500003 1.9546192e-38
-0.079671435 0.090938091 0.84500003 1.5583212e-38
-0.071454294 0.090722859 0.84300005 2.0191196e-38
-0.069848575 0.090722859 0.84300005 2.3325494e-38
-0.06342572 0.090722859 0.84300005 1.4349296e-42
-0.061966669 0.090938091 0.84500003 2.3234372e-38
-0.10406001 0.092766672 0.84700006 7.1981367e-39
-0.10220476 0.092547618 0.84500003 1.1420852e-38
-0.095766664 0.092547618 0.84500003 9.10844e-44
-0.092547618 0.092547618 0.84500003 2.2765093e-38
-0.091153339 0.092766672 0.84700006 2.3506259e-38
-0.08932858 0.092547618 0.84500003 2.166482e-38
-0.087719053 0.092547618 0.84500003 2.8569449e-39
-0.06342572 0.092328578 0.84300005 9.1993843e-41
-0.061966669 0.092547618 0.84500003 2.2493955e-38
-0.10406001 0.094380006 0.84700006 5.4487109e-39
-0.10220476 0.094157144 0.84500003 7.0855087e-39
-0.091153339 0.094380006 0.84700006 2.3133903e-38
-0.089540005 0.094380006 0.84700006 1.7055838e-38
-0.087926671 0.094380006 0.84700006 9.1842503e-41
-0.084900007 0.094602861 0.84900004 2.3508079e-38
-0.079860002 0.094380006 0.84700006 2.341769e-38
-0.078246668 0.094380006 0.84700006 2.341769e-38
-0.06342572 0.09393429 0.84300005 4.3177032e-39
-0.061966669 0.094157144 0.84500003 2.3505193e-38
-0.10406001 0.09599334 0.84700006 2.3417662e-38
-0.10220476 0.095766664 0.84500003 1.649665e-38
-0.09599334 0.09599334 0.84700006 1.8381813e-40
-0.094380006 0.09599334 0.84700006 2.764937e-39
-0.092766672 0.09599334 0.84700006 2.0095019e-38
-0.089540005 0.09599334 0.84700006 1.7606867e-38
-0.087926671 0.09599334 0.84700006 1.8414141e-39
-0.083282866 0.096220002 0.84900004 2.341769e-38
-0.078246668 0.09599334 0.84700006 2.341769e-38
-0.076633334 0.09599334 0.84700006 2.341769e-38
-0.07502 0.09599334 0.84700006 8.2976067e-40
-0.06342572 0.095540009 0.84300005 1.8634467e-40
-0.061966669 0.095766664 0.84500003 1.6873695e-38
-0.10406001 0.097606674 0.84700006 2.3138955e-38
-0.10220476 0.09737619 0.84500003 1.6138914e-38
-0.09599334 0.097606674 0.84700006 9.3033606e-41
-0.094380006 0.097606674 0.84700006 4.6181613e-40
-0.08975143 0.097837143 0.84900004 1.7237798e-38
-0.087926671 0.097606674 0.84700006 7.3478066e-40
-0.083282866 0.097837143 0.84900004 2.341769e-38
-0.078246668 0.097606674 0.84700006 2.341769e-38
-0.076633334 0.097606674 0.84700006 2.341769e-38
-0.07502 0.097606674 0.84700006 3.3190427e-39
-0.045980003 0.097606674 0.84700006 2.3507012e-38
-0.044471432 0.097837143 0.84900004 2.3324778e-38
-0.09599334 0.099220008 0.84700006 9.2031678e-41
-0.083282866 0.099454284 0.84900004 2.3045195e-38
-0.078246668 0.099220008 0.84700006 2.2863437e-38
-0.076633334 0.099220008 0.84700006 2.2591169e-38
-0.07502 0.099220008 0.84700006 5.6271732e-39
-0.05552857 0.098985717 0.84500003 2.3325494e-38
-0.054046672 0.099220008 0.84700006 2.3326213e-38
-0.045980003 0.099220008 0.84700006 2.341769e-38
-0.044366669 0.099220008 0.84700006 2.3416255e-38
-0.10754 0.10107143 0.84900004 1.9806563e-38
-0.10567334 0.10083334 0.84700006 2.1390112e-38
-0.08975143 0.10107143 0.84900004 2.1851107e-38
-0.087926671 0.10083334 0.84700006 1.1070916e-39
-0.084900007 0.10107143 0.84900004 2.3954399e-39
-0.083282866 0.10107143 0.84900004 1.4368016e-38
-0.081665717 0.10107143 0.84900004 1.6488516e-38
-0.080048576 0.10107143 0.84900004 1.8431158e-38
-0.07502 0.10083334 0.84700006 7.1988247e-39
-0.058747619 0.10059524 0.84500003 2.341769e-38
-0.057273336 0.10083334 0.84700006 2.341769e-38
-0.045980003 0.10083334 0.84700006 2.3417687e-38
-0.044366669 0.10083334 0.84700006 2.341769e-38
-0.10567334 0.10244668 0.84700006 1.843357e-38
-0.091368571 0.10268857 0.84900004 2.2775202e-38
-0.08975143 0.10268857 0.84900004 2.341769e-38
-0.088134289 0.10268857 0.84900004 1.3091779e-38
-0.086517148 0.10268857 0.84900004 2.7580356e-40
-0.084900007 0.10268857 0.84900004 2.8586489e-43
-0.083282866 0.10268857 0.84900004 1.5637146e-39
-0.081665717 0.10268857 0.84900004 3.3154273e-39
-0.080048576 0.10268857 0.84900004 1.6591164e-38
-0.058747619 0.10220476 0.84500003 2.341769e-38
-0.057273336 0.10244668 0.84700006 2.341769e-38
-0.045980003 0.10244668 0.84700006 2.3417687e-38
-0.10592286 0.10430571 0.84900004 1.7498412e-38
-0.10406001 0.10406001 0.84700006 2.3503372e-38
-0.094602861 0.10430571 0.84900004 8.0560649e-42
-0.092985712 0.10430571 0.84900004 1.9292629e-39
-0.091368571 0.10430571 0.84900004 2.3507718e-38
-0.08975143 0.10430571 0.84900004 2.3326213e-38
-0.088134289 0.10430571 0.84900004 1.9730584e-38
-0.086517148 0.10430571 0.84900004 1.5400295e-38
-0.084900007 0.10430571 0.84900004 6.3651236e-39
-0.083282866 0.10430571 0.84900004 6.0909175e-39
-0.081665717 0.10430571 0.84900004 8.948968e-39
-0.080048576 0.10430571 0.84900004 2.0919395e-38
-0.078431435 0.10430571 0.84900004 2.3506995e-38
-0.044471432 0.10430571 0.84900004 2.3416971e-38
-0.10430571 0.10592286 0.84900004 2.3496971e-38
-0.10244668 0.10567334 0.84700006 2.1476552e-38
-0.094602861 0.10592286 0.84900004 1.2022805e-39
-0.092985712 0.10592286 0.84900004 1.0369609e-43
-0.091368571 0.10592286 0.84900004 1.5487893e-38
-0.08975143 0.10592286 0.84900004 2.3418031e-38
-0.088134289 0.10592286 0.84900004 2.3509867e-38
-0.086517148 0.10592286 0.84900004 2.3326213e-38
-0.084900007 0.10592286 0.84900004 2.3234018e-38
-0.083282866 0.10592286 0.84900004 2.341769e-38
-0.081665717 0.10592286 0.84900004 2.341769e-38
-0.080048576 0.10592286 0.84900004 2.341769e-38
-0.078431435 0.10592286 0.84900004 2.2219147e-38
-0.076814294 0.10592286 0.84900004 1.7974619e-38
-0.045980003 0.10567334 0.84700006 6.450572e-39
-0.044471432 0.10592286 0.84900004 1.0962382e-38
-0.10915715 0.10754 0.84900004 9.1989639e-41
-0.094602861 0.10754 0.84900004 1.5582143e-38
-0.092985712 0.10754 0.84900004 1.1437715e-38
-0.091368571 0.10754 0.84900004 1.5863105e-38
-0.08975143 0.10754 0.84900004 2.3324778e-38
-0.088134289 0.10754 0.84900004 2.3509168e-38
-0.086517148 0.10754 0.84900004 2.3326213e-38
-0.084900007 0.10754 0.84900004 2.3326213e-38
-0.083282866 0.10754 0.84900004 2.341769e-38
-0.081665717 0.10754 0.84900004 2.341769e-38
-0.080048576 0.10754 0.84900004 2.3234018e-38
-0.078431435 0.10754 0.84900004 2.1482301e-38
-0.076814294 0.10754 0.84900004 1.6781098e-38
-0.11103524 0.10941429 0.85100001 2.0651821e-38
-0.10915715 0.10915715 0.84900004 3.9826458e-39
-0.096220002 0.10915715 0.84900004 2.341769e-38
-0.094602861 0.10915715 0.84900004 2.3325494e-38
-0.092985712 0.10915715 0.84900004 1.9638445e-38
-0.091368571 0.10915715 0.84900004 1.9085273e-38
-0.08975143 0.10915715 0.84900004 1.9451172e-38
-0.088134289 0.10915715 0.84900004 1.8160433e-38
-0.086517148 0.10915715 0.84900004 2.0374528e-38
-0.084900007 0.10915715 0.84900004 2.1019897e-38
-0.083282866 0.10915715 0.84900004 2.3417687e-38
-0.081665717 0.10915715 0.84900004 2.3417687e-38
-0.080048576 0.10915715 0.84900004 2.341769e-38
-0.078431435 0.10915715 0.84900004 2.341769e-38
-0.076814294 0.10915715 0.84900004 2.0929882e-38
-0.11103524 0.11103524 0.85100001 2.2772321e-38
-0.10915715 0.11077429 0.84900004 2.1113891e-38
-0.097837143 0.11077429 0.84900004 2.341769e-38
-0.096220002 0.11077429 0.84900004 2.3417687e-38
-0.094602861 0.11077429 0.84900004 2.3417687e-38
-0.092985712 0.11077429 0.84900004 1.798217e-38
-0.091368571 0.11077429 0.84900004 1.6783626e-38
-0.08975143 0.11077429 0.84900004 1.8164396e-38
-0.088134289 0.11077429 0.84900004 1.8901961e-38
-0.086517148 0.11077429 0.84900004 2.2493585e-38
-0.083479047 0.11103524 0.85100001 2.341769e-38
-0.078431435 0.11077429 0.84900004 2.194256e-38
-0.076814294 0.11077429 0.84900004 1.8905146e-38
-0.10915715 0.11239143 0.84900004 2.341769e-38
-0.097837143 0.11239143 0.84900004 1.9542953e-38
-0.096220002 0.11239143 0.84900004 2.2125131e-38
-0.094602861 0.11239143 0.84900004 2.3508065e-38
-0.092985712 0.11239143 0.84900004 2.3233299e-38
-0.091368571 0.11239143 0.84900004 2.3325494e-38
-0.08975143 0.11239143 0.84900004 2.1851107e-38
-0.088134289 0.11239143 0.84900004 2.1758913e-38
-0.083479047 0.11265619 0.85100001 5.4458004e-39
-0.081858099 0.11265619 0.85100001 2.6568619e-42
-0.080237143 0.11265619 0.85100001 2.6670073e-39
-0.075197145 0.11239143 0.84900004 1.439163e-38
-0.097837143 0.11400858 0.84900004 2.1112093e-38
-0.096220002 0.11400858 0.84900004 2.2031165e-38
-0.094602861 0.11400858 0.84900004 2.3321904e-38
-0.092985712 0.11400858 0.84900004 2.3417687e-38
-0.091368571 0.11400858 0.84900004 2.2680122e-38
-0.08975143 0.11400858 0.84900004 2.1113531e-38
-0.088134289 0.11400858 0.84900004 1.8347662e-38
-0.083479047 0.11427715 0.85100001 8.5497143e-40
-0.081858099 0.11427715 0.85100001 2.413036e-41
-0.080237143 0.11427715 0.85100001 5.5329289e-39
-0.10293048 0.1158981 0.85100001 2.341769e-38
-0.10107143 0.11562572 0.84900004 2.3233299e-38
-0.097837143 0.11562572 0.84900004 2.0283048e-38
-0.096220002 0.11562572 0.84900004 1.3353095e-38
-0.094602861 0.11562572 0.84900004 1.0218445e-38
-0.092985712 0.11562572 0.84900004 9.3023601e-39
-0.091368571 0.11562572 0.84900004 9.1179688e-39
-0.08975143 0.11562572 0.84900004 8.9378698e-39
-0.088134289 0.11562572 0.84900004 8.6612829e-39
-0.083479047 0.1158981 0.85100001 1.9459254e-38
-0.081858099 0.1158981 0.85100001 2.167195e-38
-0.080237143 0.1158981 0.85100001 2.2585759e-38
-0.078616194 0.1158981 0.85100001 2.3508075e-38
-0.076995239 0.1158981 0.85100001 2.3324778e-38
-0.075374283 0.1158981 0.85100001 2.3324778e-38
-0.073753335 0.1158981 0.85100001 2.3323696e-38
-0.10293048 0.11751905 0.85100001 2.2679759e-38
-0.10107143 0.11724286 0.84900004 2.1942194e-38
-0.099454284 0.11724286 0.84900004 1.6419817e-38
-0.097837143 0.11724286 0.84900004 1.1256862e-38
-0.096220002 0.11724286 0.84900004 1.1171249e-39
-0.094602861 0.11724286 0.84900004 2.6844507e-39
-0.092985712 0.11724286 0.84900004 7.1724957e-39
-0.091368571 0.11724286 0.84900004 9.6617679e-39
-0.08975143 0.11724286 0.84900004 1.1234064e-38
-0.088134289 0.11724286 0.84900004 1.3815522e-38
-0.083479047 0.11751905 0.85100001 2.294905e-38
-0.081858099 0.11751905 0.85100001 2.1012941e-38
-0.080237143 0.11751905 0.85100001 2.0548072e-38
-0.078616194 0.11751905 0.85100001 2.0548072e-38
-0.076995239 0.11751905 0.85100001 2.0271873e-38
-0.065494291 0.11724286 0.84900004 1.6316796e-38
-0.096446671 0.11914 0.85100001 1.5470335e-38
-0.094602861 0.11886001 0.84900004 1.795959e-38
-0.092985712 0.11886001 0.84900004 1.9806692e-38
-0.091368571 0.11886001 0.84900004 2.2111559e-38
-0.08975143 0.11886001 0.84900004 2.2488217e-38
-0.088134289 0.11886001 0.84900004 2.3509562e-38
-0.083479047 0.11914 0.85100001 2.3142343e-38
-0.081858099 0.11914 0.85100001 1.6135834e-38
-0.080237143 0.11914 0.85100001 1.6132607e-38
-0.078616194 0.11914 0.85100001 1.4749672e-38
-0.076995239 0.11914 0.85100001 1.7873936e-38
-0.065494291 0.11886001 0.84900004 2.0278986e-38
-0.098067619 0.12076095 0.85100001 1.9336753e-38
-0.096446671 0.12076095 0.85100001 2.2006863e-38
-0.094602861 0.12047715 0.84900004 2.2006863e-38
-0.092985712 0.12047715 0.84900004 2.2101562e-38
-0.091368571 0.12047715 0.84900004 2.349242e-38
-0.08975143 0.12047715 0.84900004 2.2672323e-38
-0.088134289 0.12047715 0.84900004 2.3509647e-38
-0.083479047 0.12076095 0.85100001 2.3141668e-38
-0.081858099 0.12076095 0.85100001 1.6780169e-38
-0.080237143 0.12076095 0.85100001 1.7788569e-38
-0.078616194 0.12076095 0.85100001 1.8894917e-38
-0.076995239 0.12076095 0.85100001 2.073487e-38
-0.065648571 0.12076095 0.85100001 2.2023454e-38
-0.064027622 0.12076095 0.85100001 1.9733284e-38
-0.047705717 0.12047715 0.84900004 2.341769e-38
-0.098067619 0.12238191 0.85100001 2.0817612e-38
-0.096446671 0.12238191 0.85100001 2.1915714e-38
-0.094602861 0.12209429 0.84900004 2.0901562e-38
-0.092985712 0.12209429 0.84900004 2.1270679e-38
-0.091368571 0.12209429 0.84900004 2.3492714e-38
-0.08975143 0.12209429 0.84900004 2.2768826e-38
-0.088134289 0.12209429 0.84900004 2.350964e-38
-0.085100003 0.12238191 0.85100001 2.2498071e-38
-0.083773337 0.12281334 0.85400003 2.2312797e-38
-0.081858099 0.12238191 0.85100001 1.6227978e-38
-0.080237143 0.12238191 0.85100001 1.678455e-38
-0.078616194 0.12238191 0.85100001 2.286695e-38
-0.076995239 0.12238191 0.85100001 2.3326131e-38
-0.065494291 0.12209429 0.84900004 1.742769e-38
-0.064027622 0.12238191 0.85100001 1.7068931e-38
-0.10004 0.12444 0.85400003 2.219882e-38
-0.098067619 0.12400286 0.85100001 1.9432951e-38
-0.096446671 0.12400286 0.85100001 2.1541881e-38
-0.094825715 0.12400286 0.85100001 2.1449687e-38
-0.093204759 0.12400286 0.85100001 2.0812219e-38
-0.091368571 0.12371143 0.84900004 2.3502065e-38
-0.08975143 0.12371143 0.84900004 2.3049778e-38
-0.088134289 0.12371143 0.84900004 2.3509684e-38
-0.085100003 0.12400286 0.85100001 1.9916591e-38
-0.081858099 0.12400286 0.85100001 1.733395e-38
-0.080237143 0.12400286 0.85100001 1.5410998e-38
-0.078616194 0.12400286 0.85100001 2.0662921e-38
-0.076995239 0.12400286 0.85100001 2.2591468e-38
-0.065494291 0.12371143 0.84900004 1.4401809e-38
-0.064027622 0.12400286 0.85100001 1.5876899e-38
-0.11265619 0.12562381 0.85100001 2.2391406e-38
-0.10004 0.12606667 0.85400003 2.2008592e-38
-0.098067619 0.12562381 0.85100001 2.0349096e-38
-0.096446671 0.12562381 0.85100001 2.1172028e-38
-0.094825715 0.12562381 0.85100001 2.1448611e-38
-0.093204759 0.12562381 0.85100001 2.1368255e-38
-0.091368571 0.12532857 0.84900004 2.3504932e-38
-0.08975143 0.12532857 0.84900004 2.3142343e-38
-0.088134289 0.12532857 0.84900004 2.3417854e-38
-0.086517148 0.12532857 0.84900004 2.3142359e-38
-0.085100003 0.12562381 0.85100001 1.8349621e-38
-0.083479047 0.12562381 0.85100001 1.6789035e-38
-0.081858099 0.12562381 0.85100001 1.7710978e-38
-0.080237143 0.12562381 0.85100001 1.8354824e-38
-0.078616194 0.12562381 0.85100001 2.1764986e-38
-0.076995239 0.12562381 0.85100001 2.1948566e-38
-0.064027622 0.12562381 0.85100001 2.1489398e-38
-0.041577145 0.12636191 0.85600007 1.8251851e-38
-0.11468 0.12769334 0.85400003 2.2024431e-38
-0.10004 0.12769334 0.85400003 2.1820257e-38
-0.098067619 0.12724476 0.85100001 2.0529538e-38
-0.096446671 0.12724476 0.85100001 2.0617786e-38
-0.094825715 0.12724476 0.85100001 2.2646059e-38
-0.093204759 0.12724476 0.85100001 2.210832e-38
-0.091583811 0.12724476 0.85100001 2.350601e-38
-0.089962855 0.12724476 0.85100001 2.332611e-38
-0.088341907 0.12724476 0.85100001 2.3142436e-38
-0.086720951 0.12724476 0.85100001 2.3142368e-38
-0.083479047 0.12724476 0.85100001 1.5127387e-38
-0.081858099 0.12724476 0.85100001 1.7985418e-38
-0.080237143 0.12724476 0.85100001 2.0567808e-38
-0.078616194 0.12724476 0.85100001 2.194859e-38
-0.076995239 0.12724476 0.85100001 2.1673047e-38
-0.046360001 0.12769334 0.85400003 2.341769e-38
-0.041577145 0.12799239 0.85600007 1.8344046e-38
-0.10027429 0.12962286 0.85600007 2.1172745e-38
-0.098413341 0.12932001 0.85400003 2.0066415e-38
-0.09678667 0.12932001 0.85400003 2.0713568e-38
-0.094825715 0.12886572 0.85100001 2.3489487e-38
-0.093204759 0.12886572 0.85100001 2.2759552e-38
-0.091583811 0.12886572 0.85100001 2.35054e-38
-0.085100003 0.12886572 0.85100001 1.6410931e-38
-0.083479047 0.12886572 0.85100001 1.356726e-38
-0.081858099 0.12886572 0.85100001 1.7531639e-38
-0.04167429 0.12992573 0.85800004 1.8160021e-38
-0.1067962 0.13125335 0.85600007 2.2193062e-38
-0.10492 0.13094667 0.85400003 2.0994518e-38
-0.10027429 0.13125335 0.85600007 2.0250086e-38
-0.098413341 0.13094667 0.85400003 2.1172028e-38
-0.09678667 0.13094667 0.85400003 2.1178485e-38
-0.095160007 0.13094667 0.85400003 2.3495225e-38
-0.093533337 0.13094667 0.85400003 2.2951158e-38
-0.089962855 0.13048667 0.85100001 2.3326091e-38
-0.083773337 0.13094667 0.85400003 1.3108082e-38
-0.082146674 0.13094667 0.85400003 1.7349069e-38
-0.080520004 0.13094667 0.85400003 1.9376017e-38
-0.078893334 0.13094667 0.85400003 2.0019952e-38
-0.1067962 0.13288382 0.85600007 2.0986953e-38
-0.10492 0.13257334 0.85400003 1.9972801e-38
-0.09678667 0.13257334 0.85400003 2.2672662e-38
-0.095160007 0.13257334 0.85400003 2.3509629e-38
-0.093533337 0.13257334 0.85400003 2.3234246e-38
-0.091583811 0.13210762 0.85100001 2.3142409e-38
-0.089962855 0.13210762 0.85100001 2.3142312e-38
-0.088341907 0.13210762 0.85100001 1.8349933e-38
-0.080520004 0.13257334 0.85400003 1.9192269e-38
-0.047818094 0.13210762 0.85100001 2.341769e-38
-0.046360001 0.13257334 0.85400003 2.341769e-38
-0.11685143 0.13482858 0.85800004 2.229028e-38
-0.11494858 0.13451429 0.85600007 2.0907345e-38
-0.1067962 0.13451429 0.85600007 2.0067491e-38
-0.10492 0.13420001 0.85400003 2.0344074e-38
-0.098413341 0.13420001 0.85400003 2.3497711e-38
-0.09678667 0.13420001 0.85400003 2.3046188e-38
-0.095160007 0.13420001 0.85400003 2.3509689e-38
-0.093533337 0.13420001 0.85400003 2.3234249e-38
-0.087026671 0.13420001 0.85400003 1.6964097e-38
-0.085600004 0.13451429 0.85600007 1.659532e-38
-0.11685143 0.13646287 0.85800004 2.0163631e-38
-0.11494858 0.13614477 0.85600007 1.9149495e-38
-0.1067962 0.13614477 0.85600007 2.2013255e-38
-0.10492 0.13582668 0.85400003 2.3489798e-38
-0.10190476 0.13614477 0.85600007 2.3131546e-38
-0.10004 0.13582668 0.85400003 2.2956785e-38
-0.098413341 0.13582668 0.85400003 2.3509611e-38
-0.09678667 0.13582668 0.85400003 2.3142356e-38
-0.095160007 0.13582668 0.85400003 2.332603e-38
-0.093533337 0.13582668 0.85400003 2.3142343e-38
-0.091906674 0.13582668 0.85400003 1.973254e-38
-0.090280004 0.13582668 0.85400003 2.0549337e-38
-0.088653341 0.13582668 0.85400003 1.8060055e-38
-0.087026671 0.13582668 0.85400003 1.5585129e-38
-0.11685143 0.13809715 0.85800004 1.9795572e-38
-0.11494858 0.13777526 0.85600007 1.9150212e-38
-0.10190476 0.13777526 0.85600007 2.3505012e-38
-0.10004 0.13745333 0.85400003 2.3048711e-38
-0.098413341 0.13745333 0.85400003 2.3509695e-38
-0.088653341 0.13745333 0.85400003 1.7873852e-38
-0.087026671 0.13745333 0.85400003 1.4388039e-38
-0.0858 0.13809715 0.85800004 1.6231942e-38
-0.084165715 0.13809715 0.85800004 1.4401809e-38
-0.075817153 0.13777526 0.85600007 2.0662863e-38
-0.11685143 0.13973142 0.85800004 2.2482149e-38
-0.11494858 0.13940571 0.85600007 2.2389954e-38
-0.10027429 0.13940571 0.85600007 2.3142363e-38
-0.098413341 0.13908 0.85400003 2.2589548e-38
-0.088860959 0.13940571 0.85600007 1.8793991e-38
-0.0858 0.13973142 0.85800004 1.8167835e-38
-0.084165715 0.13973142 0.85800004 1.6613748e-38
-0.08253143 0.13973142 0.85800004 1.5507401e-38
-0.080897145 0.13973142 0.85800004 1.5232574e-38
-0.10027429 0.1410362 0.85600007 2.3232836e-38
-0.098413341 0.14070667 0.85400003 2.2679663e-38
-0.093752392 0.1410362 0.85600007 2.1267891e-38
-0.092121907 0.1410362 0.85600007 2.1452282e-38
-0.090491436 0.1410362 0.85600007 1.7962843e-38
-0.088860959 0.1410362 0.85600007 1.9991147e-38
-0.084165715 0.14136572 0.85800004 1.7352392e-38
-0.08253143 0.14136572 0.85800004 1.5416284e-38
-0.080897145 0.14136572 0.85800004 1.6334631e-38
-0.062626667 0.14070667 0.85400003 1.7439922e-38
-0.061142862 0.1410362 0.85600007 1.7807593e-38
-0.14682572 0.14516667 0.87100005 1.0598141e-38
-0.1445 0.1445 0.86700004 1.0502331e-38
-0.10027429 0.14266668 0.85600007 2.1637779e-38
-0.098413341 0.14233334 0.85400003 1.9793866e-38
-0.093752392 0.14266668 0.85600007 1.8960129e-38
-0.092121907 0.14266668 0.85600007 1.914452e-38
-0.090491436 0.14266668 0.85600007 1.6585355e-38
-0.088860959 0.14266668 0.85600007 1.9720007e-38
-0.084165715 0.14300001 0.85800004 1.679988e-38
-0.08253143 0.14300001 0.85800004 1.5416946e-38
-0.080897145 0.14300001 0.85800004 1.7256623e-38
-0.062626667 0.14233334 0.85400003 1.75342e-38
-0.1445 0.14615144 0.86700004 1.1053334e-38
-0.10868 0.14463429 0.85800004 2.1930922e-38
-0.1067962 0.14429715 0.85600007 2.2475811e-38
-0.10027429 0.14429715 0.85600007 2.162555e-38
-0.098413341 0.14396 0.85400003 2.0058224e-38
-0.093752392 0.14429715 0.85600007 1.7945322e-38
-0.092121907 0.14429715 0.85600007 2.0065822e-38
-0.090491436 0.14429715 0.85600007 1.5576298e-38
-0.088860959 0.14429715 0.85600007 1.7420211e-38
-0.084165715 0.14463429 0.85800004 1.7073697e-38
-0.08253143 0.14463429 0.85800004 1.5598566e-38
-0.080897145 0.14463429 0.85800004 1.790126e-38
-0.10868 0.14626858 0.85800004 1.9603733e-38
-0.1067962 0.14592764 0.85600007 2.0245161e-38
-0.095382862 0.14592764 0.85600007 1.9598022e-38
-0.093752392 0.14592764 0.85600007 1.9526337e-38
-0.092121907 0.14592764 0.85600007 2.3499393e-38
-0.090491436 0.14592764 0.85600007 2.1851408e-38
-0.088860959 0.14592764 0.85600007 1.7518214e-38
-0.084165715 0.14626858 0.85800004 2.2224141e-38
-0.08253143 0.14626858 0.85800004 1.9827055e-38
-0.080897145 0.14626858 0.85800004 1.8454074e-38
-0.1187619 0.14824761 0.86000001 1.5160032e-38
-0.095605716 0.14790286 0.85800004 2.3013855e-38
-0.093752392 0.14755809 0.85600007 1.8890781e-38
-0.092121907 0.14755809 0.85600007 2.3500917e-38
-0.090491436 0.14755809 0.85600007 2.3050693e-38
-0.088860959 0.14755809 0.85600007 2.0653606e-38
-0.087230489 0.14755809 0.85600007 1.8540294e-38
-0.0858 0.14790286 0.85800004 2.1856826e-38
-0.084165715 0.14790286 0.85800004 2.3326173e-38
-0.08253143 0.14790286 0.85800004 2.3049586e-38
-0.098874293 0.14953715 0.85800004 1.3598879e-38
-0.097240001 0.14953715 0.85800004 1.4610812e-38
-0.095605716 0.14953715 0.85800004 2.3478145e-38
-0.093971431 0.14953715 0.85800004 2.3228267e-38
-0.084165715 0.14953715 0.85800004 2.2405239e-38
-0.08253143 0.14953715 0.85800004 2.3509797e-38
-0.1187619 0.15152381 0.86000001 1.3782945e-38
-0.10868 0.15117143 0.85800004 1.6735649e-38
-0.098874293 0.15117143 0.85800004 1.415307e-38
-0.097240001 0.15117143 0.85800004 1.1483383e-38
-0.095605716 0.15117143 0.85800004 2.3493293e-38
-0.093971431 0.15117143 0.85800004 2.3323343e-38
-0.092337146 0.15117143 0.85800004 1.9082344e-38
-0.090702862 0.15117143 0.85800004 2.0544032e-38
-0.089068577 0.15117143 0.85800004 2.3507977e-38
-0.086000003 0.15152381 0.86000001 1.8900104e-38
-0.084361903 0.15152381 0.86000001 1.9719162e-38
-0.082723811 0.15152381 0.86000001 2.3509612e-38
-0.081085712 0.15152381 0.86000001 2.341769e-38
-0.071257144 0.15152381 0.86000001 2.3417675e-38
-0.098874293 0.15280573 0.85800004 1.9510379e-38
-0.097240001 0.15280573 0.85800004 1.703228e-38
-0.095605716 0.15280573 0.85800004 2.3506141e-38
-0.093971431 0.15280573 0.85800004 2.3416255e-38
-0.092337146 0.15280573 0.85800004 1.6409387e-38
-0.090702862 0.15280573 0.85800004 1.8243922e-38
-0.089068577 0.15280573 0.85800004 2.3506636e-38
-0.084361903 0.15316191 0.86000001 1.8703391e-38
-0.082723811 0.15316191 0.86000001 2.3508008e-38
-0.048211429 0.15280573 0.85800004 2.341769e-38
-0.11712381 0.15480001 0.86000001 1.6362622e-38
-0.10565715 0.15480001 0.86000001 1.8496602e-38
-0.10377715 0.15444 0.85800004 1.941962e-38
-0.10050857 0.15444 0.85800004 2.1081269e-38
-0.098874293 0.15444 0.85800004 2.0528103e-38
-0.097240001 0.15444 0.85800004 2.0171882e-38
-0.095605716 0.15444 0.85800004 2.3509633e-38
-0.093971431 0.15444 0.85800004 2.341769e-38
-0.092337146 0.15444 0.85800004 2.046743e-38
-0.090702862 0.15444 0.85800004 2.0909374e-38
-0.089068577 0.15444 0.85800004 2.3493733e-38
-0.084361903 0.15480001 0.86000001 2.0821066e-38
-0.082723811 0.15480001 0.86000001 2.3505543e-38
-0.10565715 0.1564381 0.86000001 2.220093e-38
-0.10377715 0.15607429 0.85800004 2.248037e-38
-0.097240001 0.15607429 0.85800004 2.2666326e-38
-0.095605716 0.15607429 0.85800004 2.3508332e-38
-0.093971431 0.15607429 0.85800004 2.3325119e-38
-0.092337146 0.15607429 0.85800004 2.3325119e-38
-0.090702862 0.15607429 0.85800004 2.2761566e-38
-0.089068577 0.15607429 0.85800004 1.5662502e-38
-0.084361903 0.1564381 0.86000001 2.2399938e-38
-0.082723811 0.1564381 0.86000001 2.1201395e-38
-0.11548571 0.15807618 0.86000001 2.3480362e-38
-0.09746667 0.15807618 0.86000001 2.3042998e-38
-0.09582857 0.15807618 0.86000001 2.3509744e-38
-0.093971431 0.15770859 0.85800004 2.2033661e-38
-0.092337146 0.15770859 0.85800004 2.3509511e-38
-0.090702862 0.15770859 0.85800004 2.341769e-38
-0.089068577 0.15770859 0.85800004 2.0375234e-38
-0.084361903 0.15807618 0.86000001 2.2861992e-38
-0.082723811 0.15807618 0.86000001 2.2032232e-38
-0.11548571 0.15971428 0.86000001 2.3479626e-38
-0.099104762 0.15971428 0.86000001 2.3493744e-38
-0.09746667 0.15971428 0.86000001 2.2766379e-38
-0.09582857 0.15971428 0.86000001 2.3509716e-38
-0.094190478 0.15971428 0.86000001 2.3417687e-38
-0.092337146 0.15934287 0.85800004 2.3417687e-38
-0.090702862 0.15934287 0.85800004 2.341769e-38
-0.089068577 0.15934287 0.85800004 2.341769e-38
-0.084361903 0.15971428 0.86000001 2.3417687e-38
-0.082723811 0.15971428 0.86000001 2.3417687e-38
-0.069457144 0.15934287 0.85800004 2.341769e-38
-0.11548571 0.16135238 0.86000001 2.3479965e-38
-0.099104762 0.16135238 0.86000001 2.349126e-38
-0.09746667 0.16135238 0.86000001 2.2669489e-38
-0.09582857 0.16135238 0.86000001 2.3509696e-38
-0.094190478 0.16135238 0.86000001 2.3326185e-38
-0.092337146 0.16097714 0.85800004 2.3326185e-38
-0.090702862 0.16097714 0.85800004 2.3418025e-38
-0.089068577 0.16097714 0.85800004 2.3326188e-38
-0.084361903 0.16135238 0.86000001 2.3418028e-38
-0.082723811 0.16135238 0.86000001 2.3509865e-38
-0.069457144 0.16097714 0.85800004 2.3417687e-38
-0.06798096 0.16135238 0.86000001 2.341769e-38
-0.1173962 0.16336954 0.86200005 1.157486e-38
-0.11548571 0.16299048 0.86000001 2.1531977e-38
-0.099104762 0.16299048 0.86000001 2.2379186e-38
-0.09746667 0.16299048 0.86000001 2.2201231e-38
-0.09582857 0.16299048 0.86000001 2.2477814e-38
-0.094190478 0.16299048 0.86000001 2.2293455e-38
-0.092337146 0.16261142 0.85800004 2.1463694e-38
-0.090702862 0.16261142 0.85800004 2.1283235e-38
-0.089068577 0.16261142 0.85800004 2.1375429e-38
-0.084361903 0.16299048 0.86000001 2.3138135e-38
-0.082723811 0.16299048 0.86000001 2.3509803e-38
-0.071091428 0.16261142 0.85800004 2.3325492e-38
-0.069457144 0.16261142 0.85800004 2.3325492e-38
-0.06798096 0.16299048 0.86000001 2.341769e-38
-0.1190381 0.16501144 0.86200005 6.6129348e-39
-0.1173962 0.16501144 0.86200005 1.2034396e-38
-0.11548571 0.16462857 0.86000001 1.9317842e-38
-0.09582857 0.16462857 0.86000001 2.1917474e-38
-0.094409525 0.16501144 0.86200005 2.2104032e-38
-0.090702862 0.16424572 0.85800004 2.2011462e-38
-0.089068577 0.16424572 0.85800004 2.1919268e-38
-0.087434292 0.16424572 0.85800004 2.2013255e-38
-0.084361903 0.16462857 0.86000001 2.2859288e-38
-0.082723811 0.16462857 0.86000001 2.350971e-38
-0.071091428 0.16424572 0.85800004 2.3325492e-38
-0.069619045 0.16462857 0.86000001 2.3325492e-38
-0.1190381 0.16665334 0.86200005 1.4545374e-38
-0.1173962 0.16665334 0.86200005 1.5731275e-38
-0.11548571 0.16626666 0.86000001 1.2320037e-38
-0.094409525 0.16665334 0.86200005 2.1821692e-38
-0.084361903 0.16626666 0.86000001 2.1744206e-38
-0.082723811 0.16626666 0.86000001 2.3502368e-38
-0.071091428 0.16588001 0.85800004 2.341769e-38
-0.069619045 0.16626666 0.86000001 2.3233299e-38
-0.097693332 0.16829525 0.86200005 2.0153945e-38
-0.096051432 0.16829525 0.86200005 2.1721247e-38
-0.094409525 0.16829525 0.86200005 2.1726628e-38
-0.092767626 0.16829525 0.86200005 2.2740765e-38
-0.087434292 0.16751429 0.85800004 2.2101197e-38
-0.086000003 0.16790476 0.86000001 2.1271436e-38
-0.084361903 0.16790476 0.86000001 2.1549773e-38
-0.082723811 0.16790476 0.86000001 2.3492329e-38
-0.069619045 0.16790476 0.86000001 2.2588282e-38
-0.099335246 0.16993715 0.86200005 1.9993635e-38
-0.097693332 0.16993715 0.86200005 2.1361439e-38
-0.096051432 0.16993715 0.86200005 1.9701943e-38
-0.094409525 0.16993715 0.86200005 2.0985128e-38
-0.092767626 0.16993715 0.86200005 2.1353905e-38
-0.091125719 0.16993715 0.86200005 2.1630488e-38
-0.086199999 0.16993715 0.86200005 2.1077681e-38
-0.097693332 0.17157905 0.86200005 2.2198003e-38
-0.096051432 0.17157905 0.86200005 1.887901e-38
-0.094409525 0.17157905 0.86200005 2.0798587e-38
-0.092767626 0.17157905 0.86200005 2.1167364e-38
-0.091125719 0.17157905 0.86200005 2.0799305e-38
-0.089483812 0.17157905 0.86200005 2.0799305e-38
-0.10426096 0.17322095 0.86200005 2.2670218e-38
-0.10097715 0.17322095 0.86200005 2.2954688e-38
-0.096051432 0.17322095 0.86200005 2.1751108e-38
-0.094409525 0.17322095 0.86200005 2.2478255e-38
-0.092767626 0.17322095 0.86200005 2.1648495e-38
-0.091125719 0.17322095 0.86200005 2.1449119e-38
-0.089483812 0.17322095 0.86200005 1.9973989e-38
-0.087841913 0.17322095 0.86200005 2.0895445e-38
-0.086400002 0.17362286 0.86400002 2.0618863e-38
-0.084754288 0.17362286 0.86400002 1.997709e-38
-0.08146286 0.17362286 0.86400002 2.3230737e-38
-0.10426096 0.17486286 0.86200005 2.2386075e-38
-0.096274287 0.17526856 0.86400002 2.2586664e-38
-0.094628572 0.17526856 0.86400002 2.2767433e-38
-0.092767626 0.17486286 0.86200005 2.1845477e-38
-0.091125719 0.17486286 0.86200005 2.2481492e-38
-0.089483812 0.17486286 0.86200005 1.9439037e-38
-0.087841913 0.17486286 0.86200005 2.1917474e-38
-0.086400002 0.17526856 0.86400002 2.182528e-38
-0.084754288 0.17526856 0.86400002 2.0997684e-38
-0.096274287 0.17691429 0.86400002 2.3509692e-38
-0.094628572 0.17691429 0.86400002 2.3142335e-38
-0.091125719 0.17650478 0.86200005 2.3234161e-38
-0.089483812 0.17650478 0.86200005 2.3050487e-38
-0.087841913 0.17650478 0.86200005 2.3142312e-38
-0.084754288 0.17691429 0.86400002 2.3142283e-38
-0.10651714 0.17918001 0.86700004 2.0512362e-38
-0.10450286 0.17856 0.86400002 1.959791e-38
-0.099565722 0.17856 0.86400002 2.3492815e-38
-0.097920001 0.17856 0.86400002 2.3042998e-38
-0.096274287 0.17856 0.86400002 2.3507578e-38
-0.094628572 0.17856 0.86400002 2.3233903e-38
-0.092767626 0.17814668 0.86200005 2.3141707e-38
-0.091125719 0.17814668 0.86200005 2.3234217e-38
-0.089483812 0.17814668 0.86200005 2.3326053e-38
-0.087841913 0.17814668 0.86200005 2.3326107e-38
-0.086400002 0.17856 0.86400002 2.323427e-38
-0.084754288 0.17856 0.86400002 2.3326097e-38
-0.080094293 0.17918001 0.86700004 2.3326128e-38
-0.078442864 0.17918001 0.86700004 2.332611e-38
-0.10816857 0.18083145 0.86700004 2.2473763e-38
-0.10614857 0.18020572 0.86400002 2.1644002e-38
-0.10121143 0.18020572 0.86400002 2.2281841e-38
-0.099565722 0.18020572 0.86400002 2.3482905e-38
-0.097920001 0.18020572 0.86400002 2.2571632e-38
-0.096274287 0.18020572 0.86400002 2.3217002e-38
-0.094628572 0.18020572 0.86400002 2.2853652e-38
-0.091125719 0.17978859 0.86200005 2.2392196e-38
-0.089483812 0.17978859 0.86200005 2.3129761e-38
-0.087841913 0.17978859 0.86200005 2.3039135e-38
-0.084754288 0.18020572 0.86400002 2.2854362e-38
-0.079817139 0.18020572 0.86400002 2.2854731e-38
-0.078442864 0.18083145 0.86700004 2.2578507e-38
-0.10614857 0.18185143 0.86400002 2.2483094e-38
-0.10121143 0.18185143 0.86400002 2.2851896e-38
-0.099565722 0.18185143 0.86400002 2.192994e-38
-0.097920001 0.18185143 0.86400002 2.2569509e-38
-0.096274287 0.18185143 0.86400002 2.3491466e-38
-0.094628572 0.18185143 0.86400002 2.2760034e-38
-0.092982858 0.18185143 0.86400002 2.0639535e-38
-0.087841913 0.18143049 0.86200005 2.2760387e-38
-0.086400002 0.18185143 0.86400002 2.2668191e-38
-0.084754288 0.18185143 0.86400002 2.2851494e-38
-0.079817139 0.18185143 0.86400002 2.2207211e-38
-0.10651714 0.18413429 0.86700004 2.2943301e-38
-0.10121143 0.18349715 0.86400002 2.2664604e-38
-0.097920001 0.18349715 0.86400002 2.229152e-38
-0.096274287 0.18349715 0.86400002 2.2383715e-38
-0.094628572 0.18349715 0.86400002 2.2282888e-38
-0.092982858 0.18349715 0.86400002 2.1729714e-38
-0.091337144 0.18349715 0.86400002 2.2098452e-38
-0.08969143 0.18349715 0.86400002 2.3485708e-38
-0.088045716 0.18349715 0.86400002 2.2571667e-38
-0.086400002 0.18349715 0.86400002 2.2479472e-38
-0.084754288 0.18349715 0.86400002 2.2476235e-38
-0.08146286 0.18349715 0.86400002 2.1369521e-38
-0.080094293 0.18413429 0.86700004 2.0263174e-38
-0.10614857 0.18514286 0.86400002 2.2575948e-38
-0.097920001 0.18514286 0.86400002 2.1831993e-38
-0.096274287 0.18514286 0.86400002 2.1278819e-38
-0.094628572 0.18514286 0.86400002 2.1542762e-38
-0.092982858 0.18514286 0.86400002 2.1450567e-38
-0.091337144 0.18514286 0.86400002 2.1264365e-38
-0.08969143 0.18514286 0.86400002 2.26473e-38
-0.088045716 0.18514286 0.86400002 2.2382219e-38
-0.086400002 0.18514286 0.86400002 2.256661e-38
-0.084754288 0.18514286 0.86400002 2.1832638e-38
-0.083108574 0.18514286 0.86400002 2.1279464e-38
-0.081745721 0.18578573 0.86700004 2.0451894e-38
-0.10614857 0.18678857 0.86400002 2.0916064e-38
-0.097920001 0.18678857 0.86400002 2.2566709e-38
-0.096274287 0.18678857 0.86400002 2.1829144e-38
-0.094628572 0.18678857 0.86400002 2.1820109e-38
-0.092982858 0.18678857 0.86400002 2.1820109e-38
-0.091337144 0.18678857 0.86400002 2.1177249e-38
-0.08969143 0.18678857 0.86400002 2.0808467e-38
-0.088045716 0.18678857 0.86400002 2.2382562e-38
-0.0867 0.18743715 0.86700004 2.2566953e-38
-0.11642572 0.18908858 0.86700004 1.5137129e-38
-0.099911429 0.18908858 0.86700004 2.2390202e-38
-0.09826 0.18908858 0.86700004 2.247917e-38
-0.096608572 0.18908858 0.86700004 2.247917e-38
-0.092982858 0.18843429 0.86400002 2.1645813e-38
-0.091337144 0.18843429 0.86400002 2.210859e-38
-0.08969143 0.18843429 0.86400002 2.2753959e-38
-0.11642572 0.19074 0.86700004 1.4306969e-38
-0.099911429 0.19074 0.86700004 2.2202581e-38
-0.09826 0.19074 0.86700004 2.2294769e-38
-0.096608572 0.19074 0.86700004 2.3496194e-38
-0.091337144 0.19008 0.86400002 2.2754328e-38
-0.08969143 0.19008 0.86400002 2.3399697e-38
-0.088045716 0.19008 0.86400002 2.2849738e-38
-0.0867 0.19074 0.86700004 2.3495108e-38
-0.11834953 0.19283524 0.86900002 1.4580715e-38
-0.11642572 0.19239144 0.86700004 1.3750954e-38
-0.099911429 0.19239144 0.86700004 2.164905e-38
-0.09826 0.19239144 0.86700004 2.2287903e-38
-0.096608572 0.19239144 0.86700004 2.3486446e-38
-0.094957143 0.19239144 0.86700004 2.2662483e-38
-0.093305722 0.19239144 0.86700004 2.22937e-38
-0.091654293 0.19239144 0.86700004 2.247701e-38
-0.090002865 0.19239144 0.86700004 2.2292618e-38
-0.088351429 0.19239144 0.86700004 2.2384078e-38
-0.0867 0.19239144 0.86700004 2.2660665e-38
-0.11834953 0.19449049 0.86900002 1.3291421e-38
-0.11642572 0.19404286 0.86700004 1.2369465e-38
-0.10156287 0.19404286 0.86700004 2.275611e-38
-0.099911429 0.19404286 0.86700004 2.1465372e-38
-0.09826 0.19404286 0.86700004 2.2103139e-38
-0.096608572 0.19404286 0.86700004 2.2748508e-38
-0.094957143 0.19404286 0.86700004 2.2571664e-38
-0.093305722 0.19404286 0.86700004 2.2940447e-38
-0.091654293 0.19404286 0.86700004 2.2197889e-38
-0.090002865 0.19404286 0.86700004 2.1829107e-38
-0.088351429 0.19404286 0.86700004 2.2196457e-38
-0.086900003 0.19449049 0.86900002 2.2749631e-38
-0.070347615 0.19449049 0.86900002 2.3035569e-38
-0.10156287 0.19569428 0.86700004 2.2756458e-38
-0.099911429 0.19569428 0.86700004 2.1373523e-38
-0.09826 0.19569428 0.86700004 2.2379723e-38
-0.096608572 0.19569428 0.86700004 2.3209484e-38
-0.094957143 0.19569428 0.86700004 2.27568e-38
-0.093305722 0.19569428 0.86700004 2.2572409e-38
-0.091654293 0.19569428 0.86700004 2.2380817e-38
-0.090002865 0.19569428 0.86700004 2.2380817e-38
-0.078442864 0.19569428 0.86700004 2.2483101e-38
-0.071837142 0.19569428 0.86700004 2.2205082e-38
-0.070347615 0.19614571 0.86900002 2.331143e-38
-0.10156287 0.19734572 0.86700004 2.2569885e-38
-0.099911429 0.19734572 0.86700004 2.2385494e-38
-0.09826 0.19734572 0.86700004 2.2387661e-38
-0.096608572 0.19734572 0.86700004 2.2848639e-38
-0.094957143 0.19734572 0.86700004 2.2574215e-38
-0.093305722 0.19734572 0.86700004 2.2205432e-38
-0.091654293 0.19734572 0.86700004 2.201817e-38
-0.090002865 0.19734572 0.86700004 2.201817e-38
-0.088351429 0.19734572 0.86700004 2.2106062e-38
-0.078442864 0.19734572 0.86700004 2.211542e-38
-0.076968573 0.19780096 0.86900002 2.1931029e-38
-0.099911429 0.19899714 0.86700004 2.3124152e-38
-0.09826 0.19899714 0.86700004 2.2484193e-38
-0.096608572 0.19899714 0.86700004 2.2391997e-38
-0.094957143 0.19899714 0.86700004 2.2299436e-38
-0.093305722 0.19899714 0.86700004 2.2576022e-38
-0.091654293 0.19899714 0.86700004 2.2392723e-38
-0.090002865 0.19899714 0.86700004 2.1747353e-38
-0.078442864 0.19899714 0.86700004 2.2022123e-38
-0.076968573 0.19945619 0.86900002 2.229871e-38
-0.10014191 0.20111144 0.86900002 2.349691e-38
-0.09826 0.20064859 0.86700004 2.2856222e-38
-0.096608572 0.20064859 0.86700004 2.3501591e-38
-0.094957143 0.20064859 0.86700004 2.304348e-38
-0.093305722 0.20064859 0.86700004 2.3504458e-38
-0.091654293 0.20064859 0.86700004 2.2948783e-38
-0.090002865 0.20064859 0.86700004 2.1104871e-38
-0.086900003 0.20111144 0.86900002 2.3495447e-38
-0.1084181 0.20276666 0.86900002 2.2475165e-38
-0.10179714 0.20276666 0.86900002 2.2757882e-38
-0.10014191 0.20276666 0.86900002 2.3496887e-38
-0.098486669 0.20276666 0.86900002 2.2671102e-38
-0.095176198 0.20276666 0.86900002 2.2763651e-38
-0.093520947 0.20276666 0.86900002 2.2671455e-38
-0.086900003 0.20276666 0.86900002 2.3494256e-38
-0.11032668 0.20489238 0.87100005 1.867747e-38
-0.1084181 0.20442191 0.86900002 1.8222929e-38
-0.10179714 0.20442191 0.86900002 2.2476923e-38
-0.10014191 0.20442191 0.86900002 2.3495396e-38
-0.098486669 0.20442191 0.86900002 2.285403e-38
-0.096831433 0.20442191 0.86900002 2.202427e-38
-0.095176198 0.20442191 0.86900002 2.2665673e-38
-0.093520947 0.20442191 0.86900002 2.2204695e-38
-0.088351429 0.20395145 0.86700004 2.2764934e-38
-0.032500003 0.20583335 0.87500006 1.8151445e-38
-0.10203143 0.20655143 0.87100005 2.2189214e-38
-0.10014191 0.20607716 0.86900002 2.3484274e-38
-0.098486669 0.20607716 0.86900002 2.2755683e-38
-0.096831433 0.20607716 0.86900002 2.2294705e-38
-0.093736194 0.20655143 0.87100005 2.3492144e-38
-0.088351429 0.20560287 0.86700004 2.2956493e-38
-0.078623809 0.20607716 0.86900002 2.3142335e-38
-0.10392857 0.20868857 0.87300003 1.8764662e-38
-0.10203143 0.20821048 0.87100005 1.9042697e-38
-0.10037239 0.20821048 0.87100005 1.8212937e-38
-0.093736194 0.20821048 0.87100005 2.349827e-38
-0.092077151 0.20821048 0.87100005 2.3047983e-38
-0.0904181 0.20821048 0.87100005 2.3509684e-38
-0.08875905 0.20821048 0.87100005 2.3234142e-38
-0.10392857 0.21035142 0.87300003 1.8217621e-38
-0.10203143 0.20986953 0.87100005 1.812438e-38
-0.10037239 0.20986953 0.87100005 1.6557055e-38
-0.095614292 0.21035142 0.87300003 2.210196e-38
-0.093736194 0.20986953 0.87100005 2.3495699e-38
-0.092077151 0.20986953 0.87100005 2.3140929e-38
-0.0904181 0.20986953 0.87100005 2.3509713e-38
-0.08875905 0.20986953 0.87100005 2.3234163e-38
-0.087300003 0.21035142 0.87300003 2.3234163e-38
-0.085637145 0.21035142 0.87300003 2.3142305e-38
-0.10226572 0.21201429 0.87300003 2.1266588e-38
-0.09727715 0.21201429 0.87300003 1.470452e-38
-0.095614292 0.21201429 0.87300003 1.9138015e-38
-0.093951426 0.21201429 0.87300003 2.3471183e-38
-0.092288569 0.21201429 0.87300003 2.2481433e-38
-0.090625718 0.21201429 0.87300003 2.3500987e-38
-0.08896286 0.21201429 0.87300003 2.2956063e-38
-0.087300003 0.21201429 0.87300003 2.3509237e-38
-0.10060286 0.21367715 0.87300003 1.9330842e-38
-0.09894 0.21367715 0.87300003 1.7936755e-38
-0.09727715 0.21367715 0.87300003 1.4341125e-38
-0.095614292 0.21367715 0.87300003 1.6633704e-38
-0.093951426 0.21367715 0.87300003 2.0874688e-38
-0.092288569 0.21367715 0.87300003 2.1819181e-38
-0.090625718 0.21367715 0.87300003 2.348227e-38
-0.08896286 0.21367715 0.87300003 2.2670903e-38
-0.087300003 0.21367715 0.87300003 2.3316272e-38
-0.10060286 0.21534 0.87300003 1.9239347e-38
-0.09894 0.21534 0.87300003 1.8214466e-38
-0.09727715 0.21534 0.87300003 1.6923727e-38
-0.095614292 0.21534 0.87300003 1.7009362e-38
-0.093951426 0.21534 0.87300003 1.6087405e-38
-0.092288569 0.21534 0.87300003 1.9506792e-38
-0.090625718 0.21534 0.87300003 2.3102395e-38
-0.08896286 0.21534 0.87300003 2.2197015e-38
-0.087500006 0.21583335 0.87500006 2.3489194e-38
-0.10083334 0.21750002 0.87500006 1.9424806e-38
-0.099166676 0.21750002 0.87500006 1.9325094e-38
-0.09727715 0.21700287 0.87300003 1.7204595e-38
-0.095614292 0.21700287 0.87300003 1.7291301e-38
-0.093951426 0.21700287 0.87300003 1.6830323e-38
-0.092288569 0.21700287 0.87300003 1.7935544e-38
-0.090625718 0.21700287 0.87300003 2.1807738e-38
-0.08896286 0.21700287 0.87300003 2.1913922e-38
-0.087500006 0.21750002 0.87500006 2.3481607e-38
-0.10416667 0.21916668 0.87500006 2.0346019e-38
-0.09727715 0.21866572 0.87300003 1.8408508e-38
-0.095614292 0.21866572 0.87300003 1.8680376e-38
-0.093951426 0.21866572 0.87300003 2.0063311e-38
-0.092288569 0.21866572 0.87300003 1.9138846e-38
-0.090625718 0.21866572 0.87300003 1.7663716e-38
-0.08896286 0.21866572 0.87300003 2.080074e-38
-0.087500006 0.21916668 0.87500006 2.3013406e-38
-0.12626477 0.22159047 0.87800002 2.1080677e-38
-0.10416667 0.22083335 0.87500006 2.0621863e-38
-0.10060286 0.22032857 0.87300003 2.0071585e-38
-0.09894 0.22032857 0.87300003 2.0253139e-38
-0.09727715 0.22032857 0.87300003 1.8317031e-38
-0.095614292 0.22032857 0.87300003 1.8587455e-38
-0.093951426 0.22032857 0.87300003 1.8864042e-38
-0.092288569 0.22032857 0.87300003 1.8681055e-38
-0.090833336 0.22083335 0.87500006 1.7390316e-38
-0.089166671 0.22083335 0.87500006 1.8951474e-38
-0.087500006 0.22083335 0.87500006 2.1532949e-38
-0.10416667 0.22250001 0.87500006 2.1083551e-38
-0.10226572 0.22199143 0.87300003 2.071693e-38
-0.10060286 0.22199143 0.87300003 2.1085712e-38
-0.095833339 0.22250001 0.87500006 1.8218685e-38
-0.093951426 0.22199143 0.87300003 1.683575e-38
-0.092288569 0.22199143 0.87300003 1.7572148e-38
-0.090833336 0.22250001 0.87500006 1.9323864e-38
-0.036120001 0.22428 0.88200003 2.1568392e-38
-0.10416667 0.22416668 0.87500006 2.0806239e-38
-0.10226572 0.22365429 0.87300003 2.0621494e-38
-0.10060286 0.22365429 0.87300003 2.1635646e-38
-0.095833339 0.22416668 0.87500006 1.8403414e-38
-0.094166674 0.22416668 0.87500006 1.6928284e-38
-0.092500009 0.22416668 0.87500006 1.7389553e-38
-0.090833336 0.22416668 0.87500006 2.0247596e-38
-0.036120001 0.22596 0.88200003 2.2033326e-38
-0.034557145 0.22672859 0.88500005 2.3416256e-38
-0.10250001 0.22583334 0.87500006 2.071404e-38
-0.10083334 0.22583334 0.87500006 2.1175018e-38
-0.097500004 0.22583334 0.87500006 1.9976448e-38
-0.095833339 0.22583334 0.87500006 1.914314e-38
-0.094166674 0.22583334 0.87500006 1.8128988e-38
-0.092500009 0.22583334 0.87500006 1.8220808e-38
-0.090833336 0.22583334 0.87500006 2.1539851e-38
-0.087800004 0.22660762 0.87800002 1.6562437e-38
-0.036120001 0.22764 0.88200003 2.3231501e-38
-0.10250001 0.22750001 0.87500006 2.1268266e-38
-0.10083334 0.22750001 0.87500006 2.1268266e-38
-0.099166676 0.22750001 0.87500006 2.1174629e-38
-0.097500004 0.22750001 0.87500006 2.0529259e-38
-0.095833339 0.22750001 0.87500006 2.006614e-38
-0.094166674 0.22750001 0.87500006 1.8498814e-38
-0.092500009 0.22750001 0.87500006 1.7758382e-38
-0.090833336 0.22750001 0.87500006 1.9233512e-38
-0.089166671 0.22750001 0.87500006 1.905132e-38
-0.087800004 0.22827999 0.87800002 1.6838625e-38
-0.10250001 0.22916667 0.87500006 2.1730301e-38
-0.10083334 0.22916667 0.87500006 2.1730301e-38
-0.099166676 0.22916667 0.87500006 2.1637392e-38
-0.097500004 0.22916667 0.87500006 2.0162262e-38
-0.095833339 0.22916667 0.87500006 1.9697669e-38
-0.094166674 0.22916667 0.87500006 1.9328886e-38
-0.092500009 0.22916667 0.87500006 1.8218312e-38
