# .PCD v0.7 - Point Cloud Data file format
VERSION 0.7
FIELDS x y z rgb
SIZE 4 4 4 4
TYPE F F F F
COUNT 1 1 1 1
WIDTH 298
HEIGHT 1
VIEWPOINT 0 0 0 1 0 0 0
POINTS 298
DATA ascii
-0.0014828572 -0.16756286 1.557 1.5393395e-38
-0.0014828572 -0.16459715 1.557 1.7513542e-38
0.0014828572 -0.16459715 1.557 1.7146207e-38
-0.0014828572 -0.16163142 1.557 2.000211e-38
0.0014828572 -0.16163142 1.557 2.0094319e-38
0.0044485712 -0.16163142 1.557 2.0186514e-38
-0.0014828572 -0.15866572 1.557 1.981628e-38
0.0044285716 -0.15795238 1.5500001 2.0462375e-38
0.0073809526 -0.15795238 1.5500001 2.027871e-38
0.0014761905 -0.155 1.5500001 1.5017461e-38
0.0044285716 -0.155 1.5500001 1.6861373e-38
0.0073809526 -0.155 1.5500001 1.6033761e-38
0.0014761905 -0.15204762 1.5500001 1.4829405e-38
0.0044285716 -0.15204762 1.5500001 1.7595274e-38
0.0073809526 -0.15204762 1.5500001 1.6402175e-38
0.0014761905 -0.14909524 1.5500001 1.4823587e-38
0.0044285716 -0.14909524 1.5500001 1.9802151e-38
-0.051433336 -0.14548285 1.5430001 1.6764108e-38
0.0043885713 -0.14189714 1.536 1.3047098e-38
0.0043885713 -0.13897142 1.536 1.323615e-38
0.0043885713 -0.13604572 1.536 1.3698556e-38
0.0014561905 -0.13251334 1.529 1.4619422e-38
0.0043685711 -0.13251334 1.529 1.3513091e-38
0.0072809528 -0.13251334 1.529 1.3327268e-38
0.0014561905 -0.12960096 1.529 1.4061952e-38
0.0043685711 -0.12960096 1.529 1.4707311e-38
0.0072809528 -0.12960096 1.529 1.4067691e-38
-0.0043514287 -0.12619144 1.5230001 1.4520412e-38
-0.0014504762 -0.12619144 1.5230001 1.4981383e-38
0.0014504762 -0.12619144 1.5230001 1.4525434e-38
0.0043514287 -0.12619144 1.5230001 1.6184938e-38
0.0072523816 -0.12619144 1.5230001 1.5458879e-38
0.010153335 -0.12619144 1.5230001 1.5366684e-38
-0.0043514287 -0.12329049 1.5230001 1.574343e-38
-0.0014504762 -0.12329049 1.5230001 1.5374647e-38
0.0014504762 -0.12329049 1.5230001 1.7313935e-38
0.0043514287 -0.12329049 1.5230001 1.9618826e-38
0.0072523816 -0.12329049 1.5230001 1.8696214e-38
0.010153335 -0.12329049 1.5230001 1.7866453e-38
-0.0043514287 -0.12038954 1.5230001 1.4463143e-38
-0.0014504762 -0.12038954 1.5230001 1.390997e-38
0.0014504762 -0.12038954 1.5230001 1.6119756e-38
0.0043514287 -0.12038954 1.5230001 1.9070016e-38
0.0072523816 -0.12038954 1.5230001 1.8884934e-38
0.010153335 -0.12038954 1.5230001 1.8516151e-38
-0.0043514287 -0.11748858 1.5230001 1.5938666e-38
-0.0014504762 -0.11748858 1.5230001 1.6215253e-38
0.0014504762 -0.11748858 1.5230001 1.5842154e-38
0.0043514287 -0.11748858 1.5230001 1.7870458e-38
0.0072523816 -0.11748858 1.5230001 1.8978915e-38
0.010153335 -0.11748858 1.5230001 1.9163306e-38
-0.0043514287 -0.11458763 1.5230001 1.8429052e-38
-0.0014504762 -0.11458763 1.5230001 1.593977e-38
0.0014504762 -0.11458763 1.5230001 1.5473655e-38
0.0043514287 -0.11458763 1.5230001 1.8239524e-38
0.0072523816 -0.11458763 1.5230001 1.8978958e-38
0.010153335 -0.11458763 1.5230001 1.8978958e-38
-0.0043514287 -0.11168668 1.5230001 2.221265e-38
-0.0014504762 -0.11168668 1.5230001 1.7695065e-38
0.0014504762 -0.11168668 1.5230001 1.9531029e-38
0.0043514287 -0.11168668 1.5230001 2.3496161e-38
0.0072523816 -0.11168668 1.5230001 2.3042061e-38
0.010153335 -0.11168668 1.5230001 2.3226452e-38
0.012994286 -0.11117333 1.516 2.2950569e-38
0.015881905 -0.11117333 1.516 1.9631526e-38
-0.0043514287 -0.10878572 1.5230001 2.2211944e-38
-0.0014504762 -0.10878572 1.5230001 1.9630466e-38
0.0014504762 -0.10878572 1.5230001 2.1006176e-38
0.0072190473 -0.10828572 1.516 2.3228973e-38
0.012994286 -0.10828572 1.516 2.3135345e-38
0.015881905 -0.10828572 1.516 1.9724107e-38
-0.0043514287 -0.10588477 1.5230001 1.9169054e-38
-0.0014504762 -0.10588477 1.5230001 1.8154902e-38
0.0014504762 -0.10588477 1.5230001 1.998986e-38
0.0072190473 -0.1053981 1.516 1.9622172e-38
0.010106667 -0.1053981 1.516 1.925339e-38
0.012994286 -0.1053981 1.516 1.9068651e-38
0.015881905 -0.1053981 1.516 1.8699868e-38
-0.0043514287 -0.10298382 1.5230001 1.6679085e-38
-0.0014504762 -0.10298382 1.5230001 1.6033716e-38
0.0014504762 -0.10298382 1.5230001 1.6391725e-38
0.0072190473 -0.10251047 1.516 1.601898e-38
0.010106667 -0.10251047 1.516 1.537361e-38
0.012994286 -0.10251047 1.516 1.5556935e-38
0.015881905 -0.10251047 1.516 1.5925718e-38
-0.0043514287 -0.10008286 1.5230001 1.2243977e-38
-0.0014504762 -0.10008286 1.5230001 1.1137629e-38
0.0014504762 -0.10008286 1.5230001 1.3060085e-38
0.0043514287 -0.10008286 1.5230001 1.1216172e-38
0.0072523816 -0.10008286 1.5230001 1.2317464e-38
0.012994286 -0.099622861 1.516 1.1671388e-38
0.015881905 -0.099622861 1.516 1.1118215e-38
-0.0043514287 -0.097181909 1.5230001 1.3158305e-38
-0.0014504762 -0.097181909 1.5230001 1.3434887e-38
0.0014504762 -0.097181909 1.5230001 1.416929e-38
0.0043514287 -0.097181909 1.5230001 1.2878551e-38
0.0072523816 -0.097181909 1.5230001 1.3612195e-38
0.010153335 -0.097181909 1.5230001 1.2690239e-38
0.012994286 -0.096735239 1.516 1.2596932e-38
0.015881905 -0.096735239 1.516 1.1859367e-38
-0.0043514287 -0.094280958 1.5230001 1.5751651e-38
-0.0014504762 -0.094280958 1.5230001 1.3815543e-38
0.0014504762 -0.094280958 1.5230001 1.5190269e-38
0.0043514287 -0.094280958 1.5230001 1.4729291e-38
0.0072523816 -0.094280958 1.5230001 1.5370033e-38
0.010153335 -0.094280958 1.5230001 1.500125e-38
0.015881905 -0.093847618 1.516 1.3434589e-38
-0.0072523816 -0.091380008 1.5230001 1.8519219e-38
-0.0043514287 -0.091380008 1.5230001 1.7137453e-38
-0.0014504762 -0.091380008 1.5230001 1.4924758e-38
0.0014504762 -0.091380008 1.5230001 1.4272987e-38
0.0043514287 -0.091380008 1.5230001 1.3719813e-38
0.0072523816 -0.091380008 1.5230001 1.5278185e-38
0.010153335 -0.091380008 1.5230001 1.5093794e-38
0.015881905 -0.090960003 1.516 1.4539507e-38
-0.0072523816 -0.088479057 1.5230001 1.7781291e-38
-0.0043514287 -0.088479057 1.5230001 1.7228846e-38
-0.0014504762 -0.088479057 1.5230001 1.6491287e-38
0.0014504762 -0.088479057 1.5230001 1.4087867e-38
0.0043514287 -0.088479057 1.5230001 1.1967368e-38
0.0072523816 -0.088479057 1.5230001 1.2508363e-38
0.010153335 -0.088479057 1.5230001 1.213958e-38
0.015881905 -0.088072382 1.516 1.2787387e-38
-0.0072523816 -0.085578106 1.5230001 1.7502984e-38
-0.0043514287 -0.085578106 1.5230001 1.741007e-38
-0.0014504762 -0.085578106 1.5230001 1.6856896e-38
0.0014504762 -0.085578106 1.5230001 1.4457723e-38
0.0043514287 -0.085578106 1.5230001 1.2337224e-38
0.0072523816 -0.085578106 1.5230001 1.085459e-38
0.010153335 -0.085578106 1.5230001 1.2237524e-38
0.015881905 -0.08518476 1.516 1.3993194e-38
-0.0072523816 -0.082677148 1.5230001 1.1418453e-38
-0.0043514287 -0.082677148 1.5230001 1.2801725e-38
-0.0014504762 -0.082677148 1.5230001 1.4737813e-38
0.0014504762 -0.082677148 1.5230001 1.6032214e-38
0.0043514287 -0.082677148 1.5230001 1.7138561e-38
0.0072523816 -0.082677148 1.5230001 1.8894638e-38
0.010153335 -0.082677148 1.5230001 1.926342e-38
-0.0072523816 -0.079776198 1.5230001 9.9513056e-39
-0.0043514287 -0.079776198 1.5230001 1.1149824e-38
-0.0014504762 -0.079776198 1.5230001 1.2993736e-38
0.0014504762 -0.079776198 1.5230001 1.7045011e-38
0.0043514287 -0.079776198 1.5230001 1.916551e-38
0.0072523816 -0.079776198 1.5230001 1.8988672e-38
0.010153335 -0.079776198 1.5230001 1.7236955e-38
-0.016018094 -0.077178098 1.529 1.6224164e-38
-0.0072523816 -0.076875247 1.5230001 2.0277997e-38
-0.0043514287 -0.076875247 1.5230001 2.0648206e-38
-0.0014504762 -0.076875247 1.5230001 2.1109184e-38
0.0014504762 -0.076875247 1.5230001 2.0923363e-38
0.0043514287 -0.076875247 1.5230001 2.0831168e-38
0.0072523816 -0.076875247 1.5230001 1.8067773e-38
0.010153335 -0.076875247 1.5230001 2.1179561e-39
-0.0072523816 -0.073974289 1.5230001 2.0374747e-38
-0.0043514287 -0.073974289 1.5230001 2.1018455e-38
-0.0014504762 -0.073974289 1.5230001 2.0741869e-38
0.0014504762 -0.073974289 1.5230001 2.1016994e-38
0.0043514287 -0.073974289 1.5230001 2.0648211e-38
0.0072523816 -0.073974289 1.5230001 1.8435516e-38
0.010153335 -0.073974289 1.5230001 1.8403029e-39
-0.0072523816 -0.071073338 1.5230001 1.769535e-38
-0.0043514287 -0.071073338 1.5230001 1.935964e-38
-0.0014504762 -0.071073338 1.5230001 1.6778163e-38
0.0014504762 -0.071073338 1.5230001 1.4012313e-38
0.0043514287 -0.071073338 1.5230001 1.5303052e-38
0.0072523816 -0.071073338 1.5230001 1.5671106e-38
0.010153335 -0.071073338 1.5230001 4.1466524e-39
-0.0043685711 -0.068440951 1.529 1.8256918e-38
0.0043514287 -0.068172388 1.5230001 1.2087704e-38
0.0072523816 -0.068172388 1.5230001 1.3185857e-38
0.010153335 -0.068172388 1.5230001 3.8740984e-39
-0.0043685711 -0.065528572 1.529 1.31869e-38
-0.0014561905 -0.065528572 1.529 3.9673366e-39
0.0014504762 -0.06527143 1.5230001 9.9654195e-39
0.0043514287 -0.06527143 1.5230001 1.7709852e-38
0.0072523816 -0.06527143 1.5230001 1.742431e-38
0.010153335 -0.06527143 1.5230001 9.8642682e-39
-0.0043685711 -0.062616192 1.529 1.1988694e-38
-0.0014561905 -0.062616192 1.529 3.9676743e-39
0.0014504762 -0.062370483 1.5230001 1.1344729e-38
0.0043514287 -0.062370483 1.5230001 1.807501e-38
0.0072523816 -0.062370483 1.5230001 1.6505263e-38
0.010153335 -0.062370483 1.5230001 9.4983948e-39
-0.0043685711 -0.059703812 1.529 1.0517855e-38
-0.0014561905 -0.059703812 1.529 3.6031826e-39
0.0014504762 -0.059469528 1.5230001 8.8626172e-39
0.0043514287 -0.059469528 1.5230001 1.7160224e-38
0.0072523816 -0.059469528 1.5230001 1.7147373e-38
0.010153335 -0.059469528 1.5230001 1.1615635e-38
-0.013165714 -0.057051428 1.536 1.2903836e-38
-0.0043685711 -0.056791428 1.529 9.136012e-39
-0.0014561905 -0.056791428 1.529 5.632578e-39
0.0014561905 -0.056791428 1.529 8.1232543e-39
0.0043514287 -0.056568574 1.5230001 1.3839383e-38
0.0072523816 -0.056568574 1.5230001 1.6409768e-38
0.010153335 -0.056568574 1.5230001 1.2353161e-38
-0.0043685711 -0.053879049 1.529 1.1711013e-38
-0.0014561905 -0.053879049 1.529 1.281736e-38
0.0014561905 -0.053879049 1.529 1.1984688e-38
0.0043685711 -0.053879049 1.529 1.1892492e-38
0.0072523816 -0.053667624 1.5230001 1.6132405e-38
0.010153335 -0.053667624 1.5230001 1.6962166e-38
-0.0043685711 -0.050966669 1.529 1.3735717e-38
-0.0014561905 -0.050966669 1.529 1.5303042e-38
0.0014561905 -0.050966669 1.529 1.5572064e-38
0.0043685711 -0.050966669 1.529 1.5572064e-38
0.010153335 -0.050766669 1.5230001 1.7881258e-38
0.013105715 -0.050966669 1.529 1.6962917e-38
-0.0043685711 -0.048054285 1.529 1.6131361e-38
-0.0014561905 -0.048054285 1.529 1.7145513e-38
0.0014561905 -0.048054285 1.529 1.7234819e-38
0.0043685711 -0.048054285 1.529 1.7327015e-38
-0.063189529 -0.045555241 1.5430001 1.4478349e-38
-0.0014561905 -0.045141906 1.529 1.5485613e-38
0.0014561905 -0.045141906 1.529 1.3552019e-38
0.0043685711 -0.045141906 1.529 1.3828606e-38
0.0072809528 -0.045141906 1.529 1.2359937e-38
-0.010193333 -0.042229522 1.529 1.2535406e-38
-0.0014561905 -0.042229522 1.529 8.9390511e-39
0.0014561905 -0.042229522 1.529 9.5825231e-39
0.0043685711 -0.042229522 1.529 9.6747187e-39
0.0072809528 -0.042229522 1.529 1.3735955e-38
-0.0014561905 -0.039317142 1.529 1.0142492e-38
0.0014561905 -0.039317142 1.529 1.3360354e-38
0.0043685711 -0.039317142 1.529 1.3360354e-38
0.0072809528 -0.039317142 1.529 1.5940018e-38
-0.0014561905 -0.036404762 1.529 2.0000447e-38
0.0014561905 -0.036404762 1.529 1.7053494e-38
0.0043685711 -0.036404762 1.529 1.2535908e-38
0.0072809528 -0.036404762 1.529 1.4011468e-38
-0.0014561905 -0.033492379 1.529 2.0177404e-38
0.0014561905 -0.033492379 1.529 1.705318e-38
0.0043685711 -0.033492379 1.529 1.3457551e-38
0.0072809528 -0.033492379 1.529 1.3187476e-38
-0.0014561905 -0.030580001 1.529 1.8611474e-38
0.0014561905 -0.030580001 1.529 1.5765945e-38
0.0043685711 -0.030580001 1.529 1.4751794e-38
0.0072809528 -0.030580001 1.529 1.4664401e-38
0.0014561905 -0.027667619 1.529 1.3827699e-38
0.0043685711 -0.027667619 1.529 1.4657447e-38
0.0072809528 -0.027667619 1.529 1.4113738e-38
-0.0014628571 -0.02486857 1.536 1.335996e-38
0.0014628571 -0.02486857 1.536 1.1344195e-38
0.0043885713 -0.02486857 1.536 1.364906e-38
-0.0014628571 -0.021942858 1.536 1.2347596e-38
0.0014628571 -0.021942858 1.536 1.0147105e-38
0.0043885713 -0.021942858 1.536 1.3005146e-38
-0.0043885713 -0.019017143 1.536 1.409926e-38
-0.0014628571 -0.019017143 1.536 1.2808541e-38
0.0014628571 -0.019017143 1.536 1.0516301e-38
0.0043885713 -0.019017143 1.536 1.180704e-38
-0.0043885713 -0.016091429 1.536 1.1884805e-38
-0.0014628571 -0.016091429 1.536 1.3267718e-38
0.0014628571 -0.016091429 1.536 1.1256691e-38
0.0043885713 -0.016091429 1.536 1.1533278e-38
-0.0043885713 -0.013165714 1.536 1.2717444e-38
-0.0014628571 -0.013165714 1.536 1.4284769e-38
0.0014628571 -0.013165714 1.536 1.2730732e-38
0.0043885713 -0.013165714 1.536 1.4021471e-38
-0.0043885713 -0.01024 1.536 1.3920416e-38
-0.0014628571 -0.01024 1.536 1.4104808e-38
0.0014628571 -0.01024 1.536 1.4385666e-38
0.0043885713 -0.01024 1.536 1.4570057e-38
-0.0043885713 -0.0073142857 1.536 1.833792e-38
-0.0014628571 -0.0073142857 1.536 1.8614507e-38
0.0014628571 -0.0073142857 1.536 1.7789735e-38
0.0043885713 -0.0073142857 1.536 1.8342909e-38
-0.0043885713 -0.0043885713 1.536 1.8700552e-38
-0.0014628571 -0.0043885713 1.536 1.8884943e-38
0.0014628571 -0.0043885713 1.536 1.7044977e-38
0.0043885713 -0.0043885713 1.536 1.9257672e-38
0.054372385 -0.0044085714 1.5430001 1.0783626e-38
-0.0014628571 -0.0014628571 1.536 1.8518612e-38
0.0014628571 -0.0014628571 1.536 1.7041021e-38
0.0043885713 -0.0014628571 1.536 1.7962977e-38
0.054372385 -0.0014695239 1.5430001 1.0414494e-38
-0.0014695239 0.0014695239 1.5430001 1.8516123e-38
0.0043885713 0.0014628571 1.536 1.8699107e-38
-0.0014695239 0.0044085714 1.5430001 1.9807215e-38
-0.0014695239 0.0073476196 1.5430001 1.8512864e-38
-0.057571433 0.010333333 1.5500001 1.3636293e-38
-0.0014695239 0.010286667 1.5430001 1.5832296e-38
-0.0014695239 0.013225715 1.5430001 1.5368814e-38
-0.0014695239 0.016164763 1.5430001 1.4634154e-38
-0.0014695239 0.019103812 1.5430001 1.6210474e-38
-0.0014761905 0.022142859 1.5500001 1.9346175e-38
-0.0014761905 0.025095237 1.5500001 1.8512854e-38
-0.0014761905 0.028047619 1.5500001 1.7588024e-38
-0.0014761905 0.031000003 1.5500001 1.620583e-38
-0.0014761905 0.033952381 1.5500001 1.7312586e-38
-0.0014761905 0.03690476 1.5500001 1.8046914e-38
-0.0014761905 0.039857145 1.5500001 1.749374e-38
-0.0014761905 0.042809524 1.5500001 1.7680993e-38
0.05166667 0.042809524 1.5500001 1.2161869e-38
-0.0014761905 0.045761906 1.5500001 1.9527391e-38
0.054372385 0.045555241 1.5430001 1.1888157e-38
-0.0014761905 0.048714288 1.5500001 1.9069252e-38
-0.025321906 0.067028575 1.5640001 1.5638223e-38
