# .PCD v0.7 - Point Cloud Data file format
VERSION 0.7
FIELDS x y z rgb
SIZE 4 4 4 4
TYPE F F F F
COUNT 1 1 1 1
WIDTH 973
HEIGHT 1
VIEWPOINT 0 0 0 1 0 0 0
POINTS 973
DATA ascii
-0.11606 0.022896193 0.82900006 1.4159242e-38
-0.11448096 0.022896193 0.82900006 1.3882655e-38
-0.11290191 0.022896193 0.82900006 1.3693199e-38
-0.10068286 0.022288572 0.80700004 1.8297864e-38
-0.099145718 0.022288572 0.80700004 1.8297864e-38
-0.097608574 0.022288572 0.80700004 1.8115269e-38
-0.096071437 0.022288572 0.80700004 1.8115269e-38
-0.094534285 0.022288572 0.80700004 1.8392211e-38
-0.092997141 0.022288572 0.80700004 1.8576599e-38
-0.091686666 0.022343809 0.80900002 1.8668793e-38
-0.090145715 0.022343809 0.80900002 1.8853182e-38
-0.088385724 0.022288572 0.80700004 1.885354e-38
-0.086848572 0.022288572 0.80700004 1.9037929e-38
-0.085311428 0.022288572 0.80700004 1.8945735e-38
-0.083774291 0.022288572 0.80700004 1.8761346e-38
-0.082033344 0.022233333 0.80500007 1.9035418e-38
-0.080500007 0.022233333 0.80500007 1.9035418e-38
-0.075004764 0.022896193 0.82900006 1.7836926e-38
-0.068522863 0.022840953 0.82700002 1.8108497e-38
-0.066947617 0.022840953 0.82700002 1.8846062e-38
-0.065372378 0.022840953 0.82700002 1.7566065e-38
-0.063797139 0.022840953 0.82700002 1.8211435e-38
-0.062221903 0.022840953 0.82700002 1.6378385e-38
-0.060646668 0.022840953 0.82700002 1.6378385e-38
-0.059071429 0.022840953 0.82700002 1.8227332e-38
-0.057496194 0.022840953 0.82700002 1.8503919e-38
-0.055920955 0.022840953 0.82700002 1.758556e-38
-0.054345712 0.022840953 0.82700002 1.7677756e-38
-0.052770477 0.022840953 0.82700002 1.8141588e-38
-0.051195238 0.022840953 0.82700002 1.832598e-38
-0.049500003 0.022785716 0.82500005 1.8052993e-38
-0.047928575 0.022785716 0.82500005 1.7592014e-38
-0.046357144 0.022785716 0.82500005 1.8145141e-38
-0.044785716 0.022785716 0.82500005 2.0081249e-38
-0.043214288 0.022785716 0.82500005 2.0911398e-38
-0.04164286 0.022785716 0.82500005 1.7315768e-38
-0.13974573 0.024475239 0.82900006 1.2714324e-38
-0.13816668 0.024475239 0.82900006 1.4451272e-38
-0.13691714 0.024534287 0.83100003 1.343712e-38
-0.13533428 0.024534287 0.83100003 1.4992204e-38
-0.13375144 0.024534287 0.83100003 1.5084399e-38
-0.13216858 0.024534287 0.83100003 1.5366734e-38
-0.12869239 0.024475239 0.82900006 1.5000122e-38
-0.12711334 0.024475239 0.82900006 1.3340601e-38
-0.1255343 0.024475239 0.82900006 1.3702193e-38
-0.12395525 0.024475239 0.82900006 1.3794389e-38
-0.1223762 0.024475239 0.82900006 1.4539835e-38
-0.12079715 0.024475239 0.82900006 1.4816422e-38
-0.11420476 0.024416192 0.82700002 1.7407322e-38
-0.11262953 0.024416192 0.82700002 1.8326029e-38
-0.11078572 0.024357144 0.82500005 1.8418224e-38
-0.10921429 0.024357144 0.82500005 1.9241794e-38
-0.10764287 0.024357144 0.82500005 1.5000795e-38
-0.10607143 0.024357144 0.82500005 1.8117804e-38
-0.1045 0.024357144 0.82500005 1.8394391e-38
-0.10068286 0.023825716 0.80700004 1.8760629e-38
-0.099145718 0.023825716 0.80700004 1.8760629e-38
-0.097366676 0.023766669 0.80500007 1.8578393e-38
-0.095833339 0.023766669 0.80500007 1.830181e-38
-0.094300009 0.023766669 0.80500007 1.8576958e-38
-0.092997141 0.023825716 0.80700004 1.8669152e-38
-0.091460004 0.023825716 0.80700004 1.8668793e-38
-0.08992286 0.023825716 0.80700004 1.8945376e-38
-0.088385724 0.023825716 0.80700004 1.8762064e-38
-0.086848572 0.023825716 0.80700004 1.8762064e-38
-0.085311428 0.023825716 0.80700004 1.8854258e-38
-0.083774291 0.023825716 0.80700004 1.9038646e-38
-0.082033344 0.023766669 0.80500007 1.9130482e-38
-0.080500007 0.023766669 0.80500007 1.8853899e-38
-0.078966677 0.023766669 0.80500007 1.9678984e-38
-0.071673334 0.024416192 0.82700002 1.9409265e-38
-0.070098102 0.024416192 0.82700002 1.9778047e-38
-0.068522863 0.024416192 0.82700002 1.9312447e-38
-0.066947617 0.024416192 0.82700002 1.8943665e-38
-0.065214291 0.024357144 0.82500005 1.7294899e-38
-0.063642859 0.024357144 0.82500005 1.7663681e-38
-0.062071431 0.024357144 0.82500005 1.5279269e-38
-0.060500003 0.024357144 0.82500005 1.4910487e-38
-0.058928575 0.024357144 0.82500005 1.5003071e-38
-0.057357144 0.024357144 0.82500005 1.4818679e-38
-0.055785719 0.024357144 0.82500005 1.5559444e-38
-0.054214288 0.024357144 0.82500005 1.7034574e-38
-0.05264286 0.024357144 0.82500005 1.7129629e-38
-0.051071431 0.024357144 0.82500005 1.7314021e-38
-0.049500003 0.024357144 0.82500005 1.712928e-38
-0.047928575 0.024357144 0.82500005 1.5561955e-38
-0.046357144 0.024357144 0.82500005 1.8143756e-38
-0.044785716 0.024357144 0.82500005 1.9342299e-38
-0.043109521 0.024298096 0.82300001 2.1184735e-38
-0.041541904 0.024298096 0.82300001 1.8050083e-38
-0.039877143 0.02423905 0.82100004 1.361246e-38
-0.038313333 0.02423905 0.82100004 1.4073431e-38
-0.13974573 0.026054287 0.82900006 1.2619973e-38
-0.13816668 0.026054287 0.82900006 1.5461804e-38
-0.13658762 0.026054287 0.82900006 1.4263261e-38
-0.13500857 0.026054287 0.82900006 1.5173305e-38
-0.13342954 0.026054287 0.82900006 1.8584543e-38
-0.13185048 0.026054287 0.82900006 1.767635e-38
-0.13027143 0.026054287 0.82900006 1.8782698e-38
-0.12869239 0.026054287 0.82900006 1.7956903e-38
-0.12680666 0.025991429 0.82700002 1.611299e-38
-0.12523143 0.025991429 0.82700002 1.5923923e-38
-0.12365619 0.025991429 0.82700002 1.620051e-38
-0.12208095 0.025991429 0.82700002 1.7587728e-38
-0.12021429 0.025928574 0.82500005 1.8325293e-38
-0.11864286 0.025928574 0.82500005 1.7776102e-38
-0.11707143 0.025928574 0.82500005 1.7315123e-38
-0.11550001 0.025928574 0.82500005 1.7319805e-38
-0.11392858 0.025928574 0.82500005 1.6858827e-38
-0.11235715 0.025928574 0.82500005 1.7500228e-38
-0.11078572 0.025928574 0.82500005 1.8237793e-38
-0.10894953 0.025865715 0.82300001 1.9885445e-38
-0.1073819 0.025865715 0.82300001 1.4538099e-38
-0.10607143 0.025928574 0.82500005 1.8113834e-38
-0.1045 0.025928574 0.82500005 1.9496752e-38
-0.10043334 0.025300002 0.80500007 1.9036135e-38
-0.098900005 0.025300002 0.80500007 1.9036135e-38
-0.097366676 0.025300002 0.80500007 1.8669511e-38
-0.095833339 0.025300002 0.80500007 1.8485122e-38
-0.094300009 0.025300002 0.80500007 1.8670228e-38
-0.092766672 0.025300002 0.80500007 1.8578034e-38
-0.091233335 0.025300002 0.80500007 1.8669152e-38
-0.089700006 0.025300002 0.80500007 1.8761346e-38
-0.087947622 0.025237143 0.80300003 1.8577316e-38
-0.0864181 0.025237143 0.80300003 1.8485122e-38
-0.083359048 0.025237143 0.80300003 1.9314512e-38
-0.081829526 0.025237143 0.80300003 1.9131199e-38
-0.080300003 0.025237143 0.80300003 1.8670228e-38
-0.076214284 0.025928574 0.82500005 1.9135584e-38
-0.074642867 0.025928574 0.82500005 1.9962098e-38
-0.073071435 0.025928574 0.82500005 2.0238685e-38
-0.071500003 0.025928574 0.82500005 2.014576e-38
-0.069928572 0.025928574 0.82500005 2.0330152e-38
-0.068357147 0.025928574 0.82500005 2.0145448e-38
-0.066785723 0.025928574 0.82500005 2.0145448e-38
-0.065214291 0.025928574 0.82500005 1.6838589e-38
-0.063642859 0.025928574 0.82500005 1.619322e-38
-0.062071431 0.025928574 0.82500005 1.3626563e-38
-0.060500003 0.025928574 0.82500005 1.3534367e-38
-0.058785714 0.025865715 0.82300001 1.3442904e-38
-0.057218097 0.025865715 0.82300001 1.3996078e-38
-0.055650476 0.025865715 0.82300001 1.4736471e-38
-0.053951431 0.025802858 0.82100004 1.5658427e-38
-0.052387621 0.025802858 0.82100004 1.6486383e-38
-0.050947621 0.025865715 0.82300001 1.6947361e-38
-0.049379997 0.025865715 0.82300001 1.6670055e-38
-0.04781238 0.025865715 0.82300001 1.6116882e-38
-0.046244759 0.025865715 0.82300001 1.7867847e-38
-0.044677142 0.025865715 0.82300001 1.9342977e-38
-0.043109521 0.025865715 0.82300001 2.1550663e-38
-0.039877143 0.025802858 0.82100004 1.4527945e-38
-0.038313333 0.025802858 0.82100004 1.4988916e-38
-0.13907143 0.027500002 0.82500005 1.2526699e-38
-0.13750002 0.027500002 0.82500005 1.481358e-38
-0.13592857 0.027500002 0.82500005 1.4721384e-38
-0.13435715 0.027500002 0.82500005 1.629224e-38
-0.13278572 0.027500002 0.82500005 1.9334696e-38
-0.13153239 0.027566668 0.82700002 1.8423276e-38
-0.12964287 0.027500002 0.82500005 1.8423276e-38
-0.12807143 0.027500002 0.82500005 1.8148156e-38
-0.12650001 0.027500002 0.82500005 1.870133e-38
-0.12492857 0.027500002 0.82500005 1.824214e-38
-0.12335715 0.027500002 0.82500005 1.8334335e-38
-0.12178572 0.027500002 0.82500005 1.7965538e-38
-0.11992285 0.027433334 0.82300001 1.8703103e-38
-0.11835524 0.027433334 0.82300001 1.6858502e-38
-0.11707143 0.027500002 0.82500005 1.1603351e-38
-0.11550001 0.027500002 0.82500005 1.6398928e-38
-0.11392858 0.027500002 0.82500005 1.8058449e-38
-0.11208476 0.027433334 0.82300001 1.8700569e-38
-0.11051714 0.027433334 0.82300001 1.9438134e-38
-0.10868476 0.027366666 0.82100004 2.1089374e-38
-0.10712095 0.027366666 0.82100004 1.3621528e-38
-0.10555715 0.027366666 0.82100004 1.7557799e-38
-0.10171334 0.026766667 0.80300003 1.9401692e-38
-0.10018381 0.026766667 0.80300003 1.8943941e-38
-0.098654293 0.026766667 0.80300003 1.8943941e-38
-0.097124763 0.026766667 0.80300003 1.8668434e-38
-0.095595248 0.026766667 0.80300003 1.8668434e-38
-0.094065718 0.026766667 0.80300003 1.8669511e-38
-0.092536189 0.026766667 0.80300003 1.8669511e-38
-0.091006674 0.026766667 0.80300003 1.8760987e-38
-0.089477144 0.026766667 0.80300003 1.8760987e-38
-0.087947622 0.026766667 0.80300003 1.8760987e-38
-0.0864181 0.026766667 0.80300003 1.8668793e-38
-0.084782861 0.026733335 0.80200005 1.9036853e-38
-0.083255246 0.026733335 0.80200005 1.9221241e-38
-0.081829526 0.026766667 0.80300003 1.9311642e-38
-0.080300003 0.026766667 0.80300003 1.9219447e-38
-0.0744619 0.027433334 0.82300001 1.9588296e-38
-0.072894283 0.027433334 0.82300001 2.097123e-38
-0.071326666 0.027433334 0.82300001 2.0604227e-38
-0.069759049 0.027433334 0.82300001 2.0880814e-38
-0.068191424 0.027433334 0.82300001 2.0329839e-38
-0.066623807 0.027433334 0.82300001 2.0422035e-38
-0.06505619 0.027433334 0.82300001 1.8034281e-38
-0.063488573 0.027433334 0.82300001 1.7942085e-38
-0.061920948 0.027433334 0.82300001 1.6754338e-38
-0.060353335 0.027433334 0.82300001 1.6385555e-38
-0.058642861 0.027366666 0.82100004 1.6478124e-38
-0.057079051 0.027366666 0.82100004 1.8322036e-38
-0.055515241 0.027366666 0.82100004 1.7956819e-38
-0.053820003 0.027300002 0.81900007 1.7772427e-38
-0.052260004 0.027300002 0.81900007 1.8506733e-38
-0.050700005 0.027300002 0.81900007 1.9059907e-38
-0.049140003 0.027300002 0.81900007 1.9059904e-38
-0.047696192 0.027366666 0.82100004 1.8967708e-38
-0.046132382 0.027366666 0.82100004 1.9797417e-38
-0.044460002 0.027300002 0.81900007 2.099596e-38
-0.039877143 0.027366666 0.82100004 1.3323322e-38
-0.1387343 0.029000953 0.82300001 1.2800765e-38
-0.13716668 0.029000953 0.82300001 1.4534761e-38
-0.13559905 0.029000953 0.82300001 1.8499153e-38
-0.13403143 0.029000953 0.82300001 1.7128927e-38
-0.13246381 0.029000953 0.82300001 1.7682101e-38
-0.1308962 0.029000953 0.82300001 1.6034827e-38
-0.12932856 0.029000953 0.82300001 1.575824e-38
-0.12776095 0.029000953 0.82300001 1.6126319e-38
-0.12619334 0.029000953 0.82300001 1.6679493e-38
-0.12462571 0.029000953 0.82300001 1.6311809e-38
-0.12275905 0.028930476 0.82100004 1.419131e-38
-0.12119524 0.028930476 0.82100004 1.1699863e-38
-0.11963143 0.028930476 0.82100004 1.4834514e-38
-0.11806762 0.028930476 0.82100004 1.5296937e-38
-0.11650381 0.028930476 0.82100004 1.4006198e-38
-0.11522 0.029000953 0.82300001 1.6215984e-38
-0.11337619 0.028930476 0.82100004 1.7967701e-38
-0.11181239 0.028930476 0.82100004 1.8795661e-38
-0.11024858 0.028930476 0.82100004 1.8887857e-38
-0.10842001 0.028860003 0.81900007 2.1459623e-38
-0.10686001 0.028860003 0.81900007 1.3899582e-38
-0.098531432 0.028260954 0.80200005 1.9036494e-38
-0.09700381 0.028260954 0.80200005 1.8762064e-38
-0.095476195 0.028260954 0.80200005 1.8762064e-38
-0.093948573 0.028260954 0.80200005 1.8761705e-38
-0.092420958 0.028260954 0.80200005 1.8853899e-38
-0.090893336 0.028260954 0.80200005 1.8853899e-38
-0.089365721 0.028260954 0.80200005 1.8853899e-38
-0.087838098 0.028260954 0.80200005 1.9037929e-38
-0.084571429 0.028190477 0.80000001 1.9220882e-38
-0.081727624 0.028260954 0.80200005 1.9310924e-38
-0.080200009 0.028260954 0.80200005 1.9679701e-38
-0.078672379 0.028260954 0.80200005 1.9679701e-38
-0.077144764 0.028260954 0.80200005 1.9679701e-38
-0.072540008 0.028860003 0.81900007 2.1153075e-38
-0.071153335 0.028930476 0.82100004 2.0602795e-38
-0.069589525 0.028930476 0.82100004 2.0787187e-38
-0.068025716 0.028930476 0.82100004 2.0145079e-38
-0.066461906 0.028930476 0.82100004 2.0052884e-38
-0.064898096 0.028930476 0.82100004 1.8583502e-38
-0.063334286 0.028930476 0.82100004 1.904448e-38
-0.061770476 0.028930476 0.82100004 1.8683241e-38
-0.06020667 0.028930476 0.82100004 1.8222262e-38
-0.058500003 0.028860003 0.81900007 1.8589282e-38
-0.056940004 0.028860003 0.81900007 2.0248803e-38
-0.055380005 0.028860003 0.81900007 2.0160897e-38
-0.053820003 0.028860003 0.81900007 1.9792115e-38
-0.052260004 0.028860003 0.81900007 2.0156926e-38
-0.050576191 0.028789526 0.81700003 2.0433513e-38
-0.04902 0.028789526 0.81700003 2.0802276e-38
-0.047463812 0.028789526 0.81700003 2.0525689e-38
-0.04590762 0.028789526 0.81700003 2.0616388e-38
-0.044242859 0.028719049 0.81500006 2.2552496e-38
-0.13839714 0.030494286 0.82100004 1.2522736e-38
-0.13683334 0.030494286 0.82100004 1.4903897e-38
-0.13559905 0.030568572 0.82300001 2.0620006e-38
-0.13370572 0.030494286 0.82100004 1.7959815e-38
-0.13214192 0.030494286 0.82100004 1.7959815e-38
-0.1305781 0.030494286 0.82100004 1.5575631e-38
-0.1287 0.030420002 0.81900007 1.2348784e-38
-0.12714 0.030420002 0.81900007 1.2073649e-38
-0.12558001 0.030420002 0.81900007 1.3087801e-38
-0.12402001 0.030420002 0.81900007 1.4371766e-38
-0.12246001 0.030420002 0.81900007 1.344981e-38
-0.12090001 0.030420002 0.81900007 1.3351825e-38
-0.11934 0.030420002 0.81900007 1.5564521e-38
-0.11778001 0.030420002 0.81900007 1.584577e-38
-0.11622001 0.030420002 0.81900007 1.584577e-38
-0.11466001 0.030420002 0.81900007 1.6487546e-38
-0.11310001 0.030420002 0.81900007 1.6487546e-38
-0.11126762 0.030345716 0.81700003 1.7219703e-38
-0.096761905 0.029714286 0.80000001 1.8945735e-38
-0.095238097 0.029714286 0.80000001 1.8761346e-38
-0.093714289 0.029714286 0.80000001 1.8761705e-38
-0.092190482 0.029714286 0.80000001 1.8761705e-38
-0.090666667 0.029714286 0.80000001 1.8852823e-38
-0.089142852 0.029714286 0.80000001 1.9037211e-38
-0.087619044 0.029714286 0.80000001 1.8945017e-38
-0.084360003 0.029640002 0.79800004 1.9126536e-38
-0.079999998 0.029714286 0.80000001 2.1059783e-38
-0.078476191 0.029714286 0.80000001 2.0510167e-38
-0.069250479 0.030345716 0.81700003 2.0504128e-38
-0.067694284 0.030345716 0.81700003 1.9495381e-38
-0.066300005 0.030420002 0.81900007 1.931099e-38
-0.064740002 0.030420002 0.81900007 1.8030318e-38
-0.063180007 0.030420002 0.81900007 1.7845927e-38
-0.061620004 0.030420002 0.81900007 1.7390319e-38
-0.060060002 0.030420002 0.81900007 1.8127884e-38
-0.058357142 0.030345716 0.81700003 1.8311625e-38
-0.056800954 0.030345716 0.81700003 1.9602363e-38
-0.055244766 0.030345716 0.81700003 1.9236074e-38
-0.053557146 0.03027143 0.81500006 1.8775096e-38
-0.052004766 0.03027143 0.81500006 1.8954114e-38
-0.050452381 0.03027143 0.81500006 1.7755571e-38
-0.048900004 0.03027143 0.81500006 1.839832e-38
-0.047347624 0.03027143 0.81500006 1.8029538e-38
-0.045682859 0.030197144 0.81300002 1.8305039e-38
-0.13806 0.03198 0.81900007 1.491765e-38
-0.13650002 0.03198 0.81900007 1.6755315e-38
-0.13494001 0.03198 0.81900007 1.9889941e-38
-0.13338001 0.03198 0.81900007 1.9530288e-38
-0.13182001 0.03198 0.81900007 1.8700527e-38
-0.13026001 0.03198 0.81900007 1.4749794e-38
-0.12838572 0.031901907 0.81700003 1.1061969e-38
-0.12682953 0.031901907 0.81700003 1.0783977e-38
-0.12527333 0.031901907 0.81700003 1.0968368e-38
-0.12371714 0.031901907 0.81700003 1.3079179e-38
-0.12216096 0.031901907 0.81700003 1.3171375e-38
-0.12060476 0.031901907 0.81700003 1.4638201e-38
-0.11904858 0.031901907 0.81700003 1.4730396e-38
-0.11749239 0.031901907 0.81700003 1.4085755e-38
-0.11593619 0.031901907 0.81700003 1.4915516e-38
-0.11438 0.031901907 0.81700003 1.5651634e-38
-0.11282381 0.031901907 0.81700003 1.6665786e-38
-0.09828572 0.031238094 0.80000001 1.9312359e-38
-0.096761905 0.031238094 0.80000001 1.9220882e-38
-0.095238097 0.031238094 0.80000001 1.8852105e-38
-0.093480006 0.031160003 0.79800004 1.8759911e-38
-0.091960005 0.031160003 0.79800004 1.8759911e-38
-0.090440005 0.031160003 0.79800004 1.8759552e-38
-0.088920005 0.031160003 0.79800004 1.8759552e-38
-0.084148578 0.031081906 0.79600006 1.9310924e-38
-0.079999998 0.031238094 0.80000001 2.1611844e-38
-0.078476191 0.031238094 0.80000001 2.078532e-38
-0.070459999 0.031745713 0.81300002 2.0318295e-38
-0.069080956 0.03182381 0.81500006 2.0687078e-38
-0.06736286 0.031745713 0.81300002 1.9770526e-38
-0.065814286 0.031745713 0.81300002 1.9401744e-38
-0.064423814 0.03182381 0.81500006 1.7844475e-38
-0.063025713 0.031901907 0.81700003 1.5908367e-38
-0.061469521 0.031901907 0.81700003 1.5629612e-38
-0.059913337 0.031901907 0.81700003 1.8579854e-38
-0.058214288 0.03182381 0.81500006 1.8218713e-38
-0.056661908 0.03182381 0.81500006 1.997043e-38
-0.055109527 0.03182381 0.81500006 1.9328658e-38
-0.053557146 0.03182381 0.81500006 1.8867679e-38
-0.052004766 0.03182381 0.81500006 1.8770802e-38
-0.050452381 0.03182381 0.81500006 1.7295672e-38
-0.048780002 0.031745713 0.81300002 1.8029178e-38
-0.047231432 0.031745713 0.81300002 1.7936982e-38
-0.045682859 0.031745713 0.81300002 1.8305397e-38
-0.044025715 0.031667624 0.81100005 2.1440025e-38
-0.13806 0.033540003 0.81900007 2.0175672e-38
-0.13650002 0.033540003 0.81900007 2.0454214e-38
-0.13494001 0.033540003 0.81900007 2.0915192e-38
-0.13305429 0.033458095 0.81700003 1.9718488e-38
-0.1314981 0.033458095 0.81700003 1.9073118e-38
-0.12994191 0.033458095 0.81700003 1.8061221e-38
-0.12838572 0.033458095 0.81700003 1.5571939e-38
-0.12682953 0.033458095 0.81700003 1.4826195e-38
-0.12527333 0.033458095 0.81700003 1.4457412e-38
-0.12371714 0.033458095 0.81700003 1.5003694e-38
-0.12216096 0.033458095 0.81700003 1.3897347e-38
-0.12060476 0.033458095 0.81700003 1.5918816e-38
-0.11875715 0.033376191 0.81500006 1.6011012e-38
-0.11720477 0.033376191 0.81500006 1.6193981e-38
-0.11565238 0.033376191 0.81500006 1.683935e-38
-0.11410001 0.033376191 0.81500006 1.6839688e-38
-0.11254763 0.033376191 0.81500006 1.6839688e-38
-0.094761908 0.032598101 0.79600006 1.977333e-38
-0.093245715 0.032598101 0.79600006 1.9681495e-38
-0.090440005 0.032680001 0.79800004 1.9495313e-38
-0.088697143 0.032598101 0.79600006 1.9587507e-38
-0.083937146 0.032516193 0.79400003 2.1342832e-38
-0.070459999 0.033294287 0.81300002 2.0690665e-38
-0.068911433 0.033294287 0.81300002 2.0875056e-38
-0.06736286 0.033294287 0.81300002 2.0230791e-38
-0.065814286 0.033294287 0.81300002 2.0691769e-38
-0.064265721 0.033294287 0.81300002 1.8673867e-38
-0.062717147 0.033294287 0.81300002 1.6184585e-38
-0.061168574 0.033294287 0.81300002 1.6553008e-38
-0.05962 0.033294287 0.81300002 1.8212529e-38
-0.058071431 0.033294287 0.81300002 1.8125801e-38
-0.056522857 0.033294287 0.81300002 2.1260453e-38
-0.054974288 0.033294287 0.81300002 2.0066972e-38
-0.05329429 0.033212382 0.81100005 1.9790385e-38
-0.051749524 0.033212382 0.81100005 1.9786399e-38
-0.050204765 0.033212382 0.81100005 1.7665899e-38
-0.048660003 0.033212382 0.81100005 1.7841939e-38
-0.04711524 0.033212382 0.81100005 1.6919983e-38
-0.045570478 0.033212382 0.81100005 1.7654298e-38
-0.044025715 0.033212382 0.81100005 2.0327967e-38
-0.039197143 0.03304857 0.80700004 1.3599187e-38
-0.13772286 0.035014287 0.81700003 2.0914657e-38
-0.13616668 0.035014287 0.81700003 2.1562741e-38
-0.13461047 0.035014287 0.81700003 2.1101763e-38
-0.13272858 0.034928575 0.81500006 2.0917004e-38
-0.1311762 0.034928575 0.81500006 2.1654569e-38
-0.12962382 0.034928575 0.81500006 2.1190137e-38
-0.12807143 0.034928575 0.81500006 1.731792e-38
-0.12651907 0.034928575 0.81500006 1.8868733e-38
-0.12496667 0.034928575 0.81500006 1.9053125e-38
-0.12341429 0.034928575 0.81500006 1.9144229e-38
-0.12186191 0.034928575 0.81500006 1.8591055e-38
-0.12030953 0.034928575 0.81500006 1.8770061e-38
-0.11875715 0.034928575 0.81500006 1.8954452e-38
-0.11691714 0.03484286 0.81300002 1.9230306e-38
-0.11536857 0.03484286 0.81300002 1.9045915e-38
-0.11382 0.03484286 0.81300002 1.9043776e-38
-0.11227143 0.03484286 0.81300002 1.9043776e-38
-0.09452381 0.034028571 0.79400003 1.9957719e-38
-0.093011431 0.034028571 0.79400003 2.0141031e-38
-0.091499053 0.034028571 0.79400003 2.1062973e-38
-0.090213336 0.03411429 0.79600006 2.0511653e-38
-0.088697143 0.03411429 0.79600006 2.078824e-38
-0.070286669 0.034757145 0.81100005 2.1060164e-38
-0.068741903 0.034757145 0.81100005 2.0691381e-38
-0.067197151 0.034757145 0.81100005 2.0414791e-38
-0.065652385 0.034757145 0.81100005 2.1521139e-38
-0.064107619 0.034757145 0.81100005 1.9594054e-38
-0.062562861 0.034757145 0.81100005 1.7381359e-38
-0.061018094 0.034757145 0.81100005 1.7473169e-38
-0.059326664 0.034671426 0.80900002 1.8579516e-38
-0.057785716 0.034671426 0.80900002 1.8123638e-38
-0.054703813 0.034671426 0.80900002 1.9423008e-38
-0.053162854 0.034671426 0.80900002 1.9238617e-38
-0.051621906 0.034671426 0.80900002 1.9786755e-38
-0.050080951 0.034671426 0.80900002 1.757406e-38
-0.048540004 0.034671426 0.80900002 1.7841242e-38
-0.046999045 0.034671426 0.80900002 1.7195873e-38
-0.045458097 0.034671426 0.80900002 1.7655015e-38
-0.043917142 0.034671426 0.80900002 2.0144295e-38
-0.13738571 0.036480956 0.81500006 2.1376326e-38
-0.13583335 0.036480956 0.81500006 2.1195704e-38
-0.13428096 0.036480956 0.81500006 2.1195704e-38
-0.13272858 0.036480956 0.81500006 2.1010957e-38
-0.13085429 0.03639143 0.81300002 2.2209482e-38
-0.12930572 0.03639143 0.81300002 2.1836913e-38
-0.12775715 0.03639143 0.81300002 1.9255436e-38
-0.12620857 0.03639143 0.81300002 2.0170991e-38
-0.12466 0.03639143 0.81300002 2.0263186e-38
-0.12311143 0.03639143 0.81300002 2.0720231e-38
-0.12156286 0.03639143 0.81300002 2.1734383e-38
-0.12001429 0.03639143 0.81300002 2.1271571e-38
-0.11846571 0.03639143 0.81300002 2.0626201e-38
-0.11662953 0.036301903 0.81100005 2.0252399e-38
-0.11508477 0.036301903 0.81100005 2.0252399e-38
-0.11354001 0.036301903 0.81100005 2.1546025e-38
-0.11199524 0.036301903 0.81100005 2.1730416e-38
-0.091499053 0.035540953 0.79400003 2.2354062e-38
-0.089986667 0.035540953 0.79400003 2.1436174e-38
-0.088474289 0.035540953 0.79400003 2.30035e-38
-0.08696191 0.035540953 0.79400003 2.1621279e-38
-0.070113339 0.036212385 0.80900002 2.1437568e-38
-0.068741903 0.036301903 0.81100005 2.0607808e-38
-0.067031428 0.036212385 0.80900002 2.1066625e-38
-0.065490477 0.036212385 0.80900002 2.1527603e-38
-0.064107619 0.036301903 0.81100005 2.0423098e-38
-0.06240857 0.036212385 0.80900002 1.9501142e-38
-0.060867622 0.036212385 0.80900002 1.8951205e-38
-0.059326664 0.036212385 0.80900002 1.9135597e-38
-0.057785716 0.036212385 0.80900002 1.7848486e-38
-0.056244761 0.036212385 0.80900002 1.4621639e-38
-0.054703813 0.036212385 0.80900002 1.5727905e-38
-0.053162854 0.036212385 0.80900002 1.6926433e-38
-0.051494289 0.036122859 0.80700004 1.7198753e-38
-0.049957145 0.036122859 0.80700004 1.6737774e-38
-0.048540004 0.036212385 0.80900002 1.7838031e-38
-0.046999045 0.036212385 0.80900002 1.7930226e-38
-0.043917142 0.036212385 0.80900002 1.9221308e-38
-0.042376194 0.036212385 0.80900002 1.7204492e-38
-0.13550001 0.037940003 0.81300002 2.1286164e-38
-0.13395143 0.037940003 0.81300002 2.0825186e-38
-0.13240287 0.037940003 0.81300002 2.1103151e-38
-0.13085429 0.037940003 0.81300002 2.2025094e-38
-0.12898763 0.03784667 0.81100005 2.1560993e-38
-0.12744285 0.03784667 0.81100005 2.0454646e-38
-0.12589811 0.03784667 0.81100005 2.036106e-38
-0.12435335 0.03784667 0.81100005 2.0176669e-38
-0.12280858 0.03784667 0.81100005 1.8973514e-38
-0.12126382 0.03784667 0.81100005 2.054084e-38
-0.12001429 0.037940003 0.81300002 2.0723769e-38
-0.11817429 0.03784667 0.81100005 2.0539378e-38
-0.11662953 0.03784667 0.81100005 1.9335132e-38
-0.11480095 0.037753332 0.80900002 2.062587e-38
-0.11326 0.037753332 0.80900002 2.1736512e-38
-0.11199524 0.03784667 0.81100005 2.1644316e-38
-0.1101781 0.037753332 0.80900002 2.0905319e-38
-0.10836858 0.037660003 0.80700004 1.9061406e-38
-0.070113339 0.037753332 0.80900002 2.152907e-38
-0.06857238 0.037753332 0.80900002 2.1160288e-38
-0.067031428 0.037753332 0.80900002 2.0976247e-38
-0.065490477 0.037753332 0.80900002 2.0976247e-38
-0.063949525 0.037753332 0.80900002 2.0882632e-38
-0.06240857 0.037753332 0.80900002 2.0329458e-38
-0.060717143 0.037660003 0.80700004 2.0145432e-38
-0.059180003 0.037660003 0.80700004 2.0053237e-38
-0.057642858 0.037660003 0.80700004 1.7389638e-38
-0.056105718 0.037660003 0.80700004 1.3517421e-38
-0.054433338 0.037566669 0.80500007 1.4247416e-38
-0.052900005 0.037566669 0.80500007 1.5261553e-38
-0.051239051 0.037473332 0.80300003 1.6272461e-38
-0.049709525 0.037473332 0.80300003 1.73788e-38
-0.048300002 0.037566669 0.80500007 1.7561772e-38
-0.046766669 0.037566669 0.80500007 1.7653967e-38
-0.045233335 0.037566669 0.80500007 1.7838699e-38
-0.043591432 0.037473332 0.80300003 1.9037242e-38
-0.042061906 0.037473332 0.80300003 1.6556986e-38
-0.04048191 0.037426669 0.80200005 1.3606726e-38
-0.13980097 0.039391432 0.81100005 1.3543362e-38
-0.13825619 0.039391432 0.81100005 1.6672114e-38
-0.13637429 0.039294288 0.80900002 2.0175548e-38
-0.13483334 0.039294288 0.80900002 2.1282876e-38
-0.13329238 0.039294288 0.80900002 2.0821905e-38
-0.13175143 0.039294288 0.80900002 2.1469417e-38
-0.13021049 0.039294288 0.80900002 2.1653806e-38
-0.12866952 0.039294288 0.80900002 2.1378658e-38
-0.12712857 0.039294288 0.80900002 2.1286464e-38
-0.12558763 0.039294288 0.80900002 2.0639669e-38
-0.12374 0.039197143 0.80700004 2.1192834e-38
-0.12220286 0.039197143 0.80700004 2.1372013e-38
-0.12066572 0.039197143 0.80700004 2.1095426e-38
-0.11912858 0.039197143 0.80700004 2.0354618e-38
-0.11759143 0.039197143 0.80700004 2.0907792e-38
-0.1160543 0.039197143 0.80700004 2.1181202e-38
-0.11451714 0.039197143 0.80700004 2.0628028e-38
-0.11298 0.039197143 0.80700004 2.1182912e-38
-0.11144286 0.039197143 0.80700004 2.1736086e-38
-0.10990572 0.039197143 0.80700004 2.1553174e-38
-0.10836858 0.039197143 0.80700004 2.1460978e-38
-0.071300007 0.039100002 0.80500007 2.1449122e-38
-0.06976667 0.039100002 0.80500007 2.1813226e-38
-0.068233334 0.039100002 0.80500007 2.1536639e-38
-0.066700004 0.039100002 0.80500007 2.1627743e-38
-0.065166667 0.039100002 0.80500007 2.1166765e-38
-0.063633338 0.039100002 0.80500007 2.0792972e-38
-0.062100001 0.039100002 0.80500007 2.0792972e-38
-0.060566671 0.039100002 0.80500007 2.0609287e-38
-0.059033338 0.039100002 0.80500007 2.0332701e-38
-0.057357144 0.039002858 0.80300003 1.9321786e-38
-0.055827621 0.039002858 0.80300003 1.8953003e-38
-0.054298095 0.039002858 0.80300003 1.8678202e-38
-0.052768573 0.039002858 0.80300003 1.8401615e-38
-0.051239051 0.039002858 0.80300003 1.8489845e-38
-0.049709525 0.039002858 0.80300003 1.8213258e-38
-0.048179999 0.039002858 0.80300003 1.885575e-38
-0.046650477 0.039002858 0.80300003 1.9869902e-38
-0.045120955 0.039002858 0.80300003 1.9412499e-38
-0.043537147 0.038954284 0.80200005 2.0242259e-38
-0.14099714 0.040835235 0.80900002 1.3726674e-38
-0.13945618 0.040835235 0.80900002 1.4187652e-38
-0.13791524 0.040835235 0.80900002 1.749864e-38
-0.13637429 0.040835235 0.80900002 2.0633292e-38
-0.13483334 0.040835235 0.80900002 2.0265511e-38
-0.13329238 0.040835235 0.80900002 2.1095265e-38
-0.13175143 0.040835235 0.80900002 2.0727931e-38
-0.12988858 0.040734287 0.80700004 2.1926474e-38
-0.12835144 0.040734287 0.80700004 2.1376217e-38
-0.12681429 0.040734287 0.80700004 2.1191825e-38
-0.12527715 0.040734287 0.80700004 2.1097494e-38
-0.12374 0.040734287 0.80700004 2.1650668e-38
-0.12220286 0.040734287 0.80700004 2.2664191e-38
-0.12036668 0.040633336 0.80500007 2.0635887e-38
-0.11883334 0.040633336 0.80500007 1.8696495e-38
-0.1173 0.040633336 0.80500007 2.1001386e-38
-0.11576667 0.040633336 0.80500007 2.1645375e-38
-0.11423334 0.040633336 0.80500007 2.1184397e-38
-0.11270001 0.040633336 0.80500007 2.0445009e-38
-0.11116667 0.040633336 0.80500007 2.1551357e-38
-0.10963334 0.040633336 0.80500007 2.1002524e-38
-0.10810001 0.040633336 0.80500007 2.044935e-38
-0.10630191 0.040532384 0.80300003 1.8795972e-38
-0.074089527 0.04048191 0.80200005 2.3290176e-38
-0.072652385 0.040532384 0.80300003 2.2190663e-38
-0.071122855 0.040532384 0.80300003 2.0899924e-38
-0.06959334 0.040532384 0.80300003 2.2000138e-38
-0.068233334 0.040633336 0.80500007 2.2184529e-38
-0.066534288 0.040532384 0.80300003 2.1908681e-38
-0.065004766 0.040532384 0.80300003 2.0525746e-38
-0.063475236 0.040532384 0.80300003 2.1442633e-38
-0.062100001 0.040633336 0.80500007 2.1534828e-38
-0.060416196 0.040532384 0.80300003 2.1441216e-38
-0.058886666 0.040532384 0.80300003 2.0427064e-38
-0.057357144 0.040532384 0.80300003 2.0884067e-38
-0.055827621 0.040532384 0.80300003 2.0515284e-38
-0.054298095 0.040532384 0.80300003 2.0606388e-38
-0.052768573 0.040532384 0.80300003 2.0790779e-38
-0.05117524 0.04048191 0.80200005 2.0240477e-38
-0.049647622 0.04048191 0.80200005 2.0148281e-38
-0.048119999 0.04048191 0.80200005 1.978025e-38
-0.046592385 0.04048191 0.80200005 1.978025e-38
-0.045064762 0.04048191 0.80200005 2.0057521e-38
-0.043537147 0.04048191 0.80200005 2.1163868e-38
-0.14099714 0.042376194 0.80900002 1.4093296e-38
-0.13911143 0.042271432 0.80700004 1.5199643e-38
-0.13757429 0.042271432 0.80700004 1.7957448e-38
-0.13603714 0.042271432 0.80700004 2.0077947e-38
-0.13450001 0.042271432 0.80700004 1.9799159e-38
-0.13296287 0.042271432 0.80700004 1.9614771e-38
-0.13142572 0.042271432 0.80700004 1.9708061e-38
-0.12988858 0.042271432 0.80700004 1.9984647e-38
-0.12803334 0.042166673 0.80500007 1.9893559e-38
-0.12650001 0.042166673 0.80500007 1.9801363e-38
-0.12496667 0.042166673 0.80500007 1.9710221e-38
-0.12343334 0.042166673 0.80500007 2.0079004e-38
-0.12190001 0.042166673 0.80500007 2.0262358e-38
-0.12006763 0.042061906 0.80300003 1.980138e-38
-0.1185381 0.042061906 0.80300003 1.9522275e-38
-0.11700858 0.042061906 0.80300003 2.2103753e-38
-0.11547905 0.042061906 0.80300003 2.1828997e-38
-0.11394952 0.042061906 0.80300003 2.2105584e-38
-0.11242001 0.042061906 0.80300003 2.1088589e-38
-0.11089048 0.042061906 0.80300003 2.0904198e-38
-0.10936096 0.042061906 0.80300003 2.0630482e-38
-0.10783143 0.042061906 0.80300003 2.0722678e-38
-0.10630191 0.042061906 0.80300003 1.9255098e-38
-0.10464191 0.042009525 0.80200005 1.9900467e-38
-0.074089527 0.042009525 0.80200005 2.2205458e-38
-0.072561905 0.042009525 0.80200005 2.2662434e-38
-0.07103429 0.042009525 0.80200005 2.1556086e-38
-0.069506668 0.042009525 0.80200005 2.2380812e-38
-0.06806381 0.042061906 0.80300003 2.2657399e-38
-0.06645143 0.042009525 0.80200005 2.2473363e-38
-0.064923815 0.042009525 0.80200005 2.1090429e-38
-0.063396193 0.042009525 0.80200005 2.2098445e-38
-0.061868574 0.042009525 0.80200005 2.219064e-38
-0.060340952 0.042009525 0.80200005 2.2096649e-38
-0.058813337 0.042009525 0.80200005 2.0621519e-38
-0.057285715 0.042009525 0.80200005 2.1442635e-38
-0.0557581 0.042009525 0.80200005 2.0797266e-38
-0.054230478 0.042009525 0.80200005 2.144084e-38
-0.052702863 0.042009525 0.80200005 2.2178405e-38
-0.05117524 0.042009525 0.80200005 2.1813929e-38
-0.049647622 0.042009525 0.80200005 2.2182712e-38
-0.048119999 0.042009525 0.80200005 2.1814292e-38
-0.046592385 0.042009525 0.80200005 1.9048423e-38
-0.045064762 0.042009525 0.80200005 2.0424505e-38
-0.040280003 0.041800003 0.79800004 1.3148644e-38
-0.038760003 0.041800003 0.79800004 1.332943e-38
-0.14064859 0.043808572 0.80700004 1.4275515e-38
-0.13911143 0.043808572 0.80700004 1.5750645e-38
-0.13603714 0.043808572 0.80700004 1.9061998e-38
-0.13450001 0.043808572 0.80700004 1.9243124e-38
-0.13296287 0.043808572 0.80700004 1.9519706e-38
-0.13142572 0.043808572 0.80700004 2.0071521e-38
-0.12771523 0.043591432 0.80300003 2.0073708e-38
-0.12618573 0.043591432 0.80300003 1.9520535e-38
-0.12496667 0.043700002 0.80500007 1.9428282e-38
-0.12312667 0.043591432 0.80300003 1.9797064e-38
-0.12159714 0.043591432 0.80300003 2.0071555e-38
-0.1199181 0.043537147 0.80200005 1.9241794e-38
-0.11839048 0.043537147 0.80200005 1.95162e-38
-0.11686286 0.043537147 0.80200005 2.1083526e-38
-0.11533524 0.043537147 0.80200005 2.0902753e-38
-0.11380763 0.043537147 0.80200005 2.0810557e-38
-0.11228 0.043537147 0.80200005 2.0349942e-38
-0.11075239 0.043537147 0.80200005 1.9612377e-38
-0.10922477 0.043537147 0.80200005 1.9794617e-38
-0.10769715 0.043537147 0.80200005 1.9702422e-38
-0.10616953 0.043537147 0.80200005 1.7957538e-38
-0.10464191 0.043537147 0.80200005 1.9063885e-38
-0.075617142 0.043537147 0.80200005 2.2946265e-38
-0.074089527 0.043537147 0.80200005 2.2485287e-38
-0.072561905 0.043537147 0.80200005 2.2205805e-38
-0.07103429 0.043537147 0.80200005 2.1560436e-38
-0.069506668 0.043537147 0.80200005 2.2293322e-38
-0.067979053 0.043537147 0.80200005 2.2201126e-38
-0.066285715 0.043428574 0.80000001 2.247411e-38
-0.064761907 0.043428574 0.80000001 2.1275567e-38
-0.063238099 0.043428574 0.80000001 2.22843e-38
-0.061714288 0.043428574 0.80000001 2.2192105e-38
-0.058813337 0.043537147 0.80200005 2.0805576e-38
-0.057142857 0.043428574 0.80000001 2.1720301e-38
-0.05561905 0.043428574 0.80000001 2.1443714e-38
-0.054095238 0.043428574 0.80000001 2.1348667e-38
-0.052571427 0.043428574 0.80000001 2.171745e-38
-0.051047619 0.043428574 0.80000001 2.172103e-38
-0.049523808 0.043428574 0.80000001 2.2089813e-38
-0.048 0.043428574 0.80000001 2.1720336e-38
-0.046476189 0.043428574 0.80000001 1.9968619e-38
-0.044952381 0.043428574 0.80000001 2.0882272e-38
-0.040280003 0.043320004 0.79800004 1.2685865e-38
-0.038760003 0.043320004 0.79800004 1.3330139e-38
-0.14064859 0.045345716 0.80700004 1.4458818e-38
-0.13911143 0.045345716 0.80700004 1.5657361e-38
-0.13757429 0.045345716 0.80700004 1.8414816e-38
-0.13416667 0.045233335 0.80500007 1.8870762e-38
-0.13263334 0.045233335 0.80500007 1.997711e-38
-0.13110001 0.045233335 0.80500007 1.9792465e-38
-0.12771523 0.045120955 0.80300003 1.9791421e-38
-0.12618573 0.045120955 0.80300003 1.8777269e-38
-0.12465619 0.045120955 0.80300003 1.8777554e-38
-0.12297334 0.045064762 0.80200005 1.969951e-38
-0.12144572 0.045064762 0.80200005 1.9514831e-38
-0.1199181 0.045064762 0.80200005 1.8869462e-38
-0.11839048 0.045064762 0.80200005 1.9234985e-38
-0.11686286 0.045064762 0.80200005 1.9142789e-38
-0.11533524 0.045064762 0.80200005 1.9509777e-38
-0.11380763 0.045064762 0.80200005 1.9048799e-38
-0.11228 0.045064762 0.80200005 1.9237468e-38
-0.11075239 0.045064762 0.80200005 1.9698446e-38
-0.10922477 0.045064762 0.80200005 1.9514456e-38
-0.10769715 0.045064762 0.80200005 1.9053478e-38
-0.10616953 0.045064762 0.80200005 1.8503904e-38
-0.10438095 0.044952381 0.80000001 1.8688295e-38
-0.10133334 0.044952381 0.80000001 1.9256517e-38
-0.078476191 0.044952381 0.80000001 2.2673278e-38
-0.076952383 0.044952381 0.80000001 2.3504479e-38
-0.075428575 0.044952381 0.80000001 2.2861992e-38
-0.07390476 0.044952381 0.80000001 2.1940036e-38
-0.072380953 0.044952381 0.80000001 2.2306285e-38
-0.070857145 0.044952381 0.80000001 2.1845307e-38
-0.069333337 0.044952381 0.80000001 2.2211218e-38
-0.06780953 0.044952381 0.80000001 2.1565849e-38
-0.066285715 0.044952381 0.80000001 2.2206524e-38
-0.064761907 0.044952381 0.80000001 2.1837741e-38
-0.063079998 0.044840001 0.79800004 2.2570611e-38
-0.061560001 0.044840001 0.79800004 2.1648654e-38
-0.060040005 0.044840001 0.79800004 2.2286108e-38
-0.05852 0.044840001 0.79800004 2.1548543e-38
-0.057 0.044840001 0.79800004 2.2189208e-38
-0.05548 0.044840001 0.79800004 2.2189208e-38
-0.053959999 0.044840001 0.79800004 2.209523e-38
-0.052440003 0.044840001 0.79800004 2.0896687e-38
-0.051047619 0.044952381 0.80000001 2.1813589e-38
-0.049523808 0.044952381 0.80000001 2.1444806e-38
-0.047880001 0.044840001 0.79800004 2.1717813e-38
-0.046360001 0.044840001 0.79800004 2.1441226e-38
-0.044952381 0.044952381 0.80000001 2.1717087e-38
-0.043320004 0.044840001 0.79800004 2.1993674e-38
-0.041800003 0.044840001 0.79800004 1.9139565e-38
-0.040280003 0.044840001 0.79800004 1.2040502e-38
-0.13689238 0.046650477 0.80300003 1.8414093e-38
-0.13536286 0.046650477 0.80300003 1.8875064e-38
-0.13383333 0.046650477 0.80300003 1.8963312e-38
-0.13230382 0.046650477 0.80300003 1.9239895e-38
-0.13077429 0.046650477 0.80300003 1.9238523e-38
-0.12924476 0.046650477 0.80300003 1.8961936e-38
-0.12755619 0.046592385 0.80200005 1.9511531e-38
-0.12602857 0.046592385 0.80200005 1.9234944e-38
-0.12450096 0.046592385 0.80200005 1.8959366e-38
-0.12297334 0.046592385 0.80200005 1.9973504e-38
-0.12144572 0.046592385 0.80200005 1.9605501e-38
-0.11961904 0.046476189 0.80000001 1.9052327e-38
-0.11809523 0.046476189 0.80000001 1.9143396e-38
-0.11657143 0.046476189 0.80000001 1.9419979e-38
-0.11504762 0.046476189 0.80000001 1.9696203e-38
-0.11352381 0.046476189 0.80000001 2.0157174e-38
-0.112 0.046476189 0.80000001 1.9884179e-38
-0.11047619 0.046476189 0.80000001 2.0068567e-38
-0.10895238 0.046476189 0.80000001 1.9791987e-38
-0.10742857 0.046476189 0.80000001 1.9791987e-38
-0.10590477 0.046476189 0.80000001 1.9607339e-38
-0.10438095 0.046476189 0.80000001 2.0529296e-38
-0.079800002 0.046360001 0.79800004 2.0740401e-38
-0.078280002 0.046360001 0.79800004 2.0187596e-38
-0.076760009 0.046360001 0.79800004 2.3230052e-38
-0.075240009 0.046360001 0.79800004 2.3047466e-38
-0.073720008 0.046360001 0.79800004 2.2494292e-38
-0.072200008 0.046360001 0.79800004 2.2400654e-38
-0.070857145 0.046476189 0.80000001 2.1755285e-38
-0.069333337 0.046476189 0.80000001 2.221266e-38
-0.06780953 0.046476189 0.80000001 2.2028269e-38
-0.066119999 0.046360001 0.79800004 2.2210136e-38
-0.064599998 0.046360001 0.79800004 2.1656963e-38
-0.063079998 0.046360001 0.79800004 2.2205808e-38
-0.061560001 0.046360001 0.79800004 2.1376047e-38
-0.060040005 0.046360001 0.79800004 2.2381554e-38
-0.05852 0.046360001 0.79800004 2.099862e-38
-0.057 0.046360001 0.79800004 2.2190663e-38
-0.05548 0.046360001 0.79800004 2.2190663e-38
-0.053959999 0.046360001 0.79800004 2.2096682e-38
-0.052440003 0.046360001 0.79800004 2.1451312e-38
-0.050920002 0.046360001 0.79800004 2.1998716e-38
-0.049400002 0.046360001 0.79800004 2.1537737e-38
-0.047880001 0.046360001 0.79800004 2.1441922e-38
-0.046243813 0.046243813 0.79600006 2.1257531e-38
-0.044727623 0.046243813 0.79600006 2.1716734e-38
-0.043211434 0.046243813 0.79600006 2.2546494e-38
-0.041695241 0.046243813 0.79600006 1.9140281e-38
-0.040179051 0.046243813 0.79600006 1.1856826e-38
-0.13824953 0.048119999 0.80200005 1.519278e-38
-0.13672192 0.048119999 0.80200005 1.7950252e-38
-0.13519429 0.048119999 0.80200005 1.878e-38
-0.13366666 0.048119999 0.80200005 1.8501983e-38
-0.13213904 0.048119999 0.80200005 1.7948817e-38
-0.13061143 0.048119999 0.80200005 1.8223606e-38
-0.12908381 0.048119999 0.80200005 1.8039218e-38
-0.12755619 0.048119999 0.80200005 1.886789e-38
-0.12602857 0.048119999 0.80200005 1.9052278e-38
-0.12450096 0.048119999 0.80200005 1.8869325e-38
-0.12297334 0.048119999 0.80200005 1.9514687e-38
-0.12144572 0.048119999 0.80200005 1.942536e-38
-0.11961904 0.048 0.80000001 2.0255108e-38
-0.11809523 0.048 0.80000001 2.0812219e-38
-0.11657143 0.048 0.80000001 2.127319e-38
-0.11504762 0.048 0.80000001 2.2298089e-38
-0.11352381 0.048 0.80000001 2.3496973e-38
-0.112 0.048 0.80000001 2.2668763e-38
-0.11047619 0.048 0.80000001 2.2576568e-38
-0.10895238 0.048 0.80000001 2.2204101e-38
-0.10742857 0.048 0.80000001 1.9899245e-38
-0.10590477 0.048 0.80000001 2.1090388e-38
-0.10438095 0.048 0.80000001 2.274991e-38
-0.10285714 0.048 0.80000001 1.999274e-38
-0.097794287 0.047760002 0.79600006 1.0970492e-38
-0.096278101 0.047760002 0.79600006 1.603653e-38
-0.094761908 0.047760002 0.79600006 2.0093137e-38
-0.093245715 0.047760002 0.79600006 2.0737871e-38
-0.091729529 0.047760002 0.79600006 2.2305196e-38
-0.090213336 0.047760002 0.79600006 2.2307029e-38
-0.085880004 0.047880001 0.79800004 1.9444671e-38
-0.084360003 0.047880001 0.79800004 1.9169816e-38
-0.082840003 0.047880001 0.79800004 1.9169816e-38
-0.081320003 0.047880001 0.79800004 1.9170155e-38
-0.078280002 0.047880001 0.79800004 2.1200669e-38
-0.076760009 0.047880001 0.79800004 2.3508081e-38
-0.075240009 0.047880001 0.79800004 2.341769e-38
-0.073720008 0.047880001 0.79800004 2.341769e-38
-0.072200008 0.047880001 0.79800004 2.3325492e-38
-0.07068 0.047880001 0.79800004 2.2772318e-38
-0.067639999 0.047880001 0.79800004 2.2771595e-38
-0.066119999 0.047880001 0.79800004 2.2863069e-38
-0.064599998 0.047880001 0.79800004 2.1756721e-38
-0.062921911 0.047760002 0.79600006 2.2305206e-38
-0.061405718 0.047760002 0.79600006 2.1752032e-38
-0.059889529 0.047760002 0.79600006 2.2300161e-38
-0.058373336 0.047760002 0.79600006 2.1378205e-38
-0.056857146 0.047760002 0.79600006 2.2476973e-38
-0.055340957 0.047760002 0.79600006 2.1647212e-38
-0.053824764 0.047760002 0.79600006 2.2286458e-38
-0.052308574 0.047760002 0.79600006 2.1733284e-38
-0.050792385 0.047760002 0.79600006 2.2189211e-38
-0.049276195 0.047760002 0.79600006 2.1451646e-38
-0.047760002 0.047760002 0.79600006 2.172138e-38
-0.046243813 0.047760002 0.79600006 2.1444793e-38
-0.044727623 0.047760002 0.79600006 2.1811431e-38
-0.043211434 0.047760002 0.79600006 2.2272409e-38
-0.041695241 0.047760002 0.79600006 1.92332e-38
-0.040179051 0.047760002 0.79600006 1.1488767e-38
-0.14212 0.049400002 0.79800004 1.2901229e-38
-0.14024763 0.049276195 0.79600006 1.1333904e-38
-0.13873143 0.049276195 0.79600006 1.4269331e-38
-0.13638094 0.049523808 0.80000001 1.7766581e-38
-0.13485715 0.049523808 0.80000001 1.795097e-38
-0.13333333 0.049523808 0.80000001 1.7950252e-38
-0.13180953 0.049523808 0.80000001 1.7673669e-38
-0.12908381 0.049647622 0.80200005 1.8316877e-38
-0.12755619 0.049647622 0.80200005 1.8684577e-38
-0.12602857 0.049647622 0.80200005 1.9422131e-38
-0.12419049 0.049523808 0.80000001 1.9609748e-38
-0.12266667 0.049523808 0.80000001 2.0070719e-38
-0.12114286 0.049523808 0.80000001 1.9981754e-38
-0.11961904 0.049523808 0.80000001 2.099589e-38
-0.11809523 0.049523808 0.80000001 2.1001271e-38
-0.11657143 0.049523808 0.80000001 2.2107602e-38
-0.11504762 0.049523808 0.80000001 2.2392447e-38
-0.11352381 0.049523808 0.80000001 2.3503116e-38
-0.112 0.049523808 0.80000001 2.295254e-38
-0.11047619 0.049523808 0.80000001 2.1938388e-38
-0.10895238 0.049523808 0.80000001 2.1562418e-38
-0.10742857 0.049523808 0.80000001 2.0363875e-38
-0.10564 0.049400002 0.79800004 2.1001107e-38
-0.10412 0.049400002 0.79800004 2.2291846e-38
-0.1026 0.049400002 0.79800004 1.9076198e-38
-0.09931048 0.049276195 0.79600006 1.1344912e-38
-0.097794287 0.049276195 0.79600006 1.3004408e-38
-0.096278101 0.049276195 0.79600006 1.1715608e-38
-0.094761908 0.049276195 0.79600006 1.2268781e-38
-0.093245715 0.049276195 0.79600006 1.2355656e-38
-0.091729529 0.049276195 0.79600006 1.7057633e-38
-0.090213336 0.049276195 0.79600006 1.7886331e-38
-0.088697143 0.049276195 0.79600006 1.7240961e-38
-0.087180957 0.049276195 0.79600006 1.5302324e-38
-0.085664764 0.049276195 0.79600006 1.6132084e-38
-0.084148578 0.049276195 0.79600006 1.5395579e-38
-0.082632385 0.049276195 0.79600006 1.6409731e-38
-0.081320003 0.049400002 0.79800004 1.7879456e-38
-0.079800002 0.049400002 0.79800004 2.0645325e-38
-0.078280002 0.049400002 0.79800004 2.2583598e-38
-0.07656762 0.049276195 0.79600006 2.3507355e-38
-0.075051434 0.049276195 0.79600006 2.3232933e-38
-0.073535241 0.049276195 0.79600006 2.350952e-38
-0.072019048 0.049276195 0.79600006 2.3325492e-38
-0.070502862 0.049276195 0.79600006 2.3048905e-38
-0.068986669 0.049276195 0.79600006 2.3048545e-38
-0.067470483 0.049276195 0.79600006 2.314074e-38
-0.06595429 0.049276195 0.79600006 2.3140021e-38
-0.064438097 0.049276195 0.79600006 2.2494652e-38
-0.062921911 0.049276195 0.79600006 2.2492131e-38
-0.061405718 0.049276195 0.79600006 2.1754566e-38
-0.059889529 0.049276195 0.79600006 2.2211218e-38
-0.058373336 0.049276195 0.79600006 2.1197066e-38
-0.056857146 0.049276195 0.79600006 2.2295485e-38
-0.055340957 0.049276195 0.79600006 2.1373529e-38
-0.053824764 0.049276195 0.79600006 2.2379748e-38
-0.052308574 0.049276195 0.79600006 2.1273401e-38
-0.050792385 0.049276195 0.79600006 2.2189949e-38
-0.049276195 0.049276195 0.79600006 2.1083602e-38
-0.047640003 0.049152382 0.79400003 2.1907229e-38
-0.046127621 0.049152382 0.79400003 2.0985273e-38
-0.044727623 0.049276195 0.79600006 2.1903642e-38
-0.043211434 0.049276195 0.79600006 2.3009989e-38
-0.041590478 0.049152382 0.79400003 1.9512671e-38
-0.040078096 0.049152382 0.79400003 1.1030673e-38
-0.14176381 0.050792385 0.79600006 1.2900867e-38
-0.14024763 0.050792385 0.79600006 1.0964758e-38
-0.13638094 0.051047619 0.80000001 2.1188196e-38
-0.13485715 0.051047619 0.80000001 1.8883315e-38
-0.13333333 0.051047619 0.80000001 1.8600993e-38
-0.13147999 0.050920002 0.79800004 1.8508799e-38
-0.12996 0.050920002 0.79800004 1.8967976e-38
-0.12723809 0.051047619 0.80000001 1.9706965e-38
-0.12571429 0.051047619 0.80000001 2.026013e-38
-0.12419049 0.051047619 0.80000001 2.0354118e-38
-0.12266667 0.051047619 0.80000001 2.2382391e-38
-0.12114286 0.051047619 0.80000001 2.2392077e-38
-0.11932001 0.050920002 0.79800004 2.2392077e-38
-0.1178 0.050920002 0.79800004 2.2485706e-38
-0.112 0.051047619 0.80000001 2.2767359e-38
-0.1102 0.050920002 0.79800004 2.1753207e-38
-0.10564 0.050920002 0.79800004 2.2481295e-38
-0.10412 0.050920002 0.79800004 2.2850077e-38
-0.09906096 0.050664764 0.79400003 1.4940493e-38
-0.097548574 0.050664764 0.79400003 2.3509668e-38
-0.096036196 0.050664764 0.79400003 2.341769e-38
-0.09452381 0.050664764 0.79400003 2.2956712e-38
-0.093011431 0.050664764 0.79400003 2.1757816e-38
-0.091499053 0.050664764 0.79400003 2.0743664e-38
-0.089986667 0.050664764 0.79400003 2.1296487e-38
-0.088697143 0.050792385 0.79600006 2.1757465e-38
-0.087180957 0.050792385 0.79600006 2.2403535e-38
-0.085664764 0.050792385 0.79600006 2.3417687e-38
-0.084148578 0.050792385 0.79600006 2.341769e-38
-0.082632385 0.050792385 0.79600006 2.341769e-38
-0.081116192 0.050792385 0.79600006 2.2399222e-38
-0.079600006 0.050792385 0.79600006 2.1938244e-38
-0.078083813 0.050792385 0.79600006 2.2030414e-38
-0.07656762 0.050792385 0.79600006 2.2214806e-38
-0.075051434 0.050792385 0.79600006 2.2216976e-38
-0.073535241 0.050792385 0.79600006 2.3508795e-38
-0.072019048 0.050792385 0.79600006 2.3417687e-38
-0.070502862 0.050792385 0.79600006 2.3325492e-38
-0.068986669 0.050792385 0.79600006 2.3417687e-38
-0.067470483 0.050792385 0.79600006 2.3417687e-38
-0.06595429 0.050792385 0.79600006 2.3417687e-38
-0.064438097 0.050792385 0.79600006 2.3417687e-38
-0.062921911 0.050792385 0.79600006 2.3417687e-38
-0.061251432 0.050664764 0.79400003 2.2772318e-38
-0.05973905 0.050664764 0.79400003 2.2677601e-38
-0.058226667 0.050664764 0.79400003 2.1847841e-38
-0.056714289 0.050664764 0.79400003 2.2027553e-38
-0.055201907 0.050664764 0.79400003 2.165877e-38
-0.053689525 0.050664764 0.79400003 2.1927792e-38
-0.052177146 0.050664764 0.79400003 2.1282422e-38
-0.050664764 0.050664764 0.79400003 2.1918434e-38
-0.049152382 0.050664764 0.79400003 2.1918434e-38
-0.047640003 0.050664764 0.79400003 2.2188531e-38
-0.046127621 0.050664764 0.79400003 2.1819749e-38
-0.044615239 0.050664764 0.79400003 2.2098457e-38
-0.04310286 0.050664764 0.79400003 2.2651631e-38
-0.041590478 0.050664764 0.79400003 2.0532185e-38
-0.14176381 0.052308574 0.79600006 1.3084175e-38
-0.14024763 0.052308574 0.79600006 1.0871479e-38
-0.13604 0.052440003 0.79800004 2.2572997e-38
-0.13451999 0.052440003 0.79800004 1.934615e-38
-0.133 0.052440003 0.79800004 2.0541376e-38
-0.13147999 0.052440003 0.79800004 2.0725765e-38
-0.12996 0.052440003 0.79800004 2.0450976e-38
-0.1287619 0.052571427 0.80000001 2.0911947e-38
-0.12723809 0.052571427 0.80000001 2.1189606e-38
-0.12571429 0.052571427 0.80000001 2.0913023e-38
-0.12419049 0.052571427 0.80000001 2.0821546e-38
