# .PCD v0.7 - Point Cloud Data file format
VERSION 0.7
FIELDS x y z rgb
SIZE 4 4 4 4
TYPE F F F F
COUNT 1 1 1 1
WIDTH 763
HEIGHT 1
VIEWPOINT 0 0 0 1 0 0 0
POINTS 763
DATA ascii
-0.13180953 0.0068571432 0.80000001 1.2074744e-38
-0.11657143 0.0068571432 0.80000001 1.3642069e-38
-0.11504762 0.0068571432 0.80000001 1.3826461e-38
-0.11352381 0.0068571432 0.80000001 1.4195243e-38
-0.112 0.0068571432 0.80000001 1.4194187e-38
-0.10412 0.0068399999 0.79800004 1.4010158e-38
-0.1026 0.0068399999 0.79800004 1.3827517e-38
-0.13028571 0.0083809523 0.80000001 2.0095761e-38
-0.12723809 0.0083809523 0.80000001 2.00972e-38
-0.12571429 0.0083809523 0.80000001 2.0281591e-38
-0.12419049 0.0083809523 0.80000001 2.0281241e-38
-0.12266667 0.0083809523 0.80000001 2.0189045e-38
-0.12114286 0.0083809523 0.80000001 1.9084495e-38
-0.11961904 0.0083809523 0.80000001 1.7978148e-38
-0.11809523 0.0083809523 0.80000001 1.6870731e-38
-0.11657143 0.0083809523 0.80000001 1.7147318e-38
-0.11504762 0.0083809523 0.80000001 1.9358536e-38
-0.11352381 0.0083809523 0.80000001 2.0741471e-38
-0.112 0.0083809523 0.80000001 1.9543676e-38
-0.11047619 0.0083809523 0.80000001 1.797635e-38
-0.10895238 0.0083809523 0.80000001 1.8160368e-38
-0.10742857 0.0083809523 0.80000001 2.0926237e-38
-0.10564 0.0083600003 0.79800004 2.0651092e-38
-0.10412 0.0083600003 0.79800004 1.8346202e-38
-0.1026 0.0083600003 0.79800004 1.8254369e-38
-0.10108 0.0083600003 0.79800004 2.0098282e-38
-0.090213336 0.0083390484 0.79600006 1.9912821e-38
-0.12723809 0.0099047627 0.80000001 2.2217705e-38
-0.12571429 0.0099047627 0.80000001 2.2402096e-38
-0.12419049 0.0099047627 0.80000001 2.2218068e-38
-0.12266667 0.0099047627 0.80000001 2.1941481e-38
-0.12114286 0.0099047627 0.80000001 1.9823505e-38
-0.11961904 0.0099047627 0.80000001 1.761081e-38
-0.11809523 0.0099047627 0.80000001 1.5950207e-38
-0.11657143 0.0099047627 0.80000001 1.7240946e-38
-0.11504762 0.0099047627 0.80000001 1.990994e-38
-0.11352381 0.0099047627 0.80000001 2.1569461e-38
-0.112 0.0099047627 0.80000001 2.0281241e-38
-0.11047619 0.0099047627 0.80000001 1.7607567e-38
-0.10895238 0.0099047627 0.80000001 1.8160021e-38
-0.10564 0.0098800007 0.79800004 2.2126598e-38
-0.10412 0.0098800007 0.79800004 1.9452925e-38
-0.1026 0.0098800007 0.79800004 1.7703712e-38
-0.10108 0.0098800007 0.79800004 2.0653972e-38
-0.088697143 0.0098552387 0.79600006 1.9821707e-38
-0.08696191 0.0098304767 0.79400003 2.0466351e-38
-0.12723809 0.011428571 0.80000001 2.2310263e-38
-0.12266667 0.011428571 0.80000001 2.1941841e-38
-0.12114286 0.011428571 0.80000001 2.019013e-38
-0.11961904 0.011428571 0.80000001 1.7608652e-38
-0.11809523 0.011428571 0.80000001 1.7517167e-38
-0.11657143 0.011428571 0.80000001 1.871571e-38
-0.11504762 0.011428571 0.80000001 2.0556754e-38
-0.11352381 0.011428571 0.80000001 2.2861645e-38
-0.11047619 0.011428571 0.80000001 1.9175612e-38
-0.10108 0.0114 0.79800004 2.083621e-38
-0.09804 0.0114 0.79800004 2.120356e-38
-0.088697143 0.011371429 0.79600006 1.9175269e-38
-0.08696191 0.011342858 0.79400003 1.9635168e-38
-0.12114286 0.012952381 0.80000001 2.1019525e-38
-0.11961904 0.012952381 0.80000001 1.8530243e-38
-0.11809523 0.012952381 0.80000001 1.871211e-38
-0.11657143 0.012952381 0.80000001 1.9541871e-38
-0.11504762 0.012952381 0.80000001 2.0833694e-38
-0.10868 0.012920001 0.79800004 2.0650386e-38
-0.10108 0.012920001 0.79800004 2.1111354e-38
-0.09804 0.012920001 0.79800004 2.1203197e-38
-0.096278101 0.01288762 0.79600006 2.0372716e-38
-0.08696191 0.012855238 0.79400003 2.0925887e-38
-0.12540001 0.01444 0.79800004 2.1941481e-38
-0.12388001 0.01444 0.79800004 2.2126232e-38
-0.11809523 0.01447619 0.80000001 2.2126588e-38
-0.11657143 0.01447619 0.80000001 2.2218784e-38
-0.11324 0.01444 0.79800004 2.2494652e-38
-0.11172 0.01444 0.79800004 2.2310263e-38
-0.1102 0.01444 0.79800004 2.2310263e-38
-0.10868 0.01444 0.79800004 2.2310624e-38
-0.10716 0.01444 0.79800004 2.2495015e-38
-0.10537525 0.014403811 0.79600006 2.2587566e-38
-0.10108 0.01444 0.79800004 2.3048545e-38
-0.09804 0.01444 0.79800004 2.295563e-38
-0.096278101 0.014403811 0.79600006 2.3047826e-38
-0.08696191 0.01436762 0.79400003 2.3417687e-38
-0.12236001 0.01596 0.79800004 2.2495015e-38
-0.12084001 0.01596 0.79800004 2.2771242e-38
-0.11932001 0.01596 0.79800004 2.3140024e-38
-0.11809523 0.016000001 0.80000001 2.314074e-38
-0.11324 0.01596 0.79800004 2.3048182e-38
-0.11172 0.01596 0.79800004 2.3047828e-38
-0.1102 0.01596 0.79800004 2.3509167e-38
-0.10868 0.01596 0.79800004 2.3417687e-38
-0.10716 0.01596 0.79800004 2.3233296e-38
-0.10537525 0.015920002 0.79600006 2.3325131e-38
-0.10108 0.01596 0.79800004 2.3417687e-38
-0.096520007 0.01596 0.79800004 2.3417687e-38
-0.094761908 0.015920002 0.79600006 2.3417687e-38
-0.082840003 0.01596 0.79800004 2.341769e-38
-0.11809523 0.017523808 0.80000001 2.1663822e-38
-0.11324 0.017479999 0.79800004 2.3508776e-38
-0.11172 0.017479999 0.79800004 2.3416971e-38
-0.1102 0.017479999 0.79800004 2.3509167e-38
-0.10868 0.017479999 0.79800004 2.3417687e-38
-0.10716 0.017479999 0.79800004 2.3417687e-38
-0.10537525 0.017436191 0.79600006 2.3417687e-38
-0.10108 0.017479999 0.79800004 2.31411e-38
-0.09956 0.017479999 0.79800004 2.3323324e-38
-0.096520007 0.017479999 0.79800004 2.3324047e-38
-0.094761908 0.017436191 0.79600006 2.3508438e-38
-0.081116192 0.017436191 0.79600006 2.3325492e-38
-0.12571429 0.019047618 0.80000001 2.2402456e-38
-0.12419049 0.019047618 0.80000001 2.2402456e-38
-0.11809523 0.019047618 0.80000001 2.00972e-38
-0.11657143 0.019047618 0.80000001 1.9359635e-38
-0.11324 0.019000001 0.79800004 2.0925521e-38
-0.11172 0.019000001 0.79800004 2.203078e-38
-0.1102 0.019000001 0.79800004 2.3507711e-38
-0.10868 0.019000001 0.79800004 2.3324062e-38
-0.10716 0.019000001 0.79800004 2.1848932e-38
-0.10564 0.019000001 0.79800004 2.0835131e-38
-0.09956 0.019000001 0.79800004 1.8527684e-38
-0.095000006 0.019000001 0.79800004 2.0646058e-38
-0.093480006 0.019000001 0.79800004 2.1202477e-38
-0.091729529 0.018952383 0.79600006 2.0833694e-38
-0.081320003 0.019000001 0.79800004 1.9814858e-38
-0.12571429 0.020571429 0.80000001 2.1573052e-38
-0.12419049 0.020571429 0.80000001 2.1572333e-38
-0.12266667 0.020571429 0.80000001 2.1756724e-38
-0.12114286 0.020571429 0.80000001 2.1941478e-38
-0.11961904 0.020571429 0.80000001 2.0927326e-38
-0.11809523 0.020571429 0.80000001 1.8439827e-38
-0.11657143 0.020571429 0.80000001 1.1248567e-38
-0.11504762 0.020571429 0.80000001 1.124427e-38
-0.11172 0.020520002 0.79800004 1.1880639e-38
-0.10868 0.020520002 0.79800004 1.7147004e-38
-0.10716 0.020520002 0.79800004 7.0976804e-39
-0.10564 0.020520002 0.79800004 1.7702043e-39
-0.10412 0.020520002 0.79800004 8.48248e-40
-0.099809527 0.020571429 0.80000001 1.5112495e-38
-0.09804 0.020520002 0.79800004 2.1105211e-38
-0.093245715 0.020468574 0.79600006 1.1886775e-38
-0.081320003 0.020520002 0.79800004 9.5730083e-39
-0.12419049 0.022095239 0.80000001 2.138866e-38
-0.12266667 0.022095239 0.80000001 2.1849638e-38
-0.12114286 0.022095239 0.80000001 2.1941478e-38
-0.11961904 0.022095239 0.80000001 2.1203913e-38
-0.11809523 0.022095239 0.80000001 1.8163252e-38
-0.11657143 0.022095239 0.80000001 1.189395e-38
-0.11504762 0.022095239 0.80000001 1.0960159e-38
-0.11352381 0.022095239 0.80000001 1.1144551e-38
-0.112 0.022095239 0.80000001 1.0596597e-38
-0.11047619 0.022095239 0.80000001 1.9539552e-38
-0.10564 0.02204 0.79800004 9.7878652e-39
-0.099809527 0.022095239 0.80000001 1.6312817e-38
-0.09804 0.02204 0.79800004 2.1475772e-38
-0.095000006 0.02204 0.79800004 1.4286016e-38
-0.093245715 0.021984763 0.79600006 1.4834146e-38
-0.081320003 0.02204 0.79800004 1.6594134e-38
-0.079600006 0.021984763 0.79600006 1.4658026e-38
-0.12419049 0.023619048 0.80000001 2.295563e-38
-0.12266667 0.023619048 0.80000001 2.3140021e-38
-0.12114286 0.023619048 0.80000001 2.3140377e-38
-0.11961904 0.023619048 0.80000001 2.3140377e-38
-0.11809523 0.023619048 0.80000001 2.2955993e-38
-0.11657143 0.023619048 0.80000001 2.2771602e-38
-0.11504762 0.023619048 0.80000001 2.2585781e-38
-0.11352381 0.023619048 0.80000001 2.1387238e-38
-0.112 0.023619048 0.80000001 2.212261e-38
-0.11047619 0.023619048 0.80000001 2.3508425e-38
-0.10895238 0.023619048 0.80000001 2.341769e-38
-0.10742857 0.023619048 0.80000001 2.2956712e-38
-0.10590477 0.023619048 0.80000001 2.3233296e-38
-0.099809527 0.023619048 0.80000001 2.332405e-38
-0.09804 0.023560001 0.79800004 2.3416245e-38
-0.087400004 0.023560001 0.79800004 2.3134989e-38
-0.085664764 0.023500955 0.79600006 2.3506653e-38
-0.081320003 0.023560001 0.79800004 2.3416971e-38
-0.079800002 0.023560001 0.79800004 2.3509167e-38
-0.12419049 0.025142856 0.80000001 2.2955267e-38
-0.12266667 0.025142856 0.80000001 2.3047463e-38
-0.12114286 0.025142856 0.80000001 2.3139658e-38
-0.11961904 0.025142856 0.80000001 2.3047463e-38
-0.11809523 0.025142856 0.80000001 2.332405e-38
-0.11657143 0.025142856 0.80000001 2.3416245e-38
-0.11504762 0.025142856 0.80000001 2.3324775e-38
-0.11352381 0.025142856 0.80000001 2.2218428e-38
-0.112 0.025142856 0.80000001 2.3137128e-38
-0.11047619 0.025142856 0.80000001 2.3506991e-38
-0.10895238 0.025142856 0.80000001 2.3325131e-38
-0.10742857 0.025142856 0.80000001 2.3325131e-38
-0.10590477 0.025142856 0.80000001 2.3325129e-38
-0.10438095 0.025142856 0.80000001 2.3232933e-38
-0.10285714 0.025142856 0.80000001 2.3324768e-38
-0.10133334 0.025142856 0.80000001 2.3232573e-38
-0.099809527 0.025142856 0.80000001 2.332261e-38
-0.09828572 0.025142856 0.80000001 2.184748e-38
-0.096520007 0.025080001 0.79800004 2.2299108e-38
-0.085664764 0.025017144 0.79600006 2.3502317e-38
-0.081523806 0.025142856 0.80000001 2.3416608e-38
-0.079800002 0.025080001 0.79800004 2.3416608e-38
-0.12114286 0.026666667 0.80000001 1.869516e-38
-0.11961904 0.026666667 0.80000001 1.8879551e-38
-0.11809523 0.026666667 0.80000001 1.8787001e-38
-0.11657143 0.026666667 0.80000001 1.8694805e-38
-0.11504762 0.026666667 0.80000001 1.8877397e-38
-0.11352381 0.026666667 0.80000001 1.8693006e-38
-0.112 0.026666667 0.80000001 1.8783407e-38
-0.11047619 0.026666667 0.80000001 1.8783407e-38
-0.10895238 0.026666667 0.80000001 1.8414621e-38
-0.10742857 0.026666667 0.80000001 1.823023e-38
-0.10590477 0.026666667 0.80000001 1.8138037e-38
-0.10438095 0.026666667 0.80000001 1.7953646e-38
-0.10285714 0.026666667 0.80000001 1.7950039e-38
-0.10133334 0.026666667 0.80000001 1.7581257e-38
-0.099809527 0.026666667 0.80000001 1.7392563e-38
-0.09828572 0.026666667 0.80000001 1.536426e-38
-0.096520007 0.026600001 0.79800004 1.6092736e-38
-0.095000006 0.026600001 0.79800004 1.6092736e-38
-0.10590477 0.028190477 0.80000001 1.9039811e-38
-0.10438095 0.028190477 0.80000001 1.7288094e-38
-0.10285714 0.028190477 0.80000001 1.8204986e-38
-0.09828572 0.028190477 0.80000001 1.7093979e-38
-0.093480006 0.02812 0.79800004 1.8477589e-38
-0.10285714 0.029714286 0.80000001 1.8389341e-38
-0.13742857 0.037885718 0.78000003 1.3998928e-38
-0.10647143 0.037448574 0.77100003 1.4535994e-38
-0.13742857 0.039371427 0.78000003 1.5564446e-38
-0.10647143 0.038917147 0.77100003 1.3419532e-38
-0.080765724 0.04147429 0.76400006 2.1248106e-38
-0.084797144 0.042760953 0.76100004 2.1344702e-38
-0.080765724 0.042929526 0.76400006 2.1247027e-38
-0.084797144 0.044210479 0.76100004 2.1157048e-38
-0.080765724 0.044384766 0.76400006 2.1247387e-38
-0.086246669 0.04566 0.76100004 2.1060103e-38
-0.084797144 0.04566 0.76100004 2.1336686e-38
-0.10591905 0.054785714 0.76700002 1.9886122e-38
-0.08636 0.054428574 0.76200002 2.2766232e-38
-0.1043219 0.056173336 0.76600003 2.0635958e-38
-0.082220957 0.056026667 0.76400006 1.5305952e-38
-0.10336858 0.062888578 0.75900006 2.3226462e-38
-0.080448568 0.063054286 0.76100004 2.0460227e-38
-0.10626 0.064334288 0.75900006 1.4386963e-38
-0.10481429 0.064334288 0.75900006 1.6507432e-38
-0.098770484 0.064164765 0.75700003 2.3500809e-38
-0.097585723 0.064334288 0.75900006 2.341804e-38
-0.081682861 0.064334288 0.75900006 1.9821335e-38
-0.10770573 0.065780006 0.75900006 2.3325909e-38
-0.10626 0.065780006 0.75900006 2.286563e-38
-0.10481429 0.065780006 0.75900006 1.9177834e-38
-0.10021239 0.065606669 0.75700003 1.8612919e-38
-0.097585723 0.065780006 0.75900006 2.2670981e-38
-0.083128572 0.065780006 0.75900006 2.2770125e-38
-0.081682861 0.065780006 0.75900006 2.0649625e-38
-0.10770573 0.067225717 0.75900006 2.332593e-38
-0.10626 0.067225717 0.75900006 2.3142315e-38
-0.10165429 0.067048572 0.75700003 1.6413443e-38
-0.10021239 0.067048572 0.75700003 1.3004408e-38
-0.097585723 0.067225717 0.75900006 1.7682997e-38
-0.081682861 0.067225717 0.75900006 2.1842423e-38
-0.10770573 0.068671428 0.75900006 2.3142186e-38
-0.10626 0.068671428 0.75900006 2.3050351e-38
-0.10309619 0.068490475 0.75700003 2.2958555e-38
-0.10165429 0.068490475 0.75700003 2.3234065e-38
-0.10021239 0.068490475 0.75700003 2.1479526e-38
-0.097585723 0.068671428 0.75900006 1.7595239e-38
-0.081682861 0.068671428 0.75900006 2.2296552e-38
-0.10626 0.070117153 0.75900006 2.3142296e-38
-0.1045381 0.069932379 0.75700003 2.2774948e-38
-0.10309619 0.069932379 0.75700003 2.3050445e-38
-0.10165429 0.069932379 0.75700003 2.3509633e-38
-0.10021239 0.069932379 0.75700003 2.3141285e-38
-0.097585723 0.070117153 0.75900006 2.055161e-38
-0.081682861 0.070117153 0.75900006 2.1282773e-38
-0.10626 0.071562864 0.75900006 2.3142353e-38
-0.097585723 0.071562864 0.75900006 2.2213324e-38
-0.081682861 0.071562864 0.75900006 1.582708e-38
-0.10626 0.073008575 0.75900006 2.3326156e-38
-0.10481429 0.073008575 0.75900006 2.3326156e-38
-0.097585723 0.073008575 0.75900006 1.8160356e-38
-0.081682861 0.073008575 0.75900006 1.5364615e-38
-0.10626 0.074454293 0.75900006 2.0368382e-38
-0.10481429 0.074454293 0.75900006 2.1474729e-38
-0.10336858 0.074454293 0.75900006 1.8797867e-38
-0.10192287 0.074454293 0.75900006 1.3819303e-38
-0.10047715 0.074454293 0.75900006 1.4656546e-38
-0.099031433 0.074454293 0.75900006 1.2997025e-38
-0.097585723 0.074454293 0.75900006 1.7695074e-38
-0.096140005 0.074454293 0.75900006 2.3411203e-38
-0.081682861 0.074454293 0.75900006 1.840059e-38
-0.10915144 0.075900003 0.75900006 1.0425649e-38
-0.10626 0.075900003 0.75900006 1.6406115e-38
-0.10481429 0.075900003 0.75900006 1.9079788e-38
-0.10336858 0.075900003 0.75900006 1.7509957e-38
-0.10192287 0.075900003 0.75900006 1.1793828e-38
-0.10047715 0.075900003 0.75900006 1.4381024e-38
-0.099031433 0.075900003 0.75900006 1.3920046e-38
-0.097585723 0.075900003 0.75900006 1.6590166e-38
-0.096140005 0.075900003 0.75900006 2.3228251e-38
-0.081682861 0.075900003 0.75900006 1.8954141e-38
-0.10915144 0.077345721 0.75900006 1.5763307e-38
-0.10481429 0.077345721 0.75900006 1.9815917e-38
-0.10336858 0.077345721 0.75900006 1.7236226e-38
-0.10192287 0.077345721 0.75900006 1.1704488e-38
-0.10047715 0.077345721 0.75900006 1.5395539e-38
-0.099031433 0.077345721 0.75900006 1.6040909e-38
-0.097585723 0.077345721 0.75900006 1.8891457e-38
-0.096140005 0.077345721 0.75900006 2.3503039e-38
-0.081682861 0.077345721 0.75900006 2.0251029e-38
-0.080448568 0.077549525 0.76100004 2.0800572e-38
-0.10943905 0.07899905 0.76100004 1.953971e-38
-0.10770573 0.07879144 0.75900006 1.8248971e-38
-0.10481429 0.07879144 0.75900006 1.889496e-38
-0.10336858 0.07879144 0.75900006 1.7239401e-38
-0.10192287 0.07879144 0.75900006 1.5672076e-38
-0.10047715 0.07879144 0.75900006 1.631528e-38
-0.099031433 0.07879144 0.75900006 1.7237236e-38
-0.097585723 0.07879144 0.75900006 1.9995501e-38
-0.096140005 0.07879144 0.75900006 2.3500015e-38
-0.081682861 0.07879144 0.75900006 1.9981535e-38
-0.10943905 0.080448568 0.76100004 2.3322242e-38
-0.10770573 0.08023715 0.75900006 2.3507353e-38
-0.10481429 0.08023715 0.75900006 2.3508686e-38
-0.10336858 0.08023715 0.75900006 2.3141682e-38
-0.10192287 0.08023715 0.75900006 2.3326073e-38
-0.10047715 0.08023715 0.75900006 2.3044842e-38
-0.099031433 0.08023715 0.75900006 2.203069e-38
-0.097585723 0.08023715 0.75900006 2.2673333e-38
-0.096140005 0.08023715 0.75900006 2.2857724e-38
-0.094694294 0.08023715 0.75900006 2.2673336e-38
-0.081682861 0.08023715 0.75900006 2.0174034e-38
-0.10943905 0.081898101 0.76100004 2.2586131e-38
-0.10770573 0.081682861 0.75900006 2.240174e-38
-0.10481429 0.081682861 0.75900006 2.2492109e-38
-0.10336858 0.081682861 0.75900006 2.1566912e-38
-0.10192287 0.081682861 0.75900006 2.2765456e-38
-0.10047715 0.081682861 0.75900006 2.3044142e-38
-0.099031433 0.081682861 0.75900006 2.2583164e-38
-0.097585723 0.081682861 0.75900006 2.2767008e-38
-0.096140005 0.081682861 0.75900006 2.1937248e-38
-0.094694294 0.081682861 0.75900006 2.2579694e-38
-0.081682861 0.081682861 0.75900006 1.8424855e-38
-0.10943905 0.083347626 0.76100004 1.5479556e-38
-0.10626 0.083128572 0.75900006 1.5479921e-38
-0.10481429 0.083128572 0.75900006 1.4834552e-38
-0.10336858 0.083128572 0.75900006 1.6031635e-38
-0.10192287 0.083128572 0.75900006 1.5755048e-38
-0.081682861 0.083128572 0.75900006 1.6673915e-38
-0.10232572 0.084908567 0.76200002 1.3550587e-38
-0.10087429 0.084908567 0.76200002 1.916506e-38
-0.081682861 0.084574297 0.75900006 1.8612881e-38
-0.080448568 0.084797144 0.76100004 1.7500043e-38
-0.099422857 0.08636 0.76200002 2.3221012e-38
-0.097971432 0.08636 0.76200002 2.2580053e-38
-0.10113905 0.089497149 0.76400006 2.2486782e-38
-0.099683814 0.089497149 0.76400006 2.2118005e-38
-0.10113905 0.090952389 0.76400006 2.257906e-38
-0.099683814 0.090952389 0.76400006 2.2118082e-38
-0.098228574 0.090952389 0.76400006 2.257653e-38
-0.099683814 0.092407629 0.76400006 2.2759501e-38
-0.098228574 0.092407629 0.76400006 2.257689e-38
-0.096773341 0.092407629 0.76400006 2.2669086e-38
-0.099683814 0.093862861 0.76400006 2.2023199e-38
-0.098228574 0.093862861 0.76400006 2.2665317e-38
-0.096773341 0.093862861 0.76400006 2.2112144e-38
-0.095318101 0.093862861 0.76400006 2.137419e-38
-0.099683814 0.095318101 0.76400006 1.5393118e-38
-0.098228574 0.095318101 0.76400006 7.0716303e-39
-0.096773341 0.095318101 0.76400006 6.8879565e-39
-0.095318101 0.095318101 0.76400006 6.9813474e-39
-0.099683814 0.096773341 0.76400006 5.0037692e-39
-0.098228574 0.096773341 0.76400006 9.6946032e-41
-0.096773341 0.096773341 0.76400006 9.267067e-40
-0.095318101 0.096773341 0.76400006 3.8575505e-39
-0.093862861 0.096773341 0.76400006 4.5951155e-39
-0.099683814 0.098228574 0.76400006 1.3469001e-38
-0.098228574 0.098228574 0.76400006 2.0469451e-38
-0.096773341 0.098228574 0.76400006 2.2682146e-38
-0.095318101 0.098228574 0.76400006 2.3324778e-38
-0.093862861 0.098228574 0.76400006 2.3509168e-38
-0.099683814 0.099683814 0.76400006 2.1562545e-38
-0.098228574 0.099683814 0.76400006 2.3324047e-38
-0.096773341 0.099683814 0.76400006 2.3509158e-38
-0.095318101 0.099683814 0.76400006 2.341769e-38
-0.093862861 0.099683814 0.76400006 2.341769e-38
-0.082436197 0.10286286 0.76600003 2.341769e-38
-0.092649527 0.1043219 0.76600003 2.8208418e-40
-0.092649527 0.10578096 0.76600003 9.1967218e-41
-0.092649527 0.10724001 0.76600003 3.6765868e-40
-0.097026668 0.10869905 0.76600003 2.341769e-38
-0.095567621 0.10869905 0.76600003 2.341769e-38
-0.094108574 0.10869905 0.76600003 2.1020604e-38
-0.092649527 0.10869905 0.76600003 1.3456371e-38
-0.098485716 0.1101581 0.76600003 5.7236975e-39
-0.097026668 0.1101581 0.76600003 8.6739576e-39
-0.095567621 0.1101581 0.76600003 1.4374391e-38
-0.094108574 0.1101581 0.76600003 2.1842139e-38
-0.092649527 0.1101581 0.76600003 1.5484672e-38
-0.097026668 0.11161715 0.76600003 1.6857621e-42
-0.095567621 0.11161715 0.76600003 7.9306094e-39
-0.094108574 0.11161715 0.76600003 2.0653606e-38
-0.092649527 0.11161715 0.76600003 1.926357e-38
-0.097153336 0.11322381 0.76700002 2.2988862e-39
-0.095567621 0.1130762 0.76600003 3.0511593e-39
-0.094108574 0.1130762 0.76600003 1.881659e-38
-0.092649527 0.1130762 0.76600003 2.0094719e-38
-0.09119048 0.1130762 0.76600003 1.6555935e-39
-0.097153336 0.11468477 0.76700002 3.7280425e-40
-0.095567621 0.11453524 0.76600003 5.8098283e-39
-0.094108574 0.11453524 0.76600003 2.0745494e-38
-0.092649527 0.11453524 0.76600003 2.0831231e-38
-0.09119048 0.11453524 0.76600003 1.1939217e-39
-0.097153336 0.11614572 0.76700002 3.2233214e-39
-0.095692381 0.11614572 0.76700002 6.0836728e-39
-0.094108574 0.11599429 0.76600003 2.2125537e-38
-0.092649527 0.11599429 0.76600003 2.3324052e-38
-0.091309525 0.11614572 0.76700002 1.1049056e-39
-0.094231427 0.11760666 0.76700002 2.2683366e-38
-0.09277048 0.11760666 0.76700002 2.3231867e-38
-0.091309525 0.11760666 0.76700002 1.0127198e-39
-0.091309525 0.11906762 0.76700002 1.1056315e-39
-0.088387616 0.11906762 0.76700002 8.4810437e-39
-0.091785714 0.12556286 0.77100003 2.3234018e-38
-0.090317145 0.12703143 0.77100003 2.341769e-38
-0.090317145 0.1285 0.77100003 1.779452e-38
-0.090317145 0.12996858 0.77100003 1.4760708e-38
-0.090317145 0.13143714 0.77100003 2.3234378e-38
-0.088848568 0.13143714 0.77100003 2.3142182e-38
-0.090317145 0.13290572 0.77100003 2.341769e-38
-0.090317145 0.13437429 0.77100003 2.6639567e-39
-0.088848568 0.13437429 0.77100003 2.2958916e-39
-0.088848568 0.13584286 0.77100003 7.4433415e-39
-0.087606676 0.13914001 0.77300006 2.2291371e-38
-0.087606676 0.14061238 0.77300006 2.2104048e-38
-0.087606676 0.14208478 0.77300006 2.1003782e-38
-0.087606676 0.14355716 0.77300006 2.1279011e-38
-0.085209534 0.15930478 0.77800006 1.6862644e-38
-0.083727628 0.15930478 0.77800006 1.9536317e-38
-0.083727628 0.16078669 0.77800006 1.8713366e-38
-0.083727628 0.16226859 0.77800006 1.6323925e-38
-0.083727628 0.1637505 0.77800006 1.457769e-38
-0.083727628 0.16523239 0.77800006 2.0560344e-38
-0.08394286 0.16862859 0.78000003 2.3509818e-38
-0.081075244 0.17479524 0.78100002 2.3508753e-38
-0.08245714 0.17605714 0.78000003 2.1476155e-38
-0.081075244 0.17628285 0.78100002 2.3506979e-38
-0.079587616 0.17628285 0.78100002 2.2771595e-38
-0.08245714 0.17754287 0.78000003 2.341769e-38
-0.081075244 0.17777048 0.78100002 2.341769e-38
-0.079587616 0.17777048 0.78100002 2.341769e-38
-0.08245714 0.17902859 0.78000003 2.3326182e-38
-0.081075244 0.17925811 0.78100002 2.3326182e-38
-0.079587616 0.17925811 0.78100002 2.3326185e-38
-0.08245714 0.18051429 0.78000003 2.1193911e-38
-0.081075244 0.18074572 0.78100002 2.2669018e-38
-0.079587616 0.18074572 0.78100002 2.2951905e-38
-0.076612383 0.18223333 0.78100002 2.3418043e-38
-0.076808572 0.18419144 0.78300005 2.3230037e-38
-0.076808572 0.18568286 0.78300005 2.2947668e-38
-0.075317152 0.18568286 0.78300005 2.3506604e-38
-0.081490479 0.18765238 0.78500003 2.1173852e-38
-0.076808572 0.18717431 0.78300005 2.2856192e-38
-0.082774289 0.18866573 0.78300005 2.1540087e-38
-0.081490479 0.18914762 0.78500003 2.117131e-38
-0.079995237 0.18914762 0.78500003 2.0247933e-38
-0.075317152 0.18866573 0.78300005 2.3506971e-38
-0.081490479 0.19064286 0.78500003 2.0525233e-38
-0.079995237 0.19064286 0.78500003 2.0158968e-38
-0.078500003 0.19064286 0.78500003 2.3484103e-38
-0.077004768 0.19064286 0.78500003 2.3134231e-38
-0.069528572 0.19064286 0.78500003 2.3417687e-38
-0.079995237 0.19213811 0.78500003 2.0348737e-38
-0.078700006 0.19262764 0.78700006 2.3483356e-38
-0.077004768 0.19213811 0.78500003 2.2856449e-38
-0.075509526 0.19213811 0.78500003 2.3509743e-38
-0.074014291 0.19213811 0.78500003 2.3418028e-38
-0.097688578 0.19314002 0.78300005 2.2482221e-38
-0.096442863 0.19363333 0.78500003 2.3499614e-38
-0.079995237 0.19363333 0.78500003 2.2673012e-38
-0.078700006 0.19412668 0.78700006 2.313399e-38
-0.075509526 0.19363333 0.78500003 2.3509691e-38
-0.079995237 0.19512857 0.78500003 2.3140569e-38
-0.078500003 0.19512857 0.78500003 2.3509715e-38
-0.077004768 0.19512857 0.78500003 2.3234201e-38
-0.075509526 0.19512857 0.78500003 2.3509715e-38
-0.079995237 0.1966238 0.78500003 2.304912e-38
-0.077004768 0.1966238 0.78500003 2.3234225e-38
-0.075509526 0.1966238 0.78500003 2.3050551e-38
-0.074014291 0.1966238 0.78500003 2.3232787e-38
-0.068206668 0.19712478 0.78700006 2.3234226e-38
-0.074014291 0.19811906 0.78500003 2.2950819e-38
-0.068206668 0.19862384 0.78700006 2.2855419e-38
-0.081698097 0.20012286 0.78700006 2.3225309e-38
-0.078700006 0.20012286 0.78700006 2.1747314e-38
-0.077200957 0.20012286 0.78700006 2.2482019e-38
-0.075701907 0.20012286 0.78700006 2.183665e-38
-0.074202865 0.20012286 0.78700006 2.2201745e-38
-0.078700006 0.20162192 0.78700006 2.248343e-38
-0.077200957 0.20162192 0.78700006 2.2757876e-38
-0.075701907 0.20162192 0.78700006 2.0821768e-38
-0.074202865 0.20162192 0.78700006 2.1735379e-38
-0.072703816 0.20162192 0.78700006 2.3026118e-38
-0.077200957 0.20312098 0.78700006 2.1462783e-38
-0.075701907 0.20312098 0.78700006 2.0817414e-38
-0.074202865 0.20312098 0.78700006 2.201201e-38
-0.072703816 0.20312098 0.78700006 2.34875e-38
-0.081905723 0.20513999 0.78900003 1.9250848e-38
-0.077397145 0.20513999 0.78900003 1.9437729e-38
-0.075894289 0.20513999 0.78900003 2.0083099e-38
-0.074391425 0.20513999 0.78900003 2.2292233e-38
-0.072888575 0.20513999 0.78900003 2.2845407e-38
-0.071385719 0.20513999 0.78900003 2.2107126e-38
-0.083197154 0.20611906 0.78700006 2.2852269e-38
-0.081905723 0.20664287 0.78900003 2.2483486e-38
-0.078900002 0.20664287 0.78900003 2.3496897e-38
-0.077397145 0.20664287 0.78900003 2.2760048e-38
-0.075894289 0.20664287 0.78900003 2.2667852e-38
-0.074391425 0.20664287 0.78900003 2.2944111e-38
-0.072888575 0.20664287 0.78900003 2.3500166e-38
-0.071385719 0.20664287 0.78900003 2.2298382e-38
-0.069882862 0.20664287 0.78900003 2.1837404e-38
-0.068380006 0.20664287 0.78900003 2.2671452e-38
-0.083197154 0.20761812 0.78700006 2.3038461e-38
-0.081905723 0.20814572 0.78900003 2.22087e-38
-0.078900002 0.20814572 0.78900003 2.3495456e-38
-0.077397145 0.20814572 0.78900003 2.2851891e-38
-0.075894289 0.20814572 0.78900003 2.2575304e-38
-0.074391425 0.20814572 0.78900003 2.2574966e-38
-0.072888575 0.20814572 0.78900003 2.2574966e-38
-0.071385719 0.20814572 0.78900003 2.2298366e-38
-0.069882862 0.20814572 0.78900003 2.1929584e-38
-0.077397145 0.20964858 0.78900003 2.2205805e-38
-0.075894289 0.20964858 0.78900003 2.2021414e-38
-0.074391425 0.20964858 0.78900003 2.2205818e-38
-0.072888575 0.20964858 0.78900003 2.2205818e-38
-0.071385719 0.20964858 0.78900003 2.2018519e-38
-0.069882862 0.20964858 0.78900003 2.0819976e-38
-0.082009524 0.21141905 0.79000002 2.2568809e-38
-0.077397145 0.21115144 0.78900003 2.2021063e-38
-0.075894289 0.21115144 0.78900003 2.1928868e-38
-0.074391425 0.21115144 0.78900003 2.2388419e-38
-0.072888575 0.21115144 0.78900003 2.2665006e-38
-0.071385719 0.21115144 0.78900003 2.2110726e-38
-0.069882862 0.21115144 0.78900003 2.1465356e-38
-0.082009524 0.21292381 0.79000002 2.2475894e-38
-0.075894289 0.21265429 0.78900003 2.1928527e-38
-0.074391425 0.21265429 0.78900003 2.2485654e-38
-0.072888575 0.21265429 0.78900003 2.2762241e-38
-0.071385719 0.21265429 0.78900003 2.2021066e-38
-0.083408572 0.21415715 0.78900003 2.1920942e-38
-0.082009524 0.21442857 0.79000002 2.238192e-38
-0.075990476 0.21442857 0.79000002 2.2300896e-38
-0.074485712 0.21442857 0.79000002 2.258108e-38
-0.072888575 0.21415715 0.78900003 2.2212297e-38
-0.071385719 0.21415715 0.78900003 2.2207959e-38
-0.065457143 0.21442857 0.79000002 2.2301246e-38
-0.082009524 0.21593334 0.79000002 2.1828063e-38
-0.07749524 0.21593334 0.79000002 2.2300883e-38
-0.075990476 0.21593334 0.79000002 2.2024296e-38
-0.074674286 0.21798858 0.79200006 2.2296891e-38
-0.073165715 0.21798858 0.79200006 2.2757869e-38
-0.071657151 0.21798858 0.79200006 2.2574922e-38
-0.07014858 0.21798858 0.79200006 2.2943705e-38
-0.068640009 0.21798858 0.79200006 2.2577455e-38
-0.067131437 0.21798858 0.79200006 2.2208672e-38
-0.065622866 0.21798858 0.79200006 2.2573485e-38
-0.064114295 0.21798858 0.79200006 2.2204702e-38
-0.062447619 0.2174381 0.79000002 2.2292938e-38
-0.074674286 0.21949716 0.79200006 2.230195e-38
-0.073165715 0.21949716 0.79200006 2.3039515e-38
-0.071657151 0.21949716 0.79200006 2.2949826e-38
-0.07014858 0.21949716 0.79200006 2.350444e-38
-0.068640009 0.21949716 0.79200006 2.3135644e-38
-0.067131437 0.21949716 0.79200006 2.2029296e-38
-0.062605724 0.21949716 0.79200006 2.2018533e-38
-0.082424767 0.22156382 0.79400003 2.3493947e-38
-0.074674286 0.22100572 0.79200006 2.2854644e-38
-0.073165715 0.22100572 0.79200006 2.3500734e-38
-0.071657151 0.22100572 0.79200006 2.2951535e-38
-0.07014858 0.22100572 0.79200006 2.350687e-38
-0.068640009 0.22100572 0.79200006 2.3140631e-38
-0.067131437 0.22100572 0.79200006 2.1942088e-38
-0.065622866 0.22100572 0.79200006 2.2949724e-38
-0.062605724 0.22100572 0.79200006 2.2854318e-38
-0.060942858 0.22044761 0.79000002 2.1563579e-38
-0.056571431 0.22100572 0.79200006 2.2287518e-38
-0.083725713 0.2225143 0.79200006 2.2667415e-38
-0.082424767 0.22307619 0.79400003 2.3499697e-38
-0.079400003 0.22307619 0.79400003 2.3509678e-38
-0.076375239 0.22307619 0.79400003 2.3142321e-38
-0.071838096 0.22307619 0.79400003 2.3234166e-38
-0.068640009 0.2225143 0.79200006 2.3234186e-38
-0.067131437 0.2225143 0.79200006 2.341786e-38
-0.065622866 0.2225143 0.79200006 2.3142371e-38
-0.056571431 0.2225143 0.79200006 2.2380789e-38
-0.083725713 0.22402287 0.79200006 2.2952535e-38
-0.082424767 0.22458857 0.79400003 2.3506429e-38
-0.077887625 0.22458857 0.79400003 2.3050498e-38
-0.076375239 0.22458857 0.79400003 2.2958661e-38
-0.071657151 0.22402287 0.79200006 2.3141626e-38
-0.070325717 0.22458857 0.79400003 2.2865039e-38
-0.068640009 0.22402287 0.79200006 2.2955421e-38
-0.067131437 0.22402287 0.79200006 2.3509677e-38
-0.065622866 0.22402287 0.79200006 2.3142338e-38
-0.056571431 0.22402287 0.79200006 2.2475824e-38
-0.083725713 0.22553144 0.79200006 2.3142303e-38
-0.082424767 0.22610095 0.79400003 2.3325976e-38
-0.077887625 0.22610095 0.79400003 2.295753e-38
-0.076375239 0.22610095 0.79400003 2.2680943e-38
-0.071657151 0.22553144 0.79200006 2.2668763e-38
-0.068640009 0.22553144 0.79200006 2.2301676e-38
-0.067131437 0.22553144 0.79200006 2.2301676e-38
-0.065622866 0.22553144 0.79200006 2.2303143e-38
-0.083937146 0.22761333 0.79400003 2.3234161e-38
-0.082424767 0.22761333 0.79400003 2.3234161e-38
-0.077887625 0.22761333 0.79400003 2.3047934e-38
-0.076375239 0.22761333 0.79400003 2.2863542e-38
-0.07486286 0.22761333 0.79400003 2.2768484e-38
-0.073350482 0.22761333 0.79400003 2.1201158e-38
-0.071838096 0.22761333 0.79400003 2.2483628e-38
-0.070325717 0.22761333 0.79400003 2.1561672e-38
-0.068640009 0.22704001 0.79200006 2.2295966e-38
-0.067131437 0.22704001 0.79200006 2.1834988e-38
-0.065622866 0.22704001 0.79200006 2.2206971e-38
-0.05973905 0.22761333 0.79400003 2.3234243e-38
-0.083725713 0.22854859 0.79200006 2.3050446e-38
-0.082424767 0.22912572 0.79400003 2.3142283e-38
-0.077887625 0.22912572 0.79400003 2.2860679e-38
-0.076375239 0.22912572 0.79400003 2.221531e-38
-0.07486286 0.22912572 0.79400003 2.2671619e-38
-0.073350482 0.22912572 0.79400003 2.2118445e-38
-0.071838096 0.22912572 0.79400003 2.2482561e-38
-0.070325717 0.22912572 0.79400003 2.1099627e-38
-0.068813339 0.22912572 0.79400003 2.2290998e-38
-0.067300953 0.22912572 0.79400003 2.2014411e-38
-0.065788575 0.22912572 0.79400003 2.2292405e-38
-0.064276196 0.22912572 0.79400003 2.349635e-38
-0.05973905 0.22912572 0.79400003 2.3234217e-38
-0.058080003 0.22854859 0.79200006 2.3326053e-38
-0.083725713 0.23005715 0.79200006 2.2952903e-38
-0.076375239 0.2306381 0.79400003 2.2581577e-38
-0.07486286 0.2306381 0.79400003 2.2668748e-38
-0.073350482 0.2306381 0.79400003 2.2668748e-38
-0.071838096 0.2306381 0.79400003 2.2572605e-38
-0.070325717 0.2306381 0.79400003 2.0820888e-38
-0.068813339 0.2306381 0.79400003 2.2105487e-38
-0.067300953 0.2306381 0.79400003 2.2197683e-38
-0.065788575 0.2306381 0.79400003 2.2201953e-38
-0.064276196 0.2306381 0.79400003 2.3503136e-38
-0.058226667 0.2306381 0.79400003 2.3234217e-38
-0.07486286 0.23215048 0.79400003 2.2387806e-38
-0.073350482 0.23215048 0.79400003 2.2019023e-38
-0.071838096 0.23215048 0.79400003 2.2199814e-38
-0.070325717 0.23215048 0.79400003 2.1277858e-38
-0.068813339 0.23215048 0.79400003 2.2012179e-38
-0.067300953 0.23215048 0.79400003 2.3026316e-38
-0.065788575 0.23215048 0.79400003 2.2480384e-38
-0.064276196 0.23215048 0.79400003 2.35057e-38
-0.06276381 0.23215048 0.79400003 2.3142338e-38
-0.058226667 0.23215048 0.79400003 2.0746011e-38
-0.056571431 0.23156573 0.79200006 2.2576545e-38
-0.073350482 0.23366286 0.79400003 2.1465502e-38
-0.071838096 0.23366286 0.79400003 2.2105122e-38
-0.070502862 0.23425144 0.79600006 2.109097e-38
-0.068986669 0.23425144 0.79600006 2.1918909e-38
-0.067470483 0.23425144 0.79600006 2.3489443e-38
-0.065788575 0.23366286 0.79400003 2.2208829e-38
-0.061405718 0.23425144 0.79600006 2.3142392e-38
-0.05973905 0.23366286 0.79400003 2.3234217e-38
-0.082632385 0.23576763 0.79600006 2.3479402e-38
-0.072019048 0.23576763 0.79600006 2.2101557e-38
-0.070502862 0.23576763 0.79600006 2.1271796e-38
-0.068986669 0.23576763 0.79600006 2.1367178e-38
-0.067470483 0.23576763 0.79600006 2.3494872e-38
-0.06595429 0.23576763 0.79600006 2.2859288e-38
-0.064438097 0.23576763 0.79600006 2.3509701e-38
-0.062921911 0.23576763 0.79600006 2.3234219e-38
-0.061405718 0.23576763 0.79600006 2.1944557e-38
-0.05973905 0.23517524 0.79400003 2.1397437e-38
-0.083937146 0.23668762 0.79400003 1.9511097e-38
-0.082632385 0.23728383 0.79600006 2.2276941e-38
-0.07656762 0.23728383 0.79600006 2.2292447e-38
-0.073535241 0.23728383 0.79600006 2.0999528e-38
-0.072019048 0.23728383 0.79600006 2.1640174e-38
-0.070502862 0.23728383 0.79600006 2.1824562e-38
-0.068986669 0.23728383 0.79600006 2.0817242e-38
-0.067470483 0.23728383 0.79600006 2.3503843e-38
-0.06595429 0.23728383 0.79600006 2.3142373e-38
-0.064438097 0.23728383 0.79600006 2.350972e-38
-0.062921911 0.23728383 0.79600006 2.204039e-38
-0.061405718 0.23728383 0.79600006 2.0104999e-38
-0.05973905 0.23668762 0.79400003 1.7628607e-38
-0.07656762 0.23880002 0.79600006 2.1732805e-38
-0.075051434 0.23880002 0.79600006 2.1915724e-38
-0.073535241 0.23880002 0.79600006 2.0809376e-38
-0.072019048 0.23880002 0.79600006 2.1178845e-38
-0.070502862 0.23880002 0.79600006 2.3486257e-38
-0.068986669 0.23880002 0.79600006 2.2576558e-38
-0.067470483 0.23880002 0.79600006 2.3509678e-38
-0.06595429 0.23880002 0.79600006 2.3326094e-38
-0.064438097 0.23880002 0.79600006 2.3417931e-38
-0.062921911 0.23880002 0.79600006 2.2315932e-38
-0.061405718 0.23880002 0.79600006 2.1670921e-38
-0.059889529 0.23880002 0.79600006 2.0570962e-38
-0.056857146 0.23880002 0.79600006 1.8356032e-38
-0.055201907 0.23820001 0.79400003 1.7157489e-38
-0.084148578 0.2403162 0.79600006 1.8494568e-38
-0.082840003 0.24092002 0.79800004 1.6742851e-38
-0.07656762 0.2403162 0.79600006 2.1361481e-38
-0.075051434 0.2403162 0.79600006 2.0902261e-38
-0.073535241 0.2403162 0.79600006 2.1824203e-38
-0.072019048 0.2403162 0.79600006 2.1921779e-38
-0.070502862 0.2403162 0.79600006 2.3494108e-38
-0.068986669 0.2403162 0.79600006 2.3045474e-38
-0.067470483 0.2403162 0.79600006 2.3509698e-38
-0.06595429 0.2403162 0.79600006 2.3326079e-38
-0.064438097 0.2403162 0.79600006 2.3509752e-38
-0.062921911 0.2403162 0.79600006 2.3142504e-38
-0.061405718 0.2403162 0.79600006 2.3142504e-38
-0.059889529 0.2403162 0.79600006 2.2683324e-38
-0.056857146 0.2403162 0.79600006 1.8354988e-38
-0.055201907 0.23971239 0.79400003 1.724864e-38
-0.084148578 0.24183241 0.79600006 2.0344935e-38
-0.082840003 0.24244002 0.79800004 1.6288328e-38
-0.07656762 0.24183241 0.79600006 2.34838e-38
-0.075051434 0.24183241 0.79600006 2.2485361e-38
-0.073535241 0.24183241 0.79600006 2.3499873e-38
-0.072019048 0.24183241 0.79600006 2.3049703e-38
-0.070502862 0.24183241 0.79600006 2.3509617e-38
-0.068986669 0.24183241 0.79600006 2.3234226e-38
-0.067470483 0.24183241 0.79600006 2.3234226e-38
-0.06595429 0.24183241 0.79600006 2.3234222e-38
-0.064438097 0.24183241 0.79600006 2.3509738e-38
-0.062921911 0.24183241 0.79600006 2.3326201e-38
-0.061405718 0.24183241 0.79600006 2.3326201e-38
-0.059889529 0.24183241 0.79600006 2.3234365e-38
-0.084148578 0.24334858 0.79600006 2.0069444e-38
-0.082840003 0.24396002 0.79800004 1.5644054e-38
-0.070502862 0.24334858 0.79600006 2.3509713e-38
-0.068986669 0.24334858 0.79600006 2.3326079e-38
-0.067470483 0.24334858 0.79600006 2.3326079e-38
-0.06595429 0.24334858 0.79600006 2.3234239e-38
-0.064438097 0.24334858 0.79600006 2.350975e-38
-0.062921911 0.24334858 0.79600006 2.3326182e-38
-0.061405718 0.24334858 0.79600006 2.3418019e-38
-0.059889529 0.24334858 0.79600006 2.3418031e-38
-0.084148578 0.24486479 0.79600006 1.8127906e-38
-0.068986669 0.24486479 0.79600006 2.2118884e-38
-0.067470483 0.24486479 0.79600006 2.1842297e-38
-0.06595429 0.24486479 0.79600006 2.1016852e-38
-0.064438097 0.24486479 0.79600006 2.0371483e-38
-0.062921911 0.24486479 0.79600006 2.0369328e-38
-0.061405718 0.24486479 0.79600006 2.0830306e-38
-0.059889529 0.24486479 0.79600006 1.9998439e-38
-0.068986669 0.24638095 0.79600006 2.1377719e-38
-0.067470483 0.24638095 0.79600006 2.1193328e-38
-0.06595429 0.24638095 0.79600006 2.18398e-38
-0.064438097 0.24638095 0.79600006 2.0180279e-38
-0.062921911 0.24638095 0.79600006 2.0909907e-38
-0.061405718 0.24638095 0.79600006 2.210845e-38
-0.059889529 0.24638095 0.79600006 2.1831524e-38
-0.064438097 0.24789716 0.79600006 2.0631882e-38
-0.062921911 0.24789716 0.79600006 2.0906726e-38
-0.061405718 0.24789716 0.79600006 2.3119421e-38
-0.059889529 0.24789716 0.79600006 2.2114935e-38
