# .PCD v0.7 - Point Cloud Data file format
VERSION 0.7
FIELDS x y z rgb
SIZE 4 4 4 4
TYPE F F F F
COUNT 1 1 1 1
WIDTH 335
HEIGHT 1
VIEWPOINT 0 0 0 1 0 0 0
POINTS 335
DATA ascii
-0.038587622 -0.11576286 1.307 3.657389e-43
-0.076220959 -0.11370667 1.312 0
-0.038587622 -0.11327334 1.307 2.8025969e-45
-0.036098097 -0.11327334 1.307 2.8025969e-45
-0.033608571 -0.11327334 1.307 3.5873241e-43
-0.031119047 -0.11327334 1.307 3.5873241e-43
-0.028629525 -0.11327334 1.307 3.5873241e-43
-0.026140001 -0.11327334 1.307 3.5873241e-43
-0.038587622 -0.11078382 1.307 1.2350965e-38
-0.036098097 -0.11078382 1.307 1.2904139e-38
-0.033608571 -0.11078382 1.307 1.3732798e-38
-0.031119047 -0.11078382 1.307 1.4193776e-38
-0.028629525 -0.11078382 1.307 1.465547e-38
-0.021322858 -0.11163143 1.317 1.4103751e-38
-0.018814286 -0.11163143 1.317 1.5669985e-38
-0.01624381 -0.11120762 1.312 1.7145115e-38
-0.0062476192 -0.11120762 1.312 1.6224248e-38
-0.038587622 -0.10829429 1.307 1.6682352e-38
-0.036098097 -0.10829429 1.307 1.7051134e-38
-0.033608571 -0.10829429 1.307 1.7417749e-38
-0.031119047 -0.10829429 1.307 1.824751e-38
-0.028629525 -0.10829429 1.307 1.8064916e-38
-0.018814286 -0.10912286 1.317 1.8619176e-38
-0.038587622 -0.10580476 1.307 1.8617384e-38
-0.036098097 -0.10580476 1.307 1.8986166e-38
-0.033608571 -0.10580476 1.307 1.9353854e-38
-0.031119047 -0.10580476 1.307 1.9538246e-38
-0.038587622 -0.10331524 1.307 1.8892889e-38
-0.036098097 -0.10331524 1.307 1.907728e-38
-0.033608571 -0.10331524 1.307 1.9630088e-38
-0.031119047 -0.10331524 1.307 1.9722284e-38
-0.023740953 -0.10371048 1.312 2.0554931e-38
-0.021241905 -0.10371048 1.312 2.0278344e-38
-0.038587622 -0.10082572 1.307 1.8801765e-38
-0.036098097 -0.10082572 1.307 1.8893961e-38
-0.033608571 -0.10082572 1.307 1.8893605e-38
-0.031119047 -0.10082572 1.307 1.8801409e-38
-0.023740953 -0.10121143 1.312 1.834152e-38
-0.021241905 -0.10121143 1.312 1.8986889e-38
-0.038587622 -0.098336197 1.307 1.5758588e-38
-0.036098097 -0.098336197 1.307 1.5758588e-38
-0.033608571 -0.098336197 1.307 1.5666748e-38
-0.031119047 -0.098336197 1.307 1.5943335e-38
-0.023740953 -0.098712385 1.312 1.5207219e-38
-0.021241905 -0.098712385 1.312 1.686674e-38
-0.036098097 -0.095846668 1.307 1.316558e-38
-0.021241905 -0.096213333 1.312 2.0087469e-38
-0.030547623 -0.084311433 1.2830001 1.4341045e-38
-0.032991432 -0.08186762 1.2830001 1.4338893e-38
-0.030547623 -0.08186762 1.2830001 1.470767e-38
-0.028103812 -0.08186762 1.2830001 1.4709105e-38
-0.032991432 -0.079423815 1.2830001 1.6464741e-38
-0.030547623 -0.079423815 1.2830001 1.6556936e-38
-0.040165719 -0.074245721 1.2780001 1.6277124e-38
-0.035159048 -0.071530476 1.273 1.7012167e-38
-0.032734282 -0.071530476 1.273 1.7102926e-38
-0.030309524 -0.071530476 1.273 1.6549761e-38
-0.035159048 -0.069105707 1.273 1.6177397e-38
-0.032734282 -0.069105707 1.273 1.5904043e-38
-0.030309524 -0.069105707 1.273 1.5996237e-38
-0.027884761 -0.069105707 1.273 1.5721806e-38
-0.037731431 -0.066942863 1.2780001 1.6837173e-38
-0.035159048 -0.066680953 1.273 1.646839e-38
-0.032734282 -0.066680953 1.273 1.6741034e-38
-0.030309524 -0.066680953 1.273 1.7755186e-38
-0.027884761 -0.066680953 1.273 1.7301395e-38
-0.037583809 -0.064256191 1.273 1.8328187e-38
-0.035159048 -0.064256191 1.273 1.9065752e-38
-0.032734282 -0.064256191 1.273 1.8696603e-38
-0.030309524 -0.064256191 1.273 1.8880995e-38
-0.027884761 -0.064256191 1.273 1.7406253e-38
-0.037583809 -0.061831426 1.273 1.5663508e-38
-0.035159048 -0.061831426 1.273 1.6401073e-38
-0.032734282 -0.061831426 1.273 1.6124842e-38
-0.030309524 -0.061831426 1.273 1.6217038e-38
-0.027884761 -0.061831426 1.273 1.4557912e-38
-0.037583809 -0.059406664 1.273 1.8708485e-38
-0.035159048 -0.059406664 1.273 1.797092e-38
-0.032734282 -0.059406664 1.273 1.8524447e-38
-0.030309524 -0.059406664 1.273 1.9169816e-38
-0.027884761 -0.059406664 1.273 1.8152825e-38
-0.042266667 -0.056758095 1.268 1.667696e-38
-0.037583809 -0.056981906 1.273 1.9908123e-38
-0.035159048 -0.056981906 1.273 1.9354949e-38
-0.032734282 -0.056981906 1.273 1.9540063e-38
-0.030309524 -0.056981906 1.273 1.9447867e-38
-0.027884761 -0.056981906 1.273 1.9720151e-38
-0.042266667 -0.054342858 1.268 1.9441059e-38
-0.039851431 -0.054342858 1.268 2.3504146e-38
-0.037436187 -0.054342858 1.268 2.3325131e-38
-0.035020951 -0.054342858 1.268 2.3509523e-38
-0.032605715 -0.054342858 1.268 2.3416971e-38
-0.030309524 -0.054557141 1.273 2.3324775e-38
-0.027884761 -0.054557141 1.273 2.2396691e-38
-0.042266667 -0.051927619 1.268 1.9715773e-38
-0.039851431 -0.051927619 1.268 2.3505158e-38
-0.037436187 -0.051927619 1.268 2.341804e-38
-0.035020951 -0.051927619 1.268 2.3233649e-38
-0.032605715 -0.051927619 1.268 2.33244e-38
-0.030190477 -0.051927619 1.268 2.33244e-38
-0.027884761 -0.052132379 1.273 2.2397405e-38
0.018257145 -0.052337147 1.2780001 1.0862417e-38
-0.042266667 -0.049512379 1.268 1.8338493e-38
-0.039851431 -0.049512379 1.268 1.8891667e-38
-0.037436187 -0.049512379 1.268 1.8989001e-38
-0.035020951 -0.049512379 1.268 1.9173392e-38
-0.032605715 -0.049512379 1.268 1.8991487e-38
-0.030190477 -0.049512379 1.268 1.9083683e-38
-0.027884761 -0.049707618 1.273 2.1193765e-38
-0.025459999 -0.049707618 1.273 2.1378156e-38
-0.023035238 -0.049707618 1.273 2.1558257e-38
0.018257145 -0.049902864 1.2780001 1.3906367e-38
-0.042266667 -0.047097143 1.268 1.7607423e-38
-0.039851431 -0.047097143 1.268 1.6501076e-38
-0.037436187 -0.047097143 1.268 1.3648845e-38
-0.035020951 -0.047097143 1.268 1.4662997e-38
-0.032605715 -0.047097143 1.268 1.7055739e-38
-0.030190477 -0.047097143 1.268 1.6686956e-38
-0.027884761 -0.047282856 1.273 1.8336079e-38
-0.025459999 -0.047282856 1.273 1.8336079e-38
-0.023035238 -0.047282856 1.273 1.8695876e-38
0.018257145 -0.047468573 1.2780001 1.4180413e-38
-0.044681903 -0.044681903 1.268 1.7049245e-38
-0.042266667 -0.044681903 1.268 1.7142157e-38
-0.039851431 -0.044681903 1.268 1.8801678e-38
-0.037436187 -0.044681903 1.268 1.6870898e-38
-0.035020951 -0.044681903 1.268 1.2722094e-38
-0.032605715 -0.044681903 1.268 1.2995112e-38
-0.030190477 -0.044681903 1.268 1.1427787e-38
-0.027884761 -0.044858098 1.273 1.3346729e-38
-0.025459999 -0.044858098 1.273 1.1502816e-38
-0.023035238 -0.044858098 1.273 1.3696822e-38
-0.039851431 -0.042266667 1.268 1.9999801e-38
-0.037436187 -0.042266667 1.268 1.9355153e-38
-0.035020951 -0.042266667 1.268 1.6497089e-38
-0.032605715 -0.042266667 1.268 1.3542507e-38
-0.030190477 -0.042266667 1.268 1.2436176e-38
-0.027884761 -0.042433333 1.273 1.4263268e-38
-0.025459999 -0.042433333 1.273 1.3525703e-38
-0.023035238 -0.042433333 1.273 1.4895735e-38
-0.039851431 -0.039851431 1.268 2.017926e-38
-0.037436187 -0.039851431 1.268 1.981322e-38
-0.035020951 -0.039851431 1.268 2.0089807e-38
-0.032605715 -0.039851431 1.268 1.6861562e-38
-0.030190477 -0.039851431 1.268 1.437228e-38
-0.027884761 -0.040008571 1.273 1.5653045e-38
-0.025459999 -0.040008571 1.273 1.5929632e-38
-0.023035238 -0.040008571 1.273 1.6752582e-38
-0.035020951 -0.037436187 1.268 2.0916644e-38
-0.032605715 -0.037436187 1.268 1.9627053e-38
-0.030190477 -0.037436187 1.268 1.695338e-38
-0.027884761 -0.037583809 1.273 1.5470758e-38
-0.025459999 -0.037583809 1.273 1.5747345e-38
-0.023035238 -0.037583809 1.273 1.6295197e-38
0.0084533338 -0.037436187 1.268 2.2194966e-38
-0.039851431 -0.035020951 1.268 1.9166816e-38
-0.037436187 -0.035020951 1.268 1.962625e-38
-0.035020951 -0.035020951 1.268 1.9718444e-38
-0.032605715 -0.035020951 1.268 1.9718085e-38
-0.030190477 -0.035020951 1.268 2.0455639e-38
-0.027884761 -0.035159048 1.273 1.7779568e-38
-0.025459999 -0.035159048 1.273 1.4921504e-38
-0.023035238 -0.035159048 1.273 1.6481363e-38
-0.020610476 -0.035159048 1.273 1.6665755e-38
-0.035020951 -0.032605715 1.268 1.9624456e-38
-0.032605715 -0.032605715 1.268 1.9899963e-38
-0.027884761 -0.032734282 1.273 1.9624581e-38
-0.025459999 -0.032734282 1.273 1.6766517e-38
-0.023035238 -0.032734282 1.273 1.6115455e-38
-0.020610476 -0.032734282 1.273 1.6115455e-38
-0.037583809 -0.030309524 1.273 2.0084374e-38
-0.035159048 -0.030309524 1.273 2.0176569e-38
-0.032734282 -0.030309524 1.273 2.0084007e-38
-0.030309524 -0.030309524 1.273 2.0176202e-38
-0.027884761 -0.030309524 1.273 1.8889083e-38
-0.025459999 -0.030309524 1.273 1.6952976e-38
-0.023035238 -0.030309524 1.273 1.3348867e-38
-0.020610476 -0.030309524 1.273 1.0214216e-38
-0.037583809 -0.027884761 1.273 2.0359967e-38
-0.035159048 -0.027884761 1.273 2.008338e-38
-0.032734282 -0.027884761 1.273 1.9805724e-38
-0.030309524 -0.027884761 1.273 1.9621333e-38
-0.027884761 -0.027884761 1.273 1.6860866e-38
-0.025459999 -0.027884761 1.273 1.5754518e-38
-0.023035238 -0.027884761 1.273 1.1879447e-38
-0.020610476 -0.027884761 1.273 1.1049687e-38
-0.037583809 -0.025459999 1.273 1.3258032e-38
-0.035159048 -0.025459999 1.273 1.2612673e-38
-0.032734282 -0.025459999 1.273 1.2793833e-38
-0.030309524 -0.025459999 1.273 1.3070415e-38
-0.027884761 -0.025459999 1.273 1.5475453e-38
-0.025459999 -0.025459999 1.273 1.6673996e-38
-0.023035238 -0.025459999 1.273 2.0646282e-38
-0.020610476 -0.025459999 1.273 2.2121412e-38
-0.037583809 -0.023035238 1.273 9.4856023e-39
-0.035159048 -0.023035238 1.273 1.0960716e-38
-0.032734282 -0.023035238 1.273 1.0866387e-38
-0.030309524 -0.023035238 1.273 1.3632256e-38
-0.027884761 -0.023035238 1.273 1.584752e-38
-0.025459999 -0.023035238 1.273 1.8244606e-38
-0.023035238 -0.023035238 1.273 2.1933912e-38
-0.020610476 -0.023035238 1.273 2.304026e-38
-0.037583809 -0.020610476 1.273 2.2214356e-38
-0.035159048 -0.020610476 1.273 2.3228508e-38
-0.032734282 -0.020610476 1.273 2.258468e-38
-0.030309524 -0.020610476 1.273 2.3507356e-38
-0.025560003 -0.02069143 1.2780001 2.3508438e-38
-0.037583809 -0.018185714 1.273 2.2673979e-38
-0.035159048 -0.018185714 1.273 2.2213001e-38
-0.032734282 -0.018185714 1.273 2.2217682e-38
-0.030309524 -0.018185714 1.273 2.3509502e-38
-0.027994288 -0.018257145 1.2780001 2.3324415e-38
-0.025560003 -0.018257145 1.2780001 2.2863437e-38
-0.023125716 -0.018257145 1.2780001 2.3046387e-38
-0.037583809 -0.015760953 1.273 7.927514e-39
-0.035159048 -0.015760953 1.273 3.4099281e-39
-0.032734282 -0.015760953 1.273 1.6406465e-38
-0.027994288 -0.015822859 1.2780001 2.3230778e-38
-0.025560003 -0.015822859 1.2780001 1.9542953e-38
-0.023125716 -0.015822859 1.2780001 1.7885236e-38
-0.032862861 -0.013388573 1.2780001 1.3642708e-38
-0.030428573 -0.013388573 1.2780001 2.3509803e-38
-0.027994288 -0.013388573 1.2780001 2.2403535e-38
-0.032862861 -0.010954286 1.2780001 1.3091757e-38
-0.025660003 -0.010997144 1.2830001 1.2719708e-38
-0.030547623 -0.0085533345 1.2830001 1.8798185e-38
-0.028103812 -0.0085533345 1.2830001 1.5759999e-38
-0.030547623 -0.0061095241 1.2830001 1.760433e-38
-0.028103812 -0.0061095241 1.2830001 1.566776e-38
-0.030547623 -0.0036657148 1.2830001 1.7142212e-38
-0.028103812 -0.0036657148 1.2830001 1.1710242e-38
-0.030547623 -0.0012219049 1.2830001 1.3842671e-38
-0.028103812 -0.0012219049 1.2830001 1.5304067e-38
-0.030547623 0.0012219049 1.2830001 1.5679304e-38
-0.028103812 0.0012219049 1.2830001 1.5763314e-38
-0.035573337 0.0036800003 1.2880001 1.385468e-39
-0.030547623 0.0036657148 1.2830001 1.632687e-38
-0.028103812 0.0036657148 1.2830001 1.8437006e-38
-0.030547623 0.0061095241 1.2830001 1.925702e-38
-0.028103812 0.0061095241 1.2830001 1.9728442e-38
-0.030547623 0.0085533345 1.2830001 1.843806e-38
-0.028103812 0.0085533345 1.2830001 1.871352e-38
-0.030547623 0.010997144 1.2830001 1.8066037e-38
-0.028103812 0.010997144 1.2830001 1.714333e-38
-0.030547623 0.013440953 1.2830001 1.4470426e-38
-0.028103812 0.013440953 1.2830001 1.1518378e-38
-0.030547623 0.015884763 1.2830001 1.0702535e-38
-0.028103812 0.015884763 1.2830001 8.3042965e-39
-0.030547623 0.018328572 1.2830001 1.6308707e-38
-0.028103812 0.018328572 1.2830001 1.84349e-38
-0.030547623 0.020772383 1.2830001 2.3208964e-38
-0.028103812 0.020772383 1.2830001 2.1375911e-38
-0.030547623 0.023216194 1.2830001 2.3487361e-38
-0.028103812 0.023216194 1.2830001 2.2021609e-38
-0.030547623 0.025660003 1.2830001 2.3490591e-38
-0.028103812 0.025660003 1.2830001 2.2577015e-38
-0.030547623 0.028103812 1.2830001 2.3489973e-38
-0.028103812 0.028103812 1.2830001 2.1104396e-38
-0.030547623 0.030547623 1.2830001 2.2846026e-38
-0.025840001 0.038144764 1.2920001 1.5206021e-38
-0.025840001 0.043066666 1.2920001 1.5395855e-38
-0.025840001 0.045527618 1.2920001 1.5123231e-38
-0.033119999 0.050293338 1.2880001 1.9435998e-38
-0.025840001 0.052910481 1.2920001 1.9436692e-38
-0.033119999 0.055200007 1.2880001 2.0912195e-38
-0.025840001 0.05537143 1.2920001 2.0267169e-38
-0.025840001 0.057832383 1.2920001 2.3036984e-38
-0.025940001 0.062997147 1.2970001 1.9987146e-38
-0.025940001 0.065467626 1.2970001 1.915093e-38
-0.025940001 0.067938097 1.2970001 1.7579703e-38
-0.025940001 0.070408568 1.2970001 1.6750292e-38
-0.026040001 0.085560001 1.302 1.7868586e-38
-0.023560001 0.085560001 1.302 1.7410144e-38
-0.016181905 0.085888579 1.307 1.970964e-38
-0.028520001 0.088040002 1.302 1.9434861e-38
-0.023650477 0.088378102 1.307 1.9804369e-38
-0.021160953 0.088378102 1.307 1.9159e-38
-0.016181905 0.088378102 1.307 1.9982688e-38
-0.023650477 0.090867624 1.307 2.0537618e-38
-0.021160953 0.090867624 1.307 2.0537618e-38
-0.023650477 0.093357146 1.307 2.0168823e-38
-0.021160953 0.093357146 1.307 2.0076627e-38
-0.023650477 0.095846668 1.307 2.0813473e-38
-0.021160953 0.095846668 1.307 2.0629082e-38
-0.023650477 0.098336197 1.307 2.0538319e-38
-0.021160953 0.098336197 1.307 2.0630514e-38
-0.023650477 0.10082572 1.307 2.0632981e-38
-0.021160953 0.10082572 1.307 2.0540785e-38
0.023560001 0.10044 1.302 1.4830452e-38
-0.023740953 0.10371048 1.312 2.1375551e-38
-0.021241905 0.10371048 1.312 2.119116e-38
-0.018742858 0.10371048 1.312 2.137482e-38
-0.028629525 0.10580476 1.307 1.990004e-38
-0.023740953 0.10620952 1.312 2.1563877e-38
-0.021241905 0.10620952 1.312 2.0918508e-38
-0.018742858 0.10620952 1.312 2.1285478e-38
-0.028629525 0.10829429 1.307 2.2021561e-38
-0.023740953 0.10870858 1.312 2.1748175e-38
-0.021241905 0.10870858 1.312 2.0273045e-38
-0.018742858 0.10870858 1.312 2.0177263e-38
-0.013744762 0.10870858 1.312 1.9069139e-38
-0.028629525 0.11078382 1.307 2.211275e-38
-0.023740953 0.11120762 1.312 2.1376933e-38
-0.021241905 0.11120762 1.312 2.0823759e-38
-0.018742858 0.11120762 1.312 2.0635389e-38
-0.028629525 0.11327334 1.307 1.9154206e-38
-0.023740953 0.11370667 1.312 2.04499e-38
-0.021241905 0.11370667 1.312 2.0357705e-38
-0.018742858 0.11370667 1.312 2.0078979e-38
-0.028629525 0.11576286 1.307 1.7950252e-38
-0.023740953 0.11620572 1.312 2.099737e-38
-0.021241905 0.11620572 1.312 2.0720783e-38
-0.018742858 0.11620572 1.312 1.9432176e-38
-0.028629525 0.11825238 1.307 1.6934681e-38
-0.023740953 0.11870477 1.312 1.8780053e-38
-0.021241905 0.11870477 1.312 1.970201e-38
-0.018742858 0.11870477 1.312 1.8415887e-38
-0.028629525 0.12074191 1.307 1.526801e-38
-0.023740953 0.12120381 1.312 1.8501983e-38
-0.021241905 0.12120381 1.312 1.9239536e-38
-0.018742858 0.12120381 1.312 1.8045316e-38
-0.028629525 0.12323143 1.307 1.5547132e-38
-0.023740953 0.12370285 1.312 1.6287886e-38
-0.021241905 0.12370285 1.312 2.1266429e-38
-0.018742858 0.12370285 1.312 2.1003424e-38
-0.028629525 0.12572095 1.307 1.5735454e-38
-0.026240001 0.12620191 1.312 1.4536913e-38
-0.023740953 0.12620191 1.312 1.5829067e-38
-0.021241905 0.12620191 1.312 2.1821758e-38
-0.018742858 0.12620191 1.312 2.1555626e-38
-0.028629525 0.12821047 1.307 1.5181555e-38
-0.026240001 0.12870096 1.312 1.4351807e-38
-0.023740953 0.12870096 1.312 1.600951e-38
-0.021241905 0.12870096 1.312 2.2739784e-38
-0.018742858 0.12870096 1.312 2.0538242e-38
