# .PCD v0.7 - Point Cloud Data file format
VERSION 0.7
FIELDS x y z rgb
SIZE 4 4 4 4
TYPE F F F F
COUNT 1 1 1 1
WIDTH 293
HEIGHT 1
VIEWPOINT 0 0 0 1 0 0 0
POINTS 293
DATA ascii
-0.029531429 -0.18806858 1.6320001 3.2203604e-39
-0.010880001 -0.18806858 1.6320001 4.8802797e-39
-0.0077714291 -0.18806858 1.6320001 2.9441715e-39
-0.0046628574 -0.18806858 1.6320001 3.2214647e-39
-0.023414286 -0.18575333 1.6390001 9.02792e-39
-0.010880001 -0.18496001 1.6320001 1.0135373e-38
-0.0077714291 -0.18496001 1.6320001 9.8587863e-39
-0.0046628574 -0.18496001 1.6320001 9.5825651e-39
0.026293335 -0.18405335 1.6240001 1.1333563e-38
-0.023414286 -0.18263143 1.6390001 1.6314636e-38
-0.020292383 -0.18263143 1.6390001 1.6867809e-38
-0.017097143 -0.18185145 1.6320001 1.7328071e-38
-0.013988572 -0.18185145 1.6320001 1.7512463e-38
-0.010880001 -0.18185145 1.6320001 1.7328434e-38
-0.0077714291 -0.18185145 1.6320001 1.7144043e-38
-0.0046628574 -0.18185145 1.6320001 1.7052203e-38
-0.029531429 -0.17874286 1.6320001 1.8435523e-38
-0.026536191 -0.17950952 1.6390001 1.7605763e-38
-0.023414286 -0.17950952 1.6390001 1.5672882e-38
-0.020292383 -0.17950952 1.6390001 1.6779229e-38
-0.017097143 -0.17874286 1.6320001 1.7881624e-38
-0.013988572 -0.17874286 1.6320001 1.8066015e-38
-0.010880001 -0.17874286 1.6320001 1.8248248e-38
-0.0077714291 -0.17874286 1.6320001 1.778727e-38
-0.0046628574 -0.17874286 1.6320001 1.7695425e-38
-0.0015542858 -0.17874286 1.6320001 1.7695425e-38
-0.029386668 -0.17477334 1.6240001 1.9081243e-38
-0.026536191 -0.17638762 1.6390001 1.8251482e-38
-0.020205716 -0.17563429 1.6320001 1.6868203e-38
-0.017097143 -0.17563429 1.6320001 1.760433e-38
-0.013988572 -0.17563429 1.6320001 1.8618482e-38
-0.010880001 -0.17563429 1.6320001 1.7419579e-38
-0.0077714291 -0.17563429 1.6320001 1.6958601e-38
-0.0046628574 -0.17563429 1.6320001 1.7144424e-38
-0.0015542858 -0.17563429 1.6320001 1.7697598e-38
-0.020205716 -0.17252572 1.6320001 1.5026093e-38
-0.017097143 -0.17252572 1.6320001 1.6220673e-38
-0.013988572 -0.17252572 1.6320001 1.6681651e-38
-0.010880001 -0.17252572 1.6320001 1.5852967e-38
-0.0077714291 -0.17252572 1.6320001 1.5391988e-38
-0.0046628574 -0.17252572 1.6320001 1.5578538e-38
-0.020205716 -0.16941716 1.6320001 1.5390174e-38
-0.017097143 -0.16941716 1.6320001 1.6771301e-38
-0.013988572 -0.16941716 1.6320001 1.7601061e-38
-0.010880001 -0.16941716 1.6320001 1.7232266e-38
-0.0077714291 -0.16941716 1.6320001 1.3821028e-38
-0.0046628574 -0.16941716 1.6320001 1.3540879e-38
-0.017097143 -0.16630858 1.6320001 1.6858827e-38
-0.013988572 -0.16630858 1.6320001 1.7412001e-38
-0.010880001 -0.16630858 1.6320001 1.7594597e-38
-0.0077714291 -0.16630858 1.6320001 1.5197511e-38
-0.026422858 -0.16320002 1.6320001 1.0489749e-38
-0.017097143 -0.16320002 1.6320001 1.1685059e-38
-0.013988572 -0.16320002 1.6320001 1.1131886e-38
-0.0045742863 -0.15095143 1.6010001 1.3975497e-38
-0.0045742863 -0.14790191 1.6010001 1.3326909e-38
-0.0015247619 -0.14790191 1.6010001 1.388008e-38
-0.0045742863 -0.14485238 1.6010001 1.2957415e-38
-0.0015247619 -0.14485238 1.6010001 1.3971552e-38
-0.0045542861 -0.14118285 1.5940001 1.3340541e-38
-0.0015180953 -0.14118285 1.5940001 1.3893706e-38
0.0015180953 -0.14118285 1.5940001 1.4720584e-38
-0.0075904764 -0.13814668 1.5940001 1.0861358e-38
-0.0045542861 -0.13814668 1.5940001 1.2606216e-38
-0.0015180953 -0.13814668 1.5940001 1.5095479e-38
0.0015180953 -0.13814668 1.5940001 1.5372489e-38
-0.0075904764 -0.13511048 1.5940001 1.362976e-38
-0.0045542861 -0.13511048 1.5940001 1.4278996e-38
-0.0015180953 -0.13511048 1.5940001 1.6030713e-38
0.0015180953 -0.13511048 1.5940001 1.658007e-38
0.0045314287 -0.13443239 1.5860001 1.6672265e-38
0.0075523811 -0.13443239 1.5860001 1.6670443e-38
-0.0075904764 -0.1320743 1.5940001 1.5287859e-38
-0.0045542861 -0.1320743 1.5940001 1.4188342e-38
-0.0015180953 -0.1320743 1.5940001 1.5479081e-38
0.0015180953 -0.1320743 1.5940001 1.58479e-38
0.0045314287 -0.13141143 1.5860001 1.5386921e-38
0.0075523811 -0.13141143 1.5860001 1.6303145e-38
0.010573333 -0.13141143 1.5860001 1.6303145e-38
-0.0045542861 -0.1290381 1.5940001 1.73216e-38
-0.0015104762 -0.12839049 1.5860001 2.239236e-38
0.0015104762 -0.12839049 1.5860001 2.1843505e-38
0.0045314287 -0.12839049 1.5860001 2.1751309e-38
0.0075523811 -0.12839049 1.5860001 2.1842423e-38
0.010573333 -0.12839049 1.5860001 1.7970207e-38
-0.0045314287 -0.12536952 1.5860001 1.8517233e-38
-0.0015104762 -0.12536952 1.5860001 2.3127014e-38
0.0015104762 -0.12536952 1.5860001 2.2030051e-38
0.0045314287 -0.12536952 1.5860001 2.1753464e-38
0.0075523811 -0.12536952 1.5860001 2.2488168e-38
0.010573333 -0.12536952 1.5860001 1.8708147e-38
-0.0045314287 -0.12234858 1.5860001 1.8338565e-38
-0.0015104762 -0.12234858 1.5860001 1.8338565e-38
0.0015104762 -0.12234858 1.5860001 1.8710972e-38
0.0045314287 -0.12234858 1.5860001 1.8710972e-38
0.0075523811 -0.12234858 1.5860001 1.8983976e-38
0.010573333 -0.12234858 1.5860001 1.8522998e-38
-0.0045314287 -0.11932763 1.5860001 1.7512404e-38
-0.0015104762 -0.11932763 1.5860001 1.6313861e-38
0.0015104762 -0.11932763 1.5860001 1.4476079e-38
0.0045314287 -0.11932763 1.5860001 1.466047e-38
0.0075523811 -0.11932763 1.5860001 1.705003e-38
0.010573333 -0.11932763 1.5860001 1.6681247e-38
-0.0015104762 -0.11630668 1.5860001 1.7047475e-38
0.0015104762 -0.11630668 1.5860001 1.5394643e-38
0.0045314287 -0.11630668 1.5860001 1.0600543e-38
0.0075523811 -0.11630668 1.5860001 1.1878782e-38
0.010573333 -0.11630668 1.5860001 1.0772434e-38
-0.0015180953 -0.11385715 1.5940001 1.7784575e-38
0.0045314287 -0.11328572 1.5860001 1.3267718e-38
0.0075523811 -0.11328572 1.5860001 1.3068263e-38
0.010573333 -0.11328572 1.5860001 1.2238515e-38
0.013594287 -0.11328572 1.5860001 1.3062972e-38
0.022771429 -0.11385715 1.5940001 1.2318927e-38
-0.0015180953 -0.11082096 1.5940001 1.7232164e-38
0.0015180953 -0.11082096 1.5940001 1.759908e-38
0.0045314287 -0.11026477 1.5860001 1.7691275e-38
0.0075523811 -0.11026477 1.5860001 1.5290686e-38
0.010573333 -0.11026477 1.5860001 1.3354578e-38
0.013594287 -0.11026477 1.5860001 1.4545301e-38
-0.0015180953 -0.10778476 1.5940001 1.732257e-38
0.0015180953 -0.10778476 1.5940001 1.7044812e-38
0.0045542861 -0.10778476 1.5940001 1.8058959e-38
0.010573333 -0.10724381 1.5860001 1.5384304e-38
0.013594287 -0.10724381 1.5860001 1.4179359e-38
0.0015180953 -0.10474858 1.5940001 1.7136288e-38
0.0045542861 -0.10474858 1.5940001 1.7320678e-38
0.0075904764 -0.10474858 1.5940001 1.7044467e-38
0.010573333 -0.10422286 1.5860001 1.6583489e-38
0.013594287 -0.10422286 1.5860001 1.3442129e-38
0.0015180953 -0.10171238 1.5940001 1.741045e-38
0.0045542861 -0.10171238 1.5940001 1.7133863e-38
0.0075904764 -0.10171238 1.5940001 1.6766133e-38
0.013594287 -0.10120191 1.5860001 1.3906723e-38
0.0015180953 -0.098676197 1.5940001 1.1973053e-38
0.0045542861 -0.098676197 1.5940001 1.1327693e-38
0.0075904764 -0.098676197 1.5940001 1.3172295e-38
0.010626667 -0.098676197 1.5940001 1.455522e-38
0.0015180953 -0.095640004 1.5940001 8.9381851e-39
0.0045542861 -0.095640004 1.5940001 1.0689902e-38
0.0075904764 -0.095640004 1.5940001 1.2070387e-38
0.010626667 -0.095640004 1.5940001 1.3545517e-38
0.016615238 -0.095160007 1.5860001 1.9257718e-38
0.0015180953 -0.092603818 1.5940001 1.7236607e-38
0.0045542861 -0.092603818 1.5940001 1.9357107e-38
0.0075904764 -0.092603818 1.5940001 1.9910306e-38
0.010626667 -0.092603818 1.5940001 1.981811e-38
0.013594287 -0.09213905 1.5860001 1.9910306e-38
0.016615238 -0.09213905 1.5860001 2.0371284e-38
0.0045542861 -0.089567624 1.5940001 1.9265938e-38
0.0075904764 -0.089567624 1.5940001 1.9821007e-38
0.010626667 -0.089567624 1.5940001 1.9175637e-38
0.016615238 -0.089118101 1.5860001 1.9635151e-38
0.0045542861 -0.086531438 1.5940001 1.5392193e-38
0.0075904764 -0.086531438 1.5940001 1.7330643e-38
0.010626667 -0.086531438 1.5940001 1.5210143e-38
0.016615238 -0.086097151 1.5860001 1.3365541e-38
0.0045542861 -0.083495244 1.5940001 1.52075e-38
0.0075904764 -0.083495244 1.5940001 1.6320094e-38
0.010626667 -0.083495244 1.5940001 1.1249334e-38
0.0015180953 -0.080459051 1.5940001 1.0780778e-38
0.0045542861 -0.080459051 1.5940001 1.4468603e-38
0.0075904764 -0.080459051 1.5940001 1.0882722e-38
0.010626667 -0.080459051 1.5940001 2.677311e-39
0.013662858 -0.080459051 1.5940001 9.9607686e-39
0.0075904764 -0.077422865 1.5940001 1.0235545e-38
0.010626667 -0.077422865 1.5940001 1.9379383e-39
0.013662858 -0.077422865 1.5940001 1.2075495e-38
0.0075904764 -0.074386671 1.5940001 9.1342421e-39
0.010626667 -0.074386671 1.5940001 5.6004855e-40
0.013662858 -0.074386671 1.5940001 8.1222622e-39
0.010673334 -0.071663812 1.6010001 6.1872036e-39
0.013662858 -0.071350485 1.5940001 5.5518913e-39
0.010673334 -0.068614289 1.6010001 1.61357e-38
0.010673334 -0.065564767 1.6010001 1.8155374e-38
0.013722857 -0.062515244 1.6010001 1.4653344e-38
0.013722857 -0.059465718 1.6010001 1.1525858e-38
0.013722857 -0.056416195 1.6010001 1.3547992e-38
0.013722857 -0.053366669 1.6010001 1.7968697e-38
0.037952382 -0.050097149 1.5940001 1.3837039e-38
0.01677238 -0.04726762 1.6010001 1.4747852e-38
0.01677238 -0.044218097 1.6010001 1.4475211e-38
0.01677238 -0.041168571 1.6010001 1.3275969e-38
0.01677238 -0.038119048 1.6010001 1.1713039e-38
0.016856192 -0.035244767 1.6090001 1.107229e-38
0.068314292 -0.034916192 1.5940001 5.0682233e-39
0.019821906 -0.028970476 1.6010001 1.4018293e-38
0.019821906 -0.025920954 1.6010001 1.5490529e-38
0.068314292 -0.025807621 1.5940001 7.7414972e-39
0.019920954 -0.019920954 1.6090001 1.7601068e-38
0.022985715 -0.019920954 1.6090001 1.6863503e-38
0.022985715 -0.016856192 1.6090001 1.7781847e-38
0.022985715 -0.013791429 1.6090001 1.852012e-38
0.022985715 -0.010726667 1.6090001 1.8704871e-38
0.065892383 -0.010726667 1.6090001 9.772371e-39
0.022985715 -0.0076619047 1.6090001 1.8888173e-38
0.022985715 -0.0045971428 1.6090001 1.9161898e-38
0.026050476 -0.0045971428 1.6090001 1.8982188e-38
0.022985715 -0.0015323811 1.6090001 1.9348462e-38
0.026050476 -0.0015323811 1.6090001 1.9073997e-38
0.026050476 0.0015323811 1.6090001 1.9167241e-38
0.026050476 0.0045971428 1.6090001 1.8059392e-38
0.065564767 0.0045742863 1.6010001 8.6639131e-39
0.026050476 0.0076619047 1.6090001 1.7963653e-38
0.029115239 0.0076619047 1.6090001 1.7502675e-38
0.026050476 0.010726667 1.6090001 1.7498412e-38
0.029115239 0.010726667 1.6090001 1.795939e-38
0.026050476 0.013791429 1.6090001 1.7495885e-38
0.029115239 0.013791429 1.6090001 1.7772472e-38
0.03232 0.013851429 1.6160001 1.7589529e-38
0.050788574 0.013851429 1.6160001 1.7866829e-38
0.023085715 0.016929524 1.6160001 1.7313302e-38
0.026163809 0.016929524 1.6160001 1.7587731e-38
0.029241905 0.016929524 1.6160001 1.7587731e-38
0.03232 0.016929524 1.6160001 1.768064e-38
0.050788574 0.016929524 1.6160001 1.7682437e-38
0.023085715 0.02000762 1.6160001 1.7403702e-38
0.026163809 0.02000762 1.6160001 1.76792e-38
0.029241905 0.02000762 1.6160001 1.7863592e-38
0.03232 0.02000762 1.6160001 1.7772828e-38
0.0353981 0.02000762 1.6160001 1.7588437e-38
0.026163809 0.023085715 1.6160001 1.7587005e-38
0.029241905 0.023085715 1.6160001 1.7771396e-38
0.03232 0.023085715 1.6160001 1.7863579e-38
0.0353981 0.023085715 1.6160001 1.7863579e-38
0.026163809 0.026163809 1.6160001 1.7773159e-38
0.029241905 0.026163809 1.6160001 1.7773159e-38
0.03232 0.026163809 1.6160001 1.7587686e-38
0.0353981 0.026163809 1.6160001 1.7772077e-38
-0.026422858 0.029531429 1.6320001 1.3812347e-38
0.026163809 0.029241905 1.6160001 1.8607205e-38
0.029241905 0.029241905 1.6160001 1.8515009e-38
0.03232 0.029241905 1.6160001 1.8329526e-38
0.0353981 0.029241905 1.6160001 1.6301222e-38
0.020106668 0.032480001 1.6240001 1.7781376e-38
0.0232 0.032480001 1.6240001 1.7596985e-38
0.026163809 0.03232 1.6160001 1.8241603e-38
0.029241905 0.03232 1.6160001 1.8794777e-38
0.03232 0.03232 1.6160001 1.8975627e-38
0.0353981 0.03232 1.6160001 1.786928e-38
0.020106668 0.035573334 1.6240001 1.704159e-38
0.0232 0.035573334 1.6240001 1.6119641e-38
0.026293335 0.035573334 1.6240001 1.6764283e-38
0.029241905 0.0353981 1.6160001 1.9714515e-38
0.03232 0.0353981 1.6160001 1.9162125e-38
0.0353981 0.0353981 1.6160001 1.8516755e-38
0.038476191 0.0353981 1.6160001 1.7402913e-38
0.063413329 0.035573334 1.6240001 1.1519394e-38
0.0232 0.038666669 1.6240001 1.6025294e-38
0.026293335 0.038666669 1.6240001 1.6208606e-38
0.029241905 0.038476191 1.6160001 2.0080796e-38
0.03232 0.038476191 1.6160001 1.8980279e-38
0.0353981 0.038476191 1.6160001 1.8058323e-38
0.038476191 0.038476191 1.6160001 1.7588026e-38
0.063100956 0.038476191 1.6160001 1.1241724e-38
0.066179045 0.038476191 1.6160001 1.2348071e-38
0.0232 0.041760001 1.6240001 1.5193035e-38
0.026293335 0.041760001 1.6240001 1.5656158e-38
0.029386668 0.041760001 1.6240001 2.0081525e-38
0.03232 0.041554287 1.6160001 1.8246295e-38
0.0353981 0.041554287 1.6160001 1.6217991e-38
0.038476191 0.041554287 1.6160001 1.5747351e-38
0.0232 0.044853333 1.6240001 1.6020989e-38
0.026293335 0.044853333 1.6240001 1.5106939e-38
0.029386668 0.044853333 1.6240001 1.9440108e-38
0.0353981 0.044632383 1.6160001 1.4103246e-38
0.038476191 0.044632383 1.6160001 1.4279006e-38
0.0232 0.047946669 1.6240001 1.906341e-38
0.026293335 0.047946669 1.6240001 1.8245513e-38
0.029386668 0.047946669 1.6240001 1.9812838e-38
0.032480001 0.047946669 1.6240001 1.760809e-38
0.035573334 0.047946669 1.6240001 1.4565634e-38
0.041554287 0.047710475 1.6160001 1.3820198e-38
0.023314286 0.051291432 1.6320001 1.925036e-38
0.026293335 0.051040001 1.6240001 1.8798769e-38
0.029386668 0.051040001 1.6240001 1.9075356e-38
0.032480001 0.051040001 1.6240001 1.742378e-38
0.035573334 0.051040001 1.6240001 1.3828151e-38
0.041554287 0.050788574 1.6160001 1.3085534e-38
0.023314286 0.054400001 1.6320001 1.8606455e-38
0.026293335 0.054133337 1.6240001 1.7228918e-38
0.029386668 0.054133337 1.6240001 1.7321114e-38
0.032480001 0.054133337 1.6240001 1.6219469e-38
0.035573334 0.054133337 1.6240001 1.3361405e-38
0.038476191 0.053866666 1.6160001 1.4645667e-38
0.041554287 0.053866666 1.6160001 1.4276884e-38
0.0353981 0.056944765 1.6160001 1.5197421e-38
0.038476191 0.056944765 1.6160001 1.5470764e-38
0.041554287 0.056944765 1.6160001 1.4456612e-38
0.0353981 0.060022857 1.6160001 1.5927802e-38
0.038476191 0.060022857 1.6160001 1.4914347e-38
0.041554287 0.060022857 1.6160001 1.2793848e-38
0.044632383 0.060022857 1.6160001 1.4443699e-38
