# .PCD v0.7 - Point Cloud Data file format
VERSION 0.7
FIELDS x y z rgb
SIZE 4 4 4 4
TYPE F F F F
COUNT 1 1 1 1
WIDTH 414
HEIGHT 1
VIEWPOINT 0 0 0 1 0 0 0
POINTS 414
DATA ascii
-0.08490286 -0.11197334 1.2920001 1.0047153e-38
-0.082760952 -0.11240667 1.2970001 1.0048232e-38
-0.059873335 -0.11119334 1.2830001 1.6392049e-38
-0.062317148 -0.10874953 1.2830001 9.6615045e-39
-0.062317148 -0.10630573 1.2830001 1.2709658e-38
-0.065013342 -0.10426667 1.2880001 1.7420971e-38
-0.065013342 -0.10181334 1.2880001 1.7053645e-38
-0.06256 -0.10181334 1.2880001 1.7422075e-38
-0.065013342 -0.099360012 1.2880001 1.8434795e-38
-0.06256 -0.099360012 1.2880001 1.8527346e-38
-0.060106672 -0.099360012 1.2880001 1.843515e-38
-0.067466669 -0.096906669 1.2880001 1.9080517e-38
-0.065013342 -0.096906669 1.2880001 1.8896126e-38
-0.06256 -0.096906669 1.2880001 1.9172716e-38
-0.060106672 -0.096906669 1.2880001 1.8896129e-38
-0.067466669 -0.094453342 1.2880001 1.5854026e-38
-0.065013342 -0.094453342 1.2880001 1.6315004e-38
-0.06256 -0.094453342 1.2880001 1.5664988e-38
-0.060106672 -0.094453342 1.2880001 1.5388401e-38
-0.067466669 -0.092000008 1.2880001 1.2719763e-38
-0.065013342 -0.092000008 1.2880001 1.3180741e-38
-0.06256 -0.092000008 1.2880001 1.3084933e-38
-0.098974295 -0.079423815 1.2830001 1.4815402e-38
-0.07124953 -0.076080002 1.268 1.3238302e-38
-0.066209525 -0.075840004 1.2640001 1.4431805e-38
-0.063801907 -0.075840004 1.2640001 1.4063028e-38
-0.058753334 -0.075539999 1.2590001 1.3971192e-38
-0.056355242 -0.075539999 1.2590001 1.3971192e-38
-0.07124953 -0.073664762 1.268 1.2956697e-38
-0.068617143 -0.073432386 1.2640001 1.48006e-38
-0.066209525 -0.073432386 1.2640001 1.4985688e-38
-0.063801907 -0.073432386 1.2640001 1.5538853e-38
-0.061151426 -0.07314191 1.2590001 1.5357693e-38
-0.058753334 -0.07314191 1.2590001 1.5542082e-38
-0.056355242 -0.07314191 1.2590001 1.5726829e-38
-0.07124953 -0.07124953 1.268 1.3231127e-38
-0.068617143 -0.071024768 1.2640001 1.4521852e-38
-0.066209525 -0.071024768 1.2640001 1.5261553e-38
-0.063801907 -0.071024768 1.2640001 1.6275699e-38
-0.061151426 -0.070743814 1.2590001 1.6275331e-38
-0.058753334 -0.070743814 1.2590001 1.6644109e-38
-0.07124953 -0.068834282 1.268 1.2867738e-38
-0.068617143 -0.068617143 1.2640001 1.2867738e-38
-0.066209525 -0.068617143 1.2640001 1.4521502e-38
-0.049004767 -0.068128571 1.2550001 1.6272461e-38
-0.046762858 -0.068345711 1.2590001 1.590189e-38
-0.039725717 -0.068617143 1.2640001 1.6549408e-38
-0.066209525 -0.066209525 1.2640001 1.3969757e-38
-0.056176193 -0.065738104 1.2550001 1.6546174e-38
-0.049004767 -0.065738104 1.2550001 1.6271026e-38
-0.046762858 -0.065947622 1.2590001 1.5808978e-38
-0.066209525 -0.063801907 1.2640001 1.3894791e-38
-0.063549526 -0.063549526 1.2590001 1.3618204e-38
-0.056176193 -0.063347623 1.2550001 1.5441278e-38
-0.066209525 -0.061394289 1.2640001 1.3812991e-38
-0.063549526 -0.061151426 1.2590001 1.491933e-38
-0.056176193 -0.060957149 1.2550001 1.6838281e-38
-0.041833337 -0.060957149 1.2550001 1.9157217e-38
-0.065947622 -0.058753334 1.2590001 1.1883011e-38
-0.061151426 -0.058753334 1.2590001 1.6950633e-38
-0.053957146 -0.058753334 1.2590001 1.7869016e-38
-0.068345711 -0.056355242 1.2590001 1.2800414e-38
-0.065947622 -0.056355242 1.2590001 9.2183467e-39
-0.061151426 -0.056355242 1.2590001 1.4561852e-38
-0.056176193 -0.053785719 1.2550001 1.8066005e-38
-0.053785719 -0.053785719 1.2550001 1.8250396e-38
-0.058566671 -0.051395241 1.2550001 1.9265284e-38
-0.056176193 -0.051395241 1.2550001 1.9541142e-38
-0.053785719 -0.051395241 1.2550001 2.000212e-38
-0.051395241 -0.051395241 1.2550001 2.1104533e-38
-0.067857139 -0.048809525 1.25 1.6768728e-38
-0.065476187 -0.048809525 1.25 1.6767357e-38
-0.063095234 -0.048809525 1.25 2.3221051e-38
-0.058333334 -0.048809525 1.25 2.3321176e-38
-0.055952381 -0.048809525 1.25 2.3138567e-38
-0.053571429 -0.048809525 1.25 2.3507709e-38
-0.051190477 -0.048809525 1.25 2.3227901e-38
-0.067857139 -0.046428572 1.25 1.5299262e-38
-0.065476187 -0.046428572 1.25 1.676727e-38
-0.063095234 -0.046428572 1.25 2.2852182e-38
-0.060714286 -0.046428572 1.25 2.1570149e-38
-0.058333334 -0.046428572 1.25 2.2307714e-38
-0.055952381 -0.046428572 1.25 2.2124405e-38
-0.053571429 -0.046428572 1.25 2.2400992e-38
-0.051190477 -0.046428572 1.25 2.2950948e-38
-0.072619043 -0.04404762 1.25 2.1293323e-38
-0.070238091 -0.04404762 1.25 2.0370309e-38
-0.067857139 -0.04404762 1.25 1.9448352e-38
-0.065476187 -0.04404762 1.25 1.8618212e-38
-0.063095234 -0.04404762 1.25 1.6036774e-38
-0.060714286 -0.04404762 1.25 1.6589003e-38
-0.058333334 -0.04404762 1.25 1.8064133e-38
-0.055952381 -0.04404762 1.25 1.7147572e-38
-0.053571429 -0.04404762 1.25 1.7239767e-38
-0.051190477 -0.04404762 1.25 1.8798496e-38
-0.072619043 -0.041666668 1.25 2.1841242e-38
-0.070238091 -0.041666668 1.25 2.1748711e-38
-0.067857139 -0.041666668 1.25 2.1011146e-38
-0.065476187 -0.041666668 1.25 1.9630032e-38
-0.063095234 -0.041666668 1.25 1.5389033e-38
-0.060714286 -0.041666668 1.25 1.3643437e-38
-0.058333334 -0.041666668 1.25 1.4565393e-38
-0.055952381 -0.041666668 1.25 1.4570738e-38
-0.053571429 -0.041666668 1.25 1.4478542e-38
-0.051190477 -0.041666668 1.25 1.7324455e-38
-0.072619043 -0.039285716 1.25 1.7879838e-38
-0.070238091 -0.039285716 1.25 1.769396e-38
-0.067857139 -0.039285716 1.25 1.6772004e-38
-0.065476187 -0.039285716 1.25 1.5850783e-38
-0.063095234 -0.039285716 1.25 1.5021023e-38
-0.060714286 -0.039285716 1.25 1.5851122e-38
-0.058333334 -0.039285716 1.25 1.548234e-38
-0.055952381 -0.039285716 1.25 1.3918459e-38
-0.053571429 -0.039285716 1.25 1.0876049e-38
-0.051190477 -0.039285716 1.25 1.2980829e-38
-0.072619043 -0.03690476 1.25 1.1901843e-38
-0.070238091 -0.03690476 1.25 1.3459774e-38
-0.067857139 -0.03690476 1.25 1.2169036e-38
-0.065476187 -0.03690476 1.25 1.2442383e-38
-0.063095234 -0.03690476 1.25 1.502386e-38
-0.060714286 -0.03690476 1.25 1.8341086e-38
-0.058333334 -0.03690476 1.25 1.8064499e-38
-0.055952381 -0.03690476 1.25 1.5297785e-38
-0.053571429 -0.03690476 1.25 1.2255375e-38
-0.051190477 -0.03690476 1.25 1.3430941e-38
-0.072619043 -0.034523807 1.25 1.5667847e-38
-0.070238091 -0.034523807 1.25 1.5666693e-38
-0.067857139 -0.034523807 1.25 1.4375955e-38
-0.065476187 -0.034523807 1.25 1.5110674e-38
-0.063095234 -0.034523807 1.25 1.7138977e-38
-0.060714286 -0.034523807 1.25 1.9168248e-38
-0.058333334 -0.034523807 1.25 1.9537031e-38
-0.055952381 -0.034523807 1.25 1.8243376e-38
-0.053571429 -0.034523807 1.25 1.7229224e-38
-0.051190477 -0.034523807 1.25 1.5654086e-38
-0.027490478 -0.034661908 1.2550001 1.3704654e-38
-0.072619043 -0.032142855 1.25 1.9348122e-38
-0.070238091 -0.032142855 1.25 1.9258395e-38
-0.067857139 -0.032142855 1.25 1.8613026e-38
-0.065476187 -0.032142855 1.25 1.8798458e-38
-0.063095234 -0.032142855 1.25 1.8798458e-38
-0.060714286 -0.032142855 1.25 1.980998e-38
-0.058333334 -0.032142855 1.25 2.0086567e-38
-0.055952381 -0.032142855 1.25 1.9808904e-38
-0.053571429 -0.032142855 1.25 1.9071339e-38
-0.051190477 -0.032142855 1.25 1.7040556e-38
-0.027490478 -0.03227143 1.2550001 1.3802947e-38
-0.082734287 -0.029976193 1.2590001 1.5113895e-38
-0.080080956 -0.029880956 1.2550001 1.2069754e-38
-0.074999996 -0.029761905 1.25 1.2349217e-38
-0.072619043 -0.029761905 1.25 1.0781892e-38
-0.070238091 -0.029761905 1.25 1.4191643e-38
-0.067857139 -0.029761905 1.25 1.6035556e-38
-0.065476187 -0.029761905 1.25 1.815234e-38
-0.063095234 -0.029761905 1.25 1.9074297e-38
-0.060714286 -0.029761905 1.25 1.9441862e-38
-0.058333334 -0.029761905 1.25 1.9165279e-38
-0.055952381 -0.029761905 1.25 1.9533338e-38
-0.053571429 -0.029761905 1.25 1.9809921e-38
-0.051190477 -0.029761905 1.25 1.814973e-38
-0.082734287 -0.027578095 1.2590001 1.1796587e-38
-0.080080956 -0.027490478 1.2550001 1.0049555e-38
-0.072909534 -0.027490478 1.2550001 7.2052413e-39
-0.070238091 -0.027380953 1.25 1.0057849e-38
-0.067857139 -0.027380953 1.25 1.3100305e-38
-0.065476187 -0.027380953 1.25 1.6863007e-38
-0.063095234 -0.027380953 1.25 1.8338137e-38
-0.060714286 -0.027380953 1.25 1.9347515e-38
-0.058333334 -0.027380953 1.25 1.9163126e-38
-0.055952381 -0.027380953 1.25 1.9163126e-38
-0.053571429 -0.027380953 1.25 1.9716292e-38
-0.051190477 -0.027380953 1.25 1.8980941e-38
-0.072909534 -0.025100002 1.2550001 1.6871313e-38
-0.070519052 -0.025100002 1.2550001 1.7513072e-38
-0.068128571 -0.025100002 1.2550001 1.7513072e-38
-0.065738104 -0.025100002 1.2550001 1.8520724e-38
-0.063347623 -0.025100002 1.2550001 1.8520724e-38
-0.060957149 -0.025100002 1.2550001 1.9347888e-38
-0.058333334 -0.025 1.25 1.9347888e-38
-0.055952381 -0.025 1.25 1.9531545e-38
-0.053571429 -0.025 1.25 1.9347156e-38
-0.051190477 -0.025 1.25 1.9072008e-38
-0.072909534 -0.022709524 1.2550001 1.9810417e-38
-0.070519052 -0.022709524 1.2550001 1.9624937e-38
-0.068128571 -0.022709524 1.2550001 1.9532741e-38
-0.065738104 -0.022709524 1.2550001 1.9807536e-38
-0.063347623 -0.022709524 1.2550001 1.9530949e-38
-0.060957149 -0.022709524 1.2550001 1.9806437e-38
-0.058566671 -0.022709524 1.2550001 1.9622046e-38
-0.056176193 -0.022709524 1.2550001 1.9621305e-38
-0.053571429 -0.022619048 1.25 1.9529109e-38
-0.051190477 -0.022619048 1.25 1.8700052e-38
-0.048809525 -0.022619048 1.25 1.8700052e-38
-0.068128571 -0.02031905 1.2550001 1.8888451e-38
-0.065738104 -0.02031905 1.2550001 1.7690309e-38
-0.063347623 -0.02031905 1.2550001 1.6676157e-38
-0.060957149 -0.02031905 1.2550001 1.4369133e-38
-0.058566671 -0.02031905 1.2550001 1.2801807e-38
-0.056176193 -0.02031905 1.2550001 1.2986472e-38
-0.053571429 -0.020238096 1.25 1.2802083e-38
-0.051190477 -0.020238096 1.25 1.3079025e-38
-0.048809525 -0.020238096 1.25 1.3816579e-38
-0.070743814 -0.017985715 1.2590001 2.0181058e-38
-0.060957149 -0.017928572 1.2550001 9.862993e-39
-0.058566671 -0.017928572 1.2550001 9.4020177e-39
-0.056176193 -0.017928572 1.2550001 8.299633e-39
-0.053785719 -0.017928572 1.2550001 9.0371868e-39
-0.051190477 -0.017857142 1.25 1.0508035e-38
-0.048809525 -0.017857142 1.25 1.2167556e-38
-0.068345711 -0.01558762 1.2590001 1.3268214e-38
-0.065947622 -0.01558762 1.2590001 1.2993764e-38
-0.056176193 -0.015538097 1.2550001 2.1295324e-38
-0.053785719 -0.015538097 1.2550001 2.2493867e-38
-0.051395241 -0.015538097 1.2550001 2.2401367e-38
-0.048809525 -0.01547619 1.25 2.2585759e-38
-0.068345711 -0.013189524 1.2590001 1.1156698e-38
-0.065947622 -0.013189524 1.2590001 1.2995981e-38
-0.063549526 -0.013189524 1.2590001 1.4563307e-38
-0.061151426 -0.013189524 1.2590001 2.0547731e-38
-0.053785719 -0.01314762 1.2550001 2.350582e-38
-0.051395241 -0.01314762 1.2550001 2.3138579e-38
-0.068345711 -0.010791428 1.2590001 2.1573046e-38
-0.065947622 -0.010791428 1.2590001 2.1112802e-38
-0.063549526 -0.010791428 1.2590001 2.0375237e-38
-0.061151426 -0.010791428 1.2590001 1.5305598e-38
-0.058753334 -0.010791428 1.2590001 2.6747971e-39
-0.068345711 -0.0083933342 1.2590001 2.1666664e-38
-0.065947622 -0.0083933342 1.2590001 2.1116036e-38
-0.063549526 -0.0083933342 1.2590001 2.0009689e-38
-0.061151426 -0.0083933342 1.2590001 1.3100823e-38
-0.058753334 -0.0083933342 1.2590001 7.4660902e-40
-0.056355242 -0.0083933342 1.2590001 2.8985578e-40
-0.068345711 -0.0059952382 1.2590001 2.2495987e-38
-0.065947622 -0.0059952382 1.2590001 2.1665963e-38
-0.063549526 -0.0059952382 1.2590001 2.2034746e-38
-0.061151426 -0.0059952382 1.2590001 1.9179941e-38
-0.058753334 -0.0059952382 1.2590001 3.7832704e-39
-0.056355242 -0.0059952382 1.2590001 1.4349296e-42
-0.049004767 -0.0059761908 1.2550001 7.3738651e-39
-0.068345711 -0.0035971431 1.2590001 2.0462385e-38
-0.065947622 -0.0035971431 1.2590001 1.9726249e-38
-0.063549526 -0.0035971431 1.2590001 2.055601e-38
-0.061151426 -0.0035971431 1.2590001 1.9638057e-38
-0.058753334 -0.0035971431 1.2590001 5.3477347e-39
-0.068345711 -0.0011990477 1.2590001 1.2533614e-38
-0.065947622 -0.0011990477 1.2590001 1.1156362e-38
-0.063549526 -0.0011990477 1.2590001 7.6529281e-39
-0.061151426 -0.0011990477 1.2590001 9.2243134e-39
-0.051395241 -0.0011952382 1.2550001 1.5584321e-38
-0.049160954 -0.0011990477 1.2590001 1.5705851e-39
-0.029880956 -0.0011952382 1.2550001 1.7153506e-38
-0.070743814 0.0011990477 1.2590001 1.5858349e-38
-0.068345711 0.0011990477 1.2590001 1.2815893e-38
-0.065947622 0.0011990477 1.2590001 1.1254739e-38
-0.063549526 0.0011990477 1.2590001 7.6591092e-39
-0.061151426 0.0011990477 1.2590001 9.8671647e-39
-0.051395241 0.0011952382 1.2550001 1.539529e-38
-0.068345711 0.0035971431 1.2590001 1.4843737e-38
-0.065947622 0.0035971431 1.2590001 1.4568416e-38
-0.063549526 0.0035971431 1.2590001 1.2263525e-38
-0.061151426 0.0035971431 1.2590001 1.4197112e-38
-0.058753334 0.0035971431 1.2590001 1.3182961e-38
-0.066209525 0.0060190479 1.2640001 1.6129226e-38
-0.063549526 0.0059952382 1.2590001 1.8157529e-38
-0.061151426 0.0059952382 1.2590001 1.7978935e-38
-0.058753334 0.0059952382 1.2590001 1.4198915e-38
-0.056355242 0.0059952382 1.2590001 3.3207859e-39
-0.053957146 0.0059952382 1.2590001 1.3831078e-38
-0.066209525 0.0084266672 1.2640001 1.5209392e-38
-0.063801907 0.0084266672 1.2640001 2.2031869e-38
-0.061151426 0.0083933342 1.2590001 2.0280187e-38
-0.058753334 0.0083933342 1.2590001 1.5025036e-38
-0.056355242 0.0083933342 1.2590001 8.2071963e-39
-0.053957146 0.0083933342 1.2590001 9.4979351e-39
-0.066209525 0.010834286 1.2640001 1.5112421e-38
-0.063801907 0.010834286 1.2640001 1.9630007e-38
-0.061394289 0.010834286 1.2640001 1.9634429e-38
-0.058753334 0.010791428 1.2590001 1.60388e-38
-0.056355242 0.010791428 1.2590001 8.8544182e-39
-0.053957146 0.010791428 1.2590001 7.5636794e-39
-0.066209525 0.013241905 1.2640001 5.5284251e-39
-0.063801907 0.013241905 1.2640001 1.0138195e-38
-0.061394289 0.013241905 1.2640001 1.8434748e-38
-0.056355242 0.013189524 1.2590001 1.9636575e-38
-0.053957146 0.013189524 1.2590001 1.6594119e-38
-0.063801907 0.015649525 1.2640001 1.1893512e-38
-0.061394289 0.015649525 1.2640001 1.9258785e-38
-0.058986671 0.015649525 1.2640001 2.1563675e-38
-0.05657905 0.015649525 1.2640001 2.0464196e-38
-0.061394289 0.018057143 1.2640001 1.9173451e-38
-0.058986671 0.018057143 1.2640001 1.7421734e-38
-0.05657905 0.018057143 1.2640001 1.7881624e-38
-0.058986671 0.020464763 1.2640001 1.6223557e-38
-0.05657905 0.020464763 1.2640001 1.4106988e-38
-0.06400381 0.022944763 1.268 1.244361e-38
-0.058986671 0.022872381 1.2640001 7.0879848e-39
-0.05657905 0.022872381 1.2640001 1.0309252e-38
-0.06400381 0.025359999 1.268 8.3040064e-39
-0.05657905 0.025280001 1.2640001 1.3155435e-38
-0.096154287 0.027994288 1.2780001 1.4652557e-38
-0.096154287 0.030428573 1.2780001 1.5208602e-38
-0.06158857 0.030190477 1.268 1.8969101e-38
-0.054171428 0.03009524 1.2640001 2.210156e-38
-0.096154287 0.032862861 1.2780001 1.8891751e-38
-0.06158857 0.032605715 1.268 1.7491077e-38
-0.054171428 0.03250286 1.2640001 2.3115709e-38
-0.06158857 0.035020951 1.268 1.6661327e-38
-0.05657905 0.034910478 1.2640001 1.7035843e-38
-0.054342858 0.035020951 1.268 2.265975e-38
-0.051927619 0.035020951 1.268 2.1009669e-38
-0.06158857 0.037436187 1.268 1.7215568e-38
-0.05657905 0.037318096 1.2640001 2.1099289e-38
-0.054171428 0.037318096 1.2640001 2.2943202e-38
-0.051927619 0.037436187 1.268 2.0457935e-38
-0.06158857 0.039851431 1.268 1.8143968e-38
-0.054171428 0.039725717 1.2640001 2.1377719e-38
-0.051927619 0.039851431 1.268 1.990475e-38
-0.06158857 0.042266667 1.268 2.1467368e-38
-0.059173334 0.042266667 1.268 2.2573716e-38
-0.06158857 0.044681903 1.268 2.1559973e-38
-0.059173334 0.044681903 1.268 2.0822408e-38
-0.06158857 0.047097143 1.268 1.8137976e-38
-0.059173334 0.047097143 1.268 1.6939433e-38
-0.06158857 0.049512379 1.268 1.8043256e-38
-0.059173334 0.049512379 1.268 1.5553974e-38
-0.06158857 0.051927619 1.268 1.581945e-38
-0.059173334 0.051927619 1.268 1.2776995e-38
-0.059173334 0.054342858 1.268 1.3049967e-38
-0.059406664 0.056981906 1.273 1.6093491e-38
-0.059406664 0.059406664 1.273 1.7765892e-38
-0.059406664 0.061831426 1.273 2.2938814e-38
-0.059406664 0.064256191 1.273 2.3121783e-38
-0.059640005 0.066942863 1.2780001 2.0446312e-38
-0.059640005 0.069377147 1.2780001 1.9056583e-38
-0.059873335 0.072092384 1.2830001 1.6381515e-38
-0.027994288 0.071811438 1.2780001 2.0917531e-38
-0.059873335 0.074536197 1.2830001 1.5742254e-38
-0.096906669 0.077280007 1.2880001 1.9436293e-38
-0.059873335 0.07698001 1.2830001 1.76859e-38
-0.096906669 0.079733342 1.2880001 1.9159356e-38
-0.059873335 0.079423815 1.2830001 1.9898626e-38
-0.032605715 0.078495234 1.268 2.1011844e-38
-0.059873335 0.08186762 1.2830001 2.2293166e-38
-0.032605715 0.080910474 1.268 2.1655347e-38
-0.059873335 0.084311433 1.2830001 2.1736095e-38
-0.05742953 0.084311433 1.2830001 2.0637667e-38
-0.059873335 0.086755246 1.2830001 2.0444042e-38
-0.05742953 0.086755246 1.2830001 1.998695e-38
-0.059873335 0.089199059 1.2830001 1.8974279e-38
-0.05742953 0.089199059 1.2830001 1.9985498e-38
-0.059873335 0.091642864 1.2830001 1.6392052e-38
-0.05742953 0.091642864 1.2830001 1.7402213e-38
-0.059873335 0.094086677 1.2830001 1.814305e-38
-0.05742953 0.094086677 1.2830001 1.8694406e-38
-0.059873335 0.096530482 1.2830001 1.8694759e-38
-0.05742953 0.096530482 1.2830001 1.9246882e-38
-0.059873335 0.098974295 1.2830001 1.9339781e-38
-0.05742953 0.098974295 1.2830001 1.9798608e-38
-0.059873335 0.1014181 1.2830001 1.9338343e-38
-0.05742953 0.1014181 1.2830001 1.9893293e-38
-0.059873335 0.10386191 1.2830001 1.9982274e-38
-0.05742953 0.10386191 1.2830001 2.0168482e-38
-0.059873335 0.10630573 1.2830001 2.182871e-38
-0.05742953 0.10630573 1.2830001 2.1553578e-38
-0.099360012 0.10917334 1.2880001 1.6021815e-38
-0.059873335 0.10874953 1.2830001 2.0540139e-38
-0.05742953 0.10874953 1.2830001 2.0356085e-38
-0.099360012 0.11162667 1.2880001 1.5190622e-38
-0.059873335 0.11119334 1.2830001 1.9332608e-38
-0.05742953 0.11119334 1.2830001 1.9336854e-38
-0.06256 0.11408001 1.2880001 1.5637207e-38
-0.060106672 0.11408001 1.2880001 1.536062e-38
-0.05742953 0.11363715 1.2830001 1.9055507e-38
-0.06256 0.11653334 1.2880001 1.6379464e-38
-0.060106672 0.11653334 1.2880001 1.1216509e-38
-0.057653334 0.11653334 1.2880001 1.5451322e-38
-0.055200007 0.11653334 1.2880001 1.9784497e-38
-0.095113337 0.1198181 1.2970001 1.582804e-38
-0.06256 0.11898667 1.2880001 1.6936969e-38
-0.060106672 0.11898667 1.2880001 1.1958405e-38
-0.057653334 0.11898667 1.2880001 1.323041e-38
-0.055200007 0.11898667 1.2880001 1.7471396e-38
-0.097207621 0.12181715 1.2920001 1.5647587e-38
-0.06256 0.12144001 1.2880001 1.6844408e-38
-0.060106672 0.12144001 1.2880001 1.4355126e-38
-0.057653334 0.12144001 1.2880001 1.4437245e-38
-0.055200007 0.12144001 1.2880001 1.369968e-38
-0.10181334 0.12389334 1.2880001 1.1788334e-38
-0.077280007 0.12389334 1.2880001 1.4799505e-38
-0.075059049 0.1242781 1.2920001 1.6274633e-38
-0.06256 0.12389334 1.2880001 1.6199745e-38
-0.060106672 0.12389334 1.2880001 1.4724614e-38
-0.057653334 0.12389334 1.2880001 1.4811047e-38
-0.055200007 0.12389334 1.2880001 1.3243721e-38
-0.077280007 0.12634668 1.2880001 1.5640374e-38
-0.075059049 0.12673905 1.2920001 1.591696e-38
-0.06256 0.12634668 1.2880001 1.6477373e-38
-0.060106672 0.12634668 1.2880001 1.6016394e-38
-0.057653334 0.12634668 1.2880001 1.4996885e-38
-0.055200007 0.12634668 1.2880001 1.2599799e-38
-0.075059049 0.1292 1.2920001 1.5549975e-38
-0.06256 0.1288 1.2880001 1.6662117e-38
-0.060106672 0.1288 1.2880001 1.6293334e-38
-0.057653334 0.1288 1.2880001 1.536888e-38
-0.055200007 0.1288 1.2880001 1.3063989e-38
-0.06256 0.13125335 1.2880001 1.6847185e-38
-0.060106672 0.13125335 1.2880001 1.610962e-38
-0.057653334 0.13125335 1.2880001 1.5829116e-38
-0.055200007 0.13125335 1.2880001 1.3893008e-38
-0.060106672 0.13370667 1.2880001 1.6663147e-38
-0.057653334 0.13370667 1.2880001 1.6014564e-38
-0.055200007 0.13370667 1.2880001 1.398626e-38
-0.057653334 0.13616002 1.2880001 1.5736896e-38
-0.055200007 0.13616002 1.2880001 1.4538352e-38
