# .PCD v0.7 - Point Cloud Data file format
VERSION 0.7
FIELDS x y z rgb
SIZE 4 4 4 4
TYPE F F F F
COUNT 1 1 1 1
WIDTH 260
HEIGHT 1
VIEWPOINT 0 0 0 1 0 0 0
POINTS 260
DATA ascii
0.013662858 -0.17761716 1.5940001 1.0504506e-38
0.013594287 -0.17370477 1.5860001 1.3452961e-38
0.022771429 -0.17458096 1.5940001 1.4559347e-38
0.025807621 -0.17458096 1.5940001 1.4190183e-38
0.034587622 -0.17293809 1.5790001 1.7139361e-38
0.037595239 -0.17293809 1.5790001 1.7232642e-38
0.013594287 -0.17068382 1.5860001 1.9446403e-38
0.022771429 -0.17154478 1.5940001 1.9077305e-38
0.025807621 -0.17154478 1.5940001 1.8618463e-38
0.034587622 -0.16993049 1.5790001 2.0646041e-38
0.037595239 -0.16993049 1.5790001 2.0278344e-38
0.022771429 -0.16850857 1.5940001 1.8893264e-38
0.025807621 -0.16850857 1.5940001 1.8894324e-38
0.034587622 -0.16692287 1.5790001 2.0185063e-38
0.037595239 -0.16692287 1.5790001 1.9725533e-38
0.022771429 -0.1654724 1.5940001 1.6954632e-38
0.034587622 -0.16391525 1.5790001 1.9908097e-38
0.037595239 -0.16391525 1.5790001 1.9632978e-38
0.028572382 -0.16090764 1.5790001 1.7414515e-38
0.031580005 -0.16090764 1.5790001 1.7325916e-38
0.034587622 -0.16090764 1.5790001 1.935422e-38
0.037595239 -0.16090764 1.5790001 1.8896482e-38
0.028572382 -0.15790001 1.5790001 1.8889289e-38
0.031580005 -0.15790001 1.5790001 1.8707053e-38
0.034587622 -0.15790001 1.5790001 1.9168031e-38
0.037595239 -0.15790001 1.5790001 1.8892864e-38
0.028572382 -0.15489239 1.5790001 1.9347743e-38
0.031580005 -0.15489239 1.5790001 1.935061e-38
0.034587622 -0.15489239 1.5790001 1.8705241e-38
0.037595239 -0.15489239 1.5790001 1.8337167e-38
0.046411429 -0.15420571 1.572 1.7137196e-38
0.025564764 -0.15188478 1.5790001 1.1682481e-38
0.028572382 -0.15188478 1.5790001 1.2696633e-38
0.031580005 -0.15188478 1.5790001 1.2060267e-38
0.034587622 -0.15188478 1.5790001 1.2152462e-38
0.025564764 -0.14887716 1.5790001 1.093524e-38
0.034587622 -0.14887716 1.5790001 1.1501339e-38
0.031140001 -0.13494 1.557 1.2595818e-38
0.025095237 -0.13138096 1.5500001 1.6202237e-38
0.028047619 -0.13138096 1.5500001 1.5188086e-38
0.031000003 -0.13138096 1.5500001 1.4999754e-38
0.033952381 -0.13138096 1.5500001 1.4169993e-38
0.022142859 -0.12842858 1.5500001 1.712998e-38
0.025095237 -0.12842858 1.5500001 1.7126027e-38
0.028047619 -0.12842858 1.5500001 1.5835288e-38
0.031000003 -0.12842858 1.5500001 1.6844035e-38
0.033952381 -0.12842858 1.5500001 1.610647e-38
0.019190477 -0.1254762 1.5500001 1.9439552e-38
0.022142859 -0.1254762 1.5500001 1.9255161e-38
0.025095237 -0.1254762 1.5500001 1.9068972e-38
0.028047619 -0.1254762 1.5500001 1.805482e-38
0.031000003 -0.1254762 1.5500001 1.869693e-38
0.033952381 -0.1254762 1.5500001 1.7682778e-38
0.019190477 -0.12252381 1.5500001 1.8612315e-38
0.022142859 -0.12252381 1.5500001 1.852012e-38
0.025095237 -0.12252381 1.5500001 1.8241393e-38
0.028047619 -0.12252381 1.5500001 1.7227241e-38
0.031000003 -0.12252381 1.5500001 1.8144869e-38
0.019190477 -0.11957143 1.5500001 2.0917936e-38
0.022142859 -0.11957143 1.5500001 2.082574e-38
0.025095237 -0.11957143 1.5500001 2.1191266e-38
0.028047619 -0.11957143 1.5500001 1.9808332e-38
0.031000003 -0.11957143 1.5500001 2.072887e-38
0.019190477 -0.11661905 1.5500001 2.2950225e-38
0.022142859 -0.11661905 1.5500001 2.0645334e-38
0.025095237 -0.11661905 1.5500001 2.1376413e-38
0.028047619 -0.11661905 1.5500001 2.0915435e-38
0.033799049 -0.11609239 1.5430001 2.1743738e-38
0.036738094 -0.11609239 1.5430001 2.2114704e-38
0.019190477 -0.11366667 1.5500001 1.9898804e-38
0.022142859 -0.11366667 1.5500001 1.8608065e-38
0.025095237 -0.11366667 1.5500001 1.9066843e-38
0.028047619 -0.11366667 1.5500001 1.934343e-38
0.030860003 -0.11315334 1.5430001 1.9805075e-38
0.033799049 -0.11315334 1.5430001 2.0727032e-38
0.036738094 -0.11315334 1.5430001 2.1098018e-38
0.0014695239 -0.11021429 1.5430001 1.6130185e-38
0.019190477 -0.11071429 1.5500001 1.6947448e-38
0.022142859 -0.11071429 1.5500001 1.6117687e-38
0.025095237 -0.11071429 1.5500001 1.6943077e-38
0.030860003 -0.11021429 1.5430001 1.8142314e-38
0.033799049 -0.11021429 1.5430001 1.9248662e-38
0.0014695239 -0.10727525 1.5430001 1.2899659e-38
0.016238095 -0.1077619 1.5500001 1.0934216e-38
0.022042859 -0.10727525 1.5430001 1.1210058e-38
0.024981905 -0.10727525 1.5430001 1.2139863e-38
0.027920954 -0.10727525 1.5430001 1.3891564e-38
0.030860003 -0.10727525 1.5430001 1.3893111e-38
0.033799049 -0.10727525 1.5430001 1.7949718e-38
0.057311434 -0.10727525 1.5430001 8.2036132e-39
0.016238095 -0.10480952 1.5500001 1.2410772e-38
0.022042859 -0.10433619 1.5430001 1.2224926e-38
0.024981905 -0.10433619 1.5430001 1.1493428e-38
0.027920954 -0.10433619 1.5430001 1.2230981e-38
0.030860003 -0.10433619 1.5430001 1.3343775e-38
0.033799049 -0.10433619 1.5430001 1.6478426e-38
0.054125715 -0.10386286 1.536 4.8805544e-39
0.010286667 -0.10139715 1.5430001 1.381341e-38
0.016238095 -0.10185715 1.5500001 1.4911203e-38
0.019190477 -0.10185715 1.5500001 1.5002638e-38
0.022042859 -0.10139715 1.5430001 1.389629e-38
0.024981905 -0.10139715 1.5430001 1.3435623e-38
0.030860003 -0.10139715 1.5430001 1.3163365e-38
0.033799049 -0.10139715 1.5430001 1.3532147e-38
0.0044285716 -0.098904766 1.5500001 1.6400574e-38
0.010286667 -0.098458096 1.5430001 1.3355309e-38
0.016238095 -0.098904766 1.5500001 1.4636768e-38
0.019190477 -0.098904766 1.5500001 1.5187042e-38
0.022042859 -0.098458096 1.5430001 1.417289e-38
0.024981905 -0.098458096 1.5430001 1.398775e-38
0.030860003 -0.098458096 1.5430001 1.2796747e-38
0.033799049 -0.098458096 1.5430001 1.2796747e-38
0.0044085714 -0.095519051 1.5430001 1.7597625e-38
0.010286667 -0.095519051 1.5430001 1.2803528e-38
0.016238095 -0.095952384 1.5500001 1.1965256e-38
0.019190477 -0.095952384 1.5500001 1.1773651e-38
0.024981905 -0.095519051 1.5430001 1.140626e-38
0.028047619 -0.095952384 1.5500001 1.1682847e-38
0.033799049 -0.095519051 1.5430001 1.1876274e-38
0.051200002 -0.095085718 1.536 4.9684522e-39
0.013285715 -0.093000002 1.5500001 1.1136891e-38
0.016238095 -0.093000002 1.5500001 1.09525e-38
0.019190477 -0.093000002 1.5500001 1.0393617e-38
0.028047619 -0.093000002 1.5500001 1.3352504e-38
0.013285715 -0.09004762 1.5500001 1.6496081e-38
0.016238095 -0.09004762 1.5500001 1.7418038e-38
0.019190477 -0.09004762 1.5500001 1.7970229e-38
0.022142859 -0.09004762 1.5500001 2.027512e-38
0.025095237 -0.09004762 1.5500001 2.0187228e-38
0.028047619 -0.09004762 1.5500001 2.0740401e-38
0.013285715 -0.087095238 1.5500001 1.8797106e-38
0.016238095 -0.087095238 1.5500001 1.8059541e-38
0.019190477 -0.087095238 1.5500001 1.732949e-38
0.022142859 -0.087095238 1.5500001 1.9449989e-38
0.025095237 -0.087095238 1.5500001 1.9362161e-38
0.028047619 -0.087095238 1.5500001 1.8993379e-38
0.013285715 -0.084142864 1.5500001 2.0739685e-38
0.016238095 -0.084142864 1.5500001 1.1796709e-38
0.019190477 -0.084142864 1.5500001 1.0136744e-38
0.022142859 -0.084142864 1.5500001 1.4562134e-38
0.025095237 -0.084142864 1.5500001 1.668669e-38
0.013285715 -0.081190482 1.5500001 2.0555325e-38
0.016238095 -0.081190482 1.5500001 1.1981131e-38
0.019190477 -0.081190482 1.5500001 6.8169947e-39
0.022142859 -0.081190482 1.5500001 1.1057994e-38
0.025095237 -0.081190482 1.5500001 1.4380373e-38
0.013285715 -0.078238092 1.5500001 1.2446448e-38
0.016238095 -0.078238092 1.5500001 1.1063513e-38
0.019190477 -0.078238092 1.5500001 8.3869927e-39
0.022142859 -0.078238092 1.5500001 8.2026015e-39
0.025095237 -0.078238092 1.5500001 9.3114307e-39
0.060523812 -0.078238092 1.5500001 6.0852619e-39
0.06347619 -0.078238092 1.5500001 7.3760007e-39
0.016238095 -0.075285718 1.5500001 7.4837774e-39
0.019190477 -0.075285718 1.5500001 1.0880551e-38
0.022142859 -0.075285718 1.5500001 1.0972747e-38
0.025095237 -0.075285718 1.5500001 1.2720508e-38
0.060523812 -0.075285718 1.5500001 6.5458897e-39
0.016238095 -0.072333336 1.5500001 1.6592372e-38
0.019190477 -0.072333336 1.5500001 1.3091076e-38
0.057311434 -0.072006665 1.5430001 3.5927429e-39
0.060523812 -0.072333336 1.5500001 1.1989552e-39
0.010333333 -0.069380954 1.5500001 1.7781775e-38
0.013285715 -0.069380954 1.5500001 1.9444671e-38
0.016238095 -0.069380954 1.5500001 1.8799302e-38
0.019190477 -0.069380954 1.5500001 1.4011585e-38
0.022142859 -0.069380954 1.5500001 9.954977e-39
0.010333333 -0.066428572 1.5500001 1.3912241e-38
0.013285715 -0.066428572 1.5500001 1.7327746e-38
0.016238095 -0.066428572 1.5500001 1.7604333e-38
0.019190477 -0.066428572 1.5500001 1.2444981e-38
0.022142859 -0.066428572 1.5500001 5.1615259e-39
0.010333333 -0.06347619 1.5500001 9.7695446e-39
0.013285715 -0.06347619 1.5500001 1.4377464e-38
0.016238095 -0.06347619 1.5500001 1.6590159e-38
0.019190477 -0.06347619 1.5500001 1.2352792e-38
0.022142859 -0.06347619 1.5500001 1.0232293e-38
0.013285715 -0.060523812 1.5500001 1.3731682e-38
0.016238095 -0.060523812 1.5500001 1.7419508e-38
0.019190477 -0.060523812 1.5500001 1.7051878e-38
0.016311429 -0.057831433 1.557 1.7417424e-38
0.016311429 -0.054865714 1.557 1.3823282e-38
0.013405715 -0.052133337 1.5640001 1.2449634e-38
0.016311429 -0.051900003 1.557 1.1251091e-38
0.013405715 -0.049154289 1.5640001 1.2814303e-38
0.013405715 -0.046175241 1.5640001 1.5295672e-38
0.057831433 -0.045968574 1.557 1.2811555e-38
-0.0044914284 -0.037428569 1.572 1.5742647e-38
-0.0044914284 -0.034434289 1.572 1.4635565e-38
0.010426668 -0.034259051 1.5640001 1.1797633e-38
0.025451429 -0.034434289 1.572 1.0707123e-38
0.010426668 -0.03128 1.5640001 1.1246261e-38
0.025451429 -0.031440001 1.572 1.1812754e-38
0.01048 -0.028445713 1.572 1.1155143e-38
0.01048 -0.025451429 1.572 1.2446226e-38
0.0074857143 -0.022457143 1.572 1.1064742e-38
0.06138286 -0.022457143 1.572 7.5546312e-39
0.0074857143 -0.019462857 1.572 1.4384865e-38
0.064377144 -0.019462857 1.572 9.3074426e-39
0.0074857143 -0.016468571 1.572 1.4661228e-38
0.057831433 -0.016311429 1.557 9.5810938e-39
0.0074857143 -0.013474287 1.572 1.7601096e-38
0.0074857143 -0.01048 1.572 1.8057711e-38
0.0074857143 -0.0074857143 1.572 1.842717e-38
0.025451429 -0.0074857143 1.572 1.7505965e-38
0.0044914284 -0.0044914284 1.572 1.8793834e-38
0.0044914284 -0.0014971428 1.572 1.7314664e-38
-0.022557143 0.0015038096 1.5790001 9.5541202e-39
0.0044914284 0.0014971428 1.572 1.6110696e-38
-0.022557143 0.004511429 1.5790001 1.0201349e-38
0.0044914284 0.0044914284 1.572 1.527662e-38
0.0044914284 0.0074857143 1.572 1.5367738e-38
0.0044914284 0.01048 1.572 1.6856477e-38
0.0014971428 0.013474287 1.572 1.9437687e-38
0.0014971428 0.016468571 1.572 1.805115e-38
0.0014971428 0.019462857 1.572 1.7126317e-38
-0.0015038096 0.022557143 1.5790001 1.537789e-38
-0.0015038096 0.025564764 1.5790001 1.5749216e-38
0.0015038096 0.025564764 1.5790001 1.5835641e-38
-0.0015038096 0.028572382 1.5790001 1.7497344e-38
0.0015038096 0.028572382 1.5790001 1.6850906e-38
-0.004511429 0.031580005 1.5790001 1.6851595e-38
-0.0015038096 0.031580005 1.5790001 1.7220377e-38
0.0015038096 0.031580005 1.5790001 1.7217893e-38
-0.004511429 0.034587622 1.5790001 1.8052655e-38
-0.0015038096 0.034587622 1.5790001 1.8513633e-38
0.0015038096 0.034587622 1.5790001 1.8051586e-38
-0.004511429 0.037595239 1.5790001 1.7961896e-38
-0.0015038096 0.037595239 1.5790001 1.8330678e-38
0.0015038096 0.037595239 1.5790001 1.8422508e-38
-0.004511429 0.040602859 1.5790001 1.8604699e-38
-0.0015038096 0.040602859 1.5790001 1.9157873e-38
0.0015038096 0.040602859 1.5790001 1.8790532e-38
-0.004511429 0.04361048 1.5790001 1.7212436e-38
-0.0015038096 0.04361048 1.5790001 1.8226588e-38
0.0015038096 0.04361048 1.5790001 1.8326655e-38
0.022657143 0.043803811 1.5860001 1.7780973e-38
-0.004511429 0.0466181 1.5790001 1.4534816e-38
-0.0015038096 0.0466181 1.5790001 1.4073837e-38
-0.0075190482 0.049625717 1.5790001 1.4907963e-38
-0.0075190482 0.055640955 1.5790001 1.4817899e-38
-0.004511429 0.055640955 1.5790001 1.5184511e-38
-0.0015038096 0.055640955 1.5790001 1.2971816e-38
-0.022771429 0.059205718 1.5940001 1.4723095e-38
-0.0075190482 0.058648575 1.5790001 1.5646558e-38
-0.004511429 0.058648575 1.5790001 1.5369968e-38
-0.0015038096 0.058648575 1.5790001 1.3157273e-38
0.010573333 0.058908574 1.5860001 1.6746426e-38
-0.0075523811 0.061929524 1.5860001 1.5463549e-38
-0.0045314287 0.061929524 1.5860001 1.546287e-38
-0.0015104762 0.061929524 1.5860001 1.3342371e-38
0.0015104762 0.061929524 1.5860001 1.379543e-38
-0.010573333 0.064950481 1.5860001 1.6202546e-38
-0.0075523811 0.064950481 1.5860001 1.6294741e-38
-0.0045314287 0.064950481 1.5860001 1.555647e-38
-0.0015104762 0.064950481 1.5860001 1.408134e-38
0.0015104762 0.064950481 1.5860001 1.3797598e-38
-0.0045314287 0.067971431 1.5860001 1.5648315e-38
-0.0015104762 0.067971431 1.5860001 1.4173185e-38
0.0015104762 0.067971431 1.5860001 1.435256e-38
