# .PCD v0.7 - Point Cloud Data file format
VERSION 0.7
FIELDS x y z rgb
SIZE 4 4 4 4
TYPE F F F F
COUNT 1 1 1 1
WIDTH 387
HEIGHT 1
VIEWPOINT 0 0 0 1 0 0 0
POINTS 387
DATA ascii
-0.02370286 -0.14361143 1.4640001 1.6498326e-38
-0.018125715 -0.14361143 1.4640001 1.6958216e-38
-0.015337145 -0.14361143 1.4640001 1.6957118e-38
-0.012548571 -0.14361143 1.4640001 1.861664e-38
-0.0097600007 -0.14361143 1.4640001 1.8066741e-38
-0.018125715 -0.14082287 1.4640001 2.0000303e-38
-0.015337145 -0.14082287 1.4640001 1.9815198e-38
-0.012548571 -0.14082287 1.4640001 2.0091785e-38
-0.0097600007 -0.14082287 1.4640001 1.9908142e-38
-0.020914286 -0.13803428 1.4640001 1.9539337e-38
-0.018125715 -0.13803428 1.4640001 1.9631533e-38
-0.015337145 -0.13803428 1.4640001 2.0091419e-38
-0.012548571 -0.13803428 1.4640001 2.0368006e-38
-0.0097600007 -0.13803428 1.4640001 2.0644618e-38
-0.02370286 -0.13524573 1.4640001 1.6309979e-38
-0.020914286 -0.13524573 1.4640001 1.6218159e-38
-0.018125715 -0.13524573 1.4640001 1.7324507e-38
-0.015337145 -0.13524573 1.4640001 1.7418818e-38
-0.012548571 -0.13524573 1.4640001 1.7879796e-38
-0.0097600007 -0.13524573 1.4640001 1.6773118e-38
-0.015337145 -0.13245715 1.4640001 1.5115023e-38
-0.012548571 -0.13245715 1.4640001 1.4746241e-38
-0.0097600007 -0.13245715 1.4640001 1.4193073e-38
-0.012548571 -0.12966858 1.4640001 1.8981485e-38
-0.018051429 -0.12636001 1.4580001 2.0167406e-38
-0.020557143 -0.11649048 1.439 1.4159527e-38
-0.017816192 -0.11649048 1.439 1.379075e-38
-0.042307623 -0.11327524 1.4330001 1.3143597e-38
-0.039578099 -0.11327524 1.4330001 1.4157736e-38
-0.036694285 -0.11280096 1.427 1.3974421e-38
-0.020557143 -0.11374953 1.439 1.4710907e-38
-0.017816192 -0.11374953 1.439 1.3788956e-38
-0.02854 -0.11008286 1.427 1.5542128e-38
-0.020557143 -0.11100857 1.439 1.4616922e-38
-0.017816192 -0.11100857 1.439 1.3418386e-38
-0.020557143 -0.10826762 1.439 1.471054e-38
-0.017816192 -0.10826762 1.439 1.3972986e-38
-0.031126669 -0.10420667 1.4210001 1.4519694e-38
-0.028420003 -0.10420667 1.4210001 1.4704083e-38
-0.023103811 -0.10464667 1.427 1.5534552e-38
-0.020385714 -0.10464667 1.427 1.5087568e-38
-0.031126669 -0.10150001 1.4210001 1.4800587e-38
-0.028420003 -0.10150001 1.4210001 1.5538152e-38
-0.025713336 -0.10150001 1.4210001 1.5082216e-38
-0.023103811 -0.10192857 1.427 1.499002e-38
-0.020385714 -0.10192857 1.427 1.5827347e-38
-0.01766762 -0.10192857 1.427 1.7210281e-38
-0.031126669 -0.098793343 1.4210001 1.6575737e-38
-0.028420003 -0.098793343 1.4210001 1.6760128e-38
-0.025713336 -0.098793343 1.4210001 1.6208036e-38
-0.023103811 -0.099210478 1.427 1.5562667e-38
-0.020385714 -0.099210478 1.427 1.6576119e-38
-0.01766762 -0.099210478 1.427 1.9618575e-38
-0.014949524 -0.099210478 1.427 1.8792025e-38
-0.012231429 -0.099210478 1.427 1.8238851e-38
-0.031258095 -0.09649238 1.427 1.4464955e-38
-0.028420003 -0.096086673 1.4210001 1.4557151e-38
-0.025713336 -0.096086673 1.4210001 1.4096918e-38
-0.023103811 -0.09649238 1.427 1.3174962e-38
-0.020385714 -0.09649238 1.427 1.5016305e-38
-0.01766762 -0.09649238 1.427 1.8150956e-38
-0.014949524 -0.09649238 1.427 1.8425411e-38
-0.012231429 -0.09649238 1.427 1.8056629e-38
-0.039578099 -0.094168574 1.4330001 1.7136775e-38
-0.031258095 -0.093774289 1.427 1.7508853e-38
-0.028420003 -0.093380012 1.4210001 1.8062027e-38
-0.025713336 -0.093380012 1.4210001 1.7416314e-38
-0.023103811 -0.093774289 1.427 1.4742641e-38
-0.020385714 -0.093774289 1.427 1.5107424e-38
-0.01766762 -0.093774289 1.427 1.814988e-38
-0.014949524 -0.093774289 1.427 1.8981092e-38
-0.012231429 -0.093774289 1.427 1.8981092e-38
-0.031126669 -0.090673342 1.4210001 1.8891813e-38
-0.028420003 -0.090673342 1.4210001 1.9260595e-38
-0.025713336 -0.090673342 1.4210001 1.9443567e-38
-0.023103811 -0.09105619 1.427 1.5479155e-38
-0.020385714 -0.09105619 1.427 1.6208386e-38
-0.01766762 -0.09105619 1.427 1.9896212e-38
-0.014949524 -0.09105619 1.427 1.9166595e-38
-0.033833336 -0.087966673 1.4210001 2.2208376e-38
-0.031126669 -0.087966673 1.4210001 2.1751306e-38
-0.028420003 -0.087966673 1.4210001 2.1751306e-38
-0.025713336 -0.087966673 1.4210001 2.0087867e-38
-0.023103811 -0.088338099 1.427 1.8151759e-38
-0.020385714 -0.088338099 1.427 1.9440655e-38
-0.01766762 -0.088338099 1.427 2.3405067e-38
-0.014949524 -0.088338099 1.427 2.2397054e-38
-0.036694285 -0.085620001 1.427 1.8431182e-38
-0.033833336 -0.085260011 1.4210001 1.9721921e-38
-0.031126669 -0.085260011 1.4210001 1.9630441e-38
-0.028420003 -0.085260011 1.4210001 1.9630441e-38
-0.025713336 -0.085260011 1.4210001 2.0087845e-38
-0.023103811 -0.085620001 1.427 1.9073693e-38
-0.020385714 -0.085620001 1.427 1.9993478e-38
-0.01766762 -0.085620001 1.427 2.312813e-38
-0.014949524 -0.085620001 1.427 2.1570531e-38
-0.041953336 -0.082553342 1.4210001 1.751163e-38
-0.036540005 -0.082553342 1.4210001 1.6127261e-38
-0.033833336 -0.082553342 1.4210001 1.6219457e-38
-0.031126669 -0.082553342 1.4210001 1.6037264e-38
-0.028420003 -0.082553342 1.4210001 1.6406046e-38
-0.025713336 -0.082553342 1.4210001 1.6861314e-38
-0.023103811 -0.08290191 1.427 1.6215945e-38
-0.020385714 -0.08290191 1.427 1.7222928e-38
-0.01766762 -0.08290191 1.427 1.7499515e-38
-0.012180001 -0.082553342 1.4210001 1.6947067e-38
-0.036540005 -0.079846673 1.4210001 1.3824517e-38
-0.033833336 -0.079846673 1.4210001 1.3640126e-38
-0.031126669 -0.079846673 1.4210001 1.3093031e-38
-0.028420003 -0.079846673 1.4210001 1.3277422e-38
-0.025713336 -0.079846673 1.4210001 1.5109609e-38
-0.023103811 -0.080183811 1.427 1.3450087e-38
-0.020385714 -0.080183811 1.427 1.5187061e-38
-0.01766762 -0.080183811 1.427 1.4726083e-38
-0.014886668 -0.079846673 1.4210001 1.4448061e-38
-0.012180001 -0.079846673 1.4210001 1.4079279e-38
-0.044848572 -0.07746572 1.427 1.1888557e-38
-0.036540005 -0.077140011 1.4210001 1.5665229e-38
-0.033833336 -0.077140011 1.4210001 1.6218403e-38
-0.031126669 -0.077140011 1.4210001 1.4565253e-38
-0.028420003 -0.077140011 1.4210001 9.5867648e-39
-0.025713336 -0.077140011 1.4210001 1.1694028e-38
-0.023103811 -0.07746572 1.427 1.1325245e-38
-0.020385714 -0.07746572 1.427 1.306151e-38
-0.01766762 -0.07746572 1.427 1.2139554e-38
-0.014886668 -0.077140011 1.4210001 1.2778819e-38
-0.012180001 -0.077140011 1.4210001 1.2225645e-38
-0.047366671 -0.074433342 1.4210001 1.2632182e-38
-0.036540005 -0.074433342 1.4210001 1.658606e-38
-0.033833336 -0.074433342 1.4210001 1.7784603e-38
-0.031126669 -0.074433342 1.4210001 1.6680341e-38
-0.028420003 -0.074433342 1.4210001 1.1978434e-38
-0.025713336 -0.074433342 1.4210001 1.2795989e-38
-0.023103811 -0.074747622 1.427 1.3072576e-38
-0.020385714 -0.074747622 1.427 1.4258275e-38
-0.01766762 -0.074747622 1.427 1.352071e-38
-0.014886668 -0.074433342 1.4210001 1.3701861e-38
-0.036540005 -0.071726672 1.4210001 1.7506534e-38
-0.033833336 -0.071726672 1.4210001 1.7875316e-38
-0.031126669 -0.071726672 1.4210001 1.7414313e-38
-0.028420003 -0.071726672 1.4210001 1.7229922e-38
-0.025713336 -0.071726672 1.4210001 1.5476499e-38
-0.023103811 -0.072029524 1.427 1.3909174e-38
-0.020385714 -0.072029524 1.427 1.5005917e-38
-0.01766762 -0.072029524 1.427 1.4637134e-38
-0.014886668 -0.071726672 1.4210001 1.5370731e-38
-0.050284766 -0.069311425 1.427 1.3556329e-38
-0.039246671 -0.069020011 1.4210001 1.7324387e-38
-0.036540005 -0.069020011 1.4210001 1.7873865e-38
-0.033833336 -0.069020011 1.4210001 1.7781669e-38
-0.031126669 -0.069020011 1.4210001 1.7872417e-38
-0.028420003 -0.069020011 1.4210001 1.8425591e-38
-0.025713336 -0.069020011 1.4210001 1.6766505e-38
-0.023103811 -0.069311425 1.427 1.455381e-38
-0.020385714 -0.069311425 1.427 1.390387e-38
-0.01766762 -0.069311425 1.427 1.4180457e-38
-0.014886668 -0.069020011 1.4210001 1.5558002e-38
-0.052780006 -0.066313341 1.4210001 1.3734914e-38
-0.039246671 -0.066313341 1.4210001 1.7322214e-38
-0.036540005 -0.066313341 1.4210001 1.7782007e-38
-0.033833336 -0.066313341 1.4210001 1.7597618e-38
-0.028420003 -0.066313341 1.4210001 1.8147562e-38
-0.023103811 -0.066593334 1.427 1.6212911e-38
-0.020385714 -0.066593334 1.427 1.3719833e-38
-0.01766762 -0.066593334 1.427 1.2613485e-38
0.022909526 -0.066033341 1.4150001 7.0032553e-39
-0.052780006 -0.063606672 1.4210001 1.6587914e-38
-0.039246671 -0.063606672 1.4210001 1.7872853e-38
-0.036540005 -0.063606672 1.4210001 1.8148329e-38
-0.033833336 -0.063606672 1.4210001 1.8148329e-38
-0.031258095 -0.063875236 1.427 1.814654e-38
-0.02854 -0.063875236 1.427 1.814654e-38
-0.025821906 -0.063875236 1.427 1.796146e-38
-0.020385714 -0.063875236 1.427 1.4460257e-38
-0.039246671 -0.060900006 1.4210001 1.6494568e-38
-0.036540005 -0.060900006 1.4210001 1.5200629e-38
-0.031258095 -0.061157145 1.427 1.2247483e-38
-0.02854 -0.061157145 1.427 1.1602124e-38
-0.025821906 -0.061157145 1.427 1.2523707e-38
-0.020385714 -0.061157145 1.427 1.3725232e-38
-0.039246671 -0.058193337 1.4210001 1.4927336e-38
-0.036694285 -0.058439046 1.427 1.133703e-38
-0.033976194 -0.058439046 1.427 1.1152639e-38
-0.031258095 -0.058439046 1.427 8.3864462e-39
-0.02854 -0.058439046 1.427 8.9396116e-39
-0.025821906 -0.058439046 1.427 9.7676052e-39
-0.036694285 -0.055720955 1.427 1.373025e-38
-0.033976194 -0.055720955 1.427 1.6035141e-38
-0.031258095 -0.055720955 1.427 1.9080455e-38
-0.02854 -0.055720955 1.427 2.0739977e-38
-0.025821906 -0.055720955 1.427 2.0740404e-38
-0.036694285 -0.053002857 1.427 1.7318733e-38
-0.033976194 -0.053002857 1.427 1.7318733e-38
-0.031258095 -0.053002857 1.427 2.0091711e-38
-0.02854 -0.053002857 1.427 2.2488797e-38
-0.025821906 -0.053002857 1.427 2.1202471e-38
-0.023103811 -0.053002857 1.427 2.0925884e-38
-0.020385714 -0.053002857 1.427 2.1017717e-38
-0.036694285 -0.050284766 1.427 1.6408677e-38
-0.033976194 -0.050284766 1.427 3.5012885e-39
-0.031258095 -0.050284766 1.427 1.2073215e-38
-0.02854 -0.050284766 1.427 2.1845952e-38
-0.025821906 -0.050284766 1.427 2.1017357e-38
-0.023103811 -0.050284766 1.427 1.8067097e-38
-0.036694285 -0.047566667 1.427 1.5766197e-38
-0.033976194 -0.047566667 1.427 1.6602654e-39
-0.031258095 -0.047566667 1.427 1.0044507e-40
-0.02854 -0.047566667 1.427 1.8355174e-38
-0.025821906 -0.047566667 1.427 2.0650376e-38
-0.023103811 -0.047566667 1.427 1.5210834e-38
-0.036694285 -0.044848572 1.427 1.6136772e-38
-0.033976194 -0.044848572 1.427 4.5201222e-39
-0.031258095 -0.044848572 1.427 4.8852249e-39
-0.02854 -0.044848572 1.427 1.9175548e-38
-0.025821906 -0.044848572 1.427 1.8436553e-38
-0.023103811 -0.044848572 1.427 8.1106426e-39
-0.036694285 -0.042130474 1.427 1.5584671e-38
-0.033976194 -0.042130474 1.427 6.3651082e-39
-0.031258095 -0.042130474 1.427 3.3089477e-39
-0.02854 -0.042130474 1.427 1.7230484e-38
-0.025821906 -0.042130474 1.427 1.5116846e-38
-0.039412383 -0.039412383 1.427 1.1889989e-38
-0.036694285 -0.039412383 1.427 1.1158195e-38
-0.033976194 -0.039412383 1.427 8.3923261e-39
-0.031258095 -0.039412383 1.427 2.2049039e-39
-0.02854 -0.039412383 1.427 1.2807401e-38
-0.025821906 -0.039412383 1.427 1.235459e-38
-0.036694285 -0.036694285 1.427 1.2074812e-38
-0.033976194 -0.036694285 1.427 1.02309e-38
-0.031258095 -0.036694285 1.427 1.4794124e-39
-0.02854 -0.036694285 1.427 1.1252142e-38
-0.025821906 -0.036694285 1.427 1.1621024e-38
-0.034119047 -0.034119047 1.4330001 1.3180753e-38
-0.031258095 -0.033976194 1.427 3.1350858e-39
-0.02854 -0.033976194 1.427 1.2170258e-38
-0.025821906 -0.033976194 1.427 1.1991607e-38
-0.036848571 -0.031389527 1.4330001 1.7513592e-38
-0.034119047 -0.031389527 1.4330001 1.4378941e-38
-0.036848571 -0.028660001 1.4330001 1.5763988e-38
-0.034119047 -0.028660001 1.4330001 1.6501553e-38
-0.031389527 -0.028660001 1.4330001 1.4197749e-38
-0.028660001 -0.028660001 1.4330001 1.3091401e-38
-0.036848571 -0.025930477 1.4330001 1.3089281e-38
-0.034119047 -0.025930477 1.4330001 1.668491e-38
-0.031389527 -0.025930477 1.4330001 1.6499784e-38
-0.036848571 -0.023200953 1.4330001 1.6962567e-38
-0.034119047 -0.023200953 1.4330001 1.6132806e-38
-0.031389527 -0.023200953 1.4330001 1.5855866e-38
0.023298094 -0.023298094 1.439 9.4918087e-39
-0.036848571 -0.020471429 1.4330001 1.8068924e-38
-0.034119047 -0.020471429 1.4330001 1.4749881e-38
-0.031389527 -0.020471429 1.4330001 1.419848e-38
0.023298094 -0.020557143 1.439 9.2152218e-39
-0.036848571 -0.017741906 1.4330001 1.1335455e-38
-0.034119047 -0.017741906 1.4330001 8.6617817e-39
-0.031389527 -0.017741906 1.4330001 9.2147691e-39
-0.036848571 -0.015012382 1.4330001 9.1229897e-39
-0.034119047 -0.015012382 1.4330001 8.4776203e-39
-0.031389527 -0.015012382 1.4330001 1.1236216e-38
-0.036848571 -0.012282859 1.4330001 1.372261e-38
-0.034119047 -0.012282859 1.4330001 1.3261632e-38
-0.037002858 -0.0095933331 1.439 1.7218819e-38
-0.037002858 -0.0068523809 1.439 1.5741537e-38
-0.037002858 -0.0041114283 1.439 1.5095818e-38
-0.037002858 -0.0013704762 1.439 1.7130549e-38
-0.037002858 0.0013704762 1.439 1.7868116e-38
-0.039743807 0.0068523809 1.439 1.9071057e-38
-0.039743807 0.0095933331 1.439 1.555653e-38
-0.039743807 0.012334286 1.439 1.4261463e-38
-0.039743807 0.015075238 1.439 1.2866699e-38
-0.042661905 0.023395238 1.4450001 1.7405738e-38
-0.042661905 0.026147621 1.4450001 1.6942933e-38
-0.042661905 0.028900001 1.4450001 1.5748398e-38
-0.042661905 0.03165238 1.4450001 1.7684095e-38
-0.042661905 0.034404762 1.4450001 1.9068875e-38
-0.042661905 0.037157144 1.4450001 1.8512792e-38
-0.045414288 0.039909527 1.4450001 1.8028533e-38
-0.040102858 0.042868573 1.452 1.6569132e-38
-0.0484 0.045634285 1.452 1.5001524e-38
-0.045634285 0.045634285 1.452 1.5646893e-38
-0.042868573 0.045634285 1.452 1.5831249e-38
-0.0484 0.0484 1.452 1.7043154e-38
-0.045634285 0.0484 1.452 1.7227545e-38
-0.042868573 0.0484 1.452 1.7591314e-38
-0.0484 0.051165711 1.452 1.7139293e-38
-0.045634285 0.051165711 1.452 1.6217336e-38
-0.042868573 0.051165711 1.452 1.6673673e-38
-0.051165711 0.05393143 1.452 1.4384811e-38
-0.0484 0.05393143 1.452 1.5941438e-38
-0.051165711 0.056697145 1.452 9.7844264e-39
-0.0484 0.056697145 1.452 1.4281916e-38
-0.051165711 0.059462857 1.452 1.1254871e-38
-0.0484 0.059462857 1.452 1.4372355e-38
-0.045634285 0.059462857 1.452 1.5847485e-38
-0.042868573 0.059462857 1.452 1.7589856e-38
-0.051165711 0.062228575 1.452 1.2540587e-38
-0.0484 0.062228575 1.452 1.4647127e-38
-0.045634285 0.062228575 1.452 1.5661279e-38
-0.042868573 0.062228575 1.452 1.7404743e-38
-0.056931432 0.065262854 1.4580001 1.4099676e-38
-0.054154288 0.065262854 1.4580001 1.4831896e-38
-0.051165711 0.06499429 1.452 1.5200679e-38
-0.0484 0.06499429 1.452 1.5566572e-38
-0.045634285 0.06499429 1.452 1.6211941e-38
-0.056931432 0.068039998 1.4580001 1.6392014e-38
-0.054154288 0.068039998 1.4580001 1.6667184e-38
-0.051377144 0.068039998 1.4580001 1.6667184e-38
-0.048600003 0.068039998 1.4580001 1.6300562e-38
-0.045822859 0.068039998 1.4580001 1.6208367e-38
-0.043045714 0.068039998 1.4580001 1.7774235e-38
-0.040268574 0.068039998 1.4580001 1.915717e-38
-0.056931432 0.070817143 1.4580001 1.3802322e-38
-0.054154288 0.070817143 1.4580001 1.3982355e-38
-0.051377144 0.070817143 1.4580001 1.3336986e-38
-0.048600003 0.070817143 1.4580001 1.3337702e-38
-0.045822859 0.070817143 1.4580001 1.2600137e-38
-0.043045714 0.070817143 1.4580001 1.4075226e-38
-0.040268574 0.070817143 1.4580001 1.8039638e-38
-0.078117147 0.072635233 1.439 1.0780402e-38
-0.062742859 0.073897146 1.4640001 1.4353656e-38
-0.056931432 0.073594287 1.4580001 1.2873862e-38
-0.054154288 0.073594287 1.4580001 1.3698218e-38
-0.051377144 0.073594287 1.4580001 1.2960653e-38
-0.048600003 0.073594287 1.4580001 1.2774464e-38
-0.045822859 0.073594287 1.4580001 1.2405684e-38
-0.043045714 0.073594287 1.4580001 1.2498237e-38
-0.040268574 0.073594287 1.4580001 1.7476788e-38
-0.062742859 0.076685719 1.4640001 1.2230635e-38
-0.059954289 0.076685719 1.4640001 1.3238326e-38
-0.056931432 0.076371431 1.4580001 1.3422717e-38
-0.054154288 0.076371431 1.4580001 1.3515276e-38
-0.051377144 0.076371431 1.4580001 1.3791863e-38
-0.048600003 0.076371431 1.4580001 1.3792971e-38
-0.045822859 0.076371431 1.4580001 1.508371e-38
-0.043045714 0.076371431 1.4580001 1.4441943e-38
-0.070817143 0.079148576 1.4580001 1.463347e-38
-0.062742859 0.079474293 1.4640001 1.2048028e-38
-0.059954289 0.079474293 1.4640001 1.3236508e-38
-0.05716572 0.079474293 1.4640001 1.3605288e-38
-0.054377146 0.079474293 1.4640001 1.3607438e-38
-0.048600003 0.079148576 1.4580001 1.388549e-38
-0.045822859 0.079148576 1.4580001 1.6559164e-38
-0.043045714 0.079148576 1.4580001 1.5461826e-38
-0.073594287 0.08192572 1.4580001 1.353577e-38
-0.070817143 0.08192572 1.4580001 1.4449788e-38
-0.062742859 0.082262866 1.4640001 1.3705415e-38
-0.059954289 0.082262866 1.4640001 1.3886557e-38
-0.05716572 0.082262866 1.4640001 1.3702165e-38
-0.054377146 0.082262866 1.4640001 1.3607438e-38
-0.051588573 0.082262866 1.4640001 1.3607438e-38
-0.048600003 0.08192572 1.4580001 1.3700736e-38
-0.045822859 0.08192572 1.4580001 1.6650996e-38
-0.043045714 0.08192572 1.4580001 1.5460394e-38
-0.065800004 0.0854 1.47 1.4353242e-38
-0.059954289 0.085051432 1.4640001 1.5089434e-38
-0.05716572 0.085051432 1.4640001 1.3522108e-38
-0.054377146 0.085051432 1.4640001 1.3794337e-38
-0.051588573 0.085051432 1.4640001 1.3794337e-38
-0.048600003 0.084702857 1.4580001 1.4441519e-38
-0.045822859 0.084702857 1.4580001 1.6193235e-38
-0.043045714 0.084702857 1.4580001 1.5001189e-38
-0.065800004 0.088200003 1.47 1.6390125e-38
-0.063000001 0.088200003 1.47 1.7680844e-38
-0.059954289 0.087840006 1.4640001 1.731004e-38
-0.05716572 0.087840006 1.4640001 1.4728562e-38
-0.054377146 0.087840006 1.4640001 1.4999003e-38
-0.051588573 0.087840006 1.4640001 1.3892655e-38
-0.048600003 0.087480001 1.4580001 1.4626302e-38
-0.045822859 0.087480001 1.4580001 1.5917041e-38
-0.043045714 0.087480001 1.4580001 1.5093016e-38
-0.059954289 0.090628572 1.4640001 1.7310452e-38
-0.05716572 0.090628572 1.4640001 1.5374343e-38
-0.054377146 0.090628572 1.4640001 1.5185567e-38
-0.051588573 0.090628572 1.4640001 1.3987024e-38
-0.048600003 0.090257145 1.4580001 1.4996091e-38
-0.045822859 0.090257145 1.4580001 1.6010232e-38
-0.043045714 0.090257145 1.4580001 1.5555025e-38
-0.059954289 0.093417145 1.4640001 1.9529211e-38
-0.05716572 0.093417145 1.4640001 1.6578951e-38
-0.054377146 0.093417145 1.4640001 1.6665739e-38
-0.051588573 0.093417145 1.4640001 1.5190609e-38
-0.048600003 0.09303429 1.4580001 1.6017056e-38
-0.045822859 0.09303429 1.4580001 1.6385838e-38
-0.043045714 0.09303429 1.4580001 1.6479469e-38
-0.05716572 0.096205719 1.4640001 1.7225073e-38
-0.054377146 0.096205719 1.4640001 1.6944494e-38
-0.048600003 0.095811434 1.4580001 1.6204667e-38
