# .PCD v0.7 - Point Cloud Data file format
VERSION 0.7
FIELDS x y z rgb
SIZE 4 4 4 4
TYPE F F F F
COUNT 1 1 1 1
WIDTH 475
HEIGHT 1
VIEWPOINT 0 0 0 1 0 0 0
POINTS 475
DATA ascii
-0.05185524 -0.11762286 1.3280001 7.1746481e-43
-0.046584763 -0.11709142 1.322 9.1835496e-41
-0.066729523 -0.11457334 1.322 9.2123043e-40
-0.059175242 -0.11457334 1.322 1.2434178e-38
-0.054384764 -0.11509334 1.3280001 1.1023847e-39
-0.05185524 -0.11509334 1.3280001 1.2867731e-39
-0.049325716 -0.11509334 1.3280001 2.6704138e-39
-0.046584763 -0.11457334 1.322 2.393827e-39
-0.066729523 -0.11205524 1.322 1.5670711e-38
-0.059175242 -0.11205524 1.322 1.6497254e-38
-0.056657143 -0.11205524 1.322 1.4929928e-38
-0.054384764 -0.11256382 1.3280001 1.4475427e-38
-0.05185524 -0.11256382 1.3280001 1.5028601e-38
-0.049325716 -0.11256382 1.3280001 1.5763632e-38
-0.046584763 -0.11205524 1.322 1.6132415e-38
-0.061693333 -0.10953714 1.322 1.6777049e-38
-0.059175242 -0.10953714 1.322 1.6318611e-38
-0.056657143 -0.10953714 1.322 1.5857633e-38
-0.054139048 -0.10953714 1.322 1.521478e-38
-0.061693333 -0.10701905 1.322 1.8250391e-38
-0.059175242 -0.10701905 1.322 1.788233e-38
-0.056657143 -0.10701905 1.322 1.7605743e-38
-0.054139048 -0.10701905 1.322 1.7698299e-38
-0.051620953 -0.10701905 1.322 1.8067081e-38
-0.049102858 -0.10701905 1.322 1.8158917e-38
-0.046584763 -0.10701905 1.322 1.8343308e-38
-0.064211436 -0.10450096 1.322 1.8802848e-38
-0.061693333 -0.10450096 1.322 1.8526262e-38
-0.059175242 -0.10450096 1.322 1.8617734e-38
-0.056657143 -0.10450096 1.322 1.8525538e-38
-0.054139048 -0.10450096 1.322 1.8893245e-38
-0.051620953 -0.10450096 1.322 1.9077636e-38
-0.049102858 -0.10450096 1.322 1.9353867e-38
-0.046584763 -0.10450096 1.322 1.9261671e-38
-0.064211436 -0.10198285 1.322 1.5300486e-38
-0.061693333 -0.10198285 1.322 1.585366e-38
-0.059175242 -0.10198285 1.322 1.5113599e-38
-0.056657143 -0.10198285 1.322 1.4744817e-38
-0.054139048 -0.10198285 1.322 1.612666e-38
-0.051620953 -0.10198285 1.322 1.6772029e-38
-0.049102858 -0.10198285 1.322 1.649437e-38
-0.046584763 -0.10198285 1.322 1.6217783e-38
-0.064211436 -0.099464767 1.322 1.2535359e-38
-0.061693333 -0.099464767 1.322 1.2166576e-38
-0.059175242 -0.099464767 1.322 1.2254078e-38
-0.056657143 -0.099464767 1.322 1.1516513e-38
-0.041548569 -0.099464767 1.322 1.3185054e-38
-0.018885715 -0.099464767 1.322 1.9542214e-38
-0.064211436 -0.096946664 1.322 1.5753947e-38
-0.051425714 -0.096580006 1.317 1.3991706e-38
-0.10159715 -0.094071425 1.317 1.8162539e-38
-0.054985717 -0.08186762 1.2830001 1.3693892e-38
-0.052541912 -0.08186762 1.2830001 1.3785369e-38
-0.050098099 -0.08186762 1.2830001 1.4061952e-38
-0.047654286 -0.08186762 1.2830001 1.5075012e-38
-0.06256 -0.079733342 1.2880001 1.4987122e-38
-0.05742953 -0.079423815 1.2830001 1.5357693e-38
-0.054985717 -0.079423815 1.2830001 1.6279635e-38
-0.052541912 -0.079423815 1.2830001 1.6096699e-38
-0.050098099 -0.079423815 1.2830001 1.5727916e-38
-0.047654286 -0.079423815 1.2830001 1.636896e-38
-0.045386672 -0.079733342 1.2880001 1.6829931e-38
-0.067676194 -0.077520005 1.2920001 1.3506634e-38
-0.065215245 -0.077520005 1.2920001 1.5903708e-38
-0.06256 -0.077280007 1.2880001 1.5539929e-38
-0.060106672 -0.077280007 1.2880001 1.5816512e-38
-0.05742953 -0.07698001 1.2830001 1.6090583e-38
-0.054985717 -0.07698001 1.2830001 1.719693e-38
-0.052541912 -0.07698001 1.2830001 1.701363e-38
-0.050098099 -0.07698001 1.2830001 1.6829239e-38
-0.047654286 -0.07698001 1.2830001 1.6828855e-38
-0.040480006 -0.077280007 1.2880001 1.3698556e-38
-0.070408568 -0.075349525 1.2970001 1.0855645e-38
-0.065215245 -0.075059049 1.2920001 1.3518831e-38
-0.06256 -0.074826673 1.2880001 1.4890982e-38
-0.060106672 -0.074826673 1.2880001 1.5259765e-38
-0.05742953 -0.074536197 1.2830001 1.5902608e-38
-0.054985717 -0.074536197 1.2830001 1.6916755e-38
-0.052541912 -0.074536197 1.2830001 1.6456493e-38
-0.050098099 -0.074536197 1.2830001 1.5995519e-38
-0.047654286 -0.074536197 1.2830001 1.6085202e-38
-0.067466669 -0.072373338 1.2880001 1.2602628e-38
-0.065013342 -0.072373338 1.2880001 1.2694822e-38
-0.06256 -0.072373338 1.2880001 1.4709105e-38
-0.060106672 -0.072373338 1.2880001 1.526227e-38
-0.05742953 -0.072092384 1.2830001 1.5810413e-38
-0.054985717 -0.072092384 1.2830001 1.6363579e-38
-0.052541912 -0.072092384 1.2830001 1.6178832e-38
-0.050098099 -0.072092384 1.2830001 1.6086637e-38
-0.047654286 -0.072092384 1.2830001 1.6085202e-38
-0.070137143 -0.070137143 1.2920001 1.454559e-38
-0.067466669 -0.069920003 1.2880001 1.3623639e-38
-0.06256 -0.069920003 1.2880001 1.4906766e-38
-0.060106672 -0.069920003 1.2880001 1.4906766e-38
-0.05742953 -0.069648571 1.2830001 1.5727546e-38
-0.054985717 -0.069648571 1.2830001 1.5911935e-38
-0.052541912 -0.069648571 1.2830001 1.62818e-38
-0.050098099 -0.069648571 1.2830001 1.7295952e-38
-0.047654286 -0.069648571 1.2830001 1.7490359e-38
-0.070137143 -0.067676194 1.2920001 1.5280924e-38
-0.067466669 -0.067466669 1.2880001 1.3349908e-38
-0.065013342 -0.067466669 1.2880001 1.2335756e-38
-0.06256 -0.067466669 1.2880001 1.4361147e-38
-0.060106672 -0.067466669 1.2880001 1.6297255e-38
-0.05742953 -0.067204766 1.2830001 1.7118837e-38
-0.054985717 -0.067204766 1.2830001 1.7487619e-38
-0.052541912 -0.067204766 1.2830001 1.7673092e-38
-0.050098099 -0.067204766 1.2830001 1.7580897e-38
-0.047654286 -0.067204766 1.2830001 1.7217133e-38
-0.042933334 -0.067466669 1.2880001 1.7864671e-38
-0.067466669 -0.065013342 1.2880001 1.3075878e-38
-0.065013342 -0.065013342 1.2880001 1.1324161e-38
-0.06256 -0.065013342 1.2880001 1.1696173e-38
-0.059873335 -0.064760961 1.2830001 1.5752781e-38
-0.05742953 -0.064760961 1.2830001 1.6947435e-38
-0.054985717 -0.064760961 1.2830001 1.7131827e-38
-0.052541912 -0.064760961 1.2830001 1.7130745e-38
-0.050098099 -0.064760961 1.2830001 1.639318e-38
-0.047654286 -0.064760961 1.2830001 1.6485035e-38
-0.065013342 -0.06256 1.2880001 1.1607199e-38
-0.06256 -0.06256 1.2880001 1.0787553e-38
-0.059873335 -0.062317148 1.2830001 1.3000248e-38
-0.05742953 -0.062317148 1.2830001 1.4468578e-38
-0.054985717 -0.062317148 1.2830001 1.483736e-38
-0.052541912 -0.062317148 1.2830001 1.5388742e-38
-0.050098099 -0.062317148 1.2830001 1.4651177e-38
-0.047654286 -0.062317148 1.2830001 1.5016372e-38
-0.065013342 -0.060106672 1.2880001 1.7135718e-38
-0.062317148 -0.059873335 1.2830001 1.8064884e-38
-0.059873335 -0.059873335 1.2830001 1.9816601e-38
-0.05742953 -0.059873335 1.2830001 1.9356731e-38
-0.054985717 -0.059873335 1.2830001 1.917234e-38
-0.052541912 -0.059873335 1.2830001 1.9262387e-38
-0.050098099 -0.059873335 1.2830001 1.8709214e-38
-0.047654286 -0.059873335 1.2830001 1.8519415e-38
-0.064760961 -0.05742953 1.2830001 1.8513948e-38
-0.062317148 -0.05742953 1.2830001 1.9533216e-38
-0.059873335 -0.05742953 1.2830001 2.1745911e-38
-0.05742953 -0.05742953 1.2830001 2.0186867e-38
-0.054985717 -0.05742953 1.2830001 1.9910281e-38
-0.052541912 -0.05742953 1.2830001 2.0553139e-38
-0.050098099 -0.05742953 1.2830001 1.8893618e-38
-0.047654286 -0.05742953 1.2830001 1.9071133e-38
-0.067204766 -0.054985717 1.2830001 1.5474724e-38
-0.064760961 -0.054985717 1.2830001 1.6304485e-38
-0.062317148 -0.054985717 1.2830001 1.7966254e-38
-0.059873335 -0.054985717 1.2830001 2.3129209e-38
-0.05742953 -0.054985717 1.2830001 2.1292859e-38
-0.054985717 -0.054985717 1.2830001 2.0831881e-38
-0.052541912 -0.054985717 1.2830001 2.0921924e-38
-0.050098099 -0.054985717 1.2830001 1.9078012e-38
-0.047654286 -0.054985717 1.2830001 1.9254422e-38
-0.067204766 -0.052541912 1.2830001 1.40085e-38
-0.064760961 -0.052541912 1.2830001 1.4469472e-38
-0.062317148 -0.052541912 1.2830001 1.6308829e-38
-0.059873335 -0.052541912 1.2830001 2.091861e-38
-0.05742953 -0.052541912 1.2830001 1.9359965e-38
-0.054985717 -0.052541912 1.2830001 1.8991183e-38
-0.067204766 -0.050098099 1.2830001 1.8712581e-38
-0.064760961 -0.050098099 1.2830001 1.6499897e-38
-0.062317148 -0.050098099 1.2830001 1.6497101e-38
-0.059873335 -0.050098099 1.2830001 1.3731233e-38
-0.05742953 -0.050098099 1.2830001 1.4470616e-38
-0.054985717 -0.050098099 1.2830001 1.5300377e-38
-0.049902864 -0.049902864 1.2780001 1.5669486e-38
-0.0061095241 -0.050098099 1.2830001 1.3348904e-38
-0.067204766 -0.047654286 1.2830001 1.9906619e-38
-0.064760961 -0.047654286 1.2830001 1.7693924e-38
-0.062317148 -0.047654286 1.2830001 1.6592593e-38
-0.059873335 -0.047654286 1.2830001 1.4840876e-38
-0.05742953 -0.047654286 1.2830001 1.0698118e-38
-0.054985717 -0.047654286 1.2830001 1.1251283e-38
-0.049902864 -0.047468573 1.2780001 1.483832e-38
-0.0061095241 -0.047654286 1.2830001 1.2890109e-38
-0.064760961 -0.045210481 1.2830001 1.2810849e-38
-0.062317148 -0.045210481 1.2830001 1.5669953e-38
-0.059873335 -0.045210481 1.2830001 1.825143e-38
-0.05742953 -0.045210481 1.2830001 1.6037888e-38
-0.054985717 -0.045210481 1.2830001 1.1796915e-38
-0.052541912 -0.045210481 1.2830001 1.2988647e-38
-0.050098099 -0.045210481 1.2830001 1.206669e-38
-0.0061095241 -0.045210481 1.2830001 1.3166323e-38
-0.065013342 -0.042933334 1.2880001 8.4919654e-39
-0.062317148 -0.042766668 1.2830001 1.5301802e-38
-0.059873335 -0.042766668 1.2830001 1.8805236e-38
-0.05742953 -0.042766668 1.2830001 1.9167875e-38
-0.054985717 -0.042766668 1.2830001 1.5756637e-38
-0.0061095241 -0.042766668 1.2830001 1.3074863e-38
-0.065013342 -0.040480006 1.2880001 1.6317461e-38
-0.062317148 -0.040322863 1.2830001 1.8064402e-38
-0.059873335 -0.040322863 1.2830001 1.8801967e-38
-0.05742953 -0.040322863 1.2830001 1.8982694e-38
-0.054985717 -0.040322863 1.2830001 1.9628063e-38
-0.065013342 -0.038026668 1.2880001 1.8892111e-38
-0.062317148 -0.03787905 1.2830001 1.9442639e-38
-0.059873335 -0.03787905 1.2830001 1.879727e-38
-0.05742953 -0.03787905 1.2830001 1.8888337e-38
-0.054985717 -0.03787905 1.2830001 2.0179061e-38
-0.065013342 -0.035573337 1.2880001 1.8708814e-38
-0.062317148 -0.035435241 1.2830001 1.9165279e-38
-0.059873335 -0.035435241 1.2830001 1.8796502e-38
-0.05742953 -0.035435241 1.2830001 1.9163126e-38
-0.054985717 -0.035435241 1.2830001 1.9255321e-38
-0.052541912 -0.035435241 1.2830001 1.9163844e-38
-0.050098099 -0.035435241 1.2830001 1.9717009e-38
-0.065013342 -0.033119999 1.2880001 1.7513445e-38
-0.062317148 -0.032991432 1.2830001 1.9071291e-38
-0.059873335 -0.032991432 1.2830001 1.8886902e-38
-0.05742953 -0.032991432 1.2830001 1.9069497e-38
-0.054985717 -0.032991432 1.2830001 1.9530468e-38
-0.052541912 -0.032991432 1.2830001 1.9804925e-38
-0.050098099 -0.032991432 1.2830001 2.0819077e-38
-0.065013342 -0.03066667 1.2880001 1.8062919e-38
-0.062317148 -0.030547623 1.2830001 1.9255321e-38
-0.059873335 -0.030547623 1.2830001 1.879435e-38
-0.05742953 -0.030547623 1.2830001 1.8977663e-38
-0.054985717 -0.030547623 1.2830001 1.8701079e-38
-0.052541912 -0.030547623 1.2830001 1.7597259e-38
-0.050098099 -0.030547623 1.2830001 1.6859706e-38
-0.074826673 -0.028213335 1.2880001 1.9074672e-38
-0.067466669 -0.028213335 1.2880001 1.9806126e-38
-0.065013342 -0.028213335 1.2880001 1.9252952e-38
-0.062317148 -0.028103812 1.2830001 1.9160016e-38
-0.059873335 -0.028103812 1.2830001 1.906782e-38
-0.05742953 -0.028103812 1.2830001 1.8515699e-38
-0.054985717 -0.028103812 1.2830001 1.805472e-38
-0.052541912 -0.028103812 1.2830001 1.4465535e-38
-0.050098099 -0.028103812 1.2830001 1.3543583e-38
-0.074826673 -0.025760002 1.2880001 1.9812312e-38
-0.067466669 -0.025760002 1.2880001 1.6126294e-38
-0.065013342 -0.025760002 1.2880001 1.2346273e-38
-0.062317148 -0.025660003 1.2830001 1.0305795e-38
-0.059873335 -0.025660003 1.2830001 9.1994473e-39
-0.05742953 -0.025660003 1.2830001 1.1970183e-38
-0.054985717 -0.025660003 1.2830001 1.233896e-38
-0.052541912 -0.025660003 1.2830001 1.4369499e-38
-0.050098099 -0.025660003 1.2830001 1.6858781e-38
-0.072373338 -0.023306668 1.2880001 1.6500472e-38
-0.067466669 -0.023306668 1.2880001 1.0703643e-38
-0.065013342 -0.023306668 1.2880001 7.753383e-39
-0.06256 -0.023306668 1.2880001 5.714725e-39
-0.059873335 -0.023216194 1.2830001 7.0054638e-39
-0.05742953 -0.023216194 1.2830001 9.9519544e-39
-0.054985717 -0.023216194 1.2830001 1.1519263e-38
-0.052541912 -0.023216194 1.2830001 1.7041058e-38
-0.050098099 -0.023216194 1.2830001 2.0267905e-38
-0.072373338 -0.020853335 1.2880001 1.1335672e-38
-0.067466669 -0.020853335 1.2880001 1.5581293e-38
-0.065013342 -0.020853335 1.2880001 1.733301e-38
-0.06256 -0.020853335 1.2880001 2.0098588e-38
-0.060106672 -0.020853335 1.2880001 2.0651762e-38
-0.057653334 -0.020853335 1.2880001 2.0281206e-38
-0.054985717 -0.020772383 1.2830001 2.0834379e-38
-0.052541912 -0.020772383 1.2830001 2.1845332e-38
-0.050098099 -0.020772383 1.2830001 2.3412658e-38
-0.0725981 -0.018457144 1.2920001 1.2902613e-38
-0.070137143 -0.018457144 1.2920001 1.4562134e-38
-0.067466669 -0.0184 1.2880001 1.9626844e-38
-0.065013342 -0.0184 1.2880001 2.2116126e-38
-0.06256 -0.0184 1.2880001 2.0742925e-38
-0.060106672 -0.0184 1.2880001 1.8069252e-38
-0.057653334 -0.0184 1.2880001 1.6596245e-38
-0.055200007 -0.0184 1.2880001 1.9269918e-38
-0.075059049 -0.015996192 1.2920001 1.8347649e-38
-0.072373338 -0.015946668 1.2880001 1.8343318e-38
-0.069920003 -0.015946668 1.2880001 2.166236e-38
-0.067466669 -0.015946668 1.2880001 2.230738e-38
-0.065013342 -0.015946668 1.2880001 2.2952749e-38
-0.06256 -0.015946668 1.2880001 2.064965e-38
-0.060106672 -0.015946668 1.2880001 7.9266536e-39
-0.057653334 -0.015946668 1.2880001 7.7433665e-39
-0.055200007 -0.015946668 1.2880001 1.2721931e-38
-0.057653334 -0.013493334 1.2880001 9.7683955e-39
-0.055200007 -0.013493334 1.2880001 1.2903047e-38
-0.062754288 -0.011074286 1.2920001 1.6225712e-38
-0.055200007 -0.011040001 1.2880001 1.2536455e-38
-0.065215245 -0.008613334 1.2920001 1.3645281e-38
-0.062754288 -0.008613334 1.2920001 9.871824e-39
-0.055200007 -0.0085866675 1.2880001 1.262795e-38
-0.065215245 -0.0061523807 1.2920001 1.5581046e-38
-0.062754288 -0.0061523807 1.2920001 1.2538278e-38
-0.055200007 -0.0061333338 1.2880001 6.457734e-39
-0.065215245 -0.0036914286 1.2920001 1.6225265e-38
-0.062754288 -0.0036914286 1.2920001 1.4469344e-38
-0.055200007 -0.0036800003 1.2880001 6.8250466e-39
-0.062754288 -0.0012304762 1.2920001 1.8987559e-38
-0.055200007 -0.0012266667 1.2880001 4.7045233e-39
-0.062754288 0.0012304762 1.2920001 1.9541495e-38
-0.055200007 0.0012266667 1.2880001 5.7154676e-39
-0.050293338 0.0012266667 1.2880001 1.7143621e-38
-0.062754288 0.0036914286 1.2920001 1.7240874e-38
-0.055200007 0.0036800003 1.2880001 6.4526249e-39
-0.050293338 0.0036800003 1.2880001 1.9451814e-38
-0.047988571 0.0036914286 1.2920001 1.9636222e-38
-0.062754288 0.0061523807 1.2920001 8.1207362e-39
-0.055200007 0.0061333338 1.2880001 1.2446423e-38
-0.065467626 0.008646667 1.2970001 1.2452508e-38
-0.062754288 0.008613334 1.2920001 1.410631e-38
-0.047840003 0.0085866675 1.2880001 1.6409412e-38
-0.062754288 0.011074286 1.2920001 1.9082328e-38
-0.060293335 0.011074286 1.2920001 1.8621349e-38
-0.047840003 0.011040001 1.2880001 1.4290295e-38
-0.045527618 0.011074286 1.2920001 1.4013708e-38
-0.060293335 0.013535239 1.2920001 1.6039859e-38
-0.047840003 0.013493334 1.2880001 1.0784214e-38
-0.06597238 0.05103524 1.307 1.3511297e-38
-0.06597238 0.053524762 1.307 1.7587949e-38
-0.06597238 0.056014288 1.307 1.7958905e-38
-0.06597238 0.05850381 1.307 1.7314937e-38
-0.068723813 0.06122667 1.312 1.8696519e-38
-0.06597238 0.060993332 1.307 1.5561868e-38
-0.081528574 0.063968569 1.317 7.7288995e-39
-0.068723813 0.063725717 1.312 2.0268025e-38
-0.06597238 0.063482858 1.307 1.5566117e-38
-0.081528574 0.066477142 1.317 8.9295881e-39
-0.068723813 0.066224761 1.312 2.0453605e-38
-0.06597238 0.06597238 1.307 1.6489193e-38
-0.068723813 0.068723813 1.312 2.0265213e-38
-0.066224761 0.068723813 1.312 2.1555951e-38
-0.096946664 0.071765721 1.322 1.851542e-38
-0.068723813 0.071222864 1.312 1.8323719e-38
-0.066224761 0.071222864 1.312 2.0813001e-38
-0.096946664 0.074283808 1.322 1.83321e-38
-0.074002862 0.074002862 1.317 1.1949018e-38
-0.068723813 0.073721908 1.312 1.4714486e-38
-0.066224761 0.073721908 1.312 1.8402293e-38
-0.074002862 0.076511435 1.317 1.2134124e-38
-0.068723813 0.076220959 1.312 1.3971551e-38
-0.066224761 0.076220959 1.312 1.8396927e-38
-0.074002862 0.079020001 1.317 1.7776766e-38
-0.071222864 0.078720003 1.312 1.9344092e-38
-0.068723813 0.078720003 1.312 1.91575e-38
-0.066224761 0.078720003 1.312 1.5561871e-38
-0.074002862 0.081528574 1.317 1.9159318e-38
-0.071222864 0.081219047 1.312 1.9712491e-38
-0.068723813 0.081219047 1.312 1.9343731e-38
-0.066224761 0.081219047 1.312 1.7776406e-38
-0.063725717 0.081219047 1.312 1.8508245e-38
-0.074002862 0.08403714 1.317 1.6954876e-38
-0.071494289 0.08403714 1.317 1.6954876e-38
-0.068723813 0.083718091 1.312 1.8056895e-38
-0.066224761 0.083718091 1.312 1.7595917e-38
-0.063725717 0.083718091 1.312 1.8510753e-38
-0.099088572 0.086545713 1.317 1.4366574e-38
-0.096946664 0.086874284 1.322 1.6579269e-38
-0.089392379 0.086874284 1.322 1.6782354e-38
-0.074002862 0.086545713 1.317 1.5581293e-38
-0.071494289 0.086545713 1.317 1.5765684e-38
-0.068985716 0.086545713 1.317 1.7322252e-38
-0.066477142 0.086545713 1.317 1.7691034e-38
-0.063968569 0.086545713 1.317 1.9345549e-38
-0.089392379 0.089392379 1.322 1.4571067e-38
-0.074002862 0.089054286 1.317 1.3182009e-38
-0.071494289 0.089054286 1.317 1.5579095e-38
-0.068985716 0.089054286 1.317 1.7872191e-38
-0.066477142 0.089054286 1.317 1.7319018e-38
-0.063968569 0.089054286 1.317 1.8605087e-38
-0.061460003 0.089054286 1.317 1.897387e-38
-0.074002862 0.091562852 1.317 1.3548964e-38
-0.071494289 0.091562852 1.317 1.6683613e-38
-0.068985716 0.091562852 1.317 1.8883106e-38
-0.066477142 0.091562852 1.317 1.8145541e-38
-0.063968569 0.091562852 1.317 1.7958633e-38
-0.061460003 0.091562852 1.317 1.8604003e-38
-0.074002862 0.094071425 1.317 1.4375925e-38
-0.071494289 0.094071425 1.317 1.6312033e-38
-0.068985716 0.094071425 1.317 1.8331702e-38
-0.066477142 0.094071425 1.317 1.8055116e-38
-0.063968569 0.094071425 1.317 1.8233068e-38
-0.061460003 0.094071425 1.317 1.8970633e-38
-0.053934287 0.094071425 1.317 1.9059974e-38
-0.079319999 0.096946664 1.322 1.1894544e-38
-0.076801904 0.096946664 1.322 1.2447717e-38
-0.074002862 0.096580006 1.317 1.5111705e-38
-0.071494289 0.096580006 1.317 1.5664879e-38
-0.068985716 0.096580006 1.317 1.7039907e-38
-0.066477142 0.096580006 1.317 1.740869e-38
-0.063968569 0.096580006 1.317 1.758591e-38
-0.061460003 0.096580006 1.317 1.9153236e-38
-0.097386673 0.09991619 1.3280001 1.6844736e-38
-0.079319999 0.099464767 1.322 1.6027573e-38
-0.076801904 0.099464767 1.322 1.6580746e-38
-0.074002862 0.099088572 1.317 1.703991e-38
-0.071494289 0.099088572 1.317 1.7316497e-38
-0.068985716 0.099088572 1.317 1.7958633e-38
-0.066477142 0.099088572 1.317 1.9802546e-38
-0.063968569 0.099088572 1.317 1.9709312e-38
-0.079319999 0.10198285 1.322 1.7856737e-38
-0.076801904 0.10198285 1.322 1.7948932e-38
-0.074002862 0.10159715 1.317 1.7582664e-38
-0.071494289 0.10159715 1.317 1.7767055e-38
-0.068985716 0.10159715 1.317 1.7863206e-38
-0.066477142 0.10159715 1.317 1.9983706e-38
-0.063968569 0.10159715 1.317 1.9433791e-38
-0.079319999 0.10450096 1.322 1.4436143e-38
-0.076801904 0.10450096 1.322 1.3329796e-38
-0.074002862 0.10410572 1.317 1.3329082e-38
-0.071494289 0.10410572 1.317 1.2868104e-38
-0.068985716 0.10410572 1.317 1.2688724e-38
-0.066477142 0.10410572 1.317 1.3149695e-38
-0.063968569 0.10410572 1.317 1.4906489e-38
-0.079319999 0.10701905 1.322 1.3698218e-38
-0.076801904 0.10701905 1.322 1.3606022e-38
-0.074283808 0.10701905 1.322 1.2683344e-38
-0.071494289 0.10661428 1.317 1.2130178e-38
-0.068985716 0.10661428 1.317 1.0934881e-38
-0.066477142 0.10661428 1.317 1.2963174e-38
-0.063968569 0.10661428 1.317 1.3520648e-38
-0.079680003 0.11003429 1.3280001 1.3883705e-38
-0.076801904 0.10953714 1.322 1.4344683e-38
-0.074283808 0.10953714 1.322 1.4165311e-38
-0.071765721 0.10953714 1.322 1.5271659e-38
-0.069247618 0.10953714 1.322 1.5186637e-38
-0.066477142 0.10912286 1.317 1.573981e-38
-0.063968569 0.10912286 1.317 1.5829542e-38
-0.079680003 0.11256382 1.3280001 1.3883322e-38
-0.076801904 0.11205524 1.322 1.4252105e-38
-0.074283808 0.11205524 1.322 1.4438304e-38
-0.071765721 0.11205524 1.322 1.6650999e-38
-0.069247618 0.11205524 1.322 1.6013921e-38
-0.066729523 0.11205524 1.322 1.7120269e-38
-0.063968569 0.11163143 1.317 1.666005e-38
-0.079680003 0.11509334 1.3280001 1.4161689e-38
-0.077150479 0.11509334 1.3280001 1.3977298e-38
-0.074283808 0.11457334 1.322 1.4252458e-38
-0.071765721 0.11457334 1.322 1.674174e-38
-0.069247618 0.11457334 1.322 1.5736971e-38
-0.066729523 0.11457334 1.322 1.702771e-38
-0.079680003 0.11762286 1.3280001 1.4805251e-38
-0.077150479 0.11762286 1.3280001 1.4344274e-38
-0.074283808 0.11709142 1.322 1.4344641e-38
-0.071765721 0.11709142 1.322 1.6557336e-38
-0.069247618 0.11709142 1.322 1.5274185e-38
-0.066729523 0.11709142 1.322 1.6564924e-38
-0.064211436 0.11709142 1.322 1.5922814e-38
-0.061693333 0.11709142 1.322 1.5738423e-38
-0.059175242 0.11709142 1.322 1.5552224e-38
-0.09991619 0.12015238 1.3280001 1.3259871e-38
-0.082209527 0.12015238 1.3280001 1.5556881e-38
-0.079680003 0.12015238 1.3280001 1.601205e-38
-0.077150479 0.12015238 1.3280001 1.4629116e-38
-0.074620955 0.12015238 1.3280001 1.5453882e-38
-0.071765721 0.11960953 1.322 1.6007056e-38
-0.069247618 0.11960953 1.322 1.5366369e-38
-0.066729523 0.11960953 1.322 1.638052e-38
-0.064211436 0.11960953 1.322 1.6014975e-38
-0.061693333 0.11960953 1.322 1.6291562e-38
-0.082209527 0.12268192 1.3280001 1.6386693e-38
-0.079680003 0.12268192 1.3280001 1.6013543e-38
-0.077150479 0.12268192 1.3280001 1.4630608e-38
-0.074620955 0.12268192 1.3280001 1.5362715e-38
-0.071765721 0.12212763 1.322 1.5915889e-38
-0.069247618 0.12212763 1.322 1.5458879e-38
-0.066729523 0.12212763 1.322 1.6565227e-38
-0.064211436 0.12212763 1.322 1.6199707e-38
-0.061693333 0.12212763 1.322 1.6291902e-38
-0.082209527 0.12521143 1.3280001 1.6946295e-38
-0.079680003 0.12521143 1.3280001 1.703166e-38
-0.077150479 0.12521143 1.3280001 1.5464335e-38
-0.074620955 0.12521143 1.3280001 1.6381905e-38
-0.072091438 0.12521143 1.3280001 1.6842883e-38
-0.066729523 0.12464572 1.322 1.6291874e-38
-0.064211436 0.12464572 1.322 1.620041e-38
-0.061693333 0.12464572 1.322 1.6292606e-38
-0.082209527 0.12774095 1.3280001 1.8239574e-38
-0.079680003 0.12774095 1.3280001 1.7588081e-38
-0.077150479 0.12774095 1.3280001 1.6112951e-38
-0.074620955 0.12774095 1.3280001 1.6385461e-38
-0.072091438 0.12774095 1.3280001 1.7123015e-38
-0.066729523 0.12716381 1.322 1.6938296e-38
-0.064211436 0.12716381 1.322 1.6755003e-38
-0.061693333 0.12716381 1.322 1.6939395e-38
-0.066729523 0.1296819 1.322 1.7034413e-38
-0.064211436 0.1296819 1.322 1.6665273e-38
-0.061693333 0.1296819 1.322 1.638869e-38
