# .PCD v0.7 - Point Cloud Data file format
VERSION 0.7
FIELDS x y z rgb
SIZE 4 4 4 4
TYPE F F F F
COUNT 1 1 1 1
WIDTH 244
HEIGHT 1
VIEWPOINT 0 0 0 1 0 0 0
POINTS 244
DATA ascii
-0.030460002 -0.16390382 1.5230001 3.6867336e-39
-0.027559049 -0.16390382 1.5230001 4.6958072e-39
-0.027559049 -0.16100286 1.5230001 9.674395e-39
-0.016091429 -0.16237715 1.536 1.096585e-38
-0.027559049 -0.15810192 1.5230001 1.723696e-38
-0.016091429 -0.15945143 1.536 1.6775266e-38
-0.024755238 -0.1558124 1.529 1.7328462e-38
-0.021842858 -0.1558124 1.529 1.7419932e-38
-0.018930476 -0.1558124 1.529 1.7604323e-38
-0.016091429 -0.15652572 1.536 1.7327734e-38
-0.027667619 -0.1529 1.529 1.7235926e-38
-0.024755238 -0.1529 1.529 1.6867144e-38
-0.016091429 -0.15359999 1.536 1.8895763e-38
-0.027559049 -0.14939906 1.5230001 1.5762581e-38
-0.024755238 -0.14998762 1.529 1.6039168e-38
-0.021842858 -0.14998762 1.529 1.7051522e-38
-0.018930476 -0.14998762 1.529 1.6498349e-38
-0.027559049 -0.1464981 1.5230001 1.5570249e-38
-0.024755238 -0.14707524 1.529 1.2527793e-38
-0.021842858 -0.14707524 1.529 1.261533e-38
-0.018930476 -0.14707524 1.529 1.0679221e-38
-0.027559049 -0.14359716 1.5230001 1.7039613e-38
0.016018094 -0.14416286 1.529 1.9810529e-38
-0.024544762 -0.13427429 1.516 1.3882228e-38
-0.021471428 -0.12739713 1.503 1.4249569e-38
-0.027197143 -0.12453429 1.503 1.3327626e-38
-0.021471428 -0.12453429 1.503 1.4894928e-38
-0.027197143 -0.12167143 1.503 1.22256e-38
-0.021471428 -0.12167143 1.503 1.3692457e-38
-0.027197143 -0.11880857 1.503 1.2604781e-38
-0.021471428 -0.11880857 1.503 1.3699991e-38
-0.032769524 -0.11540572 1.4960001 1.4360836e-38
-0.027197143 -0.11594572 1.503 1.3720499e-38
-0.024334285 -0.11594572 1.503 1.3536107e-38
-0.021471428 -0.11594572 1.503 1.5288857e-38
-0.032769524 -0.1125562 1.4960001 1.5650471e-38
-0.029920001 -0.1125562 1.4960001 1.5742666e-38
-0.024334285 -0.11308286 1.503 1.2710265e-38
-0.021471428 -0.11308286 1.503 1.3268906e-38
-0.032769524 -0.10970667 1.4960001 1.6208727e-38
-0.029920001 -0.10970667 1.4960001 1.7038488e-38
-0.027070478 -0.10970667 1.4960001 1.5661626e-38
-0.024334285 -0.11022 1.503 1.7044561e-38
-0.021471428 -0.11022 1.503 1.8248549e-38
-0.032616191 -0.10635714 1.4890001 1.4921888e-38
-0.02978 -0.10635714 1.4890001 1.6489214e-38
-0.027070478 -0.10685714 1.4960001 1.6029668e-38
-0.024220953 -0.10685714 1.4960001 1.934871e-38
-0.021371428 -0.10685714 1.4960001 1.9352803e-38
-0.015672382 -0.10685714 1.4960001 1.9814129e-38
-0.032616191 -0.10352096 1.4890001 1.9630318e-38
-0.02978 -0.10352096 1.4890001 1.769421e-38
-0.026943812 -0.10352096 1.4890001 1.7415186e-38
-0.024220953 -0.10400762 1.4960001 1.944349e-38
-0.021371428 -0.10400762 1.4960001 1.9904921e-38
-0.018521905 -0.10400762 1.4960001 2.2947376e-38
-0.032616191 -0.10068477 1.4890001 2.0738507e-38
-0.02978 -0.10068477 1.4890001 1.9078985e-38
-0.026943812 -0.10068477 1.4890001 1.6131637e-38
-0.024220953 -0.1011581 1.4960001 1.7791159e-38
-0.021371428 -0.1011581 1.4960001 1.8801772e-38
-0.018521905 -0.1011581 1.4960001 1.9631533e-38
-0.055565715 -0.098308578 1.4960001 1.7881793e-38
-0.032616191 -0.097848572 1.4890001 1.9540283e-38
-0.02978 -0.097848572 1.4890001 1.9724674e-38
-0.026943812 -0.097848572 1.4890001 1.7419495e-38
-0.024220953 -0.098308578 1.4960001 1.7235104e-38
-0.021371428 -0.098308578 1.4960001 1.5205024e-38
-0.018521905 -0.098308578 1.4960001 1.4006481e-38
-0.058688574 -0.095905714 1.503 1.7423664e-38
-0.032616191 -0.095012389 1.4890001 1.6496419e-38
-0.02978 -0.095012389 1.4890001 1.6865202e-38
-0.026943812 -0.095012389 1.4890001 1.7141823e-38
-0.024220953 -0.095459051 1.4960001 1.6773041e-38
-0.021371428 -0.095459051 1.4960001 1.4565346e-38
-0.018521905 -0.095459051 1.4960001 1.3827781e-38
-0.032616191 -0.092176192 1.4890001 1.4097235e-38
-0.02978 -0.092176192 1.4890001 1.3912844e-38
-0.026943812 -0.092176192 1.4890001 1.4465998e-38
-0.024220953 -0.092609525 1.4960001 1.6217715e-38
-0.021371428 -0.092609525 1.4960001 1.6219813e-38
-0.018521905 -0.092609525 1.4960001 1.6957378e-38
-0.015672382 -0.092609525 1.4960001 1.529922e-38
-0.032616191 -0.089340009 1.4890001 1.4006871e-38
-0.02978 -0.089340009 1.4890001 1.3084914e-38
-0.026943812 -0.089340009 1.4890001 1.3635155e-38
-0.024220953 -0.089759998 1.4960001 1.5755655e-38
-0.021371428 -0.089759998 1.4960001 1.6767912e-38
-0.018521905 -0.089759998 1.4960001 1.8335238e-38
-0.015672382 -0.089759998 1.4960001 1.7047716e-38
-0.032616191 -0.086503811 1.4890001 1.355131e-38
-0.02978 -0.086503811 1.4890001 1.2444962e-38
-0.026943812 -0.086503811 1.4890001 1.4834473e-38
-0.024220953 -0.086910479 1.4960001 1.7323755e-38
-0.021371428 -0.086910479 1.4960001 1.7598344e-38
-0.018521905 -0.086910479 1.4960001 1.7321757e-38
-0.015672382 -0.086910479 1.4960001 1.7322473e-38
-0.032616191 -0.083667621 1.4890001 1.0974102e-38
-0.02978 -0.083667621 1.4890001 1.0881907e-38
-0.026943812 -0.083667621 1.4890001 1.5020983e-38
-0.024220953 -0.084060952 1.4960001 1.6957092e-38
-0.021371428 -0.084060952 1.4960001 1.7597638e-38
-0.018521905 -0.084060952 1.4960001 1.7321051e-38
-0.015672382 -0.084060952 1.4960001 1.7505076e-38
-0.032616191 -0.080831431 1.4890001 1.4841935e-38
-0.02978 -0.080831431 1.4890001 1.4288762e-38
-0.026943812 -0.080831431 1.4890001 1.6308826e-38
-0.021371428 -0.081211433 1.4960001 1.7505783e-38
-0.018521905 -0.081211433 1.4960001 1.7597977e-38
-0.015672382 -0.081211433 1.4960001 1.7505783e-38
-0.032616191 -0.077995241 1.4890001 1.7876868e-38
-0.02978 -0.077995241 1.4890001 1.8061259e-38
-0.026943812 -0.077995241 1.4890001 1.7966212e-38
-0.018521905 -0.078361914 1.4960001 1.759554e-38
-0.015672382 -0.078361914 1.4960001 1.7594458e-38
-0.032616191 -0.075159051 1.4890001 1.7143268e-38
-0.02978 -0.075159051 1.4890001 1.7051073e-38
-0.018521905 -0.075512379 1.4960001 1.0496576e-38
-0.015672382 -0.075512379 1.4960001 1.2341471e-38
-0.032616191 -0.07232286 1.4890001 1.5302635e-38
-0.021371428 -0.07266286 1.4960001 8.2039313e-39
-0.018521905 -0.07266286 1.4960001 8.4805182e-39
-0.015672382 -0.07266286 1.4960001 1.0044195e-38
-0.029920001 -0.069813333 1.4960001 1.1611589e-38
-0.027070478 -0.069813333 1.4960001 1.3641299e-38
-0.021371428 -0.069813333 1.4960001 1.6410444e-38
-0.018521905 -0.069813333 1.4960001 1.6779226e-38
-0.015672382 -0.069813333 1.4960001 1.7515002e-38
-0.029920001 -0.066963814 1.4960001 1.3454389e-38
-0.027070478 -0.066963814 1.4960001 1.7783252e-38
-0.024334285 -0.067277141 1.503 1.9719361e-38
-0.021471428 -0.067277141 1.503 1.8344387e-38
-0.01860857 -0.067277141 1.503 1.5025344e-38
-0.015672382 -0.066963814 1.4960001 1.4294517e-38
-0.029920001 -0.064114287 1.4960001 2.083078e-38
-0.027070478 -0.064114287 1.4960001 2.1108036e-38
-0.024334285 -0.064414285 1.503 2.1753406e-38
-0.021471428 -0.064414285 1.503 1.8255426e-38
-0.01860857 -0.064414285 1.503 4.4260811e-39
-0.015672382 -0.064114287 1.4960001 4.9799233e-39
-0.029920001 -0.061264765 1.4960001 2.0372338e-38
-0.027070478 -0.061264765 1.4960001 2.0374117e-38
-0.024334285 -0.061551426 1.503 2.0281922e-38
-0.021471428 -0.061551426 1.503 1.8899751e-38
-0.01860857 -0.061551426 1.503 4.6094284e-39
0.041124765 -0.060978096 1.4890001 3.96298e-39
-0.041511431 -0.058688574 1.503 1.74244e-38
-0.029920001 -0.058415242 1.4960001 1.7696532e-38
-0.027070478 -0.058415242 1.4960001 1.4839919e-38
-0.024334285 -0.058688574 1.503 1.3272593e-38
-0.021471428 -0.058688574 1.503 1.1986573e-38
-0.01860857 -0.058688574 1.503 7.9299648e-39
-0.029920001 -0.055565715 1.4960001 1.3091414e-38
-0.027070478 -0.055565715 1.4960001 1.1711369e-38
-0.024334285 -0.055825714 1.503 1.0328434e-38
-0.021471428 -0.055825714 1.503 9.316502e-39
-0.01860857 -0.055825714 1.503 9.0399151e-39
-0.029920001 -0.052716192 1.4960001 8.1103904e-39
-0.027070478 -0.052716192 1.4960001 9.9589875e-39
-0.021471428 -0.052962858 1.503 1.3830423e-38
-0.01860857 -0.052962858 1.503 1.2170902e-38
-0.029920001 -0.049866665 1.4960001 6.9125661e-39
-0.027070478 -0.049866665 1.4960001 1.0050731e-38
-0.021557143 -0.050300002 1.5090001 1.5486753e-38
-0.029920001 -0.047017142 1.4960001 6.6370316e-39
-0.027070478 -0.047017142 1.4960001 8.1164048e-39
-0.021557143 -0.047425713 1.5090001 1.7421049e-38
-0.021557143 -0.044551432 1.5090001 1.6867131e-38
-0.029920001 -0.041318096 1.4960001 1.0876269e-38
-0.021557143 -0.041677143 1.5090001 1.5854724e-38
-0.021557143 -0.038802858 1.5090001 1.7049708e-38
-0.021557143 -0.035928573 1.5090001 1.7052601e-38
-0.021557143 -0.033054285 1.5090001 1.4749118e-38
-0.021557143 -0.030180002 1.5090001 1.3171219e-38
-0.021557143 -0.027305715 1.5090001 1.6757119e-38
-0.021557143 -0.02443143 1.5090001 1.648017e-38
-0.021557143 -0.021557143 1.5090001 1.5558224e-38
-0.021557143 -0.018682858 1.5090001 1.5649343e-38
-0.021657143 -0.015881905 1.516 1.6484479e-38
-0.021657143 -0.012994286 1.516 1.9531283e-38
-0.030180002 0.01006 1.5090001 1.8421387e-38
-0.024658097 0.021757144 1.5230001 2.0263821e-38
-0.021757144 0.021757144 1.5230001 1.8608212e-38
-0.06527143 0.024658097 1.5230001 9.7698529e-39
-0.021757144 0.024658097 1.5230001 1.9253266e-38
-0.018856192 0.024658097 1.5230001 1.8976679e-38
-0.021757144 0.027559049 1.5230001 1.7497218e-38
-0.018856192 0.027559049 1.5230001 1.99865e-38
-0.021757144 0.030460002 1.5230001 1.6846505e-38
-0.018856192 0.030460002 1.5230001 1.9981157e-38
-0.021757144 0.033360954 1.5230001 1.7772855e-38
-0.018856192 0.033360954 1.5230001 1.7588464e-38
-0.021757144 0.036261909 1.5230001 1.6854852e-38
-0.018856192 0.036261909 1.5230001 1.6762656e-38
-0.021757144 0.039162859 1.5230001 1.7497693e-38
-0.018856192 0.039162859 1.5230001 1.7866476e-38
-0.064971432 0.041870475 1.516 9.9527994e-39
-0.021757144 0.042063814 1.5230001 1.7126753e-38
-0.018856192 0.042063814 1.5230001 1.7864318e-38
-0.021757144 0.044964768 1.5230001 1.7310795e-38
-0.018856192 0.044964768 1.5230001 1.804836e-38
-0.01595524 0.044964768 1.5230001 1.7679929e-38
-0.024755238 0.048054285 1.529 1.740692e-38
-0.021757144 0.047865715 1.5230001 1.7682451e-38
-0.018856192 0.047865715 1.5230001 1.8051234e-38
-0.01595524 0.047865715 1.5230001 1.832531e-38
-0.021757144 0.050766669 1.5230001 1.9064307e-38
-0.018856192 0.050766669 1.5230001 1.9986263e-38
-0.01595524 0.050766669 1.5230001 1.9249076e-38
-0.021757144 0.053667624 1.5230001 1.8605127e-38
-0.018856192 0.053667624 1.5230001 1.8512931e-38
-0.01595524 0.053667624 1.5230001 1.8882047e-38
-0.024755238 0.056791428 1.529 1.5909468e-38
-0.021842858 0.056791428 1.529 1.4625288e-38
-0.018856192 0.056568574 1.5230001 1.6745787e-38
-0.01595524 0.056568574 1.5230001 1.6757206e-38
-0.030580001 0.059703812 1.529 1.1579536e-38
-0.024755238 0.059703812 1.529 1.4993255e-38
-0.021842858 0.059703812 1.529 1.4254312e-38
-0.018930476 0.059703812 1.529 1.324016e-38
-0.016018094 0.059703812 1.529 1.6660609e-38
-0.013105715 0.059703812 1.529 2.136256e-38
-0.024755238 0.062616192 1.529 1.6752952e-38
-0.021842858 0.062616192 1.529 1.5737358e-38
-0.018930476 0.062616192 1.529 1.085099e-38
-0.016018094 0.062616192 1.529 1.3981237e-38
-0.033360954 0.06527143 1.5230001 1.4070232e-38
-0.024755238 0.065528572 1.529 1.6016086e-38
-0.021842858 0.065528572 1.529 1.5829922e-38
-0.018930476 0.065528572 1.529 1.1681119e-38
-0.016018094 0.065528572 1.529 1.259079e-38
-0.024755238 0.068440951 1.529 1.6014978e-38
-0.018930476 0.068440951 1.529 1.4171804e-38
-0.016018094 0.068440951 1.529 1.370721e-38
-0.024755238 0.071353339 1.529 1.6106445e-38
-0.018930476 0.071353339 1.529 1.4265782e-38
-0.016018094 0.071353339 1.529 1.3983074e-38
-0.013105715 0.071353339 1.529 1.3153313e-38
-0.024755238 0.074265718 1.529 1.6383735e-38
-0.019017143 0.074605711 1.536 1.4910753e-38
-0.013105715 0.074265718 1.529 1.3798695e-38
-0.024755238 0.077178098 1.529 1.6384036e-38
-0.013105715 0.077178098 1.529 1.3892655e-38
-0.024755238 0.080090478 1.529 1.6848592e-38
