# .PCD v0.7 - Point Cloud Data file format
VERSION 0.7
FIELDS x y z rgb
SIZE 4 4 4 4
TYPE F F F F
COUNT 1 1 1 1
WIDTH 451
HEIGHT 1
VIEWPOINT 0 0 0 1 0 0 0
POINTS 451
DATA ascii
-0.055154286 -0.047413334 1.016 2.2124433e-38
-0.055154286 -0.045478098 1.016 2.1848922e-38
-0.1022 -0.0438 1.0220001 1.9726628e-38
-0.10054763 -0.043928575 1.0250001 2.0740401e-38
-0.055154286 -0.043542858 1.016 2.1938594e-38
-0.1022 -0.041853335 1.0220001 1.7791586e-38
-0.10054763 -0.041976195 1.0250001 1.7882342e-38
-0.061140005 -0.041730478 1.0190001 2.0370174e-38
-0.10054763 -0.040023815 1.0250001 1.7974198e-38
-0.066765718 -0.039672382 1.016 1.9724817e-38
-0.080786668 -0.036013335 1.0220001 2.1662721e-38
-0.070844762 -0.035907622 1.0190001 2.3136777e-38
-0.080786668 -0.03406667 1.0220001 2.1017369e-38
-0.078840002 -0.03406667 1.0220001 2.1109565e-38
-0.076893337 -0.03406667 1.0220001 2.2029721e-38
-0.072785713 -0.033966668 1.0190001 2.2306295e-38
-0.070844762 -0.033966668 1.0190001 2.2951664e-38
-0.068903819 -0.033966668 1.0190001 2.3228967e-38
-0.066962861 -0.033966668 1.0190001 2.3136772e-38
-0.06502191 -0.033966668 1.0190001 2.3045305e-38
-0.05337619 -0.033966668 1.0190001 2.2033314e-38
-0.080786668 -0.032120001 1.0220001 1.5394519e-38
-0.078840002 -0.032120001 1.0220001 1.262865e-38
-0.076893337 -0.032120001 1.0220001 1.4560468e-38
-0.070844762 -0.032025717 1.0190001 1.7969526e-38
-0.068903819 -0.032025717 1.0190001 1.6590875e-38
-0.066962861 -0.032025717 1.0190001 1.5761114e-38
-0.06502191 -0.032025717 1.0190001 1.4931386e-38
-0.053219046 -0.031931426 1.016 1.6039907e-38
-0.10054763 -0.030261908 1.0250001 1.2543259e-38
-0.080786668 -0.030173335 1.0220001 1.4475808e-38
-0.078840002 -0.030173335 1.0220001 1.0880179e-38
-0.076893337 -0.030173335 1.0220001 8.6664116e-39
-0.070844762 -0.030084763 1.0190001 1.2070778e-38
-0.068903819 -0.030084763 1.0190001 1.1425418e-38
-0.066962861 -0.030084763 1.0190001 1.1333223e-38
-0.06502191 -0.030084763 1.0190001 9.7698627e-39
-0.055317145 -0.030084763 1.0190001 1.7508866e-38
-0.053219046 -0.02999619 1.016 1.5028967e-38
-0.1022 -0.028226668 1.0220001 2.0741849e-38
-0.10054763 -0.028309526 1.0250001 2.0003934e-38
-0.080786668 -0.028226668 1.0220001 1.8706705e-38
-0.072785713 -0.028143812 1.0190001 1.7871873e-38
-0.070844762 -0.028143812 1.0190001 1.9439199e-38
-0.068903819 -0.028143812 1.0190001 1.9349213e-38
-0.055317145 -0.028143812 1.0190001 2.2951664e-38
-0.10054763 -0.026357146 1.0250001 2.1842799e-38
-0.072785713 -0.026202857 1.0190001 1.8965626e-38
-0.055317145 -0.026202857 1.0190001 2.2856948e-38
-0.10054763 -0.024404764 1.0250001 1.3897761e-38
-0.10054763 -0.022452382 1.0250001 1.3420559e-38
-0.080061905 -0.01789619 0.98900002 1.7193686e-38
-0.08194571 -0.01601238 0.98900002 1.7009656e-38
-0.076294288 -0.01601238 0.98900002 1.7010015e-38
-0.074410483 -0.01601238 0.98900002 1.7193686e-38
-0.076294288 -0.014128571 0.98900002 1.7193686e-38
-0.087597147 -0.008477143 0.98900002 1.7283039e-38
-0.085540004 -0.0084600002 0.98700005 1.7377715e-38
-0.078020006 -0.0084600002 0.98700005 1.949603e-38
-0.064991429 -0.008477143 0.98900002 1.9863739e-38
-0.063107617 -0.008477143 0.98900002 1.8851758e-38
-0.089752384 -0.0066133337 0.99200004 1.4057647e-38
-0.087597147 -0.0065933336 0.98900002 1.562496e-38
-0.085713334 -0.0065933336 0.98900002 1.6917462e-38
-0.078020006 -0.0065800003 0.98700005 1.9955925e-38
-0.089752384 -0.0047238097 0.99200004 1.5831325e-38
-0.087597147 -0.0047095241 0.98900002 1.1313739e-38
-0.085713334 -0.0047095241 0.98900002 1.5444148e-38
-0.083659999 -0.0047000004 0.98700005 1.7472435e-38
-0.076140001 -0.0047000004 0.98700005 1.9768309e-38
-0.074260004 -0.0047000004 0.98700005 1.985944e-38
-0.072379999 -0.0047000004 0.98700005 1.9306266e-38
-0.070500001 -0.0047000004 0.98700005 1.9396661e-38
-0.068620004 -0.0047000004 0.98700005 1.9304467e-38
-0.066740006 -0.0047000004 0.98700005 1.9028602e-38
-0.089752384 -0.0028342858 0.99200004 1.5749904e-38
-0.087597147 -0.0028257142 0.98900002 1.1232318e-38
-0.085713334 -0.0028257142 0.98900002 1.4802734e-38
-0.083659999 -0.0028200001 0.98700005 1.6831021e-38
-0.076140001 -0.0028200001 0.98700005 1.9030395e-38
-0.074260004 -0.0028200001 0.98700005 1.9120796e-38
-0.072379999 -0.0028200001 0.98700005 1.8936408e-38
-0.070500001 -0.0028200001 0.98700005 1.9026449e-38
-0.068620004 -0.0028200001 0.98700005 1.9487421e-38
-0.066740006 -0.0028200001 0.98700005 1.8844213e-38
-0.062980004 -0.0028200001 0.98700005 1.922161e-38
-0.093814291 -0.00094761909 0.99500006 1.7311086e-38
-0.083659999 -0.00094000006 0.98700005 1.6204358e-38
-0.078020006 -0.00094000006 0.98700005 1.74613e-38
-0.076140001 -0.00094000006 0.98700005 1.7645688e-38
-0.074260004 -0.00094000006 0.98700005 1.7736448e-38
-0.072379999 -0.00094000006 0.98700005 1.9672538e-38
-0.070500001 -0.00094000006 0.98700005 1.9960982e-38
-0.068620004 -0.00094000006 0.98700005 2.3187829e-38
-0.066740006 -0.00094000006 0.98700005 2.2100156e-38
-0.08382953 0.00094190479 0.98900002 1.7225303e-38
-0.081780002 0.00094000006 0.98700005 1.8598623e-38
-0.078020006 0.00094000006 0.98700005 1.9878222e-38
-0.076140001 0.00094000006 0.98700005 1.9970417e-38
-0.074260004 0.00094000006 0.98700005 2.0796238e-38
-0.072379999 0.00094000006 0.98700005 2.1072824e-38
-0.070500001 0.00094000006 0.98700005 2.2000553e-38
-0.068620004 0.00094000006 0.98700005 2.2922509e-38
-0.066740006 0.00094000006 0.98700005 2.2286095e-38
-0.081780002 0.0028200001 0.98700005 1.8149197e-38
-0.079900004 0.0028200001 0.98700005 2.3035566e-38
-0.078020006 0.0028200001 0.98700005 2.2758278e-38
-0.076140001 0.0028200001 0.98700005 2.3495843e-38
-0.074260004 0.0028200001 0.98700005 2.2852281e-38
-0.072379999 0.0028200001 0.98700005 2.2760086e-38
-0.070500001 0.0028200001 0.98700005 2.1918128e-38
-0.068620004 0.0028200001 0.98700005 2.1088368e-38
-0.066740006 0.0028200001 0.98700005 2.0445456e-38
-0.08194571 0.0047095241 0.98900002 1.5577096e-38
-0.079900004 0.0047000004 0.98700005 1.908053e-38
-0.078020006 0.0047000004 0.98700005 1.9354245e-38
-0.076140001 0.0047000004 0.98700005 1.9999615e-38
-0.074260004 0.0047000004 0.98700005 1.9910293e-38
-0.072379999 0.0047000004 0.98700005 1.9357119e-38
-0.070500001 0.0047000004 0.98700005 1.8333266e-38
-0.068620004 0.0047000004 0.98700005 1.8333266e-38
-0.066740006 0.0047000004 0.98700005 1.6857022e-38
-0.078020006 0.0065800003 0.98700005 1.833974e-38
-0.076140001 0.0065800003 0.98700005 1.8247545e-38
-0.074260004 0.0065800003 0.98700005 1.9078359e-38
-0.072379999 0.0065800003 0.98700005 1.926275e-38
-0.070500001 0.0065800003 0.98700005 2.0182902e-38
-0.068620004 0.0065800003 0.98700005 2.0920467e-38
-0.066740006 0.0065800003 0.98700005 2.1010151e-38
-0.078020006 0.0084600002 0.98700005 2.0832247e-38
-0.076140001 0.0084600002 0.98700005 2.0832247e-38
-0.074260004 0.0084600002 0.98700005 2.0923716e-38
-0.072379999 0.0084600002 0.98700005 2.1661281e-38
-0.070500001 0.0084600002 0.98700005 2.2856597e-38
-0.068620004 0.0084600002 0.98700005 2.0459511e-38
-0.064662859 0.010308572 0.98400003 2.3402786e-38
-0.027094286 0.010277143 0.98100007 1.2606608e-38
-0.079900004 0.01222 0.98700005 2.3325847e-38
-0.066537142 0.012182858 0.98400003 2.0449322e-38
-0.064662859 0.012182858 0.98400003 2.3502942e-38
-0.079900004 0.0141 0.98700005 2.3509846e-38
-0.077782862 0.014057143 0.98400003 2.3325845e-38
-0.075908571 0.014057143 0.98400003 2.341804e-38
-0.074034289 0.014057143 0.98400003 2.3417324e-38
-0.072160006 0.014057143 0.98400003 2.3232933e-38
-0.070285715 0.014057143 0.98400003 2.3043098e-38
-0.068411432 0.014057143 0.98400003 1.7326969e-38
-0.066537142 0.014057143 0.98400003 2.1554281e-38
-0.064662859 0.014057143 0.98400003 2.3503354e-38
-0.079900004 0.015980002 0.98700005 2.3504419e-38
-0.077782862 0.015931429 0.98400003 2.2586089e-38
-0.075908571 0.015931429 0.98400003 2.2125111e-38
-0.074034289 0.015931429 0.98400003 2.3137811e-38
-0.072160006 0.015931429 0.98400003 2.3322203e-38
-0.070285715 0.015931429 0.98400003 2.2112872e-38
-0.068411432 0.015931429 0.98400003 1.9531395e-38
-0.066537142 0.015931429 0.98400003 2.2474079e-38
-0.064662859 0.015931429 0.98400003 2.3501916e-38
-0.077782862 0.017805716 0.98400003 1.7057136e-38
-0.075908571 0.017805716 0.98400003 1.5858593e-38
-0.074034289 0.017805716 0.98400003 1.7424709e-38
-0.072160006 0.017805716 0.98400003 1.91764e-38
-0.070285715 0.017805716 0.98400003 2.1187966e-38
-0.068411432 0.017805716 0.98400003 2.026601e-38
-0.066537142 0.017805716 0.98400003 2.2382915e-38
-0.083659999 0.01974 0.98700005 1.658356e-38
-0.081531428 0.019680001 0.98400003 1.3549058e-38
-0.079657145 0.019680001 0.98400003 1.4655406e-38
-0.077782862 0.019680001 0.98400003 1.4296588e-38
-0.075908571 0.019680001 0.98400003 1.4388783e-38
-0.074034289 0.019680001 0.98400003 1.6135131e-38
-0.072160006 0.019680001 0.98400003 1.67805e-38
-0.070285715 0.019680001 0.98400003 1.9990555e-38
-0.068411432 0.019680001 0.98400003 1.925299e-38
-0.083659999 0.02162 0.98700005 1.8613662e-38
-0.079657145 0.021554286 0.98400003 1.723156e-38
-0.077782862 0.021554286 0.98400003 1.5580825e-38
-0.075908571 0.021554286 0.98400003 1.5212048e-38
-0.074034289 0.021554286 0.98400003 1.4928395e-38
-0.072160006 0.021554286 0.98400003 1.5112787e-38
-0.070285715 0.021554286 0.98400003 1.6380598e-38
-0.064465716 0.021488573 0.98100007 1.7934132e-38
-0.062597148 0.021488573 0.98100007 1.6456907e-38
-0.028874286 0.021422857 0.97800004 2.2756095e-38
-0.077782862 0.023428572 0.98400003 1.6316585e-38
-0.075908571 0.023428572 0.98400003 1.5302448e-38
-0.074034289 0.023428572 0.98400003 1.529348e-38
-0.072160006 0.023428572 0.98400003 1.4279343e-38
-0.070285715 0.023428572 0.98400003 1.7479347e-38
-0.064465716 0.023357144 0.98100007 1.663914e-38
-0.062597148 0.023357144 0.98100007 1.6450449e-38
-0.028874286 0.023285715 0.97800004 2.2756108e-38
-0.027094286 0.023357144 0.98100007 1.5011675e-38
-0.079900004 0.025380002 0.98700005 2.239333e-38
-0.074034289 0.025302857 0.98400003 1.7044453e-38
-0.072160006 0.025302857 0.98400003 1.3541072e-38
-0.070285715 0.025302857 0.98400003 1.7024147e-38
-0.064465716 0.025225716 0.98100007 1.7570503e-38
-0.062597148 0.025225716 0.98100007 1.7660155e-38
-0.027094286 0.025225716 0.98100007 1.5289321e-38
-0.068411432 0.027177144 0.98400003 1.8225853e-38
-0.062597148 0.027094286 0.98100007 1.8401683e-38
-0.027094286 0.027094286 0.98100007 1.4923072e-38
-0.078020006 0.029140001 0.98700005 2.2298089e-38
-0.076140001 0.029140001 0.98700005 2.3496973e-38
-0.074260004 0.029140001 0.98700005 2.1190056e-38
-0.068411432 0.029051431 0.98400003 1.7774171e-38
-0.028874286 0.028874286 0.97800004 2.2945183e-38
-0.027094286 0.028962858 0.98100007 1.4739772e-38
-0.025225716 0.028962858 0.98100007 1.2877475e-38
-0.023500001 0.029140001 0.98700005 1.5366757e-38
-0.078020006 0.031020002 0.98700005 2.2296654e-38
-0.076140001 0.031020002 0.98700005 2.3126402e-38
-0.074260004 0.031020002 0.98700005 2.2480409e-38
-0.066537142 0.030925713 0.98400003 1.7953643e-38
-0.030642856 0.030642856 0.97500002 2.3497254e-38
-0.028874286 0.030737145 0.97800004 2.2945909e-38
-0.027094286 0.03083143 0.98100007 1.5293672e-38
-0.025302857 0.030925713 0.98400003 1.2786343e-38
-0.023500001 0.031020002 0.98700005 1.5183429e-38
-0.021860953 0.031365715 0.99800003 1.2895834e-38
-0.085540004 0.032900002 0.98700005 2.2668461e-38
-0.078020006 0.032900002 0.98700005 2.2296295e-38
-0.076140001 0.032900002 0.98700005 2.2296295e-38
-0.074260004 0.032900002 0.98700005 2.2388131e-38
-0.072379999 0.032900002 0.98700005 2.2941296e-38
-0.070500001 0.032900002 0.98700005 2.0728301e-38
-0.064662859 0.0328 0.98400003 1.7956077e-38
-0.027094286 0.032700002 0.98100007 1.6032291e-38
-0.025302857 0.0328 0.98400003 1.3806611e-38
-0.02354762 0.03296667 0.98900002 1.509735e-38
-0.085713334 0.034850478 0.98900002 2.257624e-38
-0.083659999 0.034779999 0.98700005 2.1285501e-38
-0.078020006 0.034779999 0.98700005 2.2203384e-38
-0.076140001 0.034779999 0.98700005 2.2111189e-38
-0.074260004 0.034779999 0.98700005 2.2202307e-38
-0.072379999 0.034779999 0.98700005 2.3032055e-38
-0.070500001 0.034779999 0.98700005 2.2019075e-38
-0.064662859 0.034674287 0.98400003 1.7221374e-38
-0.027094286 0.034568571 0.98100007 1.6311787e-38
-0.025302857 0.034674287 0.98400003 1.40843e-38
-0.023619048 0.034956191 0.99200004 1.4821865e-38
-0.083659999 0.036660001 0.98700005 2.1375802e-38
-0.078020006 0.036660001 0.98700005 2.2295578e-38
-0.076140001 0.036660001 0.98700005 2.2203384e-38
-0.074260004 0.036660001 0.98700005 2.2294502e-38
-0.072379999 0.036660001 0.98700005 2.2202307e-38
-0.070500001 0.036660001 0.98700005 2.2294862e-38
-0.027177144 0.03654857 0.98400003 1.6950698e-38
-0.025302857 0.03654857 0.98400003 1.2521667e-38
-0.023619048 0.036845718 0.99200004 1.2337276e-38
-0.081780002 0.038540002 0.98700005 2.2293793e-38
-0.079900004 0.038540002 0.98700005 2.2846966e-38
-0.078020006 0.038540002 0.98700005 2.2479693e-38
-0.076140001 0.038540002 0.98700005 2.2203106e-38
-0.074260004 0.038540002 0.98700005 2.2292094e-38
-0.072379999 0.038540002 0.98700005 2.2292094e-38
-0.070500001 0.038540002 0.98700005 2.2384295e-38
-0.068620004 0.038540002 0.98700005 2.2476491e-38
-0.023619048 0.038735237 0.99200004 1.252598e-38
-0.021795239 0.038852382 0.99500006 1.3634116e-38
-0.08194571 0.040501904 0.98900002 2.1744206e-38
-0.078020006 0.04042 0.98700005 1.9068114e-38
-0.076140001 0.04042 0.98700005 1.6947615e-38
-0.074260004 0.04042 0.98700005 1.5189103e-38
-0.072379999 0.04042 0.98700005 1.3990564e-38
-0.070500001 0.04042 0.98700005 1.3438116e-38
-0.068620004 0.04042 0.98700005 1.3345922e-38
-0.066740006 0.04042 0.98700005 1.3260902e-38
-0.027177144 0.040297143 0.98400003 1.6318626e-38
-0.02354762 0.040501904 0.98900002 1.3538022e-38
-0.021729525 0.040624764 0.99200004 1.427987e-38
-0.080061905 0.042385716 0.98900002 1.916113e-38
-0.076140001 0.042300001 0.98700005 1.3545736e-38
-0.074260004 0.042300001 0.98700005 1.0313557e-38
-0.072379999 0.042300001 0.98700005 9.5760029e-39
-0.070500001 0.042300001 0.98700005 7.1857688e-39
-0.068620004 0.042300001 0.98700005 9.5828412e-39
-0.066740006 0.042300001 0.98700005 1.2259045e-38
-0.027177144 0.04217143 0.98400003 1.8254735e-38
-0.025380002 0.042300001 0.98700005 1.4276993e-38
-0.02354762 0.042385716 0.98900002 1.3908211e-38
-0.021729525 0.042514287 0.99200004 1.4649003e-38
-0.0781781 0.044269525 0.98900002 1.3353534e-38
-0.076294288 0.044269525 0.98900002 1.722575e-38
-0.074260004 0.044180002 0.98700005 2.1475689e-38
-0.072379999 0.044180002 0.98700005 2.3319602e-38
-0.070500001 0.044180002 0.98700005 2.3324756e-38
-0.068620004 0.044180002 0.98700005 2.3509867e-38
-0.066740006 0.044180002 0.98700005 2.341769e-38
-0.027177144 0.044045717 0.98400003 1.9545474e-38
-0.025380002 0.044180002 0.98700005 1.5107851e-38
-0.0781781 0.046153337 0.98900002 1.6494314e-38
-0.076294288 0.046153337 0.98900002 1.9352379e-38
-0.072379999 0.046060003 0.98700005 2.3508082e-38
-0.070500001 0.046060003 0.98700005 2.3418043e-38
-0.068620004 0.046060003 0.98700005 2.3418043e-38
-0.066740006 0.046060003 0.98700005 2.341769e-38
-0.047940001 0.046060003 0.98700005 2.3417687e-38
-0.027177144 0.045919999 0.98400003 1.9914256e-38
-0.025380002 0.046060003 0.98700005 1.5753934e-38
-0.0781781 0.048037145 0.98900002 2.341804e-38
-0.076294288 0.048037145 0.98900002 2.341804e-38
-0.074410483 0.048037145 0.98900002 2.341769e-38
-0.072379999 0.047940001 0.98700005 2.341769e-38
-0.070500001 0.047940001 0.98700005 2.341769e-38
-0.068620004 0.047940001 0.98700005 2.341769e-38
-0.066740006 0.047940001 0.98700005 2.341769e-38
-0.064860001 0.047940001 0.98700005 2.341769e-38
-0.049668573 0.047794286 0.98400003 2.1202844e-38
-0.0781781 0.04992095 0.98900002 2.0837204e-38
-0.076294288 0.04992095 0.98900002 2.3142095e-38
-0.074410483 0.04992095 0.98900002 2.31411e-38
-0.070500001 0.049819998 0.98700005 2.341769e-38
-0.10266762 0.051804762 0.98900002 1.8534456e-38
-0.0781781 0.051804762 0.98900002 1.5769877e-39
-0.076294288 0.051804762 0.98900002 1.1349715e-38
-0.074410483 0.051804762 0.98900002 2.156835e-38
-0.072526664 0.051804762 0.98900002 2.350878e-38
-0.093248576 0.053688571 0.98900002 2.1203842e-38
-0.085713334 0.053688571 0.98900002 2.341769e-38
-0.0781781 0.053688571 0.98900002 2.823224e-40
-0.076294288 0.053688571 0.98900002 7.8423613e-39
-0.074410483 0.053688571 0.98900002 1.9815201e-38
-0.072526664 0.053688571 0.98900002 2.3508068e-38
-0.070642859 0.053688571 0.98900002 2.341769e-38
-0.068759046 0.053688571 0.98900002 2.0651821e-38
-0.066875242 0.053688571 0.98900002 1.5406322e-38
-0.029140001 0.053580001 0.98700005 2.3325494e-38
-0.027315238 0.053688571 0.98900002 2.1758169e-38
-0.087862857 0.055740956 0.99200004 2.3417687e-38
-0.085713334 0.055572383 0.98900002 2.3417687e-38
-0.0781781 0.055572383 0.98900002 1.8377609e-40
-0.076294288 0.055572383 0.98900002 8.5728609e-39
-0.074410483 0.055572383 0.98900002 1.9537555e-38
-0.072526664 0.055572383 0.98900002 2.3507009e-38
-0.070642859 0.055572383 0.98900002 2.3326167e-38
-0.068759046 0.055572383 0.98900002 4.7030085e-39
-0.066875242 0.055572383 0.98900002 4.2568981e-39
-0.027315238 0.055572383 0.98900002 2.2583639e-38
-0.085713334 0.057456192 0.98900002 2.3232936e-38
-0.0781781 0.057456192 0.98900002 1.561593e-39
-0.076294288 0.057456192 0.98900002 4.4196575e-39
-0.072526664 0.057456192 0.98900002 2.3499096e-38
-0.068759046 0.057456192 0.98900002 2.1168869e-39
-0.066875242 0.057456192 0.98900002 1.1973476e-38
-0.027315238 0.057456192 0.98900002 2.3490024e-38
-0.087862857 0.059520002 0.99200004 1.1885365e-38
-0.085973337 0.059520002 0.99200004 9.1291876e-39
-0.08382953 0.059340004 0.98900002 5.7179493e-39
-0.0781781 0.059340004 0.98900002 7.921721e-39
-0.066875242 0.059340004 0.98900002 9.2264378e-39
-0.027315238 0.059340004 0.98900002 2.1193103e-38
-0.087862857 0.061409526 0.99200004 1.2810386e-38
-0.085973337 0.061409526 0.99200004 9.8650907e-39
-0.0781781 0.061223812 0.98900002 1.0965619e-38
-0.066875242 0.061223812 0.98900002 1.1153857e-38
-0.087862857 0.063299052 0.99200004 2.2399826e-38
-0.080061905 0.063107617 0.98900002 1.7518251e-38
-0.051700003 0.062980004 0.98700005 1.9263839e-38
-0.027315238 0.063107617 0.98900002 2.2027245e-38
-0.082194284 0.065188579 0.99200004 1.1054212e-38
-0.080061905 0.064991429 0.98900002 1.8983036e-38
-0.074410483 0.064991429 0.98900002 1.1703716e-38
-0.051700003 0.064860001 0.98700005 1.8704197e-38
-0.085973337 0.067078099 0.99200004 1.7792292e-38
-0.082194284 0.067078099 0.99200004 2.0834427e-38
-0.080061905 0.066875242 0.98900002 2.1940775e-38
-0.070857145 0.067078099 0.99200004 2.046884e-38
-0.068967618 0.067078099 0.99200004 2.0297136e-39
-0.088128574 0.06917619 0.99500006 1.3097515e-38
-0.08623334 0.06917619 0.99500006 1.4566584e-38
-0.08408381 0.068967618 0.99200004 2.249539e-38
-0.076525718 0.068967618 0.99200004 1.8406336e-40
-0.074636191 0.068967618 0.99200004 3.2153186e-39
-0.072746672 0.068967618 0.99200004 2.3501235e-38
-0.070857145 0.068967618 0.99200004 2.0471418e-38
-0.068967618 0.068967618 0.99200004 4.7059652e-39
-0.076525718 0.070857145 0.99200004 9.2593458e-40
-0.074636191 0.070857145 0.99200004 9.201206e-41
-0.072746672 0.070857145 0.99200004 1.8438486e-38
-0.070857145 0.070857145 0.99200004 2.1298655e-38
-0.068967618 0.070857145 0.99200004 1.9731329e-38
-0.072746672 0.072746672 0.99200004 1.733894e-38
-0.070857145 0.072746672 0.99200004 2.1573793e-38
-0.068967618 0.072746672 0.99200004 2.3141109e-38
-0.084338099 0.074861906 0.99500006 5.9858664e-39
-0.068967618 0.074636191 0.99200004 2.1941847e-38
-0.027398096 0.078415245 0.99200004 1.7975701e-38
-0.073186666 0.080790475 0.99800003 2.0003565e-38
-0.027398096 0.080304772 0.99200004 1.3839486e-38
-0.073186666 0.082691431 0.99800003 1.0595632e-38
-0.07128571 0.082691431 0.99800003 1.0411491e-38
-0.027398096 0.082194284 0.99200004 1.9730578e-38
-0.073186666 0.08459238 0.99800003 1.0593009e-38
-0.07128571 0.08459238 0.99800003 1.0958916e-38
-0.027398096 0.08408381 0.99200004 2.258468e-38
-0.025585715 0.084338099 0.99500006 2.2766207e-38
-0.073186666 0.086493336 0.99800003 2.0913029e-38
-0.07128571 0.086493336 0.99800003 2.2208406e-38
-0.073186666 0.088394284 0.99800003 2.3489864e-38
-0.07128571 0.088394284 0.99800003 2.2668032e-38
-0.073186666 0.09029524 0.99800003 2.3489494e-38
-0.07128571 0.09029524 0.99800003 2.2858159e-38
-0.073186666 0.092196189 0.99800003 2.3493455e-38
-0.07128571 0.092196189 0.99800003 2.2952958e-38
-0.073186666 0.094097145 0.99800003 2.3493191e-38
-0.07128571 0.094097145 0.99800003 2.2952222e-38
-0.075087622 0.095998101 0.99800003 2.2291366e-38
-0.073186666 0.095998101 0.99800003 2.3497472e-38
-0.09848763 0.09848763 1.0040001 2.2104822e-38
-0.073406667 0.10200667 1.001 2.0094123e-38
-0.071500003 0.10200667 1.001 1.9995764e-38
-0.073406667 0.10391334 1.001 2.0272097e-38
-0.071500003 0.10391334 1.001 1.8244413e-38
-0.073406667 0.10582001 1.001 1.9150655e-38
-0.071500003 0.10582001 1.001 1.6767511e-38
-0.073406667 0.10772667 1.001 1.9241022e-38
-0.071500003 0.10772667 1.001 1.5569704e-38
-0.073406667 0.10963333 1.001 1.7484675e-38
-0.071500003 0.10963333 1.001 1.4285499e-38
-0.073406667 0.11154 1.001 1.8040392e-38
-0.071500003 0.11154 1.001 1.2635737e-38
-0.073406667 0.11344667 1.001 2.3499374e-38
-0.071500003 0.11344667 1.001 2.1754894e-38
-0.073406667 0.11535333 1.001 2.3498742e-38
-0.071500003 0.11535333 1.001 2.2402414e-38
-0.073406667 0.11726001 1.001 1.9157654e-38
-0.071500003 0.11726001 1.001 2.2025318e-38
-0.073406667 0.11916667 1.001 1.8428699e-38
-0.071500003 0.11916667 1.001 2.2014903e-38
-0.073846675 0.12947144 1.0070001 2.1643478e-38
-0.073846675 0.13138954 1.0070001 2.1452918e-38
-0.020260001 0.13603143 1.013 1.0597806e-38
-0.020260001 0.13796096 1.013 1.1151345e-38
-0.099959053 0.16012858 1.0190001 1.2551688e-38
-0.12600952 0.16448571 1.01 1.3636985e-38
-0.07235714 0.16497429 1.013 2.2474815e-38
-0.12445429 0.16690381 1.013 1.3176374e-38
-0.07235714 0.16690381 1.013 2.2284653e-38
-0.07235714 0.16883335 1.013 2.1917316e-38
-0.10025334 0.17228001 1.0220001 2.0064393e-38
-0.072571434 0.17320381 1.016 2.2489293e-38
-0.072571434 0.17513905 1.016 2.2858893e-38
-0.072571434 0.1770743 1.016 2.2674399e-38
-0.072571434 0.17900953 1.016 2.2292756e-38
-0.072571434 0.18094477 1.016 1.9421055e-38
-0.072571434 0.18288 1.016 1.7014319e-38
-0.072571434 0.18481524 1.016 1.7664044e-38
-0.072571434 0.18675049 1.016 1.7480359e-38
-0.070844762 0.19506572 1.0190001 1.6651302e-38
