# .PCD v0.7 - Point Cloud Data file format
VERSION 0.7
FIELDS x y z rgb
SIZE 4 4 4 4
TYPE F F F F
COUNT 1 1 1 1
WIDTH 284
HEIGHT 1
VIEWPOINT 0 0 0 1 0 0 0
POINTS 284
DATA ascii
-0.045225713 -0.14115904 1.439 9.1219569e-39
-0.042484764 -0.14115904 1.439 9.3059656e-39
-0.039743807 -0.14115904 1.439 9.9513351e-39
-0.050919048 -0.13899525 1.4450001 1.4565786e-38
-0.047966667 -0.13841809 1.439 1.5946585e-38
-0.045225713 -0.13841809 1.439 1.7145128e-38
-0.042484764 -0.13841809 1.439 1.7696484e-38
-0.039743807 -0.13841809 1.439 1.7973071e-38
-0.037002858 -0.13841809 1.439 1.7512828e-38
-0.034261905 -0.13841809 1.439 1.7236242e-38
-0.053671431 -0.13624287 1.4450001 1.705511e-38
-0.050919048 -0.13624287 1.4450001 1.6317545e-38
-0.048166666 -0.13624287 1.4450001 1.6776708e-38
-0.042484764 -0.13567714 1.439 1.8339718e-38
-0.039743807 -0.13567714 1.439 1.8431913e-38
-0.037002858 -0.13567714 1.439 1.8157131e-38
-0.034261905 -0.13567714 1.439 1.7880545e-38
-0.031520952 -0.13567714 1.439 1.7512125e-38
-0.050919048 -0.13349049 1.4450001 1.8621347e-38
-0.048166666 -0.13349049 1.4450001 1.8804643e-38
-0.045225713 -0.13293619 1.439 1.9173426e-38
-0.042484764 -0.13293619 1.439 1.9171997e-38
-0.039743807 -0.13293619 1.439 1.9079801e-38
-0.037002858 -0.13293619 1.439 1.8434444e-38
-0.034261905 -0.13293619 1.439 1.8250053e-38
-0.031520952 -0.13293619 1.439 1.852663e-38
-0.050919048 -0.13073811 1.4450001 1.7606835e-38
-0.048166666 -0.13073811 1.4450001 1.6960018e-38
-0.045225713 -0.13019525 1.439 1.7605387e-38
-0.042484764 -0.13019525 1.439 1.8158213e-38
-0.039743807 -0.13019525 1.439 1.7881626e-38
-0.037002858 -0.13019525 1.439 1.7420658e-38
-0.034261905 -0.13019525 1.439 1.7328462e-38
-0.031520952 -0.13019525 1.439 1.769581e-38
-0.050919048 -0.12798572 1.4450001 1.6129541e-38
-0.048166666 -0.12798572 1.4450001 1.4745164e-38
-0.045225713 -0.12745428 1.439 1.4007599e-38
-0.042484764 -0.12745428 1.439 1.5022124e-38
-0.039743807 -0.12745428 1.439 1.4837733e-38
-0.037002858 -0.12745428 1.439 1.4376032e-38
-0.034261905 -0.12745428 1.439 1.3546271e-38
-0.031520952 -0.12745428 1.439 1.4279555e-38
-0.050919048 -0.12523334 1.4450001 1.6773468e-38
-0.048166666 -0.12523334 1.4450001 1.5207572e-38
-0.045225713 -0.12471334 1.439 1.4838789e-38
-0.042484764 -0.12471334 1.439 1.6034827e-38
-0.039743807 -0.12471334 1.439 1.5573849e-38
-0.037002858 -0.12471334 1.439 1.4374965e-38
-0.034261905 -0.12471334 1.439 1.3084226e-38
-0.050919048 -0.12248096 1.4450001 1.6489289e-38
-0.048166666 -0.12248096 1.4450001 1.6395678e-38
-0.042484764 -0.12197238 1.439 1.6486792e-38
-0.039743807 -0.12197238 1.439 1.6763379e-38
-0.037002858 -0.12197238 1.439 1.5654899e-38
-0.050919048 -0.11972857 1.4450001 1.4630974e-38
-0.048166666 -0.11972857 1.4450001 1.4906479e-38
-0.045225713 -0.11923143 1.439 1.4814284e-38
-0.042484764 -0.11923143 1.439 1.5180895e-38
-0.039743807 -0.11923143 1.439 1.5273091e-38
-0.039080955 -0.1064619 1.4150001 1.1762509e-38
-0.033571433 -0.10608572 1.4100001 1.6090963e-38
-0.028200002 -0.10608572 1.4100001 1.6368611e-38
-0.033571433 -0.10340001 1.4100001 1.4802387e-38
-0.036385715 -0.10107143 1.4150001 1.2871319e-38
-0.033571433 -0.10071429 1.4100001 1.3977651e-38
-0.030885715 -0.10071429 1.4100001 1.498497e-38
-0.036257144 -0.098028578 1.4100001 1.3806946e-38
-0.033571433 -0.098028578 1.4100001 1.2977185e-38
-0.030885715 -0.098028578 1.4100001 1.4813496e-38
-0.033571433 -0.095342867 1.4100001 1.1876554e-38
-0.030885715 -0.095342867 1.4100001 1.4453032e-38
-0.033571433 -0.092657149 1.4100001 1.3539655e-38
-0.033428572 -0.089588568 1.404 1.4185793e-38
-0.030754285 -0.089588568 1.404 1.3820331e-38
-0.028080001 -0.089588568 1.404 1.511107e-38
-0.036102857 -0.086914286 1.404 1.6951324e-38
-0.033428572 -0.086914286 1.404 1.9256215e-38
-0.030754285 -0.086914286 1.404 2.0182902e-38
-0.028080001 -0.086914286 1.404 2.0736076e-38
0.03062286 -0.086542867 1.3980001 1.178587e-38
-0.036102857 -0.084240004 1.404 1.6395241e-38
-0.033428572 -0.084240004 1.404 1.9898675e-38
-0.030754285 -0.084240004 1.404 2.1009788e-38
-0.028080001 -0.084240004 1.404 2.1747353e-38
-0.036102857 -0.081565715 1.404 1.713746e-38
-0.033428572 -0.081565715 1.404 1.7229655e-38
-0.030754285 -0.081565715 1.404 1.9354521e-38
-0.028080001 -0.081565715 1.404 2.1014043e-38
-0.033428572 -0.078891434 1.404 1.7415126e-38
-0.030754285 -0.078891434 1.404 1.520898e-38
-0.028080001 -0.078891434 1.404 1.7237284e-38
-0.033428572 -0.076217145 1.404 1.7878598e-38
-0.030754285 -0.076217145 1.404 1.446745e-38
-0.028080001 -0.076217145 1.404 1.3545493e-38
-0.033428572 -0.073542856 1.404 1.6404927e-38
-0.030754285 -0.073542856 1.404 1.520312e-38
-0.028080001 -0.073542856 1.404 1.5387511e-38
-0.033428572 -0.070868574 1.404 1.6956346e-38
-0.030754285 -0.070868574 1.404 1.7139968e-38
-0.028080001 -0.070868574 1.404 1.8430707e-38
-0.030754285 -0.068194285 1.404 1.7047363e-38
-0.025514286 -0.068485714 1.4100001 1.8613242e-38
-0.025514286 -0.065800004 1.4100001 1.8519561e-38
-0.028200002 -0.063114285 1.4100001 1.8518137e-38
-0.025514286 -0.063114285 1.4100001 1.8701438e-38
-0.041451432 -0.060171429 1.404 1.5580927e-38
-0.025514286 -0.060428575 1.4100001 1.8793632e-38
-0.025514286 -0.05774286 1.4100001 1.8514975e-38
-0.025514286 -0.052371431 1.4100001 9.2144062e-39
-0.022828571 -0.052371431 1.4100001 1.1888079e-38
-0.028080001 -0.049474288 1.404 1.8901099e-38
-0.025514286 -0.049685717 1.4100001 1.9358546e-38
-0.022828571 -0.049685717 1.4100001 2.2032219e-38
-0.028080001 -0.046800002 1.404 1.6869973e-38
-0.025514286 -0.047000002 1.4100001 1.659721e-38
-0.022828571 -0.047000002 1.4100001 2.2497731e-38
-0.028080001 -0.044125713 1.404 4.5164746e-39
-0.025514286 -0.044314288 1.4100001 4.9716724e-39
-0.022828571 -0.044314288 1.4100001 2.1566876e-38
-0.025514286 -0.041628573 1.4100001 1.5629971e-39
-0.022828571 -0.041628573 1.4100001 1.9633338e-38
-0.022828571 -0.038942859 1.4100001 1.7787369e-38
-0.020142859 -0.038942859 1.4100001 1.6780318e-38
-0.022828571 -0.036257144 1.4100001 1.7322314e-38
-0.020142859 -0.036257144 1.4100001 1.4476544e-38
-0.020214286 -0.028300002 1.4150001 1.3092207e-38
-0.020214286 -0.025604764 1.4150001 1.4476541e-38
-0.020214286 -0.022909526 1.4150001 1.6227119e-38
0.012034286 -0.017382858 1.404 1.8990177e-38
-0.017519047 -0.01482381 1.4150001 9.7812847e-39
-0.025713336 -0.012180001 1.4210001 1.0402881e-38
-0.017519047 -0.012128572 1.4150001 1.9078143e-38
-0.017519047 -0.0094333338 1.4150001 2.349092e-38
-0.01482381 0.0013476191 1.4150001 1.244658e-38
-0.01482381 0.0040428573 1.4150001 1.1344943e-38
-0.012180001 0.012180001 1.4210001 1.3193175e-38
-0.012180001 0.014886668 1.4210001 1.5403726e-38
-0.012180001 0.017593335 1.4210001 1.5403057e-38
-0.012180001 0.020300003 1.4210001 1.9354897e-38
-0.012180001 0.023006668 1.4210001 2.1189436e-38
-0.0094733341 0.025713336 1.4210001 1.9715803e-38
-0.0094733341 0.028420003 1.4210001 1.9806917e-38
-0.0094733341 0.031126669 1.4210001 2.1377842e-38
-0.025821906 0.033976194 1.427 1.896983e-38
-0.0094733341 0.033833336 1.4210001 2.1103401e-38
-0.055720955 0.036694285 1.427 1.8515785e-38
-0.0094733341 0.036540005 1.4210001 2.0730253e-38
-0.0094733341 0.039246671 1.4210001 1.9160795e-38
-0.0067666671 0.041953336 1.4210001 2.1465356e-38
-0.0095133334 0.044848572 1.427 2.054478e-38
-0.0067952382 0.044848572 1.427 2.1466736e-38
-0.004077143 0.044848572 1.427 2.1284521e-38
-0.0095133334 0.047566667 1.427 2.0454646e-38
-0.0067952382 0.047566667 1.427 2.0270255e-38
-0.004077143 0.047566667 1.427 2.0639753e-38
-0.0095133334 0.050284766 1.427 1.9991571e-38
-0.0067952382 0.050284766 1.427 1.9991571e-38
-0.004077143 0.050284766 1.427 1.9901174e-38
-0.0095133334 0.053002857 1.427 1.7775324e-38
-0.0067952382 0.053002857 1.427 1.8789476e-38
-0.004077143 0.053002857 1.427 1.8880943e-38
-0.0067952382 0.055720955 1.427 1.8879536e-38
-0.004077143 0.055720955 1.427 1.9798959e-38
-0.0013590476 0.055720955 1.427 1.9798959e-38
-0.015075238 0.058930475 1.439 1.9065728e-38
-0.012334286 0.058930475 1.439 1.9250119e-38
-0.004077143 0.058439046 1.427 1.9798611e-38
-0.0013590476 0.058439046 1.427 2.0259589e-38
-0.015075238 0.061671425 1.439 1.9614949e-38
-0.012334286 0.061671425 1.439 1.9891535e-38
-0.0095933331 0.061671425 1.439 1.9981947e-38
-0.0068238098 0.061414286 1.4330001 1.9428773e-38
-0.0040942859 0.061414286 1.4330001 1.95195e-38
-0.001364762 0.061414286 1.4330001 2.0349261e-38
-0.015075238 0.064412385 1.439 1.9152535e-38
-0.012334286 0.064412385 1.439 1.9336927e-38
-0.0095933331 0.064412385 1.439 1.9613153e-38
-0.0068238098 0.064143814 1.4330001 1.9336567e-38
-0.0040942859 0.064143814 1.4330001 1.9335465e-38
-0.001364762 0.064143814 1.4330001 1.9704248e-38
0.001364762 0.064143814 1.4330001 1.9705697e-38
0.015012382 0.064143814 1.4330001 2.145635e-38
-0.012334286 0.067153335 1.439 2.0074116e-38
-0.0095933331 0.067153335 1.439 2.0260312e-38
-0.0068523809 0.067153335 1.439 1.9614943e-38
-0.0040942859 0.066873334 1.4330001 1.9151074e-38
-0.001364762 0.066873334 1.4330001 1.9796443e-38
0.001364762 0.066873334 1.4330001 1.9613135e-38
0.0040942859 0.066873334 1.4330001 1.9705331e-38
-0.012334286 0.069894284 1.439 2.0445047e-38
-0.0095933331 0.069894284 1.439 2.0539047e-38
-0.0068523809 0.069894284 1.439 2.0539047e-38
-0.0040942859 0.069602862 1.4330001 1.9984094e-38
-0.001364762 0.069602862 1.4330001 1.943092e-38
0.001364762 0.069602862 1.4330001 1.9522019e-38
0.0040942859 0.069602862 1.4330001 1.8968845e-38
0.028420003 0.069020011 1.4210001 1.3718025e-38
-0.012334286 0.072635233 1.439 2.0263816e-38
-0.0095933331 0.072635233 1.439 1.9989048e-38
-0.0068523809 0.072635233 1.439 2.0450026e-38
-0.001364762 0.072332382 1.4330001 2.008234e-38
0.001364762 0.072332382 1.4330001 1.9711397e-38
0.0040942859 0.072332382 1.4330001 1.9250419e-38
0.028420003 0.071726672 1.4210001 1.3809492e-38
-0.012334286 0.07537619 1.439 2.119146e-38
-0.0095933331 0.07537619 1.439 2.0637232e-38
-0.0068523809 0.07537619 1.439 2.0360645e-38
-0.0041114283 0.07537619 1.439 2.0637585e-38
-0.0013704762 0.07537619 1.439 2.1836128e-38
0.001364762 0.07506191 1.4330001 2.1466627e-38
0.0040942859 0.07506191 1.4330001 2.1466627e-38
0.028420003 0.074433342 1.4210001 1.3532542e-38
-0.012334286 0.078117147 1.439 2.0916343e-38
-0.0095933331 0.078117147 1.439 2.0637605e-38
-0.0068523809 0.078117147 1.439 1.9531257e-38
-0.0041114283 0.078117147 1.439 1.9437209e-38
-0.0013704762 0.078117147 1.439 1.9990383e-38
0.001364762 0.077791438 1.4330001 2.1466958e-38
0.0040942859 0.077791438 1.4330001 2.2204523e-38
0.0095133334 0.07746572 1.427 1.6944099e-38
0.028420003 0.077140011 1.4210001 1.3438527e-38
-0.012334286 0.080858096 1.439 1.9348232e-38
-0.0095933331 0.080858096 1.439 1.9436506e-38
-0.0068523809 0.080858096 1.439 1.7776984e-38
-0.0041114283 0.080858096 1.439 1.8235086e-38
-0.0013704762 0.080858096 1.439 1.8142891e-38
0.0013704762 0.080858096 1.439 1.9531186e-38
0.0040942859 0.080520958 1.4330001 2.3496643e-38
0.0068238098 0.080520958 1.4330001 2.2480056e-38
0.028420003 0.079846673 1.4210001 1.3530019e-38
-0.0095933331 0.083599046 1.439 1.9343241e-38
-0.0068523809 0.083599046 1.439 1.7407133e-38
-0.0041114283 0.083599046 1.439 1.8231857e-38
-0.0013704762 0.083599046 1.439 1.9153799e-38
0.0013704762 0.083599046 1.439 1.9621945e-38
0.0041114283 0.083599046 1.439 2.3494131e-38
0.0068238098 0.083250478 1.4330001 2.2572662e-38
0.025821906 0.08290191 1.427 1.5553303e-38
0.028420003 0.082553342 1.4210001 1.3343469e-38
-0.0095933331 0.086339995 1.439 1.8602069e-38
-0.0068523809 0.086339995 1.439 1.6942573e-38
-0.0041114283 0.086339995 1.439 1.7219873e-38
-0.0013704762 0.086339995 1.439 2.1184257e-38
0.0013704762 0.086339995 1.439 1.9078188e-38
0.0041114283 0.086339995 1.439 1.9723558e-38
0.012334286 0.086339995 1.439 1.6751092e-38
0.017741906 0.085980006 1.4330001 1.8312678e-38
0.023200953 0.085980006 1.4330001 1.8130442e-38
0.025821906 0.085620001 1.427 1.6194334e-38
0.028420003 0.085260011 1.4210001 1.3620056e-38
-0.0095933331 0.089080952 1.439 1.8415169e-38
-0.0068523809 0.089080952 1.439 1.7677616e-38
-0.0041114283 0.089080952 1.439 1.6485548e-38
-0.0013704762 0.089080952 1.439 2.2017258e-38
0.0013704762 0.089080952 1.439 1.7889006e-38
0.0041114283 0.089080952 1.439 1.6782658e-38
0.0068523809 0.089080952 1.439 1.5768854e-38
0.0095933331 0.089080952 1.439 1.2818594e-38
0.023298094 0.089080952 1.439 1.8407039e-38
0.025930477 0.088709526 1.4330001 1.5825561e-38
-0.0095933331 0.091821909 1.439 1.8416246e-38
-0.0068523809 0.091821909 1.439 2.0536717e-38
-0.0041114283 0.091821909 1.439 1.9718101e-38
-0.0013704762 0.091821909 1.439 2.2207383e-38
0.0013704762 0.091821909 1.439 1.9362293e-38
0.0041114283 0.091821909 1.439 1.8716924e-38
0.0068523809 0.091821909 1.439 1.7795378e-38
0.0095933331 0.091821909 1.439 1.4015357e-38
0.025930477 0.091439053 1.4330001 1.5456791e-38
0.02854 0.09105619 1.427 1.324662e-38
-0.0095933331 0.094562858 1.439 1.8511357e-38
-0.0068523809 0.094562858 1.439 2.1277226e-38
-0.0041114283 0.094562858 1.439 1.9904384e-38
-0.0013704762 0.094562858 1.439 2.1102927e-38
0.0013704762 0.094562858 1.439 1.9269834e-38
0.0068809525 0.094957143 1.4450001 1.8436861e-38
0.0096333344 0.094957143 1.4450001 1.4195863e-38
0.025930477 0.094168574 1.4330001 1.5089465e-38
-0.0095933331 0.097303808 1.439 2.1000316e-38
-0.0068523809 0.097303808 1.439 2.1553489e-38
-0.0041114283 0.097303808 1.439 1.8795162e-38
0.0041285716 0.097709522 1.4450001 1.6587188e-38
0.0068809525 0.097709522 1.4450001 1.6125141e-38
-0.0068523809 0.10004476 1.439 1.9618871e-38
