# .PCD v0.7 - Point Cloud Data file format
VERSION 0.7
FIELDS x y z rgb
SIZE 4 4 4 4
TYPE F F F F
COUNT 1 1 1 1
WIDTH 919
HEIGHT 1
VIEWPOINT 0 0 0 1 0 0 0
POINTS 919
DATA ascii
-0.094203815 0.019940954 0.72200006 1.7424624e-38
-0.092828579 0.019940954 0.72200006 1.7608299e-38
-0.091453344 0.019940954 0.72200006 1.8161473e-38
-0.089828581 0.019885715 0.72000003 1.8254384e-38
-0.095579058 0.021316191 0.72200006 1.5487434e-38
-0.094203815 0.021316191 0.72200006 1.6132803e-38
-0.092828579 0.021316191 0.72200006 1.6224999e-38
-0.091453344 0.021316191 0.72200006 1.6224999e-38
-0.089828581 0.021257143 0.72000003 1.6132819e-38
-0.095579058 0.022691431 0.72200006 1.4934973e-38
-0.094203815 0.022691431 0.72200006 1.5672538e-38
-0.092828579 0.022691431 0.72200006 1.5947696e-38
-0.091453344 0.022691431 0.72200006 1.5947696e-38
-0.089828581 0.022628572 0.72000003 1.5395967e-38
-0.088457145 0.022628572 0.72000003 1.5949141e-38
-0.094203815 0.024066668 0.72200006 2.2402456e-38
-0.092828579 0.024066668 0.72200006 2.2495015e-38
-0.091453344 0.024066668 0.72200006 2.2679406e-38
-0.092957146 0.025477143 0.72300005 2.341769e-38
-0.091580003 0.025477143 0.72300005 2.341769e-38
-0.090078101 0.025441907 0.72200006 2.341769e-38
-0.084577151 0.025441907 0.72200006 2.341769e-38
-0.082971431 0.02537143 0.72000003 2.341769e-38
-0.12809049 0.02700286 0.72700006 2.0097954e-38
-0.1079562 0.026817145 0.72200006 2.3141103e-38
-0.10564286 0.026928572 0.72500002 2.1481229e-38
-0.10454953 0.02700286 0.72700006 2.2218078e-38
-0.1015 0.026928572 0.72500002 2.3048182e-38
-0.097357146 0.026928572 0.72500002 2.3232936e-38
-0.095976189 0.026928572 0.72500002 2.341769e-38
-0.092957146 0.026854288 0.72300005 2.3233299e-38
-0.091580003 0.026854288 0.72300005 2.341769e-38
-0.090202861 0.026854288 0.72300005 2.341769e-38
-0.088702865 0.026817145 0.72200006 2.341769e-38
-0.084577151 0.026817145 0.72200006 2.3417687e-38
-0.066976197 0.026928572 0.72500002 2.3325494e-38
-0.12911904 0.028309524 0.72500002 1.7791974e-38
-0.12809049 0.028387621 0.72700006 1.9451495e-38
-0.10672858 0.028231429 0.72300005 2.0928771e-38
-0.10288095 0.028309524 0.72500002 2.2772323e-38
-0.1015 0.028309524 0.72500002 2.2586487e-38
-0.10011905 0.028309524 0.72500002 2.2586487e-38
-0.098738097 0.028309524 0.72500002 2.2310261e-38
-0.097357146 0.028309524 0.72500002 2.3140021e-38
-0.095976189 0.028309524 0.72500002 2.3141103e-38
-0.092957146 0.028231429 0.72300005 2.2864516e-38
-0.091580003 0.028231429 0.72300005 2.3325494e-38
-0.090078101 0.028192384 0.72200006 2.341769e-38
-0.088702865 0.028192384 0.72200006 2.3233299e-38
-0.066976197 0.028309524 0.72500002 2.3325494e-38
-0.12911904 0.029690476 0.72500002 2.3141103e-38
-0.12809049 0.029772382 0.72700006 2.3141103e-38
-0.10426191 0.029690476 0.72500002 2.341769e-38
-0.10288095 0.029690476 0.72500002 2.341769e-38
-0.1015 0.029690476 0.72500002 2.341769e-38
-0.10011905 0.029690476 0.72500002 2.3325494e-38
-0.098738097 0.029690476 0.72500002 2.3325494e-38
-0.097357146 0.029690476 0.72500002 2.3325494e-38
-0.095976189 0.029690476 0.72500002 2.3325494e-38
-0.092957146 0.029608574 0.72300005 2.3233299e-38
-0.091453344 0.029567622 0.72200006 2.3325494e-38
-0.090078101 0.029567622 0.72200006 2.3325494e-38
-0.088702865 0.029567622 0.72200006 2.3325494e-38
-0.12911904 0.031071428 0.72500002 2.341769e-38
-0.12809049 0.031157147 0.72700006 2.341769e-38
-0.10011905 0.031071428 0.72500002 2.341769e-38
-0.098738097 0.031071428 0.72500002 2.341769e-38
-0.097357146 0.031071428 0.72500002 2.341769e-38
-0.095976189 0.031071428 0.72500002 2.3325494e-38
-0.092957146 0.030985717 0.72300005 2.3325494e-38
-0.091453344 0.030942859 0.72200006 2.3325494e-38
-0.090078101 0.030942859 0.72200006 2.3325494e-38
-0.12911904 0.032452382 0.72500002 2.3417687e-38
-0.12809049 0.032541908 0.72700006 2.3417687e-38
-0.094595239 0.032452382 0.72500002 2.341769e-38
-0.092828579 0.032318097 0.72200006 2.341769e-38
-0.091453344 0.032318097 0.72200006 2.341769e-38
-0.090078101 0.032318097 0.72200006 2.341769e-38
-0.12911904 0.033833336 0.72500002 2.341769e-38
-0.12809049 0.033926666 0.72700006 2.341769e-38
-0.10658097 0.033693336 0.72200006 2.341769e-38
-0.094595239 0.033833336 0.72500002 2.341769e-38
-0.092828579 0.033693336 0.72200006 2.341769e-38
-0.091453344 0.033693336 0.72200006 2.341769e-38
-0.090078101 0.033693336 0.72200006 2.341769e-38
-0.13916859 0.035311431 0.72700006 2.3233299e-38
-0.12911904 0.035214286 0.72500002 2.341769e-38
-0.12809049 0.035311431 0.72700006 1.8715713e-38
-0.10840476 0.035214286 0.72500002 2.3508791e-38
-0.091453344 0.035068572 0.72200006 2.1019169e-38
-0.090078101 0.035068572 0.72200006 2.138868e-38
-0.12911904 0.03659524 0.72500002 2.341769e-38
-0.12809049 0.036696192 0.72700006 1.604204e-38
-0.10840476 0.03659524 0.72500002 2.3505895e-38
-0.10702381 0.03659524 0.72500002 2.0095426e-38
-0.095976189 0.03659524 0.72500002 1.9724104e-38
-0.094595239 0.03659524 0.72500002 2.064606e-38
-0.091453344 0.036443811 0.72200006 1.8528085e-38
-0.090078101 0.036443811 0.72200006 1.8807218e-38
-0.12911904 0.03797619 0.72500002 2.341769e-38
-0.12809049 0.038080957 0.72700006 1.539667e-38
-0.10840476 0.03797619 0.72500002 2.3507725e-38
-0.10702381 0.03797619 0.72500002 2.1201417e-38
-0.10259715 0.037871432 0.72300005 1.4657362e-38
-0.1015 0.03797619 0.72500002 1.8433699e-38
-0.10011905 0.03797619 0.72500002 1.9724438e-38
-0.098738097 0.03797619 0.72500002 1.9446811e-38
-0.097357146 0.03797619 0.72500002 1.8248268e-38
-0.095976189 0.03797619 0.72500002 1.9446431e-38
-0.094595239 0.03797619 0.72500002 2.1474735e-38
-0.090078101 0.03781905 0.72200006 1.8714306e-38
-0.060071427 0.03797619 0.72500002 2.3233299e-38
-0.12911904 0.039357144 0.72500002 2.341769e-38
-0.12809049 0.039465718 0.72700006 1.8162539e-38
-0.10840476 0.039357144 0.72500002 2.3508086e-38
-0.10702381 0.039357144 0.72500002 2.2586863e-38
-0.1015 0.039357144 0.72500002 1.9724101e-38
-0.10011905 0.039357144 0.72500002 2.0830449e-38
-0.098738097 0.039357144 0.72500002 2.1106332e-38
-0.097357146 0.039357144 0.72500002 2.0368767e-38
-0.094595239 0.039357144 0.72500002 2.2855872e-38
-0.093214288 0.039357144 0.72500002 2.1938234e-38
-0.086071432 0.039248575 0.72300005 2.341769e-38
-0.084577151 0.03919429 0.72200006 2.341769e-38
-0.064214289 0.039357144 0.72500002 2.3325494e-38
-0.12911904 0.040738095 0.72500002 2.341769e-38
-0.12809049 0.040850475 0.72700006 2.341769e-38
-0.10840476 0.040738095 0.72500002 2.341769e-38
-0.10702381 0.040738095 0.72500002 2.3324778e-38
-0.1015 0.040738095 0.72500002 2.3231857e-38
-0.10011905 0.040738095 0.72500002 2.3508804e-38
-0.098738097 0.040738095 0.72500002 2.3325494e-38
-0.093214288 0.040738095 0.72500002 2.341769e-38
-0.091833338 0.040738095 0.72500002 2.341769e-38
-0.088825718 0.040625714 0.72300005 2.341769e-38
-0.086071432 0.040625714 0.72300005 2.341769e-38
-0.084577151 0.040569525 0.72200006 2.341769e-38
-0.064214289 0.040738095 0.72500002 2.341769e-38
-0.12911904 0.042119049 0.72500002 2.3417687e-38
-0.12809049 0.04223524 0.72700006 2.3417687e-38
-0.10702381 0.042119049 0.72500002 2.322862e-38
-0.094856195 0.04223524 0.72700006 2.3325129e-38
-0.093214288 0.042119049 0.72500002 2.3417687e-38
-0.091833338 0.042119049 0.72500002 2.3417687e-38
-0.090452388 0.042119049 0.72500002 2.3417687e-38
-0.088825718 0.04200286 0.72300005 2.3417687e-38
-0.086071432 0.04200286 0.72300005 2.3417687e-38
-0.084577151 0.041944765 0.72200006 2.3418043e-38
-0.12532096 0.043620002 0.72700006 1.8046914e-38
-0.10702381 0.043500002 0.72500002 1.8675263e-38
-0.09624096 0.043620002 0.72700006 1.9231305e-38
-0.094856195 0.043620002 0.72700006 2.0061066e-38
-0.09347143 0.043620002 0.72700006 2.0160176e-38
-0.091833338 0.043500002 0.72500002 2.1358719e-38
-0.090452388 0.043500002 0.72500002 2.0253473e-38
-0.088825718 0.043380003 0.72300005 1.9423712e-38
-0.086071432 0.043380003 0.72300005 2.0992495e-38
-0.084577151 0.043320004 0.72200006 2.1364117e-38
-0.097625725 0.045004766 0.72700006 2.0962887e-38
-0.09624096 0.045004766 0.72700006 2.0776346e-38
-0.094856195 0.045004766 0.72700006 2.0684152e-38
-0.09347143 0.045004766 0.72700006 2.1249558e-38
-0.090452388 0.044880953 0.72500002 2.1622007e-38
-0.088825718 0.044757146 0.72300005 2.051566e-38
-0.086071432 0.044757146 0.72300005 2.1431871e-38
-0.084577151 0.044695243 0.72200006 2.1529086e-38
-0.09347143 0.046389528 0.72700006 2.1059745e-38
-0.088825718 0.046134286 0.72300005 1.9318858e-38
-0.084694296 0.046134286 0.72300005 2.1149145e-38
-0.11701239 0.047774293 0.72700006 2.1248118e-38
-0.11578667 0.047840003 0.72800004 2.1340667e-38
-0.099475242 0.046065718 0.70100003 2.1156251e-38
-0.090202861 0.047511432 0.72300005 2.1906102e-38
-0.088702865 0.047445718 0.72200006 1.9048038e-38
-0.11701239 0.04915905 0.72700006 2.1430363e-38
-0.11578667 0.049226668 0.72800004 2.1154831e-38
-0.099475242 0.047400955 0.70100003 2.1248081e-38
-0.090202861 0.048888575 0.72300005 2.1440047e-38
-0.088702865 0.048820958 0.72200006 2.0702482e-38
-0.11701239 0.050543811 0.72700006 2.2440873e-38
-0.11562763 0.050543811 0.72700006 2.1154465e-38
-0.098000005 0.048666667 0.70000005 2.1248446e-38
-0.11774572 0.051642857 0.72300005 2.0226051e-38
-0.11816857 0.055412382 0.70100003 1.5078623e-38
-0.087526672 0.054621909 0.69100004 2.1066213e-38
-0.085140005 0.054779999 0.69300002 1.8206028e-38
-0.090159051 0.055938099 0.69100004 2.1893475e-38
-0.087526672 0.055938099 0.69100004 2.1250264e-38
-0.086460002 0.056100003 0.69300002 2.1248096e-38
-0.085140005 0.056100003 0.69300002 1.8021281e-38
-0.11418 0.05742 0.69300002 1.7647841e-38
-0.11253429 0.057254288 0.69100004 1.9764377e-38
-0.1112181 0.057254288 0.69100004 2.1977072e-38
-0.087526672 0.057254288 0.69100004 2.1250624e-38
-0.086210482 0.057254288 0.69100004 2.1247743e-38
-0.11566667 0.058824759 0.69400001 1.7094695e-38
-0.11418 0.058740001 0.69300002 1.6541521e-38
-0.11253429 0.058570478 0.69100004 1.8753813e-38
-0.1112181 0.058570478 0.69100004 2.1980639e-38
-0.10974286 0.058485717 0.69000006 2.1248096e-38
-0.10580001 0.058485717 0.69000006 2.1709081e-38
-0.093562864 0.058231428 0.68700004 2.2001955e-38
-0.09238857 0.058316194 0.68800002 2.0158043e-38
-0.091078095 0.058316194 0.68800002 2.1435758e-38
-0.08976762 0.058316194 0.68800002 2.1066975e-38
-0.086834289 0.058994289 0.69600004 2.1154456e-38
-0.085508578 0.058994289 0.69600004 1.9679342e-38
-0.084303811 0.059079047 0.69700003 2.1245972e-38
-0.11616667 0.060406666 0.69700003 1.7660153e-38
-0.11286 0.060060002 0.69300002 1.7192251e-38
-0.1112181 0.059886672 0.69100004 2.0419081e-38
-0.10974286 0.059800003 0.69000006 2.1341355e-38
-0.10580001 0.059800003 0.69000006 2.1800917e-38
-0.10272286 0.05954 0.68700004 2.1986757e-38
-0.10126667 0.059453338 0.68600005 2.1344968e-38
-0.099960007 0.059453338 0.68600005 2.3467988e-38
-0.098653339 0.059453338 0.68600005 2.1813936e-38
-0.097346671 0.059453338 0.68600005 2.1629545e-38
-0.09604001 0.059453338 0.68600005 2.1718506e-38
-0.094871432 0.05954 0.68700004 2.0519963e-38
-0.093562864 0.05954 0.68700004 2.1249913e-38
-0.09238857 0.059626669 0.68800002 2.069674e-38
-0.091078095 0.059626669 0.68800002 2.1339965e-38
-0.08976762 0.059626669 0.68800002 2.1616552e-38
-0.088714294 0.059800003 0.69000006 2.1249195e-38
-0.086584762 0.060146667 0.69400001 2.0872128e-38
-0.085508578 0.060320001 0.69600004 2.2439453e-38
-0.11800001 0.062000006 0.70000005 2.0902474e-38
-0.11616667 0.061734285 0.69700003 1.9606716e-38
-0.11467429 0.061645716 0.69600004 1.4535956e-38
-0.11286 0.061380003 0.69300002 1.6086996e-38
-0.1112181 0.061202858 0.69100004 1.8576261e-38
-0.10990191 0.061202858 0.69100004 2.0328668e-38
-0.10842858 0.061114289 0.69000006 2.1250624e-38
-0.10580001 0.061114289 0.69000006 2.1709803e-38
-0.10272286 0.060848575 0.68700004 2.2171517e-38
-0.10126667 0.060760003 0.68600005 2.1529024e-38
-0.099960007 0.060760003 0.68600005 2.1805611e-38
-0.098653339 0.060760003 0.68600005 2.1529068e-38
-0.097346671 0.060760003 0.68600005 2.0975894e-38
-0.09604001 0.060760003 0.68600005 2.1433975e-38
-0.094733343 0.060760003 0.68600005 2.0512019e-38
-0.091342866 0.061114289 0.69000006 2.134104e-38
-0.087400004 0.061114289 0.69000006 1.9771895e-38
-0.086584762 0.061468571 0.69400001 2.0869258e-38
-0.085508578 0.061645716 0.69600004 2.3456114e-38
-0.11467429 0.062971428 0.69600004 1.5837147e-38
-0.11302286 0.062790476 0.69400001 1.5549684e-38
-0.11154 0.062699996 0.69300002 1.4443336e-38
-0.10990191 0.062519051 0.69100004 1.8668488e-38
-0.10842858 0.062428575 0.69000006 2.05124e-38
-0.10580001 0.062428575 0.69000006 2.1340995e-38
-0.10272286 0.06215715 0.68700004 2.1339948e-38
-0.10126667 0.062066671 0.68600005 2.124703e-38
-0.099960007 0.062066671 0.68600005 2.0693856e-38
-0.098653339 0.062066671 0.68600005 2.1151594e-38
-0.097346671 0.062066671 0.68600005 2.124379e-38
-0.09604001 0.062066671 0.68600005 2.1154468e-38
-0.094733343 0.062066671 0.68600005 2.133886e-38
-0.093426675 0.062066671 0.68600005 2.1339598e-38
-0.091342866 0.062428575 0.69000006 2.1340311e-38
-0.090028577 0.062428575 0.69000006 1.968079e-38
-0.088842861 0.062519051 0.69100004 2.0590164e-38
-0.086584762 0.062790476 0.69400001 2.0965867e-38
-0.085508578 0.062971428 0.69600004 2.3476397e-38
-0.11302286 0.06411238 0.69400001 1.6303103e-38
-0.11154 0.06402 0.69300002 1.3537234e-38
-0.10990191 0.063835248 0.69100004 1.6734508e-38
-0.10842858 0.063742861 0.69000006 1.9039379e-38
-0.10580001 0.063742861 0.69000006 2.0606307e-38
-0.10272286 0.063465714 0.68700004 2.1525043e-38
-0.10126667 0.063373342 0.68600005 2.1247753e-38
-0.099960007 0.063373342 0.68600005 2.1063361e-38
-0.098653339 0.063373342 0.68600005 2.1246314e-38
-0.097346671 0.063373342 0.68600005 2.1154118e-38
-0.09604001 0.063373342 0.68600005 2.1339965e-38
-0.094733343 0.063373342 0.68600005 2.1063378e-38
-0.093426675 0.063373342 0.68600005 2.1154481e-38
-0.091342866 0.063742861 0.69000006 2.1060103e-38
-0.090028577 0.063742861 0.69000006 1.9953773e-38
-0.088842861 0.063835248 0.69100004 2.0684511e-38
-0.086584762 0.06411238 0.69400001 2.2188505e-38
-0.085508578 0.06429714 0.69600004 2.3486806e-38
-0.10990191 0.065151431 0.69100004 1.5451692e-38
-0.10858572 0.065151431 0.69100004 1.4806323e-38
-0.10711429 0.065057144 0.69000006 1.7649634e-38
-0.10580001 0.065057144 0.69000006 1.9401332e-38
-0.10272286 0.064774282 0.68700004 2.1152656e-38
-0.10141429 0.064774282 0.68700004 2.0966833e-38
-0.10010572 0.064774282 0.68700004 2.0874639e-38
-0.098653339 0.064680003 0.68600005 2.0963963e-38
-0.097346671 0.064680003 0.68600005 2.0410798e-38
-0.09604001 0.064680003 0.68600005 2.0679488e-38
-0.094733343 0.064680003 0.68600005 1.9480963e-38
-0.093562864 0.064774282 0.68700004 1.9935836e-38
-0.088842861 0.065151431 0.69100004 2.2669527e-38
-0.087526672 0.065151431 0.69100004 2.3509731e-38
-0.086584762 0.065434285 0.69400001 2.3417687e-38
-0.10711429 0.066371433 0.69000006 1.6364655e-38
-0.10580001 0.066371433 0.69000006 1.793196e-38
-0.10141429 0.066082858 0.68700004 1.9575669e-38
-0.092791438 0.066467628 0.69100004 2.317449e-38
-0.091475241 0.066467628 0.69100004 2.1533021e-38
-0.09042 0.066660002 0.69300002 2.347237e-38
-0.11037905 0.068078093 0.69400001 2.2025246e-38
-0.10448572 0.067685723 0.69000006 2.2186398e-38
-0.093971431 0.067685723 0.69000006 2.3325479e-38
-0.092791438 0.06778381 0.69100004 2.350987e-38
-0.090159051 0.06778381 0.69100004 2.341769e-38
-0.087526672 0.06778381 0.69100004 2.341769e-38
-0.11037905 0.069400005 0.69400001 2.2306465e-38
-0.10332096 0.069100007 0.69100004 2.2119748e-38
-0.095423818 0.069100007 0.69100004 2.350915e-38
-0.09410762 0.069100007 0.69100004 2.3418043e-38
-0.092791438 0.069100007 0.69100004 2.3418043e-38
-0.087526672 0.069100007 0.69100004 2.341769e-38
-0.1089 0.07062 0.69300002 1.771026e-38
-0.10494 0.07062 0.69300002 2.341769e-38
-0.10332096 0.070416197 0.69100004 2.341769e-38
-0.10200477 0.070416197 0.69100004 2.341769e-38
-0.10054287 0.070314296 0.69000006 2.341769e-38
-0.099228583 0.070314296 0.69000006 2.341769e-38
-0.097914286 0.070314296 0.69000006 2.341769e-38
-0.09674 0.070416197 0.69100004 2.341769e-38
-0.095423818 0.070416197 0.69100004 2.341769e-38
-0.09410762 0.070416197 0.69100004 2.341769e-38
-0.10463715 0.071732387 0.69100004 2.3417687e-38
-0.10332096 0.071732387 0.69100004 2.3417687e-38
-0.10200477 0.071732387 0.69100004 2.3417687e-38
-0.10068858 0.071732387 0.69100004 2.3417687e-38
-0.099372379 0.071732387 0.69100004 2.341769e-38
-0.098056197 0.071732387 0.69100004 2.341769e-38
-0.09674 0.071732387 0.69100004 2.341769e-38
-0.095423818 0.071732387 0.69100004 2.341769e-38
-0.09410762 0.071732387 0.69100004 2.3325494e-38
-0.10463715 0.073048577 0.69100004 1.9450404e-38
-0.10332096 0.073048577 0.69100004 1.9081621e-38
-0.10200477 0.073048577 0.69100004 2.0928042e-38
-0.10068858 0.073048577 0.69100004 2.1481216e-38
-0.10200477 0.074364766 0.69100004 2.1758159e-38
-0.10054287 0.07425715 0.69000006 2.194255e-38
-0.099228583 0.07425715 0.69000006 2.194256e-38
-0.097914286 0.07425715 0.69000006 2.1389386e-38
-0.096600004 0.07425715 0.69000006 2.1664894e-38
-0.10990191 0.075680956 0.69100004 1.9913822e-38
-0.10842858 0.075571433 0.69000006 2.3509818e-38
-0.10185716 0.075571433 0.69000006 2.341769e-38
-0.10054287 0.075571433 0.69000006 2.341769e-38
-0.099228583 0.075571433 0.69000006 2.341769e-38
-0.097914286 0.075571433 0.69000006 2.341769e-38
-0.096600004 0.075571433 0.69000006 2.341769e-38
-0.095285721 0.075571433 0.69000006 2.341769e-38
-0.093971431 0.075571433 0.69000006 2.341769e-38
-0.10448572 0.076885715 0.69000006 2.341769e-38
-0.10317144 0.076885715 0.69000006 2.341769e-38
-0.10185716 0.076885715 0.69000006 2.341769e-38
-0.10054287 0.076885715 0.69000006 2.341769e-38
-0.099228583 0.076885715 0.69000006 2.341769e-38
-0.097914286 0.076885715 0.69000006 2.341769e-38
-0.10448572 0.078200005 0.69000006 2.3325494e-38
-0.092254288 0.077860005 0.68700004 2.3233296e-38
-0.090945721 0.077860005 0.68700004 2.31411e-38
-0.088457145 0.077973336 0.68800002 2.3325492e-38
-0.087400004 0.078200005 0.69000006 2.3233296e-38
-0.10448572 0.079514287 0.69000006 2.3325494e-38
-0.098940954 0.079283811 0.68800002 2.3325494e-38
-0.097630478 0.079283811 0.68800002 2.3325494e-38
-0.096320003 0.079283811 0.68800002 2.3325494e-38
-0.092254288 0.07916858 0.68700004 2.231134e-38
-0.090945721 0.07916858 0.68700004 2.2310614e-38
-0.089637145 0.07916858 0.68700004 2.3416961e-38
-0.088457145 0.079283811 0.68800002 2.3417687e-38
-0.087400004 0.079514287 0.69000006 2.3233296e-38
-0.071628578 0.079514287 0.69000006 2.3325494e-38
-0.11842572 0.080477148 0.68700004 1.7798867e-38
-0.10418286 0.080594286 0.68800002 2.3325494e-38
-0.10287239 0.080594286 0.68800002 2.3325494e-38
-0.10156191 0.080594286 0.68800002 2.3325494e-38
-0.10025143 0.080594286 0.68800002 2.3325494e-38
-0.098940954 0.080594286 0.68800002 2.3325494e-38
-0.097630478 0.080594286 0.68800002 2.3325494e-38
-0.092254288 0.080477148 0.68700004 2.1573777e-38
-0.090945721 0.080477148 0.68700004 2.1572696e-38
-0.089637145 0.080477148 0.68700004 2.3508804e-38
-0.072731428 0.080594286 0.68800002 2.3325492e-38
-0.10549334 0.081904761 0.68800002 2.341769e-38
-0.10418286 0.081904761 0.68800002 2.3325494e-38
-0.10287239 0.081904761 0.68800002 2.3325494e-38
-0.10156191 0.081904761 0.68800002 2.3325494e-38
-0.10025143 0.081904761 0.68800002 2.3325494e-38
-0.098940954 0.081904761 0.68800002 2.3325494e-38
-0.097488575 0.081785724 0.68700004 2.3325494e-38
-0.096180007 0.081785724 0.68700004 2.3325494e-38
-0.10549334 0.083215237 0.68800002 2.3508808e-38
-0.10418286 0.083215237 0.68800002 2.341769e-38
-0.10287239 0.083215237 0.68800002 2.341769e-38
-0.10156191 0.083215237 0.68800002 2.341769e-38
-0.10025143 0.083215237 0.68800002 2.341769e-38
-0.098940954 0.083215237 0.68800002 2.341769e-38
-0.097488575 0.083094291 0.68700004 2.341769e-38
-0.096180007 0.083094291 0.68700004 2.341769e-38
-0.089506678 0.082973339 0.68600005 2.3508808e-38
-0.08832857 0.083094291 0.68700004 2.341769e-38
-0.10549334 0.084525719 0.68800002 2.3507274e-38
-0.10418286 0.084525719 0.68800002 2.3418025e-38
-0.10287239 0.084525719 0.68800002 2.3326188e-38
-0.10156191 0.084525719 0.68800002 2.3326185e-38
-0.10025143 0.084525719 0.68800002 2.3326185e-38
-0.09879715 0.084402859 0.68700004 2.332617e-38
-0.097488575 0.084402859 0.68700004 2.332617e-38
-0.096180007 0.084402859 0.68700004 2.3326167e-38
-0.093426675 0.084279999 0.68600005 2.2399923e-38
-0.092120007 0.084279999 0.68600005 2.2399923e-38
-0.090813339 0.084279999 0.68600005 2.277015e-38
-0.089506678 0.084279999 0.68600005 2.3509156e-38
-0.08832857 0.084402859 0.68700004 2.3418043e-38
-0.077746667 0.084279999 0.68600005 2.3417687e-38
-0.12086668 0.085586667 0.68600005 2.3234128e-38
-0.10549334 0.085836194 0.68800002 1.5946014e-38
-0.10418286 0.085836194 0.68800002 1.6963252e-38
-0.10287239 0.085836194 0.68800002 2.1757425e-38
-0.10156191 0.085836194 0.68800002 2.0752102e-38
-0.10025143 0.085836194 0.68800002 1.9092581e-38
-0.09879715 0.085711427 0.68700004 1.8910589e-38
-0.097488575 0.085711427 0.68700004 1.8541806e-38
-0.093426675 0.085586667 0.68600005 2.3134947e-38
-0.090813339 0.085586667 0.68600005 2.2948331e-38
-0.089637145 0.085711427 0.68700004 2.3502585e-38
-0.08832857 0.085711427 0.68700004 2.3041667e-38
-0.12086668 0.086893335 0.68600005 2.3142335e-38
-0.10549334 0.08714667 0.68800002 1.7787874e-38
-0.10418286 0.08714667 0.68800002 1.3373581e-38
-0.10287239 0.08714667 0.68800002 1.6600428e-38
-0.10156191 0.08714667 0.68800002 2.139455e-38
-0.10025143 0.08714667 0.68800002 2.0564789e-38
-0.098940954 0.08714667 0.68800002 1.8177429e-38
-0.097630478 0.08714667 0.68800002 1.7071082e-38
-0.093562864 0.087020002 0.68700004 2.313532e-38
-0.090945721 0.087020002 0.68700004 2.2473361e-38
-0.10549334 0.088457145 0.68800002 2.3322257e-38
-0.10418286 0.088457145 0.68800002 1.9455531e-38
-0.10287239 0.088457145 0.68800002 1.2356538e-38
-0.10156191 0.088457145 0.68800002 1.5220327e-38
-0.10025143 0.088457145 0.68800002 2.0383282e-38
-0.093562864 0.08832857 0.68700004 2.1544253e-38
-0.10549334 0.08976762 0.68800002 2.2956702e-38
-0.10418286 0.08976762 0.68800002 2.3233847e-38
-0.086893335 0.089506678 0.68600005 2.1243158e-38
-0.10549334 0.091078095 0.68800002 2.350876e-38
-0.10418286 0.091078095 0.68800002 2.3142305e-38
-0.10054287 0.091342866 0.69000006 1.4198281e-38
-0.099228583 0.091342866 0.69000006 1.5851309e-38
-0.090813339 0.090813339 0.68600005 2.0230891e-38
-0.081666671 0.090813339 0.68600005 1.9678366e-38
-0.10549334 0.09238857 0.68800002 2.3508036e-38
-0.10418286 0.09238857 0.68800002 2.3142318e-38
-0.10054287 0.092657149 0.69000006 1.9179379e-38
-0.099228583 0.092657149 0.69000006 1.5482173e-38
-0.11073524 0.093699045 0.68800002 1.5667547e-38
-0.10926571 0.093562864 0.68700004 1.7051134e-38
-0.10549334 0.093699045 0.68800002 2.3506996e-38
-0.10418286 0.093699045 0.68800002 2.3050391e-38
-0.10054287 0.093971431 0.69000006 2.3509629e-38
-0.099228583 0.093971431 0.69000006 2.156712e-38
-0.097914286 0.093971431 0.69000006 1.6219773e-38
-0.080360003 0.093426675 0.68600005 2.0238319e-38
-0.11466667 0.095009528 0.68800002 1.8903968e-38
-0.10926571 0.094871432 0.68700004 2.03675e-38
-0.10549334 0.095009528 0.68800002 2.350796e-38
-0.10418286 0.095009528 0.68800002 2.3050407e-38
-0.10054287 0.095285721 0.69000006 2.3509608e-38
-0.099228583 0.095285721 0.69000006 2.3142352e-38
-0.093699045 0.095009528 0.68800002 2.053004e-38
-0.11466667 0.096320003 0.68800002 2.3142371e-38
-0.10418286 0.096320003 0.68800002 2.2958539e-38
-0.10054287 0.096600004 0.69000006 2.3142221e-38
-0.099228583 0.096600004 0.69000006 2.3050431e-38
-0.095009528 0.096320003 0.68800002 1.7415765e-38
-0.093699045 0.096320003 0.68800002 1.9893183e-38
-0.10054287 0.097914286 0.69000006 2.2866006e-38
-0.099228583 0.097914286 0.69000006 2.2957848e-38
-0.09238857 0.097630478 0.68800002 2.0267664e-38
-0.10580001 0.099228583 0.69000006 2.2774127e-38
-0.10185716 0.099228583 0.69000006 2.2864551e-38
-0.10054287 0.099228583 0.69000006 2.268016e-38
-0.099228583 0.099228583 0.69000006 2.2864183e-38
-0.097914286 0.099228583 0.69000006 2.3325161e-38
-0.075352386 0.098940954 0.68800002 2.1536196e-38
-0.10580001 0.10054287 0.69000006 2.3049633e-38
-0.10448572 0.10054287 0.69000006 2.2956759e-38
-0.10317144 0.10054287 0.69000006 2.2772368e-38
-0.10185716 0.10054287 0.69000006 2.2863139e-38
-0.10054287 0.10054287 0.69000006 2.2770943e-38
-0.099228583 0.10054287 0.69000006 2.2862759e-38
-0.097914286 0.10054287 0.69000006 2.304715e-38
-0.091078095 0.10025143 0.68800002 1.8234727e-38
-0.075352386 0.10025143 0.68800002 2.17206e-38
-0.10580001 0.10185716 0.69000006 2.3231869e-38
-0.10448572 0.10185716 0.69000006 2.286205e-38
-0.10317144 0.10185716 0.69000006 2.2677659e-38
-0.10185716 0.10185716 0.69000006 2.2860984e-38
-0.10054287 0.10185716 0.69000006 2.2768788e-38
-0.099228583 0.10185716 0.69000006 2.2767706e-38
-0.090028577 0.10185716 0.69000006 1.6764642e-38
-0.075352386 0.10156191 0.68800002 2.2004389e-38
-0.10448572 0.10317144 0.69000006 2.2769126e-38
-0.10317144 0.10317144 0.69000006 2.2769126e-38
-0.10185716 0.10317144 0.69000006 2.276841e-38
-0.10054287 0.10317144 0.69000006 2.2584018e-38
-0.099228583 0.10317144 0.69000006 2.2674797e-38
-0.095009528 0.10287239 0.68800002 2.2858816e-38
-0.091078095 0.10287239 0.68800002 2.2763492e-38
-0.090028577 0.10317144 0.69000006 1.7047363e-38
-0.075352386 0.10287239 0.68800002 2.2094852e-38
-0.1221 0.10494 0.69300002 2.3234161e-38
-0.10726953 0.10463715 0.69100004 2.2677269e-38
-0.10595334 0.10463715 0.69100004 2.2953852e-38
-0.10463715 0.10463715 0.69100004 2.2769829e-38
-0.10332096 0.10463715 0.69100004 2.2769829e-38
-0.10185716 0.10448572 0.69000006 2.276841e-38
-0.10054287 0.10448572 0.69000006 2.2584018e-38
-0.099228583 0.10448572 0.69000006 2.2765924e-38
-0.097914286 0.10448572 0.69000006 2.2673728e-38
-0.09238857 0.10418286 0.68800002 2.3503854e-38
-0.091078095 0.10418286 0.68800002 2.2857468e-38
-0.090028577 0.10448572 0.69000006 2.1474533e-38
-0.10726953 0.10595334 0.69100004 2.2766952e-38
-0.10580001 0.10580001 0.69000006 2.3412312e-38
-0.10317144 0.10580001 0.69000006 2.2768435e-38
-0.10185716 0.10580001 0.69000006 2.2768075e-38
-0.10054287 0.10580001 0.69000006 2.2491488e-38
-0.099228583 0.10580001 0.69000006 2.2674084e-38
-0.095009528 0.10549334 0.68800002 2.2857483e-38
-0.093699045 0.10549334 0.68800002 2.2857162e-38
-0.09238857 0.10549334 0.68800002 2.3225945e-38
-0.091078095 0.10549334 0.68800002 2.294941e-38
-0.090028577 0.10580001 0.69000006 2.1750866e-38
-0.1256962 0.10726953 0.69100004 2.2958543e-38
-0.10726953 0.10726953 0.69100004 2.2675491e-38
-0.10580001 0.10711429 0.69000006 2.3044273e-38
-0.10448572 0.10711429 0.69000006 2.2860636e-38
-0.10317144 0.10711429 0.69000006 2.2676245e-38
-0.10185716 0.10711429 0.69000006 2.2859579e-38
-0.10054287 0.10711429 0.69000006 2.2767384e-38
-0.099228583 0.10711429 0.69000006 2.2675503e-38
-0.091342866 0.10711429 0.69000006 1.1390925e-38
-0.090028577 0.10711429 0.69000006 1.1114339e-38
-0.079283811 0.10680381 0.68800002 2.3509848e-38
-0.078200005 0.10711429 0.69000006 2.341769e-38
-0.10580001 0.10842858 0.69000006 2.2858974e-38
-0.10317144 0.10842858 0.69000006 2.322631e-38
-0.10185716 0.10842858 0.69000006 2.2950479e-38
-0.10054287 0.10842858 0.69000006 2.2581696e-38
-0.099228583 0.10842858 0.69000006 2.2853604e-38
-0.097914286 0.10842858 0.69000006 2.2484822e-38
-0.096600004 0.10842858 0.69000006 1.8796887e-38
-0.092657149 0.10842858 0.69000006 8.0130058e-39
-0.091342866 0.10842858 0.69000006 2.6639469e-39
-0.090028577 0.10842858 0.69000006 4.2312698e-39
-0.079283811 0.10811429 0.68800002 2.341769e-38
-0.11946 0.11022 0.69300002 2.1659812e-38
-0.11779906 0.10990191 0.69100004 2.2213337e-38
-0.10595334 0.10990191 0.69100004 2.1103349e-38
-0.10332096 0.10990191 0.69100004 1.6214122e-38
-0.10200477 0.10990191 0.69100004 1.0472959e-38
-0.10054287 0.10974286 0.69000006 9.5510023e-39
-0.099228583 0.10974286 0.69000006 7.992558e-39
-0.097914286 0.10974286 0.69000006 7.1631687e-39
-0.096600004 0.10974286 0.69000006 1.0119841e-38
-0.095285721 0.10974286 0.69000006 1.2148131e-38
-0.093971431 0.10974286 0.69000006 1.7507044e-38
-0.092657149 0.10974286 0.69000006 2.0826087e-38
-0.091342866 0.10974286 0.69000006 2.3326156e-38
-0.048458096 0.11085619 0.69700003 1.5386256e-38
-0.11946 0.11154 0.69300002 2.1664509e-38
-0.10758 0.11154 0.69300002 1.8527008e-38
-0.10595334 0.1112181 0.69100004 1.7605052e-38
-0.10463715 0.1112181 0.69100004 1.0704575e-38
-0.10332096 0.1112181 0.69100004 8.3075251e-39
-0.10200477 0.1112181 0.69100004 3.2285917e-42
-0.10054287 0.11105715 0.69000006 7.4079223e-40
-0.099228583 0.11105715 0.69000006 8.5479206e-44
-0.097914286 0.11105715 0.69000006 1.0135199e-39
-0.096600004 0.11105715 0.69000006 9.2187054e-39
-0.095285721 0.11105715 0.69000006 1.244555e-38
-0.093971431 0.11105715 0.69000006 2.2022142e-38
-0.092657149 0.11105715 0.69000006 2.3505556e-38
-0.091475241 0.1112181 0.69100004 2.341769e-38
-0.090159051 0.1112181 0.69100004 2.341769e-38
-0.048458096 0.11218382 0.69700003 1.5848666e-38
-0.11385048 0.11253429 0.69100004 2.194256e-38
-0.10463715 0.11253429 0.69100004 1.1524279e-38
-0.10332096 0.11253429 0.69100004 1.4566711e-38
-0.10200477 0.11253429 0.69100004 2.0651349e-38
-0.10068858 0.11253429 0.69100004 2.295624e-38
-0.099372379 0.11253429 0.69100004 2.3416971e-38
-0.098056197 0.11253429 0.69100004 2.3509167e-38
-0.095285721 0.11237144 0.69000006 2.341769e-38
-0.093971431 0.11237144 0.69000006 2.341769e-38
-0.092657149 0.11237144 0.69000006 2.341769e-38
-0.1155 0.11418 0.69300002 1.8626035e-38
-0.11385048 0.11385048 0.69100004 1.4385036e-38
-0.10626 0.11418 0.69300002 3.224448e-39
-0.10463715 0.11385048 0.69100004 1.7595602e-38
-0.10332096 0.11385048 0.69100004 2.0914644e-38
-0.10200477 0.11385048 0.69100004 2.3321529e-38
-0.10068858 0.11385048 0.69100004 2.3508441e-38
-0.099372379 0.11385048 0.69100004 2.341769e-38
-0.098056197 0.11385048 0.69100004 2.341769e-38
-0.090028577 0.11368572 0.69000006 2.3325494e-38
-0.10758 0.1155 0.69300002 2.341769e-38
-0.10595334 0.11516668 0.69100004 2.341769e-38
-0.10463715 0.11516668 0.69100004 2.341769e-38
-0.10332096 0.11516668 0.69100004 2.341769e-38
-0.10200477 0.11516668 0.69100004 2.341769e-38
-0.10068858 0.11516668 0.69100004 2.341769e-38
-0.099372379 0.11516668 0.69100004 2.341769e-38
-0.098056197 0.11516668 0.69100004 2.341769e-38
-0.09674 0.11516668 0.69100004 2.3325494e-38
-0.10758 0.11682 0.69300002 2.341769e-38
-0.10595334 0.11648286 0.69100004 2.341769e-38
-0.10463715 0.11648286 0.69100004 2.341769e-38
-0.10200477 0.11648286 0.69100004 2.341769e-38
-0.10068858 0.11648286 0.69100004 2.341769e-38
-0.099372379 0.11648286 0.69100004 2.3418043e-38
-0.098056197 0.11648286 0.69100004 2.3418043e-38
-0.09410762 0.11648286 0.69100004 2.3325494e-38
-0.075680956 0.11648286 0.69100004 2.341769e-38
-0.10626 0.11814 0.69300002 2.341769e-38
-0.10758 0.11946 0.69300002 2.341769e-38
-0.10595334 0.11911524 0.69100004 2.3325494e-38
-0.1023 0.11946 0.69300002 2.0204902e-39
-0.10098 0.11946 0.69300002 1.0102843e-39
-0.099660002 0.11946 0.69300002 1.1890687e-38
-0.098340005 0.11946 0.69300002 2.3509497e-38
-0.09702 0.11946 0.69300002 2.341769e-38
-0.095700003 0.11946 0.69300002 2.3325494e-38
-0.078313336 0.11911524 0.69100004 1.0080381e-40
-0.10758 0.12078 0.69300002 2.341769e-38
-0.10112571 0.12095428 0.69400001 1.3872855e-43
-0.099803805 0.12095428 0.69400001 7.2870799e-39
-0.09702 0.12078 0.69300002 2.341769e-38
-0.095700003 0.12078 0.69300002 2.3325494e-38
-0.10112571 0.12227619 0.69400001 5.511503e-40
-0.099803805 0.12227619 0.69400001 2.6690448e-39
-0.098481901 0.12227619 0.69400001 2.3506657e-38
-0.10141715 0.12528001 0.69600004 3.6753396e-40
-0.10274286 0.12660572 0.69600004 4.4238138e-39
-0.10141715 0.12660572 0.69600004 2.1720126e-43
-0.10009144 0.12660572 0.69600004 9.1984034e-41
-0.098765716 0.12660572 0.69600004 2.2309567e-38
-0.097440004 0.12660572 0.69600004 2.341769e-38
-0.078653328 0.12624191 0.69400001 5.5115451e-40
-0.10274286 0.12793143 0.69600004 1.1985201e-38
-0.10141715 0.12793143 0.69600004 1.2751816e-43
-0.10009144 0.12793143 0.69600004 1.3778912e-39
-0.098765716 0.12793143 0.69600004 2.3136056e-38
-0.097440004 0.12793143 0.69600004 2.341769e-38
-0.078653328 0.1275638 0.69400001 1.5612945e-39
-0.077554293 0.12793143 0.69600004 7.738043e-39
-0.10274286 0.12925714 0.69600004 1.5115536e-38
-0.10141715 0.12925714 0.69600004 1.193996e-39
-0.097440004 0.12925714 0.69600004 2.3416971e-38
-0.096114293 0.12925714 0.69600004 2.1849645e-38
-0.078653328 0.12888572 0.69400001 2.7563681e-40
-0.10406857 0.13058287 0.69600004 2.2676192e-38
-0.10274286 0.13058287 0.69600004 1.871255e-38
-0.10141715 0.13058287 0.69600004 8.2659794e-40
-0.096114293 0.13058287 0.69600004 2.1758888e-38
-0.10406857 0.13190858 0.69600004 2.267368e-38
-0.10274286 0.13190858 0.69600004 2.1756023e-38
-0.10141715 0.13190858 0.69600004 1.3807891e-39
-0.097440004 0.13190858 0.69600004 2.3324059e-38
-0.096114293 0.13190858 0.69600004 2.3324059e-38
-0.094924763 0.13209809 0.69700003 1.4838917e-38
-0.10406857 0.13323429 0.69600004 2.2498978e-38
-0.10274286 0.13323429 0.69600004 2.147946e-38
-0.10141715 0.13323429 0.69600004 1.0120318e-39
-0.098765716 0.13323429 0.69600004 1.4834183e-38
-0.097440004 0.13323429 0.69600004 2.3229714e-38
-0.096114293 0.13323429 0.69600004 2.3507374e-38
-0.094924763 0.13342571 0.69700003 1.7238167e-38
-0.10274286 0.13456 0.69600004 2.2862015e-38
-0.10141715 0.13456 0.69600004 1.3804331e-39
-0.10009144 0.13456 0.69600004 1.5613352e-39
-0.098765716 0.13456 0.69600004 1.0872376e-38
-0.097440004 0.13456 0.69600004 2.258468e-38
-0.096114293 0.13456 0.69600004 2.3508797e-38
-0.094924763 0.13475335 0.69700003 2.3326213e-38
-0.1042181 0.13608097 0.69700003 2.341769e-38
-0.10289048 0.13608097 0.69700003 2.3416971e-38
-0.10141715 0.13588572 0.69600004 1.0134331e-39
-0.10009144 0.13588572 0.69600004 2.0204846e-39
-0.098765716 0.13588572 0.69600004 4.9707448e-39
-0.097440004 0.13588572 0.69600004 2.0551359e-38
-0.096114293 0.13588572 0.69600004 2.3506657e-38
-0.10289048 0.13740857 0.69700003 2.341769e-38
-0.10156287 0.13740857 0.69700003 1.5673257e-39
-0.10009144 0.13721143 0.69600004 9.1984034e-41
-0.098765716 0.13721143 0.69600004 1.4573504e-43
-0.097580008 0.13740857 0.69700003 1.5108989e-38
-0.10289048 0.13873619 0.69700003 2.3326213e-38
-0.10156287 0.13873619 0.69700003 1.0148708e-39
-0.10023524 0.13873619 0.69700003 1.8379431e-40
-0.09890762 0.13873619 0.69700003 1.1210388e-43
-0.097580008 0.13873619 0.69700003 1.1230477e-38
-0.10303809 0.14026476 0.69800001 2.341769e-38
-0.10156287 0.14006381 0.69700003 1.2722997e-38
-0.10023524 0.14006381 0.69700003 2.7579095e-40
-0.10303809 0.14159428 0.69800001 2.341769e-38
-0.10170857 0.14159428 0.69800001 1.6318626e-38
-0.10303809 0.14292382 0.69800001 2.3417687e-38
-0.10170857 0.14292382 0.69800001 2.3417687e-38
-0.10037905 0.14292382 0.69800001 2.341769e-38
-0.099049523 0.14292382 0.69800001 2.341769e-38
-0.097720005 0.14292382 0.69800001 2.341769e-38
-0.10303809 0.14425333 0.69800001 2.341769e-38
-0.10170857 0.14425333 0.69800001 2.341769e-38
-0.10037905 0.14425333 0.69800001 2.341769e-38
-0.099049523 0.14425333 0.69800001 2.341769e-38
-0.097720005 0.14425333 0.69800001 2.341769e-38
-0.051333338 0.14466667 0.70000005 2.3325494e-38
-0.10037905 0.14558285 0.69800001 1.9265694e-38
-0.099049523 0.14558285 0.69800001 1.8989108e-38
-0.097720005 0.14558285 0.69800001 2.1572711e-38
-0.10569715 0.14691238 0.69800001 2.1759604e-38
-0.10037905 0.14691238 0.69800001 1.8990527e-38
-0.099049523 0.14691238 0.69800001 2.1387613e-38
-0.097720005 0.14691238 0.69800001 2.341769e-38
-0.096390471 0.14691238 0.69800001 2.341769e-38
-0.096390471 0.14824191 0.69800001 1.9268887e-38
-0.095333338 0.14866666 0.70000005 6.9055918e-39
-0.10200001 0.15000001 0.70000005 2.341769e-38
-0.096390471 0.14957143 0.69800001 7.7628067e-39
-0.095333338 0.15000001 0.70000005 2.9200818e-40
-0.10200001 0.15133335 0.70000005 6.4312173e-40
-0.10066667 0.15133335 0.70000005 3.2153186e-39
-0.096390471 0.15090095 0.69800001 1.0317507e-38
-0.095333338 0.15133335 0.70000005 1.5760908e-38
-0.10200001 0.15266669 0.70000005 2.8483353e-40
-0.10066667 0.15266669 0.70000005 6.8901733e-39
-0.096390471 0.15223049 0.69800001 1.8227939e-38
-0.076447621 0.15223049 0.69800001 2.0912477e-38
-0.10200001 0.15400001 0.70000005 1.9532981e-38
-0.10066667 0.15400001 0.70000005 2.1369011e-38
-0.099333346 0.15400001 0.70000005 2.2567554e-38
-0.10348096 0.15555525 0.70100003 2.2289226e-38
-0.10214572 0.15555525 0.70100003 2.2104834e-38
-0.099333346 0.15533334 0.70000005 2.3395185e-38
-0.098000005 0.15533334 0.70000005 2.2385372e-38
-0.10615143 0.15689048 0.70100003 2.2668047e-38
-0.10214572 0.15689048 0.70100003 2.1640219e-38
-0.098000005 0.15666668 0.70000005 2.2198068e-38
-0.10615143 0.15822572 0.70100003 2.2666287e-38
-0.10214572 0.15822572 0.70100003 2.1362903e-38
-0.10081048 0.15822572 0.70100003 2.1913903e-38
-0.1048162 0.15956095 0.70100003 2.0174752e-38
-0.1048162 0.1608962 0.70100003 1.9893181e-38
-0.10081048 0.1608962 0.70100003 2.1632999e-38
-0.098140001 0.1608962 0.70100003 2.2669804e-38
-0.10243714 0.16403334 0.70300001 2.2368759e-38
-0.10109809 0.16403334 0.70300001 2.210545e-38
-0.10243714 0.16537239 0.70300001 2.3485908e-38
-0.10109809 0.16537239 0.70300001 2.2668445e-38
-0.10243714 0.16671142 0.70300001 2.3492673e-38
-0.10109809 0.16671142 0.70300001 2.304656e-38
-0.10243714 0.16805048 0.70300001 2.35096e-38
-0.10109809 0.16805048 0.70300001 2.3234226e-38
-0.10243714 0.16938953 0.70300001 2.3417882e-38
-0.10109809 0.16938953 0.70300001 2.3326097e-38
-0.10243714 0.17072856 0.70300001 2.3417931e-38
-0.10109809 0.17072856 0.70300001 2.3326122e-38
-0.10243714 0.17206763 0.70300001 2.3509752e-38
-0.10109809 0.17206763 0.70300001 2.3326125e-38
-0.10243714 0.17340666 0.70300001 2.2773964e-38
-0.10109809 0.17340666 0.70300001 2.2762098e-38
-0.10258286 0.17633525 0.70400006 2.0719072e-38
-0.10124191 0.17633525 0.70400006 2.1908623e-38
-0.10152952 0.18087047 0.70600003 1.8677107e-38
-0.10181714 0.18812571 0.708 1.9810529e-38
-0.10089429 0.20788287 0.71100003 2.2957569e-38
-0.10389429 0.20982572 0.71300006 2.3142374e-38
-0.1025362 0.20982572 0.71300006 2.3142359e-38
-0.10389429 0.21118382 0.71300006 2.3509677e-38
-0.1025362 0.21118382 0.71300006 2.3234214e-38
-0.1011781 0.21118382 0.71300006 2.3234214e-38
-0.10389429 0.21254192 0.71300006 2.3507559e-38
-0.1025362 0.21254192 0.71300006 2.3326115e-38
-0.1025362 0.21390001 0.71300006 2.2488817e-38
-0.1025362 0.21525811 0.71300006 2.2210456e-38
-0.1025362 0.21661621 0.71300006 2.2767266e-38
-0.1011781 0.21661621 0.71300006 2.3504831e-38
-0.10268001 0.21828002 0.71400005 2.2581796e-38
-0.10404 0.21964 0.71400005 2.037018e-38
-0.10268001 0.21964 0.71400005 2.109587e-38
-0.10132001 0.21964 0.71400005 1.9159762e-38
-0.10268001 0.22100002 0.71400005 2.1737976e-38
-0.10132001 0.22100002 0.71400005 1.9986259e-38
-0.10268001 0.22236001 0.71400005 2.2394518e-38
-0.10433143 0.22571048 0.71600002 2.1750593e-38
-0.10132001 0.22508001 0.71400005 2.2486723e-38
-0.10569524 0.2270743 0.71600002 2.2117235e-38
-0.10433143 0.2270743 0.71600002 2.1748452e-38
-0.10569524 0.22843809 0.71600002 2.2668619e-38
-0.10447714 0.22875714 0.71700001 2.1470076e-38
-0.10296762 0.22843809 0.71600002 2.1747341e-38
-0.10569524 0.22980191 0.71600002 2.2675443e-38
-0.10433143 0.22980191 0.71600002 2.1015922e-38
-0.10296762 0.22980191 0.71600002 2.1839176e-38
-0.10160381 0.22980191 0.71600002 2.2576741e-38
-0.10433143 0.23116572 0.71600002 2.193354e-38
-0.10296762 0.23116572 0.71600002 2.1657316e-38
-0.10160381 0.23116572 0.71600002 2.2118294e-38
-0.10433143 0.23252952 0.71600002 2.2118657e-38
-0.10296762 0.23252952 0.71600002 2.221409e-38
-0.10296762 0.23389335 0.71600002 2.3324766e-38
-0.10447714 0.23558572 0.71700001 2.3322964e-38
-0.10311142 0.23558572 0.71700001 2.3048176e-38
-0.10311142 0.23695143 0.71700001 2.2954872e-38
-0.10174571 0.23695143 0.71700001 2.3508046e-38
-0.10174571 0.23831715 0.71700001 2.2581771e-38
-0.11040001 0.24205714 0.72000003 1.9780541e-38
-0.10339905 0.24172097 0.71900004 2.2194176e-38
-0.10202952 0.24172097 0.71900004 2.2470763e-38
-0.11161619 0.24309048 0.71900004 1.6553457e-38
-0.11040001 0.24342857 0.72000003 1.9595913e-38
-0.10765714 0.24342857 0.72000003 1.9878925e-38
-0.10628572 0.24342857 0.72000003 2.0059729e-38
-0.10339905 0.24309048 0.71900004 1.968836e-38
-0.10202952 0.24309048 0.71900004 2.3471622e-38
-0.1008 0.24342857 0.72000003 2.2572984e-38
-0.099290483 0.24309048 0.71900004 2.3503584e-38
-0.11161619 0.24446002 0.71900004 1.757551e-38
-0.11040001 0.2448 0.72000003 1.9235031e-38
-0.10765714 0.2448 0.72000003 2.1077494e-38
-0.10628572 0.2448 0.72000003 2.0984963e-38
-0.10491429 0.2448 0.72000003 1.7204942e-38
-0.10339905 0.24446002 0.71900004 1.8025586e-38
-0.10202952 0.24446002 0.71900004 2.1160216e-38
-0.1008 0.2448 0.72000003 2.1914272e-38
-0.099290483 0.24446002 0.71900004 2.3492762e-38
-0.11040001 0.24617143 0.72000003 2.2560926e-38
-0.10765714 0.24617143 0.72000003 2.2283611e-38
-0.10628572 0.24617143 0.72000003 2.1817986e-38
-0.10491429 0.24617143 0.72000003 1.7945769e-38
-0.10354286 0.24617143 0.72000003 1.8580663e-38
-0.10217144 0.24617143 0.72000003 1.7197728e-38
-0.1008 0.24617143 0.72000003 1.8951833e-38
-0.099428572 0.24617143 0.72000003 2.1625495e-38
-0.097920962 0.24582952 0.71900004 2.2197005e-38
-0.10765714 0.24754287 0.72000003 2.1732963e-38
-0.10628572 0.24754287 0.72000003 2.1265884e-38
-0.10491429 0.24754287 0.72000003 1.8039037e-38
-0.1008 0.24754287 0.72000003 1.7470627e-38
-0.099428572 0.24754287 0.72000003 1.7931598e-38
-0.098057151 0.24754287 0.72000003 2.1257406e-38
-0.10765714 0.2489143 0.72000003 2.1177619e-38
-0.10628572 0.2489143 0.72000003 2.099108e-38
-0.13464285 0.25202382 0.72500002 1.9422951e-38
-0.10765714 0.25028571 0.72000003 2.0902108e-38
-0.10628572 0.25028571 0.72000003 2.0992512e-38
-0.10383049 0.25098097 0.72200006 1.951271e-38
-0.10245524 0.25098097 0.72200006 1.7484406e-38
-0.10108001 0.25098097 0.72200006 1.8307987e-38
-0.099704772 0.25098097 0.72200006 1.7939204e-38
-0.13564858 0.25270572 0.72300005 1.9425099e-38
-0.13464285 0.25340477 0.72500002 2.0437443e-38
-0.10520572 0.2523562 0.72200006 2.0624075e-38
-0.10383049 0.2523562 0.72200006 2.0530102e-38
-0.10245524 0.2523562 0.72200006 1.9054971e-38
-0.10108001 0.2523562 0.72200006 1.9235335e-38
-0.099704772 0.2523562 0.72200006 2.0249487e-38
-0.13564858 0.25408286 0.72300005 1.9977152e-38
-0.10520572 0.25373146 0.72200006 2.1270161e-38
-0.10383049 0.25373146 0.72200006 2.1084707e-38
-0.10259715 0.25408286 0.72300005 1.9148599e-38
-0.10122 0.25408286 0.72300005 1.923678e-38
-0.099704772 0.25373146 0.72200006 1.9974345e-38
-0.098329529 0.25373146 0.72200006 2.0622633e-38
-0.11945238 0.25616667 0.72500002 2.0248368e-38
-0.10122 0.25546002 0.72300005 1.9143515e-38
-0.099842861 0.25546002 0.72300005 1.8221559e-38
-0.098329529 0.25510669 0.72200006 1.8127893e-38
-0.10564286 0.25754765 0.72500002 2.2006622e-38
-0.10426191 0.25754765 0.72500002 2.1545281e-38
-0.10122 0.25683716 0.72300005 1.9143515e-38
-0.099842861 0.25683716 0.72300005 1.8037168e-38
-0.098465718 0.25683716 0.72300005 1.7943436e-38
-0.10978571 0.25892857 0.72500002 2.14527e-38
-0.10840476 0.25892857 0.72500002 2.1729286e-38
-0.10702381 0.25892857 0.72500002 2.1821119e-38
-0.10564286 0.25892857 0.72500002 2.1452337e-38
-0.10426191 0.25892857 0.72500002 2.1175725e-38
-0.10288095 0.25892857 0.72500002 2.0253768e-38
-0.099842861 0.25821432 0.72300005 1.8590367e-38
-0.098465718 0.25821432 0.72300005 1.8867947e-38
-0.097088575 0.25821432 0.72300005 2.0804055e-38
-0.10978571 0.26030955 0.72500002 2.1360113e-38
-0.10840476 0.26030955 0.72500002 2.2005482e-38
-0.10702381 0.26030955 0.72500002 2.2097366e-38
-0.10564286 0.26030955 0.72500002 2.1636387e-38
-0.10426191 0.26030955 0.72500002 2.0991686e-38
-0.10288095 0.26030955 0.72500002 2.0622904e-38
-0.1015 0.26030955 0.72500002 2.0067967e-38
-0.10011905 0.26030955 0.72500002 1.8685033e-38
-0.098465718 0.25959143 0.72300005 1.9234594e-38
-0.10564286 0.26169047 0.72500002 2.1180448e-38
-0.10426191 0.26169047 0.72500002 2.1361531e-38
-0.10288095 0.26169047 0.72500002 2.117714e-38
-0.1015 0.26169047 0.72500002 2.0345974e-38
-0.10011905 0.26169047 0.72500002 1.9331822e-38
-0.098738097 0.26169047 0.72500002 1.914314e-38
-0.10288095 0.26307142 0.72500002 2.1178222e-38
-0.1015 0.26307142 0.72500002 2.0439239e-38
-0.10011905 0.26307142 0.72500002 1.9517282e-38
-0.098738097 0.26307142 0.72500002 1.9145998e-38
-0.1015 0.2644524 0.72500002 2.0070429e-38
-0.10011905 0.2644524 0.72500002 1.9978234e-38
-0.098738097 0.2644524 0.72500002 1.9054166e-38
