# .PCD v0.7 - Point Cloud Data file format
VERSION 0.7
FIELDS x y z rgb
SIZE 4 4 4 4
TYPE F F F F
COUNT 1 1 1 1
WIDTH 284
HEIGHT 1
VIEWPOINT 0 0 0 1 0 0 0
POINTS 284
DATA ascii
-0.019920954 -0.18235333 1.6090001 6.634463e-39
-0.037952382 -0.17761716 1.5940001 1.1612298e-38
-0.034916192 -0.17761716 1.5940001 9.7680704e-39
-0.031880002 -0.17761716 1.5940001 8.8461141e-39
-0.019920954 -0.17928858 1.6090001 1.1610503e-38
-0.0015180953 -0.17761716 1.5940001 1.0413064e-38
-0.044024762 -0.17458096 1.5940001 1.4194517e-38
-0.040988572 -0.17458096 1.5940001 1.5389082e-38
-0.037952382 -0.17458096 1.5940001 1.5204691e-38
-0.034916192 -0.17458096 1.5940001 1.4009041e-38
-0.031880002 -0.17458096 1.5940001 1.2257324e-38
-0.028843811 -0.17458096 1.5940001 1.2900889e-38
-0.022985715 -0.17622381 1.6090001 1.4282379e-38
-0.019920954 -0.17622381 1.6090001 1.4835552e-38
-0.0015180953 -0.17458096 1.5940001 1.5021391e-38
-0.044024762 -0.17154478 1.5940001 1.861847e-38
-0.040988572 -0.17154478 1.5940001 1.8711006e-38
-0.037952382 -0.17154478 1.5940001 1.8895397e-38
-0.034916192 -0.17154478 1.5940001 1.8250043e-38
-0.031880002 -0.17154478 1.5940001 1.7512478e-38
-0.028843811 -0.17154478 1.5940001 1.7972367e-38
-0.025807621 -0.17154478 1.5940001 1.8248954e-38
-0.016856192 -0.17315906 1.6090001 1.8340797e-38
-0.044024762 -0.16850857 1.5940001 1.8526993e-38
-0.040988572 -0.16850857 1.5940001 1.8343671e-38
-0.037952382 -0.16850857 1.5940001 1.8528062e-38
-0.034916192 -0.16850857 1.5940001 1.8803214e-38
-0.031880002 -0.16850857 1.5940001 1.825004e-38
-0.028843811 -0.16850857 1.5940001 1.8433718e-38
-0.025807621 -0.16850857 1.5940001 1.8341523e-38
-0.019821906 -0.16924858 1.6010001 1.8432286e-38
0.016615238 -0.16766286 1.5860001 1.9540429e-38
-0.044218097 -0.16619904 1.6010001 1.8618826e-38
-0.041168571 -0.16619904 1.6010001 1.8342955e-38
-0.038119048 -0.16619904 1.6010001 1.8527346e-38
-0.035069525 -0.16619904 1.6010001 1.8342239e-38
-0.028843811 -0.1654724 1.5940001 1.5205108e-38
-0.025807621 -0.1654724 1.5940001 1.5297304e-38
-0.01677238 -0.16619904 1.6010001 1.5114303e-38
-0.044218097 -0.16314954 1.6010001 1.8066381e-38
-0.041168571 -0.16314954 1.6010001 1.8065649e-38
-0.038119048 -0.16314954 1.6010001 1.8157845e-38
-0.035069525 -0.16314954 1.6010001 1.7881977e-38
-0.028843811 -0.1624362 1.5940001 1.4103045e-38
-0.025807621 -0.1624362 1.5940001 1.3642067e-38
-0.022871429 -0.16314954 1.6010001 1.4009783e-38
-0.019821906 -0.16314954 1.6010001 1.3548805e-38
-0.01677238 -0.16314954 1.6010001 1.3545555e-38
-0.040988572 -0.1594 1.5940001 1.6770945e-38
-0.038119048 -0.16010001 1.6010001 1.6955336e-38
-0.035069525 -0.16010001 1.6010001 1.6863496e-38
-0.028843811 -0.1594 1.5940001 1.6403234e-38
-0.025807621 -0.1594 1.5940001 1.585006e-38
-0.019821906 -0.16010001 1.6010001 1.6492916e-38
-0.01677238 -0.16010001 1.6010001 1.5843972e-38
-0.013722857 -0.16010001 1.6010001 1.2340538e-38
-0.040988572 -0.15636382 1.5940001 1.6029054e-38
-0.037952382 -0.15636382 1.5940001 1.6213445e-38
-0.034916192 -0.15636382 1.5940001 1.6581872e-38
-0.031880002 -0.15636382 1.5940001 1.6213089e-38
-0.028843811 -0.15636382 1.5940001 1.6119807e-38
-0.025807621 -0.15636382 1.5940001 1.5843221e-38
-0.040988572 -0.15332761 1.5940001 1.1225509e-38
-0.037952382 -0.15332761 1.5940001 1.14099e-38
-0.034916192 -0.15332761 1.5940001 1.1503888e-38
-0.031880002 -0.15332761 1.5940001 1.1780475e-38
-0.028843811 -0.15332761 1.5940001 1.2239983e-38
-0.025807621 -0.15332761 1.5940001 1.251657e-38
-0.022771429 -0.15332761 1.5940001 1.2696257e-38
-0.040988572 -0.15029144 1.5940001 1.1410621e-38
-0.037952382 -0.15029144 1.5940001 1.0396469e-38
-0.034916192 -0.15029144 1.5940001 1.1132249e-38
-0.031880002 -0.15029144 1.5940001 1.1408835e-38
-0.028843811 -0.15029144 1.5940001 1.2514084e-38
-0.025807621 -0.15029144 1.5940001 1.2790671e-38
-0.037761904 -0.1465162 1.5860001 1.1413517e-38
-0.034740951 -0.1465162 1.5860001 1.1962039e-38
-0.037761904 -0.14349525 1.5860001 1.0405422e-38
-0.034740951 -0.14349525 1.5860001 1.2145314e-38
-0.037761904 -0.14047429 1.5860001 1.4277551e-38
-0.028445713 -0.13624001 1.572 1.5189881e-38
-0.025451429 -0.13624001 1.572 1.5189881e-38
-0.022457143 -0.13624001 1.572 1.4086798e-38
-0.019462857 -0.13624001 1.572 9.6614078e-39
-0.025451429 -0.13324572 1.572 1.4542343e-38
-0.022457143 -0.13324572 1.572 1.3900208e-38
-0.019462857 -0.13324572 1.572 1.3070447e-38
-0.022457143 -0.13025144 1.572 1.4545565e-38
-0.019462857 -0.13025144 1.572 1.4361174e-38
-0.013474287 -0.13025144 1.572 1.2155289e-38
-0.022457143 -0.12725714 1.572 1.6210146e-38
-0.019462857 -0.12725714 1.572 1.5749168e-38
-0.022342859 -0.12363049 1.5640001 1.5475443e-38
0.022342859 -0.12363049 1.5640001 1.7596752e-38
-0.019363809 -0.11469334 1.5640001 1.8894548e-38
-0.019363809 -0.1117143 1.5640001 1.7878315e-38
-0.019363809 -0.10873525 1.5640001 1.335862e-38
-0.016384764 -0.099798106 1.5640001 1.4469573e-38
-0.058388572 -0.097314283 1.572 3.0363195e-39
-0.016384764 -0.096819058 1.5640001 1.6031491e-38
-0.016384764 -0.093840003 1.5640001 1.7964387e-38
-0.013405715 -0.084902868 1.5640001 1.6779155e-38
-0.013405715 -0.081923813 1.5640001 1.8616996e-38
-0.022457143 -0.076354288 1.572 1.529441e-38
-0.013474287 -0.070365719 1.572 1.1432283e-38
-0.013474287 -0.067371428 1.572 1.4747373e-38
-0.01048 -0.067371428 1.572 1.3737893e-38
-0.028445713 -0.064377144 1.572 7.3776907e-39
-0.01048 -0.064377144 1.572 1.6502342e-38
-0.01048 -0.06138286 1.572 1.6500885e-38
-0.01048 -0.058388572 1.572 1.6038818e-38
-0.0074857143 -0.058388572 1.572 1.2904167e-38
-0.01048 -0.055394288 1.572 1.6407588e-38
-0.0074857143 -0.055394288 1.572 1.7052957e-38
-0.01048 -0.0524 1.572 1.6131011e-38
-0.0074857143 -0.0524 1.572 1.5670033e-38
-0.0074857143 -0.049405713 1.572 1.0501025e-38
-0.0044914284 -0.049405713 1.572 1.0410797e-38
-0.0074857143 -0.046411429 1.572 1.0684218e-38
-0.0044914284 -0.046411429 1.572 1.2615543e-38
-0.0074857143 -0.043417145 1.572 1.2707019e-38
-0.0044914284 -0.043417145 1.572 1.4824266e-38
-0.0074857143 -0.040422857 1.572 1.5098688e-38
-0.0044914284 -0.040422857 1.572 1.5652212e-38
-0.022557143 -0.037595239 1.5790001 1.667173e-38
-0.0044914284 -0.037428569 1.572 1.6944778e-38
-0.004511429 -0.034587622 1.5790001 1.8511775e-38
-0.0015038096 -0.034587622 1.5790001 1.9064949e-38
0.0015038096 -0.034587622 1.5790001 1.5852109e-38
-0.0075190482 -0.031580005 1.5790001 2.1190341e-38
-0.004511429 -0.031580005 1.5790001 1.9163959e-38
-0.0015038096 -0.031580005 1.5790001 1.6305894e-38
0.0015038096 -0.031580005 1.5790001 1.2996158e-38
-0.0075190482 -0.028572382 1.5790001 1.9438376e-38
-0.004511429 -0.028572382 1.5790001 1.8887047e-38
-0.0015038096 -0.028572382 1.5790001 1.4830439e-38
0.0015038096 -0.028572382 1.5790001 1.1336662e-38
-0.0075190482 -0.025564764 1.5790001 1.5655856e-38
-0.004511429 -0.025564764 1.5790001 1.4274351e-38
-0.0015038096 -0.025564764 1.5790001 1.2891416e-38
0.0015038096 -0.025564764 1.5790001 1.0970792e-38
-0.0075190482 -0.022557143 1.5790001 1.4638845e-38
-0.004511429 -0.022557143 1.5790001 1.1968031e-38
-0.0015038096 -0.022557143 1.5790001 1.3074375e-38
0.0015038096 -0.022557143 1.5790001 1.0882219e-38
-0.004511429 -0.019549526 1.5790001 1.2708569e-38
-0.0015038096 -0.019549526 1.5790001 1.6396394e-38
0.0015038096 -0.019549526 1.5790001 1.6595795e-38
0.004511429 -0.019549526 1.5790001 1.6503599e-38
-0.004511429 -0.016541906 1.5790001 1.3451866e-38
-0.0015038096 -0.016541906 1.5790001 1.7416278e-38
0.0015038096 -0.016541906 1.5790001 1.7239079e-38
0.004511429 -0.016541906 1.5790001 1.7239079e-38
-0.004511429 -0.013534287 1.5790001 1.6582204e-38
-0.0015038096 -0.013534287 1.5790001 1.8333921e-38
0.0015038096 -0.013534287 1.5790001 1.8060215e-38
0.004511429 -0.013534287 1.5790001 1.7968019e-38
-0.004511429 -0.010526667 1.5790001 1.8052676e-38
-0.0015038096 -0.010526667 1.5790001 1.8329263e-38
0.0015038096 -0.010526667 1.5790001 1.7408006e-38
0.004511429 -0.010526667 1.5790001 1.7684593e-38
-0.0015038096 -0.0075190482 1.5790001 1.9990958e-38
0.0015038096 -0.0075190482 1.5790001 1.9531035e-38
0.004511429 -0.0075190482 1.5790001 1.9531035e-38
-0.0015038096 -0.004511429 1.5790001 1.8704142e-38
0.0015038096 -0.004511429 1.5790001 1.9164713e-38
0.004511429 -0.004511429 1.5790001 1.9349104e-38
-0.0015038096 -0.0015038096 1.5790001 1.6298289e-38
0.0015038096 -0.0015038096 1.5790001 1.6022065e-38
0.004511429 -0.0015038096 1.5790001 1.989426e-38
0.0075190482 -0.0015038096 1.5790001 1.9529221e-38
-0.0015038096 0.0015038096 1.5790001 1.5830861e-38
0.0015038096 0.0015038096 1.5790001 1.5925208e-38
0.004511429 0.0015038096 1.5790001 1.684715e-38
0.0075190482 0.0015038096 1.5790001 2.0263161e-38
-0.0015038096 0.004511429 1.5790001 1.4355753e-38
0.0015038096 0.004511429 1.5790001 1.3707165e-38
0.004511429 0.004511429 1.5790001 1.6104232e-38
0.0075190482 0.004511429 1.5790001 1.8056905e-38
0.0015038096 0.0075190482 1.5790001 1.3438116e-38
0.004511429 0.0075190482 1.5790001 1.5097616e-38
0.0075190482 0.0075190482 1.5790001 1.7779205e-38
0.0015038096 0.010526667 1.5790001 1.8517098e-38
0.004511429 0.010526667 1.5790001 1.8332707e-38
0.0075190482 0.010526667 1.5790001 1.8150849e-38
0.0015038096 0.013534287 1.5790001 1.925294e-38
0.004511429 0.013534287 1.5790001 1.9068549e-38
0.0075190482 0.013534287 1.5790001 1.8978148e-38
0.0015038096 0.016541906 1.5790001 1.6670074e-38
0.004511429 0.016541906 1.5790001 1.7499834e-38
0.0075190482 0.016541906 1.5790001 1.676297e-38
0.010526667 0.016541906 1.5790001 1.6394187e-38
0.004511429 0.019549526 1.5790001 1.5290005e-38
0.0075190482 0.019549526 1.5790001 1.4825054e-38
0.010526667 0.019549526 1.5790001 1.639238e-38
0.004511429 0.022557143 1.5790001 1.7314011e-38
0.0075190482 0.022557143 1.5790001 1.7406557e-38
0.010526667 0.022557143 1.5790001 1.7683144e-38
0.004511429 0.025564764 1.5790001 1.8232364e-38
0.0075190482 0.025564764 1.5790001 1.8417119e-38
0.010526667 0.025564764 1.5790001 1.8417119e-38
0.0015104762 0.028699048 1.5860001 1.758556e-38
0.0045314287 0.028699048 1.5860001 1.7677756e-38
0.0075190482 0.028572382 1.5790001 1.786251e-38
0.010526667 0.028572382 1.5790001 1.7954706e-38
-0.0045542861 0.031880002 1.5940001 1.7770683e-38
0.0015104762 0.031720001 1.5860001 1.7678828e-38
0.0045314287 0.031720001 1.5860001 1.7678828e-38
0.0075190482 0.031580005 1.5790001 1.7771008e-38
0.010526667 0.031580005 1.5790001 1.7863204e-38
0.013534287 0.031580005 1.5790001 1.7862866e-38
-0.0015180953 0.034916192 1.5940001 1.8418933e-38
0.0015104762 0.034740951 1.5860001 1.7957226e-38
0.0045314287 0.034740951 1.5860001 1.9247965e-38
0.0075523811 0.034740951 1.5860001 1.8883104e-38
0.010526667 0.034587622 1.5790001 1.8422125e-38
0.013534287 0.034587622 1.5790001 1.8697296e-38
-0.0015180953 0.037952382 1.5940001 1.8052267e-38
0.0045314287 0.037761904 1.5860001 1.9252548e-38
0.0075523811 0.037761904 1.5860001 1.8703356e-38
0.010573333 0.037761904 1.5860001 1.8242378e-38
0.013534287 0.037595239 1.5790001 1.8517883e-38
-0.0015180953 0.040988572 1.5940001 2.0263832e-38
0.0015180953 0.040988572 1.5940001 1.9256774e-38
0.0045542861 0.040988572 1.5940001 2.017873e-38
0.010573333 0.040782858 1.5860001 1.7966783e-38
0.013594287 0.040782858 1.5860001 1.8335531e-38
0.016615238 0.040782858 1.5860001 1.8427725e-38
-0.0015180953 0.044024762 1.5940001 2.136762e-38
0.0015180953 0.044024762 1.5940001 1.9534873e-38
0.0045542861 0.044024762 1.5940001 1.9073895e-38
0.0075904764 0.044024762 1.5940001 1.8427051e-38
0.010573333 0.043803811 1.5860001 1.7781682e-38
0.013594287 0.043803811 1.5860001 1.7595107e-38
0.016615238 0.043803811 1.5860001 1.7318524e-38
-0.0015180953 0.047060952 1.5940001 1.9426833e-38
0.0015180953 0.047060952 1.5940001 1.8514577e-38
0.0045542861 0.047060952 1.5940001 1.8330186e-38
0.0075904764 0.047060952 1.5940001 1.7963167e-38
0.010573333 0.046824764 1.5860001 1.7041224e-38
0.013594287 0.046824764 1.5860001 1.703764e-38
0.016615238 0.046824764 1.5860001 1.6484472e-38
0.019636191 0.046824764 1.5860001 1.7687313e-38
0.0015180953 0.050097149 1.5940001 1.7772709e-38
0.0045542861 0.050097149 1.5940001 1.79571e-38
0.0075904764 0.050097149 1.5940001 1.814325e-38
0.010573333 0.049845714 1.5860001 1.7129114e-38
0.013594287 0.049845714 1.5860001 1.6482319e-38
0.016615238 0.049845714 1.5860001 1.7773038e-38
0.019636191 0.049845714 1.5860001 1.7962843e-38
0.025678096 0.049845714 1.5860001 1.9534513e-38
0.0015180953 0.053133339 1.5940001 1.5369173e-38
0.0045542861 0.053133339 1.5940001 1.8042826e-38
0.0075904764 0.053133339 1.5940001 1.6757108e-38
0.010573333 0.052866668 1.5860001 1.5558583e-38
0.013594287 0.052866668 1.5860001 1.6206095e-38
0.016615238 0.052866668 1.5860001 2.0170481e-38
0.019636191 0.052866668 1.5860001 1.8062241e-38
0.0015180953 0.056169529 1.5940001 1.3888325e-38
0.0045542861 0.056169529 1.5940001 1.6654176e-38
0.0075904764 0.056169529 1.5940001 1.6570926e-38
0.010573333 0.055887621 1.5860001 1.6939703e-38
0.013594287 0.055887621 1.5860001 1.6118206e-38
0.016615238 0.055887621 1.5860001 2.0266985e-38
0.019636191 0.055887621 1.5860001 1.7514514e-38
0.0015180953 0.059205718 1.5940001 1.4258178e-38
0.0045542861 0.059205718 1.5940001 1.6470861e-38
0.0075904764 0.059205718 1.5940001 1.7956709e-38
0.010573333 0.058908574 1.5860001 2.1460118e-38
0.013594287 0.058908574 1.5860001 1.9072102e-38
0.016615238 0.058908574 1.5860001 1.953308e-38
0.019636191 0.058908574 1.5860001 1.7697476e-38
0.022557143 0.058648575 1.5790001 1.7513085e-38
0.013594287 0.061929524 1.5860001 1.8705167e-38
0.016615238 0.061929524 1.5860001 1.7230037e-38
0.019636191 0.061929524 1.5860001 1.658717e-38
0.022657143 0.061929524 1.5860001 1.7232539e-38
-0.025807621 0.065278098 1.5940001 1.5745938e-38
-0.022871429 0.065564767 1.6010001 1.6204302e-38
0.016615238 0.064950481 1.5860001 1.5007247e-38
0.019636191 0.064950481 1.5860001 1.4367592e-38
0.022657143 0.064950481 1.5860001 1.5473934e-38
0.0015038096 0.09173239 1.5790001 1.5202859e-38
0.0045314287 0.09213905 1.5860001 1.6217011e-38
