# .PCD v0.7 - Point Cloud Data file format
VERSION 0.7
FIELDS x y z rgb
SIZE 4 4 4 4
TYPE F F F F
COUNT 1 1 1 1
WIDTH 649
HEIGHT 1
VIEWPOINT 0 0 0 1 0 0 0
POINTS 649
DATA ascii
-0.067833342 -0.023785716 0.92500007 1.7239135e-38
-0.067833342 -0.022023812 0.92500007 1.8162549e-38
-0.066285722 -0.022095239 0.92800003 2.0927316e-38
-0.048347622 -0.021976192 0.92300004 2.0558181e-38
-0.037676193 -0.021904761 0.92000002 2.1755282e-38
-0.066285722 -0.020327618 0.92800003 2.1387588e-38
-0.046589527 -0.020218095 0.92300004 1.9636224e-38
-0.044831429 -0.020218095 0.92300004 1.9726981e-38
-0.043073334 -0.020218095 0.92300004 2.0556742e-38
-0.041315239 -0.020218095 0.92300004 2.119995e-38
-0.039557144 -0.020218095 0.92300004 2.3136058e-38
-0.044831429 -0.018460002 0.92300004 2.1110278e-38
-0.043073334 -0.018460002 0.92300004 2.1755648e-38
-0.041315239 -0.018460002 0.92300004 2.2216616e-38
-0.039557144 -0.018460002 0.92300004 2.276979e-38
-0.087968573 -0.016882857 0.93300003 2.3417687e-38
-0.068053335 -0.016792381 0.92800003 2.276979e-38
-0.043073334 -0.016701905 0.92300004 2.1940036e-38
-0.041315239 -0.016701905 0.92300004 2.2401014e-38
-0.039557144 -0.016701905 0.92300004 2.2677601e-38
-0.037799049 -0.016701905 0.92300004 2.221626e-38
-0.087968573 -0.015105714 0.93300003 2.3417687e-38
-0.041315239 -0.01494381 0.92300004 2.341769e-38
-0.039557144 -0.01494381 0.92300004 2.341769e-38
-0.037799049 -0.01494381 0.92300004 2.341769e-38
-0.087968573 -0.013328572 0.93300003 2.3417687e-38
-0.048452385 -0.013214286 0.92500007 2.341769e-38
-0.041315239 -0.013185714 0.92300004 2.341769e-38
-0.039557144 -0.013185714 0.92300004 2.341769e-38
-0.037799049 -0.013185714 0.92300004 2.3417687e-38
-0.071357146 -0.011452381 0.92500007 2.2587929e-38
-0.069820955 -0.011489524 0.92800003 1.8531697e-38
-0.048452385 -0.011452381 0.92500007 1.9266003e-38
-0.046690479 -0.011452381 0.92500007 1.8712829e-38
-0.041315239 -0.011427619 0.92300004 1.8068205e-38
-0.039557144 -0.011427619 0.92300004 2.0188705e-38
-0.037799049 -0.011427619 0.92300004 1.9175243e-38
-0.020261906 -0.011452381 0.92500007 1.8436955e-38
-0.071357146 -0.0096904775 0.92500007 2.2587927e-38
-0.048452385 -0.0096904775 0.92500007 1.7601828e-38
-0.046690479 -0.0096904775 0.92500007 1.6034502e-38
-0.041315239 -0.0096695246 0.92300004 1.4194161e-38
-0.039557144 -0.0096695246 0.92300004 1.4470748e-38
-0.037799049 -0.0096695246 0.92300004 1.4373521e-38
-0.041315239 -0.0079114288 0.92300004 2.0088195e-38
-0.039557144 -0.0079114288 0.92300004 2.1378934e-38
-0.037799049 -0.0079114288 0.92300004 2.2302708e-38
-0.043073334 -0.0061533335 0.92300004 2.2659936e-38
-0.055776194 0.0060066669 0.90100002 2.0321497e-38
-0.053880006 0.0059866668 0.89800006 1.9494954e-38
-0.028222859 0.0059866668 0.89800006 1.8481894e-38
-0.055776194 0.0077228574 0.90100002 2.0597012e-38
-0.053880006 0.0076971436 0.89800006 1.949603e-38
-0.052053336 0.0076800003 0.89600003 1.9219447e-38
-0.050346669 0.0076800003 0.89600003 1.9310924e-38
-0.031502858 0.0076628574 0.89400005 2.1334175e-38
-0.029866667 0.0076800003 0.89600003 2.0323629e-38
-0.028222859 0.0076971436 0.89800006 1.8387547e-38
-0.026660001 0.0077400007 0.90300006 1.9029678e-38
-0.055776194 0.0094390474 0.90100002 2.0687425e-38
-0.052053336 0.0093866661 0.89600003 2.050838e-38
-0.050346669 0.0093866661 0.89600003 2.0233584e-38
-0.048531432 0.0093657151 0.89400005 2.0325778e-38
-0.046828572 0.0093657151 0.89400005 2.0137444e-38
-0.045125719 0.0093657151 0.89400005 1.9676473e-38
-0.031502858 0.0093657151 0.89400005 2.0971138e-38
-0.029866667 0.0093866661 0.89600003 2.0327238e-38
-0.028222859 0.009407619 0.89800006 1.8944304e-38
-0.026600951 0.0094390474 0.90100002 1.9770481e-38
-0.055590477 0.011118095 0.89800006 2.0135684e-38
-0.05376 0.011093334 0.89600003 1.9769384e-38
-0.050234288 0.011068572 0.89400005 2.0877867e-38
-0.048531432 0.011068572 0.89400005 2.0324702e-38
-0.031502858 0.011068572 0.89400005 2.115591e-38
-0.0298 0.011068572 0.89400005 2.023504e-38
-0.02816 0.011093334 0.89600003 1.8483329e-38
-0.026512383 0.011118095 0.89800006 1.9953066e-38
-0.055590477 0.012828573 0.89800006 1.8483352e-38
-0.05376 0.012800001 0.89600003 1.9219089e-38
-0.051937148 0.012771429 0.89400005 2.1063001e-38
-0.050234288 0.012771429 0.89400005 2.097042e-38
-0.043277144 0.012728572 0.89100003 2.1625199e-38
-0.041579999 0.012728572 0.89100003 2.1993982e-38
-0.03648857 0.012728572 0.89100003 2.1247393e-38
-0.034791429 0.012728572 0.89100003 2.0970806e-38
-0.033094287 0.012728572 0.89100003 2.1154819e-38
-0.031502858 0.012771429 0.89400005 2.133921e-38
-0.0298 0.012771429 0.89400005 2.0230027e-38
-0.02816 0.012800001 0.89600003 2.0045636e-38
-0.026512383 0.012828573 0.89800006 2.0879357e-38
-0.059340004 0.01462 0.90300006 1.545751e-38
-0.057300955 0.014539048 0.89800006 1.5441995e-38
-0.055466667 0.014506667 0.89600003 1.7009304e-38
-0.053640001 0.014474287 0.89400005 1.857624e-38
-0.051937148 0.014474287 0.89400005 2.0881116e-38
-0.046671428 0.014425715 0.89100003 2.1061554e-38
-0.04497429 0.014425715 0.89100003 2.2536684e-38
-0.043277144 0.014425715 0.89100003 2.1434338e-38
-0.03648857 0.014425715 0.89100003 2.1153752e-38
-0.034791429 0.014425715 0.89100003 2.1245948e-38
-0.033094287 0.014425715 0.89100003 2.1154809e-38
-0.031502858 0.014474287 0.89400005 2.0693838e-38
-0.0298 0.014474287 0.89400005 2.0043815e-38
-0.02816 0.014506667 0.89600003 2.2256487e-38
-0.026453335 0.014506667 0.89600003 2.1527268e-38
-0.059208572 0.016303809 0.90100002 1.8879892e-38
-0.057300955 0.016249524 0.89800006 1.7675919e-38
-0.055466667 0.016213333 0.89600003 1.3066137e-38
-0.053640001 0.016177142 0.89400005 1.6916744e-38
-0.051937148 0.016177142 0.89400005 1.9129424e-38
-0.050065715 0.016122857 0.89100003 2.0139257e-38
-0.048368573 0.016122857 0.89100003 2.0692431e-38
-0.046671428 0.016122857 0.89100003 2.0965039e-38
-0.04497429 0.016122857 0.89100003 2.1149431e-38
-0.043277144 0.016122857 0.89100003 2.0965757e-38
-0.039793335 0.016086668 0.88900006 2.1057601e-38
-0.0381 0.016086668 0.88900006 2.0781014e-38
-0.03648857 0.016122857 0.89100003 2.0962887e-38
-0.034791429 0.016122857 0.89100003 2.0409722e-38
-0.033094287 0.016122857 0.89100003 2.0405417e-38
-0.031502858 0.016177142 0.89400005 2.0958582e-38
-0.0298 0.016177142 0.89400005 2.0320813e-38
-0.02816 0.016213333 0.89600003 2.3462307e-38
-0.026453335 0.016213333 0.89600003 2.1908305e-38
-0.059208572 0.01802 0.90100002 1.8977848e-38
-0.057300955 0.017960001 0.89800006 1.8055158e-38
-0.055466667 0.01792 0.89600003 1.399855e-38
-0.053640001 0.017880002 0.89400005 1.5906912e-38
-0.051937148 0.017880002 0.89400005 1.7474218e-38
-0.050065715 0.017820001 0.89100003 1.9492802e-38
-0.046671428 0.017820001 0.89100003 2.0688457e-38
-0.04497429 0.017820001 0.89100003 2.1057234e-38
-0.043277144 0.017820001 0.89100003 2.0966474e-38
-0.031502858 0.017880002 0.89400005 2.3172702e-38
-0.0298 0.017880002 0.89400005 2.1626283e-38
-0.026453335 0.01792 0.89600003 2.2190309e-38
-0.057300955 0.019670477 0.89800006 1.9159315e-38
-0.055466667 0.019626666 0.89600003 1.9251511e-38
-0.051937148 0.019582856 0.89400005 1.6570294e-38
-0.057300955 0.021380953 0.89800006 1.9245775e-38
-0.055466667 0.021333335 0.89600003 2.0813101e-38
-0.052053336 0.021333335 0.89600003 1.8055802e-38
-0.050234288 0.021285716 0.89400005 1.9888633e-38
-0.046828572 0.021285716 0.89400005 2.0884442e-38
-0.03661143 0.021285716 0.89400005 2.2282204e-38
-0.034908574 0.021285716 0.89400005 2.2558791e-38
-0.052053336 0.02304 0.89600003 1.9628478e-38
-0.050234288 0.022988571 0.89400005 2.1374242e-38
-0.046828572 0.022988571 0.89400005 2.3324415e-38
-0.045125719 0.022988571 0.89400005 2.3416611e-38
-0.043422859 0.022988571 0.89400005 2.3324415e-38
-0.041720003 0.022988571 0.89400005 2.3509167e-38
-0.052053336 0.024746668 0.89600003 1.8066519e-38
-0.050234288 0.024691431 0.89400005 1.9167668e-38
-0.046828572 0.024691431 0.89400005 2.3323324e-38
-0.045125719 0.024691431 0.89400005 2.3323324e-38
-0.043422859 0.024691431 0.89400005 2.3231504e-38
-0.041720003 0.024691431 0.89400005 2.3231504e-38
-0.050234288 0.026394285 0.89400005 1.8341167e-38
-0.046828572 0.026394285 0.89400005 1.9262034e-38
-0.045125719 0.026394285 0.89400005 1.9907404e-38
-0.043422859 0.026394285 0.89400005 1.9904565e-38
-0.038185716 0.026305715 0.89100003 1.8246138e-38
-0.03648857 0.026305715 0.89100003 2.2123297e-38
-0.034791429 0.026305715 0.89100003 2.3137449e-38
-0.039882861 0.028002858 0.89100003 1.9817026e-38
-0.038185716 0.028002858 0.89100003 2.0462395e-38
-0.039882861 0.029700002 0.89100003 2.341769e-38
-0.027877143 0.029566666 0.88700002 2.3324413e-38
-0.026246669 0.029633334 0.88900006 2.3233296e-38
-0.027877143 0.031256191 0.88700002 2.31411e-38
-0.026246669 0.031326666 0.88900006 2.3141103e-38
-0.051646668 0.033020001 0.88900006 2.3506995e-38
-0.029566666 0.032945715 0.88700002 2.341769e-38
-0.027877143 0.032945715 0.88700002 2.3048907e-38
-0.026246669 0.033020001 0.88900006 2.3048907e-38
-0.058551431 0.034791429 0.89100003 2.1751739e-38
-0.056726668 0.034713335 0.88900006 2.1556036e-38
-0.055033337 0.034713335 0.88900006 2.2385796e-38
-0.051646668 0.034713335 0.88900006 2.350766e-38
-0.049840953 0.034635238 0.88700002 2.3417687e-38
-0.04815143 0.034635238 0.88700002 2.3417687e-38
-0.046461903 0.034635238 0.88700002 2.3325494e-38
-0.032945715 0.034635238 0.88700002 2.2402456e-38
-0.031256191 0.034635238 0.88700002 2.3324413e-38
-0.029566666 0.034635238 0.88700002 2.3233299e-38
-0.027877143 0.034635238 0.88700002 2.3048907e-38
-0.058551431 0.03648857 0.89100003 2.3142324e-38
-0.056726668 0.036406666 0.88900006 2.2674475e-38
-0.051646668 0.036406666 0.88900006 1.9904699e-38
-0.049840953 0.036324766 0.88700002 2.1846399e-38
-0.04815143 0.036324766 0.88700002 2.3508441e-38
-0.046461903 0.036324766 0.88700002 2.341769e-38
-0.044772383 0.036324766 0.88700002 2.341769e-38
-0.043082856 0.036324766 0.88700002 2.341769e-38
-0.041393336 0.036324766 0.88700002 2.341769e-38
-0.039703812 0.036324766 0.88700002 2.341769e-38
-0.038014285 0.036324766 0.88700002 2.3233299e-38
-0.036324766 0.036324766 0.88700002 2.3231466e-38
-0.034635238 0.036324766 0.88700002 2.3509493e-38
-0.032945715 0.036324766 0.88700002 2.341769e-38
-0.031256191 0.036324766 0.88700002 2.341769e-38
-0.029566666 0.036324766 0.88700002 2.341769e-38
-0.056726668 0.0381 0.88900006 2.3142343e-38
-0.051646668 0.0381 0.88900006 1.8988782e-38
-0.049840953 0.038014285 0.88700002 2.0458711e-38
-0.04815143 0.038014285 0.88700002 2.3506569e-38
-0.046461903 0.038014285 0.88700002 2.332618e-38
-0.044772383 0.038014285 0.88700002 2.3049951e-38
-0.043082856 0.038014285 0.88700002 2.2958109e-38
-0.041393336 0.038014285 0.88700002 2.3326174e-38
-0.039703812 0.038014285 0.88700002 2.3326182e-38
-0.038014285 0.038014285 0.88700002 2.3233987e-38
-0.036324766 0.038014285 0.88700002 2.2214067e-38
-0.034635238 0.038014285 0.88700002 2.3505166e-38
-0.032945715 0.038014285 0.88700002 2.3417687e-38
-0.031256191 0.038014285 0.88700002 2.3417687e-38
-0.029566666 0.038014285 0.88700002 2.3417687e-38
-0.051646668 0.039793335 0.88900006 2.1761829e-38
-0.049840953 0.039703812 0.88700002 2.0461174e-38
-0.04815143 0.039703812 0.88700002 1.5206024e-38
-0.046461903 0.039703812 0.88700002 1.6039056e-38
-0.044772383 0.039703812 0.88700002 2.0003468e-38
-0.043082856 0.039703812 0.88700002 1.8814148e-38
-0.041393336 0.039703812 0.88700002 1.8168779e-38
-0.039703812 0.039703812 0.88700002 2.0096962e-38
-0.038014285 0.039703812 0.88700002 2.1756483e-38
-0.036324766 0.039703812 0.88700002 2.1466804e-38
-0.034635238 0.039703812 0.88700002 1.8700935e-38
-0.032945715 0.039703812 0.88700002 2.0261382e-38
-0.031256191 0.039703812 0.88700002 2.1275533e-38
-0.029566666 0.039703812 0.88700002 2.0079892e-38
0.0025285715 0.039614286 0.88500005 2.2206534e-38
0.0075600003 0.039480001 0.88200003 1.2977949e-38
-0.051646668 0.041486669 0.88900006 2.1851026e-38
-0.049840953 0.041393336 0.88700002 2.0466242e-38
-0.04815143 0.041393336 0.88700002 1.6409634e-38
-0.046461903 0.041393336 0.88700002 1.318521e-38
-0.044772383 0.041393336 0.88700002 1.6504226e-38
-0.043082856 0.041393336 0.88700002 1.8534738e-38
-0.041393336 0.041393336 0.88700002 1.7612782e-38
-0.039703812 0.041393336 0.88700002 1.9080405e-38
-0.038014285 0.041393336 0.88700002 2.0371144e-38
-0.036324766 0.041393336 0.88700002 2.2568823e-38
-0.034635238 0.041393336 0.88700002 1.6944889e-38
-0.032945715 0.041393336 0.88700002 2.0606776e-38
-0.031256191 0.041393336 0.88700002 2.1713124e-38
-0.029566666 0.041393336 0.88700002 2.0888418e-38
-0.067037143 0.043277144 0.89100003 2.0834298e-38
-0.065193333 0.043180004 0.88900006 2.0649907e-38
-0.051646668 0.043180004 0.88900006 1.8895422e-38
-0.049840953 0.043082856 0.88700002 2.0460882e-38
-0.046461903 0.043082856 0.88700002 2.0648728e-38
-0.044772383 0.043082856 0.88700002 1.5670164e-38
-0.043082856 0.043082856 0.88700002 1.5948556e-38
-0.041393336 0.043082856 0.88700002 1.5303187e-38
-0.039703812 0.043082856 0.88700002 1.602258e-38
-0.038014285 0.043082856 0.88700002 1.6114775e-38
-0.036324766 0.043082856 0.88700002 1.8955207e-38
-0.034635238 0.043082856 0.88700002 1.6742512e-38
-0.032945715 0.043082856 0.88700002 1.8202497e-38
-0.031256191 0.043082856 0.88700002 1.8202497e-38
-0.029566666 0.043082856 0.88700002 1.8386911e-38
-0.046566669 0.044873338 0.88900006 2.3047985e-38
-0.043082856 0.044772383 0.88700002 1.7141311e-38
-0.041393336 0.044772383 0.88700002 1.6219368e-38
-0.039703812 0.044772383 0.88700002 1.6384026e-38
-0.038014285 0.044772383 0.88700002 1.7859134e-38
-0.036324766 0.044772383 0.88700002 1.9871416e-38
-0.034635238 0.044772383 0.88700002 1.8027503e-38
-0.032945715 0.044772383 0.88700002 1.9124858e-38
-0.031256191 0.044772383 0.88700002 1.930925e-38
-0.029566666 0.044772383 0.88700002 1.9126286e-38
-0.048260003 0.046566669 0.88900006 2.3500839e-38
-0.046566669 0.046566669 0.88900006 2.2864169e-38
-0.044873338 0.046566669 0.88900006 2.3509528e-38
-0.043180004 0.046566669 0.88900006 2.2118108e-38
-0.041393336 0.046461903 0.88700002 1.741613e-38
-0.039703812 0.046461903 0.88700002 1.7682279e-38
-0.038014285 0.046461903 0.88700002 1.8880814e-38
-0.036324766 0.046461903 0.88700002 2.0340328e-38
-0.034635238 0.046461903 0.88700002 1.987935e-38
-0.032945715 0.046461903 0.88700002 2.0610791e-38
-0.031256191 0.046461903 0.88700002 2.04264e-38
-0.029566666 0.046461903 0.88700002 2.0333473e-38
-0.051762857 0.048368573 0.89100003 2.0093454e-38
-0.050065715 0.048368573 0.89100003 2.2763162e-38
-0.048368573 0.048368573 0.89100003 2.3408531e-38
-0.046566669 0.048260003 0.88900006 2.277054e-38
-0.044873338 0.048260003 0.88900006 2.3509528e-38
-0.043180004 0.048260003 0.88900006 2.304619e-38
-0.039703812 0.04815143 0.88700002 1.8517408e-38
-0.038014285 0.04815143 0.88700002 1.8425214e-38
-0.036324766 0.04815143 0.88700002 1.9886851e-38
-0.034635238 0.04815143 0.88700002 1.9886851e-38
-0.032945715 0.04815143 0.88700002 2.0708382e-38
-0.031256191 0.04815143 0.88700002 2.0339599e-38
-0.029566666 0.04815143 0.88700002 2.0429987e-38
-0.027877143 0.04815143 0.88700002 2.0337792e-38
-0.053640001 0.050234288 0.89400005 2.3139137e-38
-0.051762857 0.050065715 0.89100003 2.2585963e-38
-0.048368573 0.050065715 0.89100003 2.2306064e-38
-0.046566669 0.049953338 0.88900006 2.2675834e-38
-0.044873338 0.049953338 0.88900006 2.3136805e-38
-0.043180004 0.049953338 0.88900006 2.277054e-38
-0.039703812 0.049840953 0.88700002 2.1835788e-38
-0.038014285 0.049840953 0.88700002 1.8793332e-38
-0.036324766 0.049840953 0.88700002 2.0076592e-38
-0.034635238 0.049840953 0.88700002 2.1090744e-38
-0.032945715 0.049840953 0.88700002 2.1636449e-38
-0.031256191 0.049840953 0.88700002 2.0622297e-38
-0.029566666 0.049840953 0.88700002 2.1169723e-38
-0.027877143 0.049840953 0.88700002 2.144631e-38
-0.026246669 0.049953338 0.88900006 2.1539206e-38
-0.051762857 0.051762857 0.89100003 2.2493457e-38
-0.048368573 0.051762857 0.89100003 2.1846118e-38
-0.046566669 0.051646668 0.88900006 2.2581846e-38
-0.044873338 0.051646668 0.88900006 2.2674041e-38
-0.043180004 0.051646668 0.88900006 2.2674399e-38
-0.041486669 0.051646668 0.88900006 2.3505231e-38
-0.038014285 0.051530477 0.88700002 2.0275274e-38
-0.036324766 0.051530477 0.88700002 1.8974849e-38
-0.034635238 0.051530477 0.88700002 1.9435828e-38
-0.032945715 0.051530477 0.88700002 2.0992875e-38
-0.031256191 0.051530477 0.88700002 2.0624092e-38
-0.029566666 0.051530477 0.88700002 2.0894565e-38
-0.027877143 0.051530477 0.88700002 2.1171152e-38
-0.026246669 0.051646668 0.88900006 2.1631054e-38
-0.048368573 0.053460002 0.89100003 2.2674041e-38
-0.046671428 0.053460002 0.89100003 2.2488935e-38
-0.044873338 0.053340003 0.88900006 2.2488935e-38
-0.043180004 0.053340003 0.88900006 2.258077e-38
-0.041486669 0.053340003 0.88900006 2.2672964e-38
-0.036324766 0.05322 0.88700002 2.2018359e-38
-0.034635238 0.05322 0.88700002 1.6486624e-38
-0.032945715 0.05322 0.88700002 1.942482e-38
-0.031256191 0.05322 0.88700002 2.0715559e-38
-0.029566666 0.05322 0.88700002 2.1354815e-38
-0.027877143 0.05322 0.88700002 2.144701e-38
-0.026246669 0.053340003 0.88900006 2.1998742e-38
-0.050234288 0.055342861 0.89400005 2.2489652e-38
-0.048368573 0.055157144 0.89100003 2.2674041e-38
-0.046671428 0.055157144 0.89100003 2.258077e-38
-0.044873338 0.055033337 0.88900006 2.2304187e-38
-0.043180004 0.055033337 0.88900006 2.2486782e-38
-0.041486669 0.055033337 0.88900006 2.2578976e-38
-0.036324766 0.054909527 0.88700002 2.257694e-38
-0.034635238 0.054909527 0.88700002 1.7967159e-38
-0.032945715 0.054909527 0.88700002 1.9057023e-38
-0.031256191 0.054909527 0.88700002 2.0347762e-38
-0.029566666 0.054909527 0.88700002 2.1447712e-38
-0.027877143 0.054909527 0.88700002 2.1908691e-38
-0.026246669 0.055033337 0.88900006 2.2093462e-38
-0.050234288 0.057045717 0.89400005 2.2581129e-38
-0.048368573 0.056854289 0.89100003 2.2673323e-38
-0.046671428 0.056854289 0.89100003 2.2488935e-38
-0.04497429 0.056854289 0.89100003 2.2027963e-38
-0.043180004 0.056726668 0.88900006 2.2485349e-38
-0.041486669 0.056726668 0.88900006 2.2485349e-38
-0.031256191 0.056599047 0.88700002 1.777268e-38
-0.029566666 0.056599047 0.88700002 1.9330793e-38
-0.027877143 0.056599047 0.88700002 1.9791771e-38
-0.026246669 0.056726668 0.88900006 1.8126924e-38
-0.050234288 0.058748577 0.89400005 2.2578618e-38
-0.048368573 0.058551431 0.89100003 2.2763006e-38
-0.046671428 0.058551431 0.89100003 2.2578976e-38
-0.04497429 0.058551431 0.89100003 2.2578976e-38
-0.041486669 0.058420002 0.88900006 2.2854179e-38
-0.039793335 0.058420002 0.88900006 2.2576217e-38
-0.031256191 0.058288574 0.88700002 1.6666793e-38
-0.029566666 0.058288574 0.88700002 1.666248e-38
-0.027877143 0.058288574 0.88700002 1.6846871e-38
-0.048368573 0.060248572 0.89100003 2.2672247e-38
-0.046671428 0.060248572 0.89100003 2.2580058e-38
-0.04497429 0.060248572 0.89100003 2.2487863e-38
-0.043180004 0.060113337 0.88900006 2.2484989e-38
-0.0381 0.060113337 0.88900006 1.7774889e-38
-0.036406666 0.060113337 0.88900006 1.5917674e-38
-0.031256191 0.059978094 0.88700002 1.453512e-38
-0.029566666 0.059978094 0.88700002 1.3440383e-38
-0.04497429 0.061945714 0.89100003 2.2851047e-38
-0.026305715 0.061945714 0.89100003 2.1749524e-38
-0.065560006 0.063857146 0.89400005 2.3227185e-38
-0.043277144 0.063642859 0.89100003 1.2985396e-38
-0.041579999 0.063642859 0.89100003 1.3169784e-38
-0.039882861 0.063642859 0.89100003 1.7505263e-38
-0.026305715 0.063642859 0.89100003 2.341769e-38
-0.065560006 0.065560006 0.89400005 2.3416971e-38
-0.039882861 0.065340005 0.89100003 2.1377492e-38
-0.038185716 0.065340005 0.89100003 2.3503754e-38
-0.03648857 0.065340005 0.89100003 2.3417687e-38
-0.027940001 0.065193333 0.88900006 2.341769e-38
-0.026305715 0.065340005 0.89100003 2.3417687e-38
-0.045125719 0.067262866 0.89400005 2.3509167e-38
-0.043422859 0.067262866 0.89400005 2.3417687e-38
-0.038185716 0.067037143 0.89100003 2.341769e-38
-0.03648857 0.067037143 0.89100003 2.341769e-38
-0.034791429 0.067037143 0.89100003 2.3233299e-38
-0.033094287 0.067037143 0.89100003 2.3048907e-38
-0.027940001 0.066886671 0.88900006 1.6963996e-38
-0.026305715 0.067037143 0.89100003 1.1437278e-38
-0.045125719 0.068965718 0.89400005 2.341769e-38
-0.043422859 0.068965718 0.89400005 2.3418043e-38
-0.041720003 0.068965718 0.89400005 2.3418043e-38
-0.03648857 0.068734288 0.89100003 2.3048907e-38
-0.034791429 0.068734288 0.89100003 2.3048907e-38
-0.033094287 0.068734288 0.89100003 2.3048907e-38
-0.027940001 0.068580002 0.88900006 2.1665973e-38
-0.046828572 0.070668571 0.89400005 1.8714348e-38
-0.045125719 0.070668571 0.89400005 1.5579697e-38
-0.043422859 0.070668571 0.89400005 1.6411949e-38
-0.041720003 0.070668571 0.89400005 2.2865602e-38
-0.040017143 0.070668571 0.89400005 2.341769e-38
-0.034791429 0.070431434 0.89100003 2.341769e-38
-0.033094287 0.070431434 0.89100003 2.341769e-38
-0.041720003 0.072371431 0.89400005 2.2499583e-38
-0.040017143 0.072371431 0.89400005 2.341769e-38
-0.034791429 0.072128572 0.89100003 2.341769e-38
-0.033094287 0.072128572 0.89100003 2.341769e-38
-0.031397145 0.072128572 0.89100003 2.341769e-38
-0.028002858 0.072128572 0.89100003 2.3418043e-38
-0.026394285 0.072371431 0.89400005 2.3324778e-38
-0.041720003 0.074074291 0.89400005 2.2774484e-38
-0.040017143 0.074074291 0.89400005 2.341769e-38
-0.03831429 0.074074291 0.89400005 2.341769e-38
-0.033094287 0.073825717 0.89100003 5.6208926e-39
-0.031397145 0.073825717 0.89100003 3.8691756e-39
-0.028002858 0.073825717 0.89100003 2.3407288e-38
-0.026394285 0.074074291 0.89400005 2.2957438e-38
-0.043520004 0.075946666 0.89600003 4.627648e-40
-0.041720003 0.075777143 0.89400005 2.3234364e-38
-0.040017143 0.075777143 0.89400005 2.341769e-38
-0.03831429 0.075777143 0.89400005 2.341769e-38
-0.03661143 0.075777143 0.89400005 2.3418031e-38
-0.033094287 0.075522862 0.89100003 8.3590298e-39
-0.031397145 0.075522862 0.89100003 1.0479529e-38
-0.028002858 0.075522862 0.89100003 1.9466482e-38
-0.026394285 0.075777143 0.89400005 2.2037289e-38
-0.043520004 0.077653334 0.89600003 1.8380412e-40
-0.040017143 0.077480003 0.89400005 2.3325494e-38
-0.03831429 0.077480003 0.89400005 1.8807908e-38
-0.03661143 0.077480003 0.89400005 9.3107315e-39
-0.028002858 0.07722 0.89100003 2.350951e-38
-0.043520004 0.079360001 0.89600003 4.5953621e-40
-0.041720003 0.079182863 0.89400005 2.3416245e-38
-0.040017143 0.079182863 0.89400005 2.341769e-38
-0.03831429 0.079182863 0.89400005 1.1801041e-38
-0.03661143 0.079182863 0.89400005 6.5224726e-39
-0.034908574 0.079182863 0.89400005 1.3898115e-38
-0.033205714 0.079182863 0.89400005 2.1198206e-38
-0.026394285 0.079182863 0.89400005 2.341769e-38
-0.043520004 0.081066668 0.89600003 1.8380692e-40
-0.041813336 0.081066668 0.89600003 2.2032984e-38
-0.040017143 0.080885723 0.89400005 2.3323343e-38
-0.03831429 0.080885723 0.89400005 7.465695e-39
-0.03661143 0.080885723 0.89400005 3.2153186e-39
-0.034908574 0.080885723 0.89400005 1.769003e-38
-0.033205714 0.080885723 0.89400005 2.1384742e-38
-0.026394285 0.080885723 0.89400005 2.341769e-38
-0.024746668 0.081066668 0.89600003 1.4198127e-38
-0.043520004 0.082773335 0.89600003 3.2285917e-42
-0.041813336 0.082773335 0.89600003 2.2130176e-38
-0.03661143 0.082588576 0.89400005 2.2966049e-39
-0.034908574 0.082588576 0.89400005 1.262251e-38
-0.033205714 0.082588576 0.89400005 2.2303805e-38
-0.026394285 0.082588576 0.89400005 2.341769e-38
-0.024746668 0.082773335 0.89600003 1.5673257e-38
-0.043520004 0.084480003 0.89600003 1.8381813e-40
-0.041813336 0.084480003 0.89600003 2.0374206e-38
-0.040106665 0.084480003 0.89600003 2.3325494e-38
-0.026394285 0.084291428 0.89400005 2.341769e-38
-0.024746668 0.084480003 0.89600003 1.9361082e-38
-0.05376 0.08618667 0.89600003 2.3325494e-38
-0.043520004 0.08618667 0.89600003 2.1523944e-42
-0.041813336 0.08618667 0.89600003 1.9824209e-38
-0.040106665 0.08618667 0.89600003 2.3049989e-38
-0.038399998 0.08618667 0.89600003 8.9440579e-39
-0.026394285 0.085994288 0.89400005 2.341769e-38
-0.055590477 0.088089526 0.89800006 1.7884603e-38
-0.05376 0.087893337 0.89600003 1.8341234e-38
-0.043520004 0.087893337 0.89600003 9.1946199e-41
-0.041813336 0.087893337 0.89600003 1.8622515e-38
-0.040106665 0.087893337 0.89600003 2.3416255e-38
-0.038399998 0.087893337 0.89600003 1.8990865e-38
-0.036693335 0.087893337 0.89600003 3.6991645e-39
-0.034986667 0.087893337 0.89600003 8.4582375e-42
-0.055590477 0.089800008 0.89800006 1.3650686e-38
-0.036693335 0.089600004 0.89600003 1.4748516e-38
-0.034986667 0.089600004 0.89600003 8.2697629e-40
-0.026453335 0.089600004 0.89600003 2.2584327e-38
-0.026453335 0.091306664 0.89600003 2.341769e-38
-0.04190667 0.093220957 0.89800006 1.8432484e-39
-0.040196192 0.093220957 0.89800006 7.9295556e-39
-0.038485717 0.093220957 0.89800006 2.3141826e-38
-0.026453335 0.093013331 0.89600003 2.3326213e-38
-0.024801906 0.093220957 0.89800006 2.2865235e-38
-0.026453335 0.094719999 0.89600003 2.341769e-38
-0.024801906 0.094931439 0.89800006 2.341769e-38
-0.048748575 0.096641913 0.89800006 2.3509733e-38
-0.026453335 0.096426666 0.89600003 2.341769e-38
-0.024801906 0.096641913 0.89800006 2.3325494e-38
-0.040330477 0.098680958 0.90100002 2.26765e-38
-0.038614288 0.098680958 0.90100002 2.3321869e-38
-0.035064761 0.098352388 0.89800006 2.3325494e-38
-0.026453335 0.098133333 0.89600003 2.4159436e-39
-0.024801906 0.098352388 0.89800006 6.2525937e-42
-0.040330477 0.10039714 0.90100002 2.304531e-38
-0.038614288 0.10039714 0.90100002 2.3321897e-38
-0.026453335 0.09984 0.89600003 9.4759165e-40
-0.024801906 0.10006286 0.89800006 2.4915087e-41
0.0094914287 0.10095429 0.90600002 1.4659517e-38
-0.040330477 0.10211334 0.90100002 1.0769846e-38
-0.038614288 0.10211334 0.90100002 6.067869e-39
-0.026453335 0.10154667 0.89600003 2.341769e-38
-0.024801906 0.10177334 0.89800006 2.341769e-38
0.0094914287 0.10268001 0.90600002 1.62211e-38
-0.05045905 0.10348381 0.89800006 2.341769e-38
-0.040330477 0.10382953 0.90100002 2.8877959e-40
-0.038614288 0.10382953 0.90100002 5.6536227e-40
-0.026453335 0.10325333 0.89600003 2.3325129e-38
-0.024801906 0.10348381 0.89800006 2.3417324e-38
0.0095333336 0.10486667 0.91000003 1.6959683e-38
-0.040330477 0.10554572 0.90100002 1.8523148e-38
-0.038614288 0.10554572 0.90100002 2.174996e-38
-0.036898095 0.10554572 0.90100002 2.2774844e-38
0.0095123816 0.10636572 0.90800005 1.6684522e-38
-0.040330477 0.1072619 0.90100002 2.2291689e-38
-0.038614288 0.1072619 0.90100002 2.3504638e-38
-0.036898095 0.1072619 0.90100002 2.3142338e-38
-0.035181906 0.1072619 0.90100002 2.3326011e-38
-0.040330477 0.10897809 0.90100002 2.2386037e-38
-0.038614288 0.10897809 0.90100002 2.350571e-38
-0.036898095 0.10897809 0.90100002 2.3234145e-38
-0.035181906 0.10897809 0.90100002 2.3325982e-38
-0.026512383 0.10861524 0.89800006 2.3048448e-38
-0.024884764 0.10897809 0.90100002 2.350979e-38
-0.035181906 0.11069429 0.90100002 2.3142377e-38
-0.026512383 0.11032572 0.89800006 2.1213893e-38
-0.04042 0.11266001 0.90300006 2.2667354e-38
-0.038700003 0.11438 0.90300006 2.3509733e-38
-0.033465713 0.11412667 0.90100002 2.0006865e-38
-0.038700003 0.11610001 0.90300006 2.3417896e-38
-0.033465713 0.11584286 0.90100002 1.7337178e-38
-0.038700003 0.11782 0.90300006 2.3142409e-38
-0.033465713 0.11755905 0.90100002 1.6045742e-38
-0.031749524 0.11755905 0.90100002 1.7613044e-38
-0.038700003 0.11954001 0.90300006 2.1852371e-38
-0.031749524 0.11927524 0.90100002 1.75266e-38
-0.087821908 0.12260286 0.91300005 2.3509851e-38
-0.038700003 0.12126 0.90300006 2.083787e-38
-0.031749524 0.12099143 0.90100002 1.7343716e-38
-0.038700003 0.12298001 0.90300006 1.8895914e-38
-0.036980003 0.12298001 0.90300006 1.7878541e-38
-0.036980003 0.12470001 0.90300006 1.7510815e-38
-0.035260003 0.12642001 0.90300006 1.9727533e-38
-0.03882857 0.12856571 0.90600002 1.9800294e-38
-0.026660001 0.12814002 0.90300006 2.3050645e-38
-0.037102856 0.13029143 0.90600002 1.5861515e-38
-0.037102856 0.13201714 0.90600002 1.6418905e-38
-0.03882857 0.13374287 0.90600002 2.1663089e-38
-0.037102856 0.13374287 0.90600002 2.0289702e-38
-0.03882857 0.13546857 0.90600002 2.3234002e-38
-0.037102856 0.13546857 0.90600002 2.139329e-38
-0.035377141 0.13546857 0.90600002 2.2866985e-38
-0.03882857 0.13719429 0.90600002 2.350981e-38
-0.037102856 0.13719429 0.90600002 2.3417675e-38
-0.035377141 0.13719429 0.90600002 2.3417675e-38
-0.037184764 0.14268573 0.90800005 2.2117153e-38
-0.037184764 0.14441524 0.90800005 2.1197295e-38
-0.035650477 0.16260095 0.91300005 2.1839642e-38
-0.035650477 0.16434 0.91300005 2.286038e-38
-0.035650477 0.16607906 0.91300005 2.3231693e-38
-0.035650477 0.16781811 0.91300005 2.3503312e-38
-0.033985715 0.17341429 0.91500002 2.1736402e-38
-0.03572857 0.17515714 0.91500002 2.0723053e-38
-0.033985715 0.17515714 0.91500002 2.1187622e-38
-0.03572857 0.17690001 0.91500002 2.1743388e-38
-0.033985715 0.17690001 0.91500002 2.2945857e-38
-0.03572857 0.17864285 0.91500002 2.2386222e-38
-0.033985715 0.17864285 0.91500002 2.2944805e-38
-0.03572857 0.18038571 0.91500002 2.2841768e-38
-0.033985715 0.18038571 0.91500002 2.2664236e-38
-0.034097143 0.18622287 0.91800004 2.2111805e-38
-0.034097143 0.18797144 0.91800004 2.267291e-38
-0.032348573 0.18797144 0.91800004 2.3505551e-38
-0.0306 0.18797144 0.91800004 2.3137811e-38
-0.028757144 0.18735714 0.91500002 2.1662681e-38
-0.034097143 0.18972 0.91800004 2.2853957e-38
-0.032348573 0.18972 0.91800004 2.3504369e-38
-0.034097143 0.19146858 0.91800004 2.3234158e-38
-0.032348573 0.19146858 0.91800004 2.3234158e-38
-0.034097143 0.19321714 0.91800004 2.314234e-38
-0.032348573 0.19321714 0.91800004 2.314234e-38
-0.034097143 0.19496572 0.91800004 2.31423e-38
-0.032348573 0.19496572 0.91800004 2.31423e-38
-0.032348573 0.19671428 0.91800004 2.3142315e-38
-0.01494381 0.19954382 0.92300004 2.3509629e-38
-0.01494381 0.2013019 0.92300004 2.3509666e-38
-0.037799049 0.20306002 0.92300004 2.2010067e-38
-0.036040954 0.20306002 0.92300004 2.3488799e-38
-0.034282859 0.20306002 0.92300004 2.2483278e-38
-0.036040954 0.2048181 0.92300004 2.3482287e-38
-0.034282859 0.2048181 0.92300004 2.2480804e-38
-0.032524761 0.2048181 0.92300004 2.2296413e-38
-0.030766666 0.2048181 0.92300004 2.2295973e-38
-0.016738096 0.20526192 0.92500007 2.3234225e-38
-0.030766666 0.2065762 0.92300004 2.2293793e-38
-0.029008573 0.2065762 0.92300004 2.1648425e-38
-0.00087904767 0.2083343 0.92300004 2.1732552e-38
-0.037880953 0.21054763 0.92500007 2.0153304e-38
-0.036119051 0.21054763 0.92500007 1.8125e-38
-0.034357145 0.21054763 0.92500007 1.9225947e-38
-0.03259524 0.21054763 0.92500007 2.3469467e-38
-0.030833337 0.21054763 0.92500007 2.2102613e-38
0.00087619049 0.20940952 0.92000002 2.2095573e-38
-0.037880953 0.21230954 0.92500007 2.0803011e-38
-0.036119051 0.21230954 0.92500007 1.6838599e-38
-0.034357145 0.21230954 0.92500007 1.8215714e-38
-0.03259524 0.21230954 0.92500007 2.3474081e-38
-0.030833337 0.21230954 0.92500007 2.2195522e-38
-0.02907143 0.21230954 0.92500007 2.3493464e-38
-0.037880953 0.21407145 0.92500007 1.9508312e-38
-0.036119051 0.21407145 0.92500007 1.701903e-38
-0.034357145 0.21407145 0.92500007 1.8951874e-38
-0.03259524 0.21407145 0.92500007 2.3477022e-38
-0.030833337 0.21407145 0.92500007 2.2479022e-38
-0.02907143 0.21407145 0.92500007 2.3505778e-38
-0.022095239 0.21476573 0.92800003 2.1667957e-38
0.00088095246 0.21407145 0.92500007 2.2098792e-38
-0.037880953 0.21583335 0.92500007 1.8769992e-38
-0.036119051 0.21583335 0.92500007 1.7387058e-38
-0.034357145 0.21583335 0.92500007 1.9226286e-38
-0.03259524 0.21583335 0.92500007 2.3478449e-38
-0.030833337 0.21583335 0.92500007 2.26656e-38
-0.022095239 0.21653333 0.92800003 2.230546e-38
0.00088095246 0.21583335 0.92500007 2.2095568e-38
0.0026371428 0.21536668 0.92300004 2.3017524e-38
-0.037880953 0.21759525 0.92500007 1.8494119e-38
-0.036119051 0.21759525 0.92500007 1.7295575e-38
-0.034357145 0.21759525 0.92500007 1.857984e-38
-0.03259524 0.21759525 0.92500007 2.3466209e-38
-0.030833337 0.21759525 0.92500007 2.2198735e-38
0.00088095246 0.21759525 0.92500007 2.2004081e-38
0.0026371428 0.21712476 0.92300004 2.2833842e-38
-0.037880953 0.21935715 0.92500007 1.8770764e-38
-0.036119051 0.21935715 0.92500007 1.7019047e-38
-0.034357145 0.21935715 0.92500007 1.7930881e-38
-0.03259524 0.21935715 0.92500007 2.2817227e-38
0.0026371428 0.21888286 0.92300004 2.208981e-38
