# .PCD v0.7 - Point Cloud Data file format
VERSION 0.7
FIELDS x y z rgba
SIZE 4 4 4 4
TYPE F F F U
COUNT 1 1 1 1
WIDTH 1087
HEIGHT 1
VIEWPOINT 0 0 0 1 0 0 0
POINTS 1087
DATA ascii
-0.10259715 0.040625714 0.72300005 16578812
-0.1015 0.040738095 0.72500002 16578807
-0.10011905 0.040738095 0.72500002 16776443
-0.098738097 0.040738095 0.72500002 16645629
-0.097357146 0.040738095 0.72500002 16711422
-0.09624096 0.040850475 0.72700006 16711420
-0.094856195 0.040850475 0.72700006 16711420
-0.093214288 0.040738095 0.72500002 16711422
-0.091833338 0.040738095 0.72500002 16711422
-0.090452388 0.040738095 0.72500002 16711422
-0.088825718 0.040625714 0.72300005 16711422
-0.087448575 0.040625714 0.72300005 16711422
-0.086071432 0.040625714 0.72300005 16711422
-0.084577151 0.040569525 0.72200006 16711422
-0.083201908 0.040569525 0.72200006 16711422
-0.081940003 0.040625714 0.72300005 16711420
-0.08056286 0.040625714 0.72300005 16711420
-0.079185717 0.040625714 0.72300005 16711422
-0.078023814 0.040738095 0.72500002 16711422
-0.076854289 0.040850475 0.72700006 16711422
-0.075469524 0.040850475 0.72700006 16711422
-0.074084766 0.040850475 0.72700006 16711422
-0.072700009 0.040850475 0.72700006 16711422
-0.071315244 0.040850475 0.72700006 16711422
-0.069930486 0.040850475 0.72700006 16711422
-0.068545721 0.040850475 0.72700006 16711422
-0.067160957 0.040850475 0.72700006 16711422
-0.065776192 0.040850475 0.72700006 16711422
-0.064214289 0.040738095 0.72500002 16711422
-0.062660009 0.040625714 0.72300005 16711422
-0.061282866 0.040625714 0.72300005 16711422
-0.060071427 0.040738095 0.72500002 16711422
-0.058528576 0.040625714 0.72300005 16711422
-0.057151429 0.040625714 0.72300005 16711422
-0.05577429 0.040625714 0.72300005 16711422
-0.054321911 0.040569525 0.72200006 16711422
-0.052946672 0.040569525 0.72200006 16711422
-0.051642857 0.040625714 0.72300005 16711674
-0.15058859 0.041944765 0.72200006 7165516
-0.1488 0.041828573 0.72000003 7494481
-0.14742857 0.041828573 0.72000003 13673868
-0.14747715 0.04223524 0.72700006 16774363
-0.1460924 0.04223524 0.72700006 16711420
-0.14430954 0.042119049 0.72500002 16711420
-0.14292859 0.042119049 0.72500002 16711420
-0.14193811 0.04223524 0.72700006 16711420
-0.14055334 0.04223524 0.72700006 16711422
-0.13878572 0.042119049 0.72500002 16711422
-0.13740477 0.042119049 0.72500002 16711422
-0.13602382 0.042119049 0.72500002 16711422
-0.13464285 0.042119049 0.72500002 16711422
-0.1332619 0.042119049 0.72500002 16711422
-0.13188095 0.042119049 0.72500002 16711420
-0.1305 0.042119049 0.72500002 16711420
-0.12911904 0.042119049 0.72500002 16711420
-0.12809049 0.04223524 0.72700006 16711420
-0.12670572 0.04223524 0.72700006 16711420
-0.12532096 0.04223524 0.72700006 16711420
-0.12410668 0.042293333 0.72800004 16711420
-0.12272 0.042293333 0.72800004 16711420
-0.12133334 0.042293333 0.72800004 16711420
-0.11994667 0.042293333 0.72800004 16711420
-0.11856001 0.042293333 0.72800004 16711420
-0.11701239 0.04223524 0.72700006 16711420
-0.11562763 0.04223524 0.72700006 16711420
-0.11424287 0.04223524 0.72700006 16711420
-0.1128581 0.04223524 0.72700006 16711420
-0.11147334 0.04223524 0.72700006 16711420
-0.11008858 0.04223524 0.72700006 16711420
-0.10840476 0.042119049 0.72500002 16448248
-0.10702381 0.042119049 0.72500002 16576497
-0.10564286 0.042119049 0.72500002 16181739
-0.10397429 0.04200286 0.72300005 16375516
-0.10259715 0.04200286 0.72300005 16243930
-0.1015 0.042119049 0.72500002 16374741
-0.10011905 0.042119049 0.72500002 16703706
-0.098738097 0.042119049 0.72500002 16508644
-0.097357146 0.042119049 0.72500002 16773358
-0.09624096 0.04223524 0.72700006 16711161
-0.094856195 0.04223524 0.72700006 16645368
-0.093214288 0.042119049 0.72500002 16711420
-0.091833338 0.042119049 0.72500002 16711420
-0.090452388 0.042119049 0.72500002 16711420
-0.088825718 0.04200286 0.72300005 16711420
-0.087448575 0.04200286 0.72300005 16711420
-0.086071432 0.04200286 0.72300005 16711420
-0.084577151 0.041944765 0.72200006 16711674
-0.083201908 0.041944765 0.72200006 16711674
-0.081940003 0.04200286 0.72300005 16711674
-0.08056286 0.04200286 0.72300005 16711674
-0.079185717 0.04200286 0.72300005 16711420
-0.078023814 0.042119049 0.72500002 16711420
-0.076854289 0.04223524 0.72700006 16711674
-0.075469524 0.04223524 0.72700006 16711674
-0.074084766 0.04223524 0.72700006 16711672
-0.072700009 0.04223524 0.72700006 16711672
-0.071315244 0.04223524 0.72700006 16711672
-0.069930486 0.04223524 0.72700006 16711672
-0.068545721 0.04223524 0.72700006 16711674
-0.066976197 0.042119049 0.72500002 16711674
-0.065595239 0.042119049 0.72500002 16711670
-0.064037152 0.04200286 0.72300005 16646133
-0.062660009 0.04200286 0.72300005 16711663
-0.061282866 0.04200286 0.72300005 16645870
-0.060071427 0.042119049 0.72500002 16646120
-0.058528576 0.04200286 0.72300005 16646120
-0.057151429 0.04200286 0.72300005 16646109
-0.05577429 0.04200286 0.72300005 16711646
-0.054321911 0.041944765 0.72200006 16646116
-0.052946672 0.041944765 0.72200006 16646116
-0.051642857 0.04200286 0.72300005 16646111
-0.15058859 0.043320004 0.72200006 6838611
-0.1488 0.043200001 0.72000003 6114888
-0.14742857 0.043200001 0.72000003 12421652
-0.14747715 0.043620002 0.72700006 16237646
-0.14569049 0.043500002 0.72500002 15972779
-0.14430954 0.043500002 0.72500002 15183263
-0.14292859 0.043500002 0.72500002 14394519
-0.14154762 0.043500002 0.72500002 13802382
-0.14016667 0.043500002 0.72500002 13931149
-0.13878572 0.043500002 0.72500002 13667977
-0.13740477 0.043500002 0.72500002 13470596
-0.13602382 0.043500002 0.72500002 13273217
-0.13427144 0.043380003 0.72300005 13272958
-0.13289431 0.043380003 0.72300005 13207165
-0.13151714 0.043380003 0.72300005 13207416
-0.13014001 0.043380003 0.72300005 13273209
-0.12911904 0.043500002 0.72500002 13273720
-0.12809049 0.043620002 0.72700006 13405306
-0.12670572 0.043620002 0.72700006 13207673
-0.12532096 0.043620002 0.72700006 12878708
-0.12410668 0.043680001 0.72800004 13205876
-0.12272 0.043680001 0.72800004 13271669
-0.12133334 0.043680001 0.72800004 13336431
-0.11994667 0.043680001 0.72800004 13139052
-0.11856001 0.043680001 0.72800004 13269355
-0.11717334 0.043680001 0.72800004 13269355
-0.11578667 0.043680001 0.72800004 13334891
-0.11424287 0.043620002 0.72700006 13071719
-0.1128581 0.043620002 0.72700006 13268051
-0.11147334 0.043620002 0.72700006 13136465
-0.11008858 0.043620002 0.72700006 13331777
-0.10840476 0.043500002 0.72500002 12739640
-0.10702381 0.043500002 0.72500002 13327113
-0.10564286 0.043500002 0.72500002 12734976
-0.10426191 0.043500002 0.72500002 13519360
-0.10288095 0.043500002 0.72500002 13387776
-0.10178001 0.043620002 0.72700006 13517824
-0.10039525 0.043620002 0.72700006 13517824
-0.099010482 0.043620002 0.72700006 13389824
-0.097625725 0.043620002 0.72700006 14113536
-0.09624096 0.043620002 0.72700006 13723918
-0.094856195 0.043620002 0.72700006 14316055
-0.09347143 0.043620002 0.72700006 14386782
-0.091833338 0.043500002 0.72500002 15242091
-0.090452388 0.043500002 0.72500002 14453361
-0.088825718 0.043380003 0.72300005 13861224
-0.087448575 0.043380003 0.72300005 14454401
-0.086071432 0.043380003 0.72300005 14980745
-0.084577151 0.043320004 0.72200006 15245943
-0.083201908 0.043320004 0.72200006 15903873
-0.081940003 0.043380003 0.72300005 15114373
-0.08056286 0.043380003 0.72300005 14324857
-0.079185717 0.043380003 0.72300005 14982287
-0.077808574 0.043380003 0.72300005 15442838
-0.076854289 0.043620002 0.72700006 15773573
-0.075469524 0.043620002 0.72700006 16365710
-0.074084766 0.043620002 0.72700006 15646886
-0.072700009 0.043620002 0.72700006 16765624
-0.071315244 0.043620002 0.72700006 16112572
-0.069930486 0.043620002 0.72700006 16771016
-0.068357147 0.043500002 0.72500002 16577492
-0.066976197 0.043500002 0.72500002 16248527
-0.065595239 0.043500002 0.72500002 16112309
-0.064037152 0.043380003 0.72300005 15585965
-0.062660009 0.043380003 0.72300005 15979087
-0.061282866 0.043380003 0.72300005 15452743
-0.059905719 0.043380003 0.72300005 15849751
-0.058528576 0.043380003 0.72300005 16441888
-0.057151429 0.043380003 0.72300005 15984660
-0.05577429 0.043380003 0.72300005 16445211
-0.054397147 0.043380003 0.72300005 16312887
-0.053020004 0.043380003 0.72300005 16641852
-0.051642857 0.043380003 0.72300005 16116480
-0.15079714 0.044757146 0.72300005 6641493
-0.14921334 0.044695243 0.72200006 5391426
-0.1478381 0.044695243 0.72200006 10506283
-0.14707144 0.044880953 0.72500002 15967102
-0.14569049 0.044880953 0.72500002 15635068
-0.14430954 0.044880953 0.72500002 13529692
-0.14292859 0.044880953 0.72500002 15098462
-0.14154762 0.044880953 0.72500002 15032669
-0.14016667 0.044880953 0.72500002 15032417
-0.13878572 0.044880953 0.72500002 15164003
-0.13740477 0.044880953 0.72500002 15230568
-0.13564858 0.044757146 0.72300005 15098982
-0.13427144 0.044757146 0.72300005 15429480
-0.13289431 0.044757146 0.72300005 15824238
-0.13151714 0.044757146 0.72300005 15496067
-0.13014001 0.044757146 0.72300005 15298688
-0.12876286 0.044757146 0.72300005 15430239
-0.12773809 0.044880953 0.72500002 15496032
-0.12635714 0.044880953 0.72500002 15496043
-0.12532096 0.045004766 0.72700006 14114390
-0.1239362 0.045004766 0.72700006 15094092
-0.12255144 0.045004766 0.72700006 15357264
-0.12116668 0.045004766 0.72700006 15161407
-0.11978191 0.045004766 0.72700006 15029821
-0.11856001 0.04506667 0.72800004 15227202
-0.11717334 0.04506667 0.72800004 15292995
-0.11578667 0.04506667 0.72800004 15228999
-0.11424287 0.045004766 0.72700006 13781553
-0.1128581 0.045004766 0.72700006 14959627
-0.11147334 0.045004766 0.72700006 14959627
-0.11008858 0.045004766 0.72700006 14959616
-0.10840476 0.044880953 0.72500002 14564864
-0.10702381 0.044880953 0.72500002 14892800
-0.10243714 0.043519046 0.70300001 14958592
-0.10109809 0.043519046 0.70300001 14827008
-0.09975905 0.043519046 0.70300001 14827008
-0.098140001 0.04339524 0.70100003 14827008
-0.096666671 0.043333337 0.70000005 14827008
-0.095333338 0.043333337 0.70000005 14893824
-0.097625725 0.045004766 0.72700006 14959616
-0.09624096 0.045004766 0.72700006 14826496
-0.094856195 0.045004766 0.72700006 14760704
-0.09347143 0.045004766 0.72700006 15164191
-0.091833338 0.044880953 0.72500002 15624742
-0.090452388 0.044880953 0.72500002 15429980
-0.088825718 0.044757146 0.72300005 14640464
-0.087448575 0.044757146 0.72300005 15294294
-0.086071432 0.044757146 0.72300005 15294294
-0.084577151 0.044695243 0.72200006 15363669
-0.083201908 0.044695243 0.72200006 15561048
-0.081940003 0.044757146 0.72300005 15564396
-0.08056286 0.044757146 0.72300005 15235431
-0.079185717 0.044757146 0.72300005 15431016
-0.077808574 0.044757146 0.72300005 15496809
-0.076642863 0.044880953 0.72500002 15634291
-0.075469524 0.045004766 0.72700006 16160635
-0.074084766 0.045004766 0.72700006 15904902
-0.072700009 0.045004766 0.72700006 16761239
-0.071119048 0.044880953 0.72500002 16174513
-0.069738097 0.044880953 0.72500002 16770505
-0.068357147 0.044880953 0.72500002 16710127
-0.06679143 0.044757146 0.72300005 16183783
-0.065414287 0.044757146 0.72300005 16307630
-0.063948572 0.044695243 0.72200006 15781286
-0.062573336 0.044695243 0.72200006 16106090
-0.061198097 0.044695243 0.72200006 16106090
-0.059822865 0.044695243 0.72200006 16175466
-0.058447625 0.044695243 0.72200006 16636017
-0.057072386 0.044695243 0.72200006 16310884
-0.055697147 0.044695243 0.72200006 16771435
-0.054321911 0.044695243 0.72200006 16444544
-0.052800003 0.044571429 0.72000003 16510337
-0.051428575 0.044571429 0.72000003 14861094
-0.050057143 0.044571429 0.72000003 9334528
-0.048685715 0.044571429 0.72000003 9529856
-0.15079714 0.046134286 0.72300005 7166038
-0.14921334 0.046070479 0.72200006 7166038
-0.1478381 0.046070479 0.72200006 11427204
-0.14666572 0.046134286 0.72300005 15966921
-0.14528857 0.046134286 0.72300005 14979934
-0.14391144 0.046134286 0.72300005 12940351
-0.1425343 0.046134286 0.72300005 13329007
-0.14154762 0.046261907 0.72500002 13329007
-0.13978001 0.046134286 0.72300005 13525599
-0.13840286 0.046134286 0.72300005 13788771
-0.13702573 0.046134286 0.72300005 13331049
-0.13564858 0.046134286 0.72300005 12936291
-0.13427144 0.046134286 0.72300005 13926492
-0.13289431 0.046134286 0.72300005 15505524
-0.13133524 0.046070479 0.72200006 14977698
-0.12996 0.046070479 0.72200006 13990803
-0.12876286 0.046134286 0.72300005 13260369
-0.12773809 0.046261907 0.72500002 12734025
-0.12635714 0.046261907 0.72500002 12795180
-0.1249762 0.046261907 0.72500002 10952976
-0.12359525 0.046261907 0.72500002 12588809
-0.12221428 0.046261907 0.72500002 12523016
-0.12116668 0.046389528 0.72700006 13180416
-0.11978191 0.046389528 0.72700006 15285784
-0.11839715 0.046389528 0.72700006 15029287
-0.11701239 0.046389528 0.72700006 15555631
-0.11578667 0.046453338 0.72800004 15163405
-0.11440001 0.046453338 0.72800004 14768647
-0.1128581 0.046389528 0.72700006 15028480
-0.11147334 0.046389528 0.72700006 15094272
-0.10645428 0.044858098 0.70300001 15029504
-0.10511524 0.044858098 0.70300001 15095296
-0.10377619 0.044858098 0.70300001 15095808
-0.10214572 0.044730477 0.70100003 15424768
-0.10081048 0.044730477 0.70100003 15096842
-0.099475242 0.044730477 0.70100003 14965256
-0.098000005 0.044666667 0.70000005 15096832
-0.096666671 0.044666667 0.70000005 15162624
-0.095060952 0.044539049 0.69800001 15096833
-0.093731426 0.044539049 0.69800001 15228419
-0.092401907 0.044539049 0.69800001 15031296
-0.091072381 0.044539049 0.69800001 14833920
-0.09347143 0.046389528 0.72700006 15028736
-0.091833338 0.046261907 0.72500002 16476167
-0.090202861 0.046134286 0.72300005 15365430
-0.088825718 0.046134286 0.72300005 13786398
-0.087448575 0.046134286 0.72300005 15092032
-0.086071432 0.046134286 0.72300005 15092032
-0.084694296 0.046134286 0.72300005 15092534
-0.083201908 0.046070479 0.72200006 14566190
-0.081826672 0.046070479 0.72200006 14960421
-0.080451436 0.046070479 0.72200006 15289386
-0.079076193 0.046070479 0.72200006 15027261
-0.077700958 0.046070479 0.72200006 16277328
-0.076431431 0.046134286 0.72300005 15295051
-0.075261906 0.046261907 0.72500002 14966086
-0.073880956 0.046261907 0.72500002 14246742
-0.072499998 0.046261907 0.72500002 15891567
-0.071119048 0.046261907 0.72500002 14519937
-0.069545716 0.046134286 0.72300005 14848902
-0.068168573 0.046134286 0.72300005 14655899
-0.06679143 0.046134286 0.72300005 14590106
-0.065323815 0.046070479 0.72200006 14524541
-0.063948572 0.046070479 0.72200006 14656127
-0.062573336 0.046070479 0.72200006 15249264
-0.061198097 0.046070479 0.72200006 16236159
-0.059822865 0.046070479 0.72200006 15712647
-0.058447625 0.046070479 0.72200006 15383682
-0.057072386 0.046070479 0.72200006 15910006
-0.055697147 0.046070479 0.72200006 16567936
-0.054321911 0.046070479 0.72200006 16109434
-0.052800003 0.045942858 0.72000003 16043641
-0.051428575 0.045942858 0.72000003 15515904
-0.050057143 0.045942858 0.72000003 6436608
-0.048685715 0.045942858 0.72000003 7671296
-0.15217429 0.047511432 0.72300005 6380890
-0.15079714 0.047511432 0.72300005 7820886
-0.14921334 0.047445718 0.72200006 8413023
-0.1478381 0.047445718 0.72200006 12614509
-0.14646287 0.047445718 0.72200006 12877681
-0.14528857 0.047511432 0.72300005 12215615
-0.14391144 0.047511432 0.72300005 10702376
-0.1425343 0.047511432 0.72300005 10900548
-0.14115715 0.047511432 0.72300005 11295306
-0.13978001 0.047511432 0.72300005 11164492
-0.13840286 0.047511432 0.72300005 11098699
-0.13702573 0.047511432 0.72300005 9782336
-0.13564858 0.047511432 0.72300005 9255992
-0.13408571 0.047445718 0.72200006 9124868
-0.13271049 0.047445718 0.72200006 10769693
-0.13133524 0.047445718 0.72200006 10768724
-0.12996 0.047445718 0.72200006 11295068
-0.12858477 0.047445718 0.72200006 12080166
-0.12738572 0.047511432 0.72300005 12474924
-0.12600857 0.047511432 0.72300005 11877428
-0.12463143 0.047511432 0.72300005 11680049
-0.12359525 0.047642857 0.72500002 12334664
-0.12221428 0.047642857 0.72500002 12071492
-0.12083334 0.047642857 0.72500002 12461068
-0.11945238 0.047642857 0.72500002 14237479
-0.11839715 0.047774293 0.72700006 14636820
-0.11701239 0.047774293 0.72700006 15163164
-0.11578667 0.047840003 0.72800004 15229209
-0.11440001 0.047840003 0.72800004 14768658
-0.10882191 0.046065718 0.70100003 15095552
-0.10748667 0.046065718 0.70100003 15227136
-0.10615143 0.046065718 0.70100003 15031040
-0.1048162 0.046065718 0.70100003 15162624
-0.10377619 0.046197142 0.70300001 15162880
-0.10214572 0.046065718 0.70100003 15228672
-0.10081048 0.046065718 0.70100003 15097605
-0.099475242 0.046065718 0.70100003 15097605
-0.098000005 0.046000004 0.70000005 15163136
-0.096666671 0.046000004 0.70000005 15163136
-0.095060952 0.045868572 0.69800001 15162880
-0.093731426 0.045868572 0.69800001 15360257
-0.092269525 0.045802858 0.69700003 15163650
-0.090941906 0.045802858 0.69700003 14900480
-0.089742862 0.045868572 0.69800001 15030784
-0.091580003 0.047511432 0.72300005 16741906
-0.090202861 0.047511432 0.72300005 15632717
-0.088702865 0.047445718 0.72200006 13593134
-0.087327629 0.047445718 0.72200006 15028020
-0.085952386 0.047445718 0.72200006 15488571
-0.084577151 0.047445718 0.72200006 15162179
-0.082971431 0.047314286 0.72000003 14306870
-0.081600003 0.047314286 0.72000003 14959910
-0.080228575 0.047314286 0.72000003 15157289
-0.078857146 0.047314286 0.72000003 15026475
-0.07748571 0.047314286 0.72000003 15289647
-0.076325722 0.047445718 0.72200006 14634543
-0.075054288 0.047511432 0.72300005 15160887
-0.073677152 0.047511432 0.72300005 12935504
-0.072300009 0.047511432 0.72300005 13988192
-0.070922859 0.047511432 0.72300005 12877943
-0.069545716 0.047511432 0.72300005 12680564
-0.068168573 0.047511432 0.72300005 13404803
-0.06669905 0.047445718 0.72200006 13470596
-0.065323815 0.047445718 0.72200006 12882050
-0.063948572 0.047445718 0.72200006 13803152
-0.062400002 0.047314286 0.72000003 13677698
-0.061028574 0.047314286 0.72000003 13019768
-0.059822865 0.047445718 0.72200006 12822409
-0.058447625 0.047445718 0.72200006 12164479
-0.056914289 0.047314286 0.72000003 13017692
-0.055465717 0.047248576 0.71900004 14530931
-0.054096192 0.047248576 0.71900004 16106644
-0.052726667 0.047248576 0.71900004 16501402
-0.051428575 0.047314286 0.72000003 14458624
-0.050057143 0.047314286 0.72000003 7616256
-0.15217429 0.048888575 0.72300005 6379870
-0.15058859 0.048820958 0.72200006 8673378
-0.14921334 0.048820958 0.72200006 9791859
-0.1478381 0.048820958 0.72200006 11885612
-0.14646287 0.048820958 0.72200006 11688233
-0.14508763 0.048820958 0.72200006 11878946
-0.14371239 0.048820958 0.72200006 11418395
-0.14233714 0.048820958 0.72200006 11489078
-0.14096192 0.048820958 0.72200006 12344387
-0.13958667 0.048820958 0.72200006 11951700
-0.13821143 0.048820958 0.72200006 11754321
-0.13702573 0.048888575 0.72300005 10900550
-0.13546096 0.048820958 0.72200006 9584690
-0.13408571 0.048820958 0.72200006 10041632
-0.13271049 0.048820958 0.72200006 11160113
-0.13133524 0.048820958 0.72200006 11294044
-0.12996 0.048820958 0.72200006 13465213
-0.12858477 0.048820958 0.72200006 13864584
-0.12720953 0.048820958 0.72200006 15640995
-0.12583429 0.048820958 0.72200006 15380135
-0.12445905 0.048820958 0.72200006 15577514
-0.12325429 0.048888575 0.72300005 16036021
-0.12221428 0.049023811 0.72500002 15707056
-0.12083334 0.049023811 0.72500002 15771240
-0.11945238 0.049023811 0.72500002 11692074
-0.11807143 0.049023811 0.72500002 14832667
-0.11701239 0.04915905 0.72700006 15293218
-0.11578667 0.049226668 0.72800004 15096592
-0.11015715 0.047400955 0.70100003 14965006
-0.10882191 0.047400955 0.70100003 15030528
-0.10748667 0.047400955 0.70100003 15227904
-0.10615143 0.047400955 0.70100003 15162628
-0.1048162 0.047400955 0.70100003 15162628
-0.10348096 0.047400955 0.70100003 15163137
-0.10214572 0.047400955 0.70100003 15163137
-0.10081048 0.047400955 0.70100003 15163137
-0.099475242 0.047400955 0.70100003 15163137
-0.098000005 0.047333337 0.70000005 15162885
-0.096666671 0.047333337 0.70000005 15097092
-0.095060952 0.047198098 0.69800001 15097094
-0.093597144 0.04713048 0.69700003 15228680
-0.092269525 0.04713048 0.69700003 15163650
-0.090941906 0.04713048 0.69700003 15032064
-0.089614287 0.04713048 0.69700003 15097101
-0.088286668 0.04713048 0.69700003 16478754
-0.090202861 0.048888575 0.72300005 15300129
-0.088702865 0.048820958 0.72200006 14773785
-0.087085716 0.048685715 0.72000003 15296325
-0.085714288 0.048685715 0.72000003 15362118
-0.08434286 0.048685715 0.72000003 15361616
-0.082856201 0.048618097 0.71900004 15295823
-0.081486672 0.048618097 0.71900004 15296077
-0.080117144 0.048618097 0.71900004 15361870
-0.078747623 0.048618097 0.71900004 15228492
-0.077378094 0.048618097 0.71900004 15031113
-0.076114289 0.048685715 0.72000003 14508619
-0.074950479 0.048820958 0.72200006 14771791
-0.073575243 0.048820958 0.72200006 12810372
-0.072200008 0.048820958 0.72200006 13599888
-0.070824765 0.048820958 0.72200006 12222859
-0.06925714 0.048685715 0.72000003 11828101
-0.067885719 0.048685715 0.72000003 11434622
-0.066514291 0.048685715 0.72000003 12092552
-0.065052383 0.048618097 0.71900004 12817313
-0.063682862 0.048618097 0.71900004 14396345
-0.062400002 0.048685715 0.72000003 12885911
-0.061028574 0.048685715 0.72000003 12030602
-0.059657145 0.048685715 0.72000003 11833768
-0.058285713 0.048685715 0.72000003 11307424
-0.056835238 0.048618097 0.71900004 13805200
-0.055465717 0.048618097 0.71900004 14857888
-0.054096192 0.048618097 0.71900004 16107657
-0.052726667 0.048618097 0.71900004 15054969
-0.051357146 0.048618097 0.71900004 14653440
-0.050057143 0.048685715 0.72000003 7811072
-0.15017143 0.050057143 0.72000003 9725278
-0.1488 0.050057143 0.72000003 10054243
-0.14742857 0.050057143 0.72000003 12539183
-0.14605714 0.050057143 0.72000003 13065527
-0.14468573 0.050057143 0.72000003 13127512
-0.1433143 0.050057143 0.72000003 15364474
-0.14194286 0.050057143 0.72000003 14452639
-0.1403762 0.049987622 0.71900004 15307948
-0.13900667 0.049987622 0.71900004 15311787
-0.13763715 0.049987622 0.71900004 14456478
-0.13626763 0.049987622 0.71900004 13797267
-0.1348981 0.049987622 0.71900004 12876165
-0.13371429 0.050057143 0.72000003 12940154
-0.13234286 0.050057143 0.72000003 14979737
-0.13097143 0.050057143 0.72000003 16036800
-0.1296 0.050057143 0.72000003 15576249
-0.12822857 0.050057143 0.72000003 14196404
-0.12685715 0.050057143 0.72000003 15314885
-0.12548572 0.050057143 0.72000003 14923202
-0.12411429 0.050057143 0.72000003 14594237
-0.12308381 0.050196193 0.72200006 15647427
-0.12187715 0.050265718 0.72300005 16042185
-0.12050001 0.050265718 0.72300005 16033243
-0.11912286 0.050265718 0.72300005 11032975
-0.11807143 0.050404765 0.72500002 14698496
-0.11701239 0.050543811 0.72700006 16014342
-0.11562763 0.050543811 0.72700006 15096331
-0.11000001 0.048666667 0.70000005 15162124
-0.10866667 0.048666667 0.70000005 15097088
-0.10733334 0.048666667 0.70000005 15228672
-0.10600001 0.048666667 0.70000005 15097857
-0.10466667 0.048666667 0.70000005 15097857
-0.10348096 0.048736192 0.70100003 15097344
-0.10200001 0.048666667 0.70000005 15163136
-0.10066667 0.048666667 0.70000005 15163136
-0.099475242 0.048736192 0.70100003 15163136
-0.098000005 0.048666667 0.70000005 15163398
-0.096666671 0.048666667 0.70000005 15097605
-0.095060952 0.048527621 0.69800001 15163650
-0.093597144 0.048458096 0.69700003 15163650
-0.092269525 0.048458096 0.69700003 15163650
-0.090941906 0.048458096 0.69700003 15032064
-0.089614287 0.048458096 0.69700003 15096842
-0.088286668 0.048458096 0.69700003 15754772
-0.086959057 0.048458096 0.69700003 15164952
-0.088702865 0.050196193 0.72200006 15296538
-0.086964764 0.049987622 0.71900004 15297081
-0.085595243 0.049987622 0.71900004 15428667
-0.084225714 0.049987622 0.71900004 15231052
-0.082625717 0.049848571 0.71700001 15296845
-0.081146665 0.04977905 0.71600002 15296852
-0.079782858 0.04977905 0.71600002 15296852
-0.078528576 0.049848571 0.71700001 15231052
-0.077162862 0.049848571 0.71700001 15560017
-0.076008573 0.049987622 0.71900004 13985603
-0.074742861 0.050057143 0.72000003 12932915
-0.073371425 0.050057143 0.72000003 11102549
-0.072000004 0.050057143 0.72000003 11694686
-0.070628576 0.050057143 0.72000003 10845017
-0.069160953 0.049987622 0.71900004 10713431
-0.067791432 0.049987622 0.71900004 9927247
-0.066421911 0.049987622 0.71900004 10453591
-0.064871423 0.049848571 0.71700001 12161892
-0.063505717 0.049848571 0.71700001 13214580
-0.062313333 0.049987622 0.71900004 12687707
-0.060943812 0.049987622 0.71900004 12687707
-0.059574291 0.049987622 0.71900004 12493424
-0.058204763 0.049987622 0.71900004 12230252
-0.056677144 0.049848571 0.71700001 13806181
-0.055311427 0.049848571 0.71700001 15319420
-0.053945716 0.049848571 0.71700001 16172696
-0.052579999 0.049848571 0.71700001 14527871
-0.051142856 0.04977905 0.71600002 13267968
-0.04977905 0.04977905 0.71600002 8399360
-0.15133238 0.051357146 0.71900004 8548727
-0.14996287 0.051357146 0.71900004 11169129
-0.14859334 0.051357146 0.71900004 10905957
-0.14722382 0.051357146 0.71900004 12474417
-0.14585429 0.051357146 0.71900004 13987656
-0.14448477 0.051357146 0.71900004 12874377
-0.14311525 0.051357146 0.71900004 16760276
-0.14174572 0.051357146 0.71900004 16108762
-0.13998571 0.051214285 0.71700001 15845590
-0.13861999 0.051214285 0.71700001 16042453
-0.13725428 0.051214285 0.71700001 16174039
-0.13588856 0.051214285 0.71700001 15518937
-0.13452287 0.051214285 0.71700001 15124179
-0.13315715 0.051214285 0.71700001 15056853
-0.13215905 0.051357146 0.71900004 15846369
-0.13078953 0.051357146 0.71900004 15450332
-0.12942 0.051357146 0.71900004 14858195
-0.12805048 0.051357146 0.71900004 13280973
-0.12685715 0.051428575 0.72000003 13412559
-0.12548572 0.051428575 0.72000003 12823243
-0.12411429 0.051428575 0.72000003 12099520
-0.12274286 0.051428575 0.72000003 13740977
-0.12137143 0.051428575 0.72000003 16701662
-0.12050001 0.051642857 0.72300005 16104179
-0.11912286 0.051642857 0.72300005 10182809
-0.11774572 0.051642857 0.72300005 14433792
-0.11234476 0.049857143 0.69800001 16078601
-0.11101524 0.049857143 0.69800001 15096583
-0.10968572 0.049857143 0.69800001 15030790
-0.10820096 0.049785715 0.69700003 15097092
-0.10687333 0.049785715 0.69700003 15097092
-0.10554572 0.049785715 0.69700003 15097092
-0.10436761 0.049857143 0.69800001 15097092
-0.10303809 0.049857143 0.69800001 15097344
-0.10156287 0.049785715 0.69700003 15031552
-0.10023524 0.049785715 0.69700003 15096832
-0.099333346 0.050000004 0.70000005 15425792
-0.098000005 0.050000004 0.70000005 15228948
-0.096390471 0.049857143 0.69800001 14965776
-0.094924763 0.049785715 0.69700003 15096833
-0.093597144 0.049785715 0.69700003 15096833
-0.092269525 0.049785715 0.69700003 15096576
-0.090941906 0.049785715 0.69700003 15030784
-0.089614287 0.049785715 0.69700003 15096576
-0.088286668 0.049785715 0.69700003 15754506
-0.086959057 0.049785715 0.69700003 15162905
-0.088088572 0.051214285 0.71700001 14899733
-0.086722851 0.051214285 0.71700001 15228708
-0.085357144 0.051214285 0.71700001 15952431
-0.083874285 0.051142856 0.71600002 15297361
-0.082510479 0.051142856 0.71600002 15692119
-0.080920003 0.051000003 0.71400005 15429462
-0.079560004 0.051000003 0.71400005 15232083
-0.078419052 0.051142856 0.71600002 15296843
-0.077055238 0.051142856 0.71600002 15823187
-0.075797141 0.051214285 0.71700001 14972230
-0.074431427 0.051214285 0.71700001 13327405
-0.073065713 0.051214285 0.71700001 12544060
-0.071699999 0.051214285 0.71700001 12938818
-0.070334285 0.051214285 0.71700001 12941891
-0.068968572 0.051214285 0.71700001 14060372
-0.067602858 0.051214285 0.71700001 13997396
-0.066144764 0.051142856 0.71600002 14457947
-0.064780958 0.051142856 0.71600002 14786370
-0.063417144 0.051142856 0.71600002 14852163
-0.06205333 0.051142856 0.71600002 14917443
-0.060774285 0.051214285 0.71700001 15904338
-0.059408572 0.051214285 0.71700001 15644214
-0.058042858 0.051214285 0.71700001 15710007
-0.056598097 0.051142856 0.71600002 15840053
-0.055234287 0.051142856 0.71600002 16761155
-0.053870477 0.051142856 0.71600002 15973239
-0.052506667 0.051142856 0.71600002 13144140
-0.051000003 0.051000003 0.71400005 12474624
-0.04964 0.051000003 0.71400005 8527104
-0.15091142 0.052579999 0.71700001 8942440
-0.14954571 0.052579999 0.71700001 11954778
-0.14797334 0.052506667 0.71600002 11757399
-0.14660953 0.052506667 0.71600002 12342313
-0.14524572 0.052506667 0.71600002 14052931
-0.14408286 0.052579999 0.71700001 11168448
-0.14271714 0.052579999 0.71700001 13405410
-0.14135143 0.052579999 0.71700001 12429762
-0.13940001 0.052360002 0.71400005 13811415
-0.13804002 0.052360002 0.71400005 14338513
-0.13706286 0.052506667 0.71600002 14535892
-0.13569905 0.052506667 0.71600002 13880011
-0.13433523 0.052506667 0.71600002 12761530
-0.13297144 0.052506667 0.71600002 11379400
-0.13160762 0.052506667 0.71600002 12892639
-0.13042572 0.052579999 0.71700001 12890572
-0.12906 0.052579999 0.71700001 11969470
-0.12769428 0.052579999 0.71700001 9476028
-0.12668097 0.052726667 0.71900004 10002372
-0.12531143 0.052726667 0.71900004 10264774
-0.12394191 0.052726667 0.71900004 9738430
-0.12257238 0.052726667 0.71900004 11701689
-0.12120286 0.052726667 0.71900004 15188718
-0.12050001 0.053020004 0.72300005 16102879
-0.11418 0.05082 0.69300002 10510474
-0.11286 0.05082 0.69300002 14631680
-0.11202286 0.051040001 0.69600004 16013315
-0.11069715 0.051040001 0.69600004 15096324
-0.10952857 0.051113334 0.69700003 15162117
-0.10804572 0.051040001 0.69600004 15031040
-0.10672001 0.051040001 0.69600004 15228416
-0.1053943 0.051040001 0.69600004 15097346
-0.10406857 0.051040001 0.69600004 15097346
-0.10274286 0.051040001 0.69600004 15097600
-0.10141715 0.051040001 0.69600004 14966016
-0.10009144 0.051040001 0.69600004 15030016
-0.099049523 0.05118667 0.69800001 15556352
-0.097720005 0.05118667 0.69800001 15163405
-0.096390471 0.05118667 0.69800001 14966026
-0.094924763 0.051113334 0.69700003 15030528
-0.093597144 0.051113334 0.69700003 15162112
-0.092269525 0.051113334 0.69700003 15030272
-0.090941906 0.051113334 0.69700003 15096064
-0.089614287 0.051113334 0.69700003 15096064
-0.088286668 0.051113334 0.69700003 15885579
-0.086959057 0.051113334 0.69700003 15096833
-0.088088572 0.052579999 0.71700001 14109952
-0.086722851 0.052579999 0.71700001 14961664
-0.085000008 0.052360002 0.71400005 16277509
-0.083640002 0.052360002 0.71400005 15296591
-0.082280003 0.052360002 0.71400005 15559763
-0.080920003 0.052360002 0.71400005 15363158
-0.079560004 0.052360002 0.71400005 15297365
-0.078200005 0.052360002 0.71400005 15297102
-0.076840006 0.052360002 0.71400005 15560274
-0.075691432 0.052506667 0.71600002 15432524
-0.074327618 0.052506667 0.71600002 15103559
-0.072963811 0.052506667 0.71600002 14578264
-0.071599998 0.052506667 0.71600002 14380885
-0.070236191 0.052506667 0.71600002 15301967
-0.068872385 0.052506667 0.71600002 16486241
-0.067320004 0.052360002 0.71400005 15635316
-0.065960005 0.052360002 0.71400005 16030074
-0.064509533 0.05228667 0.71300006 15768428
-0.063151434 0.05228667 0.71300006 15439463
-0.061880007 0.052360002 0.71400005 15636817
-0.060689528 0.052506667 0.71600002 16163161
-0.059325717 0.052506667 0.71600002 15770703
-0.057961904 0.052506667 0.71600002 15770703
-0.056598097 0.052506667 0.71600002 15704894
-0.055234287 0.052506667 0.71600002 16757839
-0.053870477 0.052506667 0.71600002 15905161
-0.052506667 0.052506667 0.71600002 12747097
-0.051000003 0.052360002 0.71400005 11220736
-0.04964 0.052360002 0.71400005 9115392
-0.15091142 0.053945716 0.71700001 8548946
-0.14933714 0.053870477 0.71600002 11622978
-0.14756 0.053720001 0.71400005 10307118
-0.1462 0.053720001 0.71400005 11744775
-0.14484002 0.053720001 0.71400005 16756608
-0.1438819 0.053870477 0.71600002 14401492
-0.14251809 0.053870477 0.71600002 8874880
-0.14076 0.053720001 0.71400005 7432574
-0.13940001 0.053720001 0.71400005 7498367
-0.13804002 0.053720001 0.71400005 9860487
-0.13668001 0.053720001 0.71400005 9728901
-0.13532001 0.053720001 0.71400005 11182461
-0.13396001 0.053720001 0.71400005 11379840
-0.13260001 0.053720001 0.71400005 10982332
-0.13124 0.053720001 0.71400005 11048125
-0.13024381 0.053870477 0.71600002 11572913
-0.12888001 0.053870477 0.71600002 11572913
-0.12751618 0.053870477 0.71600002 12430262
-0.12632857 0.053945716 0.71700001 13219778
-0.12496285 0.053945716 0.71700001 13350364
-0.12359715 0.053945716 0.71700001 15521533
-0.12223143 0.053945716 0.71700001 15386347
-0.12120286 0.054096192 0.71900004 15123175
-0.1155 0.052140001 0.69300002 16037778
-0.11418 0.052140001 0.69300002 10642752
-0.11286 0.052140001 0.69300002 14894336
-0.11202286 0.05236572 0.69600004 16275971
-0.11069715 0.05236572 0.69600004 15097351
-0.10937143 0.05236572 0.69600004 15228937
-0.10773524 0.052215237 0.69400001 15163144
-0.10641333 0.052215237 0.69400001 15228937
-0.1053943 0.05236572 0.69600004 15163396
-0.10376953 0.052215237 0.69400001 15031810
-0.10244761 0.052215237 0.69400001 15162880
-0.10098 0.052140001 0.69300002 15097088
-0.099660002 0.052140001 0.69300002 15096576
-0.098340005 0.052140001 0.69300002 15096576
-0.09702 0.052140001 0.69300002 15162628
-0.095700003 0.052140001 0.69300002 15294214
-0.094788581 0.05236572 0.69600004 15162628
-0.093462862 0.05236572 0.69600004 15162628
-0.092137143 0.05236572 0.69600004 15096842
-0.090811431 0.05236572 0.69600004 15360014
-0.08948572 0.05236572 0.69600004 15230976
-0.088160008 0.05236572 0.69600004 15625728
-0.086834289 0.05236572 0.69600004 15162887
-0.085140005 0.052140001 0.69300002 13583872
-0.086360008 0.053720001 0.71400005 14893312
-0.085000008 0.053720001 0.71400005 16143370
-0.083522864 0.053644765 0.71300006 15162947
-0.082164772 0.053644765 0.71300006 15228740
-0.080806673 0.053644765 0.71300006 15160387
-0.079448573 0.053644765 0.71300006 15094594
-0.078090489 0.053644765 0.71300006 15160900
-0.07673239 0.053644765 0.71300006 15358279
-0.075480007 0.053720001 0.71400005 15298365
-0.07412 0.053720001 0.71400005 16746582
-0.072760001 0.053720001 0.71400005 15235699
-0.071400002 0.053720001 0.71400005 14183011
-0.07004001 0.053720001 0.71400005 14906446
-0.068680003 0.053720001 0.71400005 16353892
-0.067225717 0.053644765 0.71300006 15635059
-0.065867618 0.053644765 0.71300006 15766645
-0.064328574 0.053494286 0.71100003 15699328
-0.062974289 0.053494286 0.71100003 15107191
-0.061793335 0.053644765 0.71300006 15432508
-0.060435243 0.053644765 0.71300006 15300922
-0.059160002 0.053720001 0.71400005 15301126
-0.057800002 0.053720001 0.71400005 15037954
-0.056440003 0.053720001 0.71400005 15233792
-0.055080004 0.053720001 0.71400005 16748824
-0.053720001 0.053720001 0.71400005 15767915
-0.052506667 0.053870477 0.71600002 12675644
-0.051142856 0.053870477 0.71600002 11147550
-0.04977905 0.053870477 0.71600002 10423827
-0.15028 0.055080004 0.71400005 7956045
-0.14871144 0.055002861 0.71300006 11689472
-0.14735334 0.055002861 0.71300006 11031552
-0.14599524 0.055002861 0.71300006 11809024
-0.14463715 0.055002861 0.71300006 16757622
-0.14327906 0.055002861 0.71300006 15788010
-0.14192097 0.055002861 0.71300006 10458777
-0.14076 0.055080004 0.71400005 3565708
-0.13920477 0.055002861 0.71300006 4947361
-0.13784668 0.055002861 0.71300006 9337223
-0.13648859 0.055002861 0.71300006 10126739
-0.13513048 0.055002861 0.71300006 11903393
-0.13377239 0.055002861 0.71300006 11442842
-0.1324143 0.055002861 0.71300006 10260889
-0.1310562 0.055002861 0.71300006 9866131
-0.12969811 0.055002861 0.71300006 10587794
-0.12834001 0.055002861 0.71300006 11443103
-0.12698191 0.055002861 0.71300006 13412784
-0.12580001 0.055080004 0.71400005 13807542
-0.12444 0.055080004 0.71400005 14132930
-0.12290762 0.055002861 0.71300006 14198723
-0.12154954 0.055002861 0.71300006 14460868
-0.12019144 0.055002861 0.71300006 13802938
-0.1155 0.053460002 0.69300002 14846581
-0.11418 0.053460002 0.69300002 12478033
-0.11302286 0.053537142 0.69400001 14962944
-0.11202286 0.053691432 0.69600004 15884032
-0.11037905 0.053537142 0.69400001 15163146
-0.10905714 0.053537142 0.69400001 15228939
-0.10758 0.053460002 0.69300002 15163396
-0.10626 0.053460002 0.69300002 15229189
-0.10494 0.053460002 0.69300002 15163146
-0.10332096 0.053305719 0.69100004 15031560
-0.10200477 0.053305719 0.69100004 15097344
-0.10068858 0.053305719 0.69100004 15097344
-0.099372379 0.053305719 0.69100004 15097088
-0.098056197 0.053305719 0.69100004 14965504
-0.09674 0.053305719 0.69100004 15030528
-0.095423818 0.053305719 0.69100004 15227904
-0.09410762 0.053305719 0.69100004 15096832
-0.092791438 0.053305719 0.69100004 14965248
-0.091475241 0.053305719 0.69100004 15096833
-0.09042 0.053460002 0.69300002 15425798
-0.089099996 0.053460002 0.69300002 15229457
-0.087779999 0.053460002 0.69300002 15558422
-0.086460002 0.053460002 0.69300002 15228948
-0.085140005 0.053460002 0.69300002 13189376
-0.086239055 0.055002861 0.71300006 14893312
-0.084880956 0.055002861 0.71300006 16209170
-0.083288573 0.054848574 0.71100003 15160878
-0.08181905 0.054771431 0.71000004 15358257
-0.080466673 0.054771431 0.71000004 15160896
-0.079114296 0.054771431 0.71000004 14963517
-0.077761903 0.054771431 0.71000004 15093822
-0.076409526 0.054771431 0.71000004 15159615
-0.075162858 0.054848574 0.71100003 15033898
-0.073808573 0.054848574 0.71100003 16152379
-0.072454289 0.054848574 0.71100003 15169868
-0.071100004 0.054848574 0.71100003 14314559
-0.069647625 0.054771431 0.71000004 14905944
-0.06829524 0.054771431 0.71000004 16484976
-0.066942856 0.054771431 0.71000004 15634566
-0.065590478 0.054771431 0.71000004 15766152
-0.064238101 0.054771431 0.71000004 15632765
-0.062885717 0.054771431 0.71000004 14777456
-0.061533332 0.054771431 0.71000004 15498042
-0.060011428 0.05461714 0.708 14379561
-0.058662858 0.05461714 0.708 15230720
-0.057314284 0.05461714 0.708 15033344
-0.055965714 0.05461714 0.708 15232512
-0.055002861 0.055002861 0.71300006 16749331
-0.053644765 0.055002861 0.71300006 15767924
-0.052360002 0.055080004 0.71400005 12280895
-0.051000003 0.055080004 0.71400005 11345665
-0.15006953 0.056360956 0.71300006 10454885
-0.14829428 0.056202859 0.71100003 14791449
-0.14694001 0.056202859 0.71100003 15844137
-0.14558572 0.056202859 0.71100003 15712256
-0.14423144 0.056202859 0.71100003 16765952
-0.14287715 0.056202859 0.71100003 15851951
-0.14152285 0.056202859 0.71100003 14930849
-0.14016858 0.056202859 0.71100003 12630219
-0.13881429 0.056202859 0.71100003 9866913
-0.13746001 0.056202859 0.71100003 10320790
-0.13610572 0.056202859 0.71100003 11702443
-0.13475142 0.056202859 0.71100003 11165618
-0.13339715 0.056202859 0.71100003 10244516
-0.13204286 0.056202859 0.71100003 10965305
-0.13050477 0.056123812 0.71000004 11360063
-0.12915239 0.056123812 0.71000004 11884382
-0.12743999 0.055965714 0.708 13397621
-0.12609142 0.055965714 0.708 13134941
-0.12474285 0.055965714 0.708 12871769
-0.12322 0.055886667 0.70700002 12933220
-0.12187333 0.055886667 0.70700002 12012118
-0.12035619 0.05580762 0.70600003 12273704
-0.11816857 0.055412382 0.70100003 10760465
-0.11566667 0.05485905 0.69400001 12926208
-0.11418 0.054779999 0.69300002 13649920
-0.11286 0.054779999 0.69300002 14961154
-0.11170095 0.05485905 0.69400001 16211221
-0.10990191 0.054621909 0.69100004 15097600
-0.10858572 0.054621909 0.69100004 15097600
-0.10726953 0.054621909 0.69100004 15162887
-0.10595334 0.054621909 0.69100004 15162887
-0.10463715 0.054621909 0.69100004 15162887
-0.10332096 0.054621909 0.69100004 15031301
-0.10200477 0.054621909 0.69100004 15097344
-0.10068858 0.054621909 0.69100004 15163136
-0.099372379 0.054621909 0.69100004 15097092
-0.098056197 0.054621909 0.69100004 15097092
-0.096600004 0.054542862 0.69000006 15095808
-0.095285721 0.054542862 0.69000006 15095808
-0.093971431 0.054542862 0.69000006 15095552
-0.092657149 0.054542862 0.69000006 15490304
-0.091342866 0.054542862 0.69000006 15163153
-0.090159051 0.054621909 0.69100004 15557911
-0.088842861 0.054621909 0.69100004 15099145
-0.087526672 0.054621909 0.69100004 15033352
-0.086460002 0.054779999 0.69300002 15163416
-0.085140005 0.054779999 0.69300002 12992256
-0.085634284 0.055965714 0.708 15025208
-0.084285714 0.055965714 0.708 16604240
-0.082937144 0.055965714 0.708 15229746
-0.081588566 0.055965714 0.708 15229746
-0.080239996 0.055965714 0.708 15162949
-0.078891426 0.055965714 0.708 15097156
-0.077542856 0.055965714 0.708 15093833
-0.076409526 0.056123812 0.71000004 15225419
-0.075057149 0.056123812 0.71000004 14901793
-0.073704764 0.056123812 0.71000004 14507035
-0.07235238 0.056123812 0.71000004 14050560
-0.071000002 0.056123812 0.71000004 14247936
-0.069451429 0.055965714 0.708 14773597
-0.068102859 0.055965714 0.708 16747387
-0.066942856 0.056123812 0.71000004 15768220
-0.065590478 0.056123812 0.71000004 15965599
-0.064057142 0.055965714 0.708 15833478
-0.062708572 0.055965714 0.708 14517618
-0.061360002 0.055965714 0.708 15497549
-0.060011428 0.055965714 0.708 14576447
-0.058580004 0.055886667 0.70700002 15031326
-0.057152383 0.05580762 0.70600003 14833947
-0.055649526 0.055649526 0.70400006 15230477
-0.054308575 0.055649526 0.70400006 16743973
-0.053644765 0.056360956 0.71300006 15566915
-0.052360002 0.056440003 0.71400005 12145679
-0.051000003 0.056440003 0.71400005 11345681
-0.15006953 0.057719052 0.71300006 12887945
-0.14829428 0.057557143 0.71100003 14333260
-0.14694001 0.057557143 0.71100003 16701808
-0.14558572 0.057557143 0.71100003 16047872
-0.14423144 0.057557143 0.71100003 16376832
-0.1426762 0.057476193 0.71000004 16312181
-0.14132382 0.057476193 0.71000004 16575353
-0.13997144 0.057476193 0.71000004 14930618
-0.13861905 0.057476193 0.71000004 11838347
-0.13726667 0.057476193 0.71000004 10514270
-0.1359143 0.057476193 0.71000004 11435372
-0.13456191 0.057476193 0.71000004 12009072
-0.13320953 0.057476193 0.71000004 11087970
-0.13185716 0.057476193 0.71000004 13376833
-0.13050477 0.057476193 0.71000004 14824279
-0.12878856 0.057314284 0.708 14304049
-0.12743999 0.057314284 0.708 14501428
-0.12609142 0.057314284 0.708 14368795
-0.12474285 0.057314284 0.708 14960932
-0.12322 0.057233334 0.70700002 14432590
-0.12170096 0.057152383 0.70600003 14893141
-0.11984476 0.056909524 0.70300001 14303804
-0.11816857 0.056747623 0.70100003 12856358
-0.11566667 0.056180954 0.69400001 13248768
-0.11418 0.056100003 0.69300002 13117184
-0.11286 0.056100003 0.69300002 14961665
-0.1112181 0.055938099 0.69100004 16080146
-0.10990191 0.055938099 0.69100004 15163398
-0.10858572 0.055938099 0.69100004 15031812
-0.10726953 0.055938099 0.69100004 15096832
-0.10595334 0.055938099 0.69100004 15096832
-0.10463715 0.055938099 0.69100004 15096832
-0.10317144 0.055857148 0.69000006 15031040
-0.10185716 0.055857148 0.69000006 15030784
-0.10054287 0.055857148 0.69000006 14964992
-0.099228583 0.055857148 0.69000006 15096320
-0.097914286 0.055857148 0.69000006 15030528
-0.096600004 0.055857148 0.69000006 15027985
-0.095285721 0.055857148 0.69000006 15159571
-0.093971431 0.055857148 0.69000006 15094063
-0.092657149 0.055857148 0.69000006 15423028
-0.091342866 0.055857148 0.69000006 15228948
-0.090159051 0.055938099 0.69100004 15623706
-0.088842861 0.055938099 0.69100004 15230488
-0.087526672 0.055938099 0.69100004 15164695
-0.086460002 0.056100003 0.69300002 15163148
-0.085140005 0.056100003 0.69300002 12860416
-0.085392386 0.057152383 0.70600003 15093029
-0.084047616 0.057152383 0.70600003 16672061
-0.08270286 0.057152383 0.70600003 15295814
-0.081473336 0.057233334 0.70700002 15032642
-0.080126666 0.057233334 0.70700002 15162436
-0.078780003 0.057233334 0.70700002 15162436
-0.077433333 0.057233334 0.70700002 15162179
-0.076194286 0.057314284 0.708 15162179
-0.074845709 0.057314284 0.708 15097654
-0.073497139 0.057314284 0.708 14571310
-0.072148569 0.057314284 0.708 14117122
-0.070800006 0.057314284 0.708 14446087
-0.069451429 0.057314284 0.708 14707041
-0.068102859 0.057314284 0.708 16746881
-0.066754289 0.057314284 0.708 15768222
-0.065405719 0.057314284 0.708 15899808
-0.064057142 0.057314284 0.708 15768220
-0.062708572 0.057314284 0.708 14452360
-0.061186668 0.057152383 0.70600003 15497047
-0.059841909 0.057152383 0.70600003 14181187
-0.058497142 0.057152383 0.70600003 15031569
-0.056990478 0.056990478 0.70400006 14176260
-0.055649526 0.056990478 0.70400006 14962688
-0.054231428 0.056909524 0.70300001 16741152
-0.052892383 0.056909524 0.70300001 15236676
-0.14808571 0.058828574 0.71000004 15847987
-0.14673334 0.058828574 0.71000004 16770888
-0.14538096 0.058828574 0.71000004 16316928
-0.14362286 0.058662858 0.708 16448512
-0.14227429 0.058662858 0.708 16250624
-0.14092572 0.058662858 0.708 16776960
-0.13957714 0.058662858 0.708 16312438
-0.13822857 0.058662858 0.708 14667613
-0.13688 0.058662858 0.708 15252378
-0.13553143 0.058662858 0.708 15581343
-0.13418286 0.058662858 0.708 14382778
-0.13283429 0.058662858 0.708 13659055
-0.13148572 0.058662858 0.708 14906758
-0.13013715 0.058662858 0.708 15169930
-0.12878856 0.058662858 0.708 15170943
-0.12726 0.058580004 0.70700002 15960459
-0.12591334 0.058580004 0.70700002 15634273
-0.12456667 0.058580004 0.70700002 15831652
-0.12322 0.058580004 0.70700002 15700082
-0.12170096 0.058497142 0.70600003 14647394
-0.11984476 0.058248568 0.70300001 15365963
-0.11816857 0.05808286 0.70100003 11944727
-0.11566667 0.057502858 0.69400001 12725506
-0.11418 0.05742 0.69300002 12593920
-0.11253429 0.057254288 0.69100004 14104331
-0.1112181 0.057254288 0.69100004 15683363
-0.10974286 0.057171434 0.69000006 15097344
-0.10842858 0.057171434 0.69000006 15557888
-0.10711429 0.057171434 0.69000006 15164160
-0.10580001 0.057171434 0.69000006 15295745
-0.10448572 0.057171434 0.69000006 15163909
-0.10287239 0.057005715 0.68800002 15098116
-0.10156191 0.057005715 0.68800002 15229200
-0.10025143 0.057005715 0.68800002 15031821
-0.098940954 0.057005715 0.68800002 15300352
-0.097630478 0.057005715 0.68800002 16155648
-0.096320003 0.057005715 0.68800002 15566954
-0.095009528 0.057005715 0.68800002 15632747
-0.093699045 0.057005715 0.68800002 15632767
-0.09238857 0.057005715 0.68800002 14711665
-0.091078095 0.057005715 0.68800002 15165454
-0.090028577 0.057171434 0.69000006 15033868
-0.088842861 0.057254288 0.69100004 15230745
-0.087526672 0.057254288 0.69100004 15164952
-0.086210482 0.057254288 0.69100004 15162896
-0.086491436 0.058331434 0.70400006 13057536
-0.08515048 0.058331434 0.70400006 15028237
-0.083809532 0.058331434 0.70400006 16742453
-0.082468584 0.058331434 0.70400006 15432529
-0.081358097 0.058497142 0.70600003 14708806
-0.080013335 0.058497142 0.70600003 15363399
-0.078668572 0.058497142 0.70600003 15297606
-0.077323809 0.058497142 0.70600003 15295814
-0.075979047 0.058497142 0.70600003 15558986
-0.074634291 0.058497142 0.70600003 15294290
-0.073393337 0.058580004 0.70700002 15031118
-0.072046667 0.058580004 0.70700002 14772032
-0.070699997 0.058580004 0.70700002 14903618
-0.069353335 0.058580004 0.70700002 14772848
-0.068006672 0.058580004 0.70700002 16286087
-0.066754289 0.058662858 0.708 15767433
-0.065405719 0.058662858 0.708 15833226
-0.063966669 0.058580004 0.70700002 15767692
-0.062619999 0.058580004 0.70700002 14846590
-0.061013337 0.058331434 0.70400006 15432538
-0.059672385 0.058331434 0.70400006 13985092
-0.058331434 0.058331434 0.70400006 14635297
-0.056990478 0.058331434 0.70400006 14569504
-0.055570476 0.058248568 0.70300001 14897447
-0.054077145 0.05808286 0.70100003 16147514
-0.052516192 0.057834286 0.69800001 14577932
-0.05118667 0.057834286 0.69800001 11025152
-0.14808571 0.060180955 0.71000004 15718727
-0.14673334 0.060180955 0.71000004 16771415
-0.14497143 0.060011428 0.708 16316183
-0.14342 0.059926666 0.70700002 16381976
-0.14207333 0.059926666 0.70700002 16316416
-0.14072667 0.059926666 0.70700002 16776966
-0.13937999 0.059926666 0.70700002 16379036
-0.13803333 0.059926666 0.70700002 14471039
-0.13668667 0.059926666 0.70700002 16037778
-0.13534001 0.059926666 0.70700002 16235157
-0.13380381 0.059841909 0.70600003 15834783
-0.13245904 0.059841909 0.70600003 16756399
