# .PCD v0.7 - Point Cloud Data file format
VERSION 0.7
FIELDS x y z rgba
SIZE 4 4 4 4
TYPE F F F U
COUNT 1 1 1 1
WIDTH 1085
HEIGHT 1
VIEWPOINT 0 0 0 1 0 0 0
POINTS 1085
DATA ascii
-0.043633334 0.07196667 0.59500003 16300412
-0.042428575 0.071845718 0.59400004 16041360
-0.041297145 0.071845718 0.59400004 16766111
-0.040165719 0.071845718 0.59400004 15981010
-0.039034288 0.071845718 0.59400004 14994115
-0.037775241 0.071603805 0.59200001 15780516
-0.036647618 0.071603805 0.59200001 16438446
-0.035520002 0.071603805 0.59200001 15915469
-0.034392379 0.071603805 0.59200001 15652297
-0.033264764 0.071603805 0.59200001 15982284
-0.032137141 0.071603805 0.59200001 16574421
-0.031009525 0.071603805 0.59200001 16180433
-0.029881904 0.071603805 0.59200001 14667194
-0.028754286 0.071603805 0.59200001 15454139
-0.027673336 0.071724765 0.59300005 16243655
-0.026543811 0.071724765 0.59300005 16314075
-0.025414288 0.071724765 0.59300005 15524559
-0.024284763 0.071724765 0.59300005 15918815
-0.023194287 0.071845718 0.59400004 15129299
-0.022025717 0.071724765 0.59300005 15063497
-0.020896193 0.071724765 0.59300005 14471360
-0.019766668 0.071724765 0.59300005 14670535
-0.018637145 0.071724765 0.59300005 14473156
-0.01750762 0.071724765 0.59300005 16120497
-0.016378097 0.071724765 0.59300005 16514999
-0.015248572 0.071724765 0.59300005 16251831
-0.01411905 0.071724765 0.59300005 15199143
-0.012989525 0.071724765 0.59300005 16185483
-0.0118 0.071361914 0.59000003 15922311
-0.010676191 0.071361914 0.59000003 16185692
-0.0095523819 0.071361914 0.59000003 16514657
-0.0084285717 0.071361914 0.59000003 16449371
-0.0073047625 0.071361914 0.59000003 16514908
-0.0061809528 0.071361914 0.59000003 16383846
-0.0050485721 0.071240962 0.58900005 16318309
-0.0039266669 0.071240962 0.58900005 16252770
-0.0028000001 0.071120001 0.588 16645992
-0.0016771429 0.070999049 0.58700001 16646059
-0.00055904762 0.070999049 0.58700001 14672781
0.00055904762 0.070999049 0.58700001 13810500
0.0016771429 0.070999049 0.58700001 10718229
-0.10080572 0.073468573 0.59800005 10260601
-0.099666677 0.073468573 0.59800005 10455668
-0.098362856 0.073345713 0.597 8876636
-0.096900001 0.073100001 0.59500003 12615254
-0.095766671 0.073100001 0.59500003 16766124
-0.094633341 0.073100001 0.59500003 16239321
-0.093500003 0.073100001 0.59500003 15055047
-0.092211433 0.072977148 0.59400004 16037302
-0.09108001 0.072977148 0.59400004 14589856
-0.08994858 0.072977148 0.59400004 15700618
-0.089116193 0.073222861 0.59600002 15832204
-0.087833337 0.073100001 0.59500003 15767704
-0.0867 0.073100001 0.59500003 15899290
-0.08556667 0.073100001 0.59500003 15833735
-0.08443334 0.073100001 0.59500003 15702149
-0.083160006 0.072977148 0.59400004 15701127
-0.082028575 0.072977148 0.59400004 15569541
-0.080897152 0.072977148 0.59400004 15700868
-0.079631433 0.072854295 0.59300005 16095626
-0.078369528 0.072731428 0.59200001 15834265
-0.077241905 0.072731428 0.59200001 15900058
-0.076114282 0.072731428 0.59200001 15901600
-0.074986666 0.072731428 0.59200001 15967393
-0.073983818 0.072854295 0.59300005 15902360
-0.072854295 0.072854295 0.59300005 15770774
-0.071724765 0.072854295 0.59300005 15834773
-0.070714295 0.072977148 0.59400004 15308429
-0.069582857 0.072977148 0.59400004 15701120
-0.068451434 0.072977148 0.59400004 15766913
-0.067320004 0.072977148 0.59400004 15834237
-0.066188574 0.072977148 0.59400004 15702651
-0.065057144 0.072977148 0.59400004 15767926
-0.063925713 0.072977148 0.59400004 16031098
-0.06279429 0.072977148 0.59400004 15769234
-0.06166286 0.072977148 0.59400004 14979718
-0.060531434 0.072977148 0.59400004 15699825
-0.059400003 0.072977148 0.59400004 15765618
-0.058170483 0.072854295 0.59300005 15767919
-0.057040956 0.072854295 0.59300005 15373161
-0.055911433 0.072854295 0.59300005 15700566
-0.05487429 0.072977148 0.59400004 14384706
-0.053652387 0.072854295 0.59300005 15365420
-0.05252286 0.072854295 0.59300005 15299627
-0.051393338 0.072854295 0.59300005 15299102
-0.050263815 0.072854295 0.59300005 15101723
-0.049217146 0.072977148 0.59400004 15298305
-0.048085716 0.072977148 0.59400004 15429891
-0.046954285 0.072977148 0.59400004 15299584
-0.045822859 0.072977148 0.59400004 15496960
-0.044766668 0.073100001 0.59500003 15566910
-0.043633334 0.073100001 0.59500003 15501117
-0.042428575 0.072977148 0.59400004 15770433
-0.041297145 0.072977148 0.59400004 16759898
-0.040165719 0.072977148 0.59400004 16241354
-0.039034288 0.072977148 0.59400004 14399150
-0.037839051 0.072854295 0.59300005 15838082
-0.036709525 0.072854295 0.59300005 16760983
-0.035520002 0.072731428 0.59200001 15978178
-0.034392379 0.072731428 0.59200001 15780799
-0.033264764 0.072731428 0.59200001 15977912
-0.032137141 0.072731428 0.59200001 16504256
-0.031009525 0.072731428 0.59200001 16309707
-0.029932383 0.072854295 0.59300005 15059640
-0.028802859 0.072854295 0.59300005 15778213
-0.027673336 0.072854295 0.59300005 16766136
-0.026543811 0.072854295 0.59300005 16446183
-0.025414288 0.072854295 0.59300005 15985632
-0.024284763 0.072854295 0.59300005 16116187
-0.023155238 0.072854295 0.59300005 15655636
-0.022025717 0.072854295 0.59300005 15852765
-0.020896193 0.072854295 0.59300005 16775666
-0.019766668 0.072854295 0.59300005 16646133
-0.018605713 0.072731428 0.59200001 16580340
-0.017478095 0.072731428 0.59200001 16711661
-0.016350476 0.072731428 0.59200001 16711661
-0.015222857 0.072731428 0.59200001 16711661
-0.014095238 0.072731428 0.59200001 16580331
-0.012989525 0.072854295 0.59300005 16646097
-0.0118 0.072485715 0.59000003 15791044
-0.010676191 0.072485715 0.59000003 16185422
-0.0095523819 0.072485715 0.59000003 16777048
-0.0084285717 0.072485715 0.59000003 16514935
-0.0073047625 0.072485715 0.59000003 16514935
-0.0061809528 0.072485715 0.59000003 16514935
-0.0050485721 0.072362863 0.58900005 16514935
-0.0039266669 0.072362863 0.58900005 16514926
-0.0028000001 0.072239995 0.588 16711537
-0.0016771429 0.072117142 0.58700001 16580527
-0.00055904762 0.072117142 0.58700001 13686147
0.00055809523 0.07199429 0.58600003 13278762
0.0016742859 0.07199429 0.58600003 11897109
-0.10080572 0.074607626 0.59800005 10260860
-0.099666677 0.074607626 0.59800005 10520952
-0.097868577 0.074108571 0.59400004 9534057
-0.096737146 0.074108571 0.59400004 14126743
-0.095605724 0.074108571 0.59400004 16767201
-0.094474293 0.074108571 0.59400004 16307404
-0.093342863 0.074108571 0.59400004 12886168
-0.0920562 0.073983818 0.59300005 15701129
-0.09092667 0.073983818 0.59300005 16293266
-0.089797154 0.073983818 0.59300005 15700107
-0.088817142 0.074108571 0.59400004 15502728
-0.087538101 0.073983818 0.59300005 15767191
-0.086408578 0.073983818 0.59300005 16227742
-0.085279055 0.073983818 0.59300005 15635066
-0.084149532 0.073983818 0.59300005 15371894
-0.083160006 0.074108571 0.59400004 15836304
-0.081890486 0.073983818 0.59300005 16625820
-0.080760963 0.073983818 0.59300005 16171692
-0.079631433 0.073983818 0.59300005 16434864
-0.078369528 0.073859051 0.59200001 16104885
-0.077241905 0.073859051 0.59200001 13999509
-0.076114282 0.073859051 0.59200001 15564942
-0.074986666 0.073859051 0.59200001 15499149
-0.073983818 0.073983818 0.59300005 14774119
-0.072854295 0.073983818 0.59300005 14642533
-0.071724765 0.073983818 0.59300005 15232092
-0.070476189 0.073859051 0.59200001 15166299
-0.069348574 0.073859051 0.59200001 15296339
-0.068220958 0.073859051 0.59200001 15625304
-0.067206673 0.073983818 0.59300005 15364430
-0.066077143 0.073983818 0.59300005 16417118
-0.064947627 0.073983818 0.59300005 15634773
-0.063925713 0.074108571 0.59400004 16621668
-0.06279429 0.074108571 0.59400004 15834516
-0.061766669 0.074233338 0.59500003 14650242
-0.060633339 0.074233338 0.59500003 15364185
-0.059400003 0.074108571 0.59400004 15101013
-0.058268573 0.074108571 0.59400004 15300096
-0.057137147 0.074108571 0.59400004 15563264
-0.056005716 0.074108571 0.59400004 15300102
-0.054781906 0.073983818 0.59300005 14971137
-0.053652387 0.073983818 0.59300005 15232512
-0.05252286 0.073983818 0.59300005 15166720
-0.049573336 0.071363814 0.57200003 15232256
-0.048483811 0.071363814 0.57200003 15298048
-0.047394291 0.071363814 0.57200003 15232768
-0.046223812 0.071239047 0.57100004 15298560
-0.045136191 0.071239047 0.57100004 15233024
-0.045822859 0.074108571 0.59400004 15298816
-0.044766668 0.074233338 0.59500003 15298566
-0.043633334 0.074233338 0.59500003 15627531
-0.042428575 0.074108571 0.59400004 15437312
-0.041297145 0.074108571 0.59400004 16756491
-0.040165719 0.074108571 0.59400004 15837058
-0.039034288 0.074108571 0.59400004 14455405
-0.037839051 0.073983818 0.59300005 15566168
-0.036709525 0.073983818 0.59300005 15631961
-0.035580005 0.073983818 0.59300005 15500141
-0.034450479 0.073983818 0.59300005 15236969
-0.033264764 0.073859051 0.59200001 15567204
-0.032137141 0.073859051 0.59200001 16027755
-0.031009525 0.073859051 0.59200001 15633771
-0.029881904 0.073859051 0.59200001 15239013
-0.028754286 0.073859051 0.59200001 15631461
-0.027626665 0.073859051 0.59200001 16750713
-0.026499048 0.073859051 0.59200001 15903896
-0.025414288 0.073983818 0.59300005 16298654
-0.024284763 0.073983818 0.59300005 16106635
-0.02311619 0.073859051 0.59200001 16765079
-0.021988573 0.073859051 0.59200001 16575709
-0.020860951 0.073859051 0.59200001 16776172
-0.019733334 0.073859051 0.59200001 16711422
-0.018605713 0.073859051 0.59200001 16711422
-0.017478095 0.073859051 0.59200001 16711420
-0.016350476 0.073859051 0.59200001 16711420
-0.015222857 0.073859051 0.59200001 16711420
-0.014095238 0.073859051 0.59200001 16711420
-0.012967619 0.073859051 0.59200001 16646104
-0.011780001 0.073484764 0.58900005 15462342
-0.010658096 0.073484764 0.58900005 16315207
-0.0095361909 0.073484764 0.58900005 16644172
-0.0084285717 0.073609523 0.59000003 16514916
-0.0073047625 0.073609523 0.59000003 16580453
-0.0061809528 0.073609523 0.59000003 16514922
-0.0050399997 0.073359996 0.588 16580459
-0.00392 0.073359996 0.588 16580469
-0.0028000001 0.073359996 0.588 16711543
-0.0016771429 0.073235244 0.58700001 16580497
-0.00055904762 0.073235244 0.58700001 13817703
0.00055809523 0.073110484 0.58600003 12287829
0.0016742859 0.073110484 0.58600003 11761485
-0.097868577 0.075240009 0.59400004 10059372
-0.096737146 0.075240009 0.59400004 15178386
-0.095605724 0.075240009 0.59400004 16766413
-0.094474293 0.075240009 0.59400004 16440791
-0.093342863 0.075240009 0.59400004 12032660
-0.0920562 0.075113341 0.59300005 14126449
-0.09092667 0.075113341 0.59300005 15047551
-0.089797154 0.075113341 0.59300005 15765375
-0.088667624 0.075113341 0.59300005 16028547
-0.087538101 0.075113341 0.59300005 15767951
-0.086408578 0.075113341 0.59300005 15504779
-0.085279055 0.075113341 0.59300005 14256745
-0.084149532 0.075113341 0.59300005 14848882
-0.083020002 0.075113341 0.59300005 15903891
-0.081890486 0.075113341 0.59300005 16298649
-0.080760963 0.075113341 0.59300005 16240064
-0.079497144 0.074986666 0.59200001 16108478
-0.078369528 0.074986666 0.59200001 16171189
-0.077241905 0.074986666 0.59200001 13802641
-0.076114282 0.074986666 0.59200001 13794138
-0.074986666 0.074986666 0.59200001 12873036
-0.073983818 0.075113341 0.59300005 12276520
-0.072731428 0.074986666 0.59200001 11881762
-0.071603805 0.074986666 0.59200001 13322024
-0.070476189 0.074986666 0.59200001 13256231
-0.069231428 0.074860007 0.59100002 13580544
-0.068105713 0.074860007 0.59100002 15093778
-0.067093328 0.074986666 0.59200001 15228959
-0.065965712 0.074986666 0.59200001 16610612
-0.064838096 0.074986666 0.59200001 15433044
-0.063710481 0.074986666 0.59200001 15959388
-0.062900007 0.075366668 0.59500003 15633017
-0.061766669 0.075366668 0.59500003 14975087
-0.060633339 0.075366668 0.59500003 15298608
-0.059500001 0.075366668 0.59500003 14969643
-0.055620003 0.071820006 0.56700003 15232000
-0.054924767 0.072326675 0.57100004 15429376
-0.053837147 0.072326675 0.57100004 15298818
-0.05487429 0.075240009 0.59400004 15298818
-0.05374286 0.075240009 0.59400004 15233025
-0.050574288 0.072326675 0.57100004 15233025
-0.049486667 0.072326675 0.57100004 15233025
-0.04839905 0.072326675 0.57100004 15430404
-0.047311429 0.072326675 0.57100004 15299329
-0.046223812 0.072326675 0.57100004 15233536
-0.045136191 0.072326675 0.57100004 15299840
-0.044048574 0.072326675 0.57100004 15234048
-0.042960957 0.072326675 0.57100004 15299072
-0.043633334 0.075366668 0.59500003 15430656
-0.042428575 0.075240009 0.59400004 15369216
-0.041297145 0.075240009 0.59400004 16751877
-0.040165719 0.075240009 0.59400004 15835243
-0.039034288 0.075240009 0.59400004 14322004
-0.037902862 0.075240009 0.59400004 15497295
-0.036771432 0.075240009 0.59400004 15760467
-0.035580005 0.075113341 0.59300005 15497829
-0.034392379 0.074986666 0.59200001 15366243
-0.033264764 0.074986666 0.59200001 15363415
-0.032082856 0.074860007 0.59100002 15297622
-0.030957144 0.074860007 0.59100002 15296852
-0.02983143 0.074860007 0.59100002 15362645
-0.028754286 0.074986666 0.59200001 15363408
-0.027626665 0.074986666 0.59200001 15363408
-0.026499048 0.074986666 0.59200001 15498083
-0.025371429 0.074986666 0.59200001 15695462
-0.024243811 0.074986666 0.59200001 15768948
-0.02311619 0.074986666 0.59200001 16097913
-0.021988573 0.074986666 0.59200001 15900848
-0.020860951 0.074986666 0.59200001 16757442
-0.019733334 0.074986666 0.59200001 16306393
-0.018605713 0.074986666 0.59200001 16569565
-0.017478095 0.074986666 0.59200001 16310504
-0.016322857 0.074860007 0.59100002 16639469
-0.015197143 0.074860007 0.59100002 16509934
-0.014071429 0.074860007 0.59100002 15917797
-0.012967619 0.074986666 0.59200001 16174772
-0.011780001 0.074606672 0.58900005 15911600
-0.010658096 0.074606672 0.58900005 16310137
-0.0095361909 0.074606672 0.58900005 16770945
-0.0084142862 0.074606672 0.58900005 16377273
-0.0072923815 0.074606672 0.58900005 16772802
-0.0061704768 0.074606672 0.58900005 16577741
-0.0050399997 0.074480005 0.588 16511948
-0.00392 0.074480005 0.588 16580241
-0.0028000001 0.074480005 0.588 16777113
-0.0016799999 0.074480005 0.588 16646095
-0.00055904762 0.07435333 0.58700001 13093785
0.00055904762 0.07435333 0.58700001 12680965
0.0016771429 0.07435333 0.58700001 12746758
-0.097868577 0.076371431 0.59400004 10913141
-0.096574292 0.076242864 0.59300005 14058062
-0.095444769 0.076242864 0.59300005 14781785
-0.093997151 0.075985715 0.59100002 14580079
-0.092871435 0.075985715 0.59100002 11948359
-0.091745712 0.075985715 0.59100002 12934200
-0.090773337 0.076114282 0.59200001 13460544
-0.089645714 0.076114282 0.59200001 14048320
-0.088518098 0.076114282 0.59200001 14574664
-0.087390475 0.076114282 0.59200001 14051920
-0.086262859 0.076114282 0.59200001 12736060
-0.085135236 0.076114282 0.59200001 12473127
-0.084007621 0.076114282 0.59200001 12078369
-0.082879998 0.076114282 0.59200001 12800809
-0.081752382 0.076114282 0.59200001 12274465
-0.080624759 0.076114282 0.59200001 13453610
-0.079497144 0.076114282 0.59200001 12927266
-0.078369528 0.076114282 0.59200001 14506000
-0.077241905 0.076114282 0.59200001 15624481
-0.075985715 0.075985715 0.59100002 15099439
-0.074860007 0.075985715 0.59100002 14507302
-0.073859051 0.076114282 0.59200001 14636355
-0.072608575 0.075985715 0.59100002 14110011
-0.071482852 0.075985715 0.59100002 14766372
-0.070357144 0.075985715 0.59100002 15161130
-0.069231428 0.075985715 0.59100002 15097404
-0.068105713 0.075985715 0.59100002 15952713
-0.066980004 0.075985715 0.59100002 15430748
-0.065965712 0.076114282 0.59200001 15628127
-0.064838096 0.076114282 0.59200001 15430748
-0.063710481 0.076114282 0.59200001 14838611
-0.060045715 0.073028572 0.56800002 15231277
-0.058963813 0.073028572 0.56800002 15099691
-0.058085717 0.073285721 0.57000005 15165706
-0.056700002 0.072900005 0.56700003 15297292
-0.055620003 0.072900005 0.56700003 15232010
-0.054924767 0.073414288 0.57100004 15232010
-0.053837147 0.073414288 0.57100004 15298062
-0.052564763 0.073157147 0.56900001 15429648
-0.051480953 0.073157147 0.56900001 15233025
-0.050485719 0.073285721 0.57000005 15233025
-0.049486667 0.073414288 0.57100004 15298064
-0.04839905 0.073414288 0.57100004 15363857
-0.047311429 0.073414288 0.57100004 15233284
-0.046223812 0.073414288 0.57100004 15299077
-0.045057148 0.073285721 0.57000005 15300102
-0.043971434 0.073285721 0.57000005 15234309
-0.042735238 0.073028572 0.56800002 15299352
-0.041580003 0.072900005 0.56700003 15496731
-0.040428575 0.07277143 0.56600004 15433732
-0.039280951 0.072642855 0.565 15499525
-0.038204763 0.072642855 0.565 15434527
-0.039034288 0.076371431 0.59400004 15829285
-0.037902862 0.076371431 0.59400004 15565150
-0.036771432 0.076371431 0.59400004 15762529
-0.035580005 0.076242864 0.59300005 15565932
-0.034392379 0.076114282 0.59200001 15894897
-0.033208571 0.075985715 0.59100002 15566704
-0.032082856 0.075985715 0.59100002 15237739
-0.030957144 0.075985715 0.59100002 15497331
-0.02983143 0.075985715 0.59100002 15694710
-0.028705714 0.075985715 0.59100002 15364973
-0.02758 0.075985715 0.59100002 14970215
-0.026454287 0.075985715 0.59100002 15297356
-0.025328573 0.075985715 0.59100002 15494735
-0.024202857 0.075985715 0.59100002 15297867
-0.023077143 0.075985715 0.59100002 15626832
-0.02195143 0.075985715 0.59100002 14315409
-0.020825714 0.075985715 0.59100002 14315409
-0.019700002 0.075985715 0.59100002 13865127
-0.018511431 0.07572858 0.58900005 13799334
-0.017389525 0.07572858 0.58900005 13539775
-0.016295239 0.07585714 0.59000003 13802947
-0.015145715 0.07572858 0.58900005 13672894
-0.014023811 0.07572858 0.58900005 13278136
-0.012901906 0.07572858 0.58900005 14591164
-0.011780001 0.07572858 0.58900005 16762333
-0.010658096 0.07572858 0.58900005 16240295
-0.0095361909 0.07572858 0.58900005 16503467
-0.0084142862 0.07572858 0.58900005 14993629
-0.0072923815 0.07572858 0.58900005 14533078
-0.0061704768 0.07572858 0.58900005 14666456
-0.0050399997 0.075599998 0.588 14337491
-0.00392 0.075599998 0.588 15914923
-0.0028000001 0.075599998 0.588 16773830
-0.0016799999 0.075599998 0.588 16580495
-0.00055904762 0.075471431 0.58700001 12041546
0.00055904762 0.075471431 0.58700001 11490304
0.0016771429 0.075471431 0.58700001 12214016
-0.097703822 0.077372387 0.59300005 11502968
-0.096411429 0.077241905 0.59200001 13658700
-0.095283814 0.077241905 0.59200001 14185044
-0.093997151 0.07711143 0.59100002 14116430
-0.092871435 0.07711143 0.59100002 12997949
-0.091745712 0.07711143 0.59100002 13391660
-0.090620004 0.07711143 0.59100002 13852211
-0.089494288 0.07711143 0.59100002 13981771
-0.088368572 0.07711143 0.59100002 14705494
-0.087242857 0.07711143 0.59100002 14445665
-0.086117148 0.07711143 0.59100002 13853528
-0.084991433 0.07711143 0.59100002 12931920
-0.083865717 0.07711143 0.59100002 12734541
-0.082879998 0.077241905 0.59200001 13128488
-0.081752382 0.077241905 0.59200001 12338972
-0.08048857 0.07711143 0.59100002 12791571
-0.079362854 0.07711143 0.59100002 12923157
-0.078237146 0.07711143 0.59100002 14761286
-0.07711143 0.07711143 0.59100002 16736875
-0.07585714 0.076980956 0.59000003 15496568
-0.074733332 0.076980956 0.59000003 15036017
-0.073734291 0.07711143 0.59100002 15294312
-0.072608575 0.07711143 0.59100002 15425898
-0.071482852 0.07711143 0.59100002 15360906
-0.070357144 0.07711143 0.59100002 15689871
-0.069231428 0.07711143 0.59100002 15492532
-0.068105713 0.07711143 0.59100002 15360946
-0.066980004 0.07711143 0.59100002 15364437
-0.065965712 0.077241905 0.59200001 15759195
-0.064838096 0.077241905 0.59200001 15432022
-0.063710481 0.077241905 0.59200001 14445127
-0.060045715 0.074110478 0.56800002 15230756
-0.058963813 0.074110478 0.56800002 15362342
-0.058085717 0.074371435 0.57000005 15232269
-0.056700002 0.073980004 0.56700003 15298062
-0.055620003 0.073980004 0.56700003 15298064
-0.054924767 0.074501909 0.57100004 15232271
-0.053837147 0.074501909 0.57100004 15233025
-0.052564763 0.074240953 0.56900001 15233025
-0.051480953 0.074240953 0.56900001 15232256
-0.050485719 0.074371435 0.57000005 15429634
-0.049486667 0.074501909 0.57100004 15232784
-0.04839905 0.074501909 0.57100004 15232784
-0.047311429 0.074501909 0.57100004 15233025
-0.046142861 0.074371435 0.57000005 15298818
-0.045057148 0.074371435 0.57000005 15300365
-0.043971434 0.074371435 0.57000005 15300365
-0.042735238 0.074110478 0.56800002 15299611
-0.041580003 0.073980004 0.56700003 15168025
-0.040428575 0.073849529 0.56600004 15365129
-0.039280951 0.073719047 0.565 15759887
-0.038204763 0.073719047 0.565 15366676
-0.037128571 0.073719047 0.565 15366676
-0.037902862 0.077502862 0.59400004 15498550
-0.036771432 0.077502862 0.59400004 16156480
-0.035520002 0.077241905 0.59200001 15566193
-0.034276191 0.076980956 0.59000003 15895158
-0.033152383 0.076980956 0.59000003 15633269
-0.032028571 0.076980956 0.59000003 15501683
-0.030852385 0.076850481 0.58900005 15564657
-0.029730478 0.076850481 0.58900005 15630450
-0.028608572 0.076850481 0.58900005 15564914
-0.027533336 0.076980956 0.59000003 15235949
-0.026409525 0.076980956 0.59000003 15429737
-0.025285715 0.076980956 0.59000003 15692909
-0.024120953 0.076850481 0.58900005 15430991
-0.02299905 0.076850481 0.58900005 15891542
-0.021877145 0.076850481 0.58900005 12878493
-0.020755239 0.076850481 0.58900005 12812700
-0.019633334 0.076850481 0.58900005 12756671
-0.018511431 0.076850481 0.58900005 12361913
-0.017389525 0.076850481 0.58900005 12426941
-0.016240001 0.076719999 0.588 12492734
-0.015120001 0.076719999 0.588 12690876
-0.014 0.076719999 0.588 12427704
-0.01288 0.076719999 0.588 13808303
-0.011759999 0.076719999 0.588 16045265
-0.01064 0.076719999 0.588 14730147
-0.0095199998 0.076719999 0.588 14598561
-0.0083999997 0.076719999 0.588 13877717
-0.00728 0.076719999 0.588 12890822
-0.0061599999 0.076719999 0.588 13219014
-0.0050228573 0.07645905 0.58600003 12297912
-0.0039066668 0.07645905 0.58600003 13543561
-0.0027904762 0.07645905 0.58600003 16773843
-0.0016771429 0.076589525 0.58700001 16646093
-0.00055809523 0.07645905 0.58600003 12041095
0.00055809523 0.07645905 0.58600003 12146688
0.0016742859 0.07645905 0.58600003 12804608
-0.099000007 0.078634292 0.59400004 12488573
-0.097703822 0.07850191 0.59300005 11764850
-0.096411429 0.078369528 0.59200001 14444625
-0.095283814 0.078369528 0.59200001 14970969
-0.093997151 0.078237146 0.59100002 14706239
-0.092871435 0.078237146 0.59100002 14640446
-0.091590479 0.078104764 0.59000003 14777179
-0.090466671 0.078104764 0.59000003 15895660
-0.089494288 0.078237146 0.59100002 15834783
-0.088368572 0.078237146 0.59100002 16426920
-0.087242857 0.078237146 0.59100002 15902888
-0.08597143 0.078104764 0.59000003 15508130
-0.084847622 0.078104764 0.59000003 14449573
-0.083723813 0.078104764 0.59000003 13725850
-0.082740009 0.078237146 0.59100002 14184542
-0.081614286 0.078237146 0.59100002 15237230
-0.08048857 0.078237146 0.59100002 15902097
-0.079362854 0.078237146 0.59100002 16760490
-0.078237146 0.078237146 0.59100002 16239058
-0.076980956 0.078104764 0.59000003 16304851
-0.07572858 0.07797239 0.58900005 16440032
-0.074606672 0.07797239 0.58900005 16772595
-0.073609523 0.078104764 0.59000003 16643830
-0.072485715 0.078104764 0.59000003 16775416
-0.071361914 0.078104764 0.59000003 16644605
-0.070238099 0.078104764 0.59000003 16710398
-0.06911429 0.078104764 0.59000003 16711163
-0.067990482 0.078104764 0.59000003 10066070
-0.066980004 0.078237146 0.59100002 15031341
-0.065965712 0.078369528 0.59200001 16412994
-0.064838096 0.078369528 0.59200001 15430714
-0.063710481 0.078369528 0.59200001 14706991
-0.060045715 0.075192384 0.56800002 15230505
-0.058963813 0.075192384 0.56800002 15296298
-0.058085717 0.075457156 0.57000005 15231744
-0.056700002 0.075060003 0.56700003 15429120
-0.055620003 0.075060003 0.56700003 15233025
-0.054924767 0.075589523 0.57100004 15233025
-0.053837147 0.075589523 0.57100004 15232768
-0.052564763 0.075324766 0.56900001 15166976
-0.051480953 0.075324766 0.56900001 15233025
-0.050397143 0.075324766 0.56900001 15430404
-0.049400005 0.075457156 0.57000005 15298073
-0.048314288 0.075457156 0.57000005 15166487
-0.047311429 0.075589523 0.57100004 15298062
-0.046142861 0.075457156 0.57000005 15298062
-0.044978097 0.075324766 0.56900001 15298836
-0.043894287 0.075324766 0.56900001 15430422
-0.042735238 0.075192384 0.56800002 15233559
-0.041580003 0.075060003 0.56700003 15167766
-0.040428575 0.074927621 0.56600004 15298836
-0.039280951 0.074795231 0.565 15890973
-0.038204763 0.074795231 0.565 15299611
-0.037128571 0.074795231 0.565 14970646
-0.035988573 0.074662857 0.56400001 15298314
-0.034852382 0.074530482 0.56300002 16745760
-0.033780001 0.074530482 0.56300002 15566963
-0.034218099 0.07797239 0.58900005 15961721
-0.033040002 0.07784 0.588 15699314
-0.031919997 0.07784 0.588 15567728
-0.030747619 0.077707618 0.58700001 15566956
-0.029629523 0.077707618 0.58700001 15632749
-0.028511429 0.077707618 0.58700001 15565682
-0.02744 0.07784 0.588 15631475
-0.026319999 0.07784 0.588 15563650
-0.025199998 0.07784 0.588 15563650
-0.024080001 0.07784 0.588 15498842
-0.02296 0.07784 0.588 15893600
-0.021839999 0.07784 0.588 13342133
-0.020719999 0.07784 0.588 14329028
-0.0196 0.07784 0.588 12890826
-0.018479999 0.07784 0.588 11377587
-0.01736 0.07784 0.588 12099009
-0.016240001 0.07784 0.588 12691146
-0.015120001 0.07784 0.588 13019330
-0.014 0.07784 0.588 13611467
-0.01288 0.07784 0.588 14596286
-0.011759999 0.07784 0.588 16767455
-0.01064 0.07784 0.588 15188396
-0.0095199998 0.07784 0.588 14464673
-0.0083857141 0.077707618 0.58700001 14007504
-0.007267619 0.077707618 0.58700001 13612746
-0.0061390474 0.077575237 0.58600003 13546957
-0.0050142859 0.077442862 0.58500004 13020613
-0.0039000001 0.077442862 0.58500004 14462669
-0.0027857143 0.077442862 0.58500004 16767994
-0.0016742859 0.077575237 0.58600003 16511405
-0.00055809523 0.077575237 0.58600003 12761204
0.00055714289 0.077442862 0.58500004 12470016
0.0016714287 0.077442862 0.58500004 11088384
-0.099000007 0.079765722 0.59400004 12947837
-0.09737429 0.079362854 0.59100002 11829356
-0.096248575 0.079362854 0.59100002 14966599
-0.094961911 0.079228573 0.59000003 14769220
-0.093838103 0.079228573 0.59000003 15227990
-0.092714287 0.079228573 0.59000003 16750481
-0.091435239 0.079094291 0.58900005 15970255
-0.090313345 0.079094291 0.58900005 16763883
-0.089191437 0.079094291 0.58900005 16373478
-0.088069528 0.079094291 0.58900005 16044513
-0.08694762 0.079094291 0.58900005 16172495
-0.085825719 0.079094291 0.58900005 14330291
-0.084703818 0.079094291 0.58900005 15503778
-0.08358191 0.079094291 0.58900005 15964329
-0.082460009 0.079094291 0.58900005 15901598
-0.0813381 0.079094291 0.58900005 16758449
-0.080216192 0.079094291 0.58900005 16507883
-0.079094291 0.079094291 0.58900005 16772340
-0.07797239 0.079094291 0.58900005 16313082
-0.076850481 0.079094291 0.58900005 14668257
-0.075599998 0.078959994 0.588 15787753
-0.074480005 0.078959994 0.588 16775162
-0.073359996 0.078959994 0.588 16711422
-0.072485715 0.079228573 0.59000003 16711422
-0.071361914 0.079228573 0.59000003 16711422
-0.070238099 0.079228573 0.59000003 16711422
-0.06911429 0.079228573 0.59000003 16711422
-0.067990482 0.079228573 0.59000003 10921638
-0.066980004 0.079362854 0.59100002 14433053
-0.065854289 0.079362854 0.59100002 16472636
-0.060045715 0.076274291 0.56800002 15231265
-0.058963813 0.076274291 0.56800002 15231265
-0.057983808 0.076408572 0.56900001 15231240
-0.056899998 0.076408572 0.56900001 15231240
-0.055816192 0.076408572 0.56900001 15099393
-0.054732382 0.076408572 0.56900001 15625737
-0.053648572 0.076408572 0.56900001 15298564
-0.052564763 0.076408572 0.56900001 15298564
-0.051480953 0.076408572 0.56900001 15298325
-0.050397143 0.076408572 0.56900001 15561497
-0.049313333 0.076408572 0.56900001 15296808
-0.048314288 0.076542869 0.57000005 15362601
-0.047228575 0.076542869 0.57000005 15298325
-0.046142861 0.076542869 0.57000005 15298325
-0.044978097 0.076408572 0.56900001 15233284
-0.043817144 0.076274291 0.56800002 15496456
-0.042735238 0.076274291 0.56800002 15299102
-0.041580003 0.076140001 0.56700003 15233309
-0.040428575 0.07600572 0.56600004 15232010
-0.039280951 0.07587143 0.565 15692561
-0.038204763 0.07587143 0.565 15299102
-0.037128571 0.07587143 0.565 15299102
-0.035988573 0.075737141 0.56400001 15364370
-0.034852382 0.075602859 0.56300002 16022300
-0.033780001 0.075602859 0.56300002 15565407
-0.034218099 0.079094291 0.58900005 15894372
-0.03298381 0.078825712 0.58700001 15567208
-0.031865712 0.078825712 0.58700001 15501415
-0.030747619 0.078825712 0.58700001 15566956
-0.029579047 0.078691438 0.58600003 15632749
-0.028462859 0.078691438 0.58600003 15565932
-0.027393334 0.078825712 0.58700001 15565932
-0.026275238 0.078825712 0.58700001 15564916
-0.025157144 0.078825712 0.58700001 15762295
-0.023998097 0.078691438 0.58600003 15499605
-0.022881905 0.078691438 0.58600003 14841675
-0.021728573 0.078557149 0.58500004 12094836
-0.020614285 0.078557149 0.58500004 13015938
-0.019533332 0.078691438 0.58600003 11708567
-0.018417144 0.078691438 0.58600003 10524293
-0.017330477 0.078825712 0.58700001 11049347
-0.016157143 0.078557149 0.58500004 11444105
-0.015042858 0.078557149 0.58500004 12229491
-0.013928573 0.078557149 0.58500004 12624249
-0.012814286 0.078557149 0.58500004 14065778
-0.011720001 0.078691438 0.58600003 15776396
-0.01060381 0.078691438 0.58600003 14923381
-0.0094714295 0.078557149 0.58500004 14594416
-0.008357143 0.078557149 0.58500004 14334869
-0.0072304765 0.078422867 0.58400005 14137490
-0.0061180959 0.078422867 0.58400005 13480839
-0.0050057149 0.078422867 0.58400005 13151874
-0.0038933335 0.078422867 0.58400005 15582099
-0.0027809527 0.078422867 0.58400005 16768943
-0.0016685715 0.078422867 0.58400005 16577966
-0.00055714289 0.078557149 0.58500004 11775077
0.00055714289 0.078557149 0.58500004 13320704
0.0016714287 0.078557149 0.58500004 12991744
-0.097044773 0.080216192 0.58900005 12221289
-0.095922865 0.080216192 0.58900005 14504769
-0.094800957 0.080216192 0.58900005 14044218
-0.093679056 0.080216192 0.58900005 14184836
-0.092557147 0.080216192 0.58900005 16760786
-0.091435239 0.080216192 0.58900005 16440825
-0.090159997 0.080079995 0.588 16771839
-0.089039996 0.080079995 0.588 16577278
-0.087920003 0.080079995 0.588 16577278
-0.086800002 0.080079995 0.588 16710398
-0.085534289 0.079943813 0.58700001 16710398
-0.084128574 0.079671435 0.58500004 16645116
-0.083014295 0.079671435 0.58500004 16645116
-0.081760004 0.079535246 0.58400005 16643326
-0.080647625 0.079535246 0.58400005 16775423
-0.079671435 0.079671435 0.58500004 16710398
-0.078557149 0.079671435 0.58500004 16710398
-0.077575237 0.079807624 0.58600003 16710909
-0.07645905 0.079807624 0.58600003 11842227
-0.075342856 0.079807624 0.58600003 12103361
-0.07422667 0.079807624 0.58600003 13550807
-0.073110484 0.079807624 0.58600003 13680379
-0.07199429 0.079807624 0.58600003 12035554
-0.070878096 0.079807624 0.58600003 13682657
-0.069880955 0.079943813 0.58700001 16775423
-0.068762861 0.079943813 0.58700001 16711420
-0.06764476 0.079943813 0.58700001 11316394
-0.066980004 0.08048857 0.59100002 14895943
-0.060045715 0.077356189 0.56800002 15231258
-0.058963813 0.077356189 0.56800002 15165465
-0.057983808 0.077492386 0.56900001 15230999
-0.056700002 0.07722 0.56700003 15428378
-0.055620003 0.07722 0.56700003 15231258
-0.054636192 0.077356189 0.56800002 15428637
-0.053554289 0.077356189 0.56800002 15298564
-0.052472383 0.077356189 0.56800002 15298564
-0.05139048 0.077356189 0.56800002 15298073
-0.050308574 0.077356189 0.56800002 15956003
-0.049226668 0.077356189 0.56800002 15365945
-0.048144761 0.077356189 0.56800002 14773808
-0.047062855 0.077356189 0.56800002 15298073
-0.045980953 0.077356189 0.56800002 15298073
-0.044819999 0.07722 0.56700003 15298064
-0.043662861 0.077083811 0.56600004 15627029
-0.042584766 0.077083811 0.56600004 15299102
-0.04150667 0.077083811 0.56600004 15101723
-0.040428575 0.077083811 0.56600004 15298073
-0.039280951 0.076947615 0.565 15429659
-0.038204763 0.076947615 0.565 15298600
-0.037128571 0.076947615 0.565 15495979
-0.035988573 0.076811425 0.56400001 15299111
-0.034914285 0.076811425 0.56400001 15101732
-0.033840001 0.076811425 0.56400001 15364680
-0.033985715 0.079671435 0.58500004 16548954
-0.032871433 0.079671435 0.58500004 15632999
-0.031757142 0.079671435 0.58500004 15501413
-0.03064286 0.079671435 0.58500004 15567717
-0.029478097 0.079535246 0.58400005 15633510
-0.028365716 0.079535246 0.58400005 15566184
-0.0273 0.079671435 0.58500004 15500391
-0.026185717 0.079671435 0.58500004 15564896
-0.025028573 0.079535246 0.58400005 15893861
-0.023916192 0.079535246 0.58400005 15631963
-0.022842858 0.079671435 0.58500004 13987138
-0.02169143 0.079535246 0.58400005 13203484
-0.020579049 0.079535246 0.58400005 13664035
-0.019466668 0.079535246 0.58400005 13602372
-0.018354287 0.079535246 0.58400005 14391888
-0.017241906 0.079535246 0.58400005 14722626
-0.016129524 0.079535246 0.58400005 15314763
-0.015017144 0.079535246 0.58400005 15576384
-0.013904763 0.079535246 0.58400005 15707970
-0.012792381 0.079535246 0.58400005 15838009
-0.01168 0.079535246 0.58400005 16298560
-0.010585715 0.079671435 0.58500004 15906623
-0.0094552385 0.079535246 0.58400005 16367174
-0.0083428584 0.079535246 0.58400005 16042052
-0.0072304765 0.079535246 0.58400005 16436810
-0.006107619 0.079399049 0.583 16044092
-0.0049885712 0.07926286 0.58200002 16175678
-0.0038800002 0.07926286 0.58200002 16043851
-0.0027761904 0.079399049 0.583 16770401
-0.0016657143 0.079399049 0.583 16244611
-0.0005561905 0.079535246 0.58400005 11507515
0.0005561905 0.079535246 0.58400005 12792832
0.0016714287 0.079671435 0.58500004 11871744
-0.096715242 0.081061907 0.58700001 12942700
-0.09559714 0.081061907 0.58700001 14768702
-0.094479047 0.081061907 0.58700001 15426632
-0.093360953 0.081061907 0.58700001 13338553
-0.092085719 0.080923811 0.58600003 14325448
-0.090969525 0.080923811 0.58600003 10329291
-0.089853331 0.080923811 0.58600003 14211071
-0.088737145 0.080923811 0.58600003 15393513
-0.087471433 0.080785714 0.58500004 16577787
-0.086209528 0.080647625 0.58400005 16645629
-0.085097149 0.080647625 0.58400005 16645629
-0.08398477 0.080647625 0.58400005 16711422
-0.082872383 0.080647625 0.58400005 16250871
-0.081760004 0.080647625 0.58400005 11319000
-0.080647625 0.080647625 0.58400005 13621755
-0.079535246 0.080647625 0.58400005 16250864
-0.078422867 0.080647625 0.58400005 16711415
-0.077442862 0.080785714 0.58500004 16710911
-0.076328576 0.080785714 0.58500004 11973815
-0.075214289 0.080785714 0.58500004 10857142
-0.07410001 0.080785714 0.58500004 11909830
-0.072985716 0.080785714 0.58500004 11712236
-0.071748577 0.080647625 0.58400005 10396376
-0.070636198 0.080647625 0.58400005 11580863
-0.069642864 0.080785714 0.58500004 16383743
-0.06852857 0.080785714 0.58500004 16711422
-0.067414291 0.080785714 0.58500004 10592673
-0.066300005 0.080785714 0.58500004 14764825
-0.065185718 0.080785714 0.58500004 16014892
-0.059067618 0.078576185 0.56900001 15099922
-0.057983808 0.078576185 0.56900001 15165188
-0.056700002 0.078299999 0.56700003 15428360
-0.055620003 0.078299999 0.56700003 15231758
-0.054540001 0.078299999 0.56700003 15363344
-0.053460002 0.078299999 0.56700003 15298564
-0.052472383 0.078438096 0.56800002 15298564
-0.05139048 0.078438096 0.56800002 15232010
-0.050308574 0.078438096 0.56800002 15955733
-0.049226668 0.078438096 0.56800002 15432496
-0.048144761 0.078438096 0.56800002 14971945
-0.046897147 0.07816191 0.56600004 15232782
-0.045819052 0.07816191 0.56600004 15298575
-0.044740956 0.07816191 0.56600004 15298564
-0.043585714 0.078023814 0.565 15495943
-0.042509522 0.078023814 0.565 15364375
-0.041433334 0.078023814 0.565 15364375
-0.040357143 0.078023814 0.565 15298836
-0.039280951 0.078023814 0.565 15562008
-0.038204763 0.078023814 0.565 15299618
-0.037128571 0.078023814 0.565 15299618
-0.03605238 0.078023814 0.565 15363873
-0.034976188 0.078023814 0.565 15100701
-0.035100002 0.080785714 0.58500004 15232521
-0.033985715 0.080785714 0.58500004 16679967
-0.032871433 0.080785714 0.58500004 15567206
-0.031702857 0.080647625 0.58400005 15567206
-0.030590478 0.080647625 0.58400005 15567717
-0.029478097 0.080647625 0.58400005 15633510
-0.028365716 0.080647625 0.58400005 15500641
-0.027253335 0.080647625 0.58400005 15500641
-0.026140954 0.080647625 0.58400005 15565920
-0.025028573 0.080647625 0.58400005 15631713
-0.023916192 0.080647625 0.58400005 15567197
-0.022764761 0.080509529 0.583 14119751
-0.021654285 0.080509529 0.583 15298850
-0.02054381 0.080509529 0.583 15759401
-0.019400001 0.080371425 0.58200002 15436305
-0.018291429 0.080371425 0.58200002 16423200
-0.017153334 0.080233335 0.58100003 15769189
-0.016046667 0.080233335 0.58100003 16492912
-0.014940001 0.080233335 0.58100003 15903603
-0.013857143 0.080371425 0.58200002 15837810
-0.012748572 0.080371425 0.58200002 15837544
-0.01162 0.080233335 0.58100003 16166509
-0.010513334 0.080233335 0.58100003 15905871
-0.0094066672 0.080233335 0.58100003 16498008
-0.0082999999 0.080233335 0.58100003 16106841
-0.0071933335 0.080233335 0.58100003 16106841
-0.0060971431 0.080371425 0.58200002 15976282
-0.0049885712 0.080371425 0.58200002 16107868
-0.0038800002 0.080371425 0.58200002 16042838
-0.0027714286 0.080371425 0.58200002 16766561
-0.0016628571 0.080371425 0.58200002 16241299
-0.00055428571 0.080371425 0.58200002 11372617
0.0005552381 0.080509529 0.583 12594432
-0.09655048 0.082040004 0.58600003 12808547
-0.095434286 0.082040004 0.58600003 14895925
-0.094318099 0.082040004 0.58600003 16745839
-0.093042865 0.081900001 0.58500004 15841245
-0.091928579 0.081900001 0.58500004 14788557
-0.090814285 0.081900001 0.58500004 10327988
-0.089700006 0.081900001 0.58500004 11643848
-0.088434294 0.081760004 0.58400005 10457516
-0.087321915 0.081760004 0.58400005 10654895
-0.086209528 0.081760004 0.58400005 11310298
-0.085097149 0.081760004 0.58400005 11047126
-0.083840951 0.08162 0.583 11181783
-0.08273048 0.08162 0.583 11247576
-0.08162 0.08162 0.583 10198437
-0.080509529 0.08162 0.583 8422026
-0.079535246 0.081760004 0.58400005 12831081
-0.078422867 0.081760004 0.58400005 16777126
-0.077310488 0.081760004 0.58400005 16579325
-0.076328576 0.081900001 0.58500004 12302780
-0.074828573 0.081479996 0.58200002 12367819
-0.073720008 0.081479996 0.58200002 14407402
-0.072611429 0.081479996 0.58200002 15986684
-0.071625717 0.08162 0.583 16184063
-0.070515238 0.08162 0.583 16250360
-0.069523819 0.081760004 0.58400005 16776703
-0.068411432 0.081760004 0.58400005 16711422
-0.067299053 0.081760004 0.58400005 9868950
-0.066186674 0.081760004 0.58400005 14233856
-0.058860004 0.079380006 0.56700003 15165965
-0.057780001 0.079380006 0.56700003 15233025
-0.056700002 0.079380006 0.56700003 15298818
-0.055620003 0.079380006 0.56700003 15233024
-0.054347616 0.079099998 0.565 15298816
-0.053271428 0.079099998 0.565 15298064
-0.052472383 0.079520002 0.56800002 15298064
-0.0513 0.079380006 0.56700003 15298062
-0.050220001 0.079380006 0.56700003 15166476
-0.049140003 0.079380006 0.56700003 15299072
-0.04806 0.079380006 0.56700003 15562240
-0.046814285 0.079099998 0.565 15232784
-0.045738097 0.079099998 0.565 15232784
-0.044661906 0.079099998 0.565 15232269
-0.043508574 0.078960001 0.56400001 15363855
-0.042434286 0.078960001 0.56400001 15298836
-0.041360002 0.078960001 0.56400001 15298836
-0.040285714 0.078960001 0.56400001 15298836
-0.03921143 0.078960001 0.56400001 15562008
-0.038137145 0.078960001 0.56400001 15300124
-0.037062857 0.078960001 0.56400001 15826468
-0.03605238 0.079099998 0.565 15366669
-0.034976188 0.079099998 0.565 13985024
-0.035040002 0.081760004 0.58400005 15096320
-0.033927623 0.081760004 0.58400005 16741140
-0.03281524 0.081760004 0.58400005 15564637
-0.031648569 0.08162 0.583 15827809
-0.030538093 0.08162 0.583 15566168
-0.02942762 0.08162 0.583 15566168
-0.028317142 0.08162 0.583 15565657
-0.027206667 0.08162 0.583 15434071
-0.026096191 0.08162 0.583 15565657
-0.024985714 0.08162 0.583 16092001
-0.023875238 0.08162 0.583 15701086
-0.022725716 0.081479996 0.58200002 15832672
-0.021617142 0.081479996 0.58200002 15635307
-0.020508572 0.081479996 0.58200002 15437928
-0.019366667 0.081340007 0.58100003 15501122
-0.01826 0.081340007 0.58100003 16159052
-0.017153334 0.081340007 0.58100003 15767919
-0.016019048 0.081200011 0.58000004 16754814
-0.014914286 0.081200011 0.58000004 15904398
-0.013809524 0.081200011 0.58000004 15772812
-0.012704763 0.081200011 0.58000004 15837058
-0.011600001 0.081200011 0.58000004 15573886
-0.010495238 0.081200011 0.58000004 15771455
-0.0093904771 0.081200011 0.58000004 15771455
-0.0082857152 0.081200011 0.58000004 15705133
-0.0071809529 0.081200011 0.58000004 15507754
-0.0060761911 0.081200011 0.58000004 15704370
-0.0049714288 0.081200011 0.58000004 15901749
-0.0038666669 0.081200011 0.58000004 15773999
-0.0027619048 0.081200011 0.58000004 16761922
-0.001657143 0.081200011 0.58000004 16039566
-0.00055333338 0.081340007 0.58100003 11368263
0.00055333338 0.081340007 0.58100003 12398336
-0.097500004 0.083014295 0.58500004 13530444
-0.096385725 0.083014295 0.58500004 12872514
-0.095271431 0.083014295 0.58500004 14762496
-0.093996197 0.082872383 0.58400005 16750148
-0.092883818 0.082872383 0.58400005 16442351
-0.091614284 0.08273048 0.583 15258077
-0.090503804 0.08273048 0.583 9805474
-0.089393333 0.08273048 0.583 9279130
-0.088282853 0.08273048 0.583 8948144
-0.087172382 0.08273048 0.583 8816558
-0.086061902 0.08273048 0.583 8946638
-0.084951423 0.08273048 0.583 8551880
-0.083840951 0.08273048 0.583 8090809
-0.08273048 0.08273048 0.583 11183080
-0.08162 0.08273048 0.583 11644877
-0.080509529 0.08273048 0.583 9802673
-0.079399049 0.08273048 0.583 11381135
-0.07828857 0.08273048 0.583 14868164
-0.077178098 0.08273048 0.583 14473456
-0.076067619 0.08273048 0.583 12302287
-0.074700005 0.082446672 0.58100003 12892368
-0.073593333 0.082446672 0.58100003 14668779
-0.072486676 0.082446672 0.58100003 16182525
-0.071502857 0.082588576 0.58200002 16248318
-0.070394285 0.082588576 0.58200002 16380149
-0.069404759 0.08273048 0.583 16775935
-0.068294287 0.08273048 0.583 16711422
-0.067299053 0.082872383 0.58400005 9276813
-0.056499999 0.08017619 0.565 15430404
-0.055423807 0.08017619 0.565 15298818
-0.054347616 0.08017619 0.565 15233025
-0.053177144 0.080034286 0.56400001 15298818
-0.052102856 0.080034286 0.56400001 15430404
-0.051119048 0.08017619 0.565 15298325
-0.050042856 0.08017619 0.565 15232532
-0.048966669 0.08017619 0.565 15298560
-0.047890477 0.08017619 0.565 15495938
-0.046814285 0.08017619 0.565 15232784
-0.045657143 0.080034286 0.56400001 15232784
-0.044582859 0.080034286 0.56400001 15298064
-0.043508574 0.080034286 0.56400001 15495443
-0.042434286 0.080034286 0.56400001 15364375
-0.04128667 0.079892382 0.56300002 15364375
-0.040214289 0.079892382 0.56300002 15299352
-0.039141908 0.079892382 0.56300002 15365145
-0.038069528 0.079892382 0.56300002 15365404
-0.037062857 0.080034286 0.56400001 16154920
-0.035988573 0.080034286 0.56400001 15432217
-0.034914285 0.080034286 0.56400001 13063680
-0.034979999 0.08273048 0.583 14895872
-0.033869524 0.08273048 0.583 16739857
-0.032759048 0.08273048 0.583 15431002
-0.031594284 0.082588576 0.58200002 15957346
-0.030485716 0.082588576 0.58200002 15499866
-0.029377144 0.082588576 0.58200002 15434073
-0.028268572 0.082588576 0.58200002 15498585
-0.027160002 0.082588576 0.58200002 15498585
-0.026051428 0.082588576 0.58200002 15431250
-0.024942858 0.082588576 0.58200002 16089180
-0.023834286 0.082588576 0.58200002 15567456
-0.022686668 0.082446672 0.58100003 15896421
-0.021579999 0.082446672 0.58100003 15700082
-0.020473335 0.082446672 0.58100003 15371117
-0.019333335 0.082304768 0.58000004 15433542
-0.018228572 0.082304768 0.58000004 16749402
-0.017094286 0.082162865 0.57900006 15834250
-0.015991431 0.082162865 0.57900006 16557973
-0.014888573 0.082162865 0.57900006 15970454
-0.013785715 0.082162865 0.57900006 15773075
-0.012660953 0.082020953 0.57800001 15902351
-0.01156 0.082020953 0.57800001 15573386
-0.010477144 0.082162865 0.57900006 15835995
-0.009374287 0.082162865 0.57900006 15309651
-0.0082714288 0.082162865 0.57900006 15635517
-0.0071685724 0.082162865 0.57900006 15109173
-0.0060657146 0.082162865 0.57900006 15502355
-0.0049628573 0.082162865 0.57900006 15502355
-0.0038600003 0.082162865 0.57900006 15703586
-0.002757143 0.082162865 0.57900006 16758330
-0.0016542859 0.082162865 0.57900006 15971735
-0.00055238098 0.082304768 0.58000004 11103053
0.00055238098 0.082304768 0.58000004 12398848
-0.097166665 0.083840951 0.583 14716492
-0.096056193 0.083840951 0.583 14387527
-0.094945714 0.083840951 0.583 14708224
-0.093835235 0.083840951 0.583 16754725
-0.092724763 0.083840951 0.583 16645609
-0.091457151 0.083697148 0.58200002 16777196
-0.090348572 0.083697148 0.58200002 16316137
-0.08924 0.083697148 0.58200002 14276554
-0.088131428 0.083697148 0.58200002 14671087
-0.087022856 0.083697148 0.58200002 13618399
-0.085914284 0.083697148 0.58200002 13945833
-0.08480572 0.083697148 0.58200002 13353696
-0.083697148 0.083697148 0.58200002 13352415
-0.082588576 0.083697148 0.58200002 13549794
-0.081479996 0.083697148 0.58200002 13416174
-0.080371425 0.083697148 0.58200002 12297693
-0.07926286 0.083697148 0.58200002 13612741
-0.078154288 0.083697148 0.58200002 15257566
-0.077045716 0.083697148 0.58200002 14929108
-0.075937144 0.083697148 0.58200002 14139592
-0.074571431 0.083409533 0.58000004 15122137
-0.073466673 0.083409533 0.58000004 15056344
-0.072361909 0.083409533 0.58000004 16309196
-0.071257152 0.083409533 0.58000004 14269613
-0.070152387 0.083409533 0.58000004 14853823
-0.069285713 0.083697148 0.58200002 12485275
-0.068177141 0.083697148 0.58200002 14642055
-0.06177143 0.08110857 0.56400001 15297553
-0.057270478 0.080820955 0.56200004 15298064
-0.056200001 0.080820955 0.56200004 15298064
-0.055325717 0.08110857 0.56400001 15298818
-0.054251429 0.08110857 0.56400001 15233025
-0.053177144 0.08110857 0.56400001 15298073
-0.052102856 0.08110857 0.56400001 15824417
-0.051028572 0.08110857 0.56400001 15298323
-0.049954284 0.08110857 0.56400001 15166737
-0.04888 0.08110857 0.56400001 15297805
-0.047805712 0.08110857 0.56400001 15363598
-0.046731427 0.08110857 0.56400001 15231758
-0.045657143 0.08110857 0.56400001 15165965
-0.044582859 0.08110857 0.56400001 15231251
-0.043431427 0.080964759 0.56300002 15494423
-0.042359047 0.080964759 0.56300002 15298323
-0.04128667 0.080964759 0.56300002 15429909
-0.040214289 0.080964759 0.56300002 15233309
-0.039141908 0.080964759 0.56300002 15233309
-0.038069528 0.080964759 0.56300002 15365663
-0.037062857 0.08110857 0.56400001 16155179
-0.034979999 0.083840951 0.583 14895109
-0.033869524 0.083840951 0.583 16739369
-0.032759048 0.083840951 0.583 15496545
-0.031539999 0.083553337 0.58100003 15825510
-0.030433334 0.083553337 0.58100003 15498331
-0.029326668 0.083553337 0.58100003 15366745
-0.028220002 0.083553337 0.58100003 15498331
-0.027160002 0.083697148 0.58200002 15498331
-0.026051428 0.083697148 0.58200002 15431768
-0.024900001 0.083553337 0.58100003 15300182
-0.023793334 0.083553337 0.58100003 15430732
-0.022647621 0.083409533 0.58000004 15496525
-0.021542858 0.083409533 0.58000004 15429712
-0.020438096 0.083409533 0.58000004 15100747
-0.019300001 0.083265722 0.57900006 15431504
-0.018197145 0.083265722 0.57900006 16749934
-0.017064763 0.083121903 0.57800001 15768479
-0.01596381 0.083121903 0.57800001 16229030
-0.014862857 0.083121903 0.57800001 15902862
-0.013761904 0.083121903 0.57800001 15902862
-0.012660953 0.083121903 0.57800001 15768983
-0.01156 0.083121903 0.57800001 15111053
-0.010459048 0.083121903 0.57800001 15566436
-0.009358095 0.083121903 0.57800001 15500643
-0.0082428576 0.0829781 0.57700002 15499087
-0.0071438099 0.0829781 0.57700002 15301708
-0.0060342862 0.082834288 0.57600003 15433000
-0.0049371431 0.082834288 0.57600003 15827758
-0.0038400001 0.082834288 0.57600003 15635749
-0.0027476193 0.0829781 0.57700002 16756286
-0.0016514285 0.083121903 0.57800001 15905422
-0.00055142865 0.083265722 0.57900006 11168326
