# .PCD v0.7 - Point Cloud Data file format
VERSION 0.7
FIELDS x y z rgba
SIZE 4 4 4 4
TYPE F F F U
COUNT 1 1 1 1
WIDTH 1076
HEIGHT 1
VIEWPOINT 0 0 0 1 0 0 0
POINTS 1076
DATA ascii
-0.02645524 0.053525716 0.64600003 16645627
-0.025146669 0.053360004 0.64400005 16645627
-0.023920001 0.053360004 0.64400005 16645627
-0.022763809 0.053525716 0.64600003 16645627
-0.021533333 0.053525716 0.64600003 16645627
-0.020302858 0.053525716 0.64600003 16645627
-0.019072382 0.053525716 0.64600003 16645627
-0.017841905 0.053525716 0.64600003 16645627
-0.016611429 0.053525716 0.64600003 16645627
-0.015380953 0.053525716 0.64600003 16645627
-0.014150477 0.053525716 0.64600003 16645627
-0.012920001 0.053525716 0.64600003 16711420
-0.011689524 0.053525716 0.64600003 16711420
-0.10733335 0.054586671 0.64400005 13880495
-0.10610668 0.054586671 0.64400005 16777186
-0.10488001 0.054586671 0.64400005 16711420
-0.10365334 0.054586671 0.64400005 16645627
-0.10242668 0.054586671 0.64400005 16645627
-0.10120001 0.054586671 0.64400005 16645627
-0.099973343 0.054586671 0.64400005 16645627
-0.098746672 0.054586671 0.64400005 16645627
-0.097520009 0.054586671 0.64400005 16645627
-0.096143812 0.054501906 0.64300001 16645627
-0.094919048 0.054501906 0.64300001 16645627
-0.093548574 0.054417145 0.64200002 16645627
-0.092325717 0.054417145 0.64200002 16645627
-0.091102861 0.054417145 0.64200002 16645627
-0.089879997 0.054417145 0.64200002 16645627
-0.088657148 0.054417145 0.64200002 16711420
-0.087434284 0.054417145 0.64200002 16711420
-0.086211428 0.054417145 0.64200002 12961219
-0.084988572 0.054417145 0.64200002 12234661
-0.083765715 0.054417145 0.64200002 13418935
-0.082542859 0.054417145 0.64200002 11842463
-0.081320003 0.054417145 0.64200002 10197638
-0.080097146 0.054417145 0.64200002 10791047
-0.078874283 0.054417145 0.64200002 16777186
-0.077651434 0.054417145 0.64200002 16711422
-0.07642857 0.054417145 0.64200002 13158600
-0.075205714 0.054417145 0.64200002 7243651
-0.074213333 0.054586671 0.64400005 9085855
-0.072986677 0.054586671 0.64400005 10192532
-0.071760006 0.054586671 0.64400005 11442599
-0.070533335 0.054586671 0.64400005 9739720
-0.069306672 0.054586671 0.64400005 9147583
-0.068080008 0.054586671 0.64400005 12367033
-0.066853337 0.054586671 0.64400005 16709371
-0.065626673 0.054586671 0.64400005 14340825
-0.064400002 0.054586671 0.64400005 9406350
-0.063173339 0.054586671 0.64400005 9473482
-0.061946671 0.054586671 0.64400005 10131412
-0.060720004 0.054586671 0.64400005 9673381
-0.059493337 0.054586671 0.64400005 10462897
-0.05826667 0.054586671 0.64400005 10263222
-0.057040006 0.054586671 0.64400005 11315910
-0.055986669 0.054756194 0.64600003 11643326
-0.054756194 0.054756194 0.64600003 11972291
-0.053360004 0.054586671 0.64400005 10918817
-0.052133337 0.054586671 0.64400005 11576747
-0.051064763 0.054756194 0.64600003 11508885
-0.049834289 0.054756194 0.64600003 12298401
-0.04860381 0.054756194 0.64600003 11181203
-0.047226671 0.054586671 0.64400005 11839133
-0.046000004 0.054586671 0.64400005 12695203
-0.044773336 0.054586671 0.64400005 16182232
-0.043546669 0.054586671 0.64400005 16051432
-0.042320006 0.054586671 0.64400005 15525088
-0.041093335 0.054586671 0.64400005 15655123
-0.039866671 0.054586671 0.64400005 16642018
-0.038640004 0.054586671 0.64400005 15460324
-0.037529524 0.054756194 0.64600003 11775916
-0.03629905 0.054756194 0.64600003 11511217
-0.035068572 0.054756194 0.64600003 11313838
-0.033838097 0.054756194 0.64600003 10266027
-0.032607622 0.054756194 0.64600003 10200234
-0.031377144 0.054756194 0.64600003 13684415
-0.030053336 0.054586671 0.64400005 15987170
-0.028826667 0.054586671 0.64400005 16711422
-0.027685715 0.054756194 0.64600003 16711422
-0.02645524 0.054756194 0.64600003 16645627
-0.025146669 0.054586671 0.64400005 16645627
-0.023920001 0.054586671 0.64400005 16645627
-0.022763809 0.054756194 0.64600003 16645627
-0.021533333 0.054756194 0.64600003 16645627
-0.020302858 0.054756194 0.64600003 16645627
-0.019072382 0.054756194 0.64600003 16645627
-0.017841905 0.054756194 0.64600003 16645627
-0.016611429 0.054756194 0.64600003 16645627
-0.015380953 0.054756194 0.64600003 16645627
-0.014150477 0.054756194 0.64600003 16645627
-0.012920001 0.054756194 0.64600003 16711420
-0.011689524 0.054756194 0.64600003 16711420
-0.10716667 0.055726666 0.64300001 13551021
-0.1059419 0.055726666 0.64300001 16776934
-0.10488001 0.055813335 0.64400005 16711420
-0.10365334 0.055813335 0.64400005 16645627
-0.10242668 0.055813335 0.64400005 16645627
-0.10120001 0.055813335 0.64400005 16645627
-0.099973343 0.055813335 0.64400005 16645627
-0.098746672 0.055813335 0.64400005 16645627
-0.097520009 0.055813335 0.64400005 16645627
-0.096143812 0.055726666 0.64300001 16645627
-0.094919048 0.055726666 0.64300001 16645627
-0.093548574 0.055640001 0.64200002 16645627
-0.092325717 0.055640001 0.64200002 16645627
-0.091102861 0.055640001 0.64200002 16645627
-0.089879997 0.055640001 0.64200002 16645627
-0.088657148 0.055640001 0.64200002 16711420
-0.087434284 0.055640001 0.64200002 16711420
-0.086211428 0.055640001 0.64200002 13092805
-0.085120954 0.055726666 0.64300001 13749454
-0.083765715 0.055640001 0.64200002 14802142
-0.082542859 0.055640001 0.64200002 13752002
-0.081320003 0.055640001 0.64200002 12238763
-0.080097146 0.055640001 0.64200002 10859958
-0.078874283 0.055640001 0.64200002 15990783
-0.077651434 0.055640001 0.64200002 16711422
-0.076666676 0.055813335 0.64400005 14013909
-0.075440004 0.055813335 0.64400005 13882325
-0.074213333 0.055813335 0.64400005 15263978
-0.072986677 0.055813335 0.64400005 14867937
-0.071760006 0.055813335 0.64400005 14341593
-0.070533335 0.055813335 0.64400005 13027559
-0.069306672 0.055813335 0.64400005 12172250
-0.068080008 0.055813335 0.64400005 14275566
-0.066853337 0.055813335 0.64400005 16775679
-0.065626673 0.055813335 0.64400005 16052218
-0.064400002 0.055813335 0.64400005 12894154
-0.063173339 0.055813335 0.64400005 13288431
-0.061946671 0.055813335 0.64400005 14735871
-0.060720004 0.055813335 0.64400005 15000536
-0.059493337 0.055813335 0.64400005 15658466
-0.05826667 0.055813335 0.64400005 15657971
-0.057040006 0.055813335 0.64400005 15394799
-0.055986669 0.055986669 0.64600003 16447989
-0.054756194 0.055986669 0.64600003 16776954
-0.053525716 0.055986669 0.64600003 16711422
-0.052295242 0.055986669 0.64600003 16645629
-0.051064763 0.055986669 0.64600003 16711422
-0.049834289 0.055986669 0.64600003 16711422
-0.04860381 0.055986669 0.64600003 16711422
-0.047373332 0.055986669 0.64600003 16711422
-0.046142858 0.055986669 0.64600003 16711422
-0.044773336 0.055813335 0.64400005 16711422
-0.043546669 0.055813335 0.64400005 16711420
-0.042320006 0.055813335 0.64400005 16645627
-0.041093335 0.055813335 0.64400005 16711420
-0.039866671 0.055813335 0.64400005 16711420
-0.038640004 0.055813335 0.64400005 16711420
-0.037413336 0.055813335 0.64400005 16711420
-0.03629905 0.055986669 0.64600003 16711420
-0.035068572 0.055986669 0.64600003 16711420
-0.033838097 0.055986669 0.64600003 16711420
-0.032607622 0.055986669 0.64600003 16711420
-0.031377144 0.055986669 0.64600003 16711420
-0.030053336 0.055813335 0.64400005 16711420
-0.028826667 0.055813335 0.64400005 16711420
-0.027685715 0.055986669 0.64600003 16645627
-0.02645524 0.055986669 0.64600003 16645627
-0.025224764 0.055986669 0.64600003 16645627
-0.023994286 0.055986669 0.64600003 16645627
-0.022763809 0.055986669 0.64600003 16711420
-0.021533333 0.055986669 0.64600003 16711420
-0.020334285 0.056073334 0.64700001 16711420
-0.019101905 0.056073334 0.64700001 16711420
-0.017869525 0.056073334 0.64700001 16711420
-0.016611429 0.055986669 0.64600003 16711420
-0.015380953 0.055986669 0.64600003 16711420
-0.014150477 0.055986669 0.64600003 16711420
-0.012920001 0.055986669 0.64600003 16711420
-0.011689524 0.055986669 0.64600003 16711420
-0.10716667 0.056951426 0.64300001 13222574
-0.1059419 0.056951426 0.64300001 16776938
-0.10488001 0.057040006 0.64400005 16711420
-0.10365334 0.057040006 0.64400005 16645627
-0.10242668 0.057040006 0.64400005 16645627
-0.10120001 0.057040006 0.64400005 16645627
-0.099818096 0.056951426 0.64300001 16645627
-0.098593332 0.056951426 0.64300001 16645627
-0.097520009 0.057040006 0.64400005 16645627
-0.096293338 0.057040006 0.64400005 16645627
-0.094919048 0.056951426 0.64300001 16645627
-0.093548574 0.056862857 0.64200002 16645627
-0.092325717 0.056862857 0.64200002 16645627
-0.091102861 0.056862857 0.64200002 16645627
-0.089879997 0.056862857 0.64200002 16645627
-0.088795237 0.056951426 0.64300001 16711420
-0.087570474 0.056951426 0.64300001 16711422
-0.086345717 0.056951426 0.64300001 13816530
-0.085120954 0.056951426 0.64300001 14801108
-0.083765715 0.056862857 0.64200002 15788003
-0.082542859 0.056862857 0.64200002 14212562
-0.081320003 0.056862857 0.64200002 12107186
-0.080097146 0.056862857 0.64200002 10796464
-0.07875143 0.056774288 0.64100003 15663098
-0.077530481 0.056774288 0.64100003 16711420
-0.076666676 0.057040006 0.64400005 14671837
-0.075440004 0.057040006 0.64400005 15129560
-0.074213333 0.057040006 0.64400005 16775670
-0.072986677 0.057040006 0.64400005 16645629
-0.071982861 0.057217143 0.64600003 16579836
-0.070752382 0.057217143 0.64600003 16513530
-0.069306672 0.057040006 0.64400005 16447737
-0.068080008 0.057040006 0.64400005 16711422
-0.066853337 0.057040006 0.64400005 16711422
-0.065626673 0.057040006 0.64400005 16711422
-0.064400002 0.057040006 0.64400005 16711422
-0.063173339 0.057040006 0.64400005 16711422
-0.062139049 0.057217143 0.64600003 16711422
-0.060908575 0.057217143 0.64600003 16711420
-0.059493337 0.057040006 0.64400005 16711420
-0.05826667 0.057040006 0.64400005 16711422
-0.057040006 0.057040006 0.64400005 16711422
-0.055986669 0.057217143 0.64600003 16711422
-0.054756194 0.057217143 0.64600003 16711422
-0.053525716 0.057217143 0.64600003 16711422
-0.052295242 0.057217143 0.64600003 16711422
-0.051064763 0.057217143 0.64600003 16711422
-0.049834289 0.057217143 0.64600003 16711422
-0.04860381 0.057217143 0.64600003 16711422
-0.047226671 0.057040006 0.64400005 16711422
-0.046000004 0.057040006 0.64400005 16711422
-0.044773336 0.057040006 0.64400005 16711422
-0.043546669 0.057040006 0.64400005 16711420
-0.042320006 0.057040006 0.64400005 16711420
-0.041093335 0.057040006 0.64400005 16711420
-0.039866671 0.057040006 0.64400005 16711420
-0.038640004 0.057040006 0.64400005 16711420
-0.037413336 0.057040006 0.64400005 16711420
-0.03629905 0.057217143 0.64600003 16711420
-0.035068572 0.057217143 0.64600003 16711420
-0.033838097 0.057217143 0.64600003 16711420
-0.032607622 0.057217143 0.64600003 16711420
-0.031377144 0.057217143 0.64600003 16711420
-0.030053336 0.057040006 0.64400005 16711420
-0.028826667 0.057040006 0.64400005 16711420
-0.027685715 0.057217143 0.64600003 16711420
-0.02645524 0.057217143 0.64600003 16711420
-0.025224764 0.057217143 0.64600003 16711420
-0.023994286 0.057217143 0.64600003 16711674
-0.022763809 0.057217143 0.64600003 16711674
-0.021533333 0.057217143 0.64600003 16711674
-0.020334285 0.057305716 0.64700001 16711674
-0.019101905 0.057305716 0.64700001 16711674
-0.017869525 0.057305716 0.64700001 16645881
-0.016637143 0.057305716 0.64700001 16645879
-0.015404763 0.057305716 0.64700001 16645879
-0.014172382 0.057305716 0.64700001 16711670
-0.012920001 0.057217143 0.64600003 16646133
-0.011689524 0.057217143 0.64600003 16711411
-0.10733335 0.05826667 0.64400005 13879227
-0.10610668 0.05826667 0.64400005 16776432
-0.10520571 0.058447622 0.64600003 16711420
-0.10365334 0.05826667 0.64400005 16711420
-0.10242668 0.05826667 0.64400005 16711420
-0.10120001 0.05826667 0.64400005 16711420
-0.099818096 0.05817619 0.64300001 16711420
-0.098593332 0.05817619 0.64300001 16711420
-0.097520009 0.05826667 0.64400005 16711420
-0.096293338 0.05826667 0.64400005 16711420
-0.094919048 0.05817619 0.64300001 16711420
-0.093694285 0.05817619 0.64300001 16711420
-0.092469528 0.05817619 0.64300001 16711420
-0.091244757 0.05817619 0.64300001 16711420
-0.090020001 0.05817619 0.64300001 16711420
-0.088657148 0.058085714 0.64200002 16711420
-0.087434284 0.058085714 0.64200002 16711420
-0.086345717 0.05817619 0.64300001 16711420
-0.085120954 0.05817619 0.64300001 16711420
-0.08389619 0.05817619 0.64300001 16711420
-0.082542859 0.058085714 0.64200002 16711420
-0.081320003 0.058085714 0.64200002 16711420
-0.080097146 0.058085714 0.64200002 16711422
-0.07875143 0.057995241 0.64100003 16711422
-0.077530481 0.057995241 0.64100003 16711420
-0.07642857 0.058085714 0.64200002 16711420
-0.075205714 0.058085714 0.64200002 16711420
-0.074213333 0.05826667 0.64400005 16711420
-0.072986677 0.05826667 0.64400005 16711420
-0.071760006 0.05826667 0.64400005 16711420
-0.070752382 0.058447622 0.64600003 16711420
-0.069306672 0.05826667 0.64400005 16711420
-0.068080008 0.05826667 0.64400005 16711420
-0.067060955 0.058447622 0.64600003 16711420
-0.065830477 0.058447622 0.64600003 16711420
-0.064599998 0.058447622 0.64600003 16711420
-0.063369527 0.058447622 0.64600003 16711422
-0.062139049 0.058447622 0.64600003 16711422
-0.060908575 0.058447622 0.64600003 16711420
-0.059678096 0.058447622 0.64600003 16711420
-0.058447622 0.058447622 0.64600003 16711420
-0.057217143 0.058447622 0.64600003 16711420
-0.055986669 0.058447622 0.64600003 16711420
-0.054756194 0.058447622 0.64600003 16711420
-0.053525716 0.058447622 0.64600003 16711420
-0.052295242 0.058447622 0.64600003 16711420
-0.051064763 0.058447622 0.64600003 16711420
-0.049834289 0.058447622 0.64600003 16711420
-0.04860381 0.058447622 0.64600003 16711420
-0.047226671 0.05826667 0.64400005 16711420
-0.046000004 0.05826667 0.64400005 16711420
-0.044773336 0.05826667 0.64400005 16711420
-0.043546669 0.05826667 0.64400005 16711420
-0.042320006 0.05826667 0.64400005 16711420
-0.041093335 0.05826667 0.64400005 16711420
-0.039866671 0.05826667 0.64400005 16711420
-0.038640004 0.05826667 0.64400005 16711420
-0.037413336 0.05826667 0.64400005 16711420
-0.036186669 0.05826667 0.64400005 16711420
-0.034960002 0.05826667 0.64400005 16711420
-0.033838097 0.058447622 0.64600003 16711420
-0.032506671 0.05826667 0.64400005 16711420
-0.03128 0.05826667 0.64400005 16711420
-0.030053336 0.05826667 0.64400005 16711420
-0.028826667 0.05826667 0.64400005 16711420
-0.027685715 0.058447622 0.64600003 16711420
-0.02645524 0.058447622 0.64600003 16711420
-0.025224764 0.058447622 0.64600003 16711420
-0.023994286 0.058447622 0.64600003 16711674
-0.022763809 0.058447622 0.64600003 16711674
-0.021566667 0.058538094 0.64700001 16711672
-0.020334285 0.058538094 0.64700001 16645879
-0.019101905 0.058538094 0.64700001 16646131
-0.017869525 0.058538094 0.64700001 16646131
-0.016637143 0.058538094 0.64700001 16711665
-0.015404763 0.058538094 0.64700001 16711665
-0.014172382 0.058538094 0.64700001 16711661
-0.012920001 0.058447622 0.64600003 16646124
-0.011689524 0.058447622 0.64600003 16646099
-0.10660095 0.05977048 0.64700001 16776168
-0.10520571 0.059678096 0.64600003 16711422
-0.10397524 0.059678096 0.64600003 16711422
-0.10274477 0.059678096 0.64600003 16711420
-0.10120001 0.059493337 0.64400005 16711420
-0.099973343 0.059493337 0.64400005 16711420
-0.098746672 0.059493337 0.64400005 16711420
-0.097520009 0.059493337 0.64400005 16711420
-0.096293338 0.059493337 0.64400005 16711420
-0.094919048 0.059400953 0.64300001 16711420
-0.093694285 0.059400953 0.64300001 16711420
-0.092469528 0.059400953 0.64300001 16711420
-0.091244757 0.059400953 0.64300001 16711420
-0.090020001 0.059400953 0.64300001 16711420
-0.088657148 0.059308574 0.64200002 16711420
-0.087434284 0.059308574 0.64200002 16711420
-0.086345717 0.059400953 0.64300001 16711420
-0.085120954 0.059400953 0.64300001 16711420
-0.08389619 0.059400953 0.64300001 16711420
-0.082542859 0.059308574 0.64200002 16711420
-0.081320003 0.059308574 0.64200002 16711420
-0.080097146 0.059308574 0.64200002 16711420
-0.078874283 0.059308574 0.64200002 16711420
-0.077530481 0.05921619 0.64100003 16711420
-0.076309532 0.05921619 0.64100003 16711420
-0.075088575 0.05921619 0.64100003 16711420
-0.074213333 0.059493337 0.64400005 16711420
-0.072986677 0.059493337 0.64400005 16711420
-0.071760006 0.059493337 0.64400005 16711420
-0.070752382 0.059678096 0.64600003 16711420
-0.069306672 0.059493337 0.64400005 16711420
-0.068080008 0.059493337 0.64400005 16711420
-0.067060955 0.059678096 0.64600003 16711420
-0.065830477 0.059678096 0.64600003 16711674
-0.064599998 0.059678096 0.64600003 16711674
-0.063369527 0.059678096 0.64600003 16645620
-0.062139049 0.059678096 0.64600003 16514034
-0.060908575 0.059678096 0.64600003 16710127
-0.059678096 0.059678096 0.64600003 16578541
-0.058447622 0.059678096 0.64600003 16578021
-0.057217143 0.059678096 0.64600003 16775400
-0.055986669 0.059678096 0.64600003 16645102
-0.054756194 0.059678096 0.64600003 16776945
-0.053525716 0.059678096 0.64600003 16711670
-0.052295242 0.059678096 0.64600003 16711670
-0.051064763 0.059678096 0.64600003 16711674
-0.049834289 0.059678096 0.64600003 16711674
-0.04860381 0.059678096 0.64600003 16711161
-0.047226671 0.059493337 0.64400005 16776954
-0.046000004 0.059493337 0.64400005 16711420
-0.044773336 0.059493337 0.64400005 16711420
-0.043546669 0.059493337 0.64400005 16711674
-0.042320006 0.059493337 0.64400005 16711674
-0.041093335 0.059493337 0.64400005 16711420
-0.039866671 0.059493337 0.64400005 16711420
-0.038640004 0.059493337 0.64400005 16711413
-0.037413336 0.059493337 0.64400005 16777206
-0.036186669 0.059493337 0.64400005 16645368
-0.034960002 0.059493337 0.64400005 16447989
-0.033733334 0.059493337 0.64400005 16447471
-0.032506671 0.059493337 0.64400005 16447471
-0.03128 0.059493337 0.64400005 16183531
-0.030053336 0.059493337 0.64400005 15788773
-0.028826667 0.059493337 0.64400005 15656156
-0.027685715 0.059678096 0.64600003 16776179
-0.02645524 0.059678096 0.64600003 16711420
-0.025224764 0.059678096 0.64600003 16053490
-0.023994286 0.059678096 0.64600003 16183252
-0.022763809 0.059678096 0.64600003 15656908
-0.021533333 0.059678096 0.64600003 16115112
-0.020302858 0.059678096 0.64600003 16641456
-0.019072382 0.059678096 0.64600003 16579002
-0.017869525 0.05977048 0.64700001 16710588
-0.016637143 0.05977048 0.64700001 16646076
-0.015404763 0.05977048 0.64700001 16580539
-0.014150477 0.059678096 0.64600003 16580524
-0.012920001 0.059678096 0.64600003 16711598
-0.011689524 0.059678096 0.64600003 16646057
-0.10643619 0.060908575 0.64600003 16775594
-0.10520571 0.060908575 0.64600003 16644600
-0.10397524 0.060908575 0.64600003 16118256
-0.10274477 0.060908575 0.64600003 16379627
-0.10120001 0.060720004 0.64400005 16182248
-0.099973343 0.060720004 0.64400005 16312278
-0.098746672 0.060720004 0.64400005 15851727
-0.097520009 0.060720004 0.64400005 16047825
-0.096293338 0.060720004 0.64400005 15784653
-0.094919048 0.060625713 0.64300001 15977937
-0.093694285 0.060625713 0.64300001 15648972
-0.092469528 0.060625713 0.64300001 15647414
-0.091244757 0.060625713 0.64300001 15515828
-0.090020001 0.060625713 0.64300001 15713461
-0.088657148 0.06053143 0.64200002 15976633
-0.087434284 0.06053143 0.64200002 15778489
-0.086345717 0.060625713 0.64300001 15252145
-0.085120954 0.060625713 0.64300001 15709858
-0.08389619 0.060625713 0.64300001 15709858
-0.082671426 0.060625713 0.64300001 15445926
-0.081446663 0.060625713 0.64300001 14985375
-0.080097146 0.06053143 0.64200002 15115162
-0.078874283 0.06053143 0.64200002 14917783
-0.077530481 0.060437147 0.64100003 14983055
-0.076309532 0.060437147 0.64100003 14917262
-0.075088575 0.060437147 0.64100003 14981767
-0.07444381 0.060908575 0.64600003 14981767
-0.073213331 0.060908575 0.64600003 14718336
-0.071982861 0.060908575 0.64600003 14389371
-0.070752382 0.060908575 0.64600003 14388853
-0.069306672 0.060720004 0.64400005 14388853
-0.068080008 0.060720004 0.64400005 14190711
-0.067060955 0.060908575 0.64600003 13598574
-0.065830477 0.060908575 0.64600003 13530957
-0.064599998 0.060908575 0.64600003 12741441
-0.063369527 0.060908575 0.64600003 13199107
-0.062139049 0.060908575 0.64600003 13067521
-0.060908575 0.060908575 0.64600003 13395200
-0.059678096 0.060908575 0.64600003 13329408
-0.058447622 0.060908575 0.64600003 13328384
-0.057217143 0.060908575 0.64600003 13262592
-0.055986669 0.060908575 0.64600003 13395200
-0.054756194 0.060908575 0.64600003 13855744
-0.053608574 0.061002858 0.64700001 13991178
-0.052295242 0.060908575 0.64600003 15175452
-0.051064763 0.060908575 0.64600003 15045234
-0.049834289 0.060908575 0.64600003 15308406
-0.04860381 0.060908575 0.64600003 15046263
-0.047226671 0.060720004 0.64400005 15112056
-0.046000004 0.060720004 0.64400005 14917005
-0.044773336 0.060720004 0.64400005 14851212
-0.043546669 0.060720004 0.64400005 15379841
-0.042320006 0.060720004 0.64400005 16366736
-0.041093335 0.060720004 0.64400005 15973282
-0.039866671 0.060720004 0.64400005 14394250
-0.038640004 0.060720004 0.64400005 15575160
-0.037413336 0.060720004 0.64400005 16759434
-0.036186669 0.060720004 0.64400005 15843253
-0.034960002 0.060720004 0.64400005 15514288
-0.033733334 0.060720004 0.64400005 15581623
-0.032506671 0.060720004 0.64400005 16767696
-0.03128 0.060720004 0.64400005 16510693
-0.030053336 0.060720004 0.64400005 16379107
-0.028826667 0.060720004 0.64400005 16314338
-0.027685715 0.060908575 0.64600003 16776688
-0.026373334 0.060720004 0.64400005 16711674
-0.025146669 0.060720004 0.64400005 16251123
-0.023920001 0.060720004 0.64400005 16511916
-0.022763809 0.060908575 0.64600003 14932884
-0.021533333 0.060908575 0.64600003 15783741
-0.020302858 0.060908575 0.64600003 15652155
-0.019072382 0.060908575 0.64600003 15914818
-0.017841905 0.060908575 0.64600003 16638541
-0.016611429 0.060908575 0.64600003 16247872
-0.015380953 0.060908575 0.64600003 16576837
-0.014150477 0.060908575 0.64600003 16449068
-0.012880001 0.060720004 0.64400005 16777014
-0.011653334 0.060720004 0.64400005 16514924
-0.10716667 0.061850477 0.64300001 13271896
-0.1059419 0.061850477 0.64300001 16759182
-0.10488001 0.061946671 0.64400005 16036534
-0.10365334 0.061946671 0.64400005 15641776
-0.10274477 0.062139049 0.64600003 15969451
-0.10120001 0.061946671 0.64400005 15574693
-0.099973343 0.061946671 0.64400005 15768719
-0.098746672 0.061946671 0.64400005 15702926
-0.097520009 0.061946671 0.64400005 15833243
-0.096293338 0.061946671 0.64400005 15372692
-0.094919048 0.061850477 0.64300001 15633521
-0.093694285 0.061850477 0.64300001 15304556
-0.092469528 0.061850477 0.64300001 15497838
-0.091244757 0.061850477 0.64300001 15629424
-0.090020001 0.061850477 0.64300001 15565180
-0.088795237 0.061850477 0.64300001 15696766
-0.087570474 0.061850477 0.64300001 15698558
-0.086345717 0.061850477 0.64300001 15698558
-0.085120954 0.061850477 0.64300001 15632769
-0.08389619 0.061850477 0.64300001 15566976
-0.082671426 0.061850477 0.64300001 15566465
-0.081446663 0.061850477 0.64300001 15303293
-0.080097146 0.061754286 0.64200002 15497847
-0.078874283 0.061754286 0.64200002 15497847
-0.077530481 0.061658099 0.64100003 15564146
-0.076309532 0.061658099 0.64100003 15432560
-0.075088575 0.061658099 0.64100003 15564644
-0.074098095 0.061850477 0.64300001 15762023
-0.072873332 0.061850477 0.64300001 15565945
-0.071648575 0.061850477 0.64300001 15105394
-0.070752382 0.062139049 0.64600003 15431252
-0.069521904 0.062139049 0.64600003 15365459
-0.068291426 0.062139049 0.64600003 15363919
-0.067060955 0.062139049 0.64600003 13653301
-0.065830477 0.062139049 0.64600003 15028224
-0.064599998 0.062139049 0.64600003 15422979
-0.061015241 0.059830479 0.62200004 15097344
-0.059830479 0.059830479 0.62200004 13978880
-0.058645718 0.059830479 0.62200004 14893824
-0.059678096 0.062139049 0.64600003 15025408
-0.058447622 0.062139049 0.64600003 14893824
-0.057217143 0.062139049 0.64600003 14893824
-0.055986669 0.062139049 0.64600003 14960896
-0.054840952 0.062235236 0.64700001 15026688
-0.053608574 0.062235236 0.64700001 14895872
-0.052295242 0.062139049 0.64600003 14961664
-0.051064763 0.062139049 0.64600003 15433022
-0.049834289 0.062139049 0.64600003 15761987
-0.04860381 0.062139049 0.64600003 15500902
-0.047226671 0.061946671 0.64400005 15632488
-0.046000004 0.061946671 0.64400005 15698810
-0.044773336 0.061946671 0.64400005 15698810
-0.043546669 0.061946671 0.64400005 15701109
-0.042320006 0.061946671 0.64400005 16753797
-0.041093335 0.061946671 0.64400005 15971233
-0.039866671 0.061946671 0.64400005 13997443
-0.038640004 0.061946671 0.64400005 15500904
-0.037413336 0.061946671 0.64400005 16619385
-0.036186669 0.061946671 0.64400005 15969699
-0.034960002 0.061946671 0.64400005 16101285
-0.033733334 0.061946671 0.64400005 16039059
-0.032506671 0.061946671 0.64400005 16767922
-0.031231428 0.061850477 0.64300001 16510695
-0.030006666 0.061850477 0.64300001 16576488
-0.028781906 0.061850477 0.64300001 16577508
-0.027600003 0.061946671 0.64400005 16776429
-0.026373334 0.061946671 0.64400005 16711674
-0.025146669 0.061946671 0.64400005 16251123
-0.023920001 0.061946671 0.64400005 16445644
-0.022693336 0.061946671 0.64400005 15458749
-0.021466667 0.061946671 0.64400005 16244615
-0.020302858 0.062139049 0.64600003 16113029
-0.019072382 0.062139049 0.64600003 16242823
-0.017841905 0.062139049 0.64600003 16770709
-0.016559999 0.061946671 0.64400005 16444829
-0.015333335 0.061946671 0.64400005 16444829
-0.014106668 0.061946671 0.64400005 16447356
-0.012880001 0.061946671 0.64400005 16777095
-0.011653334 0.061946671 0.64400005 16580516
-0.10856 0.063173339 0.64400005 8876127
-0.10716667 0.063075244 0.64300001 12942416
-0.1059419 0.063075244 0.64300001 16429445
-0.10488001 0.063173339 0.64400005 15969418
-0.10365334 0.063173339 0.64400005 13403491
-0.10242668 0.063173339 0.64400005 14646124
-0.10120001 0.063173339 0.64400005 14646124
-0.099973343 0.063173339 0.64400005 15104097
-0.098746672 0.063173339 0.64400005 15564648
-0.097520009 0.063173339 0.64400005 15236978
-0.096293338 0.063173339 0.64400005 13592153
-0.094919048 0.063075244 0.64300001 14311990
-0.093694285 0.063075244 0.64300001 16219987
-0.092469528 0.063075244 0.64300001 15635068
-0.091244757 0.063075244 0.64300001 15766654
-0.090020001 0.063075244 0.64300001 15700880
-0.088657148 0.062977143 0.64200002 14779778
-0.087434284 0.062977143 0.64200002 15298655
-0.086345717 0.063075244 0.64300001 15627620
-0.085120954 0.063075244 0.64300001 14108790
-0.08389619 0.063075244 0.64300001 13385067
-0.082542859 0.062977143 0.64200002 13780292
-0.081320003 0.062977143 0.64200002 13846085
-0.080097146 0.062977143 0.64200002 13976372
-0.078874283 0.062977143 0.64200002 13647407
-0.077530481 0.062879048 0.64100003 14695500
-0.076309532 0.062879048 0.64100003 16537704
-0.075088575 0.062879048 0.64100003 15296579
-0.074098095 0.063075244 0.64300001 16349267
-0.072873332 0.063075244 0.64300001 15496043
-0.068123817 0.061015241 0.62200004 15029264
-0.066939048 0.061015241 0.62200004 15029264
-0.068291426 0.063369527 0.64600003 15030528
-0.067060955 0.063369527 0.64600003 15030528
-0.065830477 0.063369527 0.64600003 15031552
-0.0623 0.061113339 0.62300003 15294720
-0.061015241 0.061015241 0.62200004 15097344
-0.059830479 0.061015241 0.62200004 14768384
-0.058645718 0.061015241 0.62200004 15096832
-0.057460956 0.061015241 0.62200004 15294208
-0.056095239 0.060819048 0.62 15097092
-0.054914284 0.060819048 0.62 15162885
-0.053733334 0.060819048 0.62 15162894
-0.054925714 0.063565716 0.648 15162894
-0.053691428 0.063565716 0.648 15097600
-0.052376192 0.063467614 0.64700001 14966016
-0.051064763 0.063369527 0.64600003 15166464
-0.049834289 0.063369527 0.64600003 16745990
-0.04860381 0.063369527 0.64600003 15500601
-0.047373332 0.063369527 0.64600003 13921569
-0.046000004 0.063173339 0.64400005 15229503
-0.044773336 0.063173339 0.64400005 15163710
-0.043546669 0.063173339 0.64400005 15228472
-0.042320006 0.063173339 0.64400005 14767921
-0.041029524 0.063075244 0.64300001 15161911
-0.039804764 0.063075244 0.64300001 15096118
-0.038579997 0.063075244 0.64300001 15160387
-0.037355237 0.063075244 0.64300001 15226180
-0.036130477 0.063075244 0.64300001 15295555
-0.034905713 0.063075244 0.64300001 15887692
-0.033680953 0.063075244 0.64300001 14576425
-0.032456189 0.063075244 0.64300001 14379046
-0.031231428 0.063075244 0.64300001 13599867
-0.030006666 0.063075244 0.64300001 14192004
-0.028781906 0.063075244 0.64300001 13014630
-0.027557142 0.063075244 0.64300001 13277802
-0.02633238 0.063075244 0.64300001 13083022
-0.02510762 0.063075244 0.64300001 12819850
-0.023882857 0.063075244 0.64300001 14264958
-0.022658095 0.063075244 0.64300001 15251853
-0.021433335 0.063075244 0.64300001 15514246
-0.020208571 0.063075244 0.64300001 16566934
-0.018983809 0.063075244 0.64300001 15516850
-0.017759047 0.063075244 0.64300001 15253678
-0.016508572 0.062977143 0.64200002 15190446
-0.015285715 0.062977143 0.64200002 14861481
-0.014062857 0.062977143 0.64200002 16241792
-0.01282 0.062879048 0.64100003 16770706
-0.011599048 0.062879048 0.64100003 16379507
-0.10856 0.064400002 0.64400005 9270372
-0.10733335 0.064400002 0.64400005 13139286
-0.10610668 0.064400002 0.64400005 16759700
-0.10488001 0.064400002 0.64400005 16038557
-0.10365334 0.064400002 0.64400005 11959391
-0.10242668 0.064400002 0.64400005 12741977
-0.10120001 0.064400002 0.64400005 13202528
-0.099973343 0.064400002 0.64400005 13594708
-0.098746672 0.064400002 0.64400005 14778982
-0.097520009 0.064400002 0.64400005 14191229
-0.096293338 0.064400002 0.64400005 10441028
-0.094919048 0.064300001 0.64300001 12076800
-0.093694285 0.064300001 0.64300001 15498021
-0.092469528 0.064300001 0.64300001 15904150
-0.091244757 0.064300001 0.64300001 15575185
-0.090020001 0.064300001 0.64300001 15968410
-0.088657148 0.064200006 0.64200002 13994620
-0.087434284 0.064200006 0.64200002 13330496
-0.086345717 0.064300001 0.64300001 13396289
-0.085120954 0.064300001 0.64300001 12210502
-0.083765715 0.064200006 0.64200002 11420986
-0.082414292 0.064099997 0.64100003 11746085
-0.081193335 0.064099997 0.64100003 12009257
-0.079972379 0.064099997 0.64100003 12139812
-0.07875143 0.064099997 0.64100003 12008226
-0.077530481 0.064099997 0.64100003 13714967
-0.076309532 0.064099997 0.64100003 15820343
-0.075088575 0.064099997 0.64100003 15229494
-0.074098095 0.064300001 0.64300001 15229494
-0.072873332 0.064300001 0.64300001 15296048
-0.069308572 0.062200006 0.62200004 14572325
-0.068123817 0.062200006 0.62200004 15030528
-0.066939048 0.062200006 0.62200004 15096320
-0.065754294 0.062200006 0.62200004 15096832
-0.067060955 0.064599998 0.64600003 15294208
-0.063588567 0.062400002 0.62400001 15097344
-0.0623 0.0623 0.62300003 15031552
-0.061015241 0.062200006 0.62200004 15031296
-0.059830479 0.062200006 0.62200004 15097088
-0.058645718 0.062200006 0.62200004 15097856
-0.057460956 0.062200006 0.62200004 15295232
-0.056185719 0.062100001 0.62100005 15162887
-0.054914284 0.061999999 0.62 15228680
-0.053733334 0.061999999 0.62 15163650
-0.05255238 0.061999999 0.62 15229443
-0.051371425 0.061999999 0.62 15164160
-0.050190475 0.061999999 0.62 14703616
-0.051064763 0.064599998 0.64600003 15097344
-0.049834289 0.064599998 0.64600003 16744719
-0.04860381 0.064599998 0.64600003 15632965
-0.047226671 0.064400002 0.64400005 13790761
-0.046000004 0.064400002 0.64400005 15229753
-0.044703808 0.064300001 0.64300001 15492925
-0.043479048 0.064300001 0.64300001 15294290
-0.042254284 0.064300001 0.64300001 14636360
-0.041029524 0.064300001 0.64300001 15160371
-0.039804764 0.064300001 0.64300001 15489336
-0.038520001 0.064200006 0.64200002 15160905
-0.037297145 0.064200006 0.64200002 14897733
-0.036074288 0.064200006 0.64200002 15025971
-0.034851428 0.064200006 0.64200002 15552315
-0.033628572 0.064200006 0.64200002 13914369
-0.032405715 0.064200006 0.64200002 15164436
-0.031182857 0.064200006 0.64200002 12940679
-0.029959999 0.064200006 0.64200002 12809093
-0.028737145 0.064200006 0.64200002 12944513
-0.027557142 0.064300001 0.64300001 13010306
-0.02629143 0.064200006 0.64200002 13014165
-0.025068572 0.064200006 0.64200002 12685200
-0.023845714 0.064200006 0.64200002 12949891
-0.022622859 0.064200006 0.64200002 13936786
-0.021400001 0.064200006 0.64200002 13872001
-0.020177143 0.064200006 0.64200002 13937794
-0.018954286 0.064200006 0.64200002 13151386
-0.017731428 0.064200006 0.64200002 12954007
-0.016508572 0.064200006 0.64200002 13154727
-0.015285715 0.064200006 0.64200002 12365211
-0.014062857 0.064200006 0.64200002 14463866
-0.01282 0.064099997 0.64100003 16770476
-0.011544761 0.0638 0.63800001 16444079
-0.010313334 0.063699998 0.63700002 12562292
-0.0091000004 0.063699998 0.63700002 11241049
-0.10856 0.065626673 0.64400005 9664355
-0.10716667 0.065524764 0.64300001 12744006
-0.1059419 0.065524764 0.64300001 13467729
-0.10471714 0.065524764 0.64300001 13461060
-0.10349238 0.065524764 0.64300001 10960926
-0.10226762 0.065524764 0.64300001 12076343
-0.10104286 0.065524764 0.64300001 12010550
-0.099818096 0.065524764 0.64300001 12864042
-0.098593332 0.065524764 0.64300001 13719351
-0.097368568 0.065524764 0.64300001 12737357
-0.096143812 0.065524764 0.64300001 10303016
-0.09477143 0.065422855 0.64200002 11483143
-0.093548574 0.065422855 0.64200002 12009487
-0.092325717 0.065422855 0.64200002 12338470
-0.091102861 0.065422855 0.64200002 11614747
-0.089879997 0.065422855 0.64200002 12402705
-0.088519052 0.065320954 0.64100003 12797463
-0.087298095 0.065320954 0.64100003 13259554
-0.086077146 0.065320954 0.64100003 13588519
-0.084856197 0.065320954 0.64100003 12996411
-0.083635241 0.065320954 0.64100003 12667446
-0.082414292 0.065320954 0.64100003 12669254
-0.081193335 0.065320954 0.64100003 13195598
-0.079972379 0.065320954 0.64100003 13524813
-0.07875143 0.065320954 0.64100003 13590606
-0.077530481 0.065320954 0.64100003 14902857
-0.076309532 0.065320954 0.64100003 15363408
-0.075088575 0.065320954 0.64100003 15296845
-0.074098095 0.065524764 0.64300001 14770501
-0.072873332 0.065524764 0.64300001 15097088
-0.069308572 0.063384764 0.62200004 15228672
-0.068123817 0.063384764 0.62200004 15163146
-0.066939048 0.063384764 0.62200004 15163146
-0.065754294 0.063384764 0.62200004 15098112
-0.064569525 0.063384764 0.62200004 15295488
-0.063384764 0.063384764 0.62200004 15163650
-0.062200006 0.063384764 0.62200004 15097857
-0.061015241 0.063384764 0.62200004 15098112
-0.059830479 0.063384764 0.62200004 15098112
-0.058645718 0.063384764 0.62200004 15163904
-0.057460956 0.063384764 0.62200004 15163904
-0.056185719 0.063282862 0.62100005 15163396
-0.054914284 0.063180953 0.62 15229189
-0.053733334 0.063180953 0.62 15163904
-0.05255238 0.063180953 0.62 15295488
-0.051371425 0.063180953 0.62 15164166
-0.050190475 0.063180953 0.62 15032580
-0.049009521 0.063180953 0.62 15163904
-0.049834289 0.065830477 0.64600003 15624449
-0.048453335 0.065626673 0.64400005 15230477
-0.047226671 0.065626673 0.64400005 15230477
-0.045928571 0.065524764 0.64300001 15297347
-0.044703808 0.065524764 0.64300001 16350035
-0.043479048 0.065524764 0.64300001 15431284
-0.04218857 0.065422855 0.64200002 15102319
-0.040965714 0.065422855 0.64200002 15363417
-0.039742857 0.065422855 0.64200002 15692382
-0.038460001 0.065320954 0.64100003 15363926
-0.037239049 0.065320954 0.64100003 15232340
-0.036074288 0.065422855 0.64200002 15297111
-0.034851428 0.065422855 0.64200002 15362904
-0.033628572 0.065422855 0.64200002 14380624
-0.032405715 0.065422855 0.64200002 15301726
-0.031182857 0.065422855 0.64200002 13274802
-0.029959999 0.065422855 0.64200002 12880044
-0.028737145 0.065422855 0.64200002 12684203
-0.027514286 0.065422855 0.64200002 12684203
-0.02629143 0.065422855 0.64200002 12095400
-0.025068572 0.065422855 0.64200002 12292779
-0.023845714 0.065422855 0.64200002 12556721
-0.022622859 0.065422855 0.64200002 13938374
-0.021400001 0.065422855 0.64200002 13743523
-0.020145716 0.065320954 0.64100003 13151386
-0.018924762 0.065320954 0.64100003 12626085
-0.017703811 0.065320954 0.64100003 12691878
-0.016482858 0.065320954 0.64100003 12299693
-0.015285715 0.065422855 0.64200002 11641763
-0.014062857 0.065422855 0.64200002 13739437
-0.01284 0.065422855 0.64200002 16239571
-0.011526668 0.06491334 0.63700002 16308627
-0.010313334 0.06491334 0.63700002 13150563
-0.0091000004 0.06491334 0.63700002 11502422
-0.10716667 0.066749521 0.64300001 12412492
-0.1059419 0.066749521 0.64300001 12609871
-0.10471714 0.066749521 0.64300001 13326905
-0.10333143 0.066645719 0.64200002 12866354
-0.10210858 0.066645719 0.64200002 13324387
-0.10104286 0.066749521 0.64300001 13916524
-0.099662863 0.066645719 0.64200002 13982053
-0.098439999 0.066645719 0.64200002 14245225
-0.097217143 0.066645719 0.64200002 12999263
-0.095994294 0.066645719 0.64200002 11814989
-0.094623812 0.06654191 0.64100003 12009799
-0.093402863 0.06654191 0.64100003 11680834
-0.092181914 0.06654191 0.64100003 12203275
-0.090960957 0.06654191 0.64100003 12598033
-0.089600012 0.066438094 0.64000005 12926038
-0.088380955 0.066438094 0.64000005 14110312
-0.087161906 0.066438094 0.64000005 14310988
-0.086077146 0.06654191 0.64100003 14903125
-0.084723815 0.066438094 0.64000005 14639513
-0.083504766 0.066438094 0.64000005 15297443
-0.082285725 0.066438094 0.64000005 14844299
-0.081066668 0.066438094 0.64000005 14975885
-0.079847619 0.066438094 0.64000005 15632050
-0.07875143 0.06654191 0.64100003 14842534
-0.077530481 0.06654191 0.64100003 15230053
-0.076309532 0.06654191 0.64100003 14835295
-0.075088575 0.06654191 0.64100003 15296066
-0.074098095 0.066749521 0.64300001 14638136
-0.070266664 0.064361908 0.62 15097088
-0.069085717 0.064361908 0.62 15360256
-0.068014294 0.064465716 0.62100005 15163146
-0.066831432 0.064465716 0.62100005 15031560
-0.065648578 0.064465716 0.62100005 15098112
-0.064465716 0.064465716 0.62100005 15163904
-0.063384764 0.064569525 0.62200004 15097344
-0.062200006 0.064569525 0.62200004 15163136
-0.060917147 0.064465716 0.62100005 15163904
-0.059734289 0.064465716 0.62100005 15229696
-0.058551431 0.064465716 0.62100005 15163659
-0.057368573 0.064465716 0.62100005 15163659
-0.056095239 0.064361908 0.62 15163904
-0.054914284 0.064361908 0.62 15229696
-0.053733334 0.064361908 0.62 15164416
-0.05255238 0.064361908 0.62 15296000
-0.051371425 0.064361908 0.62 15164160
-0.050190475 0.064361908 0.62 15295745
-0.049009521 0.064361908 0.62 15163396
-0.049834289 0.067060955 0.64600003 14966017
-0.048453335 0.066853337 0.64400005 15095552
-0.047153335 0.066749521 0.64300001 15753475
-0.045857143 0.066645719 0.64200002 15230756
-0.044634286 0.066645719 0.64200002 16020272
-0.04341143 0.066645719 0.64200002 15364971
-0.04212286 0.06654191 0.64100003 15101799
-0.040901907 0.06654191 0.64100003 15297102
-0.039680954 0.06654191 0.64100003 15691860
-0.038460001 0.06654191 0.64100003 15429719
-0.037239049 0.06654191 0.64100003 15363926
-0.036018096 0.06654191 0.64100003 15429471
-0.034797143 0.06654191 0.64100003 15890022
-0.03357619 0.06654191 0.64100003 13922883
-0.032355241 0.06654191 0.64100003 14054469
-0.031134287 0.06654191 0.64100003 12620686
-0.029913336 0.06654191 0.64100003 11962756
-0.028692381 0.06654191 0.64100003 11438213
-0.027514286 0.066645719 0.64200002 11240834
-0.02629143 0.066645719 0.64200002 11044214
-0.025068572 0.066645719 0.64200002 11570558
-0.023808572 0.06654191 0.64100003 11375733
-0.02258762 0.06654191 0.64100003 12757386
-0.021366667 0.06654191 0.64100003 13154949
-0.020145716 0.06654191 0.64100003 12497019
-0.018924762 0.06654191 0.64100003 11378268
-0.017703811 0.06654191 0.64100003 11312475
-0.016457144 0.066438094 0.64000005 11049821
-0.015238097 0.066438094 0.64000005 11247200
-0.014040953 0.06654191 0.64100003 13083998
-0.01282 0.06654191 0.64100003 16044683
-0.011526668 0.066126674 0.63700002 16309150
-0.010313334 0.066126674 0.63700002 12164191
-0.0091000004 0.066126674 0.63700002 10974208
-0.10788572 0.06765715 0.64000005 10253671
-0.10666667 0.06765715 0.64000005 12607057
-0.10577714 0.067868568 0.64200002 12804436
-0.10439143 0.067762859 0.64100003 13063492
-0.10317048 0.067762859 0.64100003 14708317
-0.10194953 0.067762859 0.64100003 13927067
-0.10072858 0.067762859 0.64100003 16690373
-0.099507622 0.067762859 0.64100003 14786231
-0.098286666 0.067762859 0.64100003 15378368
-0.097065717 0.067762859 0.64100003 13933223
-0.095695242 0.06765715 0.64000005 12683156
-0.094476193 0.06765715 0.64000005 13604262
-0.092965715 0.067445718 0.63800001 14327985
-0.09175048 0.067445718 0.63800001 14917299
-0.090535238 0.067445718 0.63800001 16762330
-0.089320004 0.067445718 0.63800001 16373476
-0.088104762 0.067445718 0.63800001 16241890
-0.08688952 0.067445718 0.63800001 16307152
-0.085942864 0.06765715 0.64000005 16767703
-0.084723815 0.06765715 0.64000005 16508159
-0.083504766 0.06765715 0.64000005 16772863
-0.082028575 0.067445718 0.63800001 16642801
-0.080813333 0.067445718 0.63800001 16708594
-0.079598099 0.067445718 0.63800001 16578553
-0.078628577 0.06765715 0.64000005 14670556
-0.077409528 0.06765715 0.64000005 15766913
-0.073571429 0.065331437 0.61800003 12806228
-0.072394289 0.065331437 0.61800003 15162396
-0.071217142 0.065331437 0.61800003 15096603
-0.07004001 0.065331437 0.61800003 15031296
-0.068862855 0.065331437 0.61800003 15360256
-0.067795239 0.065437146 0.61900002 15097094
-0.066723809 0.065542854 0.62 15162887
-0.065542854 0.065542854 0.62 15163650
-0.064361908 0.065542854 0.62 15163650
-0.063282862 0.065648578 0.62100005 15163144
-0.061999999 0.065542854 0.62 15163144
-0.06072095 0.065437146 0.61900002 15163904
-0.059541903 0.065437146 0.61900002 15295488
-0.058268573 0.065331437 0.61800003 15163664
-0.05709143 0.065331437 0.61800003 15032078
-0.056004763 0.065437146 0.61900002 15163904
-0.054825716 0.065437146 0.61900002 15163904
-0.053646669 0.065437146 0.61900002 15098112
-0.05255238 0.065542854 0.62 15163904
-0.051371425 0.065542854 0.62 15163650
-0.050271433 0.065648578 0.62100005 15229443
-0.048930477 0.065437146 0.61900002 15163146
-0.047751427 0.065437146 0.61900002 15097353
-0.046722863 0.065648578 0.62100005 15162387
-0.047153335 0.067974284 0.64300001 15491352
-0.045785714 0.067762859 0.64100003 15229709
-0.044495244 0.06765715 0.64000005 15887639
-0.043073334 0.067340001 0.63700002 15496543
-0.041860003 0.067340001 0.63700002 15299164
-0.040646669 0.067340001 0.63700002 15431250
-0.039433334 0.067340001 0.63700002 15497043
-0.038279999 0.067445718 0.63800001 15431252
-0.037064761 0.067445718 0.63800001 15365459
-0.035793334 0.067340001 0.63700002 15496293
-0.03458 0.067340001 0.63700002 15693672
-0.033419047 0.067445718 0.63800001 14446658
-0.032203808 0.067445718 0.63800001 13065005
-0.030988572 0.067445718 0.63800001 12478803
-0.029773334 0.067445718 0.63800001 13597284
-0.028558096 0.067445718 0.63800001 13600096
-0.027428573 0.06765715 0.64000005 13994854
-0.026209526 0.06765715 0.64000005 14061653
-0.024990477 0.06765715 0.64000005 14390618
-0.023697143 0.067445718 0.63800001 13997657
-0.022446666 0.067340001 0.63700002 14392415
-0.021233333 0.067340001 0.63700002 15250751
-0.020051429 0.067445718 0.63800001 15448130
-0.018836191 0.067445718 0.63800001 15316287
-0.017593335 0.067340001 0.63700002 15513666
-0.016380001 0.067340001 0.63700002 15646022
-0.015142857 0.067234285 0.63600004 15974987
-0.01393143 0.067234285 0.63600004 15973177
-0.012720001 0.067234285 0.63600004 16762950
-0.011508572 0.067234285 0.63600004 16108157
-0.010297143 0.067234285 0.63600004 11700026
-0.0091000004 0.067340001 0.63700002 10906112
-0.10910477 0.068876199 0.64000005 11436916
-0.10738 0.068553336 0.63700002 10450021
-0.10616667 0.068553336 0.63700002 12671292
-0.10544763 0.068876199 0.64000005 12671292
-0.10390285 0.068660952 0.63800001 12470040
-0.10268762 0.068660952 0.63800001 15101760
-0.10147239 0.068660952 0.63800001 12748690
-0.10025714 0.068660952 0.63800001 14590894
-0.099041909 0.068660952 0.63800001 12294326
-0.097673342 0.068553336 0.63700002 14333909
-0.096308582 0.06844572 0.63600004 13877978
-0.095097147 0.06844572 0.63600004 14206943
-0.09388572 0.06844572 0.63600004 14928365
-0.092528574 0.068338096 0.63500005 12954575
-0.091319054 0.068338096 0.63500005 13473719
-0.090109527 0.068338096 0.63500005 16764140
-0.088900007 0.068338096 0.63500005 16442349
-0.08769048 0.068338096 0.63500005 16376556
-0.086344764 0.068230473 0.634 14866642
-0.085137136 0.068230473 0.634 14274505
-0.084061913 0.068338096 0.63500005 14737380
-0.082852393 0.068338096 0.63500005 14474208
-0.081642859 0.068338096 0.63500005 14272484
-0.080433339 0.068338096 0.63500005 16246271
-0.079348572 0.06844572 0.63600004 16710398
-0.078382857 0.068660952 0.63800001 15920882
-0.074385718 0.066185713 0.61500001 15571361
-0.073214285 0.066185713 0.61500001 11492195
-0.072160006 0.066293344 0.61600006 15030016
-0.070986666 0.066293344 0.61600006 15753728
-0.069813341 0.066293344 0.61600006 15098112
-0.068640009 0.066293344 0.61600006 15163904
-0.067685723 0.066508569 0.61800003 15162880
-0.066508569 0.066508569 0.61800003 15162880
-0.065331437 0.066508569 0.61800003 15163650
-0.064154282 0.066508569 0.61800003 15032064
-0.063079052 0.066616185 0.61900002 15163650
-0.061900001 0.066616185 0.61900002 15163650
-0.06062286 0.066508569 0.61800003 15163904
-0.059445716 0.066508569 0.61800003 15295488
-0.058080003 0.066293344 0.61600006 15164168
-0.056906674 0.066293344 0.61600006 15032582
-0.055733338 0.066293344 0.61600006 15163904
-0.054737143 0.066508569 0.61800003 15163904
-0.053560004 0.066508569 0.61800003 15164416
-0.052467622 0.066616185 0.61900002 15164416
-0.051288571 0.066616185 0.61900002 15164160
-0.050109524 0.066616185 0.61900002 15098368
-0.048930477 0.066616185 0.61900002 15163909
-0.047674287 0.066508569 0.61800003 15032323
-0.046497144 0.066508569 0.61800003 15162637
-0.04532 0.066508569 0.61800003 15491602
-0.045785714 0.068983816 0.64100003 15163398
-0.044495244 0.068876199 0.64000005 15294984
-0.043073334 0.068553336 0.63700002 15430982
-0.041860003 0.068553336 0.63700002 15891533
-0.040646669 0.068553336 0.63700002 15496793
-0.039433334 0.068553336 0.63700002 15365207
-0.03822 0.068553336 0.63700002 15430739
-0.037006669 0.068553336 0.63700002 15430739
-0.035737146 0.06844572 0.63600004 15430741
-0.034525715 0.06844572 0.63600004 15628120
-0.033314288 0.06844572 0.63600004 15104309
-0.032052383 0.068338096 0.63500005 14183207
-0.030842859 0.068338096 0.63500005 13788467
-0.029633334 0.068338096 0.63500005 14972741
-0.028468573 0.06844572 0.63600004 15500100
-0.0273 0.068553336 0.63700002 16223823
-0.026086668 0.068553336 0.63700002 15635311
-0.024873333 0.068553336 0.63700002 16095862
-0.023622857 0.06844572 0.63600004 15770486
-0.02241143 0.06844572 0.63600004 15573107
-0.021200001 0.06844572 0.63600004 15703637
-0.019988572 0.06844572 0.63600004 16361567
-0.018777143 0.06844572 0.63600004 15904847
-0.017565714 0.06844572 0.63600004 16102226
-0.016354287 0.06844572 0.63600004 15907166
-0.015095239 0.068230473 0.634 15841373
-0.013887619 0.068230473 0.634 15905349
-0.01268 0.068230473 0.634 16761686
-0.011472382 0.068230473 0.634 16106896
-0.010264762 0.068230473 0.634 11172421
-0.10876381 0.069876194 0.63800001 11632751
-0.10738 0.06976667 0.63700002 10711649
-0.106 0.069657147 0.63600004 13195065
-0.10478858 0.069657147 0.63600004 13392444
-0.10357714 0.069657147 0.63600004 13786918
-0.10236572 0.069657147 0.63600004 16484431
-0.10115429 0.069657147 0.63600004 15845782
-0.099942856 0.069657147 0.63600004 16174747
-0.098731436 0.069657147 0.63600004 14733541
-0.097366676 0.069547623 0.63500005 15983608
-0.096157156 0.069547623 0.63500005 15854582
-0.094947629 0.069547623 0.63500005 16117754
-0.093738101 0.069547623 0.63500005 15062015
-0.092528574 0.069547623 0.63500005 12298713
-0.091175236 0.0694381 0.634 11571394
-0.089967623 0.0694381 0.634 13676770
-0.088759996 0.0694381 0.634 15521229
-0.087552384 0.0694381 0.634 16310745
-0.086072385 0.069219045 0.63200003 14009010
-0.08486858 0.069219045 0.63200003 10587774
-0.083664767 0.069219045 0.63200003 10919832
-0.082460955 0.069219045 0.63200003 13025208
-0.08125715 0.069219045 0.63200003 13743599
-0.080053337 0.069219045 0.63200003 12032981
