# .PCD v0.7 - Point Cloud Data file format
VERSION 0.7
FIELDS x y z rgba
SIZE 4 4 4 4
TYPE F F F U
COUNT 1 1 1 1
WIDTH 1082
HEIGHT 1
VIEWPOINT 0 0 0 1 0 0 0
POINTS 1082
DATA ascii
-0.12084001 0.029640002 0.79800004 11618934
-0.11932001 0.029640002 0.79800004 10632039
-0.1178 0.029640002 0.79800004 10950438
-0.11628 0.029640002 0.79800004 10753059
-0.11476 0.029640002 0.79800004 11014404
-0.11324 0.029640002 0.79800004 11145990
-0.11172 0.029640002 0.79800004 11014656
-0.1102 0.029640002 0.79800004 11014656
-0.10868 0.029640002 0.79800004 12002339
-0.10716 0.029640002 0.79800004 13515578
-0.10590477 0.029714286 0.80000001 13058577
-0.10438095 0.029714286 0.80000001 12992784
-0.10285714 0.029714286 0.80000001 13123072
-0.10133334 0.029714286 0.80000001 13188864
-0.10005905 0.029788572 0.80200005 13254912
-0.098531432 0.029788572 0.80200005 13518080
-0.093496196 0.028711431 0.77300006 13388032
-0.092023812 0.028711431 0.77300006 13716992
-0.093714289 0.029714286 0.80000001 13717769
-0.092190482 0.029714286 0.80000001 13783562
-0.090666667 0.029714286 0.80000001 13847808
-0.089142852 0.029714286 0.80000001 13847808
-0.087619044 0.029714286 0.80000001 14043904
-0.086095236 0.029714286 0.80000001 13978112
-0.084571429 0.029714286 0.80000001 13977344
-0.083255246 0.029788572 0.80200005 13714176
-0.081727624 0.029788572 0.80200005 14372352
-0.079600006 0.029565716 0.79600006 15359244
-0.078083813 0.029565716 0.79600006 14174485
-0.07656762 0.029565716 0.79600006 13450762
-0.07486286 0.02949143 0.79400003 13450523
-0.073350482 0.02949143 0.79400003 13253144
-0.071838096 0.02949143 0.79400003 13514783
-0.070325717 0.02949143 0.79400003 13448990
-0.068813339 0.02949143 0.79400003 13580333
-0.067300953 0.02949143 0.79400003 14830400
-0.065788575 0.02949143 0.79400003 13520934
-0.064276196 0.02949143 0.79400003 13257762
-0.062921911 0.029565716 0.79600006 12672323
-0.061405718 0.029565716 0.79600006 14448734
-0.059889529 0.029565716 0.79600006 13337194
-0.058226667 0.02949143 0.79400003 13995124
-0.056714289 0.02949143 0.79400003 13471375
-0.055201907 0.02949143 0.79400003 12879238
-0.053689525 0.02949143 0.79400003 13142625
-0.052177146 0.02949143 0.79400003 14129520
-0.050664764 0.02949143 0.79400003 13472103
-0.049152382 0.02949143 0.79400003 13208931
-0.047640003 0.02949143 0.79400003 13144944
-0.046127621 0.02949143 0.79400003 13671288
-0.044615239 0.02949143 0.79400003 15580983
-0.04310286 0.02949143 0.79400003 16567878
-0.041485716 0.029417144 0.79200006 15451136
-0.039977144 0.029417144 0.79200006 6963968
-0.14212 0.031160003 0.79800004 8746335
-0.1406 0.031160003 0.79800004 8483163
-0.13908 0.031160003 0.79800004 10119765
-0.13721524 0.031081906 0.79600006 11304039
-0.13569905 0.031081906 0.79600006 10645856
-0.13418287 0.031081906 0.79600006 8145722
-0.13266668 0.031081906 0.79600006 7618343
-0.13115048 0.031081906 0.79600006 8605238
-0.12963429 0.031081906 0.79600006 8931906
-0.12811811 0.031081906 0.79600006 8734527
-0.1266019 0.031081906 0.79600006 7679262
-0.12508573 0.031081906 0.79600006 7218711
-0.12356954 0.031081906 0.79600006 7550464
-0.12205334 0.031081906 0.79600006 9326872
-0.12053715 0.031081906 0.79600006 9715532
-0.11902096 0.031081906 0.79600006 9978704
-0.11750478 0.031081906 0.79600006 10299684
-0.11598858 0.031081906 0.79600006 10365477
-0.11447239 0.031081906 0.79600006 10559254
-0.1129562 0.031081906 0.79600006 11546149
-0.11144001 0.031081906 0.79600006 10953036
-0.1102 0.031160003 0.79800004 10755657
-0.10868 0.031160003 0.79800004 12005916
-0.10716 0.031160003 0.79800004 13255983
-0.10564 0.031160003 0.79800004 13388041
-0.1008581 0.030183813 0.77300006 13388041
-0.099128574 0.030105716 0.77100003 13714688
-0.097660005 0.030105716 0.77100003 13846273
-0.096191436 0.030105716 0.77100003 13519616
-0.09496858 0.030183813 0.77300006 13651200
-0.093496196 0.030183813 0.77300006 13520128
-0.092023812 0.030183813 0.77300006 13388544
-0.090668574 0.030222857 0.77400005 13651213
-0.08919429 0.030222857 0.77400005 13519627
-0.087719999 0.030222857 0.77400005 13781760
-0.086134292 0.030183813 0.77300006 13781760
-0.084661908 0.030183813 0.77300006 13978624
-0.083189532 0.030183813 0.77300006 13847040
-0.081717148 0.030183813 0.77300006 14174976
-0.080037147 0.030105716 0.77100003 13977600
-0.07856857 0.030105716 0.77100003 14898432
-0.079600006 0.031081906 0.79600006 15885327
-0.078083813 0.031081906 0.79600006 14439710
-0.07656762 0.031081906 0.79600006 13321229
-0.07486286 0.03100381 0.79400003 13453360
-0.073350482 0.03100381 0.79400003 13255981
-0.071838096 0.03100381 0.79400003 13253151
-0.070325717 0.03100381 0.79400003 13253151
-0.068813339 0.03100381 0.79400003 13253655
-0.067300953 0.03100381 0.79400003 13451034
-0.065788575 0.03100381 0.79400003 12337160
-0.064276196 0.03100381 0.79400003 12337160
-0.06276381 0.03100381 0.79400003 10570268
-0.061251432 0.03100381 0.79400003 11425577
-0.05973905 0.03100381 0.79400003 10641998
-0.058226667 0.03100381 0.79400003 10641998
-0.056571431 0.030925717 0.79200006 10972520
-0.05506286 0.030925717 0.79200006 10709348
-0.053554289 0.030925717 0.79200006 11632970
-0.052045718 0.030925717 0.79200006 12159314
-0.050537147 0.030925717 0.79200006 11174227
-0.049028575 0.030925717 0.79200006 10713676
-0.047520004 0.030925717 0.79200006 10650970
-0.046011433 0.030925717 0.79200006 10124626
-0.044502862 0.030925717 0.79200006 13801302
-0.04310286 0.03100381 0.79400003 15643506
-0.041485716 0.030925717 0.79200006 14983972
-0.039977144 0.030925717 0.79200006 7220480
-0.14176381 0.032598101 0.79600006 8942429
-0.14024763 0.032598101 0.79600006 8679257
-0.13873143 0.032598101 0.79600006 10247000
-0.13721524 0.032598101 0.79600006 9194312
-0.13569905 0.032598101 0.79600006 9713664
-0.13418287 0.032598101 0.79600006 11226903
-0.13266668 0.032598101 0.79600006 11105095
-0.13115048 0.032598101 0.79600006 11828818
-0.12963429 0.032598101 0.79600006 11630965
-0.12779619 0.032516193 0.79400003 11828344
-0.12628381 0.032516193 0.79400003 10312309
-0.12477144 0.032516193 0.79400003 9654379
-0.12325906 0.032516193 0.79400003 9985118
-0.12174667 0.032516193 0.79400003 12419459
-0.12023429 0.032516193 0.79400003 12093324
-0.11872191 0.032516193 0.79400003 11961738
-0.11720953 0.032516193 0.79400003 12288650
-0.11569715 0.032516193 0.79400003 12749201
-0.11418477 0.032516193 0.79400003 13670544
-0.11267239 0.032516193 0.79400003 14723232
-0.11116 0.032516193 0.79400003 14985888
-0.10964762 0.032516193 0.79400003 11696238
-0.10840763 0.032598101 0.79600006 12403518
-0.10716 0.032680001 0.79800004 12864069
-0.10233048 0.031656191 0.77300006 13453314
-0.10059715 0.031574287 0.77100003 13519107
-0.099128574 0.031574287 0.77100003 13715970
-0.097660005 0.031574287 0.77100003 13715970
-0.096191436 0.031574287 0.77100003 13585408
-0.09472286 0.031574287 0.77100003 13651200
-0.093254283 0.031574287 0.77100003 13520640
-0.092023812 0.031656191 0.77300006 13586432
-0.090551436 0.031656191 0.77300006 13717006
-0.089079052 0.031656191 0.77300006 13585420
-0.087606676 0.031656191 0.77300006 13781504
-0.086134292 0.031656191 0.77300006 13847296
-0.084442854 0.031574287 0.77100003 13846784
-0.082974285 0.031574287 0.77100003 13912576
-0.081717148 0.031656191 0.77300006 14110464
-0.080037147 0.031574287 0.77100003 13847296
-0.07856857 0.031574287 0.77100003 14964745
-0.077100001 0.031574287 0.77100003 16741413
-0.078083813 0.032598101 0.79600006 14832939
-0.076375239 0.032516193 0.79400003 14503974
-0.07486286 0.032516193 0.79400003 14376009
-0.073350482 0.032516193 0.79400003 14244423
-0.071657151 0.032434288 0.79200006 14440766
-0.07014858 0.032434288 0.79200006 14572352
-0.068640009 0.032434288 0.79200006 14375475
-0.067131437 0.032434288 0.79200006 13849131
-0.065622866 0.032434288 0.79200006 12734243
-0.064114295 0.032434288 0.79200006 13129001
-0.062447619 0.03235238 0.79000002 11099997
-0.060942858 0.03235238 0.79000002 11363169
-0.059588574 0.032434288 0.79200006 10643827
-0.058080003 0.032434288 0.79200006 10314862
-0.05642857 0.03235238 0.79000002 11039339
-0.05492381 0.03235238 0.79000002 11499890
-0.053419046 0.03235238 0.79000002 12158060
-0.051914286 0.03235238 0.79000002 12750197
-0.050409522 0.03235238 0.79000002 12421491
-0.048904765 0.03235238 0.79000002 12092526
-0.047400001 0.03235238 0.79000002 11962238
-0.045895241 0.03235238 0.79000002 11567480
-0.044390477 0.03235238 0.79000002 14392442
-0.042885717 0.03235238 0.79000002 15708302
-0.041380953 0.03235238 0.79000002 14786566
-0.039876193 0.03235238 0.79000002 7088896
-0.14176381 0.03411429 0.79600006 9270108
-0.14024763 0.03411429 0.79600006 8612178
-0.13873143 0.03411429 0.79600006 10640199
-0.13687047 0.034028571 0.79400003 9521718
-0.1353581 0.034028571 0.79400003 10628864
-0.13384572 0.034028571 0.79400003 14379055
-0.13233334 0.034028571 0.79400003 12943761
-0.13082094 0.034028571 0.79400003 12746382
-0.12930857 0.034028571 0.79400003 12615046
-0.12779619 0.034028571 0.79400003 13338769
-0.12628381 0.034028571 0.79400003 13208480
-0.12445715 0.03394286 0.79200006 13208480
-0.12294858 0.03394286 0.79200006 13341081
-0.12144001 0.03394286 0.79200006 13604253
-0.11993144 0.03394286 0.79200006 12817842
-0.11842287 0.03394286 0.79200006 11830947
-0.11691429 0.03394286 0.79200006 10913150
-0.11540572 0.03394286 0.79200006 12097424
-0.11389715 0.03394286 0.79200006 13150114
-0.11238858 0.03394286 0.79200006 13610665
-0.11088001 0.03394286 0.79200006 15647945
-0.10937144 0.03394286 0.79200006 12358295
-0.10840763 0.03411429 0.79600006 12010818
-0.10353429 0.033042856 0.77100003 12339783
-0.10206572 0.033042856 0.77100003 13584896
-0.10059715 0.033042856 0.77100003 13716480
-0.09887144 0.032957144 0.76900005 13519360
-0.09740667 0.032957144 0.76900005 13519360
-0.095941909 0.032957144 0.76900005 13520128
-0.094477147 0.032957144 0.76900005 13520128
-0.093012393 0.032957144 0.76900005 13585664
-0.091785714 0.033042856 0.77100003 13651456
-0.090317145 0.033042856 0.77100003 13651717
-0.088848568 0.033042856 0.77100003 13585924
-0.087379999 0.033042856 0.77100003 13717248
-0.08591143 0.033042856 0.77100003 13519872
-0.084442854 0.033042856 0.77100003 13846784
-0.082974285 0.033042856 0.77100003 14175744
-0.081717148 0.033128574 0.77300006 14176256
-0.080037147 0.033042856 0.77100003 13978880
-0.07856857 0.033042856 0.77100003 14700299
-0.077100001 0.033042856 0.77100003 15160850
-0.075435244 0.032957144 0.76900005 14831647
-0.073970482 0.032957144 0.76900005 14765854
-0.074674286 0.03394286 0.79200006 14768959
-0.073165715 0.03394286 0.79200006 14900545
-0.071476191 0.033857141 0.79000002 14835256
-0.069971427 0.033857141 0.79000002 14901049
-0.068466663 0.033857141 0.79000002 14835274
-0.066961907 0.033857141 0.79000002 14506309
-0.065457143 0.033857141 0.79000002 12867869
-0.063952379 0.033857141 0.79000002 12802076
-0.062368572 0.033814285 0.78900003 10838598
-0.060865719 0.033814285 0.78900003 10838598
-0.059362859 0.033814285 0.78900003 10712154
-0.057860002 0.033814285 0.78900003 10514775
-0.056357145 0.033814285 0.78900003 11105363
-0.054854289 0.033814285 0.78900003 11631707
-0.053351428 0.033814285 0.78900003 12551253
-0.051848572 0.033814285 0.78900003 13077597
-0.050345715 0.033814285 0.78900003 13407071
-0.048842859 0.033814285 0.78900003 13143899
-0.047220003 0.033728573 0.78700006 12618073
-0.045720957 0.033728573 0.78700006 12618073
-0.044221908 0.033728573 0.78700006 14784370
-0.042722862 0.033728573 0.78700006 15442300
-0.041328572 0.033814285 0.78900003 13731102
-0.039825715 0.033814285 0.78900003 7480832
-0.14105143 0.035451431 0.79200006 9466196
-0.13954286 0.035451431 0.79200006 8610887
-0.13838285 0.035540953 0.79400003 10635337
-0.13687047 0.035540953 0.79400003 10437958
-0.1353581 0.035540953 0.79400003 11756109
-0.13350858 0.035451431 0.79200006 13532520
-0.132 0.035451431 0.79200006 13016491
-0.13049144 0.035451431 0.79200006 13411249
-0.12898286 0.035451431 0.79200006 13150112
-0.12747429 0.035451431 0.79200006 14137007
-0.12596571 0.035451431 0.79200006 12096951
-0.12414286 0.035361905 0.79000002 11767986
-0.1226381 0.035361905 0.79000002 12029875
-0.12113333 0.035361905 0.79000002 12161461
-0.11962857 0.035361905 0.79000002 12293828
-0.11812381 0.035361905 0.79000002 11570105
-0.11661905 0.035361905 0.79000002 10780283
-0.11511429 0.035361905 0.79000002 12293522
-0.11360952 0.035361905 0.79000002 13347752
-0.11210477 0.035361905 0.79000002 13347752
-0.1106 0.035361905 0.79000002 15450772
-0.10909524 0.035361905 0.79000002 12950638
-0.10500287 0.034511428 0.77100003 12731976
-0.10353429 0.034511428 0.77100003 12863562
-0.10180096 0.034421906 0.76900005 13585664
-0.10033619 0.034421906 0.76900005 13717248
-0.09861429 0.03433238 0.76700002 13585409
-0.097153336 0.03433238 0.76700002 13585409
-0.095941909 0.034421906 0.76900005 13651712
-0.094477147 0.034421906 0.76900005 13585920
-0.093012393 0.034421906 0.76900005 13650944
-0.091547623 0.034421906 0.76900005 13716736
-0.090082861 0.034421906 0.76900005 13717248
-0.0886181 0.034421906 0.76900005 13651456
-0.087379999 0.034511428 0.77100003 13913344
-0.08591143 0.034511428 0.77100003 13847552
-0.084223814 0.034421906 0.76900005 13912320
-0.082759053 0.034421906 0.76900005 14307074
-0.081505716 0.034511428 0.77100003 14241536
-0.080037147 0.034511428 0.77100003 14175744
-0.07856857 0.034511428 0.77100003 14502656
-0.076900005 0.034421906 0.76900005 14502656
-0.075435244 0.034421906 0.76900005 14435337
-0.073970482 0.034421906 0.76900005 14501130
-0.074391425 0.035317142 0.78900003 14503720
-0.072888575 0.035317142 0.78900003 15227443
-0.071385719 0.035317142 0.78900003 14965550
-0.069882862 0.035317142 0.78900003 15228722
-0.068380006 0.035317142 0.78900003 14638409
-0.066877142 0.035317142 0.78900003 14638409
-0.065374292 0.035317142 0.78900003 13658155
-0.063871428 0.035317142 0.78900003 13855534
-0.062368572 0.035317142 0.78900003 12611897
-0.060865719 0.035317142 0.78900003 11888174
-0.059362859 0.035317142 0.78900003 12086848
-0.057860002 0.035317142 0.78900003 13402708
-0.056214292 0.035227619 0.78700006 13272153
-0.054576188 0.035138097 0.78500003 13535325
-0.053080954 0.035138097 0.78500003 13731909
-0.051717147 0.035227619 0.78700006 13731909
-0.050090477 0.035138097 0.78500003 14258461
-0.048595238 0.035138097 0.78500003 14324254
-0.0471 0.035138097 0.78500003 14192423
-0.045604762 0.035138097 0.78500003 14718767
-0.044109527 0.035138097 0.78500003 14783806
-0.042614289 0.035138097 0.78500003 13928497
-0.041328572 0.035317142 0.78900003 13599744
-0.039825715 0.035317142 0.78900003 7744256
-0.14105143 0.036960002 0.79200006 9859664
-0.13954286 0.036960002 0.79200006 8872769
-0.13803428 0.036960002 0.79200006 10960660
-0.13652572 0.036960002 0.79200006 11881762
-0.13501714 0.036960002 0.79200006 12417903
-0.13350858 0.036960002 0.79200006 12812661
-0.132 0.036960002 0.79200006 10983338
-0.13049144 0.036960002 0.79200006 9733271
-0.12865713 0.036866669 0.79000002 9666958
-0.12715238 0.036866669 0.79000002 10259095
-0.12564762 0.036866669 0.79000002 9670308
-0.12398572 0.036820002 0.78900003 9012378
-0.12248287 0.036820002 0.78900003 9143194
-0.12098 0.036820002 0.78900003 10064296
-0.11947715 0.036820002 0.78900003 11441070
-0.1179743 0.036820002 0.78900003 10848933
-0.11647143 0.036820002 0.78900003 10188155
-0.11496858 0.036820002 0.78900003 11964566
-0.11346572 0.036820002 0.78900003 13415869
-0.11196286 0.036820002 0.78900003 12889525
-0.10822001 0.036073335 0.77300006 15318201
-0.10647143 0.035980001 0.77100003 12818067
-0.10500287 0.035980001 0.77100003 12537637
-0.10353429 0.035980001 0.77100003 12669223
-0.10180096 0.035886671 0.76900005 13718016
-0.10033619 0.035886671 0.76900005 13652224
-0.09861429 0.035793334 0.76700002 13717248
-0.097153336 0.035793334 0.76700002 13717248
-0.095692381 0.035793334 0.76700002 13717248
-0.094231427 0.035793334 0.76700002 13585664
-0.09277048 0.035793334 0.76700002 13717504
-0.091309525 0.035793334 0.76700002 13717504
-0.089848571 0.035793334 0.76700002 13912832
-0.088387616 0.035793334 0.76700002 13912832
-0.087153338 0.035886671 0.76900005 14044416
-0.085688576 0.035886671 0.76900005 13912832
-0.08400476 0.035793334 0.76700002 14044160
-0.082543813 0.035793334 0.76700002 14241536
-0.081294291 0.035886671 0.76900005 14240512
-0.079829529 0.035886671 0.76900005 14569472
-0.078364767 0.035886671 0.76900005 14503683
-0.076900005 0.035886671 0.76900005 14306304
-0.075435244 0.035886671 0.76900005 13974272
-0.073970482 0.035886671 0.76900005 13908480
-0.074202865 0.036726668 0.78700006 14566435
-0.072703816 0.036726668 0.78700006 15553330
-0.071204767 0.036726668 0.78700006 15094835
-0.069705717 0.036726668 0.78700006 15160628
-0.068206668 0.036726668 0.78700006 14373440
-0.066707626 0.036726668 0.78700006 14636612
-0.065208569 0.036726668 0.78700006 13920323
-0.063709527 0.036726668 0.78700006 14117702
-0.062210482 0.036726668 0.78700006 13659972
-0.060711432 0.036726668 0.78700006 13067835
-0.059212383 0.036726668 0.78700006 13461069
-0.057566669 0.036633331 0.78500003 15040101
-0.05607143 0.036633331 0.78500003 14516837
-0.054298095 0.036446668 0.78100002 14122079
-0.052810475 0.036446668 0.78100002 14580824
-0.051454291 0.036540005 0.78300005 14515031
-0.049835239 0.036446668 0.78100002 14777387
-0.048347618 0.036446668 0.78100002 14777387
-0.046860002 0.036446668 0.78100002 14711074
-0.045372382 0.036446668 0.78100002 15763762
-0.043997146 0.036540005 0.78300005 14846031
-0.042505719 0.036540005 0.78300005 14253894
-0.041223813 0.036726668 0.78700006 12084744
-0.14004001 0.037788574 0.77800006 8548704
-0.1385581 0.037788574 0.77800006 9924176
-0.13742857 0.037885718 0.78000003 9989969
-0.13681428 0.03812857 0.78500003 11164934
-0.13566381 0.038225718 0.78700006 12151829
-0.13416478 0.038225718 0.78700006 12751245
-0.13300286 0.038322859 0.78900003 14790828
-0.13150001 0.038322859 0.78900003 12365984
-0.12999715 0.038322859 0.78900003 9273713
-0.12816858 0.038225718 0.78700006 9338495
-0.12666953 0.038225718 0.78700006 9272702
-0.12517048 0.038225718 0.78700006 9599875
-0.12335715 0.03812857 0.78500003 9665668
-0.1218619 0.03812857 0.78500003 10321542
-0.12036667 0.03812857 0.78500003 10716300
-0.11887143 0.03812857 0.78500003 10911615
-0.11737619 0.03812857 0.78500003 10714236
-0.11588095 0.03812857 0.78500003 11367557
-0.11438572 0.03812857 0.78500003 11367557
-0.11289048 0.03812857 0.78500003 12685176
-0.11082762 0.037934288 0.78100002 10119249
-0.10822001 0.037545718 0.77300006 11491713
-0.10647143 0.037448574 0.77100003 10373232
-0.10473049 0.037351429 0.76900005 12270080
-0.10326572 0.037351429 0.76900005 13651717
-0.10180096 0.037351429 0.76900005 13717504
-0.10007524 0.037254285 0.76700002 13849088
-0.098485716 0.037205715 0.76600003 13847808
-0.097026668 0.037205715 0.76600003 13847808
-0.095318101 0.037108574 0.76400006 13912832
-0.093862861 0.037108574 0.76400006 14044416
-0.092165716 0.037011426 0.76200002 13848576
-0.090714283 0.037011426 0.76200002 13848576
-0.089497149 0.037108574 0.76400006 13979392
-0.088041909 0.037108574 0.76400006 13913600
-0.086586677 0.037108574 0.76400006 14043904
-0.085131437 0.037108574 0.76400006 13978112
-0.083676197 0.037108574 0.76400006 14043392
-0.082220957 0.037108574 0.76400006 14306560
-0.080977142 0.037205715 0.76600003 14701312
-0.079518095 0.037205715 0.76600003 15622405
-0.078059055 0.037205715 0.76600003 14966016
-0.0766 0.037205715 0.76600003 14373888
-0.075239047 0.037254285 0.76700002 13909760
-0.0737781 0.037254285 0.76700002 13778176
-0.073637143 0.037934288 0.78100002 14501153
-0.07214953 0.037934288 0.78100002 14632739
-0.070842862 0.038031429 0.78300005 14762027
-0.06917429 0.037934288 0.78100002 14893613
-0.067686662 0.037934288 0.78100002 14174001
-0.066199049 0.037934288 0.78100002 14108208
-0.064877145 0.038031429 0.78300005 13062452
-0.063385718 0.038031429 0.78300005 12733487
-0.06189429 0.038031429 0.78300005 12472870
-0.060402859 0.038031429 0.78300005 13328179
-0.058911432 0.038031429 0.78300005 13131863
-0.057273332 0.037934288 0.78100002 14513516
-0.055785716 0.037934288 0.78100002 13990495
-0.054298095 0.037934288 0.78100002 13529944
-0.052810475 0.037934288 0.78100002 14053724
-0.051322855 0.037934288 0.78100002 13198415
-0.049835239 0.037934288 0.78100002 13590556
-0.048347618 0.037934288 0.78100002 13195798
-0.046860002 0.037934288 0.78100002 13523968
-0.045372382 0.037934288 0.78100002 14116100
-0.043884765 0.037934288 0.78100002 13723946
-0.042397145 0.037934288 0.78100002 13855532
-0.040909525 0.037934288 0.78100002 12543750
-0.14004001 0.039270476 0.77800006 8219991
-0.1385581 0.039270476 0.77800006 10120265
-0.13742857 0.039371427 0.78000003 11107160
-0.13681428 0.039623808 0.78500003 12026112
-0.13566381 0.039724763 0.78700006 12157696
-0.13416478 0.039724763 0.78700006 13213776
-0.13266572 0.039724763 0.78700006 14332257
-0.13116667 0.039724763 0.78700006 11774589
-0.12966764 0.039724763 0.78700006 9406041
-0.12816858 0.039724763 0.78700006 10061430
-0.12634763 0.039623808 0.78500003 9469293
-0.12453429 0.03952286 0.78300005 10120300
-0.12304286 0.03952286 0.78300005 10054507
-0.1218619 0.039623808 0.78500003 10315101
-0.12036667 0.039623808 0.78500003 10249308
-0.11856858 0.03952286 0.78300005 9786950
-0.11707715 0.03952286 0.78300005 11234396
-0.11558571 0.03952286 0.78300005 11891566
-0.11409429 0.03952286 0.78300005 12417910
-0.11231524 0.039421905 0.78100002 13667449
-0.11068571 0.039371427 0.78000003 9983041
-0.10822001 0.039018098 0.77300006 11089737
-0.10647143 0.038917147 0.77100003 9576498
-0.10473049 0.038816195 0.76900005 12135936
-0.10326572 0.038816195 0.76900005 13846542
-0.10153619 0.03871524 0.76700002 13912832
-0.099944763 0.038664766 0.76600003 14110208
-0.098228574 0.038563814 0.76400006 14045696
-0.096773341 0.038563814 0.76400006 13979904
-0.095068574 0.038462859 0.76200002 13913600
-0.093617149 0.038462859 0.76200002 13913600
-0.092165716 0.038462859 0.76200002 13979142
-0.090714283 0.038462859 0.76200002 13847556
-0.089262858 0.038462859 0.76200002 13847040
-0.087811433 0.038462859 0.76200002 13649664
-0.08636 0.038462859 0.76200002 13911808
-0.085131437 0.038563814 0.76400006 13977600
-0.083676197 0.038563814 0.76400006 14174208
-0.082220957 0.038563814 0.76400006 14437376
-0.080977142 0.038664766 0.76600003 15029760
-0.079518095 0.038664766 0.76600003 15819270
-0.078059055 0.038664766 0.76600003 15096072
-0.0766 0.038664766 0.76600003 14635521
-0.075239047 0.03871524 0.76700002 13978112
-0.0737781 0.03871524 0.76700002 13714944
-0.073542856 0.039371427 0.78000003 14502698
-0.072057143 0.039371427 0.78000003 14436905
-0.070661902 0.039421905 0.78100002 14763551
-0.06917429 0.039421905 0.78100002 14895137
-0.067686662 0.039421905 0.78100002 14306084
-0.066199049 0.039421905 0.78100002 14174498
-0.064711429 0.039421905 0.78100002 12665886
-0.063223809 0.039421905 0.78100002 11876370
-0.061736189 0.039421905 0.78100002 11283200
-0.060248572 0.039421905 0.78100002 13849115
-0.058760952 0.039421905 0.78100002 12934743
-0.057273332 0.039421905 0.78100002 14447982
-0.055785716 0.039421905 0.78100002 13990521
-0.054228574 0.039371427 0.78000003 13661556
-0.052742857 0.039371427 0.78000003 14054002
-0.051257145 0.039371427 0.78000003 12738142
-0.049771432 0.039371427 0.78000003 13195534
-0.048285715 0.039371427 0.78000003 12603397
-0.046800002 0.039371427 0.78000003 13061888
-0.045314286 0.039371427 0.78000003 13982990
-0.043828573 0.039371427 0.78000003 13789489
-0.04234286 0.039371427 0.78000003 14052661
-0.040857144 0.039371427 0.78000003 12146461
-0.14004001 0.040752385 0.77800006 7824468
-0.1385581 0.040752385 0.77800006 10186576
-0.1370762 0.040752385 0.77800006 14463121
-0.13646573 0.041014288 0.78300005 14991647
-0.13531905 0.04111905 0.78500003 15386405
-0.13382381 0.04111905 0.78500003 14598421
-0.13232857 0.04111905 0.78500003 14006284
-0.13083333 0.04111905 0.78500003 13218109
-0.1293381 0.04111905 0.78500003 10915354
-0.12751715 0.041014288 0.78300005 11567209
-0.12602572 0.041014288 0.78300005 10909279
-0.12421619 0.040909525 0.78100002 11231594
-0.12272858 0.040909525 0.78100002 10836836
-0.12124095 0.040909525 0.78100002 11427146
-0.12006001 0.041014288 0.78300005 11887697
-0.11826571 0.040909525 0.78100002 11888172
-0.1167781 0.040909525 0.78100002 12019758
-0.11529048 0.040909525 0.78100002 12478780
-0.11380286 0.040909525 0.78100002 13070917
-0.11231524 0.040909525 0.78100002 13332804
-0.11068571 0.040857144 0.78000003 10898463
-0.10836001 0.04054286 0.77400005 11616780
-0.10674763 0.040490478 0.77300006 9643008
-0.10500287 0.040385716 0.77100003 11740160
-0.10326572 0.040280953 0.76900005 13713943
-0.10153619 0.04017619 0.76700002 13714688
-0.099944763 0.040123809 0.76600003 14635789
-0.098228574 0.04001905 0.76400006 14307328
-0.096773341 0.04001905 0.76400006 14373120
-0.095068574 0.039914284 0.76200002 14306560
-0.093494289 0.039861906 0.76100004 14306560
-0.092044763 0.039861906 0.76100004 14174475
-0.090595245 0.039861906 0.76100004 13648131
-0.089262858 0.039914284 0.76200002 14040832
-0.087811433 0.039914284 0.76200002 14567168
-0.08636 0.039914284 0.76200002 15031296
-0.084908567 0.039914284 0.76200002 15689216
-0.08345715 0.039914284 0.76200002 15230756
-0.082005717 0.039914284 0.76200002 15099170
-0.080977142 0.040123809 0.76600003 15163146
-0.079518095 0.040123809 0.76600003 15228939
-0.078059055 0.040123809 0.76600003 15163396
-0.0766 0.040123809 0.76600003 14439680
-0.075239047 0.04017619 0.76700002 13845772
-0.0737781 0.04017619 0.76700002 14240530
-0.073354289 0.040752385 0.77800006 14834486
-0.071872383 0.040752385 0.77800006 14966072
-0.07057143 0.040857144 0.78000003 15095339
-0.069085717 0.040857144 0.78000003 15095339
-0.067600004 0.040857144 0.78000003 14700588
-0.065944768 0.040752385 0.77800006 15095346
-0.064462863 0.040752385 0.77800006 13521965
-0.062980957 0.040752385 0.77800006 11942933
-0.061499052 0.040752385 0.77800006 12009472
-0.060017146 0.040752385 0.77800006 13259538
-0.058685716 0.040857144 0.78000003 13327452
-0.0572 0.040857144 0.78000003 15696000
-0.055714291 0.040857144 0.78000003 14977427
-0.054089524 0.040752385 0.77800006 14911634
-0.052607622 0.040752385 0.77800006 14515071
-0.051257145 0.040857144 0.78000003 12804453
-0.049771432 0.040857144 0.78000003 13392652
-0.048161909 0.040752385 0.77800006 12208384
-0.046680003 0.040752385 0.77800006 12993322
-0.045198098 0.040752385 0.77800006 13651252
-0.043716192 0.040752385 0.77800006 13327122
-0.04223429 0.040752385 0.77800006 13721880
-0.040752385 0.040752385 0.77800006 12145665
-0.14152192 0.04223429 0.77800006 8811615
-0.14004001 0.04223429 0.77800006 7495755
-0.1385581 0.04223429 0.77800006 10187069
-0.1370762 0.04223429 0.77800006 15121544
-0.13594286 0.04234286 0.78000003 15650606
-0.13462953 0.042397145 0.78100002 15584813
-0.13348287 0.042505719 0.78300005 15452949
-0.13199143 0.042505719 0.78300005 16110879
-0.1305 0.042505719 0.78300005 15910517
-0.12900859 0.042505719 0.78300005 13081418
-0.12751715 0.042505719 0.78300005 14192755
-0.12570381 0.042397145 0.78100002 13600618
-0.12405715 0.04234286 0.78000003 13925747
-0.12257144 0.04234286 0.78000003 13662575
-0.12108572 0.04234286 0.78000003 13726577
-0.11975334 0.042397145 0.78100002 13660784
-0.11811429 0.04234286 0.78000003 13921129
-0.11662858 0.04234286 0.78000003 13526371
-0.11514286 0.04234286 0.78000003 13656156
-0.11365715 0.04234286 0.78000003 14116707
-0.11217143 0.04234286 0.78000003 14117494
-0.11011809 0.042125717 0.77600002 11880532
-0.10836001 0.042017147 0.77400005 12204288
-0.10674763 0.041962862 0.77300006 10625280
-0.10500287 0.041854288 0.77100003 11545088
-0.10326572 0.041745719 0.76900005 12926728
-0.10140382 0.04158286 0.76600003 13649927
-0.099683814 0.04147429 0.76400006 14768408
-0.098228574 0.04147429 0.76400006 14700544
-0.096773341 0.04147429 0.76400006 14568960
-0.094943814 0.041311432 0.76100004 14568704
-0.093494289 0.041311432 0.76100004 14634496
-0.091802858 0.041202862 0.75900006 14700032
-0.090357147 0.041202862 0.75900006 14831616
-0.08914572 0.041311432 0.76100004 14962468
-0.087696187 0.041311432 0.76100004 15291433
-0.086246669 0.041311432 0.76100004 15297345
-0.084797144 0.041311432 0.76100004 15823689
-0.08345715 0.041365717 0.76200002 15365182
-0.082005717 0.041365717 0.76200002 14509873
-0.080765724 0.04147429 0.76400006 15163155
-0.079518095 0.04158286 0.76600003 15228948
-0.078059055 0.04158286 0.76600003 15229711
-0.0766 0.04158286 0.76600003 13782272
-0.075239047 0.041637145 0.76700002 13514752
-0.0737781 0.041637145 0.76700002 15291148
-0.072977148 0.042017147 0.77400005 15098185
-0.071872383 0.04223429 0.77800006 14966599
-0.070390478 0.04223429 0.77800006 15160880
-0.068908572 0.04223429 0.77800006 15095087
-0.067253336 0.042125717 0.77600002 14831915
-0.065775238 0.042125717 0.77600002 15358259
-0.06429714 0.042125717 0.77600002 14245429
-0.062819049 0.042125717 0.77600002 12534811
-0.061340958 0.042125717 0.77600002 12533003
-0.05986286 0.042125717 0.77600002 13651484
-0.058384761 0.042125717 0.77600002 13458007
-0.057053339 0.04223429 0.77800006 15431797
-0.055571433 0.04223429 0.77800006 14582648
-0.054089524 0.04223429 0.77800006 14385269
-0.052607622 0.04223429 0.77800006 14514036
-0.051125716 0.04223429 0.77800006 13066590
-0.049643811 0.04223429 0.77800006 13524259
-0.048161909 0.04223429 0.77800006 12405778
-0.046680003 0.04223429 0.77800006 12925213
-0.045081906 0.042125717 0.77600002 13714729
-0.043603808 0.042125717 0.77600002 13260065
-0.042125717 0.042125717 0.77600002 13457444
-0.040647618 0.042125717 0.77600002 11483422
-0.14152192 0.043716192 0.77800006 8745822
-0.13968 0.043603808 0.77600002 7824720
-0.13820191 0.043603808 0.77600002 10912057
-0.1367238 0.043603808 0.77600002 15451774
-0.13594286 0.043828573 0.78000003 15584000
-0.13445716 0.043828573 0.78000003 15847171
-0.13297144 0.043828573 0.78000003 15650816
-0.13165428 0.043884765 0.78100002 16770816
-0.13016666 0.043884765 0.78100002 16110700
-0.12867905 0.043884765 0.78100002 13544773
-0.12719144 0.043884765 0.78100002 14855812
-0.12554286 0.043828573 0.78000003 15053191
-0.12405715 0.043828573 0.78000003 14785930
-0.12257144 0.043828573 0.78000003 15114895
-0.12108572 0.043828573 0.78000003 15111582
-0.1196 0.043828573 0.78000003 15045789
-0.11811429 0.043828573 0.78000003 14650009
-0.11632954 0.043716192 0.77800006 13399942
-0.11484763 0.043716192 0.77800006 14186133
-0.11336572 0.043716192 0.77800006 15699372
-0.11188382 0.043716192 0.77800006 15041451
-0.10983429 0.043491431 0.77400005 12936075
-0.10822001 0.043435238 0.77300006 11615783
-0.10647143 0.043322857 0.77100003 9970958
-0.10473049 0.043210477 0.76900005 11219200
-0.10299715 0.043098096 0.76700002 11811328
-0.10140382 0.043041904 0.76600003 13058062
-0.099683814 0.042929526 0.76400006 14373922
-0.097971432 0.042817142 0.76200002 14505728
-0.096519999 0.042817142 0.76200002 15097857
-0.094694294 0.042648572 0.75900006 15097088
-0.093248583 0.042648572 0.75900006 15228672
-0.091802858 0.042648572 0.75900006 15163392
-0.090357147 0.042648572 0.75900006 16744475
-0.088911436 0.042648572 0.75900006 15500895
-0.087465718 0.042648572 0.75900006 15698274
-0.086020008 0.042648572 0.75900006 15363674
-0.084797144 0.042760953 0.76100004 15232088
-0.08345715 0.042817142 0.76200002 15298568
-0.082005717 0.042817142 0.76200002 14640640
-0.080765724 0.042929526 0.76400006 15162385
-0.079518095 0.043041904 0.76600003 15228178
-0.078059055 0.043041904 0.76600003 15032332
-0.076700002 0.043098096 0.76700002 13453312
-0.075239047 0.043098096 0.76700002 13711872
-0.074162856 0.043322857 0.77100003 16277784
-0.072977148 0.043491431 0.77400005 15363667
-0.071687624 0.043603808 0.77600002 15297874
-0.070209526 0.043603808 0.77600002 15296845
-0.068731427 0.043603808 0.77600002 15099466
-0.067080006 0.043491431 0.77400005 15361607
-0.065605715 0.043491431 0.77400005 15558986
-0.064131431 0.043491431 0.77400005 14969411
-0.06265714 0.043491431 0.77400005 14377274
-0.06118286 0.043491431 0.77400005 13917763
-0.059708573 0.043491431 0.77400005 13851970
-0.058234289 0.043491431 0.77400005 13000275
-0.056760002 0.043491431 0.77400005 11618622
-0.055428572 0.043603808 0.77600002 11684096
-0.053811431 0.043491431 0.77400005 12078848
-0.052337144 0.043491431 0.77400005 12405549
-0.05086286 0.043491431 0.77400005 12208170
-0.049388573 0.043491431 0.77400005 12994072
-0.048038095 0.043603808 0.77600002 13257244
-0.046560001 0.043603808 0.77600002 12993070
-0.044965718 0.043491431 0.77400005 13058863
-0.043491431 0.043491431 0.77400005 12799525
-0.042017147 0.043491431 0.77400005 11944216
-0.04054286 0.043491431 0.77400005 11089702
-0.13968 0.045081906 0.77600002 7759181
-0.13820191 0.045081906 0.77600002 11766832
-0.1367238 0.045081906 0.77600002 15780205
-0.13559429 0.045198098 0.77800006 15584045
-0.13411239 0.045198098 0.77800006 15649838
-0.13297144 0.045314286 0.78000003 15388672
-0.13148573 0.045314286 0.78000003 15980800
-0.13 0.045314286 0.78000003 15585347
-0.12851429 0.045314286 0.78000003 14006315
-0.12702857 0.045314286 0.78000003 14792260
-0.12554286 0.045314286 0.78000003 15121225
-0.12405715 0.045314286 0.78000003 14326397
-0.12225715 0.045198098 0.77800006 14392190
-0.12077525 0.045198098 0.77800006 14980757
-0.11929334 0.045198098 0.77800006 16296617
-0.11781144 0.045198098 0.77800006 15642796
-0.11632954 0.045198098 0.77800006 13800592
-0.11455239 0.045081906 0.77600002 14650257
-0.11307429 0.045081906 0.77600002 16031910
-0.11159619 0.045081906 0.77600002 15770294
-0.10983429 0.044965718 0.77400005 14257055
-0.10822001 0.044907622 0.77300006 13005173
-0.10647143 0.04479143 0.77100003 10768211
-0.10473049 0.044675242 0.76900005 10824454
-0.10286286 0.044500954 0.76600003 10890247
-0.10113905 0.044384766 0.76400006 12467968
-0.099422857 0.044268575 0.76200002 14244365
-0.097971432 0.044268575 0.76200002 14441490
-0.096519999 0.044268575 0.76200002 14770455
-0.094694294 0.044094287 0.75900006 15096585
-0.093248583 0.044094287 0.75900006 15293964
-0.091802858 0.044094287 0.75900006 15163148
-0.090357147 0.044094287 0.75900006 16742180
-0.088911436 0.044094287 0.75900006 15497549
-0.087465718 0.044094287 0.75900006 15234377
-0.086020008 0.044094287 0.75900006 15295553
-0.084797144 0.044210479 0.76100004 15098174
-0.08345715 0.044268575 0.76200002 15163153
-0.082005717 0.044268575 0.76200002 15294739
-0.080765724 0.044384766 0.76400006 15162642
-0.079518095 0.044500954 0.76600003 15162642
-0.078059055 0.044500954 0.76600003 14703872
-0.076700002 0.04455905 0.76700002 12861696
-0.075239047 0.04455905 0.76700002 13972224
-0.073970482 0.044675242 0.76900005 16736803
-0.07250572 0.044675242 0.76900005 15431025
-0.071225718 0.04479143 0.77100003 14970474
-0.069938101 0.044907622 0.77300006 15363919
-0.068465717 0.044907622 0.77300006 15100747
-0.067080006 0.044965718 0.77400005 15165516
-0.065605715 0.044965718 0.77400005 15231309
-0.064131431 0.044965718 0.77400005 15231570
-0.06265714 0.044965718 0.77400005 14902605
-0.06118286 0.044965718 0.77400005 14507849
-0.059708573 0.044965718 0.77400005 14376263
-0.058234289 0.044965718 0.77400005 12607043
-0.056760002 0.044965718 0.77400005 10435874
-0.055285718 0.044965718 0.77400005 9841152
-0.05374191 0.044907622 0.77300006 10959622
-0.052269526 0.044907622 0.77300006 12010768
-0.050797146 0.044907622 0.77300006 12142354
-0.049388573 0.044965718 0.77400005 12465664
-0.047914285 0.044965718 0.77400005 13386752
-0.046440005 0.044965718 0.77400005 12929056
-0.044907622 0.044907622 0.77300006 13126435
-0.043435238 0.044907622 0.77300006 12538663
-0.041962862 0.044907622 0.77300006 12078112
-0.040490478 0.044907622 0.77300006 10631457
-0.13968 0.046560001 0.77600002 9598560
-0.13820191 0.046560001 0.77600002 12028956
-0.1367238 0.046560001 0.77600002 14792262
-0.13559429 0.046680003 0.77800006 15319053
-0.13411239 0.046680003 0.77800006 14858502
-0.13263048 0.046680003 0.77800006 15518208
-0.13114858 0.046680003 0.77800006 15847168
-0.12966667 0.046680003 0.77800006 15520000
-0.12818477 0.046680003 0.77800006 15256832
-0.12670286 0.046680003 0.77800006 15321600
-0.12522095 0.046680003 0.77800006 16571648
-0.12373906 0.046680003 0.77800006 15446929
-0.12194286 0.046560001 0.77600002 14591620
-0.12046476 0.046560001 0.77600002 15444640
-0.11898667 0.046560001 0.77600002 15970984
-0.11750858 0.046560001 0.77600002 15445146
-0.11603048 0.046560001 0.77600002 14129286
-0.11425715 0.046440005 0.77400005 15113118
-0.11278286 0.046440005 0.77400005 15902634
-0.11130857 0.046440005 0.77400005 16038061
-0.10969239 0.046380006 0.77300006 16367026
-0.10822001 0.046380006 0.77300006 14920113
-0.10647143 0.046260003 0.77100003 12946323
-0.10473049 0.04614 0.76900005 11691865
-0.10259429 0.045840003 0.76400006 8204836
-0.10113905 0.045840003 0.76400006 11286016
-0.099422857 0.04572 0.76200002 12930830
-0.097842865 0.04566 0.76100004 13851136
-0.096393339 0.04566 0.76100004 14180096
-0.094694294 0.045540005 0.75900006 14569485
-0.093248583 0.045540005 0.75900006 14503692
-0.091802858 0.045540005 0.75900006 14964227
-0.090357147 0.045540005 0.75900006 14964227
-0.088911436 0.045540005 0.75900006 15029248
-0.087465718 0.045540005 0.75900006 15095040
-0.086246669 0.04566 0.76100004 15028992
-0.084797144 0.04566 0.76100004 15226368
-0.08345715 0.04572 0.76200002 15095822
-0.082005717 0.04572 0.76200002 15030029
-0.080977142 0.045960002 0.76600003 15095552
-0.079518095 0.045960002 0.76600003 14371840
-0.078160949 0.046020001 0.76700002 13908992
-0.076700002 0.046020001 0.76700002 14895872
-0.075239047 0.046020001 0.76700002 15297372
-0.073970482 0.04614 0.76900005 16747131
-0.07250572 0.04614 0.76900005 15767172
-0.071225718 0.046260003 0.77100003 15175035
-0.069938101 0.046380006 0.77300006 15565668
-0.068465717 0.046380006 0.77300006 15368289
-0.066993333 0.046380006 0.77300006 15432038
-0.065520957 0.046380006 0.77300006 15300452
-0.064048581 0.046380006 0.77300006 15166056
-0.06257619 0.046380006 0.77300006 14968677
-0.061103813 0.046380006 0.77300006 14705237
-0.059631433 0.046380006 0.77300006 14836823
-0.058159053 0.046380006 0.77300006 13787211
-0.05668667 0.046380006 0.77300006 13392453
-0.05521429 0.046380006 0.77300006 13131550
-0.053602856 0.046260003 0.77100003 13197343
-0.052134287 0.046260003 0.77100003 13458464
-0.050665714 0.046260003 0.77100003 13195292
-0.049388573 0.046440005 0.77400005 13720346
-0.047852382 0.046380006 0.77300006 14312483
-0.046380006 0.046380006 0.77300006 13984558
-0.04479143 0.046260003 0.77100003 14181937
-0.043322857 0.046260003 0.77100003 13331498
-0.041854288 0.046260003 0.77100003 12081431
-0.040490478 0.046380006 0.77300006 10895394
-0.13932002 0.047914285 0.77400005 10320484
-0.13784572 0.047914285 0.77400005 12553744
-0.13637143 0.047914285 0.77400005 14659120
-0.13524573 0.048038095 0.77600002 14528256
-0.13376762 0.048038095 0.77600002 14857216
-0.13194858 0.047914285 0.77400005 14990081
-0.13047428 0.047914285 0.77400005 15911183
-0.12933333 0.048038095 0.77600002 15649292
-0.12785524 0.048038095 0.77600002 15583499
-0.12637714 0.048038095 0.77600002 15714322
-0.12489904 0.048038095 0.77600002 16306459
-0.12342096 0.048038095 0.77600002 15580291
-0.12162858 0.047914285 0.77400005 14856568
-0.12015429 0.047914285 0.77400005 15053193
-0.11868001 0.047914285 0.77400005 14921607
-0.11720572 0.047914285 0.77400005 14658174
-0.11573143 0.047914285 0.77400005 14658174
-0.11410953 0.047852382 0.77300006 15181969
-0.11263715 0.047852382 0.77300006 15445141
-0.11116477 0.047852382 0.77300006 15841176
-0.10969239 0.047852382 0.77300006 15906969
-0.10794 0.047728572 0.77100003 14397848
-0.10647143 0.047728572 0.77100003 13345160
-0.10473049 0.047604766 0.76900005 12424303
-0.10259429 0.047295243 0.76400006 9660997
-0.10113905 0.047295243 0.76400006 10303744
-0.099422857 0.047171429 0.76200002 11422213
-0.097842865 0.047109526 0.76100004 12865024
-0.096393339 0.047109526 0.76100004 13588736
-0.094694294 0.046985716 0.75900006 14177548
-0.093248583 0.046985716 0.75900006 14177548
-0.091802858 0.046985716 0.75900006 14701836
-0.090357147 0.046985716 0.75900006 14899215
-0.088911436 0.046985716 0.75900006 14834432
-0.087465718 0.046985716 0.75900006 14768640
-0.086020008 0.046985716 0.75900006 15030272
-0.084574297 0.046985716 0.75900006 15030272
-0.08345715 0.047171429 0.76200002 15095296
-0.082220957 0.047295243 0.76400006 14832128
-0.080977142 0.047419049 0.76600003 14831360
-0.079621911 0.047480952 0.76700002 14041856
-0.078160949 0.047480952 0.76700002 13576704
-0.076900005 0.047604766 0.76900005 16208409
-0.075435244 0.047604766 0.76900005 15634039
-0.073970482 0.047604766 0.76900005 16423555
-0.072694287 0.047728572 0.77100003 15835033
-0.071225718 0.047728572 0.77100003 14848138
-0.069757141 0.047728572 0.77100003 15633526
-0.068288572 0.047728572 0.77100003 15699319
-0.066820003 0.047728572 0.77100003 15632765
-0.065351434 0.047728572 0.77100003 14711663
-0.064048581 0.047852382 0.77300006 15432029
-0.06257619 0.047852382 0.77300006 15234650
-0.060945716 0.047728572 0.77100003 15232351
-0.059477147 0.047728572 0.77100003 15166558
-0.05800857 0.047728572 0.77100003 15298126
-0.056540001 0.047728572 0.77100003 14640196
-0.055071428 0.047728572 0.77100003 14967862
-0.053463813 0.047604766 0.76900005 14836276
-0.051999051 0.047604766 0.76900005 14507827
-0.050534289 0.047604766 0.76900005 14178862
-0.049069528 0.047604766 0.76900005 14113593
-0.047852382 0.047852382 0.77300006 14376765
-0.046380006 0.047852382 0.77300006 14246710
-0.04479143 0.047728572 0.77100003 14707261
-0.043322857 0.047728572 0.77100003 13396305
-0.041854288 0.047728572 0.77100003 11685687
-0.040385716 0.047728572 0.77100003 10960410
-0.13914001 0.049324766 0.77300006 10977895
-0.13766763 0.049324766 0.77300006 13013271
-0.13619524 0.049324766 0.77300006 14658096
-0.13472287 0.049324766 0.77300006 14525952
-0.13325049 0.049324766 0.77300006 14328576
-0.13177809 0.049324766 0.77300006 14329088
-0.13030572 0.049324766 0.77300006 14526464
-0.12900001 0.049388573 0.77400005 14790400
-0.12752572 0.049388573 0.77400005 14987776
-0.12588859 0.049324766 0.77300006 14724864
-0.12441619 0.049324766 0.77300006 15185408
-0.12310287 0.049388573 0.77400005 15117645
-0.12147144 0.049324766 0.77300006 15051852
-0.11999905 0.049324766 0.77300006 15117655
-0.11852667 0.049324766 0.77300006 15380827
-0.1170543 0.049324766 0.77300006 15380593
-0.11558191 0.049324766 0.77300006 16367488
-0.11410953 0.049324766 0.77300006 15576957
-0.11263715 0.049324766 0.77300006 15116406
-0.11087715 0.049197145 0.77100003 14855008
-0.10940857 0.049197145 0.77100003 14789215
-0.10794 0.049197145 0.77100003 13873755
-0.10619524 0.049069528 0.76900005 14202720
-0.10445809 0.048941903 0.76700002 13875311
-0.10286286 0.048878096 0.76600003 12954209
-0.10140382 0.048878096 0.76600003 11497568
-0.099683814 0.048750479 0.76400006 8536883
-0.098228574 0.048750479 0.76400006 11483648
-0.096519999 0.048622858 0.76200002 11878400
-0.094943814 0.048559051 0.76100004 13053952
-0.093248583 0.048431434 0.75900006 13711872
-0.091802858 0.048431434 0.75900006 13776128
-0.090357147 0.048431434 0.75900006 14302464
-0.088911436 0.048431434 0.75900006 14105600
-0.087465718 0.048431434 0.75900006 13776640
-0.086020008 0.048431434 0.75900006 14100992
-0.084574297 0.048431434 0.75900006 14035200
-0.083676197 0.048750479 0.76400006 13703936
-0.082220957 0.048750479 0.76400006 13440768
-0.080977142 0.048878096 0.76600003 13441029
-0.079621911 0.048941903 0.76700002 16739417
-0.078160949 0.048941903 0.76700002 15972467
-0.076900005 0.049069528 0.76900005 16764553
-0.075435244 0.049069528 0.76900005 16306368
-0.073970482 0.049069528 0.76900005 16043196
-0.07250572 0.049069528 0.76900005 16173232
-0.071225718 0.049197145 0.77100003 15186337
-0.069757141 0.049197145 0.77100003 16036518
-0.068288572 0.049197145 0.77100003 16102311
-0.066820003 0.049197145 0.77100003 15970463
-0.065351434 0.049197145 0.77100003 14851982
-0.063882858 0.049197145 0.77100003 15768955
-0.062414289 0.049197145 0.77100003 16097920
-0.060787622 0.049069528 0.76900005 15768185
-0.05932286 0.049069528 0.76900005 14715497
-0.057858098 0.049069528 0.76900005 15565652
-0.056393337 0.049069528 0.76900005 15105101
-0.054928575 0.049069528 0.76900005 15430993
-0.053463813 0.049069528 0.76900005 15562579
-0.051863808 0.048941903 0.76700002 15432022
-0.050402857 0.048941903 0.76700002 15432022
-0.048941903 0.048941903 0.76700002 15431770
-0.047480952 0.048941903 0.76700002 14708047
-0.046020001 0.048941903 0.76700002 14969402
-0.04455905 0.048941903 0.76700002 15364160
-0.043098096 0.048941903 0.76700002 14382684
-0.041745719 0.049069528 0.76900005 11487792
-0.040385716 0.049197145 0.77100003 10695944
-0.14024857 0.050665714 0.77100003 10055505
-0.13878001 0.050665714 0.77100003 11371365
-0.13731143 0.050665714 0.77100003 13603105
-0.13584286 0.050665714 0.77100003 14063656
-0.13472287 0.050797146 0.77300006 14193152
-0.13325049 0.050797146 0.77300006 14522112
-0.13177809 0.050797146 0.77300006 14588212
-0.13030572 0.050797146 0.77300006 15048763
-0.12883334 0.050797146 0.77300006 14787150
-0.12736095 0.050797146 0.77300006 14523978
-0.12588859 0.050797146 0.77300006 14523178
-0.12441619 0.050797146 0.77300006 15049522
-0.12294381 0.050797146 0.77300006 15114861
-0.12147144 0.050797146 0.77300006 14917482
-0.11999905 0.050797146 0.77300006 14719822
-0.11852667 0.050797146 0.77300006 15706717
-0.1170543 0.050797146 0.77300006 15444860
-0.11558191 0.050797146 0.77300006 15642239
-0.11381429 0.050665714 0.77100003 15707780
-0.11234572 0.050665714 0.77100003 15247229
-0.11087715 0.050665714 0.77100003 13935203
-0.10912477 0.050534289 0.76900005 14000996
-0.10766 0.050534289 0.76900005 13151345
-0.10619524 0.050534289 0.76900005 13282931
-0.10445809 0.050402857 0.76700002 13744002
-0.10286286 0.050337147 0.76600003 13086072
-0.10140382 0.050337147 0.76600003 12688227
-0.099683814 0.050205719 0.76400006 8872233
-0.098228574 0.050205719 0.76400006 11487744
-0.096773341 0.050205719 0.76400006 11487744
-0.095068574 0.050074287 0.76200002 12791040
-0.093617149 0.050074287 0.76200002 13120000
-0.092165716 0.050074287 0.76200002 13444864
-0.090357147 0.049877148 0.75900006 13905408
-0.088911436 0.049877148 0.75900006 13773824
-0.087465718 0.049877148 0.75900006 14036992
-0.086020008 0.049877148 0.75900006 13903872
-0.084908567 0.050074287 0.76200002 13969664
-0.083676197 0.050205719 0.76400006 13904896
-0.082220957 0.050205719 0.76400006 16733981
-0.081082858 0.050402857 0.76700002 15565407
-0.079621911 0.050402857 0.76700002 16486509
-0.078364767 0.050534289 0.76900005 16239292
-0.076900005 0.050534289 0.76900005 16766664
-0.075435244 0.050534289 0.76900005 16244439
-0.073970482 0.050534289 0.76900005 15849681
-0.07250572 0.050534289 0.76900005 15846855
-0.071040951 0.050534289 0.76900005 15452097
-0.069757141 0.050665714 0.77100003 15975100
-0.068111435 0.050534289 0.76900005 15909307
-0.066646673 0.050534289 0.76900005 16037804
-0.065181904 0.050534289 0.76900005 15248288
-0.063717149 0.050534289 0.76900005 15836308
-0.062252384 0.050534289 0.76900005 15836308
-0.060787622 0.050534289 0.76900005 15768457
-0.05932286 0.050534289 0.76900005 14847355
-0.057858098 0.050534289 0.76900005 15631711
-0.056246668 0.050402857 0.76700002 14907988
-0.054785714 0.050402857 0.76700002 15430743
-0.053324763 0.050402857 0.76700002 15759708
-0.051863808 0.050402857 0.76700002 15633267
-0.050402857 0.050402857 0.76700002 15896439
-0.048941903 0.050402857 0.76700002 15631232
-0.047480952 0.050402857 0.76700002 15039095
-0.046020001 0.050402857 0.76700002 15361861
-0.04455905 0.050402857 0.76700002 16085584
-0.043098096 0.050402857 0.76700002 14841707
-0.041637145 0.050402857 0.76700002 11354678
-0.040385716 0.050665714 0.77100003 10760719
-0.13988477 0.051999051 0.76900005 10251599
-0.13842 0.051999051 0.76900005 11830631
-0.13695525 0.051999051 0.76900005 13733376
-0.13584286 0.052134287 0.77100003 13272832
-0.13437429 0.052134287 0.77100003 13663232
-0.13290572 0.052134287 0.77100003 14781712
