# .PCD v0.7 - Point Cloud Data file format
VERSION 0.7
FIELDS x y z rgba
SIZE 4 4 4 4
TYPE F F F U
COUNT 1 1 1 1
WIDTH 1097
HEIGHT 1
VIEWPOINT 0 0 0 1 0 0 0
POINTS 1097
DATA ascii
-0.16159049 0.026817145 0.72200006 11115607
-0.16021524 0.026817145 0.72200006 10984021
-0.15884002 0.026817145 0.72200006 10852192
-0.15746477 0.026817145 0.72200006 10983778
-0.15608953 0.026817145 0.72200006 11049310
-0.1547143 0.026817145 0.72200006 10917724
-0.15355143 0.026854288 0.72300005 11181150
-0.15217429 0.026854288 0.72300005 11378529
-0.15079714 0.026854288 0.72300005 11247204
-0.14942001 0.026854288 0.72300005 11576169
-0.14804286 0.026854288 0.72300005 11444833
-0.14666572 0.026854288 0.72300005 11642212
-0.14528857 0.026854288 0.72300005 11574895
-0.14391144 0.026854288 0.72300005 11377516
-0.1425343 0.026854288 0.72300005 11574382
-0.14115715 0.026854288 0.72300005 11508589
-0.13978001 0.026854288 0.72300005 11575645
-0.13840286 0.026854288 0.72300005 11641438
-0.13702573 0.026854288 0.72300005 11707231
-0.13564858 0.026854288 0.72300005 12233575
-0.13427144 0.026854288 0.72300005 12167534
-0.13289431 0.026854288 0.72300005 12233327
-0.13151714 0.026854288 0.72300005 12233327
-0.13014001 0.026854288 0.72300005 12430706
-0.12911904 0.026928572 0.72500002 12430704
-0.12773809 0.026928572 0.72500002 12759669
-0.12635714 0.026928572 0.72500002 12759914
-0.12532096 0.02700286 0.72700006 12891500
-0.1239362 0.02700286 0.72700006 12825210
-0.12255144 0.02700286 0.72700006 12693624
-0.12116668 0.02700286 0.72700006 13154166
-0.11978191 0.02700286 0.72700006 13614717
-0.11839715 0.02700286 0.72700006 13022080
-0.11701239 0.02700286 0.72700006 12956287
-0.11562763 0.02700286 0.72700006 12693887
-0.11424287 0.02700286 0.72700006 12825473
-0.11254762 0.026928572 0.72500002 12628085
-0.11116667 0.026928572 0.72500002 12628085
-0.10978571 0.026928572 0.72500002 12562544
-0.10840476 0.026928572 0.72500002 12233579
-0.10702381 0.026928572 0.72500002 11839600
-0.10564286 0.026928572 0.72500002 11642221
-0.10454953 0.02700286 0.72700006 11708514
-0.10316477 0.02700286 0.72700006 11840100
-0.10178001 0.02700286 0.72700006 11707503
-0.10039525 0.02700286 0.72700006 11444331
-0.099010482 0.02700286 0.72700006 11575658
-0.097625725 0.02700286 0.72700006 11707244
-0.09624096 0.02700286 0.72700006 11707244
-0.094856195 0.02700286 0.72700006 11444072
-0.09347143 0.02700286 0.72700006 11444068
-0.092086673 0.02700286 0.72700006 11444068
-0.090701908 0.02700286 0.72700006 11444329
-0.089317143 0.02700286 0.72700006 11312743
-0.087932393 0.02700286 0.72700006 11575656
-0.086547628 0.02700286 0.72700006 11509863
-0.085162863 0.02700286 0.72700006 11575388
-0.083778106 0.02700286 0.72700006 11641181
-0.082393341 0.02700286 0.72700006 11641181
-0.081008576 0.02700286 0.72700006 11904353
-0.079404764 0.026928572 0.72500002 11707742
-0.078023814 0.026928572 0.72500002 11510363
-0.076642863 0.026928572 0.72500002 12628837
-0.074431427 0.02663143 0.71700001 16776880
-0.072760001 0.026520003 0.71400005 16646095
-0.071400002 0.026520003 0.71400005 16711632
-0.17283143 0.028231429 0.72300005 14209945
-0.1714543 0.028231429 0.72300005 10591330
-0.17007715 0.028231429 0.72300005 10785629
-0.16870001 0.028231429 0.72300005 11114594
-0.16732286 0.028231429 0.72300005 11244129
-0.1657162 0.028192384 0.72200006 11309922
-0.16434096 0.028192384 0.72200006 11574620
-0.16296573 0.028192384 0.72200006 11443034
-0.16159049 0.028192384 0.72200006 11444320
-0.16021524 0.028192384 0.72200006 10917976
-0.15884002 0.028192384 0.72200006 10852185
-0.15746477 0.028192384 0.72200006 11049564
-0.15608953 0.028192384 0.72200006 11049830
-0.1547143 0.028192384 0.72200006 10984037
-0.15355143 0.028231429 0.72300005 11180905
-0.15217429 0.028231429 0.72300005 11312491
-0.15079714 0.028231429 0.72300005 11246943
-0.14942001 0.028231429 0.72300005 11246943
-0.14804286 0.028231429 0.72300005 11246943
-0.14666572 0.028231429 0.72300005 11444322
-0.14528857 0.028231429 0.72300005 11576178
-0.14391144 0.028231429 0.72300005 11510385
-0.1425343 0.028231429 0.72300005 11707242
-0.14115715 0.028231429 0.72300005 11707242
-0.13978001 0.028231429 0.72300005 11838315
-0.13840286 0.028231429 0.72300005 11640936
-0.13702573 0.028231429 0.72300005 11771745
-0.13564858 0.028231429 0.72300005 12100710
-0.13427144 0.028231429 0.72300005 11969124
-0.13289431 0.028231429 0.72300005 12166503
-0.13151714 0.028231429 0.72300005 12101214
-0.13014001 0.028231429 0.72300005 12430179
-0.12947524 0.028387621 0.72700006 12036970
-0.12809049 0.028387621 0.72700006 11971177
-0.12670572 0.028387621 0.72700006 12233568
-0.12532096 0.028387621 0.72700006 12759912
-0.1239362 0.028387621 0.72700006 12758640
-0.12255144 0.028387621 0.72700006 12890226
-0.12116668 0.028387621 0.72700006 13219709
-0.11978191 0.028387621 0.72700006 13285502
-0.11839715 0.028387621 0.72700006 12693113
-0.11701239 0.028387621 0.72700006 12693113
-0.11530953 0.028309524 0.72500002 12561527
-0.11392858 0.028309524 0.72500002 12956285
-0.1128581 0.028387621 0.72700006 12562299
-0.11116667 0.028309524 0.72500002 12628092
-0.10978571 0.028309524 0.72500002 12825471
-0.10870381 0.028387621 0.72700006 12167541
-0.10702381 0.028309524 0.72500002 11970673
-0.10564286 0.028309524 0.72500002 11839087
-0.10454953 0.028387621 0.72700006 11773796
-0.10316477 0.028387621 0.72700006 11905382
-0.10178001 0.028387621 0.72700006 11707503
-0.10039525 0.028387621 0.72700006 11641710
-0.099010482 0.028387621 0.72700006 11772517
-0.097625725 0.028387621 0.72700006 11772517
-0.09624096 0.028387621 0.72700006 11904623
-0.094856195 0.028387621 0.72700006 11444072
-0.09347143 0.028387621 0.72700006 11246698
-0.092086673 0.028387621 0.72700006 11246698
-0.090701908 0.028387621 0.72700006 11248485
-0.089317143 0.028387621 0.72700006 11248485
-0.087932393 0.028387621 0.72700006 11576178
-0.086547628 0.028387621 0.72700006 11313006
-0.085162863 0.028387621 0.72700006 10720079
-0.083778106 0.028387621 0.72700006 11180630
-0.082393341 0.028387621 0.72700006 11376476
-0.081008576 0.028387621 0.72700006 11376476
-0.079404764 0.028309524 0.72500002 11311696
-0.078023814 0.028309524 0.72500002 11640661
-0.076642863 0.028309524 0.72500002 12890982
-0.074431427 0.027997142 0.71700001 16776624
-0.072760001 0.027880002 0.71400005 16646095
-0.071400002 0.027880002 0.71400005 16646095
-0.17469047 0.029690476 0.72500002 16711099
-0.17283143 0.029608574 0.72300005 15129768
-0.1714543 0.029608574 0.72300005 10919016
-0.17007715 0.029608574 0.72300005 11049069
-0.16870001 0.029608574 0.72300005 11378034
-0.16732286 0.029608574 0.72300005 11180389
-0.1657162 0.029567622 0.72200006 10983010
-0.16434096 0.029567622 0.72200006 11180887
-0.16296573 0.029567622 0.72200006 11049301
-0.16159049 0.029567622 0.72200006 10918728
-0.16021524 0.029567622 0.72200006 10721349
-0.15884002 0.029567622 0.72200006 10720606
-0.15746477 0.029567622 0.72200006 10325848
-0.15608953 0.029567622 0.72200006 10917987
-0.1547143 0.029567622 0.72200006 10983780
-0.15355143 0.029608574 0.72300005 11180907
-0.15217429 0.029608574 0.72300005 11246700
-0.15079714 0.029608574 0.72300005 11246943
-0.14942001 0.029608574 0.72300005 11246943
-0.14804286 0.029608574 0.72300005 11181159
-0.14666572 0.029608574 0.72300005 11115366
-0.14569049 0.029690476 0.72500002 11575658
-0.14430954 0.029690476 0.72500002 11773037
-0.14292859 0.029690476 0.72500002 11772517
-0.14115715 0.029608574 0.72300005 11904103
-0.13978001 0.029608574 0.72300005 11772011
-0.13840286 0.029608574 0.72300005 11574632
-0.13702573 0.029608574 0.72300005 11837815
-0.13564858 0.029608574 0.72300005 12232573
-0.13427144 0.029608574 0.72300005 12232816
-0.13289431 0.029608574 0.72300005 12430195
-0.13188095 0.029690476 0.72500002 12431206
-0.1305 0.029690476 0.72500002 12431206
-0.12947524 0.029772382 0.72700006 12629107
-0.12809049 0.029772382 0.72700006 12760693
-0.12670572 0.029772382 0.72700006 12957059
-0.12532096 0.029772382 0.72700006 13878161
-0.1239362 0.029772382 0.72700006 13483383
-0.12255144 0.029772382 0.72700006 13286004
-0.12116668 0.029772382 0.72700006 13154436
-0.11978191 0.029772382 0.72700006 13220229
-0.11839715 0.029772382 0.72700006 13154184
-0.11701239 0.029772382 0.72700006 13088391
-0.11530953 0.029690476 0.72500002 13351556
-0.11392858 0.029690476 0.72500002 13483142
-0.1128581 0.029772382 0.72700006 13022341
-0.11116667 0.029690476 0.72500002 12693376
-0.10978571 0.029690476 0.72500002 12627835
-0.10840476 0.029690476 0.72500002 12233077
-0.10702381 0.029690476 0.72500002 12102261
-0.10564286 0.029690476 0.72500002 12168054
-0.10426191 0.029690476 0.72500002 12036718
-0.10288095 0.029690476 0.72500002 11970925
-0.10178001 0.029772382 0.72700006 11772783
-0.10039525 0.029772382 0.72700006 11706990
-0.099010482 0.029772382 0.72700006 11575647
-0.097625725 0.029772382 0.72700006 11641440
-0.09624096 0.029772382 0.72700006 11641440
-0.094856195 0.029772382 0.72700006 11378268
-0.09347143 0.029772382 0.72700006 10852971
-0.092086673 0.029772382 0.72700006 7958079
-0.090701908 0.029772382 0.72700006 8289796
-0.089317143 0.029772382 0.72700006 9079312
-0.087932393 0.029772382 0.72700006 8945210
-0.086547628 0.029772382 0.72700006 8550452
-0.085162863 0.029772382 0.72700006 9667377
-0.083778106 0.029772382 0.72700006 9930549
-0.082393341 0.029772382 0.72700006 9863241
-0.081008576 0.029772382 0.72700006 9271104
-0.079404764 0.029690476 0.72500002 10456655
-0.078023814 0.029690476 0.72500002 11640929
-0.076642863 0.029690476 0.72500002 12233052
-0.075054288 0.029608574 0.72300005 16575390
-0.073575243 0.029567622 0.72200006 16646081
-0.072200008 0.029567622 0.72200006 16777155
-0.17469047 0.031071428 0.72500002 16710086
-0.17283143 0.030985717 0.72300005 15064241
-0.1714543 0.030985717 0.72300005 10721903
-0.17007715 0.030985717 0.72300005 10786928
-0.16870001 0.030985717 0.72300005 10918514
-0.16732286 0.030985717 0.72300005 10983269
-0.1657162 0.030942859 0.72200006 10851683
-0.16434096 0.030942859 0.72200006 10720606
-0.16296573 0.030942859 0.72200006 11049571
-0.16159049 0.030942859 0.72200006 10919007
-0.16021524 0.030942859 0.72200006 10590042
-0.15884002 0.030942859 0.72200006 10720356
-0.15746477 0.030942859 0.72200006 10588770
-0.15608953 0.030942859 0.72200006 10786399
-0.1547143 0.030942859 0.72200006 10786399
-0.15355143 0.030985717 0.72300005 10786147
-0.15217429 0.030985717 0.72300005 11049319
-0.15079714 0.030985717 0.72300005 11247204
-0.14942001 0.030985717 0.72300005 11115618
-0.14804286 0.030985717 0.72300005 11180896
-0.14666572 0.030985717 0.72300005 11180896
-0.14569049 0.031071428 0.72500002 11377757
-0.14430954 0.031071428 0.72500002 11443550
-0.14292859 0.031071428 0.72500002 11574366
-0.14154762 0.031071428 0.72500002 11771745
-0.13978001 0.030985717 0.72300005 11705954
-0.13840286 0.030985717 0.72300005 12034919
-0.13740477 0.031071428 0.72500002 12232562
-0.13564858 0.030985717 0.72300005 12298355
-0.13427144 0.030985717 0.72300005 12232816
-0.13289431 0.030985717 0.72300005 12693367
-0.13188095 0.031071428 0.72500002 12431728
-0.1305 0.031071428 0.72500002 12760693
-0.12947524 0.031157147 0.72700006 13089665
-0.12809049 0.031157147 0.72700006 12958079
-0.12670572 0.031157147 0.72700006 12759928
-0.12532096 0.031157147 0.72700006 13681030
-0.1239362 0.031157147 0.72700006 13417858
-0.12255144 0.031157147 0.72700006 13154686
-0.12116668 0.031157147 0.72700006 13023095
-0.11978191 0.031157147 0.72700006 13286267
-0.11839715 0.031157147 0.72700006 13286024
-0.11701239 0.031157147 0.72700006 13286024
-0.11530953 0.031071428 0.72500002 13483403
-0.11392858 0.031071428 0.72500002 13417610
-0.1128581 0.031157147 0.72700006 13219461
-0.11116667 0.031071428 0.72500002 12758910
-0.10978571 0.031071428 0.72500002 12758640
-0.10840476 0.031071428 0.72500002 12561261
-0.10702381 0.031071428 0.72500002 12233847
-0.10564286 0.031071428 0.72500002 12233847
-0.10426191 0.031071428 0.72500002 12168054
-0.10288095 0.031071428 0.72500002 11575917
-0.10178001 0.031157147 0.72700006 11575395
-0.10039525 0.031157147 0.72700006 11509602
-0.099010482 0.031157147 0.72700006 11115094
-0.097625725 0.031157147 0.72700006 11444059
-0.09624096 0.031157147 0.72700006 11444059
-0.094856195 0.031157147 0.72700006 11444059
-0.09347143 0.031157147 0.72700006 10525287
-0.092086673 0.031157147 0.72700006 7498809
-0.090701908 0.031157147 0.72700006 7501057
-0.089317143 0.031157147 0.72700006 7961608
-0.087932393 0.031157147 0.72700006 8156703
-0.086547628 0.031157147 0.72700006 8485668
-0.085162863 0.031157147 0.72700006 9404996
-0.083778106 0.031157147 0.72700006 9536582
-0.082393341 0.031157147 0.72700006 9469256
-0.081008576 0.031157147 0.72700006 9403463
-0.079623811 0.031157147 0.72700006 10522700
-0.078239053 0.031157147 0.72700006 11575388
-0.076854289 0.031157147 0.72700006 11771988
-0.075261906 0.031071428 0.72500002 16509084
-0.073575243 0.030942859 0.72200006 16579006
-0.072200008 0.030942859 0.72200006 16777157
-0.17420858 0.03236286 0.72300005 16578772
-0.17283143 0.03236286 0.72300005 15590071
-0.1714543 0.03236286 0.72300005 10852975
-0.17007715 0.03236286 0.72300005 10786930
-0.16870001 0.03236286 0.72300005 10721137
-0.16732286 0.03236286 0.72300005 10917724
-0.16594572 0.03236286 0.72300005 10720345
-0.16456859 0.03236286 0.72300005 10521953
-0.16319144 0.03236286 0.72300005 10521953
-0.1618143 0.03236286 0.72300005 10522466
-0.16043715 0.03236286 0.72300005 10456673
-0.15906002 0.03236286 0.72300005 10522979
-0.15746477 0.032318097 0.72200006 10654565
-0.15608953 0.032318097 0.72200006 10786142
-0.15492858 0.03236286 0.72300005 10851935
-0.15355143 0.03236286 0.72300005 10851429
-0.15217429 0.03236286 0.72300005 10917222
-0.15121429 0.032452382 0.72500002 11114083
-0.14983334 0.032452382 0.72500002 11179876
-0.14845239 0.032452382 0.72500002 11246430
-0.14707144 0.032452382 0.72500002 11180637
-0.14569049 0.032452382 0.72500002 11377491
-0.14430954 0.032452382 0.72500002 11509077
-0.14292859 0.032452382 0.72500002 11508843
-0.14154762 0.032452382 0.72500002 11969394
-0.13978001 0.03236286 0.72300005 11969642
-0.13840286 0.03236286 0.72300005 12890744
-0.13702573 0.03236286 0.72300005 12692847
-0.13564858 0.03236286 0.72300005 12627054
-0.13427144 0.03236286 0.72300005 12298866
-0.13289431 0.03236286 0.72300005 12496245
-0.13188095 0.032452382 0.72500002 12430967
-0.1305 0.032452382 0.72500002 12891518
-0.12947524 0.032541908 0.72700006 13023104
-0.12809049 0.032541908 0.72700006 13154690
-0.12670572 0.032541908 0.72700006 13286013
-0.12532096 0.032541908 0.72700006 13549185
-0.1239362 0.032541908 0.72700006 13745285
-0.12255144 0.032541908 0.72700006 13613699
-0.12116668 0.032541908 0.72700006 13745535
-0.11978191 0.032541908 0.72700006 14140293
-0.11839715 0.032541908 0.72700006 13417610
-0.11701239 0.032541908 0.72700006 13286024
-0.11562763 0.032541908 0.72700006 13417862
-0.11424287 0.032541908 0.72700006 13154690
-0.1128581 0.032541908 0.72700006 13416320
-0.11147334 0.032541908 0.72700006 13284734
-0.11008858 0.032541908 0.72700006 13023345
-0.10870381 0.032541908 0.72700006 13154931
-0.10702381 0.032452382 0.72500002 12365181
-0.10564286 0.032452382 0.72500002 12430974
-0.10426191 0.032452382 0.72500002 12364411
-0.10288095 0.032452382 0.72500002 11509102
-0.10178001 0.032541908 0.72700006 11641181
-0.10039525 0.032541908 0.72700006 11706974
-0.099010482 0.032541908 0.72700006 11706720
-0.097625725 0.032541908 0.72700006 11706720
-0.09624096 0.032541908 0.72700006 11706708
-0.094856195 0.032541908 0.72700006 11772501
-0.09347143 0.032541908 0.72700006 11115103
-0.092086673 0.032541908 0.72700006 8812348
-0.090701908 0.032541908 0.72700006 9339196
-0.089317143 0.032541908 0.72700006 9799747
-0.087932393 0.032541908 0.72700006 10063941
-0.086547628 0.032541908 0.72700006 10524492
-0.085162863 0.032541908 0.72700006 10786142
-0.083778106 0.032541908 0.72700006 10391384
-0.082393341 0.032541908 0.72700006 10784868
-0.081008576 0.032541908 0.72700006 11574384
-0.079623811 0.032541908 0.72700006 11377764
-0.078239053 0.032541908 0.72700006 11706729
-0.076854289 0.032541908 0.72700006 12231267
-0.075469524 0.032541908 0.72700006 16770984
-0.074084766 0.032541908 0.72700006 16579015
-0.072700009 0.032541908 0.72700006 16777165
-0.17420858 0.033740003 0.72300005 16578770
-0.17283143 0.033740003 0.72300005 16050872
-0.1714543 0.033740003 0.72300005 10721639
-0.17007715 0.033740003 0.72300005 10721389
-0.16870001 0.033740003 0.72300005 10655596
-0.16732286 0.033740003 0.72300005 10983269
-0.16594572 0.033740003 0.72300005 10720097
-0.16456859 0.033740003 0.72300005 10653532
-0.16319144 0.033740003 0.72300005 10653532
-0.1618143 0.033740003 0.72300005 10456680
-0.16043715 0.033740003 0.72300005 10390887
-0.15906002 0.033740003 0.72300005 10522718
-0.15768287 0.033740003 0.72300005 10654304
-0.15630573 0.033740003 0.72300005 10522455
-0.15492858 0.033740003 0.72300005 10588248
-0.15355143 0.033740003 0.72300005 10916963
-0.15217429 0.033740003 0.72300005 10982756
-0.15121429 0.033833336 0.72500002 11245405
-0.14983334 0.033833336 0.72500002 11376991
-0.14845239 0.033833336 0.72500002 11706218
-0.14707144 0.033833336 0.72500002 11245667
-0.14569049 0.033833336 0.72500002 11376987
-0.14430954 0.033833336 0.72500002 11640159
-0.14292859 0.033833336 0.72500002 11377257
-0.14154762 0.033833336 0.72500002 11903601
-0.13978001 0.033740003 0.72300005 11969390
-0.13840286 0.033740003 0.72300005 12035183
-0.13702573 0.033740003 0.72300005 12099958
-0.13564858 0.033740003 0.72300005 12560509
-0.13427144 0.033740003 0.72300005 12167523
-0.13289431 0.033740003 0.72300005 12562281
-0.13188095 0.033833336 0.72500002 12957779
-0.1305 0.033833336 0.72500002 13352537
-0.12947524 0.033926666 0.72700006 13614703
-0.12809049 0.033926666 0.72700006 13680496
-0.12670572 0.033926666 0.72700006 13614226
-0.12532096 0.033926666 0.72700006 13943191
-0.1239362 0.033926666 0.72700006 14140831
-0.12255144 0.033926666 0.72700006 13877659
-0.12116668 0.033926666 0.72700006 13943166
-0.11978191 0.033926666 0.72700006 14206338
-0.11839715 0.033926666 0.72700006 13417871
-0.11701239 0.033926666 0.72700006 13352078
-0.11562763 0.033926666 0.72700006 13878404
-0.11424287 0.033926666 0.72700006 13220474
-0.1128581 0.033926666 0.72700006 13351304
-0.11147334 0.033926666 0.72700006 13285511
-0.11008858 0.033926666 0.72700006 13220238
-0.10870381 0.033926666 0.72700006 13022859
-0.10702381 0.033833336 0.72500002 12036477
-0.10564286 0.033833336 0.72500002 12168063
-0.10426191 0.033833336 0.72500002 12560257
-0.10288095 0.033833336 0.72500002 12099706
-0.1015 0.033833336 0.72500002 11969401
-0.10039525 0.033926666 0.72700006 11837815
-0.099010482 0.033926666 0.72700006 11903867
-0.097625725 0.033926666 0.72700006 11574902
-0.09624096 0.033926666 0.72700006 11507823
-0.094856195 0.033926666 0.72700006 11507823
-0.09347143 0.033926666 0.72700006 11638644
-0.092086673 0.033926666 0.72700006 10980714
-0.090701908 0.033926666 0.72700006 11178858
-0.089317143 0.033926666 0.72700006 10849893
-0.087932393 0.033926666 0.72700006 10653541
-0.086547628 0.033926666 0.72700006 10785127
-0.085162863 0.033926666 0.72700006 11245930
-0.083778106 0.033926666 0.72700006 10719586
-0.082393341 0.033926666 0.72700006 11178347
-0.081008576 0.033926666 0.72700006 11375726
-0.079623811 0.033926666 0.72700006 11442030
-0.078239053 0.033926666 0.72700006 11376237
-0.076960005 0.033973332 0.72800004 12494171
-0.075469524 0.033926666 0.72700006 16771230
-0.074084766 0.033926666 0.72700006 16645058
-0.072700009 0.033926666 0.72700006 16777160
-0.17607142 0.035214286 0.72500002 16646101
-0.17420858 0.035117142 0.72300005 16514515
-0.17283143 0.035117142 0.72300005 16050861
-0.1714543 0.035117142 0.72300005 10655835
-0.17007715 0.035117142 0.72300005 10522725
-0.16870001 0.035117142 0.72300005 10456932
-0.16732286 0.035117142 0.72300005 10522466
-0.16594572 0.035117142 0.72300005 10588259
-0.16456859 0.035117142 0.72300005 10719325
-0.16319144 0.035117142 0.72300005 10850911
-0.1622619 0.035214286 0.72500002 10719595
-0.16088095 0.035214286 0.72500002 10390630
-0.1595 0.035214286 0.72500002 10850911
-0.15768287 0.035117142 0.72300005 10916704
-0.15630573 0.035117142 0.72300005 10850395
-0.15535714 0.035214286 0.72500002 10850395
-0.15355143 0.035117142 0.72300005 10983008
-0.15217429 0.035117142 0.72300005 11640938
-0.15121429 0.035214286 0.72500002 11115103
-0.14983334 0.035214286 0.72500002 10983517
-0.14845239 0.035214286 0.72500002 11246178
-0.14707144 0.035214286 0.72500002 11246178
-0.14569049 0.035214286 0.72500002 11574116
-0.14430954 0.035214286 0.72500002 11771495
-0.14292859 0.035214286 0.72500002 11705454
-0.14154762 0.035214286 0.72500002 12034419
-0.13978001 0.035117142 0.72300005 11969128
-0.13840286 0.035117142 0.72300005 11705956
-0.13740477 0.035214286 0.72500002 11639673
-0.13602382 0.035214286 0.72500002 12692361
-0.13464285 0.035214286 0.72500002 13746818
-0.1332619 0.035214286 0.72500002 15852194
-0.13188095 0.035214286 0.72500002 16580516
-0.1305 0.035214286 0.72500002 16777129
-0.12947524 0.035311431 0.72700006 16646120
-0.12809049 0.035311431 0.72700006 16777194
-0.12670572 0.035311431 0.72700006 16711422
-0.12532096 0.035311431 0.72700006 16711422
-0.1239362 0.035311431 0.72700006 16711420
-0.12255144 0.035311431 0.72700006 16711420
-0.12133334 0.035360001 0.72800004 16646131
-0.11978191 0.035311431 0.72700006 16711668
-0.11839715 0.035311431 0.72700006 16512720
-0.11701239 0.035311431 0.72700006 13025691
-0.11562763 0.035311431 0.72700006 13417840
-0.11424287 0.035311431 0.72700006 12101980
-0.1128581 0.035311431 0.72700006 11508339
-0.11147334 0.035311431 0.72700006 11837304
-0.11008858 0.035311431 0.72700006 11836286
-0.10870381 0.035311431 0.72700006 11375735
-0.10702381 0.035214286 0.72500002 11178338
-0.10564286 0.035214286 0.72500002 11046752
-0.10426191 0.035214286 0.72500002 11045989
-0.10288095 0.035214286 0.72500002 10914403
-0.1015 0.035214286 0.72500002 10585445
-0.10039525 0.035311431 0.72700006 10322273
-0.099010482 0.035311431 0.72700006 10190939
-0.097625725 0.035311431 0.72700006 10125146
-0.09624096 0.035311431 0.72700006 9926244
-0.094856195 0.035311431 0.72700006 9465693
-0.093600005 0.035360001 0.72800004 9662035
-0.092086673 0.035311431 0.72700006 9662035
-0.090701908 0.035311431 0.72700006 9794377
-0.089317143 0.035311431 0.72700006 9925963
-0.087932393 0.035311431 0.72700006 9663062
-0.086547628 0.035311431 0.72700006 9399890
-0.085162863 0.035311431 0.72700006 9464854
-0.083778106 0.035311431 0.72700006 9201682
-0.082393341 0.035311431 0.72700006 9463087
-0.081008576 0.035311431 0.72700006 9726259
-0.079623811 0.035311431 0.72700006 9726770
-0.07834667 0.035360001 0.72800004 8871461
-0.076854289 0.035311431 0.72700006 9724730
-0.075469524 0.035311431 0.72700006 16765095
-0.074084766 0.035311431 0.72700006 16514208
-0.072700009 0.035311431 0.72700006 16777130
-0.17607142 0.03659524 0.72500002 16646106
-0.17420858 0.036494289 0.72300005 16514776
-0.17283143 0.036494289 0.72300005 16116913
-0.1714543 0.036494289 0.72300005 10195543
-0.17007715 0.036494289 0.72300005 10588511
-0.16870001 0.036494289 0.72300005 10522718
-0.16732286 0.036494289 0.72300005 10588268
-0.16594572 0.036494289 0.72300005 10522475
-0.16456859 0.036494289 0.72300005 10522214
-0.16319144 0.036494289 0.72300005 10653800
-0.1622619 0.03659524 0.72500002 10784623
-0.16088095 0.03659524 0.72500002 10653037
-0.1595 0.03659524 0.72500002 10980977
-0.15768287 0.036494289 0.72300005 10915184
-0.15630573 0.036494289 0.72300005 10783335
-0.15535714 0.03659524 0.72500002 10980714
-0.15397619 0.03659524 0.72500002 10982515
-0.15259524 0.03659524 0.72500002 11048308
-0.15121429 0.03659524 0.72500002 11114871
-0.14983334 0.03659524 0.72500002 10720113
-0.14845239 0.03659524 0.72500002 10719082
-0.14707144 0.03659524 0.72500002 10719082
-0.14569049 0.03659524 0.72500002 10849128
-0.14430954 0.03659524 0.72500002 11178093
-0.14292859 0.03659524 0.72500002 11441269
-0.14154762 0.03659524 0.72500002 11507062
-0.14016667 0.03659524 0.72500002 11573328
-0.13878572 0.03659524 0.72500002 11441742
-0.13740477 0.03659524 0.72500002 11179083
-0.13602382 0.03659524 0.72500002 13679217
-0.13464285 0.03659524 0.72500002 15324331
-0.1332619 0.03659524 0.72500002 16774090
-0.13188095 0.03659524 0.72500002 16646131
-0.1305 0.03659524 0.72500002 16711668
-0.12609142 0.035737146 0.708 16711672
-0.12456667 0.035686668 0.70700002 16711672
-0.12304571 0.035636194 0.70600003 16711422
-0.12170096 0.035636194 0.70600003 16711422
-0.12052666 0.035686668 0.70700002 16711422
-0.12255144 0.036696192 0.72700006 16711422
-0.12133334 0.03674667 0.72800004 16711420
-0.11978191 0.036696192 0.72700006 16711420
-0.11839715 0.036696192 0.72700006 16711422
-0.11701239 0.036696192 0.72700006 15658734
-0.11562763 0.036696192 0.72700006 13418440
-0.11424287 0.036696192 0.72700006 12826303
-0.1128581 0.036696192 0.72700006 9864777
-0.11147334 0.036696192 0.72700006 10456914
-0.11008858 0.036696192 0.72700006 11307388
-0.10870381 0.036696192 0.72700006 11307388
-0.10702381 0.03659524 0.72500002 11177073
-0.10564286 0.03659524 0.72500002 10848108
-0.10426191 0.03659524 0.72500002 10585190
-0.10288095 0.03659524 0.72500002 10190432
-0.10178001 0.036696192 0.72700006 9992279
-0.10039525 0.036696192 0.72700006 9729107
-0.099010482 0.036696192 0.72700006 9793103
-0.097625725 0.036696192 0.72700006 9793103
-0.09624096 0.036696192 0.72700006 9528396
-0.094856195 0.036696192 0.72700006 8673087
-0.09347143 0.036696192 0.72700006 8935214
-0.092086673 0.036696192 0.72700006 8935214
-0.090701908 0.036696192 0.72700006 8804655
-0.089317143 0.036696192 0.72700006 8673069
-0.087932393 0.036696192 0.72700006 8541233
-0.086547628 0.036696192 0.72700006 8278061
-0.085162863 0.036696192 0.72700006 8605956
-0.083778106 0.036696192 0.72700006 7421696
-0.082393341 0.036696192 0.72700006 8270336
-0.081008576 0.036696192 0.72700006 8599296
-0.079623811 0.036696192 0.72700006 8338959
-0.078239053 0.036696192 0.72700006 8273166
-0.076854289 0.036696192 0.72700006 8600576
-0.075469524 0.036696192 0.72700006 16495724
-0.074084766 0.036696192 0.72700006 16445351
-0.072300009 0.036494289 0.72300005 16777145
-0.070922859 0.036494289 0.72300005 16646118
-0.17655715 0.038080957 0.72700006 16646097
-0.17396763 0.03781905 0.72200006 16580560
-0.17259239 0.03781905 0.72200006 16116652
-0.17121716 0.03781905 0.72200006 8682043
-0.16984192 0.03781905 0.72200006 8281150
-0.16846667 0.03781905 0.72200006 8807494
-0.16709144 0.03781905 0.72200006 8939843
-0.16594572 0.037871432 0.72300005 9137222
-0.16456859 0.037871432 0.72300005 9136961
-0.16319144 0.037871432 0.72300005 9005375
-0.1622619 0.03797619 0.72500002 8938546
-0.16088095 0.03797619 0.72500002 8741167
-0.1595 0.03797619 0.72500002 8674119
-0.15768287 0.037871432 0.72300005 8279361
-0.15630573 0.037871432 0.72300005 8476469
-0.15492858 0.037871432 0.72300005 8608055
-0.15355143 0.037871432 0.72300005 8411189
-0.15217429 0.037871432 0.72300005 8148017
-0.15079714 0.037871432 0.72300005 8148526
-0.14942001 0.037871432 0.72300005 8016940
-0.14845239 0.03797619 0.72500002 8082197
-0.14707144 0.03797619 0.72500002 7819025
-0.14569049 0.03797619 0.72500002 8409633
-0.14430954 0.03797619 0.72500002 8475426
-0.14292859 0.03797619 0.72500002 8540215
-0.14154762 0.03797619 0.72500002 7553320
-0.14016667 0.03797619 0.72500002 9330706
-0.13878572 0.03797619 0.72500002 13936216
-0.13740477 0.03797619 0.72500002 16049546
-0.13602382 0.03797619 0.72500002 16777128
-0.13464285 0.03797619 0.72500002 16711672
-0.13436477 0.038290478 0.73100001 16711672
-0.12787904 0.036823809 0.70300001 16711422
-0.12654001 0.036823809 0.70300001 16711422
-0.12573524 0.036980953 0.70600003 16711422
-0.12439048 0.036980953 0.70600003 16711422
-0.12269716 0.03687619 0.70400006 16711422
-0.1213562 0.03687619 0.70400006 16711422
-0.12001524 0.03687619 0.70400006 16711422
-0.11901143 0.036980953 0.70600003 16711422
-0.11766667 0.036980953 0.70600003 16711422
-0.11994667 0.038133334 0.72800004 16711422
-0.11856001 0.038133334 0.72800004 16711422
-0.11701239 0.038080957 0.72700006 16711422
-0.11562763 0.038080957 0.72700006 16249338
-0.11424287 0.038080957 0.72700006 13420239
-0.1128581 0.038080957 0.72700006 12362583
-0.11147334 0.038080957 0.72700006 6309632
-0.11008858 0.038080957 0.72700006 8207933
-0.10870381 0.038080957 0.72700006 8273726
-0.10702381 0.03797619 0.72500002 8470843
-0.10564286 0.03797619 0.72500002 8141878
-0.10426191 0.03797619 0.72500002 8207909
-0.10288095 0.03797619 0.72500002 8273702
-0.10178001 0.038080957 0.72700006 8209154
-0.10039525 0.038080957 0.72700006 7945984
-0.098738097 0.03797619 0.72500002 8143393
-0.097357146 0.03797619 0.72500002 8011807
-0.09624096 0.038080957 0.72700006 8209154
-0.094856195 0.038080957 0.72700006 8209154
-0.09347143 0.038080957 0.72700006 8273952
-0.092086673 0.038080957 0.72700006 8405538
-0.090701908 0.038080957 0.72700006 8208936
-0.089317143 0.038080957 0.72700006 8208936
-0.08769048 0.03797619 0.72500002 8143397
-0.086309522 0.03797619 0.72500002 7814432
-0.084928572 0.03797619 0.72500002 8272932
-0.083547622 0.03797619 0.72500002 8075553
-0.082166664 0.03797619 0.72500002 8138775
-0.080785714 0.03797619 0.72500002 8072982
-0.079404764 0.03797619 0.72500002 8599870
-0.078023814 0.03797619 0.72500002 9323593
-0.076854289 0.038080957 0.72700006 8472897
-0.075261906 0.03797619 0.72500002 12617856
-0.073880956 0.03797619 0.72500002 14799723
-0.072300009 0.037871432 0.72300005 16777116
-0.070922859 0.037871432 0.72300005 16646116
-0.17396763 0.03919429 0.72200006 16646099
-0.17211428 0.039085716 0.72000003 15985593
-0.17074287 0.039085716 0.72000003 7235124
-0.16937144 0.039085716 0.72000003 7422976
-0.16800001 0.039085716 0.72000003 8080898
-0.16709144 0.03919429 0.72200006 8473900
-0.1657162 0.03919429 0.72200006 8342314
-0.16434096 0.03919429 0.72200006 8210190
-0.16296573 0.03919429 0.72200006 8407569
-0.1618143 0.039248575 0.72300005 8540188
-0.16043715 0.039248575 0.72300005 8342809
-0.15906002 0.039248575 0.72300005 8077861
-0.15768287 0.039248575 0.72300005 7946275
-0.15630573 0.039248575 0.72300005 7878915
-0.15492858 0.039248575 0.72300005 8076294
-0.15355143 0.039248575 0.72300005 8272653
-0.15217429 0.039248575 0.72300005 8601618
-0.15079714 0.039248575 0.72300005 8470550
-0.14942001 0.039248575 0.72300005 8470550
-0.14804286 0.039248575 0.72300005 8208134
-0.14707144 0.039357144 0.72500002 9063443
-0.14569049 0.039357144 0.72500002 9129763
-0.14430954 0.039357144 0.72500002 8142868
-0.14292859 0.039357144 0.72500002 8009733
-0.14154762 0.039357144 0.72500002 8996628
-0.14016667 0.039357144 0.72500002 9855232
-0.13916859 0.039465718 0.72700006 16767850
-0.13778381 0.039465718 0.72700006 16645100
-0.13639906 0.039465718 0.72700006 16777200
-0.13055715 0.038162857 0.70300001 16711674
-0.1292181 0.038162857 0.70300001 16711674
-0.12787904 0.038162857 0.70300001 16711422
-0.12654001 0.038162857 0.70300001 16711422
-0.12537906 0.038217146 0.70400006 16711422
-0.12439048 0.038325716 0.70600003 16711422
-0.12269716 0.038217146 0.70400006 16711422
-0.1213562 0.038217146 0.70400006 16711422
-0.12001524 0.038217146 0.70400006 16711422
-0.11867429 0.038217146 0.70400006 16711422
-0.11733335 0.038217146 0.70400006 16711422
-0.11599239 0.038217146 0.70400006 16711422
-0.11856001 0.039520003 0.72800004 16711422
-0.11717334 0.039520003 0.72800004 16711422
-0.11562763 0.039465718 0.72700006 16711422
-0.11424287 0.039465718 0.72700006 16448250
-0.1128581 0.039465718 0.72700006 13414608
-0.11116667 0.039357144 0.72500002 6177378
-0.10978571 0.039357144 0.72500002 8399619
-0.10840476 0.039357144 0.72500002 9518100
-0.10702381 0.039357144 0.72500002 9059368
-0.10535144 0.039248575 0.72300005 9059368
-0.10397429 0.039248575 0.72300005 8928532
-0.10259715 0.039248575 0.72300005 9060118
-0.1015 0.039357144 0.72500002 8929549
-0.10011905 0.039357144 0.72500002 9126928
-0.098738097 0.039357144 0.72500002 8865067
-0.097357146 0.039357144 0.72500002 8733481
-0.095976189 0.039357144 0.72500002 8669455
-0.094595239 0.039357144 0.72500002 8537869
-0.09347143 0.039465718 0.72700006 8536086
-0.091833338 0.039357144 0.72500002 8865051
-0.090452388 0.039357144 0.72500002 8668960
-0.08907143 0.039357144 0.72500002 8668960
-0.08769048 0.039357144 0.72500002 8537383
-0.086309522 0.039357144 0.72500002 8405797
-0.084928572 0.039357144 0.72500002 8405781
-0.083547622 0.039357144 0.72500002 8274195
-0.082166664 0.039357144 0.72500002 8338180
-0.080785714 0.039357144 0.72500002 8338180
-0.079185717 0.039248575 0.72300005 8535080
-0.077808574 0.039248575 0.72300005 12943211
-0.076642863 0.039357144 0.72500002 11637668
-0.075261906 0.039357144 0.72500002 9795464
-0.073880956 0.039357144 0.72500002 12561152
-0.072300009 0.039248575 0.72300005 16777028
-0.070922859 0.039248575 0.72300005 16711652
-0.17485714 0.040457144 0.72000003 16646101
-0.17348571 0.040457144 0.72000003 16777175
-0.17211428 0.040457144 0.72000003 15589038
-0.17074287 0.040457144 0.72000003 6378018
-0.16937144 0.040457144 0.72000003 7882801
-0.16800001 0.040457144 0.72000003 7224871
-0.16662857 0.040457144 0.72000003 8209477
-0.16525714 0.040457144 0.72000003 8209477
-0.16388571 0.040457144 0.72000003 8209706
-0.16251428 0.040457144 0.72000003 7683362
-0.16114287 0.040457144 0.72000003 8275511
-0.16021524 0.040569525 0.72200006 8407097
-0.15884002 0.040569525 0.72200006 8342323
-0.15746477 0.040569525 0.72200006 8539702
-0.15608953 0.040569525 0.72200006 8209706
-0.1547143 0.040569525 0.72200006 7814948
-0.15333906 0.040569525 0.72200006 8339507
-0.15196382 0.040569525 0.72200006 8997437
-0.15058859 0.040569525 0.72200006 8538934
-0.14921334 0.040569525 0.72200006 8275762
-0.1478381 0.040569525 0.72200006 8406584
-0.14666572 0.040625714 0.72300005 9064514
-0.14528857 0.040625714 0.72300005 8933940
-0.14391144 0.040625714 0.72300005 7420701
-0.1425343 0.040625714 0.72300005 8670754
-0.14115715 0.040625714 0.72300005 14263159
-0.14055334 0.040850475 0.72700006 15653548
-0.13457429 0.039501905 0.70300001 16776655
-0.13323525 0.039501905 0.70300001 16711674
-0.13189618 0.039501905 0.70300001 16711674
-0.13055715 0.039501905 0.70300001 16711674
-0.1292181 0.039501905 0.70300001 16711674
-0.12751524 0.039389525 0.70100003 16711422
-0.12618001 0.039389525 0.70100003 16711422
-0.12537906 0.039558098 0.70400006 16711422
-0.1240381 0.039558098 0.70400006 16711422
-0.12269716 0.039558098 0.70400006 16711422
-0.1213562 0.039558098 0.70400006 16711422
-0.12001524 0.039558098 0.70400006 16711422
-0.11867429 0.039558098 0.70400006 16711422
-0.11716667 0.039501905 0.70300001 16711422
-0.11582762 0.039501905 0.70300001 16711422
-0.11465143 0.039558098 0.70400006 16711422
-0.11331049 0.039558098 0.70400006 16711422
-0.11578667 0.040906668 0.72800004 16711422
-0.11424287 0.040850475 0.72700006 16711422
-0.11254762 0.040738095 0.72500002 16711422
-0.11086001 0.040625714 0.72300005 8355711
-0.10948286 0.040625714 0.72300005 7554355
-0.10810572 0.040625714 0.72300005 8870215
-0.10672858 0.040625714 0.72300005 9197893
-0.10535144 0.040625714 0.72300005 8934721
-0.10397429 0.040625714 0.72300005 8737844
-0.10259715 0.040625714 0.72300005 8606258
-0.10122 0.040625714 0.72300005 8213292
-0.099842861 0.040625714 0.72300005 8081706
-0.098465718 0.040625714 0.72300005 8015939
-0.097088575 0.040625714 0.72300005 8213318
-0.09571144 0.040625714 0.72300005 7820333
-0.094334297 0.040625714 0.72300005 7688747
-0.093214288 0.040738095 0.72500002 7491634
-0.091580003 0.040625714 0.72300005 7360048
-0.090202861 0.040625714 0.72300005 7359525
-0.088825718 0.040625714 0.72300005 7293732
-0.087448575 0.040625714 0.72300005 7360571
-0.086071432 0.040625714 0.72300005 7623743
-0.084694296 0.040625714 0.72300005 7492908
-0.083317153 0.040625714 0.72300005 7427115
-0.081940003 0.040625714 0.72300005 7296308
-0.08056286 0.040625714 0.72300005 7625273
-0.079076193 0.040569525 0.72200006 8868919
-0.077700958 0.040569525 0.72200006 16698286
-0.076325722 0.040569525 0.72200006 14929584
-0.075054288 0.040625714 0.72300005 8810835
-0.073677152 0.040625714 0.72300005 9996070
-0.072300009 0.040625714 0.72300005 15456889
-0.070922859 0.040625714 0.72300005 16446648
-0.17598382 0.041770477 0.71900004 16777164
-0.1746143 0.041770477 0.71900004 16646111
-0.17348571 0.041828573 0.72000003 16711648
-0.17211428 0.041828573 0.72000003 14733722
-0.17074287 0.041828573 0.72000003 7101734
-0.16937144 0.041828573 0.72000003 9395272
-0.16800001 0.041828573 0.72000003 9197893
-0.16662857 0.041828573 0.72000003 9197642
-0.16525714 0.041828573 0.72000003 9329228
-0.16388571 0.041828573 0.72000003 9133122
-0.16251428 0.041828573 0.72000003 9001536
-0.16114287 0.041828573 0.72000003 9067329
-0.15977144 0.041828573 0.72000003 9198915
-0.1584 0.041828573 0.72000003 9331276
-0.15702857 0.041828573 0.72000003 9199690
-0.15565714 0.041828573 0.72000003 9594451
-0.15428571 0.041828573 0.72000003 8870728
-0.1529143 0.041828573 0.72000003 9132350
-0.15154287 0.041828573 0.72000003 9198143
-0.15017143 0.041828573 0.72000003 9396299
-0.1488 0.041828573 0.72000003 9067334
-0.14742857 0.041828573 0.72000003 9330506
-0.14605714 0.041828573 0.72000003 9198920
-0.14508763 0.041944765 0.72200006 9067329
-0.14371239 0.041944765 0.72200006 8277813
-0.1425343 0.04200286 0.72300005 9396040
-0.14115715 0.04200286 0.72300005 16771795
-0.13552667 0.040724762 0.70100003 16317159
-0.13419142 0.040724762 0.70100003 16777198
-0.13285619 0.040724762 0.70100003 16711674
-0.13152096 0.040724762 0.70100003 16711674
-0.13018572 0.040724762 0.70100003 16645881
-0.1292181 0.04084095 0.70300001 16711674
-0.12733334 0.04066667 0.70000005 16645881
-0.126 0.04066667 0.70000005 16711674
-0.12520096 0.04084095 0.70300001 16711422
-0.12386191 0.04084095 0.70300001 16711422
-0.12217429 0.040724762 0.70100003 16711422
-0.12083905 0.040724762 0.70100003 16711422
-0.11950381 0.040724762 0.70100003 16711422
-0.11850572 0.04084095 0.70300001 16711422
-0.11683334 0.040724762 0.70100003 16711422
-0.1154981 0.040724762 0.70100003 16711422
-0.11416285 0.040724762 0.70100003 16711422
-0.11282763 0.040724762 0.70100003 16711422
-0.11149239 0.040724762 0.70100003 16711422
-0.11424287 0.04223524 0.72700006 16711422
-0.11254762 0.042119049 0.72500002 16711422
-0.11070668 0.041944765 0.72200006 10000536
-0.10933144 0.041944765 0.72200006 7756867
-0.1079562 0.041944765 0.72200006 8217418
-0.10672858 0.04200286 0.72300005 8676177
-0.10520572 0.041944765 0.72200006 8610384
-0.10383049 0.041944765 0.72200006 8745050
-0.10245524 0.041944765 0.72200006 8284499
-0.10108001 0.041944765 0.72200006 8219728
-0.099704772 0.041944765 0.72200006 6838075
-0.098329529 0.041944765 0.72200006 7231293
-0.096954294 0.041944765 0.72200006 7362879
-0.09571144 0.04200286 0.72300005 7299647
-0.094334297 0.04200286 0.72300005 6839096
-0.092957146 0.04200286 0.72300005 6774601
-0.091580003 0.04200286 0.72300005 6050878
-0.090202861 0.04200286 0.72300005 5986361
-0.088825718 0.04200286 0.72300005 5854775
-0.087327629 0.041944765 0.72200006 5526855
-0.085952386 0.041944765 0.72200006 5592648
-0.084577151 0.041944765 0.72200006 5462093
-0.083201908 0.041944765 0.72200006 5133128
-0.081826672 0.041944765 0.72200006 4019006
-0.080451436 0.041944765 0.72200006 2966318
-0.078857146 0.041828573 0.72000003 5394473
-0.07748571 0.041828573 0.72000003 15855560
-0.076114289 0.041828573 0.72000003 15329535
-0.074950479 0.041944765 0.72200006 6776445
-0.073575243 0.041944765 0.72200006 4796928
-0.072000004 0.041828573 0.72000003 11244633
-0.070628576 0.041828573 0.72000003 15654811
-0.17598382 0.043140002 0.71900004 16711643
-0.1746143 0.043140002 0.71900004 16645861
-0.17348571 0.043200001 0.72000003 14869450
-0.17211428 0.043200001 0.72000003 14208882
-0.17074287 0.043200001 0.72000003 6182144
-0.16913621 0.043140002 0.71900004 6575173
-0.16776668 0.043140002 0.71900004 7167310
-0.16639715 0.043140002 0.71900004 7166792
-0.16502762 0.043140002 0.71900004 7166792
-0.1636581 0.043140002 0.71900004 7035717
-0.16228859 0.043140002 0.71900004 7035717
-0.16091906 0.043140002 0.71900004 7100736
-0.15954953 0.043140002 0.71900004 7034943
-0.15818 0.043140002 0.71900004 7035448
-0.15681049 0.043140002 0.71900004 7035448
-0.15544096 0.043140002 0.71900004 7167030
-0.15407144 0.043140002 0.71900004 7035444
-0.15270191 0.043140002 0.71900004 6969905
-0.15154287 0.043200001 0.72000003 6904112
-0.15017143 0.043200001 0.72000003 6969404
-0.14859334 0.043140002 0.71900004 6640439
-0.14722382 0.043140002 0.71900004 6968902
-0.14605714 0.043200001 0.72000003 6837316
-0.14468573 0.043200001 0.72000003 6838588
-0.14371239 0.043320004 0.72200006 7101760
-0.14233714 0.043320004 0.72200006 9798778
-0.14154762 0.043500002 0.72500002 16775920
-0.13552667 0.042060003 0.70100003 16711665
-0.13419142 0.042060003 0.70100003 16711665
-0.13266666 0.042000003 0.70000005 16711674
-0.13133334 0.042000003 0.70000005 16645881
-0.13000001 0.042000003 0.70000005 16645881
-0.12866667 0.042000003 0.70000005 16645881
-0.12696953 0.04188 0.69800001 16580340
-0.12563999 0.04188 0.69800001 16646133
-0.12484477 0.042060003 0.70100003 16711422
-0.12350953 0.042060003 0.70100003 16711422
-0.122 0.042000003 0.70000005 16711420
-0.12066668 0.042000003 0.70000005 16711420
-0.11950381 0.042060003 0.70100003 16711422
-0.11816857 0.042060003 0.70100003 16711422
-0.11666667 0.042000003 0.70000005 16711422
-0.11533334 0.042000003 0.70000005 16711422
-0.114 0.042000003 0.70000005 16711422
-0.11266667 0.042000003 0.70000005 16711422
-0.11101524 0.04188 0.69800001 16711422
-0.10968572 0.04188 0.69800001 16711422
-0.11254762 0.043500002 0.72500002 16711422
-0.11070668 0.043320004 0.72200006 11382189
-0.10933144 0.043320004 0.72200006 6249324
-0.1079562 0.043320004 0.72200006 5920359
-0.10658097 0.043320004 0.72200006 6381128
-0.10520572 0.043320004 0.72200006 5723198
-0.10383049 0.043320004 0.72200006 5657919
-0.10217144 0.043200001 0.72000003 5197368
-0.1008 0.043200001 0.72000003 5263413
-0.099428572 0.043200001 0.72000003 4868655
-0.098057151 0.043200001 0.72000003 5658156
-0.096685715 0.043200001 0.72000003 5723949
-0.095579058 0.043320004 0.72200006 5527597
-0.094203815 0.043320004 0.72200006 5198632
-0.092828579 0.043320004 0.72200006 5002294
-0.091453344 0.043320004 0.72200006 4673329
-0.090078101 0.043320004 0.72200006 5002569
-0.088702865 0.043320004 0.72200006 5397327
-0.087327629 0.043320004 0.72200006 5134412
-0.085952386 0.043320004 0.72200006 5134412
-0.08434286 0.043200001 0.72000003 4938075
-0.082971431 0.043200001 0.72000003 4740696
-0.081600003 0.043200001 0.72000003 3757667
-0.080228575 0.043200001 0.72000003 4415597
-0.078857146 0.043200001 0.72000003 9536880
-0.07748571 0.043200001 0.72000003 16776680
-0.076114289 0.043200001 0.72000003 16644600
-0.074742861 0.043200001 0.72000003 6117720
-0.073575243 0.043320004 0.72200006 2962179
-0.072000004 0.043200001 0.72000003 6054450
-0.070628576 0.043200001 0.72000003 11379852
-0.1746143 0.044509526 0.71900004 16645854
-0.17324477 0.044509526 0.71900004 13816755
-0.17187524 0.044509526 0.71900004 11579256
-0.17050572 0.044509526 0.71900004 5921058
-0.16913621 0.044509526 0.71900004 3429713
-0.1673 0.044385713 0.71700001 4285022
-0.16593428 0.044385713 0.71700001 5070676
-0.16456857 0.044385713 0.71700001 4807504
-0.16320287 0.044385713 0.71700001 4414804
-0.16183715 0.044385713 0.71700001 4677976
-0.16047142 0.044385713 0.71700001 5137496
-0.15910572 0.044385713 0.71700001 4742738
-0.15774 0.044385713 0.71700001 4085319
-0.15637429 0.044385713 0.71700001 4611663
-0.15544096 0.044509526 0.71900004 4938575
-0.15407144 0.044509526 0.71900004 5201747
-0.15270191 0.044509526 0.71900004 5203289
-0.15133238 0.044509526 0.71900004 4676945
-0.14996287 0.044509526 0.71900004 4348752
-0.14859334 0.044509526 0.71900004 4348752
-0.14722382 0.044509526 0.71900004 4478285
-0.14585429 0.044509526 0.71900004 4478285
-0.14448477 0.044509526 0.71900004 3954755
-0.14311525 0.044509526 0.71900004 4941650
-0.14194286 0.044571429 0.72000003 10722962
-0.14428096 0.045747619 0.73900002 16776946
-0.13552667 0.04339524 0.70100003 16711665
-0.13419142 0.04339524 0.70100003 16711665
-0.13228762 0.043209527 0.69800001 16711674
-0.1309581 0.043209527 0.69800001 16711674
-0.12962857 0.043209527 0.69800001 16711674
-0.12829906 0.043209527 0.69800001 16645881
-0.12678762 0.04314762 0.69700003 16645879
-0.12546 0.04314762 0.69700003 16711672
-0.12466668 0.043333337 0.70000005 16711420
-0.12298095 0.043209527 0.69800001 16711420
-0.12165143 0.043209527 0.69800001 16448250
-0.12032191 0.043209527 0.69800001 16711422
-0.11899238 0.043209527 0.69800001 16711422
-0.11800001 0.043333337 0.70000005 16711422
-0.11633334 0.043209527 0.69800001 16711422
-0.11500382 0.043209527 0.69800001 16711422
-0.11367428 0.043209527 0.69800001 16711422
-0.11234476 0.043209527 0.69800001 16711422
-0.11101524 0.043209527 0.69800001 16711422
-0.10968572 0.043209527 0.69800001 16711422
-0.10835619 0.043209527 0.69800001 16711422
-0.11070668 0.044695243 0.72200006 11382189
-0.10902857 0.044571429 0.72000003 7896673
-0.10765714 0.044571429 0.72000003 6975571
-0.10628572 0.044571429 0.72000003 5270352
-0.10491429 0.044571429 0.72000003 5138766
-0.10354286 0.044571429 0.72000003 5006673
-0.10202952 0.044509526 0.71900004 4940880
-0.10066 0.044509526 0.71900004 5071942
-0.099290483 0.044509526 0.71900004 4742977
-0.097920962 0.044509526 0.71900004 4479816
-0.096551433 0.044509526 0.71900004 4940367
-0.095314287 0.044571429 0.72000003 5465934
-0.093942866 0.044571429 0.72000003 5334348
-0.09257143 0.044571429 0.72000003 5006160
-0.091200002 0.044571429 0.72000003 5203539
-0.089828581 0.044571429 0.72000003 5401177
-0.088457145 0.044571429 0.72000003 5335384
-0.087085716 0.044571429 0.72000003 5269334
-0.085714288 0.044571429 0.72000003 5466713
-0.08434286 0.044571429 0.72000003 5728868
-0.082971431 0.044571429 0.72000003 6057833
-0.081600003 0.044571429 0.72000003 6125661
-0.080228575 0.044571429 0.72000003 5730903
-0.078857146 0.044571429 0.72000003 10525847
-0.077378094 0.044509526 0.71900004 16776696
-0.076008573 0.044509526 0.71900004 16711422
-0.074742861 0.044571429 0.72000003 5460819
-0.073371425 0.044571429 0.72000003 71680
-0.072200008 0.044695243 0.72200006 4085049
-0.1734 0.045560002 0.71400005 16646106
-0.17204002 0.045560002 0.71400005 13027747
-0.17139713 0.04575143 0.71700001 10397061
-0.17003143 0.04575143 0.71700001 7107411
-0.16866571 0.04575143 0.71700001 7046283
-0.1673 0.04575143 0.71700001 7835799
-0.16570286 0.04568762 0.71600002 7243149
-0.16433905 0.04568762 0.71600002 7243149
-0.16297524 0.04568762 0.71600002 7571855
-0.16161142 0.04568762 0.71600002 7835027
-0.16024762 0.04568762 0.71600002 7966863
-0.15888381 0.04568762 0.71600002 8098449
-0.15752001 0.04568762 0.71600002 8032143
-0.15637429 0.04575143 0.71700001 7834764
-0.15500857 0.04575143 0.71700001 8163472
-0.15364285 0.04575143 0.71700001 8426644
-0.15227714 0.04575143 0.71700001 8229526
-0.15091142 0.04575143 0.71700001 8032147
-0.14954571 0.04575143 0.71700001 8032152
-0.14818001 0.04575143 0.71700001 8032152
-0.14681429 0.04575143 0.71700001 8163983
-0.14524572 0.04568762 0.71600002 8098190
-0.1438819 0.04568762 0.71600002 8558219
-0.14271714 0.04575143 0.71700001 9742493
-0.14194286 0.045942858 0.72000003 11974315
-0.14486668 0.04734667 0.74200004 16777204
-0.13533334 0.044666667 0.70000005 16711665
-0.13361715 0.044539049 0.69800001 16711665
-0.13228762 0.044539049 0.69800001 16711674
-0.1309581 0.044539049 0.69800001 16711674
-0.12944287 0.044475239 0.69700003 16711674
-0.12811525 0.044475239 0.69700003 16711674
-0.12678762 0.044475239 0.69700003 16645881
-0.12546 0.044475239 0.69700003 16711674
-0.12413239 0.044475239 0.69700003 16711420
-0.12280477 0.044475239 0.69700003 16711420
-0.12147714 0.044475239 0.69700003 16711422
-0.12014953 0.044475239 0.69700003 16711422
-0.11882191 0.044475239 0.69700003 16711422
-0.11766286 0.044539049 0.69800001 16711422
-0.11616667 0.044475239 0.69700003 16711422
-0.11483905 0.044475239 0.69700003 16711422
