# .PCD v0.7 - Point Cloud Data file format
VERSION 0.7
FIELDS x y z rgb
SIZE 4 4 4 4
TYPE F F F F
COUNT 1 1 1 1
WIDTH 950
HEIGHT 1
VIEWPOINT 0 0 0 1 0 0 0
POINTS 950
DATA ascii
-0.036120001 -0.0036857147 0.77400005 1.4571228e-38
-0.034645718 -0.0036857147 0.77400005 1.2912448e-38
-0.03317143 -0.0036857147 0.77400005 1.2267079e-38
-0.031697143 -0.0036857147 0.77400005 1.0424252e-38
-0.030300954 -0.0036952381 0.77600002 1.0239861e-38
-0.028897146 -0.0037047621 0.77800006 1.11607e-38
-0.027520953 -0.0037190479 0.78100002 1.1898266e-38
-0.026033334 -0.0037190479 0.78100002 1.1070996e-38
-0.024608573 -0.0037285716 0.78300005 4.0641285e-39
-0.023235239 -0.0037476195 0.78700006 3.7940352e-39
-0.021736192 -0.0037476195 0.78700006 8.588208e-39
-0.020288572 -0.0037571429 0.78900003 1.0146917e-38
-0.018785715 -0.0037571429 0.78900003 8.1186132e-39
-0.017304761 -0.0037619048 0.79000002 9.3153431e-39
-0.015799999 -0.0037619048 0.79000002 1.466269e-38
-0.097439051 -0.0022314284 0.78100002 6.544721e-39
-0.09582857 -0.0022285716 0.78000003 1.0877916e-38
-0.094342858 -0.0022285716 0.78000003 9.6855704e-39
-0.092857152 -0.0022285716 0.78000003 9.3167879e-39
-0.091371432 -0.0022285716 0.78000003 1.0881914e-38
-0.089424767 -0.0022171428 0.77600002 1.2910217e-38
-0.087946668 -0.0022171428 0.77600002 1.309573e-38
-0.093488574 -0.002397143 0.83900005 1.3464512e-38
-0.092109524 -0.0024028572 0.84100002 1.3373752e-38
-0.082974285 -0.0022028573 0.77100003 1.3281556e-38
-0.081505716 -0.0022028573 0.77100003 1.410843e-38
-0.08730381 -0.0024028572 0.84100002 1.3924039e-38
-0.085905716 -0.0024085718 0.84300005 1.3280474e-38
-0.084500007 -0.0024142857 0.84500003 1.3096083e-38
-0.083282866 -0.0024257144 0.84900004 1.2636196e-38
-0.081665717 -0.0024257144 0.84900004 1.2636196e-38
-0.080048576 -0.0024257144 0.84900004 1.2634401e-38
-0.078616194 -0.0024314285 0.85100001 1.2910988e-38
-0.076995239 -0.0024314285 0.85100001 1.3003181e-38
-0.07564 -0.00244 0.85400003 1.3003181e-38
-0.074013337 -0.00244 0.85400003 1.2911338e-38
-0.072386667 -0.00244 0.85400003 1.2726947e-38
-0.07092572 -0.0024457145 0.85600007 1.2635117e-38
-0.069295242 -0.0024457145 0.85600007 1.2819509e-38
-0.067664765 -0.0024457145 0.85600007 1.3096098e-38
-0.066034287 -0.0024457145 0.85600007 1.3188294e-38
-0.064403817 -0.0024457145 0.85600007 1.3096098e-38
-0.062773332 -0.0024457145 0.85600007 1.328049e-38
-0.061142862 -0.0024457145 0.85600007 1.3465244e-38
-0.059512388 -0.0024457145 0.85600007 1.3557439e-38
-0.05788191 -0.0024457145 0.85600007 1.4109171e-38
-0.056251429 -0.0024457145 0.85600007 1.4570149e-38
-0.054620955 -0.0024457145 0.85600007 1.45705e-38
-0.052990478 -0.0024457145 0.85600007 1.4386108e-38
-0.051360004 -0.0024457145 0.85600007 1.429391e-38
-0.044907622 -0.0022085716 0.77300006 1.4662692e-38
-0.043435238 -0.0022085716 0.77300006 1.4755264e-38
-0.041962862 -0.0022085716 0.77300006 1.4294286e-38
-0.040490478 -0.0022085716 0.77300006 1.4388264e-38
-0.039018098 -0.0022085716 0.77300006 1.4480459e-38
-0.037545718 -0.0022085716 0.77300006 1.429572e-38
-0.036120001 -0.0022114285 0.77400005 1.346596e-38
-0.034645718 -0.0022114285 0.77400005 1.0706562e-38
-0.03317143 -0.0022114285 0.77400005 9.231432e-39
-0.031779047 -0.0022171428 0.77600002 8.5846206e-39
-0.030300954 -0.0022171428 0.77600002 9.22999e-39
-0.02897143 -0.0022285716 0.78000003 1.051428e-38
-0.027520953 -0.0022314284 0.78100002 1.1067454e-38
-0.026100002 -0.002237143 0.78300005 1.014869e-38
-0.02467143 -0.0022428571 0.78500003 3.9715825e-39
-0.023235239 -0.0022485715 0.78700006 2.0483831e-39
-0.021736192 -0.0022485715 0.78700006 5.9205995e-39
-0.020288572 -0.0022542858 0.78900003 9.778122e-39
-0.018785715 -0.0022542858 0.78900003 8.2107962e-39
-0.017348573 -0.0022628573 0.79200006 9.3153431e-39
-0.015840001 -0.0022628573 0.79200006 1.4386103e-38
-0.097439051 -0.00074380951 0.78100002 4.7959706e-39
-0.09595143 -0.00074380951 0.78100002 7.3774483e-39
-0.09446381 -0.00074380951 0.78100002 6.9182568e-39
-0.092857152 -0.00074285717 0.78000003 4.5211704e-39
-0.091371432 -0.00074285717 0.78000003 6.3646836e-39
-0.089424767 -0.00073904765 0.77600002 1.0974465e-38
-0.087946668 -0.00073904765 0.77600002 1.1987565e-38
-0.086245723 -0.00073714292 0.77400005 1.1618782e-38
-0.084661908 -0.00073619053 0.77300006 1.0792271e-38
-0.082974285 -0.00073428574 0.77100003 1.1253249e-38
-0.081505716 -0.00073428574 0.77100003 1.2358165e-38
-0.080037147 -0.00073428574 0.77100003 1.3372317e-38
-0.078772388 -0.00073619053 0.77300006 1.3556329e-38
-0.077300005 -0.00073619053 0.77300006 1.4017308e-38
-0.083282866 -0.00080857147 0.84900004 1.3925841e-38
-0.081665717 -0.00080857147 0.84900004 1.4479014e-38
-0.080048576 -0.00080857147 0.84900004 1.4478664e-38
-0.078616194 -0.00081047619 0.85100001 1.4939642e-38
-0.076995239 -0.00081047619 0.85100001 1.484781e-38
-0.07564 -0.00081333338 0.85400003 1.5216592e-38
-0.074013337 -0.00081333338 0.85400003 1.5032206e-38
-0.072386667 -0.00081333338 0.85400003 1.5400989e-38
-0.07092572 -0.00081523816 0.85600007 1.5400989e-38
-0.069295242 -0.00081523816 0.85600007 1.5861967e-38
-0.067664765 -0.00081523816 0.85600007 1.5861261e-38
-0.066034287 -0.00081523816 0.85600007 1.6322239e-38
-0.064403817 -0.00081523816 0.85600007 1.5678299e-38
-0.062773332 -0.00081523816 0.85600007 1.5770495e-38
-0.061142862 -0.00081523816 0.85600007 1.5954873e-38
-0.059512388 -0.00081523816 0.85600007 1.6139264e-38
-0.058017146 -0.00081714289 0.85800004 1.5400989e-38
-0.050534289 -0.00073238101 0.76900005 1.5216598e-38
-0.049069528 -0.00073238101 0.76900005 1.4479383e-38
-0.047728572 -0.00073428574 0.77100003 1.4202796e-38
-0.046380006 -0.00073619053 0.77300006 1.3834374e-38
-0.044907622 -0.00073619053 0.77300006 1.3926569e-38
-0.043435238 -0.00073619053 0.77300006 1.2361439e-38
-0.041962862 -0.00073619053 0.77300006 1.1439483e-38
-0.040490478 -0.00073619053 0.77300006 1.1624909e-38
-0.039018098 -0.00073619053 0.77300006 1.2362474e-38
-0.037545718 -0.00073619053 0.77300006 1.2729083e-38
-0.036120001 -0.00073714292 0.77400005 1.0977366e-38
-0.034645718 -0.00073714292 0.77400005 9.7838575e-39
-0.03317143 -0.00073714292 0.77400005 8.7697055e-39
-0.031779047 -0.00073904765 0.77600002 8.4938571e-39
-0.030379049 -0.00074095244 0.77800006 1.0153378e-38
-0.02897143 -0.00074285717 0.78000003 1.1805359e-38
-0.027520953 -0.00074380951 0.78100002 9.9614468e-39
-0.026100002 -0.00074571435 0.78300005 7.8481024e-39
-0.02467143 -0.00074761908 0.78500003 4.0680815e-39
-0.023235239 -0.00074952387 0.78700006 2.8767761e-39
-0.021736192 -0.00074952387 0.78700006 3.6143411e-39
-0.020288572 -0.0007514286 0.78900003 7.0158432e-39
-0.018809523 -0.00075238099 0.79000002 7.2924301e-39
-0.017392382 -0.00075619051 0.79400003 9.3153431e-39
-0.01588 -0.00075619051 0.79400003 1.4201712e-38
-0.097439051 0.00074380951 0.78100002 4.4300467e-39
-0.09595143 0.00074380951 0.78100002 5.7207856e-39
-0.09446381 0.00074380951 0.78100002 7.1951842e-39
-0.09297619 0.00074380951 0.78100002 6.6420104e-39
-0.091371432 0.00074285717 0.78000003 6.7359773e-39
-0.089885719 0.00074285717 0.78000003 1.1253563e-38
-0.087946668 0.00073904765 0.77600002 1.2171971e-38
-0.086245723 0.00073714292 0.77400005 9.8670806e-39
-0.084661908 0.00073619053 0.77300006 9.2220489e-39
-0.083189532 0.00073619053 0.77300006 9.2220489e-39
-0.081505716 0.00073428574 0.77100003 1.1067757e-38
-0.080037147 0.00073428574 0.77100003 1.2819474e-38
-0.078772388 0.00073619053 0.77300006 1.2175568e-38
-0.077100001 0.00073428574 0.77100003 1.2083373e-38
-0.075631432 0.00073428574 0.77100003 1.2084095e-38
-0.074162856 0.00073428574 0.77100003 1.2545073e-38
-0.072694287 0.00073428574 0.77100003 1.245395e-38
-0.071410477 0.00073619053 0.77300006 1.2914929e-38
-0.069938101 0.00073619053 0.77300006 1.337591e-38
-0.068465717 0.00073619053 0.77300006 1.4021279e-38
-0.066993333 0.00073619053 0.77300006 1.4205317e-38
-0.065605715 0.00073714292 0.77400005 1.4389708e-38
-0.064131431 0.00073714292 0.77400005 1.4849229e-38
-0.062090475 0.00073047623 0.76700002 1.5125816e-38
-0.060550477 0.00072952383 0.76600003 1.4758141e-38
-0.05909143 0.00072952383 0.76600003 1.4758141e-38
-0.057632383 0.00072952383 0.76600003 1.4299323e-38
-0.056173336 0.00072952383 0.76600003 1.3838345e-38
-0.054785714 0.00073047623 0.76700002 1.2734503e-38
-0.053463813 0.00073238101 0.76900005 1.236572e-38
-0.051999051 0.00073238101 0.76900005 1.22703e-38
-0.050534289 0.00073238101 0.76900005 1.1809322e-38
-0.049069528 0.00073238101 0.76900005 1.0890568e-38
-0.047728572 0.00073428574 0.77100003 1.2550089e-38
-0.046380006 0.00073619053 0.77300006 1.2455405e-38
-0.044907622 0.00073619053 0.77300006 1.2547601e-38
-0.043435238 0.00073619053 0.77300006 1.1350862e-38
-0.041962862 0.00073619053 0.77300006 8.9537759e-39
-0.04054286 0.00073714292 0.77400005 9.6891605e-39
-0.039068572 0.00073714292 0.77400005 1.0979899e-38
-0.037594289 0.00073714292 0.77400005 1.3738919e-38
-0.036120001 0.00073714292 0.77400005 1.2724767e-38
-0.034645718 0.00073714292 0.77400005 1.0980265e-38
-0.033257145 0.00073904765 0.77600002 8.6753743e-39
-0.031779047 0.00073904765 0.77600002 5.7301589e-39
-0.030379049 0.00074095244 0.77800006 1.0800918e-38
-0.02897143 0.00074285717 0.78000003 1.3096095e-38
-0.027520953 0.00074380951 0.78100002 7.8409445e-39
-0.026100002 0.00074571435 0.78300005 5.5443201e-39
-0.02467143 0.00074761908 0.78500003 4.2535812e-39
-0.023294287 0.0007514286 0.78900003 2.8796599e-39
-0.021791428 0.0007514286 0.78900003 2.6952687e-39
-0.020314286 0.00075238099 0.79000002 6.5566545e-39
-0.018857144 0.00075428578 0.79200006 7.2020239e-39
-0.017392382 0.00075619051 0.79400003 9.6823264e-39
-0.01588 0.00075619051 0.79400003 1.4568695e-38
-0.096197143 0.002237143 0.78300005 5.3505317e-39
-0.094705723 0.002237143 0.78300005 5.6336346e-39
-0.09297619 0.0022314284 0.78100002 8.6760904e-39
-0.091371432 0.0022285716 0.78000003 1.1157819e-38
-0.089885719 0.0022285716 0.78000003 1.3186123e-38
-0.088173337 0.0022228572 0.77800006 1.1898253e-38
-0.08646857 0.0022171428 0.77600002 8.1182321e-39
-0.084771432 0.0022114285 0.77400005 4.2568308e-39
-0.083189532 0.0022085716 0.77300006 3.5192658e-39
-0.081717148 0.0022085716 0.77300006 7.2920741e-39
-0.080244765 0.0022085716 0.77300006 1.2455029e-38
-0.078772388 0.0022085716 0.77300006 1.2819496e-38
-0.077100001 0.0022028573 0.77100003 1.0975583e-38
-0.075631432 0.0022028573 0.77100003 1.0147981e-38
-0.074162856 0.0022028573 0.77100003 8.9494375e-39
-0.072694287 0.0022028573 0.77100003 8.7671916e-39
-0.071410477 0.0022085716 0.77300006 1.0242322e-38
-0.069938101 0.0022085716 0.77300006 1.2729789e-38
-0.068465717 0.0022085716 0.77300006 1.3282963e-38
-0.066993333 0.0022085716 0.77300006 1.3557764e-38
-0.065520957 0.0022085716 0.77300006 1.1345069e-38
-0.064048581 0.0022085716 0.77300006 1.005862e-38
-0.062090475 0.0021914286 0.76700002 1.0519598e-38
-0.060550477 0.0021885715 0.76600003 1.1898647e-38
-0.058937147 0.0021828574 0.76400006 1.3558168e-38
-0.057481907 0.0021828574 0.76400006 1.319078e-38
-0.056173336 0.0021885715 0.76600003 1.0978085e-38
-0.054785714 0.0021914286 0.76700002 8.4059425e-39
-0.053463813 0.0021971429 0.76900005 3.4273785e-39
-0.051999051 0.0021971429 0.76900005 2.2411793e-39
-0.050534289 0.0021971429 0.76900005 1.6880055e-39
-0.049197145 0.0022028573 0.77100003 9.2342416e-39
-0.047852382 0.0022085716 0.77300006 1.2553284e-38
-0.046380006 0.0022085716 0.77300006 1.3928004e-38
-0.044907622 0.0022085716 0.77300006 1.3190439e-38
-0.043435238 0.0022085716 0.77300006 1.0891306e-38
-0.042017147 0.0022114285 0.77400005 8.770807e-39
-0.04054286 0.0022114285 0.77400005 8.6804218e-39
-0.039068572 0.0022114285 0.77400005 9.3257912e-39
-0.037594289 0.0022114285 0.77400005 1.1809638e-38
-0.036213335 0.0022171428 0.77600002 1.3284768e-38
-0.034735236 0.0022171428 0.77600002 1.3189739e-38
-0.033257145 0.0022171428 0.77600002 1.2452174e-38
-0.031860955 0.0022228572 0.77800006 1.2176663e-38
-0.030379049 0.0022228572 0.77800006 1.245325e-38
-0.029008573 0.0022314284 0.78100002 1.1808915e-38
-0.027591432 0.002237143 0.78300005 5.6318073e-39
-0.026166666 0.0022428571 0.78500003 2.3272148e-39
-0.024734288 0.0022485715 0.78700006 2.8803886e-39
-0.023294287 0.0022542858 0.78900003 2.6959945e-39
-0.021819048 0.0022571429 0.79000002 2.5116033e-39
-0.020314286 0.0022571429 0.79000002 6.6481495e-39
-0.018857144 0.0022628573 0.79200006 7.754497e-39
-0.017392382 0.0022685714 0.79400003 1.0144391e-38
-0.099809527 0.0038095238 0.80000001 8.4837804e-39
-0.09828572 0.0038095238 0.80000001 5.2569334e-39
-0.094947621 0.0037380953 0.78500003 4.3453845e-39
-0.093214288 0.0037285716 0.78300005 8.6785791e-39
-0.091488577 0.0037190479 0.78100002 1.097488e-38
-0.089885719 0.0037142858 0.78000003 1.1620249e-38
-0.088400006 0.0037142858 0.78000003 9.9664761e-39
-0.086691439 0.0037047621 0.77800006 5.0801077e-39
-0.084990479 0.0036952381 0.77600002 1.1326093e-39
-0.083297148 0.0036857147 0.77400005 8.560224e-40
-0.081822865 0.0036857147 0.77400005 7.1069346e-39
-0.080348574 0.0036857147 0.77400005 1.1347934e-38
-0.07887429 0.0036857147 0.77400005 1.3371571e-38
-0.077300005 0.0036809526 0.77300006 1.2080832e-38
-0.075827621 0.0036809526 0.77300006 1.1619877e-38
-0.074355245 0.0036809526 0.77300006 1.0605725e-38
-0.072882861 0.0036809526 0.77300006 9.7788254e-39
-0.071410477 0.0036809526 0.77300006 1.1530542e-38
-0.069938101 0.0036809526 0.77300006 1.4014452e-38
-0.068465717 0.0036809526 0.77300006 1.4752017e-38
-0.066993333 0.0036809526 0.77300006 1.438574e-38
-0.065520957 0.0036809526 0.77300006 9.9603496e-39
-0.064048581 0.0036809526 0.77300006 8.8557747e-39
-0.062090475 0.003652381 0.76700002 9.4089485e-39
-0.060629524 0.003652381 0.76700002 1.3000981e-38
-0.058937147 0.0036380955 0.76400006 1.429172e-38
-0.057481907 0.0036380955 0.76400006 1.5122569e-38
-0.056246668 0.003652381 0.76700002 1.3370852e-38
-0.054928575 0.0036619049 0.76900005 9.7853372e-39
-0.053463813 0.0036619049 0.76900005 8.4024028e-39
-0.051999051 0.0036619049 0.76900005 6.8479999e-39
-0.050665714 0.0036714287 0.77100003 6.6636086e-39
-0.049324766 0.0036809526 0.77300006 9.8792999e-39
-0.047852382 0.0036809526 0.77300006 1.3106147e-38
-0.046440005 0.0036857147 0.77400005 1.457266e-38
-0.044965718 0.0036857147 0.77400005 1.2820943e-38
-0.043491431 0.0036857147 0.77400005 1.0338861e-38
-0.042017147 0.0036857147 0.77400005 9.0481225e-39
-0.04054286 0.0036857147 0.77400005 8.1301319e-39
-0.039169524 0.0036952381 0.77600002 7.9457406e-39
-0.037691429 0.0036952381 0.77600002 9.5080161e-39
-0.036213335 0.0036952381 0.77600002 1.1075342e-38
-0.034735236 0.0036952381 0.77600002 1.3373035e-38
-0.033342861 0.0037047621 0.77800006 1.4018405e-38
-0.031860955 0.0037047621 0.77800006 1.4018064e-38
-0.030457145 0.0037142858 0.78000003 1.1528782e-38
-0.029008573 0.0037190479 0.78100002 7.9424784e-39
-0.027591432 0.0037285716 0.78300005 3.8858707e-39
-0.026166666 0.0037380953 0.78500003 2.144976e-39
-0.024797143 0.0037571429 0.78900003 2.7903454e-39
-0.02332381 0.0037619048 0.79000002 2.5123194e-39
-0.021819048 0.0037619048 0.79000002 3.0654931e-39
-0.020417145 0.0037809527 0.79400003 7.2013233e-39
-0.018952383 0.0037904764 0.79600006 8.3998664e-39
-0.017436191 0.0037904764 0.79600006 1.1065261e-38
-0.09956 0.0053200005 0.79800004 9.1302092e-39
-0.09804 0.0053200005 0.79800004 5.7189709e-39
-0.096520007 0.0053200005 0.79800004 4.1599535e-39
-0.093690485 0.0052466667 0.78700006 7.2024093e-39
-0.091957144 0.0052333334 0.78500003 8.8576146e-39
-0.09000095 0.0052066664 0.78100002 8.3966365e-39
-0.088513337 0.0052066664 0.78100002 4.7170985e-39
-0.086914286 0.0052 0.78000003 3.0575772e-39
-0.085209534 0.0051866672 0.77800006 1.4092116e-39
-0.083512381 0.0051733335 0.77600002 1.6857985e-39
-0.08203429 0.0051733335 0.77600002 3.5225056e-39
-0.080556192 0.0051733335 0.77600002 5.3664182e-39
-0.07887429 0.0051600002 0.77400005 1.0424898e-38
-0.077400006 0.0051600002 0.77400005 1.4020528e-38
-0.075925723 0.0051600002 0.77400005 1.4292474e-38
-0.074355245 0.0051533333 0.77300006 1.3186126e-38
-0.072882861 0.0051533333 0.77300006 1.3281193e-38
-0.071410477 0.0051533333 0.77300006 1.4940714e-38
-0.069938101 0.0051533333 0.77300006 1.4662718e-38
-0.068465717 0.0051533333 0.77300006 1.355637e-38
-0.066993333 0.0051533333 0.77300006 1.217484e-38
-0.065520957 0.0051533333 0.77300006 8.3026233e-39
-0.064048581 0.0051533333 0.77300006 7.3828376e-39
-0.062414289 0.00514 0.77100003 7.1062508e-39
-0.060787622 0.0051266667 0.76900005 9.8709692e-39
-0.05932286 0.0051266667 0.76900005 1.2452447e-38
-0.057858098 0.0051266667 0.76900005 1.4661944e-38
-0.056393337 0.0051266667 0.76900005 1.6413661e-38
-0.054928575 0.0051266667 0.76900005 1.4573759e-38
-0.053602856 0.00514 0.77100003 1.2361064e-38
-0.052134287 0.00514 0.77100003 1.1354052e-38
-0.050797146 0.0051533333 0.77300006 1.2552595e-38
-0.049324766 0.0051533333 0.77300006 1.3470276e-38
-0.047852382 0.0051533333 0.77300006 1.3654667e-38
-0.046440005 0.0051600002 0.77400005 1.254866e-38
-0.044965718 0.0051600002 0.77400005 1.0059378e-38
-0.043491431 0.0051600002 0.77400005 8.6822239e-39
-0.042017147 0.0051600002 0.77400005 8.5900282e-39
-0.04054286 0.0051600002 0.77400005 8.2219716e-39
-0.039169524 0.0051733335 0.77600002 8.0375803e-39
-0.037788574 0.0051866672 0.77800006 8.5878829e-39
-0.036306668 0.0051866672 0.77800006 8.311296e-39
-0.034824762 0.0051866672 0.77800006 1.070294e-38
-0.033342861 0.0051866672 0.77800006 1.3192222e-38
-0.031942859 0.0052 0.78000003 1.3649622e-38
-0.030457145 0.0052 0.78000003 9.6852103e-39
-0.029008573 0.0052066664 0.78100002 3.5243105e-39
-0.027661905 0.0052333334 0.78500003 2.5101586e-39
-0.026233334 0.0052466667 0.78700006 3.1569755e-39
-0.024797143 0.00526 0.78900003 2.9725842e-39
-0.02332381 0.0052666669 0.79000002 2.7874615e-39
-0.021874288 0.0052800006 0.79200006 5.0923523e-39
-0.020468574 0.0053066672 0.79600006 8.0293015e-39
-0.018952383 0.0053066672 0.79600006 9.9654097e-39
-0.017479999 0.0053200005 0.79800004 1.0973801e-38
-0.09956 0.0068399999 0.79800004 9.405036e-39
-0.097794287 0.0068228575 0.79600006 6.5469715e-39
-0.09579429 0.0067885718 0.79200006 4.3443027e-39
-0.093928576 0.0067628575 0.78900003 7.2945629e-39
-0.092191435 0.0067457147 0.78700006 8.0318196e-39
-0.090231434 0.006711429 0.78300005 7.0176677e-39
-0.088513337 0.0066942861 0.78100002 1.6836503e-39
-0.086914286 0.0066857147 0.78000003 1.7758459e-39
-0.085209534 0.0066685718 0.77800006 3.0647673e-39
-0.083727628 0.0066685718 0.77800006 3.1569629e-39
-0.08203429 0.0066514285 0.77600002 1.5943161e-39
-0.080556192 0.0066514285 0.77600002 1.5943161e-39
-0.079078101 0.0066514285 0.77600002 7.2952761e-39
-0.077400006 0.0066342861 0.77400005 1.1351884e-38
-0.075925723 0.0066342861 0.77400005 1.3925481e-38
-0.074451432 0.0066342861 0.77400005 1.3648894e-38
-0.072977148 0.0066342861 0.77400005 1.3465607e-38
-0.071410477 0.0066257147 0.77300006 1.4203172e-38
-0.069938101 0.0066257147 0.77300006 1.4019134e-38
-0.068465717 0.0066257147 0.77300006 1.1714243e-38
-0.066993333 0.0066257147 0.77300006 8.6764659e-39
-0.065520957 0.0066257147 0.77300006 7.1091402e-39
-0.064048581 0.0066257147 0.77300006 7.3835565e-39
-0.062414289 0.0066085714 0.77100003 7.3835565e-39
-0.060945716 0.0066085714 0.77100003 7.5679155e-39
-0.059477147 0.0066085714 0.77100003 9.1352413e-39
-0.05800857 0.0066085714 0.77100003 1.1253227e-38
-0.056540001 0.0066085714 0.77100003 1.3742509e-38
-0.055071428 0.0066085714 0.77100003 1.5216592e-38
-0.053602856 0.0066085714 0.77100003 1.4386831e-38
-0.052134287 0.0066085714 0.77100003 1.2456114e-38
-0.050797146 0.0066257147 0.77300006 1.3654657e-38
-0.049324766 0.0066257147 0.77300006 1.3838339e-38
-0.047852382 0.0066257147 0.77300006 1.2086622e-38
-0.046440005 0.0066342861 0.77400005 9.5119817e-39
-0.044965718 0.0066342861 0.77400005 8.3134386e-39
-0.043491431 0.0066342861 0.77400005 8.1304948e-39
-0.042125717 0.0066514285 0.77600002 8.4070817e-39
-0.040647618 0.0066514285 0.77600002 8.4063629e-39
-0.039270476 0.0066685718 0.77800006 8.2219716e-39
-0.037788574 0.0066685718 0.77800006 7.9453903e-39
-0.036306668 0.0066685718 0.77800006 7.1156296e-39
-0.034824762 0.0066685718 0.77800006 7.8520807e-39
-0.033428572 0.0066857147 0.78000003 1.1539906e-38
-0.031942859 0.0066857147 0.78000003 1.3007152e-38
-0.030496189 0.0066942861 0.78100002 8.7661533e-39
-0.029082859 0.006711429 0.78300005 1.5939434e-39
-0.027732382 0.0067457147 0.78700006 1.7783346e-39
-0.026300002 0.0067628575 0.78900003 3.1566252e-39
-0.024828572 0.0067714285 0.79000002 2.3268645e-39
-0.023382859 0.0067885718 0.79200006 3.5199875e-39
-0.021929525 0.0068057147 0.79400003 7.2078127e-39
-0.020468574 0.0068228575 0.79600006 8.7675602e-39
-0.019000001 0.0068399999 0.79800004 9.9661033e-39
-0.017479999 0.0068399999 0.79800004 1.2172322e-38
-0.10158667 0.0084019052 0.80200005 1.1614479e-38
-0.09956 0.0083600003 0.79800004 1.0604999e-38
-0.097794287 0.0083390484 0.79600006 7.4703473e-39
-0.09579429 0.0082971435 0.79200006 4.4379655e-39
-0.093928576 0.0082657151 0.78900003 6.2818781e-39
-0.092191435 0.0082447622 0.78700006 7.9378093e-39
-0.090461902 0.0082238093 0.78500003 7.2002443e-39
-0.088740006 0.0082028583 0.78300005 2.9704459e-39
-0.087025709 0.0081819054 0.78100002 2.6016633e-39
-0.085428573 0.008171428 0.78000003 2.3293672e-39
-0.083727628 0.008150477 0.77800006 2.882541e-39
-0.082245722 0.008150477 0.77800006 2.8811047e-39
-0.080763817 0.008150477 0.77800006 2.2357353e-39
-0.079078101 0.0081295241 0.77600002 4.1685434e-39
-0.077600002 0.0081295241 0.77600002 6.1968473e-39
-0.075925723 0.0081085721 0.77400005 1.1438331e-38
-0.074451432 0.0081085721 0.77400005 1.4665178e-38
-0.072977148 0.0081085721 0.77400005 1.4478304e-38
-0.071410477 0.0080980957 0.77300006 1.2357805e-38
-0.069938101 0.0080980957 0.77300006 8.7661631e-39
-0.068465717 0.0080980957 0.77300006 6.5534679e-39
-0.066993333 0.0080980957 0.77300006 7.0151341e-39
-0.065520957 0.0080980957 0.77300006 7.6605035e-39
-0.064048581 0.0080980957 0.77300006 8.3037206e-39
-0.06257619 0.0080980957 0.77300006 8.3959162e-39
-0.061103813 0.0080980957 0.77300006 8.5792228e-39
-0.059631433 0.0080980957 0.77300006 8.0260491e-39
-0.058159053 0.0080980957 0.77300006 7.9359918e-39
-0.05668667 0.0080980957 0.77300006 9.4111219e-39
-0.05521429 0.0080980957 0.77300006 1.1438006e-38
-0.05374191 0.0080980957 0.77300006 1.4849245e-38
-0.052269526 0.0080980957 0.77300006 1.4572658e-38
-0.050797146 0.0080980957 0.77300006 1.4203875e-38
-0.049324766 0.0080980957 0.77300006 1.2733064e-38
-0.047914285 0.0081085721 0.77400005 9.8749993e-39
-0.046440005 0.0081085721 0.77400005 7.8542737e-39
-0.045081906 0.0081295241 0.77600002 8.2230562e-39
-0.043603808 0.0081295241 0.77600002 8.4992774e-39
-0.042125717 0.0081295241 0.77600002 8.4070817e-39
-0.040647618 0.0081295241 0.77600002 8.3141672e-39
-0.039270476 0.008150477 0.77800006 8.129776e-39
-0.037788574 0.008150477 0.77800006 8.0375803e-39
-0.036400001 0.008171428 0.78000003 7.5766022e-39
-0.034914285 0.008171428 0.78000003 8.218722e-39
-0.033428572 0.008171428 0.78000003 1.1168982e-38
-0.031942859 0.008171428 0.78000003 1.2271733e-38
-0.030496189 0.0081819054 0.78100002 8.2151249e-39
-0.029082859 0.0082028583 0.78300005 1.1340891e-39
-0.027732382 0.0082447622 0.78700006 1.1340891e-39
-0.026300002 0.0082657151 0.78900003 1.7776648e-39
-0.024891431 0.0082971435 0.79200006 9.4790414e-40
-0.023441905 0.0083180955 0.79400003 4.4412221e-39
-0.021984763 0.0083390484 0.79600006 8.0368517e-39
-0.020520002 0.0083600003 0.79800004 9.1356112e-39
-0.019047618 0.0083809523 0.80000001 9.9653719e-39
-0.017523808 0.0083809523 0.80000001 1.1896088e-38
-0.10158667 0.0099295247 0.80200005 1.2077237e-38
-0.09956 0.0098800007 0.79800004 1.1068536e-38
-0.097794287 0.0098552387 0.79600006 7.5651017e-39
-0.096036196 0.0098304767 0.79400003 4.3464579e-39
-0.094285719 0.0098057147 0.79200006 6.3747618e-39
-0.092425719 0.0097685717 0.78900003 7.8452479e-39
-0.090692386 0.0097438106 0.78700006 7.6608567e-39
-0.088966668 0.0097190477 0.78500003 2.603464e-39
-0.087248579 0.0096942866 0.78300005 2.0502902e-39
-0.085428573 0.0096571427 0.78000003 2.0534964e-39
-0.08394286 0.0096571427 0.78000003 2.4222789e-39
-0.082245722 0.0096323816 0.77800006 3.2495215e-39
-0.080763817 0.0096323816 0.77800006 3.3417171e-39
-0.079281911 0.0096323816 0.77800006 1.7786948e-39
-0.077600002 0.0096076196 0.77600002 9.489341e-40
-0.076121904 0.0096076196 0.77600002 7.9410113e-39
-0.074451432 0.0095828576 0.77400005 1.3380553e-38
-0.072977148 0.0095828576 0.77400005 1.4846756e-38
-0.071502857 0.0095828576 0.77400005 1.0421366e-38
-0.069938101 0.0095704766 0.77300006 8.1196768e-39
-0.068465717 0.0095704766 0.77300006 7.2899161e-39
-0.066993333 0.0095704766 0.77300006 7.7508999e-39
-0.065605715 0.0095828576 0.77400005 8.2118781e-39
-0.064131431 0.0095828576 0.77400005 8.3959162e-39
-0.06257619 0.0095704766 0.77300006 8.4881118e-39
-0.061103813 0.0095704766 0.77300006 9.0384087e-39
-0.059631433 0.0095704766 0.77300006 8.7618218e-39
-0.058159053 0.0095704766 0.77300006 7.4746633e-39
-0.05668667 0.0095704766 0.77300006 6.9214896e-39
-0.05521429 0.0095704766 0.77300006 9.4107463e-39
-0.05374191 0.0095704766 0.77300006 1.4481506e-38
-0.052269526 0.0095704766 0.77300006 1.4665592e-38
-0.050797146 0.0095704766 0.77300006 1.3835831e-38
-0.049388573 0.0095828576 0.77400005 1.1076436e-38
-0.047914285 0.0095828576 0.77400005 8.5871542e-39
-0.046560001 0.0096076196 0.77600002 7.3954479e-39
-0.045081906 0.0096076196 0.77600002 8.0408173e-39
-0.043603808 0.0096076196 0.77600002 8.4992774e-39
-0.04223429 0.0096323816 0.77800006 8.4070817e-39
-0.040752385 0.0096323816 0.77800006 8.2226905e-39
-0.039270476 0.0096323816 0.77800006 8.0382992e-39
-0.037788574 0.0096323816 0.77800006 8.0372202e-39
-0.036400001 0.0096571427 0.78000003 7.6684377e-39
-0.034914285 0.0096571427 0.78000003 8.1275984e-39
-0.033428572 0.0096571427 0.78000003 1.1170054e-38
-0.031942859 0.0096571427 0.78000003 1.2180253e-38
-0.030496189 0.0096695237 0.78100002 9.3221885e-39
-0.029082859 0.0096942866 0.78300005 3.3439115e-39
-0.027732382 0.0097438106 0.78700006 1.3156077e-39
-0.026333334 0.0097809527 0.79000002 1.1329848e-39
-0.024954287 0.0098304767 0.79400003 1.4095717e-39
-0.023500955 0.0098552387 0.79600006 6.0967932e-39
-0.021984763 0.0098552387 0.79600006 8.6782708e-39
-0.020520002 0.0098800007 0.79800004 8.9512199e-39
-0.019047618 0.0099047627 0.80000001 9.5043937e-39
-0.01756762 0.0099295247 0.80200005 1.1803539e-38
-0.09956 0.0114 0.79800004 1.3554543e-38
-0.097548574 0.011342858 0.79400003 9.9589133e-39
-0.09579429 0.011314287 0.79200006 6.4619632e-39
-0.094285719 0.011314287 0.79200006 7.5683107e-39
-0.092542864 0.011285715 0.79000002 9.0416107e-39
-0.090692386 0.011242858 0.78700006 9.963567e-39
-0.088966668 0.011214286 0.78500003 6.6517774e-39
-0.087248579 0.011185715 0.78300005 3.1483435e-39
-0.085538097 0.011157143 0.78100002 1.040792e-39
-0.08394286 0.011142857 0.78000003 2.0549439e-39
-0.082245722 0.011114286 0.77800006 2.8811019e-39
-0.080763817 0.011114286 0.77800006 3.34208e-39
-0.079485722 0.011142857 0.78000003 2.6066758e-39
-0.077799998 0.011114286 0.77800006 1.315937e-39
-0.076121904 0.011085714 0.77600002 3.0636883e-39
-0.074451432 0.011057143 0.77400005 1.0900317e-38
-0.072977148 0.011057143 0.77400005 1.4110963e-38
-0.071502857 0.011057143 0.77400005 8.48703e-39
-0.070028573 0.011057143 0.77400005 5.7262254e-39
-0.06855429 0.011057143 0.77400005 6.832573e-39
-0.067080006 0.011057143 0.77400005 8.1182503e-39
-0.065605715 0.011057143 0.77400005 8.3948372e-39
-0.064131431 0.011057143 0.77400005 8.2115249e-39
-0.06265714 0.011057143 0.77400005 8.3037206e-39
-0.06118286 0.011057143 0.77400005 8.4866769e-39
-0.059708573 0.011057143 0.77400005 8.6710681e-39
-0.058234289 0.011057143 0.77400005 8.211169e-39
-0.056760002 0.011057143 0.77400005 7.2892127e-39
-0.055285718 0.011057143 0.77400005 5.7262254e-39
-0.053811431 0.011057143 0.77400005 1.153455e-38
-0.052337144 0.011057143 0.77400005 1.4204241e-38
-0.05086286 0.011057143 0.77400005 1.3190089e-38
-0.049388573 0.011057143 0.77400005 1.0891692e-38
-0.047914285 0.011057143 0.77400005 8.5868011e-39
-0.046560001 0.011085714 0.77600002 7.7631571e-39
-0.045081906 0.011085714 0.77600002 8.2241352e-39
-0.043603808 0.011085714 0.77600002 8.4992774e-39
-0.04223429 0.011114286 0.77800006 8.3148861e-39
-0.040752385 0.011114286 0.77800006 8.2226905e-39
-0.039270476 0.011114286 0.77800006 8.1304948e-39
-0.037885718 0.011142857 0.78000003 7.9457533e-39
-0.036400001 0.011142857 0.78000003 7.5769707e-39
-0.034914285 0.011142857 0.78000003 9.3232773e-39
-0.033428572 0.011142857 0.78000003 1.2273537e-38
-0.031983808 0.011157143 0.78100002 1.2913852e-38
-0.030574286 0.011185715 0.78300005 1.2729461e-38
-0.029157145 0.011214286 0.78500003 9.4162408e-39
-0.027802859 0.011271429 0.78900003 5.2674375e-39
-0.026333334 0.011285715 0.79000002 3.2502249e-39
-0.024954287 0.011342858 0.79400003 4.8175506e-39
-0.023500955 0.011371429 0.79600006 7.5712044e-39
-0.021984763 0.011371429 0.79600006 8.2165738e-39
-0.020520002 0.0114 0.79800004 8.2150898e-39
-0.019047618 0.011428571 0.80000001 9.3214374e-39
-0.017523808 0.011428571 0.80000001 1.1711344e-38
-0.097548574 0.012855238 0.79400003 1.0417387e-38
-0.09579429 0.012822858 0.79200006 7.4717865e-39
-0.094285719 0.012822858 0.79200006 8.3937428e-39
-0.092542864 0.012790476 0.79000002 9.5000749e-39
-0.090922855 0.012774286 0.78900003 1.0514227e-38
-0.089193337 0.012741906 0.78700006 8.5849934e-39
-0.087471426 0.012709524 0.78500003 4.6205813e-39
-0.085538097 0.012644762 0.78100002 9.4859638e-40
-0.084050477 0.012644762 0.78100002 1.9627483e-39
-0.08245714 0.012628571 0.78000003 3.2495215e-39
-0.080971435 0.012628571 0.78000003 3.3417171e-39
-0.079485722 0.012628571 0.78000003 2.5144774e-39
-0.078000002 0.012628571 0.78000003 1.2237385e-39
-0.0763181 0.012596191 0.77800006 2.7885209e-39
-0.074643806 0.01256381 0.77600002 1.0901736e-38
-0.073165715 0.01256381 0.77600002 1.3927671e-38
-0.071502857 0.01253143 0.77400005 8.7647155e-39
-0.070028573 0.01253143 0.77400005 6.6449195e-39
-0.06855429 0.01253143 0.77400005 7.6590714e-39
-0.067080006 0.01253143 0.77400005 8.3026416e-39
-0.065605715 0.01253143 0.77400005 8.3948372e-39
-0.064131431 0.01253143 0.77400005 8.3040737e-39
-0.06265714 0.01253143 0.77400005 8.3962693e-39
-0.06118286 0.01253143 0.77400005 8.5792284e-39
-0.059708573 0.01253143 0.77400005 8.6714241e-39
-0.058234289 0.01253143 0.77400005 8.7629106e-39
-0.056760002 0.01253143 0.77400005 7.6565631e-39
-0.055285718 0.01253143 0.77400005 6.0031332e-39
-0.053811431 0.01253143 0.77400005 1.2456827e-38
-0.052337144 0.01253143 0.77400005 1.3836191e-38
-0.05086286 0.01253143 0.77400005 1.3190822e-38
-0.049388573 0.01253143 0.77400005 1.0248843e-38
-0.047914285 0.01253143 0.77400005 8.2205395e-39
-0.046560001 0.01256381 0.77600002 7.9464637e-39
-0.045081906 0.01256381 0.77600002 8.3152462e-39
-0.043716192 0.012596191 0.77800006 8.4067286e-39
-0.04223429 0.012596191 0.77800006 8.314533e-39
-0.040752385 0.012596191 0.77800006 8.2226877e-39
-0.039270476 0.012596191 0.77800006 7.9461008e-39
-0.037885718 0.012628571 0.78000003 7.6698824e-39
-0.036400001 0.012628571 0.78000003 8.2230562e-39
-0.034914285 0.012628571 0.78000003 1.1347638e-38
-0.033471428 0.012644762 0.78100002 1.2085203e-38
-0.031983808 0.012644762 0.78100002 1.2820906e-38
-0.030574286 0.012677143 0.78300005 1.3466275e-38
-0.029231431 0.012741906 0.78700006 1.2729849e-38
-0.027838096 0.012790476 0.79000002 9.318611e-39
-0.026400002 0.012822858 0.79200006 5.0883922e-39
-0.025017144 0.01288762 0.79600006 6.379131e-39
-0.023500955 0.01288762 0.79600006 9.4115072e-39
-0.02204 0.012920001 0.79800004 7.7519859e-39
-0.020520002 0.012920001 0.79800004 7.0158124e-39
-0.019047618 0.012952381 0.80000001 9.59729e-39
-0.01756762 0.012984763 0.80200005 1.1803186e-38
-0.097548574 0.01436762 0.79400003 1.0142573e-38
-0.09579429 0.014331429 0.79200006 8.3937428e-39
-0.094047621 0.014295238 0.79000002 8.8547209e-39
-0.092542864 0.014295238 0.79000002 9.5904783e-39
-0.090922855 0.014277143 0.78900003 1.0051456e-38
-0.089193337 0.014240953 0.78700006 9.6869899e-39
-0.087471426 0.014204763 0.78500003 9.2260118e-39
-0.085757144 0.014168572 0.78300005 4.8118123e-39
-0.084050477 0.014132381 0.78100002 2.9678997e-39
-0.08245714 0.014114286 0.78000003 1.3181146e-39
-0.080971435 0.014114286 0.78000003 1.5947015e-39
-0.079587616 0.014132381 0.78100002 1.318095e-39
-0.078000002 0.014114286 0.78000003 2.1478556e-39
-0.076514289 0.014114286 0.78000003 5.8224161e-39
-0.074836195 0.014078096 0.77800006 1.2368306e-38
-0.073165715 0.014041905 0.77600002 1.4387553e-38
-0.071687624 0.014041905 0.77600002 1.171388e-38
-0.070209526 0.014041905 0.77600002 7.0162608e-39
-0.06855429 0.014005715 0.77400005 6.0943045e-39
-0.067080006 0.014005715 0.77400005 7.0147838e-39
-0.065605715 0.014005715 0.77400005 7.7523488e-39
-0.064131431 0.014005715 0.77400005 8.2115249e-39
-0.06265714 0.014005715 0.77400005 8.3037206e-39
-0.06118286 0.014005715 0.77400005 8.5792284e-39
-0.059708573 0.014005715 0.77400005 8.5792284e-39
-0.058234289 0.014005715 0.77400005 8.2108187e-39
-0.056760002 0.014005715 0.77400005 7.2888624e-39
-0.055285718 0.014005715 0.77400005 7.7530523e-39
-0.053950477 0.014041905 0.77600002 1.3653573e-38
-0.052472383 0.014041905 0.77600002 1.4756699e-38
-0.050994288 0.014041905 0.77600002 1.429572e-38
-0.04951619 0.014041905 0.77600002 1.2457563e-38
-0.048038095 0.014041905 0.77600002 9.968281e-39
-0.046680003 0.014078096 0.77800006 7.027757e-39
-0.045198098 0.014078096 0.77800006 7.3043439e-39
-0.043716192 0.014078096 0.77800006 8.039388e-39
-0.04234286 0.014114286 0.78000003 8.039388e-39
-0.040857144 0.014114286 0.78000003 7.9464637e-39
-0.039371427 0.014114286 0.78000003 7.8542681e-39
-0.037885718 0.014114286 0.78000003 9.1414e-39
-0.036400001 0.014114286 0.78000003 1.1722878e-38
-0.034959048 0.014132381 0.78100002 1.3373761e-38
-0.033471428 0.014132381 0.78100002 9.962523e-39
-0.031983808 0.014132381 0.78100002 1.1435784e-38
-0.030652381 0.014204763 0.78500003 1.3371892e-38
-0.029231431 0.014240953 0.78700006 1.3096802e-38
-0.027838096 0.014295238 0.79000002 1.291241e-38
-0.026466668 0.01436762 0.79400003 1.1532713e-38
-0.025017144 0.014403811 0.79600006 1.0057583e-38
-0.023560001 0.01444 0.79800004 9.3218227e-39
-0.02204 0.01444 0.79800004 6.5559538e-39
-0.020571429 0.01447619 0.80000001 6.0967778e-39
-0.019047618 0.01447619 0.80000001 9.1392336e-39
-0.01756762 0.014512382 0.80200005 1.198758e-38
-0.09579429 0.015840001 0.79200006 8.7639672e-39
-0.094047621 0.015799999 0.79000002 7.2888371e-39
-0.092542864 0.015799999 0.79000002 7.8380382e-39
-0.0910381 0.015799999 0.79000002 8.5756033e-39
-0.089193337 0.01574 0.78700006 1.0973037e-38
-0.087694295 0.01574 0.78700006 1.134182e-38
-0.085976191 0.015700001 0.78500003 7.6641469e-39
-0.084265716 0.015660001 0.78300005 3.5153436e-39
-0.082562856 0.015620001 0.78100002 9.4857396e-40
-0.081075244 0.015620001 0.78100002 1.3173565e-39
-0.079587616 0.015620001 0.78100002 1.2258993e-39
-0.078100003 0.015620001 0.78100002 5.0981158e-39
-0.076514289 0.015600001 0.78000003 1.1070315e-38
-0.075028576 0.015600001 0.78000003 1.3467402e-38
-0.073354289 0.015560001 0.77800006 1.4294273e-38
-0.071872383 0.015560001 0.77800006 1.3280121e-38
-0.070209526 0.015520001 0.77600002 1.0334215e-38
-0.068731427 0.015520001 0.77600002 7.5683457e-39
-0.067253336 0.015520001 0.77600002 5.635815e-39
-0.065775238 0.015520001 0.77600002 6.7421626e-39
-0.06429714 0.015520001 0.77600002 8.2118781e-39
-0.062819049 0.015520001 0.77600002 8.3962693e-39
-0.06118286 0.015480001 0.77400005 8.7636197e-39
-0.059708573 0.015480001 0.77400005 8.3948372e-39
-0.058384761 0.015520001 0.77600002 7.5657996e-39
-0.05690667 0.015520001 0.77600002 8.211169e-39
-0.055428572 0.015520001 0.77600002 1.0054731e-38
-0.053950477 0.015520001 0.77600002 1.4019143e-38
-0.052472383 0.015520001 0.77600002 1.4940361e-38
-0.050994288 0.015520001 0.77600002 1.4663774e-38
-0.04951619 0.015520001 0.77600002 1.3561753e-38
-0.048038095 0.015520001 0.77600002 1.1810036e-38
-0.046680003 0.015560001 0.77800006 8.6847574e-39
-0.045198098 0.015560001 0.77800006 7.9471924e-39
-0.043828573 0.015600001 0.78000003 7.7635102e-39
-0.04234286 0.015600001 0.78000003 7.6713146e-39
-0.040857144 0.015600001 0.78000003 7.0262955e-39
-0.039371427 0.015600001 0.78000003 7.7638605e-39
-0.037885718 0.015600001 0.78000003 1.024453e-38
-0.036400001 0.015600001 0.78000003 1.2641617e-38
-0.034959048 0.015620001 0.78100002 1.4017333e-38
-0.033471428 0.015620001 0.78100002 8.0246169e-39
-0.032065716 0.015660001 0.78300005 8.1149614e-39
-0.030730478 0.01574 0.78700006 1.0973026e-38
-0.029305715 0.01578 0.78900003 1.3092821e-38
-0.027908573 0.015840001 0.79200006 1.373819e-38
-0.026466668 0.01588 0.79400003 1.2361054e-38
-0.025017144 0.015920002 0.79600006 1.033275e-38
-0.023560001 0.01596 0.79800004 9.2296299e-39
-0.02204 0.01596 0.79800004 6.463761e-39
-0.020571429 0.016000001 0.80000001 5.6364933e-39
-0.019095238 0.016040001 0.80200005 9.4165141e-39
-0.017589524 0.01606 0.80300003 1.2171971e-38
-0.097794287 0.017436191 0.79600006 1.1526592e-38
-0.09579429 0.017348573 0.79200006 8.9480054e-39
-0.094285719 0.017348573 0.79200006 4.5226151e-39
-0.092542864 0.017304761 0.79000002 4.2467345e-39
-0.0910381 0.017304761 0.79000002 4.7077126e-39
-0.089420006 0.017282858 0.78900003 7.2866791e-39
-0.087694295 0.017239049 0.78700006 1.2449634e-38
-0.085976191 0.017195238 0.78500003 1.060936e-38
-0.084480956 0.017195238 0.78500003 6.5527519e-39
-0.082985714 0.017195238 0.78500003 2.2389316e-39
-0.081490479 0.017195238 0.78500003 3.1608879e-39
-0.079995237 0.017195238 0.78500003 7.5730023e-39
-0.078299999 0.017151428 0.78300005 1.1906197e-38
-0.076612383 0.017107621 0.78100002 1.2914575e-38
-0.075124763 0.017107621 0.78100002 1.2361402e-38
-0.073542856 0.017085714 0.78000003 1.309895e-38
-0.072057143 0.017085714 0.78000003 1.3744319e-38
-0.07057143 0.017085714 0.78000003 1.3096834e-38
-0.068908572 0.017041905 0.77800006 1.1529508e-38
-0.067426667 0.017041905 0.77800006 8.491374e-39
-0.065775238 0.016998095 0.77600002 6.002092e-39
-0.06429714 0.016998095 0.77600002 6.5545217e-39
-0.062980957 0.017041905 0.77800006 7.1076955e-39
-0.061340958 0.016998095 0.77600002 7.6579952e-39
-0.05986286 0.016998095 0.77600002 7.3814083e-39
-0.058384761 0.016998095 0.77600002 7.6583736e-39
-0.05690667 0.016998095 0.77600002 1.3282307e-38
-0.055428572 0.016998095 0.77600002 1.4203512e-38
-0.054089524 0.017041905 0.77800006 1.4019121e-38
-0.052607622 0.017041905 0.77800006 1.300784e-38
-0.051125716 0.017041905 0.77800006 1.2915645e-38
-0.049643811 0.017041905 0.77800006 1.3652859e-38
-0.048161909 0.017041905 0.77800006 1.4390424e-38
-0.046800002 0.017085714 0.78000003 1.3009651e-38
-0.045314286 0.017085714 0.78000003 1.1442325e-38
-0.043828573 0.017085714 0.78000003 9.0517253e-39
-0.04234286 0.017085714 0.78000003 7.3922039e-39
-0.040857144 0.017085714 0.78000003 8.0379363e-39
-0.039371427 0.017085714 0.78000003 1.0619414e-38
-0.037934288 0.017107621 0.78100002 1.2914238e-38
-0.036446668 0.017107621 0.78100002 1.245326e-38
-0.034959048 0.017107621 0.78100002 1.1529811e-38
-0.033557143 0.017151428 0.78300005 6.8278338e-39
-0.03214762 0.017195238 0.78500003 6.3676123e-39
-0.030808574 0.017282858 0.78900003 6.5520036e-39
-0.029305715 0.017282858 0.78900003 8.3022478e-39
-0.027908573 0.017348573 0.79200006 1.1805682e-38
-0.026466668 0.017392382 0.79400003 1.1898997e-38
-0.025017144 0.017436191 0.79600006 1.0884845e-38
-0.023500955 0.017436191 0.79600006 9.0462896e-39
-0.02204 0.017479999 0.79800004 6.0038338e-39
-0.020571429 0.017523808 0.80000001 5.6368842e-39
-0.019119048 0.017589524 0.80300003 9.416905e-39
-0.017589524 0.017589524 0.80300003 1.2540751e-38
-0.097794287 0.018952383 0.79600006 1.2448555e-38
-0.096036196 0.018904762 0.79400003 8.6739422e-39
-0.094285719 0.018857144 0.79200006 2.7734219e-39
-0.092777148 0.018857144 0.79200006 2.864879e-39
-0.091268577 0.018857144 0.79200006 3.6946397e-39
-0.089533336 0.018809523 0.79000002 6.0888156e-39
-0.087917142 0.018785715 0.78900003 1.1159575e-38
-0.086195245 0.018738097 0.78700006 1.1807154e-38
-0.084480956 0.018690476 0.78500003 8.1193293e-39
-0.082985714 0.018690476 0.78500003 5.4535565e-39
-0.081490479 0.018690476 0.78500003 6.5599041e-39
-0.079995237 0.018690476 0.78500003 1.1436564e-38
-0.078500003 0.018690476 0.78500003 1.3833651e-38
-0.076808572 0.018642858 0.78300005 1.3006418e-38
-0.075317152 0.018642858 0.78300005 1.107031e-38
-0.073637143 0.018595237 0.78100002 1.051965e-38
-0.07214953 0.018595237 0.78100002 1.199478e-38
-0.07057143 0.018571429 0.78000003 1.4294273e-38
-0.069085717 0.018571429 0.78000003 1.3556708e-38
-0.067600004 0.018571429 0.78000003 1.0979224e-38
-0.065944768 0.01852381 0.77800006 8.1211594e-39
-0.064462863 0.01852381 0.77800006 6.0024424e-39
-0.062980957 0.01852381 0.77800006 6.3712249e-39
-0.061499052 0.01852381 0.77800006 7.1062283e-39
-0.060017146 0.01852381 0.77800006 8.8579453e-39
-0.058384761 0.018476192 0.77600002 1.0056176e-38
-0.05690667 0.018476192 0.77600002 1.4204979e-38
-0.055428572 0.018476192 0.77600002 1.4850333e-38
-0.054089524 0.01852381 0.77800006 1.1531291e-38
-0.052607622 0.01852381 0.77800006 9.3239779e-39
-0.051125716 0.01852381 0.77800006 1.0430325e-38
-0.049643811 0.01852381 0.77800006 1.3098944e-38
-0.048161909 0.01852381 0.77800006 1.4574074e-38
-0.046800002 0.018571429 0.78000003 1.46645e-38
-0.045314286 0.018571429 0.78000003 1.3465957e-38
-0.043828573 0.018571429 0.78000003 1.0248483e-38
-0.04234286 0.018571429 0.78000003 7.7592012e-39
-0.040909525 0.018595237 0.78100002 9.0481323e-39
-0.039421905 0.018595237 0.78100002 1.1998392e-38
-0.037934288 0.018595237 0.78100002 1.4387197e-38
-0.036446668 0.018595237 0.78100002 1.0791568e-38
-0.035048574 0.018642858 0.78300005 8.6728506e-39
-0.033642858 0.018690476 0.78500003 6.828938e-39
-0.032229528 0.018738097 0.78700006 6.9204302e-39
-0.030808574 0.018785715 0.78900003 6.1828651e-39
-0.029305715 0.018785715 0.78900003 5.0822167e-39
-0.027908573 0.018857144 0.79200006 9.7841938e-39
-0.026466668 0.018904762 0.79400003 1.1163587e-38
-0.025017144 0.018952383 0.79600006 1.0333826e-38
-0.023500955 0.018952383 0.79600006 8.2176332e-39
-0.02204 0.019000001 0.79800004 5.8205468e-39
-0.020571429 0.019047618 0.80000001 5.6365185e-39
-0.096036196 0.020417145 0.79400003 1.0698621e-38
-0.094285719 0.020365715 0.79200006 2.5854055e-39
-0.092777148 0.020365715 0.79200006 1.9461822e-39
-0.091268577 0.020365715 0.79200006 3.974486e-39
-0.089533336 0.020314286 0.79000002 4.7988545e-39
-0.088028572 0.020314286 0.79000002 7.1959409e-39
-0.086414285 0.020288572 0.78900003 9.410396e-39
-0.084696196 0.020237144 0.78700006 1.1899678e-38
-0.083197154 0.020237144 0.78700006 1.1899703e-38
-0.081698097 0.020237144 0.78700006 1.2545073e-38
-0.079995237 0.020185716 0.78500003 1.2361029e-38
-0.078500003 0.020185716 0.78500003 1.2268833e-38
-0.076808572 0.020134287 0.78300005 9.9683034e-39
-0.075317152 0.020134287 0.78300005 8.4009777e-39
-0.073637143 0.020082857 0.78100002 7.8517598e-39
-0.07214953 0.020082857 0.78100002 8.8659117e-39
-0.070661902 0.020082857 0.78100002 1.1810001e-38
-0.069085717 0.020057144 0.78000003 1.4022696e-38
-0.067600004 0.020057144 0.78000003 1.4387916e-38
-0.066114292 0.020057144 0.78000003 1.282059e-38
-0.064628571 0.020057144 0.78000003 9.1360372e-39
-0.062980957 0.020005716 0.77800006 5.9091901e-39
-0.061499052 0.020005716 0.77800006 7.7530649e-39
-0.060017146 0.020005716 0.77800006 1.3469194e-38
-0.058535244 0.020005716 0.77800006 1.4848166e-38
-0.057053339 0.020005716 0.77800006 1.5032557e-38
-0.055571433 0.020005716 0.77800006 1.2917455e-38
-0.054089524 0.020005716 0.77800006 7.2935217e-39
-0.052742857 0.020057144 0.78000003 1.411755e-39
-0.051257145 0.020057144 0.78000003 1.411755e-39
-0.049771432 0.020057144 0.78000003 6.561339e-39
-0.048285715 0.020057144 0.78000003 1.0617947e-38
-0.046800002 0.020057144 0.78000003 1.3741828e-38
-0.045314286 0.020057144 0.78000003 1.4940371e-38
-0.043828573 0.020057144 0.78000003 1.4112766e-38
-0.042397145 0.020082857 0.78100002 1.2914222e-38
-0.040909525 0.020082857 0.78100002 1.2914591e-38
-0.039421905 0.020082857 0.78100002 1.3098982e-38
-0.037934288 0.020082857 0.78100002 1.245178e-38
-0.036540005 0.020134287 0.78300005 7.3810202e-39
-0.035048574 0.020134287 0.78300005 6.0010004e-39
-0.033728573 0.020237144 0.78700006 6.8307611e-39
-0.032229528 0.020237144 0.78700006 7.6569162e-39
-0.030808574 0.020288572 0.78900003 7.2881337e-39
-0.029342858 0.020314286 0.79000002 6.0017039e-39
-0.027908573 0.020365715 0.79200006 8.5831815e-39
-0.026466668 0.020417145 0.79400003 1.0424555e-38
-0.025017144 0.020468574 0.79600006 1.0424555e-38
-0.023560001 0.020520002 0.79800004 8.4927809e-39
-0.02204 0.020520002 0.79800004 6.1878902e-39
-0.096036196 0.021929525 0.79400003 1.0973798e-38
-0.09452381 0.021929525 0.79400003 3.4137564e-39
-0.092777148 0.021874288 0.79200006 2.1312825e-39
-0.091268577 0.021874288 0.79200006 4.1595863e-39
-0.089760005 0.021874288 0.79200006 5.1687006e-39
-0.088028572 0.021819048 0.79000002 5.2608962e-39
-0.086414285 0.021791428 0.78900003 8.1167537e-39
-0.084911436 0.021791428 0.78900003 1.2449948e-38
-0.083197154 0.021736192 0.78700006 1.3002811e-38
-0.081698097 0.021736192 0.78700006 1.3463789e-38
-0.080199055 0.021736192 0.78700006 1.1994054e-38
-0.078500003 0.021680953 0.78500003 1.0703315e-38
-0.076808572 0.021625714 0.78300005 8.2216115e-39
-0.075317152 0.021625714 0.78300005 7.5762421e-39
-0.073825717 0.021625714 0.78300005 7.0252291e-39
-0.07214953 0.021570476 0.78100002 7.301816e-39
-0.070661902 0.021570476 0.78100002 9.6005648e-39
-0.06917429 0.021570476 0.78100002 1.1997651e-38
-0.067686662 0.021570476 0.78100002 1.4571576e-38
-0.066114292 0.021542858 0.78000003 1.3834011e-38
-0.064628571 0.021542858 0.78000003 1.1717853e-38
-0.063142858 0.021542858 0.78000003 8.5832011e-39
-0.061657146 0.021542858 0.78000003 9.0434506e-39
-0.060171433 0.021542858 0.78000003 1.4022015e-38
-0.058535244 0.021487622 0.77800006 1.5401349e-38
-0.057053339 0.021487622 0.77800006 1.3649632e-38
-0.055571433 0.021487622 0.77800006 8.8676969e-39
-0.054089524 0.021487622 0.77800006 4.2579154e-39
-0.052742857 0.021542858 0.78000003 1.4146094e-39
-0.051257145 0.021542858 0.78000003 1.3224138e-39
-0.049771432 0.021542858 0.78000003 3.6193479e-39
-0.048285715 0.021542858 0.78000003 6.4774125e-39
-0.046800002 0.021542858 0.78000003 1.1806766e-38
-0.045314286 0.021542858 0.78000003 1.3742875e-38
-0.043884765 0.021570476 0.78100002 1.5124036e-38
-0.042397145 0.021570476 0.78100002 1.5124036e-38
-0.040909525 0.021570476 0.78100002 1.4386847e-38
-0.039421905 0.021570476 0.78100002 1.198976e-38
-0.037934288 0.021570476 0.78100002 1.0697915e-38
-0.036540005 0.021625714 0.78300005 7.4710676e-39
-0.035138097 0.021680953 0.78500003 6.7371179e-39
-0.033728573 0.021736192 0.78700006 7.3824873e-39
-0.032229528 0.021736192 0.78700006 8.1164552e-39
-0.030847618 0.021819048 0.79000002 7.5632815e-39
-0.029342858 0.021819048 0.79000002 6.2768558e-39
-0.027979048 0.021929525 0.79400003 8.9505291e-39
-0.026533335 0.021984763 0.79600006 9.5033399e-39
-0.025080001 0.02204 0.79800004 9.9643181e-39
-0.023560001 0.02204 0.79800004 7.8467025e-39
-0.022095239 0.022095239 0.80000001 5.9105942e-39
-0.09452381 0.023441905 0.79400003 3.9680092e-39
-0.093011431 0.023441905 0.79400003 1.6710498e-39
-0.091499053 0.023441905 0.79400003 3.6993537e-39
-0.089760005 0.023382859 0.79200006 5.1662077e-39
-0.088251434 0.023382859 0.79200006 5.3505989e-39
-0.086523816 0.02332381 0.79000002 5.353082e-39
-0.084911436 0.023294287 0.78900003 1.023945e-38
-0.083197154 0.023235239 0.78700006 1.2358142e-38
-0.081698097 0.023235239 0.78700006 1.2450338e-38
-0.080199055 0.023235239 0.78700006 1.0980603e-38
-0.078700006 0.023235239 0.78700006 8.8601033e-39
-0.077004768 0.023176191 0.78500003 7.3922165e-39
-0.075509526 0.023176191 0.78500003 7.7609991e-39
-0.073825717 0.023117144 0.78300005 7.6695167e-39
