# .PCD v0.7 - Point Cloud Data file format
VERSION 0.7
FIELDS x y z rgb
SIZE 4 4 4 4
TYPE F F F F
COUNT 1 1 1 1
WIDTH 968
HEIGHT 1
VIEWPOINT 0 0 0 1 0 0 0
POINTS 968
DATA ascii
-0.13853049 -0.00082952384 0.87100005 9.4957589e-39
-0.13655715 -0.00082761905 0.86900002 9.3113677e-39
-0.13459145 -0.00082571432 0.86700004 9.4039388e-39
-0.13294001 -0.00082571432 0.86700004 9.4961345e-39
-0.13128859 -0.00082571432 0.86700004 9.4950807e-39
-0.12963715 -0.00082571432 0.86700004 1.6409753e-38
-0.12798572 -0.00082571432 0.86700004 1.8070343e-38
-0.12589714 -0.00082285714 0.86400002 1.6779605e-38
-0.12425143 -0.00082285714 0.86400002 1.3562825e-38
-0.12260572 -0.00082285714 0.86400002 1.3009651e-38
-0.12068 -0.00082095241 0.86200005 1.2186036e-38
-0.1190381 -0.00082095241 0.86200005 1.273921e-38
-0.1173962 -0.00082095241 0.86200005 1.2831043e-38
-0.11548571 -0.00081904762 0.86000001 1.3015434e-38
-0.11384762 -0.00081904762 0.86000001 1.3198741e-38
-0.11220952 -0.00081904762 0.86000001 1.3659719e-38
-0.11057143 -0.00081904762 0.86000001 1.7061214e-38
-0.10868 -0.00081714289 0.85800004 2.093343e-38
-0.10704572 -0.00081714289 0.85800004 2.1666702e-38
-0.10541143 -0.00081714289 0.85800004 2.000718e-38
-0.10377715 -0.00081714289 0.85800004 1.5867362e-38
-0.10238095 -0.00081904762 0.86000001 9.6902549e-39
-0.10074285 -0.00081904762 0.86000001 5.8414514e-39
-0.099104762 -0.00081904762 0.86000001 6.7634077e-39
-0.09746667 -0.00081904762 0.86000001 7.5902915e-39
-0.096051432 -0.00082095241 0.86200005 7.6824871e-39
-0.094409525 -0.00082095241 0.86200005 7.6824871e-39
-0.092767626 -0.00082095241 0.86200005 6.5761396e-39
-0.091337144 -0.00082285714 0.86400002 6.8509188e-39
-0.08969143 -0.00082285714 0.86400002 8.787027e-39
-0.088045716 -0.00082285714 0.86400002 1.8166447e-38
-0.086400002 -0.00082285714 0.86400002 1.9641577e-38
-0.084754288 -0.00082285714 0.86400002 1.8346199e-38
-0.083397143 -0.00082571432 0.86700004 1.1892505e-38
-0.081745721 -0.00082571432 0.86700004 1.1343309e-38
-0.080279045 -0.00082761905 0.86900002 1.2449657e-38
-0.078985721 -0.00083142857 0.87300003 1.2263464e-38
-0.077322856 -0.00083142857 0.87300003 1.1157116e-38
-0.076093338 -0.00083619048 0.87800002 1.2538946e-38
-0.074590482 -0.00083809526 0.88000005 1.7794097e-38
-0.073080003 -0.00083999999 0.88200003 1.7885589e-38
-0.071400002 -0.00083999999 0.88200003 1.7516807e-38
-0.06972 -0.00083999999 0.88200003 1.613568e-38
-0.068425715 -0.0008447619 0.88700002 1.2908833e-38
-0.066736192 -0.0008447619 0.88700002 1.4011199e-38
-0.065046668 -0.0008447619 0.88700002 1.5578525e-38
-0.063357145 -0.0008447619 0.88700002 1.6036963e-38
-0.14250001 0.00083333335 0.87500006 8.1138909e-39
-0.14083335 0.00083333335 0.87500006 9.4046297e-39
-0.13884857 0.00083142857 0.87300003 9.6790964e-39
-0.13687144 0.00082952384 0.87100005 9.3103139e-39
-0.13490191 0.00082761905 0.86900002 9.2195476e-39
-0.13324666 0.00082761905 0.86900002 9.6805257e-39
-0.13159144 0.00082761905 0.86900002 8.4862789e-39
-0.12963715 0.00082571432 0.86700004 1.5585342e-38
-0.12798572 0.00082571432 0.86700004 1.6968322e-38
-0.12633428 0.00082571432 0.86700004 1.5493192e-38
-0.12425143 0.00082285714 0.86400002 1.1630326e-38
-0.12260572 0.00082285714 0.86400002 1.2367891e-38
-0.12096 0.00082285714 0.86400002 1.2277869e-38
-0.1190381 0.00082095241 0.86200005 1.2831043e-38
-0.1173962 0.00082095241 0.86200005 1.2739207e-38
-0.11548571 0.00081904762 0.86000001 1.3200185e-38
-0.11384762 0.00081904762 0.86000001 1.2465131e-38
-0.11220952 0.00081904762 0.86000001 1.1911958e-38
-0.11057143 0.00081904762 0.86000001 1.4026674e-38
-0.10893334 0.00081904762 0.86000001 1.9005238e-38
-0.10729524 0.00081904762 0.86000001 2.0656162e-38
-0.10565715 0.00081904762 0.86000001 1.8351272e-38
-0.10401905 0.00081904762 0.86000001 1.1545323e-38
-0.10238095 0.00081904762 0.86000001 6.7511505e-39
-0.10074285 0.00081904762 0.86000001 5.5666694e-39
-0.099104762 0.00081904762 0.86000001 6.8574082e-39
-0.097693332 0.00082095241 0.86200005 7.959067e-39
-0.096051432 0.00082095241 0.86200005 7.8668714e-39
-0.094409525 0.00082095241 0.86200005 7.9587111e-39
-0.092982858 0.00082285714 0.86400002 7.221146e-39
-0.091337144 0.00082285714 0.86400002 3.6363233e-39
-0.08969143 0.00082285714 0.86400002 6.2178009e-39
-0.088351429 0.00082571432 0.86700004 1.5772643e-38
-0.0867 0.00082571432 0.86700004 1.8815099e-38
-0.085048571 0.00082571432 0.86700004 1.7610457e-38
-0.083397143 0.00082571432 0.86700004 1.1525545e-38
-0.081934281 0.00082761905 0.86900002 1.1618081e-38
-0.080279045 0.00082761905 0.86900002 1.2263451e-38
-0.078985721 0.00083142857 0.87300003 1.1711697e-38
-0.077322856 0.00083142857 0.87300003 1.1711697e-38
-0.076093338 0.00083619048 0.87800002 1.4195273e-38
-0.074590482 0.00083809526 0.88000005 1.7883098e-38
-0.073080003 0.00083999999 0.88200003 1.7424243e-38
-0.071400002 0.00083999999 0.88200003 1.6686678e-38
-0.06972 0.00083999999 0.88200003 1.6319345e-38
-0.068425715 0.0008447619 0.88700002 1.4014455e-38
-0.066736192 0.0008447619 0.88700002 1.4472165e-38
-0.065046668 0.0008447619 0.88700002 1.5486317e-38
-0.063357145 0.0008447619 0.88700002 1.6127723e-38
-0.14298858 0.0025085714 0.87800002 1.1802085e-38
-0.14131619 0.0025085714 0.87800002 1.2631845e-38
-0.13916668 0.0025000002 0.87500006 1.1524444e-38
-0.13718571 0.0024942856 0.87300003 8.758575e-39
-0.13521239 0.0024885715 0.87100005 8.2075817e-39
-0.13324666 0.0024828573 0.86900002 8.8529511e-39
-0.13159144 0.0024828573 0.86900002 8.9461977e-39
-0.12993619 0.0024828573 0.86900002 1.5953066e-38
-0.12828095 0.0024828573 0.86900002 1.7428208e-38
-0.12662572 0.0024828573 0.86900002 1.6506252e-38
-0.12468287 0.002477143 0.86700004 1.3103321e-38
-0.12260572 0.0024685713 0.86400002 1.2550147e-38
-0.12096 0.0024685713 0.86400002 1.2002011e-38
-0.11931429 0.0024685713 0.86400002 1.264738e-38
-0.1173962 0.0024628574 0.86200005 1.2647012e-38
-0.11575429 0.0024628574 0.86200005 1.3292381e-38
-0.11411238 0.0024628574 0.86200005 1.2833198e-38
-0.11247049 0.0024628574 0.86200005 1.2464415e-38
-0.11082857 0.0024628574 0.86200005 1.3566071e-38
-0.10893334 0.0024571428 0.86000001 1.7346092e-38
-0.10729524 0.0024571428 0.86000001 2.0379197e-38
-0.10565715 0.0024571428 0.86000001 1.7705524e-38
-0.10401905 0.0024571428 0.86000001 1.1821554e-38
-0.10261905 0.0024628574 0.86200005 6.4742077e-39
-0.10097715 0.0024628574 0.86200005 4.8319924e-39
-0.099335246 0.0024628574 0.86200005 6.3993181e-39
-0.097693332 0.0024628574 0.86200005 7.8665154e-39
-0.096274287 0.0024685713 0.86400002 7.7743198e-39
-0.094628572 0.0024685713 0.86400002 7.5902915e-39
-0.092982858 0.0024685713 0.86400002 5.8385745e-39
-0.091337144 0.0024685713 0.86400002 6.0233189e-39
-0.090002865 0.002477143 0.86700004 1.1647252e-38
-0.088351429 0.002477143 0.86700004 1.9641244e-38
-0.0867 0.002477143 0.86700004 2.1946135e-38
-0.085048571 0.002477143 0.86700004 2.102131e-38
-0.083589524 0.0024828573 0.86900002 1.3830051e-38
-0.081934281 0.0024828573 0.86900002 9.2271538e-39
-0.080463812 0.0024885715 0.87100005 9.4115451e-39
-0.078985721 0.0024942856 0.87300003 1.1157819e-38
-0.077500008 0.0025000002 0.87500006 1.4753449e-38
-0.076266669 0.0025142857 0.88000005 1.6593794e-38
-0.074759997 0.0025200001 0.88200003 1.7146968e-38
-0.073080003 0.0025200001 0.88200003 1.318902e-38
-0.071642861 0.0025285715 0.88500005 1.0884129e-38
-0.069957145 0.0025285715 0.88500005 1.2449672e-38
-0.068425715 0.0025342857 0.88700002 1.4201389e-38
-0.066886671 0.0025400002 0.88900006 1.4932064e-38
-0.065193333 0.0025400002 0.88900006 1.5577433e-38
-0.063500002 0.0025400002 0.88900006 1.5852571e-38
-0.14364001 0.0042000003 0.88200003 1.3180716e-38
-0.14131619 0.0041809524 0.87800002 1.3733889e-38
-0.13916668 0.0041666669 0.87500006 1.1986158e-38
-0.13718571 0.0041571432 0.87300003 8.4827238e-39
-0.13521239 0.0041476195 0.87100005 7.8391172e-39
-0.13355334 0.0041476195 0.87100005 8.8532692e-39
-0.13189429 0.0041476195 0.87100005 1.0604283e-38
-0.13023524 0.0041476195 0.87100005 1.7426759e-38
-0.12828095 0.0041380953 0.86900002 1.8164687e-38
-0.12662572 0.0041380953 0.86900002 1.7519318e-38
-0.12468287 0.0041285716 0.86700004 1.4392978e-38
-0.12303144 0.0041285716 0.86700004 1.2917847e-38
-0.12096 0.004114286 0.86400002 1.1633939e-38
-0.11931429 0.004114286 0.86400002 1.2463699e-38
-0.11766857 0.004114286 0.86400002 1.2647012e-38
-0.11575429 0.0041047623 0.86200005 1.3292381e-38
-0.11411238 0.0041047623 0.86200005 1.2924312e-38
-0.11247049 0.0041047623 0.86200005 1.2555529e-38
-0.11082857 0.0041047623 0.86200005 1.3565721e-38
-0.10918667 0.0041047623 0.86200005 1.8359894e-38
-0.10754476 0.0041047623 0.86200005 2.0011859e-38
-0.10590286 0.0041047623 0.86200005 1.8905512e-38
-0.10426096 0.0041047623 0.86200005 1.1731919e-38
-0.10261905 0.0041047623 0.86200005 6.0157897e-39
-0.10097715 0.0041047623 0.86200005 5.197175e-39
-0.099335246 0.0041047623 0.86200005 6.8566963e-39
-0.097920001 0.004114286 0.86400002 7.8668714e-39
-0.096274287 0.004114286 0.86400002 7.4058932e-39
-0.094628572 0.004114286 0.86400002 5.8436122e-39
-0.092982858 0.004114286 0.86400002 4.0918952e-39
-0.091654293 0.0041285716 0.86700004 8.5950757e-39
-0.090002865 0.0041285716 0.86700004 1.5786335e-38
-0.088351429 0.0041285716 0.86700004 2.0835862e-38
-0.086900003 0.0041380953 0.86900002 2.1757818e-38
-0.085244767 0.0041380953 0.86900002 2.1206074e-38
-0.083589524 0.0041380953 0.86900002 1.7610444e-38
-0.082122862 0.0041476195 0.87100005 1.2914993e-38
-0.080463812 0.0041476195 0.87100005 9.2271678e-39
-0.079166673 0.0041666669 0.87500006 1.1524413e-38
-0.077765711 0.0041809524 0.87800002 1.7424933e-38
-0.076266669 0.0041904761 0.88000005 1.8347659e-38
-0.074759997 0.0042000003 0.88200003 1.410666e-38
-0.073080003 0.0042000003 0.88200003 1.1349388e-38
-0.071642861 0.0042142859 0.88500005 8.7679105e-39
-0.069957145 0.0042142859 0.88500005 1.1623111e-38
-0.068425715 0.0042238096 0.88700002 1.3559219e-38
-0.066886671 0.0042333333 0.88900006 1.4746944e-38
-0.065193333 0.0042333333 0.88900006 1.5761096e-38
-0.14364001 0.0058800001 0.88200003 1.2445697e-38
-0.14163812 0.0058666668 0.88000005 1.2076914e-38
-0.13964382 0.005853333 0.87800002 1.1709571e-38
-0.13750002 0.0058333338 0.87500006 1.087981e-38
-0.13552287 0.0058200001 0.87300003 1.0512045e-38
-0.13355334 0.0058066668 0.87100005 1.3738892e-38
-0.13189429 0.0058066668 0.87100005 1.6131717e-38
-0.13023524 0.0058066668 0.87100005 1.945076e-38
-0.12828095 0.0057933335 0.86900002 1.8347637e-38
-0.12662572 0.0057933335 0.86900002 1.7978854e-38
-0.12497048 0.0057933335 0.86900002 1.6140379e-38
-0.12303144 0.0057800002 0.86700004 1.5218422e-38
-0.12138 0.0057800002 0.86700004 1.3105822e-38
-0.11931429 0.0057600001 0.86400002 1.2737039e-38
-0.11766857 0.0057600001 0.86400002 1.237079e-38
-0.11602286 0.0057600001 0.86400002 1.2739573e-38
-0.11437714 0.0057600001 0.86400002 1.3106895e-38
-0.11273143 0.0057600001 0.86400002 1.4582025e-38
-0.11108571 0.0057600001 0.86400002 1.7797366e-38
-0.10944 0.0057600001 0.86400002 2.1116409e-38
-0.10779429 0.0057600001 0.86400002 2.1574847e-38
-0.10614857 0.0057600001 0.86400002 2.2220216e-38
-0.10450286 0.0057600001 0.86400002 1.9827118e-38
-0.10285714 0.0057600001 0.86400002 1.4664162e-38
-0.10121143 0.0057600001 0.86400002 7.1282666e-39
-0.099565722 0.0057600001 0.86400002 5.6531365e-39
-0.097920001 0.0057600001 0.86400002 4.0973014e-39
-0.096274287 0.0057600001 0.86400002 3.8207145e-39
-0.094628572 0.0057600001 0.86400002 6.0247608e-39
-0.093305722 0.0057800002 0.86700004 9.4359991e-39
-0.091654293 0.0057800002 0.86700004 1.697083e-38
-0.090002865 0.0057800002 0.86700004 2.0935242e-38
-0.088555239 0.0057933335 0.86900002 2.1021329e-38
-0.086900003 0.0057933335 0.86900002 1.9085221e-38
-0.085244767 0.0057933335 0.86900002 2.0285177e-38
-0.083781913 0.0058066668 0.87100005 2.1760307e-38
-0.082311429 0.0058200001 0.87300003 1.9729887e-38
-0.080648571 0.0058200001 0.87300003 1.5396693e-38
-0.079166673 0.0058333338 0.87500006 1.576543e-38
-0.077942863 0.0058666668 0.88000005 2.0098625e-38
-0.076439999 0.0058800001 0.88200003 1.788812e-38
-0.074759997 0.0058800001 0.88200003 1.0696861e-38
-0.073328577 0.0059000002 0.88500005 4.3598347e-39
-0.071642861 0.0059000002 0.88500005 3.4378784e-39
-0.069957145 0.0059000002 0.88500005 1.0148707e-38
-0.068425715 0.0059133335 0.88700002 1.3191162e-38
-0.066886671 0.0059266672 0.88900006 1.4930265e-38
-0.065193333 0.0059266672 0.88900006 1.6128808e-38
-0.14364001 0.0075600003 0.88200003 1.2999937e-38
-0.14163812 0.0075428574 0.88000005 1.0695046e-38
-0.13964382 0.0075257146 0.87800002 1.1433655e-38
-0.13750002 0.0075000003 0.87500006 1.1618046e-38
-0.13552287 0.0074828574 0.87300003 1.1340034e-38
-0.13386001 0.0074828574 0.87300003 1.6318598e-38
-0.13219714 0.0074828574 0.87300003 1.760758e-38
-0.13023524 0.0074657151 0.87100005 1.7791971e-38
-0.12857619 0.0074657151 0.87100005 1.6687759e-38
-0.12691714 0.0074657151 0.87100005 1.6872151e-38
-0.12497048 0.0074485713 0.86900002 1.724417e-38
-0.12331524 0.0074485713 0.86900002 1.7059779e-38
-0.12138 0.0074314289 0.86700004 1.5036185e-38
-0.11972857 0.0074314289 0.86700004 1.3468859e-38
-0.11766857 0.0074057141 0.86400002 1.181832e-38
-0.11602286 0.0074057141 0.86400002 1.2187103e-38
-0.11437714 0.0074057141 0.86400002 1.319802e-38
-0.11273143 0.0074057141 0.86400002 1.6056085e-38
-0.11108571 0.0074057141 0.86400002 1.9914271e-38
-0.10944 0.0074057141 0.86400002 2.0928423e-38
-0.10779429 0.0074057141 0.86400002 2.1110629e-38
-0.10614857 0.0074057141 0.86400002 2.2309172e-38
-0.10450286 0.0074057141 0.86400002 2.20362e-38
-0.10285714 0.0074057141 0.86400002 1.8993744e-38
-0.10121143 0.0074057141 0.86400002 1.1269884e-38
-0.099565722 0.0074057141 0.86400002 6.5679069e-39
-0.097920001 0.0074057141 0.86400002 3.1757053e-39
-0.096274287 0.0074057141 0.86400002 2.253749e-39
-0.094957143 0.0074314289 0.86700004 6.5743347e-39
-0.093305722 0.0074314289 0.86700004 1.3396811e-38
-0.091654293 0.0074314289 0.86700004 2.0193379e-38
-0.090002865 0.0074314289 0.86700004 2.1299727e-38
-0.088555239 0.0074485713 0.86900002 2.0101531e-38
-0.086900003 0.0074485713 0.86900002 1.6690293e-38
-0.085440956 0.0074657151 0.87100005 1.78881e-38
-0.083974287 0.0074828574 0.87300003 2.0653969e-38
-0.082311429 0.0074828574 0.87300003 2.166562e-38
-0.080648571 0.0074828574 0.87300003 1.9913903e-38
-0.079438098 0.0075257146 0.87800002 1.7335315e-38
-0.077942863 0.0075428574 0.88000005 1.8257271e-38
-0.076439999 0.0075600003 0.88200003 1.6691725e-38
-0.074759997 0.0075600003 0.88200003 8.3941183e-39
-0.073328577 0.0075857146 0.88500005 3.3503491e-39
-0.071642861 0.0075857146 0.88500005 3.8113272e-39
-0.069957145 0.0075857146 0.88500005 1.0792621e-38
-0.068580002 0.0076200003 0.88900006 1.3374099e-38
-0.066886671 0.0076200003 0.88900006 1.419305e-38
-0.065193333 0.0076200003 0.88900006 1.5852571e-38
-0.14364001 0.0092400005 0.88200003 1.3183975e-38
-0.14163812 0.0092190476 0.88000005 8.0210198e-39
-0.13996191 0.0092190476 0.88000005 8.2104459e-39
-0.13750002 0.0091666672 0.87500006 1.2174858e-38
-0.13552287 0.0091457143 0.87300003 1.4749133e-38
-0.13386001 0.0091457143 0.87300003 1.8436958e-38
-0.13219714 0.0091457143 0.87300003 1.7331709e-38
-0.13053429 0.0091457143 0.87300003 1.4104862e-38
-0.12857619 0.0091247624 0.87100005 9.5973713e-39
-0.12691714 0.0091247624 0.87100005 8.1222412e-39
-0.1252581 0.0091247624 0.87100005 1.1992269e-38
-0.12331524 0.0091038095 0.86900002 1.8630354e-38
-0.12166 0.0091038095 0.86900002 1.8902988e-38
-0.11972857 0.0090828575 0.86700004 1.6505902e-38
-0.11807714 0.0090828575 0.86700004 1.4302182e-38
-0.11642572 0.0090828575 0.86700004 1.4394377e-38
-0.11477429 0.0090828575 0.86700004 1.7153435e-38
-0.11312287 0.0090828575 0.86700004 2.0933455e-38
-0.11147143 0.0090828575 0.86700004 2.1573424e-38
-0.10982 0.0090828575 0.86700004 1.8530968e-38
-0.10816857 0.0090828575 0.86700004 1.6685961e-38
-0.10614857 0.0090514291 0.86400002 1.6870353e-38
-0.10450286 0.0090514291 0.86400002 1.9084493e-38
-0.10285714 0.0090514291 0.86400002 2.31411e-38
-0.10121143 0.0090514291 0.86400002 2.1392636e-38
-0.099565722 0.0090514291 0.86400002 1.7704811e-38
-0.09826 0.0090828575 0.86700004 1.1360967e-38
-0.096608572 0.0090828575 0.86700004 8.4107069e-39
-0.094957143 0.0090828575 0.86700004 1.2366874e-38
-0.093305722 0.0090828575 0.86700004 2.0295643e-38
-0.091654293 0.0090828575 0.86700004 2.1943642e-38
-0.090210475 0.0091038095 0.86900002 1.9085577e-38
-0.08875905 0.0091247624 0.87100005 1.5589359e-38
-0.087099999 0.0091247624 0.87100005 1.4390815e-38
-0.085440956 0.0091247624 0.87100005 1.4576986e-38
-0.083974287 0.0091457143 0.87300003 1.5406747e-38
-0.082311429 0.0091457143 0.87300003 1.8624949e-38
-0.080648571 0.0091457143 0.87300003 2.1022036e-38
-0.079438098 0.0091980947 0.87800002 2.0928405e-38
-0.077942863 0.0092190476 0.88000005 1.7148384e-38
-0.076439999 0.0092400005 0.88200003 1.2734127e-38
-0.075014293 0.0092714289 0.88500005 7.3867809e-39
-0.073328577 0.0092714289 0.88500005 3.3507372e-39
-0.071642861 0.0092714289 0.88500005 2.7975635e-39
-0.070115238 0.0092923809 0.88700002 1.097669e-38
-0.068734288 0.0093342857 0.89100003 1.4203537e-38
-0.067037143 0.0093342857 0.89100003 1.5023537e-38
-0.06570667 0.0093866661 0.89600003 1.557671e-38
-0.14364001 0.01092 0.88200003 1.3460915e-38
-0.14163812 0.010895238 0.88000005 8.4823511e-39
-0.13996191 0.010895238 0.88000005 7.7523012e-39
-0.13797143 0.010870476 0.87800002 1.19933e-38
-0.13583335 0.010833334 0.87500006 1.5301951e-38
-0.13386001 0.010808571 0.87300003 1.8160015e-38
-0.13219714 0.010808571 0.87300003 1.6138198e-38
-0.13053429 0.010808571 0.87300003 1.0145482e-38
-0.12887143 0.010808571 0.87300003 5.64481e-39
-0.12720858 0.010808571 0.87300003 3.7087017e-39
-0.1252581 0.01078381 0.87100005 1.0058271e-38
-0.12359905 0.01078381 0.87100005 1.6419769e-38
-0.12166 0.010759047 0.86900002 1.9729849e-38
-0.12000477 0.010759047 0.86900002 1.8070328e-38
-0.11807714 0.010734286 0.86700004 1.6323659e-38
-0.11642572 0.010734286 0.86700004 1.6692441e-38
-0.11477429 0.010734286 0.86700004 1.9913543e-38
-0.11312287 0.010734286 0.86700004 2.1941847e-38
-0.11147143 0.010734286 0.86700004 2.1296837e-38
-0.10982 0.010734286 0.86700004 1.5857295e-38
-0.10816857 0.010734286 0.86700004 1.3830401e-38
-0.10651714 0.010734286 0.86700004 1.4014792e-38
-0.10486572 0.010734286 0.86700004 1.8156732e-38
-0.10321429 0.010734286 0.86700004 2.2766514e-38
-0.10156287 0.010734286 0.86700004 2.3232936e-38
-0.099911429 0.010734286 0.86700004 2.0743654e-38
-0.09826 0.010734286 0.86700004 1.6697133e-38
-0.096608572 0.010734286 0.86700004 1.5037611e-38
-0.094957143 0.010734286 0.86700004 1.8074319e-38
-0.093305722 0.010734286 0.86700004 2.194653e-38
-0.091865711 0.010759047 0.86900002 2.1482673e-38
-0.090210475 0.010759047 0.86900002 1.6965088e-38
-0.08875905 0.01078381 0.87100005 1.4119974e-38
-0.087099999 0.01078381 0.87100005 1.3751191e-38
-0.085637145 0.010808571 0.87300003 1.2832116e-38
-0.083974287 0.010808571 0.87300003 1.2186747e-38
-0.082311429 0.010808571 0.87300003 1.6047062e-38
-0.080833338 0.010833334 0.87500006 2.0472452e-38
-0.079438098 0.010870476 0.87800002 2.0745481e-38
-0.077942863 0.010895238 0.88000005 1.4568374e-38
-0.076439999 0.01092 0.88200003 8.8666053e-39
-0.075014293 0.010957144 0.88500005 6.469519e-39
-0.073328577 0.010957144 0.88500005 3.902797e-39
-0.071804762 0.010981904 0.88700002 4.3637751e-39
-0.070273332 0.011006667 0.88900006 1.1990101e-38
-0.069120005 0.011093334 0.89600003 1.4479383e-38
-0.067413338 0.011093334 0.89600003 1.4656183e-38
-0.06570667 0.011093334 0.89600003 1.5393748e-38
-0.14364001 0.0126 0.88200003 1.4197761e-38
-0.14196 0.0126 0.88200003 9.4035885e-39
-0.13996191 0.012571429 0.88000005 7.569024e-39
-0.13797143 0.012542857 0.87800002 1.0703675e-38
-0.13583335 0.012500001 0.87500006 1.429173e-38
-0.13416667 0.012500001 0.87500006 1.5490273e-38
-0.13250001 0.012500001 0.87500006 1.3650673e-38
-0.13083334 0.012500001 0.87500006 8.0267399e-39
-0.12887143 0.012471429 0.87300003 3.9010272e-39
-0.12720858 0.012471429 0.87300003 3.9010272e-39
-0.12554571 0.012471429 0.87300003 6.7486268e-39
-0.12359905 0.012442858 0.87100005 8.3159525e-39
-0.12194 0.012442858 0.87100005 1.4388226e-38
-0.12000477 0.012414285 0.86900002 1.9090203e-38
-0.11807714 0.012385715 0.86700004 2.019084e-38
-0.11642572 0.012385715 0.86700004 2.1389383e-38
-0.11477429 0.012385715 0.86700004 2.0835499e-38
-0.11312287 0.012385715 0.86700004 1.8161826e-38
-0.11147143 0.012385715 0.86700004 1.5210153e-38
-0.10982 0.012385715 0.86700004 1.2813067e-38
-0.10816857 0.012385715 0.86700004 1.2724429e-38
-0.10651714 0.012385715 0.86700004 1.290882e-38
-0.10486572 0.012385715 0.86700004 1.4289199e-38
-0.10321429 0.012385715 0.86700004 1.6317503e-38
-0.10156287 0.012385715 0.86700004 1.9174861e-38
-0.099911429 0.012385715 0.86700004 2.2678295e-38
-0.09826 0.012385715 0.86700004 2.221951e-38
-0.096831433 0.012414285 0.86900002 2.2311705e-38
-0.095176198 0.012414285 0.86900002 2.1759611e-38
-0.093520947 0.012414285 0.86900002 1.9823502e-38
-0.092077151 0.012442858 0.87100005 1.7338909e-38
-0.0904181 0.012442858 0.87100005 1.5402801e-38
-0.08875905 0.012442858 0.87100005 1.3844839e-38
-0.087099999 0.012442858 0.87100005 1.402923e-38
-0.085637145 0.012471429 0.87300003 1.3568968e-38
-0.083974287 0.012471429 0.87300003 1.2739207e-38
-0.082500003 0.012500001 0.87500006 1.4574825e-38
-0.080833338 0.012500001 0.87500006 1.7801672e-38
-0.079438098 0.012542857 0.87800002 1.8811871e-38
-0.077942863 0.012571429 0.88000005 1.2542569e-38
-0.076439999 0.0126 0.88200003 4.2701754e-39
-0.075014293 0.012642858 0.88500005 2.7950453e-39
-0.073494285 0.012671429 0.88700002 4.8207974e-39
-0.07196667 0.012700001 0.88900006 7.6788619e-39
-0.070431434 0.012728572 0.89100003 1.3187925e-38
-0.069120005 0.012800001 0.89600003 1.4755251e-38
-0.067413338 0.012800001 0.89600003 1.5393386e-38
-0.06570667 0.012800001 0.89600003 1.5393386e-38
-0.14364001 0.014280001 0.88200003 1.465909e-38
-0.14196 0.014280001 0.88200003 1.0049308e-38
-0.13996191 0.01424762 0.88000005 7.0172725e-39
-0.13828573 0.01424762 0.88000005 9.2299676e-39
-0.13629904 0.014215238 0.87800002 1.1622407e-38
-0.13416667 0.014166667 0.87500006 1.3558516e-38
-0.13250001 0.014166667 0.87500006 1.0430707e-38
-0.13083334 0.014166667 0.87500006 6.2819033e-39
-0.12916668 0.014166667 0.87500006 4.1776014e-39
-0.12720858 0.014134286 0.87300003 5.4683402e-39
-0.12554571 0.014134286 0.87300003 3.9038914e-39
-0.12388287 0.014134286 0.87300003 2.520957e-39
-0.12194 0.014101906 0.87100005 9.4179336e-39
-0.12000477 0.014069525 0.86900002 1.6056019e-38
-0.11834953 0.014069525 0.86900002 2.1018789e-38
-0.11669429 0.014069525 0.86900002 2.2125136e-38
-0.11477429 0.014037143 0.86700004 2.1018453e-38
-0.11312287 0.014037143 0.86700004 1.4656954e-38
-0.11147143 0.014037143 0.86700004 1.3918293e-38
-0.10982 0.014037143 0.86700004 1.3826098e-38
-0.1084181 0.014069525 0.86900002 1.3553111e-38
-0.10651714 0.014037143 0.86700004 1.3737502e-38
-0.10486572 0.014037143 0.86700004 1.2818397e-38
-0.10321429 0.014037143 0.86700004 1.2357419e-38
-0.10179714 0.014069525 0.86900002 1.5946189e-38
-0.10014191 0.014069525 0.86900002 2.0832558e-38
-0.098486669 0.014069525 0.86900002 2.3230768e-38
-0.096831433 0.014069525 0.86900002 2.3508795e-38
-0.095176198 0.014069525 0.86900002 2.2127327e-38
-0.093520947 0.014069525 0.86900002 1.7609741e-38
-0.092077151 0.014101906 0.87100005 1.4947223e-38
-0.0904181 0.014101906 0.87100005 1.4578441e-38
-0.08875905 0.014101906 0.87100005 1.3753722e-38
-0.087300003 0.014134286 0.87300003 1.3845918e-38
-0.085637145 0.014134286 0.87300003 1.3937387e-38
-0.084166676 0.014166667 0.87500006 1.2923235e-38
-0.082500003 0.014166667 0.87500006 1.3198002e-38
-0.080833338 0.014166667 0.87500006 1.6793632e-38
-0.079438098 0.014215238 0.87800002 1.7159928e-38
-0.077942863 0.01424762 0.88000005 1.162819e-38
-0.076439999 0.014280001 0.88200003 3.3511002e-39
-0.075014293 0.014328572 0.88500005 1.6915788e-39
-0.073494285 0.014360953 0.88700002 5.6461973e-39
-0.072128572 0.014425715 0.89100003 9.8871962e-39
-0.070668571 0.014474287 0.89400005 1.4474717e-38
-0.069120005 0.014506667 0.89600003 1.4843499e-38
-0.067413338 0.014506667 0.89600003 1.5301197e-38
-0.14412858 0.016014285 0.88500005 1.4749836e-38
-0.14244285 0.016014285 0.88500005 1.2076163e-38
-0.14028001 0.01596 0.88200003 7.7541467e-39
-0.13828573 0.015923811 0.88000005 8.676103e-39
-0.13660952 0.015923811 0.88000005 1.1990477e-38
-0.13462667 0.01588762 0.87800002 1.4110976e-38
-0.13295428 0.01588762 0.87800002 1.1718556e-38
-0.13083334 0.015833335 0.87500006 6.9243832e-39
-0.12916668 0.015833335 0.87500006 4.0857813e-39
-0.12750001 0.015833335 0.87500006 5.2843245e-39
-0.12554571 0.015797142 0.87300003 5.7427789e-39
-0.12388287 0.015797142 0.87300003 4.8208226e-39
-0.12194 0.015760954 0.87100005 5.9228472e-39
-0.12000477 0.015724761 0.86900002 9.8872593e-39
-0.11834953 0.015724761 0.86900002 1.9362062e-38
-0.11669429 0.015724761 0.86900002 2.0929387e-38
-0.11503904 0.015724761 0.86900002 2.0004972e-38
-0.11338381 0.015724761 0.86900002 1.2905908e-38
-0.11172857 0.015724761 0.86900002 1.2264517e-38
-0.11007334 0.015724761 0.86900002 1.3555256e-38
-0.1084181 0.015724761 0.86900002 1.4013736e-38
-0.10676286 0.015724761 0.86900002 1.4105931e-38
-0.10510762 0.015724761 0.86900002 1.3922622e-38
-0.10345238 0.015724761 0.86900002 1.3277253e-38
-0.10179714 0.015724761 0.86900002 1.2998858e-38
-0.10014191 0.015724761 0.86900002 1.6133509e-38
-0.098713338 0.015760954 0.87100005 2.0925823e-38
-0.097054288 0.015760954 0.87100005 2.350766e-38
-0.095395245 0.015760954 0.87100005 2.1758885e-38
-0.093736194 0.015760954 0.87100005 1.6411538e-38
-0.092077151 0.015760954 0.87100005 1.3385302e-38
-0.0904181 0.015760954 0.87100005 1.4030672e-38
-0.08896286 0.015797142 0.87300003 1.3754441e-38
-0.087300003 0.015797142 0.87300003 1.3662245e-38
-0.085833341 0.015833335 0.87500006 1.3661882e-38
-0.084166676 0.015833335 0.87500006 1.2924317e-38
-0.082500003 0.015833335 0.87500006 1.4669182e-38
-0.080833338 0.015833335 0.87500006 1.808042e-38
-0.07961905 0.015923811 0.88000005 1.9180657e-38
-0.077942863 0.015923811 0.88000005 1.6875766e-38
-0.076439999 0.01596 0.88200003 8.5940556e-39
-0.075183809 0.016050477 0.88700002 4.0764697e-39
-0.073660001 0.016086668 0.88900006 5.0966612e-39
-0.072128572 0.016122857 0.89100003 1.081279e-38
-0.070826672 0.016213333 0.89600003 1.5122585e-38
-0.069274291 0.016249524 0.89800006 1.3647455e-38
-0.067563809 0.016249524 0.89800006 1.4656549e-38
-0.14445429 0.01774 0.88700002 1.4748755e-38
-0.14276476 0.01774 0.88700002 1.2443864e-38
-0.14075716 0.017700002 0.88500005 8.1228816e-39
-0.13859999 0.01764 0.88200003 8.8604466e-39
-0.13660952 0.017600002 0.88000005 1.2265622e-38
-0.13493334 0.017600002 0.88000005 1.4386121e-38
-0.13325715 0.017600002 0.88000005 1.1995531e-38
-0.13128191 0.01756 0.87800002 7.1091627e-39
-0.12916668 0.017500002 0.87500006 4.1775986e-39
-0.12750001 0.017500002 0.87500006 5.4683374e-39
-0.12583335 0.017500002 0.87500006 6.01864e-39
-0.12388287 0.01746 0.87300003 5.8342487e-39
-0.12222001 0.01746 0.87300003 2.9848162e-39
-0.12028096 0.017419999 0.87100005 5.8428807e-39
-0.11834953 0.017380001 0.86900002 1.5035053e-38
-0.11669429 0.017380001 0.86900002 1.8999465e-38
-0.11503904 0.017380001 0.86900002 1.7059078e-38
-0.11338381 0.017380001 0.86900002 1.1803927e-38
-0.11172857 0.017380001 0.86900002 1.2448555e-38
-0.11007334 0.017380001 0.86900002 1.383149e-38
-0.1084181 0.017380001 0.86900002 1.3922972e-38
-0.10676286 0.017380001 0.86900002 1.3922972e-38
-0.10510762 0.017380001 0.86900002 1.4198127e-38
-0.10369048 0.017419999 0.87100005 1.3737149e-38
-0.10203143 0.017419999 0.87100005 1.2356713e-38
-0.10037239 0.017419999 0.87100005 1.4845995e-38
-0.098713338 0.017419999 0.87100005 1.7885927e-38
-0.097054288 0.017419999 0.87100005 2.2956687e-38
-0.095614292 0.01746 0.87300003 1.9825683e-38
-0.093951426 0.01746 0.87300003 1.5492488e-38
-0.092288569 0.01746 0.87300003 1.3110148e-38
-0.090625718 0.01746 0.87300003 1.3939908e-38
-0.08896286 0.01746 0.87300003 1.3754085e-38
-0.087500006 0.017500002 0.87500006 1.3754085e-38
-0.085833341 0.017500002 0.87500006 1.3662598e-38
-0.084166676 0.017500002 0.87500006 1.2740642e-38
-0.082500003 0.017500002 0.87500006 1.5586842e-38
-0.081110477 0.01756 0.87800002 1.8721493e-38
-0.07961905 0.017600002 0.88000005 2.0192628e-38
-0.078120001 0.01764 0.88200003 1.9639454e-38
-0.076700002 0.017700002 0.88500005 1.329206e-38
-0.075183809 0.01774 0.88700002 5.5476271e-39
-0.073825717 0.017820001 0.89100003 6.106144e-39
-0.072371431 0.017880002 0.89400005 1.1637882e-38
-0.070826672 0.01792 0.89600003 1.4846724e-38
-0.069274291 0.017960001 0.89800006 1.3095007e-38
-0.067563809 0.017960001 0.89800006 1.4657628e-38
-0.14445429 0.019429525 0.88700002 1.4379253e-38
-0.14276476 0.019429525 0.88700002 1.2350949e-38
-0.14107524 0.019429525 0.88700002 1.0420948e-38
-0.13859999 0.019320002 0.88200003 1.2172665e-38
-0.13660952 0.019276192 0.88000005 1.4475408e-38
-0.13493334 0.019276192 0.88000005 1.7056885e-38
-0.13325715 0.019276192 0.88000005 1.5401702e-38
-0.13128191 0.019232381 0.87800002 1.1160703e-38
-0.12960953 0.019232381 0.87800002 6.0164764e-39
-0.12793714 0.019232381 0.87800002 5.9242807e-39
-0.12583335 0.019166669 0.87500006 5.3750754e-39
-0.12416668 0.019166669 0.87500006 5.4672711e-39
-0.12222001 0.019122858 0.87300003 3.9046145e-39
-0.12055714 0.019122858 0.87300003 6.3017009e-39
-0.11862192 0.019079048 0.87100005 1.5401699e-38
-0.11696286 0.019079048 0.87100005 1.9642698e-38
-0.11530381 0.019079048 0.87100005 1.8163258e-38
-0.11364476 0.019079048 0.87100005 1.1064194e-38
-0.11198572 0.019079048 0.87100005 1.1069224e-38
-0.11032668 0.019079048 0.87100005 1.2913136e-38
-0.10866762 0.019079048 0.87100005 1.392154e-38
-0.10700858 0.019079048 0.87100005 1.4105931e-38
-0.10534953 0.019079048 0.87100005 1.3922622e-38
-0.10369048 0.019079048 0.87100005 1.3277253e-38
-0.10203143 0.019079048 0.87100005 1.2172344e-38
-0.10060286 0.019122858 0.87300003 1.5030409e-38
-0.09894 0.019122858 0.87300003 1.8438407e-38
-0.09727715 0.019122858 0.87300003 2.323258e-38
-0.095614292 0.019122858 0.87300003 2.1575575e-38
-0.093951426 0.019122858 0.87300003 1.6873598e-38
-0.092288569 0.019122858 0.87300003 1.3110153e-38
-0.090625718 0.019122858 0.87300003 1.3571131e-38
-0.089166671 0.019166669 0.87500006 1.3569699e-38
-0.087500006 0.019166669 0.87500006 1.3477504e-38
-0.086127624 0.019232381 0.87800002 1.4487324e-38
-0.084455237 0.019232381 0.87800002 1.5317085e-38
-0.082782857 0.019232381 0.87800002 1.7704823e-38
-0.081295244 0.019276192 0.88000005 1.8073606e-38
-0.079800002 0.019320002 0.88200003 1.9454655e-38
-0.078385718 0.019385716 0.88500005 2.083759e-38
-0.076700002 0.019385716 0.88500005 1.9086676e-38
-0.075183809 0.019429525 0.88700002 1.5859829e-38
-0.073825717 0.019517142 0.89100003 1.4944662e-38
-0.072371431 0.019582856 0.89400005 1.4114901e-38
-0.070826672 0.019626666 0.89600003 1.309573e-38
-0.069274291 0.019670477 0.89800006 1.2173773e-38
-0.067563809 0.019670477 0.89800006 1.4379975e-38
-0.14340858 0.021214288 0.89100003 1.2073637e-38
-0.14139335 0.021166669 0.88900006 1.1706988e-38
-0.13907143 0.02107143 0.88500005 1.3919683e-38
-0.13692001 0.021000002 0.88200003 1.5393786e-38
-0.13524 0.021000002 0.88200003 1.6868916e-38
-0.13356 0.021000002 0.88200003 1.5033999e-38
-0.13188 0.021000002 0.88200003 1.3374477e-38
-0.1302 0.021000002 0.88200003 7.4898562e-39
-0.12822859 0.020952383 0.88000005 5.553748e-39
-0.12626477 0.020904763 0.87800002 3.5365354e-39
-0.12459239 0.020904763 0.87800002 3.5365354e-39
-0.12250001 0.020833336 0.87500006 4.1797594e-39
-0.12083334 0.020833336 0.87500006 8.512954e-39
-0.11889429 0.020785715 0.87300003 1.7057624e-38
-0.11723143 0.020785715 0.87300003 2.0376666e-38
-0.11556857 0.020785715 0.87300003 1.8533136e-38
-0.11390572 0.020785715 0.87300003 1.2817007e-38
-0.11224286 0.020785715 0.87300003 1.1343309e-38
-0.11032668 0.020738097 0.87100005 1.2726244e-38
-0.10866762 0.020738097 0.87100005 1.3553111e-38
-0.10700858 0.020738097 0.87100005 1.3829698e-38
-0.10534953 0.020738097 0.87100005 1.3462713e-38
-0.10392857 0.020785715 0.87300003 1.2632952e-38
-0.10226572 0.020785715 0.87300003 1.2174129e-38
-0.10060286 0.020785715 0.87300003 1.7060498e-38
-0.09894 0.020785715 0.87300003 2.0373439e-38
-0.09727715 0.020785715 0.87300003 2.267833e-38
-0.095833339 0.020833336 0.87500006 2.130043e-38
-0.094166674 0.020833336 0.87500006 1.8718953e-38
-0.092500009 0.020833336 0.87500006 1.421509e-38
-0.090833336 0.020833336 0.87500006 1.3477525e-38
-0.089166671 0.020833336 0.87500006 1.2925756e-38
-0.087500006 0.020833336 0.87500006 1.2741365e-38
-0.086127624 0.020904763 0.87800002 1.4302214e-38
-0.084455237 0.020904763 0.87800002 1.734467e-38
-0.082782857 0.020904763 0.87800002 1.9364692e-38
-0.081295244 0.020952383 0.88000005 1.5861258e-38
-0.079800002 0.021000002 0.88200003 1.7053253e-38
-0.078385718 0.02107143 0.88500005 1.9819122e-38
-0.076873332 0.021119049 0.88700002 2.0374515e-38
-0.075353332 0.021166669 0.88900006 1.963695e-38
-0.074074291 0.021285716 0.89400005 1.7244924e-38
-0.072533339 0.021333335 0.89600003 1.3188316e-38
-0.070984766 0.021380953 0.89800006 1.3277224e-38
-0.069505714 0.021452382 0.90100002 1.3277224e-38
-0.067789525 0.021452382 0.90100002 1.4472158e-38
-0.14340858 0.022911429 0.89100003 1.179669e-38
-0.14139335 0.022860002 0.88900006 1.15226e-38
-0.13907143 0.022757143 0.88500005 1.4104077e-38
-0.13692001 0.022680001 0.88200003 1.2720861e-38
-0.13524 0.022680001 0.88200003 1.106134e-38
-0.13356 0.022680001 0.88200003 1.2078709e-38
-0.13188 0.022680001 0.88200003 1.7518251e-38
-0.1302 0.022680001 0.88200003 1.4114589e-38
-0.12852 0.022680001 0.88200003 8.3062639e-39
-0.12655239 0.022628574 0.88000005 2.341232e-39
-0.1248762 0.022628574 0.88000005 3.8163621e-39
-0.12292001 0.022577144 0.87800002 9.8797105e-39
-0.12083334 0.022500001 0.87500006 1.6517796e-38
-0.11916667 0.022500001 0.87500006 2.0007165e-38
-0.11723143 0.022448571 0.87300003 2.074473e-38
-0.11556857 0.022448571 0.87300003 2.0283764e-38
-0.11390572 0.022448571 0.87300003 1.8439852e-38
-0.11224286 0.022448571 0.87300003 1.4757081e-38
-0.11058 0.022448571 0.87300003 1.1345843e-38
-0.10891715 0.022448571 0.87300003 1.14373e-38
-0.10725429 0.022448571 0.87300003 1.1990474e-38
-0.10559143 0.022448571 0.87300003 1.2817341e-38
-0.10392857 0.022448571 0.87300003 1.4015884e-38
-0.10226572 0.022448571 0.87300003 1.659485e-38
-0.10060286 0.022448571 0.87300003 2.2403175e-38
-0.09894 0.022448571 0.87300003 2.1758169e-38
-0.09727715 0.022448571 0.87300003 2.0190843e-38
-0.095833339 0.022500001 0.87500006 2.1022749e-38
-0.094166674 0.022500001 0.87500006 2.2129097e-38
-0.092500009 0.022500001 0.87500006 2.03792e-38
-0.090833336 0.022500001 0.87500006 1.7521135e-38
-0.089166671 0.022500001 0.87500006 1.4120347e-38
-0.087500006 0.022500001 0.87500006 1.384376e-38
-0.086127624 0.022577144 0.87800002 1.6876858e-38
-0.084455237 0.022577144 0.87800002 2.0472487e-38
-0.082782857 0.022577144 0.87800002 1.9822063e-38
-0.081295244 0.022628574 0.88000005 1.2815195e-38
-0.080071434 0.022757143 0.88500005 1.2079724e-38
-0.078385718 0.022757143 0.88500005 1.3462658e-38
-0.076873332 0.022808572 0.88700002 1.6869251e-38
-0.075353332 0.022860002 0.88900006 2.0649272e-38
-0.074074291 0.022988571 0.89400005 1.8623164e-38
-0.072533339 0.02304 0.89600003 1.3275818e-38
-0.070984766 0.02309143 0.89800006 1.2173773e-38
-0.069505714 0.023168571 0.90100002 1.3003534e-38
-0.06816572 0.023297142 0.90600002 1.4472158e-38
-0.066440001 0.023297142 0.90600002 1.5301919e-38
-0.14389144 0.024691431 0.89400005 1.2257665e-38
-0.14171144 0.024608571 0.89100003 1.115132e-38
-0.13907143 0.024442857 0.88500005 1.3087428e-38
-0.13692001 0.024360001 0.88200003 1.1710643e-38
-0.13524 0.024360001 0.88200003 9.5901434e-39
-0.13356 0.024360001 0.88200003 1.1983925e-38
-0.13188 0.024360001 0.88200003 1.8068837e-38
-0.1302 0.024360001 0.88200003 1.6600261e-38
-0.12852 0.024360001 0.88200003 1.0515349e-38
-0.12655239 0.024304764 0.88000005 4.9122644e-39
-0.1248762 0.024304764 0.88000005 7.1249595e-39
-0.1232 0.024304764 0.88000005 1.5675781e-38
-0.12124762 0.024249524 0.87800002 1.9732389e-38
-0.11916667 0.024166668 0.87500006 2.0098647e-38
-0.11750001 0.024166668 0.87500006 1.9361082e-38
-0.11583334 0.024166668 0.87500006 1.9823139e-38
-0.11416667 0.024166668 0.87500006 1.9823139e-38
-0.11224286 0.024111429 0.87300003 1.8165801e-38
-0.11058 0.024111429 0.87300003 1.3924802e-38
-0.10891715 0.024111429 0.87300003 1.0517517e-38
-0.10725429 0.024111429 0.87300003 1.0701908e-38
-0.10559143 0.024111429 0.87300003 1.22663e-38
-0.10392857 0.024111429 0.87300003 1.6138516e-38
-0.10226572 0.024111429 0.87300003 2.0462776e-38
-0.10060286 0.024111429 0.87300003 2.3320834e-38
-0.09894 0.024111429 0.87300003 2.0930929e-38
-0.09727715 0.024111429 0.87300003 1.7519691e-38
-0.095833339 0.024166668 0.87500006 1.8257934e-38
-0.094166674 0.024166668 0.87500006 2.1945759e-38
-0.092500009 0.024166668 0.87500006 2.2680125e-38
-0.090833336 0.024166668 0.87500006 2.0190843e-38
-0.089472376 0.024249524 0.87800002 1.5592956e-38
-0.087800004 0.024249524 0.87800002 1.5408564e-38
-0.086127624 0.024249524 0.87800002 1.8901919e-38
-0.084647626 0.024304764 0.88000005 1.9731679e-38
-0.082971431 0.024304764 0.88000005 1.9266003e-38
-0.081479996 0.024360001 0.88200003 1.2627917e-38
-0.080071434 0.024442857 0.88500005 1.0697542e-38
-0.078562863 0.024498096 0.88700002 1.0789738e-38
-0.07704667 0.024553334 0.88900006 1.4563974e-38
-0.075522862 0.024608571 0.89100003 2.0003516e-38
-0.074239999 0.024746668 0.89600003 1.8348025e-38
-0.07269524 0.024801906 0.89800006 1.2170918e-38
-0.07122191 0.024884764 0.90100002 1.1621672e-38
-0.069660008 0.024940003 0.90300006 1.3004606e-38
-0.067940004 0.024940003 0.90300006 1.465583e-38
-0.066220008 0.024940003 0.90300006 1.5116808e-38
-0.14421335 0.026453335 0.89600003 1.299449e-38
-0.14171144 0.026305715 0.89100003 1.1152419e-38
-0.13938573 0.026187621 0.88700002 1.0230463e-38
-0.13738571 0.026128573 0.88500005 9.3131907e-39
-0.13524 0.026040001 0.88200003 8.2068432e-39
-0.13356 0.026040001 0.88200003 9.3099439e-39
-0.13232857 0.026128573 0.88500005 1.4288508e-38
-0.1302 0.026040001 0.88200003 1.5397402e-38
-0.12852 0.026040001 0.88200003 1.6411554e-38
-0.12684001 0.026040001 0.88200003 1.5771191e-38
-0.1248762 0.025980955 0.88000005 1.7522908e-38
-0.1232 0.025980955 0.88000005 1.8903331e-38
-0.12124762 0.025921905 0.87800002 1.8626744e-38
-0.11957524 0.025921905 0.87800002 1.5771236e-38
-0.11750001 0.025833335 0.87500006 1.3927323e-38
-0.11583334 0.025833335 0.87500006 1.5954163e-38
-0.11416667 0.025833335 0.87500006 2.0379553e-38
-0.1125 0.025833335 0.87500006 2.1205361e-38
-0.11058 0.025774287 0.87300003 1.9730231e-38
-0.10891715 0.025774287 0.87300003 1.6045302e-38
-0.10725429 0.025774287 0.87300003 1.2449672e-38
-0.10559143 0.025774287 0.87300003 1.410632e-38
-0.10392857 0.025774287 0.87300003 2.2219525e-38
-0.10226572 0.025774287 0.87300003 2.2864519e-38
-0.10060286 0.025774287 0.87300003 1.9822063e-38
-0.099166676 0.025833335 0.87500006 1.3655076e-38
-0.097500004 0.025833335 0.87500006 8.215534e-39
-0.095833339 0.025833335 0.87500006 1.0063003e-38
-0.094166674 0.025833335 0.87500006 1.6332306e-38
-0.092500009 0.025833335 0.87500006 2.0836919e-38
-0.091144763 0.025921905 0.87800002 2.2404244e-38
-0.089472376 0.025921905 0.87800002 2.1391184e-38
-0.087800004 0.025921905 0.87800002 2.0930206e-38
-0.086323813 0.025980955 0.88000005 2.0282698e-38
-0.084647626 0.025980955 0.88000005 1.6318286e-38
-0.083159998 0.026040001 0.88200003 1.4197035e-38
-0.081479996 0.026040001 0.88200003 1.2260927e-38
-0.080252379 0.026187621 0.88700002 1.2171621e-38
-0.078740001 0.026246669 0.88900006 1.1065273e-38
-0.07722 0.026305715 0.89100003 1.1799593e-38
-0.075777143 0.026394285 0.89400005 1.7884505e-38
-0.074239999 0.026453335 0.89600003 1.7518602e-38
-0.07269524 0.026512383 0.89800006 1.2447842e-38
-0.07122191 0.026600951 0.90100002 1.1989748e-38
-0.069660008 0.026660001 0.90300006 1.3372682e-38
-0.067940004 0.026660001 0.90300006 1.5023897e-38
-0.066220008 0.026660001 0.90300006 1.5023897e-38
-0.14421335 0.02816 0.89600003 1.345404e-38
-0.14218858 0.028097145 0.89400005 1.087762e-38
-0.13938573 0.027877143 0.88700002 9.2180986e-39
-0.13738571 0.027814288 0.88500005 9.1291526e-39
-0.13524 0.027720001 0.88200003 9.1291526e-39
-0.13356 0.027720001 0.88200003 9.6794271e-39
-0.13232857 0.027814288 0.88500005 1.1615535e-38
-0.1302 0.027720001 0.88200003 1.4656196e-38
-0.12852 0.027720001 0.88200003 1.8067434e-38
-0.12684001 0.027720001 0.88200003 1.8436605e-38
-0.12515999 0.027720001 0.88200003 1.9911735e-38
-0.1232 0.027657144 0.88000005 1.9271405e-38
-0.12152381 0.027657144 0.88000005 1.7150905e-38
-0.11957524 0.027594287 0.87800002 1.3383488e-38
-0.11790286 0.027594287 0.87800002 1.1908358e-38
-0.11583334 0.027500002 0.87500006 1.4390422e-38
-0.11416667 0.027500002 0.87500006 1.8078247e-38
-0.1125 0.027500002 0.87500006 2.1296465e-38
-0.11083334 0.027500002 0.87500006 2.0927682e-38
-0.10916667 0.027500002 0.87500006 1.9454007e-38
-0.10750001 0.027500002 0.87500006 1.7425703e-38
-0.10583334 0.027500002 0.87500006 1.7701936e-38
-0.10416667 0.027500002 0.87500006 2.2772691e-38
-0.10250001 0.027500002 0.87500006 2.1944728e-38
-0.10083334 0.027500002 0.87500006 1.6228599e-38
-0.099166676 0.027500002 0.87500006 9.9801682e-39
-0.097500004 0.027500002 0.87500006 6.1079517e-39
-0.095833339 0.027500002 0.87500006 7.1245867e-39
-0.09448953 0.027594287 0.87800002 1.0167043e-38
-0.092817143 0.027594287 0.87800002 1.7795151e-38
-0.091144763 0.027594287 0.87800002 2.1575172e-38
-0.089676194 0.027657144 0.88000005 2.2955993e-38
-0.088000007 0.027657144 0.88000005 2.2218428e-38
-0.086323813 0.027657144 0.88000005 2.0559625e-38
-0.084647626 0.027657144 0.88000005 1.2907388e-38
-0.083159998 0.027720001 0.88200003 1.2904492e-38
-0.081757143 0.027814288 0.88500005 1.3549861e-38
-0.080252379 0.027877143 0.88700002 1.3276524e-38
-0.078740001 0.027940001 0.88900006 1.1709198e-38
-0.07722 0.028002858 0.89100003 1.1250002e-38
-0.075777143 0.028097145 0.89400005 1.7334914e-38
-0.074239999 0.02816 0.89600003 1.6876141e-38
-0.07269524 0.028222859 0.89800006 1.1989773e-38
-0.07122191 0.028317144 0.90100002 1.1898259e-38
-0.069660008 0.028380001 0.90300006 1.3465584e-38
-0.067940004 0.028380001 0.90300006 1.5208278e-38
-0.066220008 0.028380001 0.90300006 1.5208278e-38
-0.14501809 0.030033333 0.90100002 1.3638432e-38
-0.14282477 0.029933335 0.89800006 1.1155646e-38
-0.13970001 0.029633334 0.88900006 8.5741684e-39
-0.13769619 0.029566666 0.88700002 8.7614561e-39
-0.1357 0.029500002 0.88500005 9.2224342e-39
-0.13401429 0.029500002 0.88500005 9.9560364e-39
-0.13262762 0.029566666 0.88700002 9.6794495e-39
-0.13064286 0.029500002 0.88500005 1.0139724e-38
-0.12895715 0.029500002 0.88500005 1.7054396e-38
-0.12684001 0.0294 0.88200003 1.7976726e-38
-0.12515999 0.0294 0.88200003 1.8714291e-38
-0.1232 0.029333334 0.88000005 1.6600596e-38
-0.12152381 0.029333334 0.88000005 1.3926922e-38
-0.11957524 0.029266668 0.87800002 1.2185317e-38
-0.11790286 0.029266668 0.87800002 1.2646295e-38
-0.11623047 0.029266668 0.87800002 1.3656482e-38
-0.11416667 0.029166669 0.87500006 1.4025264e-38
-0.1125 0.029166669 0.87500006 1.7336706e-38
-0.11083334 0.029166669 0.87500006 2.001038e-38
-0.10916667 0.029166669 0.87500006 2.1205361e-38
-0.10750001 0.029166669 0.87500006 2.2219513e-38
-0.10583334 0.029166669 0.87500006 2.2035474e-38
-0.10416667 0.029166669 0.87500006 1.9638388e-38
-0.10250001 0.029166669 0.87500006 1.4946139e-38
-0.10083334 0.029166669 0.87500006 1.005977e-38
-0.099166676 0.029166669 0.87500006 6.6686911e-39
-0.097500004 0.029166669 0.87500006 7.1296693e-39
-0.096161902 0.029266668 0.87800002 8.3231804e-39
-0.09448953 0.029266668 0.87800002 7.2168328e-39
-0.092817143 0.029266668 0.87800002 1.1353692e-38
-0.091144763 0.029266668 0.87800002 1.559469e-38
-0.089676194 0.029333334 0.88000005 1.982206e-38
-0.088000007 0.029333334 0.88000005 2.0190843e-38
-0.086323813 0.029333334 0.88000005 1.9453942e-38
-0.08484 0.0294 0.88200003 1.2354879e-38
-0.083159998 0.0294 0.88200003 1.1894678e-38
-0.081757143 0.029500002 0.88500005 1.3185417e-38
-0.080433331 0.029633334 0.88900006 1.290883e-38
-0.078917146 0.029700002 0.89100003 1.1157113e-38
-0.077480003 0.0298 0.89400005 1.1802838e-38
-0.075777143 0.0298 0.89400005 1.7150185e-38
-0.074239999 0.029866667 0.89600003 1.7152003e-38
-0.07269524 0.029933335 0.89800006 1.3095395e-38
-0.07122191 0.030033333 0.90100002 1.2357812e-38
-0.069660008 0.030100001 0.90300006 1.3279768e-38
-0.067940004 0.030100001 0.90300006 1.5023534e-38
-0.14501809 0.031749524 0.90100002 1.3821744e-38
-0.14330192 0.031749524 0.90100002 1.1249277e-38
-0.14001429 0.031397145 0.89100003 8.2068208e-39
-0.13800667 0.031326666 0.88900006 8.577418e-39
-0.13600667 0.031256191 0.88700002 9.4993743e-39
-0.13431714 0.031256191 0.88700002 9.6805257e-39
-0.13262762 0.031256191 0.88700002 9.3117432e-39
-0.13064286 0.031185716 0.88500005 9.5897426e-39
-0.12895715 0.031185716 0.88500005 1.6412219e-38
-0.12684001 0.031080002 0.88200003 1.6782842e-38
-0.12515999 0.031080002 0.88200003 1.6690646e-38
-0.12348001 0.031080002 0.88200003 1.4668819e-38
-0.12152381 0.031009525 0.88000005 1.3101493e-38
-0.11957524 0.030939048 0.87800002 1.2186021e-38
-0.11790286 0.030939048 0.87800002 1.2923586e-38
-0.11623047 0.030939048 0.87800002 1.2463336e-38
-0.1145581 0.030939048 0.87800002 1.2002358e-38
-0.1125 0.030833337 0.87500006 1.3564977e-38
-0.11083334 0.030833337 0.87500006 1.623865e-38
-0.10916667 0.030833337 0.87500006 2.111208e-38
-0.10750001 0.030833337 0.87500006 2.3324775e-38
-0.10583334 0.030833337 0.87500006 2.1944728e-38
-0.10416667 0.030833337 0.87500006 1.5214447e-38
-0.10250001 0.030833337 0.87500006 1.1264427e-38
-0.10083334 0.030833337 0.87500006 8.4985585e-39
-0.099506669 0.030939048 0.87800002 6.4857418e-39
-0.097834289 0.030939048 0.87800002 7.5920893e-39
-0.096161902 0.030939048 0.87800002 7.5902915e-39
-0.09448953 0.030939048 0.87800002 6.0229658e-39
-0.092817143 0.030939048 0.87800002 5.9325176e-39
-0.091352388 0.031009525 0.88000005 9.7125384e-39
-0.089676194 0.031009525 0.88000005 1.7521488e-38
-0.088000007 0.031009525 0.88000005 1.9273205e-38
-0.086323813 0.031009525 0.88000005 1.7242728e-38
-0.08484 0.031080002 0.88200003 1.1895382e-38
-0.083159998 0.031080002 0.88200003 1.2356363e-38
-0.081757143 0.031185716 0.88500005 1.2909536e-38
-0.080433331 0.031326666 0.88900006 1.2172694e-38
-0.078917146 0.031397145 0.89100003 1.1896108e-38
-0.077480003 0.031502858 0.89400005 1.3276912e-38
-0.075946666 0.031573333 0.89600003 1.7149128e-38
-0.074405722 0.031643812 0.89800006 1.8257606e-38
-0.072938092 0.031749524 0.90100002 1.5030759e-38
-0.07122191 0.031749524 0.90100002 1.3647471e-38
-0.069660008 0.031820003 0.90300006 1.346308e-38
-0.067940004 0.031820003 0.90300006 1.511465e-38
-0.14501809 0.033465713 0.90100002 1.3269649e-38
-0.14330192 0.033465713 0.90100002 1.2075432e-38
-0.14080001 0.03328 0.89600003 1.0969084e-38
-0.13800667 0.033020001 0.88900006 1.041881e-38
-0.13631335 0.033020001 0.88900006 1.0511005e-38
-0.13462001 0.033020001 0.88900006 9.7720179e-39
-0.13262762 0.032945715 0.88700002 9.7720179e-39
-0.13064286 0.032871433 0.88500005 9.3135439e-39
-0.12895715 0.032871433 0.88500005 1.4015521e-38
-0.12727144 0.032871433 0.88500005 1.6598036e-38
-0.12515999 0.032760002 0.88200003 1.7243405e-38
-0.12348001 0.032760002 0.88200003 1.5129071e-38
-0.12180001 0.032760002 0.88200003 1.3561746e-38
-0.11984763 0.032685716 0.88000005 1.2370412e-38
-0.11817144 0.032685716 0.88000005 1.2923586e-38
-0.11623047 0.03261143 0.87800002 1.3015434e-38
-0.1145581 0.03261143 0.87800002 1.3292021e-38
-0.11288572 0.03261143 0.87800002 1.3474607e-38
-0.11121333 0.03261143 0.87800002 1.3751194e-38
-0.10916667 0.032500003 0.87500006 1.954688e-38
-0.10750001 0.032500003 0.87500006 2.2865923e-38
