# .PCD v0.7 - Point Cloud Data file format
VERSION 0.7
FIELDS x y z rgb
SIZE 4 4 4 4
TYPE F F F F
COUNT 1 1 1 1
WIDTH 951
HEIGHT 1
VIEWPOINT 0 0 0 1 0 0 0
POINTS 951
DATA ascii
-0.012579048 -0.07837715 1.016 1.8529877e-38
-0.01064381 -0.07837715 1.016 1.8160741e-38
-0.0087085711 -0.07837715 1.016 1.8160741e-38
-0.0067733335 -0.07837715 1.016 1.8068899e-38
-0.004838095 -0.07837715 1.016 1.8068899e-38
-0.0029028573 -0.07837715 1.016 1.7515372e-38
-0.00096761907 -0.07837715 1.016 1.7330981e-38
0.00096476189 -0.078145713 1.013 1.7053673e-38
0.0028942856 -0.078145713 1.013 1.7053673e-38
0.0047952384 -0.077682868 1.0070001 1.6868563e-38
0.006713334 -0.077682868 1.0070001 1.6776368e-38
0.0086057149 -0.07745143 1.0040001 1.6500131e-38
0.010486667 -0.07722 1.001 1.6407935e-38
0.012393334 -0.07722 1.001 1.6223544e-38
0.0143 -0.07722 1.001 1.6407935e-38
0.016206667 -0.07722 1.001 1.7144775e-38
0.018113334 -0.07722 1.001 1.788234e-38
0.01984 -0.076525718 0.99200004 1.7329178e-38
0.021729525 -0.076525718 0.99200004 1.5208679e-38
0.023619048 -0.076525718 0.99200004 1.5023181e-38
-0.063299052 -0.074636191 0.99200004 1.5942253e-38
-0.061409526 -0.074636191 0.99200004 1.6311036e-38
-0.059700005 -0.074861906 0.99500006 1.6405765e-38
-0.057979047 -0.075087622 0.99800003 1.7235525e-38
-0.056246668 -0.075313337 1.001 1.6961465e-38
-0.054340001 -0.075313337 1.001 1.7145856e-38
-0.052590482 -0.075539045 1.0040001 1.6777081e-38
-0.050678097 -0.075539045 1.0040001 1.7238059e-38
-0.048911434 -0.075764768 1.0070001 1.7238059e-38
-0.04713333 -0.075990476 1.01 1.7699037e-38
-0.045209523 -0.075990476 1.01 1.7791589e-38
-0.043285716 -0.075990476 1.01 1.7883784e-38
-0.041484762 -0.076216191 1.013 1.7883784e-38
-0.03955524 -0.076216191 1.013 1.8529154e-38
-0.037625715 -0.076216191 1.013 1.8438034e-38
-0.03569619 -0.076216191 1.013 1.8345839e-38
-0.033966668 -0.076667622 1.0190001 1.8345486e-38
-0.032025717 -0.076667622 1.0190001 1.8622072e-38
-0.030084763 -0.076667622 1.0190001 1.8622072e-38
-0.028143812 -0.076667622 1.0190001 1.8622072e-38
-0.026280001 -0.076893337 1.0220001 1.8805385e-38
-0.024404764 -0.077119052 1.0250001 1.8805385e-38
-0.022386668 -0.076893337 1.0220001 1.8805385e-38
-0.020440001 -0.076893337 1.0220001 1.8989776e-38
-0.018439047 -0.076667622 1.0190001 1.8714268e-38
-0.016498096 -0.076667622 1.0190001 1.8529877e-38
-0.014557144 -0.076667622 1.0190001 1.8437681e-38
-0.012616191 -0.076667622 1.0190001 1.825329e-38
-0.01064381 -0.076441906 1.016 1.8252211e-38
-0.0087085711 -0.076441906 1.016 1.8252211e-38
-0.0067733335 -0.076441906 1.016 1.7884505e-38
-0.004838095 -0.076441906 1.016 1.7792309e-38
-0.0029028573 -0.076441906 1.016 1.7331334e-38
-0.00096761907 -0.076441906 1.016 1.7239138e-38
0.00096476189 -0.076216191 1.013 1.7330255e-38
0.0028942856 -0.076216191 1.013 1.7053668e-38
0.0048095239 -0.075990476 1.01 1.6685241e-38
0.006713334 -0.075764768 1.0070001 1.6685241e-38
0.0086057149 -0.075539045 1.0040001 1.6684162e-38
0.010486667 -0.075313337 1.001 1.7052945e-38
0.012393334 -0.075313337 1.001 1.71448e-38
0.0143 -0.075313337 1.001 1.7421387e-38
0.016206667 -0.075313337 1.001 1.7974901e-38
0.018113334 -0.075313337 1.001 1.7974901e-38
0.020020001 -0.075313337 1.001 1.6685961e-38
-0.059180956 -0.070106663 0.95600003 1.4469267e-38
-0.057360001 -0.070106663 0.95600003 1.5485954e-38
-0.055539049 -0.070106663 0.95600003 1.6961084e-38
-0.056246668 -0.073406667 1.001 1.7238402e-38
-0.054340001 -0.073406667 1.001 1.7699381e-38
-0.052590482 -0.073626675 1.0040001 1.7697964e-38
-0.050678097 -0.073626675 1.0040001 1.8251138e-38
-0.048911434 -0.073846675 1.0070001 1.7975261e-38
-0.04713333 -0.074066661 1.01 1.8067457e-38
-0.045209523 -0.074066661 1.01 1.7791586e-38
-0.043414284 -0.074286662 1.013 1.769939e-38
-0.041484762 -0.074286662 1.013 1.7883431e-38
-0.039672382 -0.07450667 1.016 1.8344409e-38
-0.037737142 -0.07450667 1.016 1.8252564e-38
-0.035801906 -0.07450667 1.016 1.8252564e-38
-0.033966668 -0.074726671 1.0190001 1.8252211e-38
-0.032025717 -0.074726671 1.0190001 1.8620993e-38
-0.030084763 -0.074726671 1.0190001 1.8161094e-38
-0.028143812 -0.074726671 1.0190001 1.7976703e-38
-0.026280001 -0.074946672 1.0220001 1.8160018e-38
-0.024404764 -0.075166672 1.0250001 1.8252214e-38
-0.022386668 -0.074946672 1.0220001 1.8252211e-38
-0.020440001 -0.074946672 1.0220001 1.8344407e-38
-0.018439047 -0.074726671 1.0190001 1.8344046e-38
-0.016498096 -0.074726671 1.0190001 1.8251851e-38
-0.014557144 -0.074726671 1.0190001 1.8251851e-38
-0.012616191 -0.074726671 1.0190001 1.7975264e-38
-0.01064381 -0.07450667 1.016 1.8068176e-38
-0.0087085711 -0.07450667 1.016 1.8252567e-38
-0.0067733335 -0.07450667 1.016 1.8252564e-38
-0.0048238095 -0.074286662 1.013 1.8436955e-38
-0.0028942856 -0.074286662 1.013 1.8436955e-38
-0.00096476189 -0.074286662 1.013 1.8529151e-38
0.00096476189 -0.074286662 1.013 1.8805022e-38
0.0027028571 -0.069373332 0.94600004 1.8989413e-38
0.0045047617 -0.069373332 0.94600004 1.9266356e-38
0.0063066669 -0.069373332 0.94600004 1.9450747e-38
0.0081085712 -0.069373332 0.94600004 1.8990855e-38
0.0099104764 -0.069373332 0.94600004 1.9267442e-38
0.012430477 -0.073626675 1.0040001 1.7607958e-38
0.013585715 -0.069740005 0.95100003 1.6870393e-38
0.015397143 -0.069740005 0.95100003 1.5672556e-38
0.018167621 -0.073626675 1.0040001 1.4381818e-38
0.020080002 -0.073626675 1.0040001 1.1709183e-38
-0.06119334 -0.068500005 0.95900005 1.1890312e-38
-0.059180956 -0.068285719 0.95600003 1.4010811e-38
-0.057240006 -0.068142861 0.95400006 1.4198102e-38
-0.055422861 -0.068142861 0.95400006 1.4474689e-38
-0.053605717 -0.068142861 0.95400006 1.5671403e-38
-0.051625714 -0.067928575 0.95100003 1.7607511e-38
-0.049814284 -0.067928575 0.95100003 1.7791236e-38
-0.048002861 -0.067928575 0.95100003 1.8160018e-38
-0.046191432 -0.067928575 0.95100003 1.8160359e-38
-0.04713333 -0.072142854 1.01 1.8252554e-38
-0.045343809 -0.07235714 1.013 1.806782e-38
-0.043414284 -0.07235714 1.013 1.8436602e-38
-0.041484762 -0.07235714 1.013 1.8345483e-38
-0.039672382 -0.072571434 1.016 1.8345483e-38
-0.037737142 -0.072571434 1.016 1.8436602e-38
-0.035801906 -0.072571434 1.016 1.8528798e-38
-0.033866666 -0.072571434 1.016 1.8436608e-38
-0.032025717 -0.072785713 1.0190001 1.8713195e-38
-0.030084763 -0.072785713 1.0190001 1.8345132e-38
-0.028143812 -0.072785713 1.0190001 1.8529524e-38
-0.026280001 -0.073000006 1.0220001 1.8712126e-38
-0.024404764 -0.073214293 1.0250001 1.8896517e-38
-0.022386668 -0.073000006 1.0220001 1.898871e-38
-0.020440001 -0.073000006 1.0220001 1.8804318e-38
-0.018439047 -0.072785713 1.0190001 1.8804309e-38
-0.016498096 -0.072785713 1.0190001 1.8896504e-38
-0.014557144 -0.072785713 1.0190001 1.9172372e-38
-0.012616191 -0.072785713 1.0190001 1.9541155e-38
-0.01064381 -0.072571434 1.016 1.9266736e-38
-0.0087085711 -0.072571434 1.016 1.9082344e-38
-0.0062533333 -0.066999994 0.93800002 1.9082698e-38
-0.0044666668 -0.066999994 0.93800002 1.9082698e-38
-0.0026857145 -0.067142867 0.94000006 1.9358914e-38
-0.00089523813 -0.067142867 0.94000006 1.9266719e-38
0.00089523813 -0.067142867 0.94000006 1.9634066e-38
0.0026942857 -0.067357138 0.94300002 1.9910653e-38
0.0044904761 -0.067357138 0.94300002 2.0187956e-38
0.0063066669 -0.067571431 0.94600004 1.9266e-38
0.0081085712 -0.067571431 0.94600004 1.844017e-38
0.0099104764 -0.067571431 0.94600004 1.8532366e-38
0.011712381 -0.067571431 0.94600004 1.6138942e-38
0.013542858 -0.067714289 0.94800007 1.4756008e-38
0.015397143 -0.067928575 0.95100003 1.3558153e-38
0.017262857 -0.068142861 0.95400006 1.0792284e-38
0.01908 -0.068142861 0.95400006 1.0603142e-38
0.020897144 -0.068142861 0.95400006 1.0326555e-38
-0.06119334 -0.066673338 0.95900005 1.2719031e-38
-0.059180956 -0.066464759 0.95600003 1.4101966e-38
-0.057240006 -0.066325717 0.95400006 1.1342586e-38
-0.055422861 -0.066325717 0.95400006 6.2718266e-39
-0.053605717 -0.066325717 0.95400006 8.2079292e-39
-0.051625714 -0.066117145 0.95100003 1.4292841e-38
-0.049814284 -0.066117145 0.95100003 1.484243e-38
-0.047851432 -0.065908574 0.94800007 1.4565843e-38
-0.046045717 -0.065908574 0.94800007 1.4936393e-38
-0.047273334 -0.070427619 1.013 1.6872501e-38
-0.045343809 -0.070427619 1.013 1.8436955e-38
-0.043414284 -0.070427619 1.013 1.9082325e-38
-0.038413331 -0.06521333 0.93800002 1.8990132e-38
-0.036509525 -0.065004766 0.93500006 1.945111e-38
-0.034728575 -0.065004766 0.93500006 1.9359638e-38
-0.032947619 -0.065004766 0.93500006 2.0281594e-38
-0.031166669 -0.065004766 0.93500006 2.0005726e-38
-0.029385716 -0.065004766 0.93500006 1.991353e-38
-0.027693333 -0.06521333 0.93800002 1.9914256e-38
-0.028060952 -0.07063619 1.016 2.0928408e-38
-0.026202857 -0.070844762 1.0190001 2.111208e-38
-0.024404764 -0.071261905 1.0250001 2.2034037e-38
-0.022386668 -0.071053334 1.0220001 2.2218068e-38
-0.020440001 -0.071053334 1.0220001 2.2125872e-38
-0.018439047 -0.070844762 1.0190001 2.1941831e-38
-0.016498096 -0.070844762 1.0190001 2.2034027e-38
-0.013357143 -0.065004766 0.93500006 2.212586e-38
-0.011576191 -0.065004766 0.93500006 2.2586838e-38
-0.0097952392 -0.065004766 0.93500006 2.1019184e-38
-0.0080142869 -0.065004766 0.93500006 2.0373815e-38
-0.0062533333 -0.06521333 0.93800002 1.8254757e-38
-0.0044666668 -0.06521333 0.93800002 1.7885975e-38
-0.0026800002 -0.06521333 0.93800002 1.8254369e-38
-0.00089523813 -0.06535238 0.94000006 1.8899738e-38
0.00089523813 -0.06535238 0.94000006 1.9450754e-38
0.0026857145 -0.06535238 0.94000006 1.9358559e-38
0.0044761905 -0.06535238 0.94000006 1.6411554e-38
0.0062866667 -0.065560959 0.94300002 1.226275e-38
0.0080828574 -0.065560959 0.94300002 1.2542922e-38
0.0099104764 -0.065769531 0.94600004 1.7060508e-38
0.011712381 -0.065769531 0.94600004 1.7702267e-38
0.013514286 -0.065769531 0.94600004 1.5766159e-38
0.015348572 -0.065908574 0.94800007 1.5212982e-38
0.017262857 -0.066325717 0.95400006 1.1801744e-38
0.01908 -0.066325717 0.95400006 9.6805005e-39
0.020897144 -0.066325717 0.95400006 1.0510261e-38
-0.06119334 -0.064846672 0.95900005 1.3087804e-38
-0.05936667 -0.064846672 0.95900005 1.318e-38
-0.057360001 -0.064643808 0.95600003 1.0608599e-38
-0.055422861 -0.064508572 0.95400006 4.5236871e-39
-0.053605717 -0.064508572 0.95400006 4.7155725e-39
-0.051625714 -0.064305715 0.95100003 1.1353658e-38
-0.049814284 -0.064305715 0.95100003 1.3832579e-38
-0.047851432 -0.064102866 0.94800007 1.189647e-38
-0.045948572 -0.063967615 0.94600004 1.0060091e-38
-0.044006668 -0.063764766 0.94300002 1.4669873e-38
-0.042210475 -0.063764766 0.94300002 1.7056194e-38
-0.040285718 -0.063561909 0.94000006 1.7609368e-38
-0.038413331 -0.063426666 0.93800002 1.769939e-38
-0.036509525 -0.063223809 0.93500006 1.7607195e-38
-0.034728575 -0.063223809 0.93500006 1.8068879e-38
-0.032947619 -0.063223809 0.93500006 1.9636205e-38
-0.031166669 -0.063223809 0.93500006 1.8900833e-38
-0.029385716 -0.063223809 0.93500006 1.7978876e-38
-0.027693333 -0.063426666 0.93800002 1.7336366e-38
-0.025906667 -0.063426666 0.93800002 1.7797344e-38
-0.024119999 -0.063426666 0.93800002 1.8165394e-38
-0.022261906 -0.063223809 0.93500006 1.9824915e-38
-0.020480953 -0.063223809 0.93500006 2.0835862e-38
-0.020440001 -0.069106668 1.0220001 2.0743666e-38
-0.016919049 -0.063223809 0.93500006 2.0283392e-38
-0.015138096 -0.063223809 0.93500006 1.9638022e-38
-0.013357143 -0.063223809 0.93500006 1.9729849e-38
-0.011576191 -0.063223809 0.93500006 2.0467414e-38
-0.0097952392 -0.063223809 0.93500006 2.0283051e-38
-0.0080142869 -0.063223809 0.93500006 1.9361095e-38
-0.0062533333 -0.063426666 0.93800002 1.5862693e-38
-0.0044666668 -0.063426666 0.93800002 1.401878e-38
-0.0026800002 -0.063426666 0.93800002 1.5030374e-38
-0.00089523813 -0.063561909 0.94000006 1.8072829e-38
0.00089523813 -0.063561909 0.94000006 1.8255829e-38
0.0026857145 -0.063561909 0.94000006 1.6780699e-38
0.0044761905 -0.063561909 0.94000006 1.4112042e-38
0.0062866667 -0.063764766 0.94300002 7.4739571e-39
0.0080828574 -0.063764766 0.94300002 1.0519578e-38
0.0099104764 -0.063967615 0.94600004 1.5590338e-38
0.011712381 -0.063967615 0.94600004 1.9358546e-38
0.013514286 -0.063967615 0.94600004 1.8528785e-38
0.015348572 -0.064102866 0.94800007 1.6134954e-38
0.017262857 -0.064508572 0.95400006 9.0358906e-39
0.01908 -0.064508572 0.95400006 1.0133507e-38
0.020897144 -0.064508572 0.95400006 1.2622789e-38
-0.061384764 -0.063217148 0.96200007 1.2997047e-38
-0.05936667 -0.063020006 0.95900005 1.1060939e-38
-0.057360001 -0.062822863 0.95600003 7.5701156e-39
-0.055422861 -0.062691435 0.95400006 4.4354642e-39
-0.053605717 -0.062691435 0.95400006 3.7079787e-39
-0.051625714 -0.062494289 0.95100003 7.6723908e-39
-0.049814284 -0.062494289 0.95100003 1.1713902e-38
-0.047851432 -0.062297143 0.94800007 1.4664162e-38
-0.045948572 -0.062165715 0.94600004 1.6228917e-38
-0.044006668 -0.061968572 0.94300002 1.7611851e-38
-0.042210475 -0.061968572 0.94300002 1.7608286e-38
-0.040285718 -0.06177143 0.94000006 1.5119004e-38
-0.038413331 -0.061639998 0.93800002 1.1891827e-38
-0.036626667 -0.061639998 0.93800002 1.0693283e-38
-0.034728575 -0.061442863 0.93500006 1.3549511e-38
-0.032947619 -0.061442863 0.93500006 1.9542227e-38
-0.031166669 -0.061442863 0.93500006 1.9451836e-38
-0.029385716 -0.061442863 0.93500006 1.640938e-38
-0.027693333 -0.061639998 0.93800002 1.5123972e-38
-0.025906667 -0.061639998 0.93800002 1.4755189e-38
-0.024119999 -0.061639998 0.93800002 1.4846284e-38
-0.022261906 -0.061442863 0.93500006 1.8257522e-38
-0.020480953 -0.061442863 0.93500006 1.9822411e-38
-0.018759999 -0.061639998 0.93800002 1.8900454e-38
-0.016919049 -0.061442863 0.93500006 1.6598811e-38
-0.015138096 -0.061442863 0.93500006 1.3925137e-38
-0.013400001 -0.061639998 0.93800002 1.4571235e-38
-0.011613334 -0.061639998 0.93800002 1.7982474e-38
-0.0098266667 -0.061639998 0.93800002 1.9637666e-38
-0.0080400007 -0.061639998 0.93800002 1.8807906e-38
-0.006266667 -0.06177143 0.94000006 1.6320068e-38
-0.0044761905 -0.06177143 0.94000006 1.2079069e-38
-0.0026857145 -0.06177143 0.94000006 1.4570134e-38
-0.00089523813 -0.06177143 0.94000006 2.0009676e-38
0.00089523813 -0.06177143 0.94000006 1.9269978e-38
0.0026857145 -0.06177143 0.94000006 1.4568001e-38
0.0044761905 -0.06177143 0.94000006 8.1308802e-39
0.0062866667 -0.061968572 0.94300002 5.0884244e-39
0.0080828574 -0.061968572 0.94300002 6.0139484e-39
0.0099104764 -0.062165715 0.94600004 9.4251867e-39
0.011712381 -0.062165715 0.94600004 1.6965739e-38
0.013542858 -0.062297143 0.94800007 1.8901847e-38
0.015397143 -0.062494289 0.95100003 1.6776721e-38
0.017262857 -0.062691435 0.95400006 7.9259403e-39
0.01912 -0.062822863 0.95600003 7.6514988e-39
0.021006668 -0.063020006 0.95900005 1.1247128e-38
-0.061384764 -0.061384764 0.96200007 1.2722265e-38
-0.05936667 -0.06119334 0.95900005 1.0232983e-38
-0.057360001 -0.061001904 0.95600003 6.9265314e-39
-0.055539049 -0.061001904 0.95600003 5.0826188e-39
-0.053605717 -0.060874287 0.95400006 2.1474927e-39
-0.051788572 -0.060874287 0.95400006 3.5304271e-39
-0.049814284 -0.060682859 0.95100003 1.0793337e-38
-0.047851432 -0.060491435 0.94800007 1.5679706e-38
-0.045948572 -0.060363814 0.94600004 1.8252217e-38
-0.044146664 -0.060363814 0.94600004 1.8436608e-38
-0.042210475 -0.060172379 0.94300002 1.7883428e-38
-0.040285718 -0.059980955 0.94000006 1.3458038e-38
-0.038495239 -0.059980955 0.94000006 1.1249299e-38
-0.036704764 -0.059980955 0.94000006 1.0235147e-38
-0.034839999 -0.059853334 0.93800002 1.2996996e-38
-0.033053335 -0.059853334 0.93800002 1.7791168e-38
-0.031266667 -0.059853334 0.93800002 2.0186867e-38
-0.029480001 -0.059853334 0.93800002 1.8250759e-38
-0.027693333 -0.059853334 0.93800002 1.7239118e-38
-0.025906667 -0.059853334 0.93800002 1.6685945e-38
-0.024119999 -0.059853334 0.93800002 1.5765041e-38
-0.022333333 -0.059853334 0.93800002 2.000604e-38
-0.020546667 -0.059853334 0.93800002 2.0559625e-38
-0.018759999 -0.059853334 0.93800002 1.8439126e-38
-0.016973333 -0.059853334 0.93800002 1.586592e-38
-0.015186667 -0.059853334 0.93800002 1.3376638e-38
-0.013428572 -0.059980955 0.94000006 1.3747576e-38
-0.011613334 -0.059853334 0.93800002 1.6052467e-38
-0.0098266667 -0.059853334 0.93800002 2.0189395e-38
-0.0080400007 -0.059853334 0.93800002 2.00972e-38
-0.006266667 -0.059980955 0.94000006 1.8900104e-38
-0.0044761905 -0.059980955 0.94000006 1.7240583e-38
-0.0026857145 -0.059980955 0.94000006 1.7149116e-38
-0.00089523813 -0.059980955 0.94000006 1.9822789e-38
0.00089523813 -0.059980955 0.94000006 1.8719316e-38
0.0026857145 -0.059980955 0.94000006 1.1159274e-38
0.0044904761 -0.060172379 0.94300002 5.8342361e-39
0.0062866667 -0.060172379 0.94300002 5.3732579e-39
0.0081085712 -0.060363814 0.94600004 1.6061977e-39
0.0099104764 -0.060363814 0.94600004 1.790589e-39
0.011737144 -0.060491435 0.94800007 1.2912758e-38
0.013542858 -0.060491435 0.94800007 1.6508388e-38
0.015445715 -0.060874287 0.95400006 1.6774923e-38
0.017299049 -0.061001904 0.95600003 7.6475555e-39
0.019180002 -0.06119334 0.95900005 6.9145756e-39
0.021072382 -0.061384764 0.96200007 1.2261922e-38
-0.061384764 -0.059552386 0.96200007 1.3276143e-38
-0.059552386 -0.059552386 0.96200007 1.0325883e-38
-0.057540003 -0.05936667 0.95900005 6.3773233e-39
-0.055539049 -0.059180956 0.95600003 4.717802e-39
-0.053718098 -0.059180956 0.95600003 3.067298e-39
-0.051788572 -0.059057143 0.95400006 2.7907111e-39
-0.049814284 -0.058871429 0.95100003 5.4539377e-39
-0.048002861 -0.058871429 0.95100003 1.2645197e-38
-0.046045717 -0.05868572 0.94800007 1.6502311e-38
-0.044146664 -0.058561906 0.94600004 1.5672551e-38
-0.042344764 -0.058561906 0.94600004 1.2814842e-38
-0.040414285 -0.058376193 0.94300002 1.0878734e-38
-0.038618095 -0.058376193 0.94300002 1.0513186e-38
-0.036704764 -0.058190476 0.94000006 1.0881968e-38
-0.034839999 -0.058066666 0.93800002 1.1892495e-38
-0.033053335 -0.058066666 0.93800002 1.2998843e-38
-0.031266667 -0.058066666 0.93800002 1.6407898e-38
-0.029480001 -0.058066666 0.93800002 2.0925483e-38
-0.027752383 -0.058190476 0.94000006 2.0650742e-38
-0.025906667 -0.058066666 0.93800002 2.0927329e-38
-0.024119999 -0.058066666 0.93800002 2.046743e-38
-0.022333333 -0.058066666 0.93800002 2.0375234e-38
-0.020546667 -0.058066666 0.93800002 1.8720026e-38
-0.018759999 -0.058066666 0.93800002 1.5954157e-38
-0.016973333 -0.058066666 0.93800002 1.4303286e-38
-0.015186667 -0.058066666 0.93800002 1.4303286e-38
-0.013428572 -0.058190476 0.94000006 1.3842318e-38
-0.011638097 -0.058190476 0.94000006 1.3842318e-38
-0.0098266667 -0.058066666 0.93800002 1.6969006e-38
-0.0080400007 -0.058066666 0.93800002 1.8720723e-38
-0.006266667 -0.058190476 0.94000006 2.0005745e-38
-0.0044761905 -0.058190476 0.94000006 2.1665267e-38
-0.0026857145 -0.058190476 0.94000006 2.0468149e-38
-0.00089523813 -0.058190476 0.94000006 1.6134954e-38
0.00089523813 -0.058190476 0.94000006 1.1168281e-38
0.0026942857 -0.058376193 0.94300002 7.6648476e-39
0.0044904761 -0.058376193 0.94300002 4.9162455e-39
0.0063066669 -0.058561906 0.94600004 5.1928324e-39
0.0081085712 -0.058561906 0.94600004 5.0077376e-39
0.0099314293 -0.05868572 0.94800007 3.0716294e-39
0.011737144 -0.05868572 0.94800007 1.0886602e-38
0.013585715 -0.058871429 0.95100003 1.5311993e-38
0.015478096 -0.059180956 0.95600003 1.5670711e-38
0.017353334 -0.05936667 0.95900005 7.5574955e-39
0.019180002 -0.05936667 0.95900005 7.6525778e-39
0.021116192 -0.059676193 0.96400005 1.2354555e-38
-0.061512385 -0.057840001 0.96400005 1.3184316e-38
-0.059552386 -0.057720002 0.96200007 1.1156012e-38
-0.057540003 -0.057540003 0.95900005 7.481157e-39
-0.055539049 -0.057360001 0.95600003 5.4528531e-39
-0.053718098 -0.057360001 0.95600003 3.5264713e-39
-0.051788572 -0.057240006 0.95400006 3.0654931e-39
-0.049971428 -0.057240006 0.95400006 4.0763828e-39
-0.048002861 -0.05706 0.95100003 1.1175446e-38
-0.046045717 -0.056880001 0.94800007 1.5676519e-38
-0.044146664 -0.056760002 0.94600004 1.4109194e-38
-0.042344764 -0.056760002 0.94600004 9.9628733e-39
-0.040414285 -0.05658 0.94300002 9.9628733e-39
-0.038618095 -0.05658 0.94300002 1.1248946e-38
-0.036821906 -0.05658 0.94300002 1.180212e-38
-0.034914289 -0.056400005 0.94000006 1.1434043e-38
-0.03312381 -0.056400005 0.94000006 1.1065261e-38
-0.031333335 -0.056400005 0.94000006 1.2628579e-38
-0.02954286 -0.056400005 0.94000006 1.8344708e-38
-0.027752383 -0.056400005 0.94000006 2.0834045e-38
-0.025961906 -0.056400005 0.94000006 2.2124783e-38
-0.024171429 -0.056400005 0.94000006 2.0562156e-38
-0.022333333 -0.056280002 0.93800002 1.8349461e-38
-0.020546667 -0.056280002 0.93800002 1.4857186e-38
-0.018759999 -0.056280002 0.93800002 1.3197664e-38
-0.016973333 -0.056280002 0.93800002 1.2555895e-38
-0.015219049 -0.056400005 0.94000006 1.3201264e-38
-0.013428572 -0.056400005 0.94000006 1.338386e-38
-0.011638097 -0.056400005 0.94000006 1.2646295e-38
-0.0098476186 -0.056400005 0.94000006 1.3198002e-38
-0.0080571435 -0.056400005 0.94000006 1.4488741e-38
-0.006266667 -0.056400005 0.94000006 1.9545474e-38
-0.0044761905 -0.056400005 0.94000006 2.2126951e-38
-0.0026857145 -0.056400005 0.94000006 2.0468521e-38
-0.00089523813 -0.056400005 0.94000006 1.1617741e-38
0.00089809526 -0.05658 0.94300002 7.4879939e-39
0.0026942857 -0.05658 0.94300002 6.6582332e-39
0.0045047617 -0.056760002 0.94600004 4.3663213e-39
0.0063066669 -0.056760002 0.94600004 4.9194951e-39
0.0081085712 -0.056760002 0.94600004 5.3761446e-39
0.0099314293 -0.056880001 0.94800007 3.6244276e-39
0.011774287 -0.05706 0.95100003 8.5878604e-39
0.013628571 -0.057240006 0.95400006 1.3935207e-38
0.015478096 -0.057360001 0.95600003 1.429212e-38
0.017353334 -0.057540003 0.95900005 7.193057e-39
0.019180002 -0.057540003 0.95900005 7.7440111e-39
0.021116192 -0.057840001 0.96400005 1.2999162e-38
-0.059676193 -0.056003813 0.96400005 1.3367249e-38
-0.057540003 -0.055713337 0.95900005 9.2292922e-39
-0.055713337 -0.055713337 0.95900005 6.0024452e-39
-0.053718098 -0.055539049 0.95600003 2.7003162e-39
-0.051897142 -0.055539049 0.95600003 2.5159249e-39
-0.049971428 -0.055422861 0.95400006 3.2495243e-39
-0.048002861 -0.055248573 0.95100003 9.795414e-39
-0.046191432 -0.055248573 0.95100003 1.5125118e-38
-0.044240002 -0.055074289 0.94800007 1.2728032e-38
-0.042344764 -0.054958098 0.94600004 1.0697545e-38
-0.04054286 -0.054958098 0.94600004 1.078974e-38
-0.038618095 -0.05478381 0.94300002 1.1525536e-38
-0.036821906 -0.05478381 0.94300002 1.2078709e-38
-0.035025716 -0.05478381 0.94300002 1.2078707e-38
-0.03312381 -0.054609526 0.94000006 1.1986511e-38
-0.031333335 -0.054609526 0.94000006 1.1616987e-38
-0.02954286 -0.054609526 0.94000006 1.3737487e-38
-0.027840951 -0.05478381 0.94300002 1.8805699e-38
-0.025961906 -0.054609526 0.94000006 2.2585719e-38
-0.024171429 -0.054609526 0.94000006 2.0468862e-38
-0.022380954 -0.054609526 0.94000006 1.5490298e-38
-0.020590477 -0.054609526 0.94000006 1.2739207e-38
-0.018800002 -0.054609526 0.94000006 1.3200185e-38
-0.017009525 -0.054609526 0.94000006 1.3292028e-38
-0.015219049 -0.054609526 0.94000006 1.3292028e-38
-0.013428572 -0.054609526 0.94000006 1.3384223e-38
-0.011638097 -0.054609526 0.94000006 1.3199832e-38
-0.009879048 -0.05478381 0.94300002 1.2923235e-38
-0.0080571435 -0.054609526 0.94000006 1.2370062e-38
-0.006266667 -0.054609526 0.94000006 1.7796258e-38
-0.0044904761 -0.05478381 0.94300002 2.1023105e-38
-0.0026942857 -0.05478381 0.94300002 1.8811849e-38
-0.00089809526 -0.05478381 0.94300002 8.1171559e-39
0.00089809526 -0.05478381 0.94300002 1.6994962e-39
0.0027028571 -0.054958098 0.94600004 3.8199957e-39
0.0045047617 -0.054958098 0.94600004 5.7453027e-39
0.0063066669 -0.054958098 0.94600004 5.6531071e-39
0.008125715 -0.055074289 0.94800007 5.0073621e-39
0.0099314293 -0.055074289 0.94800007 5.283949e-39
0.011774287 -0.055248573 0.95100003 1.1900452e-38
0.013628571 -0.055422861 0.95400006 1.6510233e-38
0.015478096 -0.055539049 0.95600003 1.6411513e-38
0.017353334 -0.055713337 0.95900005 8.0217106e-39
0.019180002 -0.055713337 0.95900005 8.4826916e-39
0.021116192 -0.056003813 0.96400005 1.2539299e-38
-0.059676193 -0.054167621 0.96400005 1.3733521e-38
-0.057540003 -0.053886667 0.95900005 1.0241974e-38
-0.055713337 -0.053886667 0.95900005 7.0151271e-39
-0.053718098 -0.053718098 0.95600003 3.0662162e-39
-0.051897142 -0.053718098 0.95600003 2.3286512e-39
-0.049971428 -0.053605717 0.95400006 2.4226447e-39
-0.048154291 -0.053605717 0.95400006 1.0259273e-38
-0.046191432 -0.053437144 0.95100003 1.4481573e-38
-0.044240002 -0.053268574 0.94800007 1.3467421e-38
-0.04243429 -0.053268574 0.94800007 1.1066375e-38
-0.04054286 -0.053156193 0.94600004 1.0421005e-38
-0.038740952 -0.053156193 0.94600004 1.143369e-38
-0.036821906 -0.05298762 0.94300002 1.1986864e-38
-0.035025716 -0.05298762 0.94300002 1.2078709e-38
-0.033229522 -0.05298762 0.94300002 1.2078709e-38
-0.031333335 -0.052819051 0.94000006 1.0514968e-38
-0.02954286 -0.052819051 0.94000006 1.2358881e-38
-0.027840951 -0.05298762 0.94300002 1.5950547e-38
-0.025961906 -0.052819051 0.94000006 2.1851068e-38
-0.024171429 -0.052819051 0.94000006 1.8260518e-38
-0.022380954 -0.052819051 0.94000006 1.4019519e-38
-0.020590477 -0.052819051 0.94000006 1.2004156e-38
-0.018800002 -0.052819051 0.94000006 1.3018308e-38
-0.017009525 -0.052819051 0.94000006 1.3476775e-38
-0.015219049 -0.052819051 0.94000006 1.3476775e-38
-0.013471429 -0.05298762 0.94300002 1.3385658e-38
-0.011675238 -0.05298762 0.94300002 1.3109071e-38
-0.009879048 -0.05298762 0.94300002 1.2097072e-38
-0.0080828574 -0.05298762 0.94300002 1.1359507e-38
-0.0062866667 -0.05298762 0.94300002 1.6322952e-38
-0.0044904761 -0.05298762 0.94300002 2.0471756e-38
-0.0026942857 -0.05298762 0.94300002 1.7157751e-38
-0.00089809526 -0.05298762 0.94300002 6.8318401e-39
0.00090095244 -0.053156193 0.94600004 2.0664724e-39
0.0027028571 -0.053156193 0.94600004 4.1869719e-39
0.0045047617 -0.053156193 0.94600004 6.4799839e-39
0.0063200006 -0.053268574 0.94800007 5.6502232e-39
0.008125715 -0.053268574 0.94800007 4.2708761e-39
0.0099628577 -0.053437144 0.95100003 7.4977231e-39
0.011774287 -0.053437144 0.95100003 1.4478689e-38
0.013628571 -0.053605717 0.95400006 1.6691384e-38
0.015526668 -0.053886667 0.95900005 1.668669e-38
0.017353334 -0.053886667 0.95900005 9.9564092e-39
0.019240001 -0.05405524 0.96200007 1.041375e-38
-0.059676193 -0.052331429 0.96400005 1.1889961e-38
-0.057720002 -0.052222859 0.96200007 1.0330542e-38
-0.055713337 -0.052060001 0.95900005 1.1805672e-38
-0.053886667 -0.052060001 0.95900005 7.481908e-39
-0.051897142 -0.051897142 0.95600003 4.255061e-39
-0.049971428 -0.051788572 0.95400006 6.5585294e-39
-0.048154291 -0.051788572 0.95400006 1.4579549e-38
-0.046191432 -0.051625714 0.95100003 1.7240593e-38
-0.044380002 -0.051625714 0.95100003 1.7056201e-38
-0.04243429 -0.051462859 0.94800007 1.4197812e-38
-0.04054286 -0.051354285 0.94600004 1.0141204e-38
-0.038740952 -0.051354285 0.94600004 9.7763269e-39
-0.036939051 -0.051354285 0.94600004 1.097487e-38
-0.035025716 -0.051191427 0.94300002 1.152518e-38
-0.033229522 -0.051191427 0.94300002 1.1709571e-38
-0.031433333 -0.051191427 0.94300002 1.0422422e-38
-0.029637143 -0.051191427 0.94300002 1.2911704e-38
-0.027840951 -0.051191427 0.94300002 1.622573e-38
-0.026044762 -0.051191427 0.94300002 2.1941859e-38
-0.024248572 -0.051191427 0.94300002 1.9917843e-38
-0.022452381 -0.051191427 0.94300002 1.5215866e-38
-0.020656191 -0.051191427 0.94300002 1.2832472e-38
-0.018859999 -0.051191427 0.94300002 1.3385646e-38
-0.01706381 -0.051191427 0.94300002 1.3293463e-38
-0.015267619 -0.051191427 0.94300002 1.357005e-38
-0.013471429 -0.051191427 0.94300002 1.3385656e-38
-0.011675238 -0.051191427 0.94300002 1.3016873e-38
-0.009879048 -0.051191427 0.94300002 1.3291655e-38
-0.0080828574 -0.051191427 0.94300002 1.4490198e-38
-0.0062866667 -0.051191427 0.94300002 1.8441657e-38
-0.0044904761 -0.051191427 0.94300002 2.1391917e-38
-0.0027028571 -0.051354285 0.94600004 2.0286266e-38
-0.00090095244 -0.051354285 0.94600004 1.4570137e-38
0.00090095244 -0.051354285 0.94600004 4.6407992e-39
0.0027085717 -0.051462859 0.94800007 3.0734735e-39
0.0045142858 -0.051462859 0.94800007 1.7913387e-39
0.0063200006 -0.051462859 0.94800007 1.2381649e-39
0.0081514288 -0.051625714 0.95100003 8.223038e-39
0.0099628577 -0.051625714 0.95100003 1.4215754e-38
0.011811429 -0.051788572 0.95400006 1.696722e-38
0.013657142 -0.051897142 0.95600003 1.5768677e-38
0.015526668 -0.052060001 0.95900005 1.6318611e-38
0.017353334 -0.052060001 0.95900005 1.4474698e-38
0.019180002 -0.052060001 0.95900005 1.2537867e-38
-0.059676193 -0.050495241 0.96400005 1.1521542e-38
-0.057720002 -0.050390478 0.96200007 9.4974853e-39
-0.055713337 -0.050233334 0.95900005 1.3185311e-38
-0.053886667 -0.050233334 0.95900005 1.0703328e-38
-0.051897142 -0.05007619 0.95600003 8.3984371e-39
-0.049971428 -0.049971428 0.95400006 1.1529145e-38
-0.048154291 -0.049971428 0.95400006 1.6138927e-38
-0.046191432 -0.049814284 0.95100003 1.769903e-38
-0.044380002 -0.049814284 0.95100003 1.769903e-38
-0.04243429 -0.049657144 0.94800007 1.5951308e-38
-0.040628575 -0.049657144 0.94800007 1.1894701e-38
-0.038740952 -0.049552381 0.94600004 9.5912322e-39
-0.036939051 -0.049552381 0.94600004 1.0328797e-38
-0.035025716 -0.049395241 0.94300002 1.0788296e-38
-0.033229522 -0.049395241 0.94300002 1.1157078e-38
-0.031433333 -0.049395241 0.94300002 1.0973798e-38
-0.029637143 -0.049395241 0.94300002 1.5306993e-38
-0.027840951 -0.049395241 0.94300002 1.8896514e-38
-0.026044762 -0.049395241 0.94300002 2.1662383e-38
-0.024248572 -0.049395241 0.94300002 1.97349e-38
-0.022452381 -0.049395241 0.94300002 1.7061226e-38
-0.020656191 -0.049395241 0.94300002 1.2741752e-38
-0.018859999 -0.049395241 0.94300002 1.2557361e-38
-0.01706381 -0.049395241 0.94300002 1.2833561e-38
-0.015267619 -0.049395241 0.94300002 1.2925756e-38
-0.013471429 -0.049395241 0.94300002 1.3200541e-38
-0.011675238 -0.049395241 0.94300002 1.2831759e-38
-0.0099104764 -0.049552381 0.94600004 1.3842318e-38
-0.0081085712 -0.049552381 0.94600004 1.6147208e-38
-0.0063066669 -0.049552381 0.94600004 1.9454007e-38
-0.0045047617 -0.049552381 0.94600004 2.0468159e-38
-0.0027028571 -0.049552381 0.94600004 2.019407e-38
-0.00090095244 -0.049552381 0.94600004 1.8165766e-38
0.00090285722 -0.049657144 0.94800007 1.1082972e-38
0.0027085717 -0.049657144 0.94800007 4.813669e-39
0.0045142858 -0.049657144 0.94800007 1.5129077e-39
0.0063200006 -0.049657144 0.94800007 2.5270596e-39
0.0081514288 -0.049814284 0.95100003 1.0706587e-38
0.0099942861 -0.049971428 0.95400006 1.5777347e-38
0.011811429 -0.049971428 0.95400006 1.6875037e-38
0.013657142 -0.05007619 0.95600003 1.4201364e-38
0.015526668 -0.050233334 0.95900005 1.5029686e-38
0.017353334 -0.050233334 0.95900005 1.4568707e-38
0.019180002 -0.050233334 0.95900005 1.3642041e-38
-0.059861906 -0.048810478 0.96700007 1.1613375e-38
-0.057720002 -0.048558097 0.96200007 9.3109977e-39
-0.055713337 -0.048406668 0.95900005 1.2814432e-38
-0.053886667 -0.048406668 0.95900005 1.2911338e-38
-0.051897142 -0.048255239 0.95600003 1.4017686e-38
-0.05007619 -0.048255239 0.95600003 1.4754904e-38
-0.048154291 -0.048154291 0.95400006 1.503149e-38
-0.046337146 -0.048154291 0.95400006 1.567573e-38
-0.044380002 -0.048002861 0.95100003 1.6228904e-38
-0.04243429 -0.047851432 0.94800007 1.6872176e-38
-0.040628575 -0.047851432 0.94800007 1.6687785e-38
-0.038740952 -0.047750477 0.94600004 1.3463458e-38
-0.036939051 -0.047750477 0.94600004 9.6834376e-39
-0.035025716 -0.047599047 0.94300002 9.8685225e-39
-0.033229522 -0.047599047 0.94300002 1.3556348e-38
-0.031433333 -0.047599047 0.94300002 1.7055453e-38
-0.029637143 -0.047599047 0.94300002 2.1204256e-38
-0.027929526 -0.047750477 0.94600004 2.0099013e-38
-0.026044762 -0.047599047 0.94300002 1.8992665e-38
-0.024248572 -0.047599047 0.94300002 1.9733086e-38
-0.022452381 -0.047599047 0.94300002 2.0470651e-38
-0.020656191 -0.047599047 0.94300002 1.8444887e-38
-0.018859999 -0.047599047 0.94300002 1.5863409e-38
-0.01706381 -0.047599047 0.94300002 1.3015797e-38
-0.015316191 -0.047750477 0.94600004 1.273921e-38
-0.013514286 -0.047750477 0.94600004 1.3199109e-38
-0.011712381 -0.047750477 0.94600004 1.4766435e-38
-0.0099104764 -0.047750477 0.94600004 1.8996606e-38
-0.0081085712 -0.047750477 0.94600004 2.0840519e-38
-0.0063066669 -0.047750477 0.94600004 1.9085224e-38
-0.0045047617 -0.047750477 0.94600004 1.6595942e-38
-0.0027028571 -0.047750477 0.94600004 1.8624586e-38
-0.00090285722 -0.047851432 0.94800007 2.1482651e-38
0.00090285722 -0.047851432 0.94800007 1.8995922e-38
0.0027085717 -0.047851432 0.94800007 1.4847119e-38
0.0045142858 -0.047851432 0.94800007 1.2000503e-38
0.0063399998 -0.048002861 0.95100003 1.310685e-38
0.0081514288 -0.048002861 0.95100003 1.5126595e-38
0.0099942861 -0.048154291 0.95400006 1.5679769e-38
0.011836191 -0.048255239 0.95600003 1.3836191e-38
0.013657142 -0.048255239 0.95600003 1.1162518e-38
0.015526668 -0.048406668 0.95900005 1.1716401e-38
0.017353334 -0.048406668 0.95900005 1.1716401e-38
0.019180002 -0.048406668 0.95900005 1.2722962e-38
-0.057840001 -0.046822857 0.96400005 9.4932114e-39
-0.055887621 -0.046725716 0.96200007 1.0876146e-38
-0.053886667 -0.046580002 0.95900005 1.437854e-38
-0.051897142 -0.046434287 0.95600003 1.6867822e-38
-0.05007619 -0.046434287 0.95600003 1.5400989e-38
-0.048154291 -0.046337146 0.95400006 1.3188294e-38
-0.046337146 -0.046337146 0.95400006 1.1901496e-38
-0.044380002 -0.046191432 0.95100003 1.2823452e-38
-0.042568572 -0.046191432 0.95100003 1.7056182e-38
-0.040628575 -0.046045717 0.94800007 1.8070334e-38
-0.038740952 -0.045948572 0.94600004 1.6688501e-38
-0.036939051 -0.045948572 0.94600004 1.0234807e-38
-0.035137143 -0.045948572 0.94600004 1.051099e-38
-0.033229522 -0.045802858 0.94300002 1.5673945e-38
-0.031433333 -0.045802858 0.94300002 1.9355697e-38
-0.029637143 -0.045802858 0.94300002 2.1384001e-38
-0.027929526 -0.045948572 0.94600004 1.8904067e-38
-0.02612762 -0.045948572 0.94600004 1.5953807e-38
-0.024325715 -0.045948572 0.94600004 1.6967921e-38
-0.022523811 -0.045948572 0.94600004 2.0194768e-38
-0.020656191 -0.045802858 0.94300002 2.1020969e-38
-0.018859999 -0.045802858 0.94300002 1.82551e-38
-0.017118096 -0.045948572 0.94600004 1.3660097e-38
-0.015316191 -0.045948572 0.94600004 1.2461554e-38
-0.013514286 -0.045948572 0.94600004 1.2922156e-38
-0.011712381 -0.045948572 0.94600004 1.6149004e-38
-0.0099104764 -0.045948572 0.94600004 2.0283767e-38
-0.0081085712 -0.045948572 0.94600004 2.0283767e-38
-0.0063066669 -0.045948572 0.94600004 1.8532401e-38
-0.0045142858 -0.046045717 0.94800007 1.5213358e-38
-0.0027085717 -0.046045717 0.94800007 1.6410794e-38
-0.00090285722 -0.046045717 0.94800007 2.0190815e-38
0.00090285722 -0.046045717 0.94800007 2.1480147e-38
0.0027085717 -0.046045717 0.94800007 1.908306e-38
0.0045285714 -0.046191432 0.95100003 1.4574485e-38
0.0063399998 -0.046191432 0.95100003 1.6234006e-38
0.0081771435 -0.046337146 0.95400006 1.7522214e-38
0.0099942861 -0.046337146 0.95400006 1.4295367e-38
0.011836191 -0.046434287 0.95600003 1.2179184e-38
0.013657142 -0.046434287 0.95600003 1.0611858e-38
0.015526668 -0.046580002 0.95900005 1.0429625e-38
0.017353334 -0.046580002 0.95900005 9.5998642e-39
0.019180002 -0.046580002 0.95900005 1.2078303e-38
-0.055887621 -0.044893336 0.96200007 7.5593228e-39
-0.053886667 -0.044753335 0.95900005 1.0972334e-38
-0.051897142 -0.044613335 0.95600003 1.5582115e-38
-0.05007619 -0.044613335 0.95600003 1.4295342e-38
-0.048255239 -0.044613335 0.95600003 1.1990451e-38
-0.046337146 -0.044520002 0.95400006 1.0522915e-38
-0.044520002 -0.044520002 0.95400006 1.0799502e-38
-0.042568572 -0.044380002 0.95100003 1.3650689e-38
-0.040628575 -0.044240002 0.94800007 1.7338514e-38
-0.038740952 -0.044146664 0.94600004 1.8530968e-38
-0.036939051 -0.044146664 0.94600004 1.6779252e-38
-0.035137143 -0.044146664 0.94600004 1.8256118e-38
-0.033335239 -0.044146664 0.94600004 2.0929791e-38
-0.031533334 -0.044146664 0.94600004 1.9637682e-38
-0.029731428 -0.044146664 0.94600004 1.6687422e-38
-0.027929526 -0.044146664 0.94600004 9.6957144e-39
-0.02612762 -0.044146664 0.94600004 5.8234979e-39
-0.024325715 -0.044146664 0.94600004 8.9580919e-39
-0.022523811 -0.044146664 0.94600004 1.5596177e-38
-0.020721905 -0.044146664 0.94600004 2.0006815e-38
-0.018920001 -0.044146664 0.94600004 2.1850727e-38
-0.017118096 -0.044146664 0.94600004 2.0194433e-38
-0.015316191 -0.044146664 0.94600004 1.7612955e-38
-0.013514286 -0.044146664 0.94600004 1.8720019e-38
-0.011712381 -0.044146664 0.94600004 2.1117105e-38
-0.0099104764 -0.044146664 0.94600004 2.0652187e-38
-0.008125715 -0.044240002 0.94800007 1.5581427e-38
-0.0063200006 -0.044240002 0.94800007 1.152701e-38
-0.0045142858 -0.044240002 0.94800007 1.088164e-38
-0.0027085717 -0.044240002 0.94800007 1.2076924e-38
-0.00090285722 -0.044240002 0.94800007 1.5672554e-38
0.00090571429 -0.044380002 0.95100003 1.8068896e-38
0.0027171429 -0.044380002 0.95100003 2.1203547e-38
0.0045285714 -0.044380002 0.95100003 2.0377017e-38
0.0063600005 -0.044520002 0.95400006 1.8348713e-38
0.0081771435 -0.044520002 0.95400006 1.5772287e-38
0.010015239 -0.044613335 0.95600003 1.2822027e-38
0.011836191 -0.044613335 0.95600003 1.1077168e-38
0.013700001 -0.044753335 0.95900005 1.0247407e-38
0.015526668 -0.044753335 0.95900005 1.0706572e-38
0.01740762 -0.044893336 0.96200007 9.0470505e-39
0.019280002 -0.044986669 0.96400005 1.1525863e-38
-0.055887621 -0.043060955 0.96200007 6.8242591e-39
-0.05405524 -0.043060955 0.96200007 9.9596041e-39
-0.052060001 -0.042926669 0.95900005 1.4938168e-38
-0.05007619 -0.042792384 0.95600003 1.328301e-38
-0.048255239 -0.042792384 0.95600003 1.1254707e-38
-0.046434287 -0.042792384 0.95600003 9.8800608e-39
-0.044520002 -0.042702857 0.95400006 1.0156648e-38
-0.042702857 -0.042702857 0.95400006 1.0983862e-38
-0.040757146 -0.042568572 0.95100003 1.3934122e-38
-0.03882286 -0.04243429 0.94800007 1.7887031e-38
-0.037017144 -0.04243429 0.94800007 1.917777e-38
-0.035137143 -0.042344764 0.94600004 1.9544404e-38
-0.033335239 -0.042344764 0.94600004 1.9913187e-38
-0.031533334 -0.042344764 0.94600004 1.8258344e-38
-0.029731428 -0.042344764 0.94600004 1.2910998e-38
-0.027988574 -0.04243429 0.94800007 5.9300345e-39
-0.02612762 -0.042344764 0.94600004 4.0861219e-39
-0.024325715 -0.042344764 0.94600004 5.835643e-39
-0.022523811 -0.042344764 0.94600004 9.9844463e-39
-0.020721905 -0.042344764 0.94600004 1.8071034e-38
-0.018920001 -0.042344764 0.94600004 2.0744708e-38
-0.017118096 -0.042344764 0.94600004 2.175745e-38
-0.015316191 -0.042344764 0.94600004 2.0835493e-38
-0.013514286 -0.042344764 0.94600004 2.0193014e-38
-0.011712381 -0.042344764 0.94600004 2.04696e-38
-0.0099104764 -0.042344764 0.94600004 1.8993026e-38
-0.008125715 -0.04243429 0.94800007 1.2631527e-38
-0.0063200006 -0.04243429 0.94800007 1.2170173e-38
-0.0045142858 -0.04243429 0.94800007 1.2907739e-38
-0.0027085717 -0.04243429 0.94800007 1.2078334e-38
-0.00090571429 -0.042568572 0.95100003 1.2078334e-38
0.00090571429 -0.042568572 0.95100003 1.6038765e-38
0.0027257146 -0.042702857 0.95400006 2.1662698e-38
0.0045428574 -0.042702857 0.95400006 2.0929146e-38
0.0063600005 -0.042702857 0.95400006 1.7978886e-38
0.0081942854 -0.042792384 0.95600003 1.3197652e-38
0.010015239 -0.042792384 0.95600003 1.0892761e-38
0.011873334 -0.042926669 0.95900005 1.0251007e-38
0.013700001 -0.042926669 0.95900005 9.6056375e-39
0.015526668 -0.042926669 0.95900005 1.0522537e-38
0.01740762 -0.043060955 0.96200007 9.3239934e-39
0.019280002 -0.043150477 0.96400005 1.170917e-38
0.021116192 -0.043150477 0.96400005 1.3460887e-38
-0.056003813 -0.041314285 0.96400005 6.0849116e-39
-0.054167621 -0.041314285 0.96400005 9.0387562e-39
-0.052331429 -0.041314285 0.96400005 1.4293907e-38
-0.050233334 -0.041100003 0.95900005 1.3281931e-38
-0.048406668 -0.041100003 0.95900005 1.1345823e-38
-0.046434287 -0.040971428 0.95600003 9.8800734e-39
-0.044613335 -0.040971428 0.95600003 1.0709834e-38
-0.042702857 -0.040885717 0.95400006 1.0984606e-38
-0.040757146 -0.040757146 0.95100003 1.1261193e-38
-0.03882286 -0.040628575 0.94800007 1.5583563e-38
-0.037017144 -0.040628575 0.94800007 1.9824562e-38
-0.035137143 -0.04054286 0.94600004 1.9545476e-38
-0.033335239 -0.04054286 0.94600004 1.5488869e-38
-0.031533334 -0.04054286 0.94600004 8.4067678e-39
-0.029731428 -0.04054286 0.94600004 7.3926159e-39
-0.027988574 -0.040628575 0.94800007 5.3800977e-39
-0.02618286 -0.040628575 0.94800007 5.9332715e-39
-0.024325715 -0.04054286 0.94600004 7.4015842e-39
-0.022523811 -0.04054286 0.94600004 6.6640192e-39
-0.020721905 -0.04054286 0.94600004 1.1906116e-38
-0.018960001 -0.040628575 0.94800007 1.5686136e-38
-0.017118096 -0.04054286 0.94600004 2.092838e-38
-0.015316191 -0.04054286 0.94600004 2.3325466e-38
-0.013514286 -0.04054286 0.94600004 2.1203928e-38
-0.011737144 -0.040628575 0.94800007 1.5487799e-38
-0.0099314293 -0.040628575 0.94800007 1.2078742e-38
-0.008125715 -0.040628575 0.94800007 1.2078742e-38
-0.0063200006 -0.040628575 0.94800007 1.290882e-38
-0.0045142858 -0.040628575 0.94800007 1.3646385e-38
-0.0027171429 -0.040757146 0.95100003 1.3275102e-38
-0.00090571429 -0.040757146 0.95100003 1.2076558e-38
0.00090857147 -0.040885717 0.95400006 1.1616299e-38
0.0027257146 -0.040885717 0.95400006 1.7701211e-38
0.0045428574 -0.040885717 0.95400006 1.8994823e-38
0.0063733337 -0.040971428 0.95600003 1.6136759e-38
0.0081942854 -0.040971428 0.95600003 1.1723263e-38
0.010046667 -0.041100003 0.95900005 1.0801307e-38
0.011873334 -0.041100003 0.95900005 1.0342487e-38
0.013700001 -0.041100003 0.95900005 9.5127258e-39
0.015526668 -0.041100003 0.95900005 1.1993701e-38
0.01744381 -0.041314285 0.96400005 1.2454679e-38
0.019280002 -0.041314285 0.96400005 1.3827512e-38
0.021116192 -0.041314285 0.96400005 1.3919707e-38
0.022952382 -0.041314285 0.96400005 1.4469637e-38
-0.054167621 -0.039478097 0.96400005 8.5792284e-39
-0.052331429 -0.039478097 0.96400005 1.4203162e-38
-0.050390478 -0.039396197 0.96200007 1.309791e-38
-0.048558097 -0.039396197 0.96200007 1.1161802e-38
-0.046434287 -0.039150476 0.95600003 9.6960353e-39
-0.044613335 -0.039150476 0.95600003 1.0710187e-38
-0.042792384 -0.039150476 0.95600003 1.0158446e-38
-0.040971428 -0.039150476 0.95600003 9.9740543e-39
-0.039068572 -0.039068572 0.95400006 1.2640515e-38
-0.037251431 -0.039068572 0.95400006 1.8264449e-38
-0.035322856 -0.038945716 0.95100003 1.8720417e-38
-0.03351143 -0.038945716 0.95100003 1.1529158e-38
-0.031600002 -0.03882286 0.94800007 4.3634346e-39
-0.029794287 -0.03882286 0.94800007 5.1931953e-39
-0.027988574 -0.03882286 0.94800007 4.9205713e-39
-0.02618286 -0.03882286 0.94800007 6.1191145e-39
-0.024377145 -0.03882286 0.94800007 7.1285903e-39
-0.022571431 -0.03882286 0.94800007 5.6534602e-39
-0.020765714 -0.03882286 0.94800007 4.9190845e-39
-0.018960001 -0.03882286 0.94800007 7.777149e-39
-0.017154286 -0.03882286 0.94800007 1.8346915e-38
-0.015348572 -0.03882286 0.94800007 2.2587914e-38
-0.013542858 -0.03882286 0.94800007 2.1111367e-38
-0.011737144 -0.03882286 0.94800007 1.3551325e-38
-0.0099314293 -0.03882286 0.94800007 1.1527325e-38
-0.008125715 -0.03882286 0.94800007 1.2910259e-38
-0.0063200006 -0.03882286 0.94800007 1.3275452e-38
-0.0045285714 -0.038945716 0.95100003 1.3644234e-38
-0.0027171429 -0.038945716 0.95100003 1.3735714e-38
-0.00090571429 -0.038945716 0.95100003 1.2537171e-38
0.00090857147 -0.039068572 0.95400006 1.0054693e-38
0.0027257146 -0.039068572 0.95400006 1.6969366e-38
0.0045523811 -0.039150476 0.95600003 1.7891745e-38
0.0063733337 -0.039150476 0.95600003 1.5033681e-38
0.0081942854 -0.039150476 0.95600003 1.0895648e-38
0.010046667 -0.039273337 0.95900005 1.0342474e-38
0.011873334 -0.039273337 0.95900005 1.0066969e-38
0.013742859 -0.039396197 0.96200007 1.0066969e-38
0.015575239 -0.039396197 0.96200007 1.3005335e-38
0.01744381 -0.039478097 0.96400005 1.2913139e-38
0.019280002 -0.039478097 0.96400005 1.4286682e-38
0.021116192 -0.039478097 0.96400005 1.4286682e-38
0.022952382 -0.039478097 0.96400005 1.4469634e-38
-0.054336194 -0.037759051 0.96700007 1.1154264e-38
-0.052494287 -0.037759051 0.96700007 1.6409415e-38
-0.050495241 -0.037641905 0.96400005 1.4478304e-38
-0.048659049 -0.037641905 0.96400005 1.2357805e-38
-0.046725716 -0.037563812 0.96200007 1.0615118e-38
-0.044893336 -0.037563812 0.96200007 1.1168291e-38
-0.042926669 -0.037446667 0.95900005 1.0250278e-38
-0.040971428 -0.037329525 0.95600003 1.0250278e-38
-0.039068572 -0.037251431 0.95400006 1.245542e-38
-0.037251431 -0.037251431 0.95400006 1.7710571e-38
-0.035434287 -0.037251431 0.95400006 1.7801312e-38
-0.03351143 -0.037134286 0.95100003 1.0425662e-38
-0.031600002 -0.037017144 0.94800007 1.8846063e-39
-0.029794287 -0.037017144 0.94800007 3.8207145e-39
-0.027988574 -0.037017144 0.94800007 6.0247636e-39
-0.02618286 -0.037017144 0.94800007 6.5779374e-39
-0.024377145 -0.037017144 0.94800007 7.4048114e-39
-0.022571431 -0.037017144 0.94800007 6.9438333e-39
-0.020765714 -0.037017144 0.94800007 4.8287414e-39
-0.018960001 -0.037017144 0.94800007 4.183372e-39
-0.017154286 -0.037017144 0.94800007 1.6600194e-38
-0.015348572 -0.037017144 0.94800007 2.1209975e-38
-0.013542858 -0.037017144 0.94800007 2.0188663e-38
-0.011737144 -0.037017144 0.94800007 1.2536425e-38
-0.0099314293 -0.037017144 0.94800007 1.1343662e-38
-0.0081514288 -0.037134286 0.95100003 1.3003184e-38
-0.0063399998 -0.037134286 0.95100003 1.364424e-38
-0.0045285714 -0.037134286 0.95100003 1.3552044e-38
-0.0027171429 -0.037134286 0.95100003 1.3183978e-38
-0.00090571429 -0.037134286 0.95100003 1.1893239e-38
0.00090857147 -0.037251431 0.95400006 1.1803192e-38
0.0027314285 -0.037329525 0.95600003 1.8533473e-38
0.0045523811 -0.037329525 0.95600003 1.9270701e-38
0.0063933334 -0.037446667 0.95900005 1.7058006e-38
0.0082200002 -0.037446667 0.95900005 1.2827803e-38
0.010078096 -0.037563812 0.96200007 1.0799499e-38
0.011910477 -0.037563812 0.96200007 1.0892058e-38
0.013742859 -0.037563812 0.96200007 1.2274992e-38
0.015575239 -0.037563812 0.96200007 1.392655e-38
0.01744381 -0.037641905 0.96400005 1.1345072e-38
0.019280002 -0.037641905 0.96400005 1.2811933e-38
0.021116192 -0.037641905 0.96400005 1.4102672e-38
0.022952382 -0.037641905 0.96400005 1.4469634e-38
-0.054336194 -0.035917144 0.96700007 1.3733183e-38
-0.052494287 -0.035917144 0.96700007 1.6038074e-38
-0.050495241 -0.035805713 0.96400005 1.4294616e-38
-0.048659049 -0.035805713 0.96400005 1.3003877e-38
-0.046822857 -0.035805713 0.96400005 1.1166121e-38
-0.044893336 -0.035731431 0.96200007 1.1350512e-38
-0.042926669 -0.03562 0.95900005 9.9740417e-39
-0.040971428 -0.035508573 0.95600003 1.0066237e-38
-0.039150476 -0.035508573 0.95600003 1.2088077e-38
-0.037251431 -0.035434287 0.95400006 1.7251032e-38
-0.035434287 -0.035434287 0.95400006 1.7433621e-38
-0.03351143 -0.035322856 0.95100003 1.1717492e-38
-0.0317 -0.035322856 0.95100003 3.6294989e-39
-0.029888572 -0.035322856 0.95100003 4.4592596e-39
-0.028077144 -0.035322856 0.95100003 5.6563413e-39
-0.026265714 -0.035322856 0.95100003 6.3939063e-39
-0.024454286 -0.035322856 0.95100003 7.1278714e-39
-0.022571431 -0.035211433 0.94800007 6.6668932e-39
-0.020765714 -0.035211433 0.94800007 1.704531e-39
-0.018960001 -0.035211433 0.94800007 2.718683e-39
-0.017154286 -0.035211433 0.94800007 1.5493895e-38
-0.015397143 -0.035322856 0.95100003 2.0841242e-38
-0.013585715 -0.035322856 0.95100003 1.8901186e-38
-0.011737144 -0.035211433 0.94800007 1.1986514e-38
-0.0099314293 -0.035211433 0.94800007 1.1985435e-38
-0.0081514288 -0.035322856 0.95100003 1.3460565e-38
-0.0063399998 -0.035322856 0.95100003 1.3552042e-38
-0.0045285714 -0.035322856 0.95100003 1.336765e-38
-0.0027257146 -0.035434287 0.95400006 1.2539685e-38
-0.00090857147 -0.035434287 0.95400006 1.2447489e-38
0.00090857147 -0.035434287 0.95400006 1.3919414e-38
0.0027314285 -0.035508573 0.95600003 1.9266761e-38
0.0045666667 -0.03562 0.95900005 2.0651102e-38
0.0063933334 -0.03562 0.95900005 1.8899385e-38
0.0082457149 -0.035731431 0.96200007 1.5036908e-38
0.010099048 -0.035805713 0.96400005 1.1164691e-38
0.011935239 -0.035805713 0.96400005 1.1901165e-38
0.01377143 -0.035805713 0.96400005 1.3837273e-38
0.01560762 -0.035805713 0.96400005 1.4660888e-38
0.017498096 -0.035917144 0.96700007 1.0419889e-38
0.019280002 -0.035805713 0.96400005 1.170626e-38
