# .PCD v0.7 - Point Cloud Data file format
VERSION 0.7
FIELDS x y z rgba
SIZE 4 4 4 4
TYPE F F F U
COUNT 1 1 1 1
WIDTH 1105
HEIGHT 1
VIEWPOINT 0 0 0 1 0 0 0
POINTS 1105
DATA ascii
-0.015326667 0.10567334 0.84700006 11644531
-0.013745715 0.10592286 0.84900004 9802327
-0.012157143 0.10617238 0.85100001 12896906
-0.01053619 0.10617238 0.85100001 16777157
-0.0089466665 0.10654666 0.85400003 16646113
-0.092547618 0.10703333 0.84500003 15460014
-0.090507619 0.10652667 0.84100002 12894087
-0.088482857 0.10602 0.83700001 13419650
-0.086680956 0.10576668 0.83500004 12959099
-0.085090473 0.10576668 0.83500004 13286741
-0.083500005 0.10576668 0.83500004 14471015
-0.08190953 0.10576668 0.83500004 14995091
-0.080126666 0.10551334 0.83300006 16442537
-0.078540005 0.10551334 0.83300006 16510142
-0.083420001 0.11438 0.90300006 16246970
-0.081700005 0.11438 0.90300006 16311980
-0.079980001 0.11438 0.90300006 16246187
-0.07852 0.11476 0.90600002 16442037
-0.076794289 0.11476 0.90600002 16310451
-0.075068571 0.11476 0.90600002 16511423
-0.07334286 0.11476 0.90600002 16379837
-0.071617141 0.11476 0.90600002 16510658
-0.070045717 0.11501334 0.90800005 16050107
-0.068466663 0.11526667 0.91000003 15523225
-0.06673333 0.11526667 0.91000003 15523225
-0.065214291 0.11564668 0.91300005 15653786
-0.063475236 0.11564668 0.91300005 15785372
-0.061736196 0.11564668 0.91300005 15719059
-0.059997145 0.11564668 0.91300005 16376989
-0.058258098 0.11564668 0.91300005 16311730
-0.056519046 0.11564668 0.91300005 16180144
-0.054780003 0.11564668 0.91300005 16644825
-0.053040955 0.11564668 0.91300005 16644825
-0.051301908 0.11564668 0.91300005 16645350
-0.04956286 0.11564668 0.91300005 16579557
-0.047823813 0.11564668 0.91300005 16645350
-0.046084765 0.11564668 0.91300005 16184799
-0.044345718 0.11564668 0.91300005 15721146
-0.042466667 0.11526667 0.91000003 16050111
-0.040733334 0.11526667 0.91000003 16377021
-0.039000001 0.11526667 0.91000003 16179642
-0.037184764 0.11501334 0.90800005 15785638
-0.035377141 0.11476 0.90600002 15325087
-0.033651426 0.11476 0.90600002 13945996
-0.031925712 0.11476 0.90600002 13945996
-0.030100001 0.11438 0.90300006 14075788
-0.026494287 0.10678001 0.84300005 13483651
-0.024888573 0.10678001 0.84300005 13679976
-0.023282859 0.10678001 0.84300005 13943148
-0.021677144 0.10678001 0.84300005 12762999
-0.020071428 0.10678001 0.84300005 10986588
-0.018509526 0.10703333 0.84500003 9999885
-0.01694 0.10728668 0.84700006 12500019
-0.015326667 0.10728668 0.84700006 11841374
-0.013713335 0.10728668 0.84700006 10722893
-0.012157143 0.10779333 0.85100001 13093508
-0.010573333 0.10817333 0.85400003 16777151
-0.0089466665 0.10817333 0.85400003 16646116
-0.092547618 0.10864286 0.84500003 15788200
-0.090722859 0.10838572 0.84300005 13419652
-0.088905722 0.10812858 0.84100002 13026175
-0.087096192 0.10787144 0.83900005 11118178
-0.085294284 0.10761429 0.83700001 11643745
-0.083500005 0.10735714 0.83500004 13749121
-0.08190953 0.10735714 0.83500004 13614728
-0.080126666 0.10710001 0.83300006 12627833
-0.078540005 0.10710001 0.83300006 13219182
-0.077138096 0.10735714 0.83500004 13482354
-0.081700005 0.11610001 0.90300006 13811825
-0.079980001 0.11610001 0.90300006 14206583
-0.07852 0.11648571 0.90600002 14862487
-0.076794289 0.11648571 0.90600002 15454624
-0.075068571 0.11648571 0.90600002 16047985
-0.07334286 0.11648571 0.90600002 16179571
-0.071617141 0.11648571 0.90600002 16378263
-0.070199996 0.11700001 0.91000003 16509849
-0.068466663 0.11700001 0.91000003 16312995
-0.066953339 0.11738572 0.91300005 16641960
-0.065214291 0.11738572 0.91300005 16378261
-0.063475236 0.11738572 0.91300005 16509847
-0.061736196 0.11738572 0.91300005 16378275
-0.059997145 0.11738572 0.91300005 16509861
-0.058258098 0.11738572 0.91300005 16114360
-0.056519046 0.11738572 0.91300005 15916981
-0.054780003 0.11738572 0.91300005 15850654
-0.053040955 0.11738572 0.91300005 15521689
-0.051301908 0.11738572 0.91300005 14864804
-0.04956286 0.11738572 0.91300005 14535839
-0.047823813 0.11738572 0.91300005 13682089
-0.046084765 0.11738572 0.91300005 12892573
-0.044345718 0.11738572 0.91300005 13089390
-0.04260667 0.11738572 0.91300005 12957804
-0.040733334 0.11700001 0.91000003 12759914
-0.039000001 0.11700001 0.91000003 12233570
-0.037184764 0.11674286 0.90800005 12234079
-0.035260003 0.11610001 0.90300006 13615732
-0.033540003 0.11610001 0.90300006 13681541
-0.031820003 0.11610001 0.90300006 14076299
-0.028033335 0.10812858 0.84100002 13090178
-0.026431428 0.10812858 0.84100002 10853216
-0.024888573 0.10838572 0.84300005 11182454
-0.023282859 0.10838572 0.84300005 12893072
-0.021677144 0.10838572 0.84300005 13024385
-0.020071428 0.10838572 0.84300005 13090178
-0.018509526 0.10864286 0.84500003 12566135
-0.01694 0.10890001 0.84700006 11710826
-0.015326667 0.10890001 0.84700006 10857050
-0.013713335 0.10890001 0.84700006 10067534
-0.012128572 0.10915715 0.84900004 13094021
-0.010573333 0.1098 0.85400003 16777152
-0.0089466665 0.1098 0.85400003 16646120
-0.090722859 0.10999143 0.84300005 13354102
-0.088905722 0.10973047 0.84100002 12697469
-0.08730381 0.10973047 0.84100002 10460507
-0.085498095 0.10946953 0.83900005 10592836
-0.083500005 0.10894762 0.83500004 12829798
-0.08190953 0.10894762 0.83500004 13287555
-0.080319054 0.10894762 0.83500004 11642730
-0.078728572 0.10894762 0.83500004 11444804
-0.076953337 0.10868668 0.83300006 12629078
-0.075366676 0.10868668 0.83300006 12563564
-0.080245718 0.11821143 0.90600002 13682045
-0.07852 0.11821143 0.90600002 13681282
-0.076794289 0.11821143 0.90600002 13483903
-0.075068571 0.11821143 0.90600002 13615447
-0.066785723 0.10764287 0.82500005 13812826
-0.065214291 0.10764287 0.82500005 14337917
-0.063642859 0.10764287 0.82500005 14732675
-0.062071431 0.10764287 0.82500005 14995854
-0.066953339 0.11912477 0.91300005 14601096
-0.058928575 0.10764287 0.82500005 14403967
-0.057357144 0.10764287 0.82500005 14403967
-0.061736196 0.11912477 0.91300005 14404219
-0.059997145 0.11912477 0.91300005 14272633
-0.052770477 0.10790381 0.82700002 14009479
-0.051195238 0.10790381 0.82700002 13877893
-0.049620003 0.10790381 0.82700002 13417074
-0.048044764 0.10790381 0.82700002 13482867
-0.046469525 0.10790381 0.82700002 13680248
-0.044894286 0.10790381 0.82700002 13417076
-0.043319046 0.10790381 0.82700002 13154695
-0.041743811 0.10790381 0.82700002 13220488
-0.040168572 0.10790381 0.82700002 12433795
-0.04260667 0.11912477 0.91300005 11052142
-0.040867623 0.11912477 0.91300005 10658888
-0.039000001 0.11873334 0.91000003 10527302
-0.037102856 0.11821143 0.90600002 10330408
-0.035260003 0.11782 0.90300006 12830542
-0.031014288 0.10894762 0.83500004 13418889
-0.029423811 0.10894762 0.83500004 13418889
-0.028033335 0.10973047 0.84100002 11711346
-0.026431428 0.10973047 0.84100002 9605970
-0.024888573 0.10999143 0.84300005 9936205
-0.023282859 0.10999143 0.84300005 11186272
-0.021677144 0.10999143 0.84300005 13286272
-0.020071428 0.10999143 0.84300005 13812616
-0.018509526 0.11025239 0.84500003 13747865
-0.01694 0.11051334 0.84700006 10129250
-0.015326667 0.11051334 0.84700006 9081088
-0.013713335 0.11051334 0.84700006 10660102
-0.012128572 0.11077429 0.84900004 13421969
-0.010573333 0.11142667 0.85400003 16777160
-0.090938091 0.11186191 0.84500003 12040021
-0.089117147 0.11159715 0.84300005 11645558
-0.08730381 0.11133238 0.84100002 10395491
-0.085701905 0.11133238 0.84100002 10396529
-0.083500005 0.1105381 0.83500004 11251838
-0.08190953 0.1105381 0.83500004 12103785
-0.080319054 0.1105381 0.83500004 11972199
-0.078728572 0.1105381 0.83500004 12233820
-0.076953337 0.11027334 0.83300006 13023336
-0.075366676 0.11027334 0.83300006 13549946
-0.073602863 0.11000858 0.83100003 14207876
-0.072020002 0.11000858 0.83100003 13288059
-0.070267625 0.10974382 0.82900006 10787925
-0.068688571 0.10974382 0.82900006 10920018
-0.066785723 0.10921429 0.82500005 11775327
-0.065214291 0.10921429 0.82500005 12561799
-0.063642859 0.10921429 0.82500005 14075038
-0.062071431 0.10921429 0.82500005 13287028
-0.060500003 0.10921429 0.82500005 12365926
-0.058928575 0.10921429 0.82500005 12104821
-0.057357144 0.10921429 0.82500005 12433786
-0.055785719 0.10921429 0.82500005 12761436
-0.054214288 0.10921429 0.82500005 13024608
-0.052770477 0.10947905 0.82700002 13548683
-0.051195238 0.10947905 0.82700002 14272406
-0.049620003 0.10947905 0.82700002 13154690
-0.048044764 0.10947905 0.82700002 11904623
-0.046469525 0.10947905 0.82700002 11840075
-0.044894286 0.10947905 0.82700002 12366419
-0.043319046 0.10947905 0.82700002 12825975
-0.041743811 0.10947905 0.82700002 14141835
-0.040168572 0.10947905 0.82700002 13287307
-0.038686667 0.10974382 0.82900006 11708275
-0.03710762 0.10974382 0.82900006 10790978
-0.035614286 0.11000858 0.83100003 10725185
-0.034031428 0.11000858 0.83100003 11052358
-0.032448575 0.11000858 0.83100003 13157734
-0.030940004 0.11027334 0.83300006 12762742
-0.029423811 0.1105381 0.83500004 11117917
-0.028033335 0.11133238 0.84100002 9936982
-0.026431428 0.11133238 0.84100002 9015880
-0.024888573 0.11159715 0.84300005 9214040
-0.023282859 0.11159715 0.84300005 9674591
-0.021677144 0.11159715 0.84300005 11840620
-0.020119047 0.11186191 0.84500003 13156480
-0.018509526 0.11186191 0.84500003 12566131
-0.01694 0.11212667 0.84700006 8355379
-0.015362858 0.11239143 0.84900004 8096572
-0.013778095 0.11265619 0.85100001 11386222
-0.012200001 0.11305334 0.85400003 13685416
-0.010573333 0.11305334 0.85400003 16777176
-0.090938091 0.11347143 0.84500003 11777407
-0.089117147 0.11320286 0.84300005 11121004
-0.08730381 0.11293428 0.84100002 10199902
-0.085701905 0.11293428 0.84100002 10002793
-0.083899997 0.11266571 0.83900005 10397551
-0.082105711 0.11239714 0.83700001 11972960
-0.080319054 0.11212858 0.83500004 12433511
-0.078728572 0.11212858 0.83500004 12694371
-0.077138096 0.11212858 0.83500004 13747059
-0.075366676 0.11186001 0.83300006 13945226
-0.073602863 0.11159144 0.83100003 13747847
-0.072020002 0.11159144 0.83100003 12565136
-0.070267625 0.11132286 0.82900006 8485970
-0.068688571 0.11132286 0.82900006 8356114
-0.066947617 0.11105429 0.82700002 9540388
-0.065214291 0.11078572 0.82500005 12496474
-0.063642859 0.11078572 0.82500005 13549162
-0.062071431 0.11078572 0.82500005 12959876
-0.060500003 0.11078572 0.82500005 11775602
-0.058928575 0.11078572 0.82500005 10265954
-0.057357144 0.11078572 0.82500005 10397540
-0.055785719 0.11078572 0.82500005 11250516
-0.054214288 0.11078572 0.82500005 12632169
-0.052770477 0.11105429 0.82700002 13483653
-0.051195238 0.11105429 0.82700002 13681032
-0.049620003 0.11105429 0.82700002 13220488
-0.048044764 0.11105429 0.82700002 10194010
-0.046469525 0.11105429 0.82700002 10128677
-0.044894286 0.11105429 0.82700002 10852400
-0.043319046 0.11105429 0.82700002 12495452
-0.041743811 0.11105429 0.82700002 13877105
-0.040168572 0.11105429 0.82700002 13746573
-0.038686667 0.11132286 0.82900006 12430713
-0.03710762 0.11132286 0.82900006 11052106
-0.035614286 0.11159144 0.83100003 10854727
-0.034031428 0.11159144 0.83100003 11051608
-0.032448575 0.11159144 0.83100003 13025398
-0.030940004 0.11186001 0.83300006 12172154
-0.029423811 0.11212858 0.83500004 10132571
-0.028033335 0.11293428 0.84100002 9150557
-0.026431428 0.11293428 0.84100002 8887385
-0.024888573 0.11320286 0.84300005 8821592
-0.023282859 0.11320286 0.84300005 8953178
-0.021677144 0.11320286 0.84300005 10133336
-0.020119047 0.11347143 0.84500003 12370298
-0.018553333 0.11374 0.84700006 12304274
-0.01694 0.11374 0.84700006 7698764
-0.015399048 0.11427715 0.85100001 7110400
-0.013778095 0.11427715 0.85100001 12110651
-0.012200001 0.11468 0.85400003 14211237
-0.010573333 0.11468 0.85400003 16777167
-0.097693332 0.1173962 0.86200005 16646111
-0.09582857 0.11712381 0.86000001 16711648
-0.093971431 0.11685143 0.85800004 16514515
-0.091906674 0.11630667 0.85400003 12040591
-0.089117147 0.11480858 0.84300005 11252351
-0.087511435 0.11480858 0.84300005 10133870
-0.085905716 0.11480858 0.84300005 10069099
-0.084100001 0.11453619 0.84100002 9937513
-0.082105711 0.11399143 0.83700001 10987605
-0.080511428 0.11399143 0.83700001 12566637
-0.078728572 0.11371905 0.83500004 13353078
-0.077138096 0.11371905 0.83500004 14405766
-0.075366676 0.11344668 0.83300006 13288836
-0.073780008 0.11344668 0.83300006 9604428
-0.072020002 0.11317429 0.83100003 8029281
-0.070437141 0.11317429 0.83100003 6845007
-0.068688571 0.11290191 0.82900006 6322471
-0.066947617 0.11262953 0.82700002 5927713
-0.065372378 0.11262953 0.82700002 9737224
-0.063797139 0.11262953 0.82700002 12368944
-0.062221903 0.11262953 0.82700002 12300421
-0.060646668 0.11262953 0.82700002 12760972
-0.058928575 0.11235715 0.82500005 11446144
-0.057357144 0.11235715 0.82500005 11182972
-0.055785719 0.11235715 0.82500005 11775095
-0.054214288 0.11235715 0.82500005 13156748
-0.052770477 0.11262953 0.82700002 13220981
-0.051195238 0.11262953 0.82700002 11707742
-0.049620003 0.11262953 0.82700002 10128991
-0.048044764 0.11262953 0.82700002 8220994
-0.046469525 0.11262953 0.82700002 8748840
-0.044894286 0.11262953 0.82700002 8617254
-0.043319046 0.11262953 0.82700002 9404201
-0.041743811 0.11262953 0.82700002 10983233
-0.040265717 0.11290191 0.82900006 11706481
-0.038686667 0.11290191 0.82900006 13482892
-0.03710762 0.11290191 0.82900006 13155460
-0.035614286 0.11317429 0.83100003 13681804
-0.034031428 0.11317429 0.83100003 12761986
-0.032526668 0.11344668 0.83300006 11643505
-0.030940004 0.11344668 0.83300006 10133350
-0.029423811 0.11371905 0.83500004 9738592
-0.028033335 0.11453619 0.84100002 9281380
-0.026431428 0.11453619 0.84100002 9149794
-0.024888573 0.11480858 0.84300005 9149796
-0.023282859 0.11480858 0.84300005 9149796
-0.021677144 0.11480858 0.84300005 10067289
-0.020119047 0.11508096 0.84500003 12106872
-0.018553333 0.11535334 0.84700006 11844738
-0.01698 0.11562572 0.84900004 7699779
-0.015399048 0.1158981 0.85100001 7636294
-0.013826667 0.11630667 0.85400003 12044425
-0.012257144 0.11685143 0.85800004 14605995
-0.010622857 0.11685143 0.85800004 16777167
-0.0089885723 0.11685143 0.85800004 16646109
-0.097693332 0.1190381 0.86200005 16646109
-0.09582857 0.1187619 0.86000001 16646109
-0.093971431 0.11848572 0.85800004 16646106
-0.091906674 0.11793333 0.85400003 12632989
-0.08932858 0.11669048 0.84500003 12565890
-0.087719053 0.11669048 0.84500003 10789479
-0.086109526 0.11669048 0.84500003 10003293
-0.084300004 0.11641429 0.84300005 9740121
-0.082301915 0.11586191 0.83900005 10003004
-0.080511428 0.11558571 0.83700001 11976794
-0.078917138 0.11558571 0.83700001 12959889
-0.077138096 0.11530953 0.83500004 13288854
-0.075366676 0.11503334 0.83300006 12500860
-0.073780008 0.11503334 0.83300006 7697971
-0.072020002 0.11475714 0.83100003 5601342
-0.070437141 0.11475714 0.83100003 5798721
-0.068688571 0.11448096 0.82900006 5667117
-0.066947617 0.11420476 0.82700002 5140773
-0.065372378 0.11420476 0.82700002 6845952
-0.063797139 0.11420476 0.82700002 8951315
-0.062221903 0.11420476 0.82700002 12102232
-0.060646668 0.11420476 0.82700002 13220713
-0.058928575 0.11392858 0.82500005 13154940
-0.057357144 0.11392858 0.82500005 12891768
-0.055785719 0.11392858 0.82500005 12629123
-0.054214288 0.11392858 0.82500005 12892295
-0.052770477 0.11420476 0.82700002 12760700
-0.051195238 0.11420476 0.82700002 10260566
-0.049620003 0.11420476 0.82700002 9274695
-0.048044764 0.11420476 0.82700002 8287800
-0.046469525 0.11420476 0.82700002 8880451
-0.044894286 0.11420476 0.82700002 8551486
-0.043319046 0.11420476 0.82700002 8420381
-0.041844767 0.11448096 0.82900006 8551967
-0.040265717 0.11448096 0.82900006 10258999
-0.03878 0.11475714 0.83100003 12430168
-0.037197147 0.11475714 0.83100003 13876610
-0.035614286 0.11475714 0.83100003 14402954
-0.034031428 0.11475714 0.83100003 12893583
-0.032526668 0.11503334 0.83300006 10327656
-0.030940004 0.11503334 0.83300006 9343568
-0.029423811 0.11530953 0.83500004 9475154
-0.028033335 0.11613809 0.84100002 9082200
-0.026431428 0.11613809 0.84100002 9542751
-0.024888573 0.11641429 0.84300005 9215337
-0.023282859 0.11641429 0.84300005 8886372
-0.021677144 0.11641429 0.84300005 9935953
-0.020119047 0.11669048 0.84500003 12765052
-0.018553333 0.11696667 0.84700006 12109200
-0.01698 0.11724286 0.84900004 7569483
-0.015399048 0.11751905 0.85100001 8357376
-0.013826667 0.11793333 0.85400003 13160259
-0.012257144 0.11848572 0.85800004 15328685
-0.09582857 0.1204 0.86000001 16646109
-0.093752392 0.11984 0.85600007 16646106
-0.091906674 0.11956 0.85400003 14738365
-0.08975143 0.11886001 0.84900004 12632203
-0.087926671 0.11858001 0.84700006 10789999
-0.086313337 0.11858001 0.84700006 9807199
-0.084500007 0.11830001 0.84500003 9609820
-0.082498096 0.11774001 0.84100002 10003025
-0.080703817 0.11746 0.83900005 10792541
-0.078917138 0.11718 0.83700001 11973251
-0.077322856 0.11718 0.83700001 11907458
-0.075547621 0.1169 0.83500004 11252035
-0.073780008 0.11662001 0.83300006 6975490
-0.072193339 0.11662001 0.83300006 5995825
-0.070606671 0.11662001 0.83300006 6127411
-0.068854287 0.11634 0.83100003 5797701
-0.067109525 0.11606 0.82900006 5731908
-0.065372378 0.11578 0.82700002 6519607
-0.063797139 0.11578 0.82700002 5993263
-0.062221903 0.11578 0.82700002 9473050
-0.060646668 0.11578 0.82700002 12631114
-0.059071429 0.11578 0.82700002 13154929
-0.057496194 0.11578 0.82700002 14273410
-0.055920955 0.11578 0.82700002 13549950
-0.054345712 0.11578 0.82700002 11707746
-0.052770477 0.11578 0.82700002 10260829
-0.051195238 0.11578 0.82700002 9076555
-0.049620003 0.11578 0.82700002 8880451
-0.048044764 0.11578 0.82700002 8485693
-0.046469525 0.11578 0.82700002 8682822
-0.045002859 0.11606 0.82900006 8748615
-0.043423809 0.11606 0.82900006 8879431
-0.041844767 0.11606 0.82900006 8747845
-0.040362857 0.11634 0.83100003 8944706
-0.03878 0.11634 0.83100003 10852703
-0.037197147 0.11634 0.83100003 13220188
-0.035614286 0.11634 0.83100003 14141290
-0.034113336 0.11662001 0.83300006 12893292
-0.032526668 0.11662001 0.83300006 10393158
-0.031014288 0.1169 0.83500004 9016679
-0.029423811 0.1169 0.83500004 10003574
-0.028033335 0.11774001 0.84100002 9543264
-0.026494287 0.11802001 0.84300005 9806436
-0.024888573 0.11802001 0.84300005 9215078
-0.023282859 0.11802001 0.84300005 8820320
-0.021728572 0.11830001 0.84500003 10460262
-0.020119047 0.11830001 0.84500003 13223568
-0.018553333 0.11858001 0.84700006 13091968
-0.01698 0.11886001 0.84900004 11973487
-0.015399048 0.11914 0.85100001 11317849
-0.013826667 0.11956 0.85400003 13883776
-0.012257144 0.12012 0.85800004 15263662
-0.093752392 0.12147048 0.85600007 16646106
-0.091906674 0.12118667 0.85400003 14409400
-0.08975143 0.12047715 0.84900004 12895118
-0.087719053 0.11990952 0.84500003 10987121
-0.086109526 0.11990952 0.84500003 10660712
-0.084500007 0.11990952 0.84500003 9936989
-0.082498096 0.11934191 0.84100002 10134104
-0.080896191 0.11934191 0.84100002 10923620
-0.07910572 0.1190581 0.83900005 11776392
-0.077322856 0.11877429 0.83700001 11776392
-0.075728573 0.11877429 0.83700001 9937491
-0.073957145 0.11849048 0.83500004 6779427
-0.07236667 0.11849048 0.83500004 6126909
-0.070606671 0.11820668 0.83300006 5863737
-0.069020011 0.11820668 0.83300006 5731906
-0.067271426 0.11792286 0.83100003 5797699
-0.065530479 0.11763906 0.82900006 5994808
-0.063951433 0.11763906 0.82900006 5600050
-0.062372386 0.11763906 0.82900006 7109120
-0.060793336 0.11763906 0.82900006 9477659
-0.059071429 0.11735523 0.82700002 13285236
-0.057496194 0.11735523 0.82700002 14666889
-0.055920955 0.11735523 0.82700002 13615509
-0.054477148 0.11763906 0.82900006 9602136
-0.052770477 0.11735523 0.82700002 9733193
-0.051195238 0.11735523 0.82700002 9404228
-0.049620003 0.11735523 0.82700002 9208391
-0.048160955 0.11763906 0.82900006 8813633
-0.046581909 0.11763906 0.82900006 8813631
-0.045002859 0.11763906 0.82900006 9011010
-0.043528572 0.11792286 0.83100003 9076553
-0.041945718 0.11792286 0.83100003 9010760
-0.040362857 0.11792286 0.83100003 8748097
-0.03878 0.11792286 0.83100003 9998164
-0.037286669 0.11820668 0.83300006 11707494
-0.035700005 0.11820668 0.83300006 13549698
-0.034113336 0.11820668 0.83300006 11842680
-0.032526668 0.11820668 0.83300006 9934683
-0.031014288 0.11849048 0.83500004 8819543
-0.029494286 0.11877429 0.83700001 9345887
-0.028033335 0.11934191 0.84100002 9279579
-0.026494287 0.11962572 0.84300005 9476958
-0.024888573 0.11962572 0.84300005 9345376
-0.023338096 0.11990952 0.84500003 9805927
-0.021728572 0.11990952 0.84500003 12234104
-0.020166667 0.12019334 0.84700006 13681550
-0.018597143 0.12047715 0.84900004 13682038
-0.01702 0.12076095 0.85100001 12892522
-0.015399048 0.12076095 0.85100001 12235873
-0.013826667 0.12118667 0.85400003 15196558
-0.012257144 0.12175429 0.85800004 15395248
-0.010622857 0.12175429 0.85800004 16777161
-0.093752392 0.12310096 0.85600007 16646111
-0.091906674 0.12281334 0.85400003 13948598
-0.08975143 0.12209429 0.84900004 12631685
-0.087719053 0.12151904 0.84500003 12434306
-0.086109526 0.12151904 0.84500003 10857341
-0.084500007 0.12151904 0.84500003 9870446
-0.082498096 0.12094381 0.84100002 10330999
-0.080896191 0.12094381 0.84100002 11515273
-0.07910572 0.1206562 0.83900005 12696706
-0.077322856 0.12036857 0.83700001 12959878
-0.075728573 0.12036857 0.83700001 11055472
-0.073957145 0.12008096 0.83500004 6186790
-0.07236667 0.12008096 0.83500004 5405253
-0.070606671 0.11979334 0.83300006 5405253
-0.069020011 0.11979334 0.83300006 5863494
-0.067271426 0.11950572 0.83100003 5797701
-0.065688573 0.11950572 0.83100003 5929521
-0.064105719 0.11950572 0.83100003 5995314
-0.062372386 0.1192181 0.82900006 6125119
-0.060793336 0.1192181 0.82900006 6190912
-0.059214287 0.1192181 0.82900006 12366419
-0.057635244 0.1192181 0.82900006 14340209
-0.056056194 0.1192181 0.82900006 13745778
-0.054477148 0.1192181 0.82900006 8811303
-0.052898098 0.1192181 0.82900006 8814410
-0.051319048 0.1192181 0.82900006 9143375
-0.049740005 0.1192181 0.82900006 9208137
-0.048160955 0.1192181 0.82900006 8616000
-0.046581909 0.1192181 0.82900006 8747847
-0.045002859 0.1192181 0.82900006 9471570
-0.043528572 0.11950572 0.83100003 9077064
-0.041945718 0.11950572 0.83100003 8945478
-0.040460002 0.11979334 0.83300006 8682318
-0.038873333 0.11979334 0.83300006 9998178
-0.037286669 0.11979334 0.83300006 11904891
-0.035700005 0.11979334 0.83300006 13483923
-0.034113336 0.11979334 0.83300006 12105341
-0.032604761 0.12008096 0.83500004 10197344
-0.031014288 0.12008096 0.83500004 9215587
-0.029494286 0.12036857 0.83700001 9281380
-0.028033335 0.12094381 0.84100002 9543271
-0.026494287 0.12123144 0.84300005 9477478
-0.024888573 0.12123144 0.84300005 10001764
-0.023338096 0.12151904 0.84500003 11778175
-0.021728572 0.12151904 0.84500003 12366728
-0.020166667 0.12180667 0.84700006 11971970
-0.018597143 0.12209429 0.84900004 12826966
-0.01702 0.12238191 0.85100001 14208619
-0.015453333 0.12281334 0.85400003 13945487
-0.013826667 0.12281334 0.85400003 16182449
-0.012257144 0.12338857 0.85800004 15855540
-0.010697143 0.12425143 0.86400002 16777158
-0.093752392 0.12473144 0.85600007 16711650
-0.091906674 0.12444 0.85400003 14014393
-0.089962855 0.12400286 0.85100001 12565120
-0.087926671 0.12342 0.84700006 12630913
-0.086313337 0.12342 0.84700006 11645301
-0.084500007 0.12312857 0.84500003 10395234
-0.082694285 0.12283715 0.84300005 10724208
-0.080896191 0.12254572 0.84100002 12303240
-0.07910572 0.12225429 0.83900005 13155467
-0.077507623 0.12225429 0.83900005 13484432
-0.075728573 0.12196286 0.83700001 11251847
-0.073957145 0.12167143 0.83500004 7172681
-0.07236667 0.12167143 0.83500004 6061130
-0.070606671 0.12138001 0.83300006 5929544
-0.069020011 0.12138001 0.83300006 5995080
-0.067271426 0.12108857 0.83100003 5863494
-0.065688573 0.12108857 0.83100003 5929521
-0.064105719 0.12108857 0.83100003 5929521
-0.062522858 0.12108857 0.83100003 4879400
-0.060940001 0.12108857 0.83100003 5076779
-0.059214287 0.12079715 0.82900006 10525010
-0.057635244 0.12079715 0.82900006 13814660
-0.056056194 0.12079715 0.82900006 11971956
-0.054477148 0.12079715 0.82900006 8879685
-0.052898098 0.12079715 0.82900006 8683074
-0.051319048 0.12079715 0.82900006 9077832
-0.049740005 0.12079715 0.82900006 9142346
-0.048160955 0.12079715 0.82900006 8813381
-0.046581909 0.12079715 0.82900006 8747838
-0.045002859 0.12079715 0.82900006 9208389
-0.043528572 0.12108857 0.83100003 8880712
-0.041945718 0.12108857 0.83100003 8617540
-0.040460002 0.12138001 0.83300006 8288566
-0.038873333 0.12138001 0.83300006 11051872
-0.037286669 0.12138001 0.83300006 12497019
-0.035700005 0.12138001 0.83300006 13352328
-0.034113336 0.12138001 0.83300006 12302470
-0.032604761 0.12167143 0.83500004 10986610
-0.031014288 0.12167143 0.83500004 9675634
-0.029494286 0.12196286 0.83700001 9149290
-0.028033335 0.12254572 0.84100002 9346144
-0.026494287 0.12283715 0.84300005 9346144
-0.024888573 0.12283715 0.84300005 10394219
-0.023338096 0.12312857 0.84500003 12499595
-0.021728572 0.12312857 0.84500003 12892304
-0.020214286 0.12371143 0.84900004 10326377
-0.018640952 0.12400286 0.85100001 11114752
-0.01702 0.12400286 0.85100001 13680677
-0.015453333 0.12444 0.85400003 14338174
-0.013859048 0.12473144 0.85600007 16443550
-0.012314286 0.12560572 0.86200005 16118462
-0.010672381 0.12560572 0.86200005 16777165
-0.093533337 0.12606667 0.85400003 16711652
-0.091583811 0.12562381 0.85100001 14211774
-0.089962855 0.12562381 0.85100001 12500360
-0.088134289 0.12532857 0.84900004 12039809
-0.086517148 0.12532857 0.84900004 11579767
-0.084700003 0.12503333 0.84700006 11250802
-0.082890481 0.1247381 0.84500003 12761724
-0.080896191 0.12414762 0.84100002 14077584
-0.079294287 0.12414762 0.84100002 13484173
-0.077507623 0.12385239 0.83900005 13484173
-0.075909525 0.12385239 0.83900005 12960396
-0.07413429 0.12355714 0.83700001 10657641
-0.07236667 0.12326191 0.83500004 7374183
-0.070776194 0.12326191 0.83500004 6058323
-0.069020011 0.12296667 0.83300006 5535810
-0.067271426 0.12267143 0.83100003 5667396
-0.065688573 0.12267143 0.83100003 5863744
-0.064105719 0.12267143 0.83100003 5797951
-0.062522858 0.12267143 0.83100003 6125358
-0.060940001 0.12267143 0.83100003 8822871
-0.059357144 0.12267143 0.83100003 11314810
-0.057774287 0.12267143 0.83100003 13683358
-0.056191429 0.12267143 0.83100003 13419112
-0.054608572 0.12267143 0.83100003 9603118
-0.052898098 0.1223762 0.82900006 8946766
-0.051319048 0.1223762 0.82900006 9144145
-0.049740005 0.1223762 0.82900006 8880212
-0.048160955 0.1223762 0.82900006 8880212
-0.046581909 0.1223762 0.82900006 9076792
-0.045002859 0.1223762 0.82900006 9076792
-0.043528572 0.12267143 0.83100003 8814406
-0.041945718 0.12267143 0.83100003 9143371
-0.040460002 0.12296667 0.83300006 9733981
-0.038873333 0.12296667 0.83300006 13089424
-0.037286669 0.12296667 0.83300006 13088893
-0.035700005 0.12296667 0.83300006 13154686
-0.034195241 0.12326191 0.83500004 12695954
-0.032604761 0.12326191 0.83500004 13353884
-0.031014288 0.12326191 0.83500004 11382661
-0.029494286 0.12355714 0.83700001 10198387
-0.028033335 0.12414762 0.84100002 10068575
-0.026494287 0.12444286 0.84300005 10134368
-0.024888573 0.12444286 0.84300005 11248767
-0.023338096 0.1247381 0.84500003 12630420
-0.021780001 0.12503333 0.84700006 12365935
-0.020214286 0.12532857 0.84900004 8615734
-0.018640952 0.12562381 0.85100001 9207367
-0.01708 0.12606667 0.85400003 12168052
-0.015453333 0.12606667 0.85400003 12234081
-0.013859048 0.12636191 0.85600007 15918489
-0.012285715 0.12695238 0.86000001 16052671
-0.010672381 0.12724762 0.86200005 16777167
-0.093533337 0.12769334 0.85400003 16646120
-0.091583811 0.12724476 0.85100001 14474951
-0.089962855 0.12724476 0.85100001 12501369
-0.088134289 0.12694572 0.84900004 11514474
-0.086313337 0.12664667 0.84700006 11974500
-0.084500007 0.12634763 0.84500003 12764016
-0.082694285 0.12604858 0.84300005 13549212
-0.080896191 0.12574953 0.84100002 13746591
-0.079294287 0.12574953 0.84100002 13089417
-0.077507623 0.12545048 0.83900005 12892038
-0.075909525 0.12545048 0.83900005 12960398
-0.07413429 0.12515143 0.83700001 12697226
-0.07236667 0.12485238 0.83500004 8754823
-0.070776194 0.12485238 0.83500004 6715240
-0.069020011 0.12455334 0.83300006 4945706
-0.067433342 0.12455334 0.83300006 5077292
-0.065688573 0.12425429 0.83100003 5535265
-0.064105719 0.12425429 0.83100003 5535265
-0.062522858 0.12425429 0.83100003 6977310
-0.060940001 0.12425429 0.83100003 10595925
-0.059357144 0.12425429 0.83100003 12825732
-0.057774287 0.12425429 0.83100003 13681041
-0.056191429 0.12425429 0.83100003 13353852
-0.054608572 0.12425429 0.83100003 11051097
-0.052898098 0.12395525 0.82900006 9538903
-0.051319048 0.12395525 0.82900006 8946766
-0.049740005 0.12395525 0.82900006 8354886
-0.048160955 0.12395525 0.82900006 8618058
-0.046581909 0.12395525 0.82900006 9142596
-0.045111429 0.12425429 0.83100003 8813631
-0.043528572 0.12425429 0.83100003 8683038
-0.041945718 0.12425429 0.83100003 9933105
-0.040460002 0.12455334 0.83300006 11640679
-0.038873333 0.12455334 0.83300006 13285504
-0.037286669 0.12455334 0.83300006 13022589
-0.035700005 0.12455334 0.83300006 12627831
-0.034195241 0.12485238 0.83500004 12891766
-0.032604761 0.12485238 0.83500004 13352317
-0.031014288 0.12485238 0.83500004 12958601
-0.029494286 0.12515143 0.83700001 11576948
-0.028033335 0.12574953 0.84100002 10921315
-0.026494287 0.12604858 0.84300005 11184487
-0.024888573 0.12604858 0.84300005 12760448
-0.023338096 0.12634763 0.84500003 12168311
-0.021780001 0.12664667 0.84700006 11574884
-0.020214286 0.12694572 0.84900004 9074750
-0.018640952 0.12724476 0.85100001 8681759
-0.01708 0.12769334 0.85400003 11050307
-0.015453333 0.12769334 0.85400003 12102218
-0.013859048 0.12799239 0.85600007 16115591
-0.012285715 0.12859048 0.86000001 15986624
-0.010672381 0.12888953 0.86200005 16777169
-0.0090304762 0.12888953 0.86200005 16711652
-0.093533337 0.12932001 0.85400003 16646122
-0.091583811 0.12886572 0.85100001 14869711
-0.089962855 0.12886572 0.85100001 12305789
-0.088134289 0.12856287 0.84900004 8292416
-0.086313337 0.12826 0.84700006 10789490
-0.084500007 0.12795715 0.84500003 13750175
-0.082694285 0.12765428 0.84300005 13943182
-0.080896191 0.12735143 0.84100002 12035185
-0.079294287 0.12735143 0.84100002 10589792
-0.077507623 0.12704857 0.83900005 10129241
-0.075909525 0.12704857 0.83900005 11642719
-0.07413429 0.12674572 0.83700001 14274439
-0.07236667 0.12644285 0.83500004 12302468
-0.070776194 0.12644285 0.83500004 9802334
-0.069020011 0.12614 0.83300006 5534796
-0.067433342 0.12614 0.83300006 4679487
-0.065846674 0.12614 0.83300006 5993281
-0.064105719 0.12583713 0.83100003 8953966
-0.062522858 0.12583713 0.83100003 11841138
-0.061086673 0.12614 0.83300006 13288584
-0.059500005 0.12614 0.83300006 13221755
-0.057774287 0.12583713 0.83100003 12366446
-0.056191429 0.12583713 0.83100003 12629364
-0.054608572 0.12583713 0.83100003 13221501
-0.053025715 0.12583713 0.83100003 11906681
-0.051442858 0.12583713 0.83100003 10327649
-0.049860001 0.12583713 0.83100003 8748892
-0.048277143 0.12583713 0.83100003 8354134
-0.04669429 0.12583713 0.83100003 8551756
-0.045111429 0.12583713 0.83100003 8617549
-0.043528572 0.12583713 0.83100003 10194235
-0.04204667 0.12614 0.83300006 12825955
-0.040460002 0.12614 0.83300006 12628855
-0.038873333 0.12614 0.83300006 12431476
-0.037286669 0.12614 0.83300006 9670246
-0.035785716 0.12644285 0.83500004 7893835
-0.034195241 0.12644285 0.83500004 9998916
-0.032604761 0.12644285 0.83500004 12762222
-0.031088572 0.12674572 0.83700001 13089404
-0.029494286 0.12674572 0.83700001 13747334
-0.028033335 0.12735143 0.84100002 13024896
-0.026494287 0.12765428 0.84300005 13024896
-0.024888573 0.12765428 0.84300005 12629632
-0.023393335 0.12826 0.84700006 9668947
-0.021831429 0.12856287 0.84900004 9733963
-0.020261904 0.12886572 0.85100001 9207619
-0.018706666 0.12932001 0.85400003 9273423
-0.01708 0.12932001 0.85400003 10984041
-0.015453333 0.12932001 0.85400003 11839850
-0.013859048 0.12962286 0.85600007 15721637
-0.012285715 0.13022858 0.86000001 16579785
-0.010734286 0.13128859 0.86700004 16777167
-0.093752392 0.13125335 0.85600007 16711652
-0.091906674 0.13094667 0.85400003 16580322
-0.090280004 0.13094667 0.85400003 12834202
-0.088341907 0.13048667 0.85100001 7768141
-0.086517148 0.13018002 0.84900004 10658640
-0.084700003 0.12987334 0.84700006 13750911
-0.082890481 0.12956667 0.84500003 14009495
-0.081088573 0.12926 0.84300005 10193501
-0.079294287 0.12895334 0.84100002 9798711
-0.077507623 0.12864667 0.83900005 9535539
-0.075909525 0.12864667 0.83900005 11377466
-0.07413429 0.12834001 0.83700001 13482842
-0.07254 0.12834001 0.83700001 13747606
-0.070776194 0.12803334 0.83500004 11708023
-0.069185719 0.12803334 0.83500004 7769667
-0.067433342 0.12772667 0.83300006 6388014
-0.065846674 0.12772667 0.83300006 7964196
-0.064260006 0.12772667 0.83300006 10990674
-0.062673338 0.12772667 0.83300006 13285765
-0.060940001 0.12741999 0.83100003 13877902
-0.059357144 0.12741999 0.83100003 13287064
-0.057774287 0.12741999 0.83100003 11971204
-0.056191429 0.12741999 0.83100003 12235110
-0.054608572 0.12741999 0.83100003 13090419
-0.053025715 0.12741999 0.83100003 13616020
-0.051442858 0.12741999 0.83100003 12826504
-0.049860001 0.12741999 0.83100003 10330244
-0.048277143 0.12741999 0.83100003 7698524
-0.04669429 0.12741999 0.83100003 8155904
-0.045111429 0.12741999 0.83100003 9274370
-0.043633334 0.12772667 0.83300006 12034381
-0.04204667 0.12772667 0.83300006 13679206
-0.040460002 0.12772667 0.83300006 13287312
-0.038966667 0.12803334 0.83500004 10787178
-0.037376191 0.12803334 0.83500004 7637827
-0.035785716 0.12803334 0.83500004 5861416
-0.034195241 0.12803334 0.83500004 7633952
-0.032604761 0.12803334 0.83500004 10134086
-0.031088572 0.12834001 0.83700001 13284966
-0.029564762 0.12864667 0.83900005 14140275
-0.028033335 0.12895334 0.84100002 13681034
-0.026494287 0.12926 0.84300005 13417862
-0.024888573 0.12926 0.84300005 12367732
-0.023393335 0.12987334 0.84700006 9078082
-0.021831429 0.13018002 0.84900004 9340234
-0.020261904 0.13048667 0.85100001 9011269
-0.018706666 0.13094667 0.85400003 9339216
-0.01708 0.13094667 0.85400003 11247213
-0.015489525 0.13125335 0.85600007 11905393
-0.013891429 0.13156 0.85800004 16050352
-0.012314286 0.13217334 0.86200005 16513752
-0.010734286 0.13294001 0.86700004 16777182
-0.093971431 0.13319428 0.85800004 16646111
-0.092121907 0.13288382 0.85600007 16711648
-0.090280004 0.13257334 0.85400003 14148011
-0.088341907 0.13210762 0.85100001 7634504
-0.086517148 0.13179715 0.84900004 9540711
-0.084700003 0.13148667 0.84700006 12567189
-0.082890481 0.13117619 0.84500003 13220697
-0.081280954 0.13117619 0.84500003 10062633
-0.079294287 0.13055524 0.84100002 9339982
-0.077692382 0.13055524 0.84100002 9274189
-0.075909525 0.13024476 0.83900005 10390587
-0.07413429 0.12993428 0.83700001 11114310
-0.07254 0.12993428 0.83700001 12233316
-0.070776194 0.12962382 0.83500004 14009727
-0.069185719 0.12962382 0.83500004 12369276
-0.067433342 0.12931333 0.83300006 10987623
-0.065846674 0.12931333 0.83300006 12631404
-0.064260006 0.12931333 0.83300006 13881471
-0.062673338 0.12931333 0.83300006 12826234
-0.060940001 0.12900285 0.83100003 12628855
-0.059357144 0.12900285 0.83100003 10920843
-0.057774287 0.12900285 0.83100003 9802362
-0.056191429 0.12900285 0.83100003 10263135
-0.054608572 0.12900285 0.83100003 11710581
-0.053025715 0.12900285 0.83100003 12958331
-0.051442858 0.12900285 0.83100003 13682054
-0.049860001 0.12900285 0.83100003 13024392
-0.048393335 0.12931333 0.83300006 11511153
-0.046806671 0.12931333 0.83300006 11774559
-0.045220003 0.12931333 0.83300006 12958833
-0.043633334 0.12931333 0.83300006 12959067
-0.04204667 0.12931333 0.83300006 12695895
-0.040557146 0.12962382 0.83500004 10592611
-0.038966667 0.12962382 0.83500004 7566133
-0.037376191 0.12962382 0.83500004 5797681
-0.035785716 0.12962382 0.83500004 5600302
-0.034195241 0.12962382 0.83500004 6387538
-0.032682858 0.12993428 0.83700001 5992780
-0.031088572 0.12993428 0.83700001 9867806
-0.029564762 0.13024476 0.83900005 12762698
-0.028100001 0.13086572 0.84300005 12760450
-0.026494287 0.13086572 0.84300005 12628864
-0.024888573 0.13086572 0.84300005 12170032
-0.023393335 0.13148667 0.84700006 8748800
-0.021831429 0.13179715 0.84900004 9406027
-0.020333333 0.13257334 0.85400003 9406027
-0.018706666 0.13257334 0.85400003 9405266
-0.01708 0.13257334 0.85400003 12102779
-0.015525714 0.13319428 0.85800004 12432523
-0.013923809 0.13350476 0.86000001 16380103
-0.012314286 0.13381524 0.86200005 16580308
-0.09582857 0.13514286 0.86000001 16580577
-0.094190478 0.13514286 0.86000001 16646116
-0.092337146 0.13482858 0.85800004 16646116
-0.090491436 0.13451429 0.85600007 14344368
-0.088341907 0.13372858 0.85100001 7896654
-0.086720951 0.13372858 0.85100001 8555554
-0.084900007 0.13341428 0.84900004 12239962
-0.083086669 0.1331 0.84700006 11841397
-0.081280954 0.13278572 0.84500003 9341263
-0.079482861 0.13247144 0.84300005 9208650
-0.077692382 0.13215715 0.84100002 9340236
-0.075909525 0.13184287 0.83900005 9732916
-0.07413429 0.13152857 0.83700001 9996088
-0.07254 0.13152857 0.83700001 11573310
-0.070776194 0.13121429 0.83500004 13810272
-0.069185719 0.13121429 0.83500004 13681552
-0.067433342 0.13090001 0.83300006 13418380
-0.065846674 0.13090001 0.83300006 13550227
-0.064260006 0.13090001 0.83300006 13287055
-0.062673338 0.13090001 0.83300006 12366451
-0.061086673 0.13090001 0.83300006 11445349
-0.059500005 0.13090001 0.83300006 9608296
-0.057913337 0.13090001 0.83300006 9213538
-0.056191429 0.13058572 0.83100003 9739346
-0.054608572 0.13058572 0.83100003 10265690
-0.053025715 0.13058572 0.83100003 11839839
-0.051442858 0.13058572 0.83100003 13024113
-0.049860001 0.13058572 0.83100003 13878159
-0.048393335 0.13090001 0.83300006 13483401
-0.046806671 0.13090001 0.83300006 12365685
-0.045220003 0.13090001 0.83300006 13352580
-0.043633334 0.13090001 0.83300006 13091205
-0.042147618 0.13121429 0.83500004 10459485
-0.040557146 0.13121429 0.83500004 8095816
-0.038966667 0.13121429 0.83500004 6714163
-0.037376191 0.13121429 0.83500004 5601342
-0.035785716 0.13121429 0.83500004 5864514
-0.034277145 0.13152857 0.83700001 5797968
-0.032682858 0.13152857 0.83700001 5074245
-0.031162858 0.13184287 0.83900005 6848001
-0.029635238 0.13215715 0.84100002 11190339
-0.028100001 0.13247144 0.84300005 11908237
-0.026494287 0.13247144 0.84300005 11842444
-0.024947621 0.13278572 0.84500003 10590785
-0.023448572 0.13341428 0.84900004 9209132
-0.021882858 0.13372858 0.85100001 9602897
-0.020333333 0.13420001 0.85400003 9471311
-0.018706666 0.13420001 0.85400003 9076810
-0.017120002 0.13451429 0.85600007 12103288
-0.015525714 0.13482858 0.85800004 13155467
-0.013923809 0.13514286 0.86000001 16774596
-0.012285715 0.13514286 0.86000001 16580310
-0.09582857 0.13678095 0.86000001 16580581
-0.094190478 0.13678095 0.86000001 16646120
-0.092552379 0.13678095 0.86000001 16646120
-0.090491436 0.13614477 0.85600007 15397558
-0.088341907 0.13534953 0.85100001 8094535
-0.086720951 0.13534953 0.85100001 9606988
-0.085100003 0.13534953 0.85100001 12436087
-0.083282866 0.13503143 0.84900004 12366705
-0.081473336 0.13471334 0.84700006 9471813
-0.079671435 0.13439524 0.84500003 9143634
-0.077692382 0.13375905 0.84100002 9341013
-0.076090477 0.13375905 0.84100002 9668177
-0.074311435 0.13344096 0.83900005 9602384
-0.07254 0.13312286 0.83700001 9930061
-0.070776194 0.13280477 0.83500004 12167023
-0.069185719 0.13280477 0.83500004 13549687
-0.067595243 0.13280477 0.83500004 14404996
-0.065846674 0.13248667 0.83300006 13287566
-0.064260006 0.13248667 0.83300006 11774327
-0.062673338 0.13248667 0.83300006 10461790
-0.061086673 0.13248667 0.83300006 10395997
-0.059500005 0.13248667 0.83300006 9674337
-0.057913337 0.13248667 0.83300006 9213786
-0.056326672 0.13248667 0.83300006 9476199
-0.054740004 0.13248667 0.83300006 9541992
-0.053153336 0.13248667 0.83300006 10461009
-0.051566672 0.13248667 0.83300006 10987353
-0.049980003 0.13248667 0.83300006 12629859
-0.048393335 0.13248667 0.83300006 13879926
-0.046806671 0.13248667 0.83300006 13615743
-0.045220003 0.13248667 0.83300006 13220985
-0.043633334 0.13248667 0.83300006 11184237
-0.042147618 0.13280477 0.83500004 7499829
-0.040557146 0.13280477 0.83500004 6191676
-0.038966667 0.13280477 0.83500004 6389055
-0.037376191 0.13280477 0.83500004 5864015
-0.035785716 0.13280477 0.83500004 5929808
-0.034277145 0.13312286 0.83700001 6060624
-0.032682858 0.13312286 0.83700001 5731659
-0.031162858 0.13344096 0.83900005 6716234
-0.029635238 0.13375905 0.84100002 9742712
-0.028100001 0.13407715 0.84300005 11907458
-0.026494287 0.13407715 0.84300005 11907458
-0.024947621 0.13439524 0.84500003 10458956
-0.023448572 0.13503143 0.84900004 9143096
-0.021882858 0.13534953 0.85100001 9077850
-0.020333333 0.13582668 0.85400003 9077850
-0.018706666 0.13582668 0.85400003 9603926
-0.017120002 0.13614477 0.85600007 12038267
-0.015525714 0.13646287 0.85800004 12827006
-0.013923809 0.13678095 0.86000001 16775614
-0.012285715 0.13678095 0.86000001 16646102
-0.09582857 0.13841905 0.86000001 16580581
-0.094190478 0.13841905 0.86000001 16646118
-0.092552379 0.13841905 0.86000001 16646118
-0.090702862 0.13809715 0.85800004 15462601
-0.088653341 0.13745333 0.85400003 8685922
-0.086720951 0.13697048 0.85100001 10458427
-0.085100003 0.13697048 0.85100001 13353319
-0.083282866 0.13664857 0.84900004 12826495
-0.081473336 0.13632667 0.84700006 9800017
-0.079671435 0.13600476 0.84500003 9077832
-0.078061908 0.13600476 0.84500003 9472590
-0.076090477 0.13536096 0.84100002 9668690
-0.074488573 0.13536096 0.84100002 9405518
-0.072713338 0.13503905 0.83900005 8748581
-0.070945717 0.13471715 0.83700001 10459199
-0.069185719 0.13439524 0.83500004 12628083
-0.067595243 0.13439524 0.83500004 14207115
-0.066004761 0.13439524 0.83500004 12631944
-0.064414285 0.13439524 0.83500004 10197603
-0.062673338 0.13407335 0.83300006 9740375
-0.061086673 0.13407335 0.83300006 9937754
-0.059500005 0.13407335 0.83300006 9806438
-0.057913337 0.13407335 0.83300006 9280094
-0.056326672 0.13407335 0.83300006 9344863
-0.054740004 0.13407335 0.83300006 9542242
-0.053153336 0.13407335 0.83300006 9346387
-0.051566672 0.13407335 0.83300006 9214801
-0.049980003 0.13407335 0.83300006 10987092
-0.048393335 0.13407335 0.83300006 13224054
-0.046806671 0.13407335 0.83300006 13353632
-0.045220003 0.13407335 0.83300006 12498323
-0.043738097 0.13439524 0.83500004 9016402
-0.042147618 0.13439524 0.83500004 6450475
-0.040557146 0.13439524 0.83500004 5732678
-0.038966667 0.13439524 0.83500004 5995850
-0.037376191 0.13439524 0.83500004 6060881
-0.035871428 0.13471715 0.83700001 6060881
-0.034277145 0.13471715 0.83700001 6192210
-0.032682858 0.13471715 0.83700001 5797452
-0.031162858 0.13503905 0.83900005 6453060
-0.029635238 0.13536096 0.84100002 9742710
-0.028100001 0.13568287 0.84300005 11315816
-0.026557142 0.13600476 0.84500003 11973746
-0.025006669 0.13632667 0.84700006 10327379
-0.02350381 0.13697048 0.85100001 8814140
-0.02196 0.13745333 0.85400003 8749367
-0.020333333 0.13745333 0.85400003 9209918
-0.018750478 0.13777526 0.85600007 10130277
-0.017160002 0.13809715 0.85800004 11380344
-0.015525714 0.13809715 0.85800004 12563562
-0.013923809 0.13841905 0.86000001 16775342
-0.012285715 0.13841905 0.86000001 16646101
-0.096274287 0.14070857 0.86400002 16580327
-0.094628572 0.14070857 0.86400002 16646118
-0.092767626 0.14038286 0.86200005 16646118
-0.090914287 0.14005713 0.86000001 16185811
-0.088653341 0.13908 0.85400003 11711887
-0.086720951 0.13859142 0.85100001 12894589
-0.085100003 0.13859142 0.85100001 14276242
-0.083282866 0.13826571 0.84900004 13813638
-0.081665717 0.13826571 0.84900004 10195023
-0.079860002 0.13794 0.84700006 9604428
-0.078061908 0.13761429 0.84500003 9999186
-0.076090477 0.13696286 0.84100002 9472338
-0.074488573 0.13696286 0.84100002 9274959
-0.072713338 0.13663715 0.83900005 9142855
-0.070945717 0.13631143 0.83700001 9866578
-0.069185719 0.13598572 0.83500004 12365665
-0.067595243 0.13598572 0.83500004 14076283
-0.066004761 0.13598572 0.83500004 12566115
-0.064414285 0.13598572 0.83500004 10263360
-0.06282381 0.13598572 0.83500004 9215589
-0.061086673 0.13566001 0.83300006 9347175
-0.059500005 0.13566001 0.83300006 9609059
-0.057913337 0.13566001 0.83300006 9543266
-0.056326672 0.13566001 0.83300006 9542753
-0.054740004 0.13566001 0.83300006 9608546
-0.053153336 0.13566001 0.83300006 9608548
-0.051566672 0.13566001 0.83300006 9345376
-0.049980003 0.13566001 0.83300006 10066780
-0.048393335 0.13566001 0.83300006 12303742
-0.046919052 0.13598572 0.83500004 12894857
-0.045328572 0.13598572 0.83500004 10723688
-0.043738097 0.13598572 0.83500004 8556119
-0.042147618 0.13598572 0.83500004 6516536
-0.040557146 0.13598572 0.83500004 5798471
-0.038966667 0.13598572 0.83500004 5995850
-0.037465714 0.13631143 0.83700001 6060629
-0.035871428 0.13631143 0.83700001 6126422
-0.034277145 0.13631143 0.83700001 6060881
-0.032760955 0.13663715 0.83900005 5534537
-0.031162858 0.13663715 0.83900005 7240782
-0.029705716 0.13728859 0.84300005 11385741
-0.028100001 0.13728859 0.84300005 13222255
-0.026557142 0.13761429 0.84500003 13551220
-0.025006669 0.13794 0.84700006 12168320
-0.02350381 0.13859142 0.85100001 9536600
-0.02196 0.13908 0.85400003 9472842
-0.020333333 0.13908 0.85400003 10986081
-0.018750478 0.13940571 0.85600007 10723455
-0.017160002 0.13973142 0.85800004 10657662
-0.015561905 0.14005713 0.86000001 11316309
-0.013923809 0.14005713 0.86000001 16448163
-0.012285715 0.14005713 0.86000001 16580552
-0.096274287 0.14235428 0.86400002 16580327
-0.094628572 0.14235428 0.86400002 16580579
-0.092767626 0.14202477 0.86200005 16646116
-0.090914287 0.14169523 0.86000001 16646109
-0.088860959 0.1410362 0.85600007 13290922
-0.087026671 0.14070667 0.85400003 13485184
-0.085100003 0.14021239 0.85100001 13879942
-0.083479047 0.14021239 0.85100001 13551765
-0.081665717 0.13988285 0.84900004 11643768
-0.079860002 0.13955334 0.84700006 9670496
-0.078061908 0.1392238 0.84500003 9538910
-0.076271437 0.13889429 0.84300005 9210188
-0.074488573 0.13856475 0.84100002 9078602
-0.072713338 0.13823524 0.83900005 8880703
-0.07111524 0.13823524 0.83900005 9933391
-0.069351427 0.1379057 0.83700001 11970398
-0.067757145 0.1379057 0.83700001 13944188
-0.066162854 0.1379057 0.83700001 11908964
-0.064414285 0.13757619 0.83500004 9935174
-0.06282381 0.13757619 0.83500004 9018712
-0.061233338 0.13757619 0.83500004 9347677
-0.059642859 0.13757619 0.83500004 9609057
-0.058052383 0.13757619 0.83500004 9609057
-0.056326672 0.13724667 0.83300006 9477975
-0.054740004 0.13724667 0.83300006 9543768
-0.053153336 0.13724667 0.83300006 9608548
-0.051566672 0.13724667 0.83300006 9476962
-0.049980003 0.13724667 0.83300006 9739346
-0.048509523 0.13757619 0.83500004 12042101
-0.046919052 0.13757619 0.83500004 12699295
-0.045328572 0.13757619 0.83500004 10922884
-0.043738097 0.13757619 0.83500004 7966551
-0.042147618 0.13757619 0.83500004 6321726
-0.040557146 0.13757619 0.83500004 5797951
-0.03906 0.1379057 0.83700001 6061123
-0.037465714 0.1379057 0.83700001 5665866
-0.035957143 0.13823524 0.83900005 5994831
-0.034359049 0.13823524 0.83900005 5798471
-0.032760955 0.13823524 0.83900005 5403713
-0.031237142 0.13856475 0.84100002 8094794
-0.029705716 0.13889429 0.84300005 12108167
-0.028100001 0.13889429 0.84300005 13549939
-0.026557142 0.1392238 0.84500003 13813111
-0.025006669 0.13955334 0.84700006 13353359
-0.02350381 0.14021239 0.85100001 11116397
-0.02196 0.14070667 0.85400003 10261829
-0.020333333 0.14070667 0.85400003 11380310
-0.018750478 0.1410362 0.85600007 11972981
-0.017160002 0.14136572 0.85800004 9538640
-0.015561905 0.14169523 0.86000001 9802809
-0.012285715 0.14169523 0.86000001 16646101
-0.096274287 0.14399999 0.86400002 16580327
-0.094628572 0.14399999 0.86400002 16580579
-0.092767626 0.14366667 0.86200005 16646116
-0.090914287 0.14333333 0.86000001 16646104
-0.089068577 0.14300001 0.85800004 14014896
-0.087026671 0.14233334 0.85400003 13551236
