# .PCD v0.7 - Point Cloud Data file format
VERSION 0.7
FIELDS x y z rgba
SIZE 4 4 4 4
TYPE F F F U
COUNT 1 1 1 1
WIDTH 1132
HEIGHT 1
VIEWPOINT 0 0 0 1 0 0 0
POINTS 1132
DATA ascii
-0.074697152 0.23683049 0.60800004 8683331
-0.073539048 0.23683049 0.60800004 9208683
-0.07238096 0.23683049 0.60800004 8682339
-0.071222864 0.23683049 0.60800004 8158792
-0.070064768 0.23683049 0.60800004 8816722
-0.068906672 0.23683049 0.60800004 9339749
-0.067748569 0.23683049 0.60800004 8879198
-0.066590481 0.23683049 0.60800004 8287312
-0.065540001 0.23722 0.60900003 6445108
-0.064380005 0.23722 0.60900003 6445092
-0.063220002 0.23722 0.60900003 6576678
-0.062060002 0.23722 0.60900003 6313006
-0.060900003 0.23722 0.60900003 6707764
-0.059838098 0.23760952 0.61000001 6445876
-0.058772378 0.23799905 0.611 6445876
-0.057702862 0.23838858 0.61200005 6774532
-0.056537148 0.23838858 0.61200005 8024599
-0.05546191 0.2387781 0.61300004 9273160
-0.054294288 0.2387781 0.61300004 10786399
-0.05312667 0.2387781 0.61300004 10459251
-0.052043814 0.23916763 0.61400002 10261872
-0.050957143 0.23955715 0.61500001 8949594
-0.049785715 0.23955715 0.61500001 7765320
-0.04869334 0.23994668 0.61600006 7371854
-0.047674287 0.24072573 0.61800003 7569233
-0.046647619 0.24150476 0.62 7634506
-0.045540005 0.24189429 0.62100005 8095057
-0.044357147 0.24189429 0.62100005 7636312
-0.043243811 0.24228382 0.62200004 7570519
-0.042126667 0.24267334 0.62300003 8948054
-0.04107143 0.24345239 0.625 10461293
-0.040008575 0.24423145 0.62700003 11181411
-0.038938098 0.2450105 0.62900001 11839341
-0.037800003 0.24540001 0.63000005 11839868
-0.036658097 0.24578953 0.63100004 11839868
-0.035456195 0.24578953 0.63100004 11905911
-0.034254286 0.24578953 0.63100004 15853491
-0.10380001 0.24660002 0.63000005 15853489
-0.10260001 0.24660002 0.63000005 15065270
-0.10123905 0.24620858 0.62900001 12499343
-0.099722862 0.24542573 0.62700003 10658938
-0.098214284 0.24464285 0.625 9408871
-0.096868575 0.24425144 0.62400001 8357224
-0.095526665 0.24386001 0.62300003 7962466
-0.094037145 0.24307716 0.62100005 7962466
-0.091957144 0.24072857 0.61500001 7765087
-0.090785719 0.24072857 0.61500001 8880219
-0.089614287 0.24072857 0.61500001 10327665
-0.08815524 0.23994572 0.61300004 9867364
-0.086987622 0.23994572 0.61300004 6643507
-0.085820004 0.23994572 0.61300004 4806451
-0.084652379 0.23994572 0.61300004 3885349
-0.08334858 0.2395543 0.61200005 3625261
-0.082182862 0.2395543 0.61200005 3493675
-0.081017151 0.2395543 0.61200005 3362339
-0.079590477 0.23877144 0.61000001 3362339
-0.078299999 0.23838001 0.60900003 3820339
-0.077140003 0.23838001 0.60900003 3951925
-0.075980008 0.23838001 0.60900003 5921821
-0.074820004 0.23838001 0.60900003 7632439
-0.073660001 0.23838001 0.60900003 8420189
-0.07238096 0.23798859 0.60800004 9604463
-0.071222864 0.23798859 0.60800004 9210188
-0.070064768 0.23798859 0.60800004 9473360
-0.069020003 0.23838001 0.60900003 8879708
-0.067860007 0.23838001 0.60900003 7169090
-0.066700004 0.23838001 0.60900003 6379567
-0.065540001 0.23838001 0.60900003 6313774
-0.064380005 0.23838001 0.60900003 6379567
-0.063323803 0.23877144 0.61000001 6445360
-0.062161908 0.23877144 0.61000001 6379574
-0.061099999 0.23916286 0.611 6576953
-0.059936188 0.23916286 0.611 6642504
-0.058772378 0.23916286 0.611 7037262
-0.057702862 0.2395543 0.61200005 6774330
-0.056629524 0.23994572 0.61300004 6905916
-0.05546191 0.23994572 0.61300004 7431478
-0.054294288 0.23994572 0.61300004 10392163
-0.05338667 0.24112003 0.61600006 9998682
-0.052213337 0.24112003 0.61600006 9867096
-0.051040005 0.24112003 0.61600006 8554586
-0.049866669 0.24112003 0.61600006 7633484
-0.04885143 0.24190287 0.61800003 7306326
-0.047751427 0.2422943 0.61900002 7832670
-0.046722863 0.24307716 0.62100005 7897678
-0.045540005 0.24307716 0.62100005 8160850
-0.044428572 0.24346858 0.62200004 8094553
-0.043313332 0.24386001 0.62300003 8094553
-0.042126667 0.24386001 0.62300003 9275997
-0.041202858 0.24542573 0.62700003 9933927
-0.040008575 0.24542573 0.62700003 10655808
-0.038938098 0.24620858 0.62900001 10853187
-0.037860002 0.24699143 0.63100004 10721670
-0.036658097 0.24699143 0.63100004 11708565
-0.035624765 0.24816571 0.634 11906175
-0.034417141 0.24816571 0.634 15985341
-0.10380001 0.24780002 0.63000005 15525305
-0.10260001 0.24780002 0.63000005 14736830
-0.10123905 0.24740668 0.62900001 12368282
-0.09988191 0.24701335 0.62800002 10986356
-0.098214284 0.24583334 0.625 9802082
-0.097023807 0.24583334 0.625 9212003
-0.095680006 0.24544001 0.62400001 8290901
-0.094188571 0.24465334 0.62200004 8357224
-0.091957144 0.24190001 0.61500001 7765087
-0.090785719 0.24190001 0.61500001 8486735
-0.089614287 0.24190001 0.61500001 10131560
-0.088299051 0.24150668 0.61400002 9277038
-0.086987622 0.24111335 0.61300004 6447939
-0.085820004 0.24111335 0.61300004 4019995
-0.084652379 0.24111335 0.61300004 3756823
-0.083484761 0.24111335 0.61300004 3822628
-0.082182862 0.24072002 0.61200005 3756835
-0.081017151 0.24072002 0.61200005 4215589
-0.079720952 0.24032667 0.611 3886624
-0.078428566 0.23993334 0.61000001 3231014
-0.077266671 0.23993334 0.61000001 3165221
-0.075980008 0.23954001 0.60900003 4345615
-0.074820004 0.23954001 0.60900003 5398303
-0.073660001 0.23954001 0.60900003 7893819
-0.072499998 0.23954001 0.60900003 9472851
-0.071340002 0.23954001 0.60900003 9537900
-0.070179999 0.23954001 0.60900003 9472107
-0.069020003 0.23954001 0.60900003 8354388
-0.067860007 0.23954001 0.60900003 5985840
-0.066700004 0.23954001 0.60900003 6248483
-0.065647617 0.23993334 0.61000001 6380069
-0.064485714 0.23993334 0.61000001 6445356
-0.06342762 0.24032667 0.611 6445356
-0.062263809 0.24032667 0.611 6445608
-0.0612 0.24072002 0.61200005 6511401
-0.060034286 0.24072002 0.61200005 6576704
-0.058868576 0.24072002 0.61200005 6576704
-0.057797145 0.24111335 0.61300004 6511669
-0.056629524 0.24111335 0.61300004 6314290
-0.055552382 0.24150668 0.61400002 7235101
-0.054560006 0.24229334 0.61600006 10129993
-0.05338667 0.24229334 0.61600006 9998439
-0.052213337 0.24229334 0.61600006 9735267
-0.051205717 0.24308001 0.61800003 8159308
-0.050028574 0.24308001 0.61800003 7698757
-0.04885143 0.24308001 0.61800003 7240768
-0.047828574 0.24386667 0.62 7701319
-0.046722863 0.24426001 0.62100005 7634256
-0.045613337 0.24465334 0.62200004 7765842
-0.044428572 0.24465334 0.62200004 7896404
-0.043313332 0.24504668 0.62300003 8949092
-0.042261906 0.24583334 0.625 9604724
-0.041202858 0.24662001 0.62700003 9407345
-0.040008575 0.24662001 0.62700003 9603651
-0.039000005 0.24780002 0.63000005 9932616
-0.037920002 0.24858668 0.63200003 10393953
-0.036716193 0.24858668 0.63200003 10986090
-0.035624765 0.24937335 0.634 12300419
-0.034417141 0.24937335 0.634 15984827
-0.10243714 0.24860476 0.62900001 14868425
-0.1010781 0.24820952 0.62800002 12894635
-0.099722862 0.2478143 0.62700003 10987137
-0.098214284 0.24702381 0.625 9473898
-0.097023807 0.24702381 0.625 9081434
-0.095680006 0.24662857 0.62400001 7897160
-0.094188571 0.24583809 0.62200004 7831904
-0.092854291 0.24544288 0.62100005 7766111
-0.091228582 0.24425714 0.61800003 8552776
-0.089760005 0.24346669 0.61600006 10197601
-0.088442855 0.24307144 0.61500001 9802091
-0.087129526 0.2426762 0.61400002 7170371
-0.085820004 0.24228097 0.61300004 4216870
-0.084652379 0.24228097 0.61300004 4151077
-0.083484761 0.24228097 0.61300004 3691292
-0.082182862 0.24188574 0.61200005 3822878
-0.081017151 0.24188574 0.61200005 4215589
-0.079720952 0.24149048 0.611 3820831
-0.078428566 0.24109524 0.61000001 3755048
-0.077266671 0.24109524 0.61000001 3886634
-0.076104768 0.24109524 0.61000001 3952163
-0.074942857 0.24109524 0.61000001 3360026
-0.073660001 0.24070001 0.60900003 5527311
-0.072499998 0.24070001 0.60900003 8751168
-0.071340002 0.24070001 0.60900003 9076847
-0.070179999 0.24070001 0.60900003 8418917
-0.069020003 0.24070001 0.60900003 7761722
-0.067971431 0.24109524 0.61000001 5722139
-0.066809528 0.24109524 0.61000001 5985325
-0.065647617 0.24109524 0.61000001 6445876
-0.064485714 0.24109524 0.61000001 6314272
-0.06342762 0.24149048 0.611 6248479
-0.062263809 0.24149048 0.611 6314760
-0.0612 0.24188574 0.61200005 6577932
-0.060034286 0.24188574 0.61200005 6510899
-0.058868576 0.24188574 0.61200005 6379313
-0.057797145 0.24228097 0.61300004 5986109
-0.056629524 0.24228097 0.61300004 6183488
-0.055733338 0.24346669 0.61600006 7038004
-0.054560006 0.24346669 0.61600006 9801310
-0.05338667 0.24346669 0.61600006 10064244
-0.052213337 0.24346669 0.61600006 9735279
-0.051205717 0.24425714 0.61800003 8356435
-0.050028574 0.24425714 0.61800003 7566919
-0.048930477 0.24465239 0.61900002 7175225
-0.047828574 0.2450476 0.62 7898948
-0.046722863 0.24544288 0.62100005 7700049
-0.045613337 0.24583809 0.62200004 7634256
-0.044428572 0.24583809 0.62200004 8485980
-0.043313332 0.24623334 0.62300003 10920321
-0.042261906 0.24702381 0.625 10459251
-0.041202858 0.2478143 0.62700003 9011805
-0.040136192 0.24860476 0.62900001 8617288
-0.039061908 0.24939525 0.63100004 8419909
-0.037920002 0.24979047 0.63200003 8289356
-0.036716193 0.24979047 0.63200003 10526318
-0.035512384 0.24979047 0.63200003 11906949
-0.10243714 0.24980286 0.62900001 14802628
-0.1010781 0.24940571 0.62800002 13881526
-0.099722862 0.24900858 0.62700003 11646104
-0.098528571 0.24900858 0.62700003 9145970
-0.097023807 0.24821429 0.625 9147236
-0.095680006 0.24781714 0.62400001 7962962
-0.094188571 0.24702288 0.62200004 7896915
-0.092854291 0.24662574 0.62100005 8028501
-0.091228582 0.2454343 0.61800003 8749907
-0.090051427 0.2454343 0.61800003 10065767
-0.088586673 0.24464001 0.61600006 9999734
-0.087129526 0.2438457 0.61400002 8091737
-0.085960001 0.2438457 0.61400002 5595708
-0.084790483 0.2438457 0.61400002 4411434
-0.083484761 0.24344859 0.61300004 4149545
-0.082317151 0.24344859 0.61300004 4281131
-0.081149533 0.24344859 0.61300004 4215338
-0.079851434 0.24305145 0.61200005 3820580
-0.078685716 0.24305145 0.61200005 3820841
-0.077393331 0.24265428 0.611 3820841
-0.07622952 0.24265428 0.611 3362336
-0.075065717 0.24265428 0.611 2835992
-0.073780954 0.24225715 0.61000001 5002250
-0.072619043 0.24225715 0.61000001 8291900
-0.071340002 0.24186002 0.60900003 8879977
-0.070179999 0.24186002 0.60900003 8222047
-0.069020003 0.24186002 0.60900003 7103295
-0.068082854 0.24265428 0.611 5919021
-0.066919044 0.24265428 0.611 6116141
-0.065755233 0.24265428 0.611 6050348
-0.06459143 0.24265428 0.611 5853219
-0.06342762 0.24265428 0.611 6313770
-0.062365722 0.24305145 0.61200005 6314276
-0.0612 0.24305145 0.61200005 6445862
-0.060132384 0.24344859 0.61300004 6642749
-0.058964763 0.24344859 0.61300004 6379577
-0.057891432 0.2438457 0.61400002 5788728
-0.056721907 0.2438457 0.61400002 6051900
-0.055733338 0.24464001 0.61600006 7169308
-0.054560006 0.24464001 0.61600006 10261579
-0.05338667 0.24464001 0.61600006 10327154
-0.05238286 0.2454343 0.61800003 10129775
-0.051288571 0.24583144 0.61900002 9080408
-0.050109524 0.24583144 0.61900002 7961927
-0.049009521 0.24622858 0.62 7109432
-0.047905717 0.24662574 0.62100005 7438397
-0.046798099 0.24702288 0.62200004 7633993
-0.045613337 0.24702288 0.62200004 7633993
-0.044500001 0.24742001 0.62300003 8617558
-0.043313332 0.24742001 0.62300003 10722934
-0.042397145 0.24900858 0.62700003 10459249
-0.041202858 0.24900858 0.62700003 7695943
-0.040072381 0.24940571 0.62800002 7827499
-0.039000005 0.2502 0.63000005 8288050
-0.037920002 0.25099429 0.63200003 7830066
-0.036716193 0.25099429 0.63200003 10593372
-0.035512384 0.25099429 0.63200003 11775622
-0.1010781 0.25060192 0.62800002 14341808
-0.09988191 0.25060192 0.62800002 12435622
-0.098528571 0.25020286 0.62700003 9014386
-0.097023807 0.24940476 0.625 8817765
-0.095833331 0.24940476 0.625 9015144
-0.094340004 0.24860668 0.62300003 9473630
-0.093003817 0.24820763 0.62200004 10328939
-0.091376193 0.24701047 0.61900002 10064736
-0.090197146 0.24701047 0.61900002 10064736
-0.088874295 0.24661145 0.61800003 9998950
-0.087413341 0.24581337 0.61600006 9538399
-0.086240008 0.24581337 0.61600006 7238752
-0.084790483 0.24501526 0.61400002 4343860
-0.083620951 0.24501526 0.61400002 3559486
-0.082451433 0.24501526 0.61400002 3822658
-0.081149533 0.2446162 0.61300004 4083500
-0.079981908 0.2446162 0.61300004 3886121
-0.078685716 0.24421714 0.61200005 3362600
-0.077520005 0.24421714 0.61200005 3362600
-0.076354288 0.24421714 0.61200005 3296807
-0.075065717 0.24381809 0.611 2967842
-0.073901907 0.24381809 0.611 5001004
-0.072619043 0.24341905 0.61000001 7961689
-0.07145714 0.24341905 0.61000001 8749135
-0.070295244 0.24341905 0.61000001 8156998
-0.069246665 0.24381809 0.611 7037773
-0.068082854 0.24381809 0.611 5787706
-0.066919044 0.24381809 0.611 5788991
-0.065755233 0.24381809 0.611 5591612
-0.064697146 0.24421714 0.61200005 5853743
-0.063531436 0.24421714 0.61200005 6248501
-0.06246762 0.2446162 0.61300004 6247981
-0.061300006 0.2446162 0.61300004 6247981
-0.060132384 0.2446162 0.61300004 6379317
-0.058964763 0.2446162 0.61300004 6510903
-0.057891432 0.24501526 0.61400002 6051909
-0.056721907 0.24501526 0.61400002 7104597
-0.055733338 0.24581337 0.61600006 7892538
-0.054560006 0.24581337 0.61600006 10524258
-0.05338667 0.24581337 0.61600006 10524006
-0.05238286 0.24661145 0.61800003 10721385
-0.051288571 0.24701047 0.61900002 10065490
-0.050109524 0.24701047 0.61900002 9802318
-0.049009521 0.24740952 0.62 8751963
-0.047905717 0.24780861 0.62100005 8291412
-0.046798099 0.24820763 0.62200004 8160591
-0.045613337 0.24820763 0.62200004 8226384
-0.044500001 0.24860668 0.62300003 9012827
-0.043382857 0.24900571 0.62400001 10394480
-0.042397145 0.25020286 0.62700003 10262342
-0.041202858 0.25020286 0.62700003 7235864
-0.040072381 0.25060192 0.62800002 7170894
-0.039000005 0.25140002 0.63000005 8026203
-0.037920002 0.2521981 0.63200003 8026686
-0.036716193 0.2521981 0.63200003 11250543
-0.035624765 0.25299618 0.634 12432782
-0.034417141 0.25299618 0.634 15656639
-0.10123905 0.25219902 0.62900001 14934207
-0.10004095 0.25219902 0.62900001 12239015
-0.098685719 0.25179809 0.62800002 8357228
-0.097334288 0.25139716 0.62700003 8751431
-0.096140005 0.25139716 0.62700003 9343568
-0.094642855 0.25059524 0.625 9931372
-0.093153335 0.24979335 0.62300003 10786681
-0.091523804 0.24859047 0.62 10655596
-0.090197146 0.24818952 0.61900002 9866080
-0.088874295 0.24778858 0.61800003 9668438
-0.087697141 0.24778858 0.61800003 10063196
-0.086240008 0.24698669 0.61600006 8488299
-0.084928572 0.24658573 0.61500001 5396028
-0.083620951 0.24618478 0.61400002 3822379
-0.082451433 0.24618478 0.61400002 3953965
-0.081281908 0.24618478 0.61400002 4083500
-0.079981908 0.24578384 0.61300004 3886121
-0.07881429 0.24578384 0.61300004 3428132
-0.077520005 0.24538286 0.61200005 3164960
-0.076354288 0.24538286 0.61200005 3034386
-0.075188577 0.24538286 0.61200005 2837007
-0.074022859 0.24538286 0.61200005 4541195
-0.072857149 0.24538286 0.61200005 8291396
-0.071574286 0.24498188 0.611 9077347
-0.070410475 0.24498188 0.611 8879968
-0.069246665 0.24498188 0.611 6579275
-0.068194285 0.24538286 0.61200005 5395001
-0.067028575 0.24538286 0.61200005 5657391
-0.065862864 0.24538286 0.61200005 5657391
-0.064697146 0.24538286 0.61200005 5853739
-0.063635238 0.24578384 0.61300004 5919532
-0.06246762 0.24578384 0.61300004 5787680
-0.061300006 0.24578384 0.61300004 6248231
-0.060230475 0.24618478 0.61400002 6313779
-0.059060954 0.24618478 0.61400002 6116400
-0.057891432 0.24618478 0.61400002 6050869
-0.056814287 0.24658573 0.61500001 8551003
-0.055733338 0.24698669 0.61600006 9077591
-0.054560006 0.24698669 0.61600006 9932900
-0.053560004 0.24778858 0.61800003 10063448
-0.05238286 0.24778858 0.61800003 10326620
-0.051288571 0.24818952 0.61900002 10458967
-0.050190475 0.24859047 0.62 10261588
-0.049009521 0.24859047 0.62 9867364
-0.047905717 0.24899143 0.62100005 8946262
-0.046798099 0.24939241 0.62200004 8422212
-0.045686666 0.24979335 0.62300003 8816970
-0.044571426 0.25019428 0.62400001 10065254
-0.043452382 0.25059524 0.625 9407324
-0.042464763 0.25179809 0.62800002 9142594
-0.041268572 0.25179809 0.62800002 7695148
-0.040136192 0.25219902 0.62900001 7694911
-0.039000005 0.25260001 0.63000005 8550220
-0.037920002 0.25340194 0.63200003 8288344
-0.036716193 0.25340194 0.63200003 11841166
-0.035624765 0.2542038 0.634 13023883
-0.034417141 0.2542038 0.634 15918775
-0.10123905 0.25339717 0.62900001 15394245
-0.10004095 0.25339717 0.62900001 13685145
-0.098842859 0.25339717 0.62900001 7237431
-0.097489528 0.2529943 0.62800002 7896134
-0.096140005 0.25259143 0.62700003 10001510
-0.094642855 0.25178573 0.625 10656371
-0.093302861 0.25138286 0.62400001 10195820
-0.09167143 0.25017428 0.62100005 9799783
-0.090197146 0.24936858 0.61900002 8483923
-0.088874295 0.24896571 0.61800003 8616011
-0.087697141 0.24896571 0.61800003 9734492
-0.086240008 0.24816002 0.61600006 9340752
-0.085066676 0.24816002 0.61600006 8419650
-0.08375714 0.24775714 0.61500001 6121274
-0.082585715 0.24775714 0.61500001 4279070
-0.081281908 0.2473543 0.61400002 3362098
-0.079981908 0.24695143 0.61300004 3493684
-0.07881429 0.24695143 0.61300004 3296543
-0.077520005 0.24654858 0.61200005 2835992
-0.076354288 0.24654858 0.61200005 3427588
-0.075188577 0.24654858 0.61200005 4743448
-0.074022859 0.24654858 0.61200005 5856322
-0.072857149 0.24654858 0.61200005 8817007
-0.071691439 0.24654858 0.61200005 9275229
-0.070525721 0.24654858 0.61200005 9143643
-0.069360003 0.24654858 0.61200005 7367771
-0.068194285 0.24654858 0.61200005 6117704
-0.067028575 0.24654858 0.61200005 5526583
-0.06597048 0.24695143 0.61300004 5329204
-0.064802863 0.24695143 0.61300004 5656864
-0.063635238 0.24695143 0.61300004 5788450
-0.06246762 0.24695143 0.61300004 5722157
-0.0614 0.2473543 0.61400002 6116915
-0.060230475 0.2473543 0.61400002 6182457
-0.059060954 0.2473543 0.61400002 5985078
-0.057985716 0.24775714 0.61500001 6313028
-0.056906674 0.24816002 0.61600006 9997436
-0.055733338 0.24816002 0.61600006 9537890
-0.054737143 0.24896571 0.61800003 8616788
-0.053560004 0.24896571 0.61800003 8551999
-0.05238286 0.24896571 0.61800003 8551999
-0.051288571 0.24936858 0.61900002 9801030
-0.050109524 0.24936858 0.61900002 11051097
-0.049009521 0.24977143 0.62 10853489
-0.047905717 0.25017428 0.62100005 10787696
-0.046798099 0.25057715 0.62200004 10394712
-0.045686666 0.25098002 0.62300003 10723677
-0.044642858 0.25178573 0.625 10131310
-0.043591432 0.25259143 0.62700003 8157520
-0.042464763 0.2529943 0.62800002 7826995
-0.041268572 0.2529943 0.62800002 7826995
-0.040136192 0.25339717 0.62900001 7564618
-0.039000005 0.2538 0.63000005 8354134
-0.038040001 0.25541145 0.634 8420725
-0.036832381 0.25541145 0.634 11841961
-0.035624765 0.25541145 0.634 13155976
-0.10123905 0.25459525 0.62900001 15328452
-0.10004095 0.25459525 0.62900001 13816239
-0.098842859 0.25459525 0.62900001 7763283
-0.097489528 0.25419047 0.62800002 7107610
-0.096140005 0.25378573 0.62700003 10068295
-0.094642855 0.25297618 0.625 11116680
-0.093302861 0.25257143 0.62400001 9998199
-0.09167143 0.25135717 0.62100005 9536362
-0.090197146 0.25054762 0.61900002 7167814
-0.089018099 0.25054762 0.61900002 7824410
-0.087697141 0.25014287 0.61800003 9271856
-0.086520009 0.25014287 0.61800003 10062165
-0.085066676 0.24933335 0.61600006 10193751
-0.083893336 0.24933335 0.61600006 7501674
-0.082585715 0.24892856 0.61500001 4672575
-0.081414282 0.24892856 0.61500001 3492627
-0.080112383 0.24852382 0.61400002 3624213
-0.07881429 0.24811907 0.61300004 3099916
-0.077646673 0.24811907 0.61300004 3034123
-0.076479048 0.24811907 0.61300004 3886858
-0.075188577 0.2477143 0.61200005 5860648
-0.074022859 0.2477143 0.61200005 7894339
-0.072857149 0.2477143 0.61200005 9012820
-0.071691439 0.2477143 0.61200005 9274968
-0.070525721 0.2477143 0.61200005 9077589
-0.069360003 0.2477143 0.61200005 8420440
-0.068305716 0.24811907 0.61300004 7565131
-0.067138098 0.24811907 0.61300004 6579275
-0.06597048 0.24811907 0.61300004 5723966
-0.064802863 0.24811907 0.61300004 5526048
-0.063739046 0.24852382 0.61400002 5657634
-0.062569529 0.24852382 0.61400002 5853743
-0.0614 0.24852382 0.61400002 5853743
-0.060328573 0.24892856 0.61500001 6182438
-0.059157144 0.24892856 0.61500001 6511403
-0.058080003 0.24933335 0.61600006 8153929
-0.056906674 0.24933335 0.61600006 10193512
-0.055733338 0.24933335 0.61600006 9472368
-0.054737143 0.25014287 0.61800003 6840648
-0.053560004 0.25014287 0.61800003 6514197
-0.05238286 0.25014287 0.61800003 7040541
-0.051288571 0.25054762 0.61900002 9274691
-0.050109524 0.25054762 0.61900002 10393172
-0.049009521 0.25095239 0.62 10721639
-0.047905717 0.25135717 0.62100005 11050604
-0.046798099 0.25176191 0.62200004 10721889
-0.045759998 0.25257143 0.62400001 10853475
-0.044642858 0.25297618 0.625 10262383
-0.043660954 0.25419047 0.62800002 7696456
-0.042532381 0.25459525 0.62900001 7367982
-0.041334286 0.25459525 0.62900001 7696947
-0.040136192 0.25459525 0.62900001 7697737
-0.039061908 0.25540477 0.63100004 8026702
-0.038040001 0.25661907 0.634 8420973
-0.036890481 0.25702384 0.63500005 12171174
-0.035680957 0.25702384 0.63500005 13485470
-0.10140001 0.25620002 0.63000005 15328195
-0.10004095 0.25579333 0.62900001 14079411
-0.098842859 0.25579333 0.62900001 8355420
-0.097489528 0.25538668 0.62800002 7896908
-0.096140005 0.25498 0.62700003 9146975
-0.094642855 0.25416666 0.625 10064223
-0.093302861 0.25376001 0.62400001 8682570
-0.091819048 0.25294667 0.62200004 7956840
-0.090488575 0.25254002 0.62100005 6838359
-0.089018099 0.25172669 0.61900002 6970682
-0.087697141 0.25132 0.61800003 7891784
-0.086520009 0.25132 0.61800003 9011003
-0.085342854 0.25132 0.61800003 10326863
-0.083893336 0.25050667 0.61600006 9143401
-0.082720011 0.25050667 0.61600006 6906439
-0.081414282 0.25010002 0.61500001 4019006
-0.080112383 0.24969333 0.61400002 3624248
-0.078942858 0.24969333 0.61400002 3559718
-0.077646673 0.24928667 0.61300004 4875578
-0.076479048 0.24928667 0.61300004 7040327
-0.07531143 0.24928667 0.61300004 8553566
-0.074022859 0.24888003 0.61200005 8815423
-0.072857149 0.24888003 0.61200005 8815423
-0.071691439 0.24888003 0.61200005 8749124
-0.070640959 0.24928667 0.61300004 8420159
-0.069473341 0.24928667 0.61300004 8682822
-0.068305716 0.24928667 0.61300004 9011787
-0.067138098 0.24928667 0.61300004 8025433
-0.06597048 0.24928667 0.61300004 6577987
-0.064802863 0.24928667 0.61300004 5657396
-0.063739046 0.24969333 0.61400002 5591603
-0.062569529 0.24969333 0.61400002 5525304
-0.0614 0.24969333 0.61400002 5459511
-0.060328573 0.25010002 0.61500001 6511151
-0.059157144 0.25010002 0.61500001 9274457
-0.058080003 0.25050667 0.61600006 9406547
-0.056906674 0.25050667 0.61600006 9669719
-0.055914287 0.25132 0.61800003 8947538
-0.054737143 0.25132 0.61800003 5526302
-0.053560004 0.25132 0.61800003 5134615
-0.052467622 0.25172669 0.61900002 5003029
-0.051371425 0.25213331 0.62 7171593
-0.050190475 0.25213331 0.62 8421660
-0.049088575 0.25254002 0.62100005 9602636
-0.04798286 0.25294667 0.62200004 11313254
-0.046873335 0.25335333 0.62300003 10918489
-0.045833334 0.25416666 0.625 10326352
-0.044785716 0.25498 0.62700003 9801553
-0.043660954 0.25538668 0.62800002 7104040
-0.042532381 0.25579333 0.62900001 7301446
-0.041334286 0.25579333 0.62900001 7630411
-0.040200002 0.25620002 0.63000005 7696454
-0.039061908 0.25660667 0.63100004 8814935
-0.038040001 0.25782666 0.634 9472884
-0.037064761 0.25945333 0.63800001 12696741
-0.035849527 0.25945333 0.63800001 13682605
-0.1002 0.25740001 0.63000005 14342583
-0.098842859 0.25699142 0.62900001 8684385
-0.097489528 0.25658289 0.62800002 8420679
-0.096140005 0.2561743 0.62700003 9604953
-0.094642855 0.25535715 0.625 9867884
-0.093452379 0.25535715 0.625 8025680
-0.092114285 0.25494859 0.62400001 7760215
-0.090488575 0.25372288 0.62100005 7036492
-0.089018099 0.2529057 0.61900002 6839096
-0.087839052 0.2529057 0.61900002 7102268
-0.086520009 0.25249714 0.61800003 7957795
-0.085342854 0.25249714 0.61800003 9405241
-0.083893336 0.25168005 0.61600006 9471857
-0.082720011 0.25168005 0.61600006 8550755
-0.081414282 0.25127143 0.61500001 5925465
-0.080112383 0.25086287 0.61400002 3622710
-0.078942858 0.25086287 0.61400002 4082947
-0.077646673 0.25045431 0.61300004 6254116
-0.076479048 0.25045431 0.61300004 8221781
-0.07531143 0.25045431 0.61300004 9274469
-0.074143812 0.25045431 0.61300004 9143375
-0.072976194 0.25045431 0.61300004 8485445
-0.071808569 0.25045431 0.61300004 7959369
-0.070640959 0.25045431 0.61300004 7959369
-0.069473341 0.25045431 0.61300004 9010508
-0.068305716 0.25045431 0.61300004 9405266
-0.067138098 0.25045431 0.61300004 9076579
-0.06597048 0.25045431 0.61300004 7958098
-0.064802863 0.25045431 0.61300004 6971971
-0.063739046 0.25086287 0.61400002 5524525
-0.062569529 0.25086287 0.61400002 5394688
-0.061500005 0.25127143 0.61500001 5789440
-0.060426671 0.25168005 0.61600006 7366469
-0.059253339 0.25168005 0.61600006 9340259
-0.058080003 0.25168005 0.61600006 9604192
-0.05709143 0.25249714 0.61800003 9077848
-0.055914287 0.25249714 0.61800003 7042129
-0.054737143 0.25249714 0.61800003 4607788
-0.053646669 0.2529057 0.61900002 3034629
-0.052467622 0.2529057 0.61900002 3495180
-0.051371425 0.25331429 0.62 4805888
-0.050190475 0.25331429 0.62 5069056
-0.049088575 0.25372288 0.62100005 7891718
-0.04798286 0.25413144 0.62200004 10786610
-0.046873335 0.25454 0.62300003 10917483
-0.045833334 0.25535715 0.625 10522725
-0.044857144 0.25658289 0.62800002 8880212
-0.043730475 0.25699142 0.62900001 7103801
-0.042532381 0.25699142 0.62900001 7170114
-0.041334286 0.25699142 0.62900001 7367493
-0.040200002 0.25740001 0.63000005 7498307
-0.039495237 0.26066858 0.63800001 9998441
-0.038279999 0.26066858 0.63800001 10262131
-0.037064761 0.26066858 0.63800001 12762265
-0.10325143 0.2602419 0.634 15261637
-0.10172191 0.25942096 0.63200003 15524809
-0.1002 0.25860003 0.63000005 14802872
-0.099000007 0.25860003 0.63000005 10986878
-0.097644761 0.25818953 0.62900001 8291421
-0.096293338 0.25777903 0.62800002 8620386
-0.095097147 0.25777903 0.62800002 9209707
-0.093751431 0.25736856 0.62700003 7762261
-0.092114285 0.25613713 0.62400001 6841177
-0.090634294 0.25531623 0.62200004 6972763
-0.08916191 0.25449523 0.62 6708810
-0.087980948 0.25449523 0.62 5853501
-0.086660005 0.25408477 0.61900002 7496992
-0.085342854 0.2536743 0.61800003 8418094
-0.084165722 0.2536743 0.61800003 8616539
-0.082720011 0.25285336 0.61600006 9471848
-0.081546672 0.25285336 0.61600006 7698272
-0.080242857 0.25244287 0.61500001 5987654
-0.079071432 0.25244287 0.61500001 6317123
-0.077773333 0.25203237 0.61400002 8751464
-0.076479048 0.2516219 0.61300004 8814928
-0.07531143 0.2516219 0.61300004 8551756
-0.074143812 0.2516219 0.61300004 7894339
-0.072976194 0.2516219 0.61300004 6841651
-0.071808569 0.2516219 0.61300004 6579271
-0.070640959 0.2516219 0.61300004 6184513
-0.069473341 0.2516219 0.61300004 7695175
-0.068305716 0.2516219 0.61300004 9076828
-0.067138098 0.2516219 0.61300004 8879699
-0.06597048 0.2516219 0.61300004 8813906
-0.064908572 0.25203237 0.61400002 8485972
-0.063842863 0.25244287 0.61500001 7564870
-0.06267143 0.25244287 0.61500001 7695911
-0.061600007 0.25285336 0.61600006 8419634
-0.060426671 0.25285336 0.61600006 8683090
-0.059253339 0.25285336 0.61600006 9406813
-0.058268573 0.2536743 0.61800003 8355149
-0.05709143 0.2536743 0.61800003 6052394
-0.055914287 0.2536743 0.61800003 5200417
-0.054825716 0.25408477 0.61900002 4739866
-0.053646669 0.25408477 0.61900002 3953965
-0.052467622 0.25408477 0.61900002 4019758
-0.051371425 0.25449523 0.62 4675370
-0.050190475 0.25449523 0.62 4477991
-0.049167622 0.25531623 0.62200004 5856528
-0.04806 0.25572667 0.62300003 8356662
-0.046873335 0.25572667 0.62300003 9866580
-0.045980003 0.25736856 0.62700003 9800787
-0.044857144 0.25777903 0.62800002 8353624
-0.043730475 0.25818953 0.62900001 7103557
-0.042532381 0.25818953 0.62900001 7235152
-0.041334286 0.25818953 0.62900001 7498324
-0.040200002 0.25860003 0.63000005 7629390
-0.039000005 0.25860003 0.63000005 10590075
-0.10325143 0.26144952 0.634 15063999
-0.10172191 0.26062477 0.63200003 15458757
-0.10035905 0.26021239 0.63100004 15131583
-0.099000007 0.25980002 0.63000005 11381382
-0.097800009 0.25980002 0.63000005 8619878
-0.096446671 0.25938761 0.62900001 8619878
-0.095097147 0.25897524 0.62800002 8750694
-0.093751431 0.25856289 0.62700003 7895385
-0.092261903 0.25773808 0.625 6513482
-0.090634294 0.25650096 0.62200004 6645068
-0.089305721 0.25608861 0.62100005 6775884
-0.087980948 0.25567618 0.62 6052161
-0.086660005 0.25526381 0.61900002 6839850
-0.085342854 0.25485146 0.61800003 7366194
-0.084165722 0.25485146 0.61800003 8023356
-0.082720011 0.25402668 0.61600006 9405009
-0.081546672 0.25402668 0.61600006 9011813
-0.080242857 0.25361431 0.61500001 8353883
-0.079071432 0.25361431 0.61500001 7958606
-0.077773333 0.2532019 0.61400002 9077087
-0.076603815 0.2532019 0.61400002 8814426
-0.07531143 0.25278953 0.61300004 8156496
-0.074143812 0.25278953 0.61300004 6581578
-0.072976194 0.25278953 0.61300004 5989441
-0.071808569 0.25278953 0.61300004 5989441
-0.070640959 0.25278953 0.61300004 5463097
-0.069473341 0.25278953 0.61300004 6380585
-0.068305716 0.25278953 0.61300004 7959617
-0.067138098 0.25278953 0.61300004 8747597
-0.066078097 0.2532019 0.61400002 8879183
-0.065014288 0.25361431 0.61500001 8814676
-0.063842863 0.25361431 0.61500001 8354125
-0.06267143 0.25361431 0.61500001 7827261
-0.061600007 0.25402668 0.61600006 9143121
-0.060426671 0.25402668 0.61600006 9209186
-0.059253339 0.25402668 0.61600006 8551256
-0.058268573 0.25485146 0.61800003 7105602
-0.05709143 0.25485146 0.61800003 5066019
-0.055914287 0.25485146 0.61800003 4478248
-0.054825716 0.25526381 0.61900002 4544041
-0.053733334 0.25567618 0.62 4609573
-0.05255238 0.25567618 0.62 4543780
-0.051454291 0.25608861 0.62100005 4610866
-0.050271433 0.25608861 0.62100005 4281901
-0.049167622 0.25650096 0.62200004 5004824
-0.048137143 0.25732574 0.62400001 7373372
-0.046948571 0.25732574 0.62400001 9014365
-0.045980003 0.25856289 0.62700003 9080158
-0.044928569 0.25938761 0.62900001 7564367
-0.043800004 0.25980002 0.63000005 7038023
-0.042600002 0.25980002 0.63000005 7300676
-0.041465715 0.26021239 0.63100004 7498055
-0.040263813 0.26021239 0.63100004 7433032
-0.039309524 0.26186192 0.63500005 10854268
-0.10035905 0.26141429 0.63100004 14802613
-0.099000007 0.26100001 0.63000005 11776135
-0.097800009 0.26100001 0.63000005 9211790
-0.096446671 0.2605857 0.62900001 9343376
-0.095097147 0.26017144 0.62800002 9606763
-0.093900949 0.26017144 0.62800002 8422489
-0.092261903 0.25892857 0.625 6710607
-0.091071427 0.25892857 0.625 6644814
-0.089449525 0.25768572 0.62200004 6512714
-0.08812286 0.25727144 0.62100005 6381128
-0.086800002 0.25685716 0.62 6511669
-0.085480958 0.25644287 0.61900002 6182704
-0.084165722 0.25602859 0.61800003 6904369
-0.082720011 0.25520003 0.61600006 9075538
-0.081546672 0.25520003 0.61600006 9274191
-0.080373339 0.25520003 0.61600006 9603156
-0.079200007 0.25520003 0.61600006 9274443
-0.0779 0.25478572 0.61500001 8353341
-0.076603815 0.25437143 0.61400002 6906187
-0.07531143 0.25395718 0.61300004 6445636
-0.074143812 0.25395718 0.61300004 5857601
-0.072976194 0.25395718 0.61300004 5791808
-0.071808569 0.25395718 0.61300004 5462833
-0.070756197 0.25437143 0.61400002 5397040
-0.069586664 0.25437143 0.61400002 6184513
-0.068417147 0.25437143 0.61400002 6710857
-0.067247622 0.25437143 0.61400002 7828544
-0.066078097 0.25437143 0.61400002 8289095
-0.065014288 0.25478572 0.61500001 8551747
-0.063842863 0.25478572 0.61500001 8749126
-0.06267143 0.25478572 0.61500001 9011537
-0.061600007 0.25520003 0.61600006 9472088
-0.060426671 0.25520003 0.61600006 8682838
-0.059253339 0.25520003 0.61600006 6643255
-0.058268573 0.25602859 0.61800003 4935468
-0.05709143 0.25602859 0.61800003 4474917
-0.055914287 0.25602859 0.61800003 3624759
-0.054825716 0.25644287 0.61900002 3493173
-0.053733334 0.25685716 0.62 3493925
-0.05255238 0.25685716 0.62 3757097
-0.051454291 0.25727144 0.62100005 3954473
-0.050352383 0.25768572 0.62200004 4151852
-0.049167622 0.25768572 0.62200004 5070117
-0.04806 0.2581 0.62300003 7438665
-0.046948571 0.25851429 0.62400001 9407837
-0.046053335 0.26017144 0.62800002 9802595
-0.044928569 0.2605857 0.62900001 7894115
-0.043800004 0.26100001 0.63000005 7170392
-0.042600002 0.26100001 0.63000005 6974014
-0.041531429 0.26182857 0.63200003 6974014
-0.04032762 0.26182857 0.63200003 7827783
-0.039309524 0.26307145 0.63500005 11380605
-0.038100004 0.26307145 0.63500005 11709050
-0.10035905 0.26261619 0.63100004 14737079
-0.099000007 0.26220003 0.63000005 12171152
-0.097800009 0.26220003 0.63000005 10920841
-0.096446671 0.26178381 0.62900001 10920841
-0.095097147 0.26136762 0.62800002 10265727
-0.093900949 0.26136762 0.62800002 9213039
-0.092261903 0.26011905 0.625 7172441
-0.091071427 0.26011905 0.625 6382925
-0.089449525 0.25887051 0.62200004 6642756
-0.08812286 0.25845429 0.62100005 6445377
-0.086800002 0.2580381 0.62 6379582
-0.085480958 0.25762191 0.61900002 5919031
-0.084301911 0.25762191 0.61900002 6378261
-0.082988568 0.25720572 0.61800003 8417844
-0.081811436 0.25720572 0.61800003 8812627
-0.080373339 0.25637335 0.61600006 9536350
-0.079200007 0.25637335 0.61600006 9340252
-0.0779 0.25595716 0.61500001 7300669
-0.076603815 0.25554097 0.61400002 6774582
-0.07531143 0.25512478 0.61300004 6445617
-0.074143812 0.25512478 0.61300004 5791808
-0.072976194 0.25512478 0.61300004 5660222
-0.071808569 0.25512478 0.61300004 5397290
-0.070756197 0.25554097 0.61400002 5528876
-0.069586664 0.25554097 0.61400002 6120005
-0.068417147 0.25554097 0.61400002 5922626
-0.067357138 0.25595716 0.61500001 6054193
-0.066185713 0.25595716 0.61500001 6448951
-0.065120004 0.25637335 0.61600006 8024892
-0.063946672 0.25637335 0.61600006 8945994
-0.062773332 0.25637335 0.61600006 9274209
-0.061600007 0.25637335 0.61600006 9340002
-0.06062286 0.25720572 0.61800003 7763530
-0.059445716 0.25720572 0.61800003 4408087
-0.058268573 0.25720572 0.61800003 3885568
-0.05709143 0.25720572 0.61800003 4346117
-0.056004763 0.25762191 0.61900002 4215338
-0.054825716 0.25762191 0.61900002 4017959
-0.053733334 0.2580381 0.62 3231254
-0.05255238 0.2580381 0.62 3757598
-0.051454291 0.25845429 0.62100005 3495467
-0.050352383 0.25887051 0.62200004 3890225
-0.049246669 0.25928667 0.62300003 4611367
-0.04806 0.25928667 0.62300003 8032603
-0.046948571 0.25970286 0.62400001 9277021
-0.045980003 0.26095146 0.62700003 9605986
-0.044857144 0.26136762 0.62800002 9274985
-0.043800004 0.26220003 0.63000005 7366988
-0.042600002 0.26220003 0.63000005 7105064
-0.041531429 0.26303241 0.63200003 7170857
-0.040455237 0.26386479 0.634 8550984
-0.039371431 0.26469713 0.63600004 11774841
-0.03822 0.26511335 0.63700002 12234108
-0.1002 0.26340005 0.63000005 15065533
-0.099000007 0.26340005 0.63000005 13815466
-0.097800009 0.26340005 0.63000005 11711645
-0.096446671 0.26298192 0.62900001 10856336
-0.095248573 0.26298192 0.62900001 10592620
-0.093900949 0.26256382 0.62800002 9803104
-0.092557147 0.26214573 0.62700003 8157553
-0.091071427 0.26130953 0.625 6578521
-0.089449525 0.26005524 0.62200004 6249792
-0.088264771 0.26005524 0.62200004 5855034
-0.086940005 0.25963715 0.62100005 5986109
-0.085619047 0.25921905 0.62 5788730
-0.0844381 0.25921905 0.62 6116393
-0.083122857 0.25880095 0.61900002 7234874
-0.081811436 0.25838286 0.61800003 8681291
-0.080373339 0.25754666 0.61600006 9536600
-0.079200007 0.25754666 0.61600006 9078068
-0.078026675 0.25754666 0.61600006 6841106
-0.076728575 0.2571286 0.61500001 6053447
-0.075434282 0.2567105 0.61400002 5987654
-0.074264765 0.2567105 0.61400002 5922876
-0.07309524 0.2567105 0.61400002 5725497
-0.071925715 0.2567105 0.61400002 5594678
-0.070756197 0.2567105 0.61400002 5660471
-0.069586664 0.2567105 0.61400002 5659454
-0.06852857 0.2571286 0.61500001 5593661
-0.067357138 0.2571286 0.61500001 6053949
-0.066293344 0.25754666 0.61600006 5988156
-0.065120004 0.25754666 0.61600006 6776383
-0.063946672 0.25754666 0.61600006 8421208
-0.062773332 0.25754666 0.61600006 8945250
-0.061600007 0.25754666 0.61600006 8616285
-0.06062286 0.25838286 0.61800003 7632689
-0.059445716 0.25838286 0.61800003 4408832
-0.058268573 0.25838286 0.61800003 3689477
-0.05709143 0.25838286 0.61800003 4215821
-0.056004763 0.25880095 0.61900002 4215589
-0.054825716 0.25880095 0.61900002 4215589
-0.053733334 0.25921905 0.62 3559468
-0.052637149 0.25963715 0.62100005 3954226
-0.051454291 0.25963715 0.62100005 3561010
-0.050352383 0.26005524 0.62200004 3758389
-0.049246669 0.26047334 0.62300003 4873776
-0.04806 0.26047334 0.62300003 8623977
-0.046948571 0.26089144 0.62400001 10460516
-0.045980003 0.26214573 0.62700003 11052653
-0.044857144 0.26256382 0.62800002 10393197
-0.043800004 0.26340005 0.63000005 9735267
-0.042600002 0.26340005 0.63000005 9209688
-0.041662857 0.26507238 0.634 8880723
-0.040519048 0.2654905 0.63500005 9208431
-0.039433334 0.26632667 0.63700002 11708565
-0.03822 0.26632667 0.63700002 12168320
-0.099000007 0.26460001 0.63000005 14342067
-0.097800009 0.26460001 0.63000005 12698533
-0.096446671 0.26418 0.62900001 10987915
-0.095248573 0.26418 0.62900001 10591850
-0.093900949 0.26376 0.62800002 10328678
-0.092557147 0.26334003 0.62700003 9209462
-0.091362864 0.26334003 0.62700003 6775121
-0.08973714 0.26207998 0.62400001 6511669
-0.088264771 0.26124001 0.62200004 6116911
-0.087080002 0.26124001 0.62200004 5986359
-0.085757144 0.26082003 0.62100005 5788980
-0.0844381 0.2604 0.62 5722650
-0.083122857 0.25997999 0.61900002 6643752
-0.08194381 0.25997999 0.61900002 7694926
-0.080634288 0.25956002 0.61800003 9339751
-0.079457149 0.25956002 0.61800003 7829323
-0.078026675 0.25872004 0.61600006 6250291
-0.076853342 0.25872004 0.61600006 5659955
-0.075434282 0.25788 0.61400002 5791541
-0.074264765 0.25788 0.61400002 5791539
-0.073214285 0.25830001 0.61500001 5725746
-0.07204286 0.25830001 0.61500001 5660207
-0.070871428 0.25830001 0.61500001 5660207
-0.069699995 0.25830001 0.61500001 5659955
-0.068640009 0.25872004 0.61600006 5725748
-0.067466669 0.25872004 0.61600006 5988669
-0.066293344 0.25872004 0.61600006 5791290
-0.065120004 0.25872004 0.61600006 6579258
-0.063946672 0.25872004 0.61600006 8224083
-0.062773332 0.25872004 0.61600006 8158303
-0.061600007 0.25872004 0.61600006 7960924
-0.06062286 0.25956002 0.61800003 6383676
-0.059445716 0.25956002 0.61800003 4080921
-0.058268573 0.25956002 0.61800003 3492877
-0.057183813 0.25997999 0.61900002 3953428
-0.056004763 0.25997999 0.61900002 4019758
-0.054825716 0.25997999 0.61900002 3822379
-0.053733334 0.2604 0.62 3560238
-0.052637149 0.26082003 0.62100005 3823410
-0.051537145 0.26124001 0.62200004 3167034
-0.050433334 0.26166001 0.62300003 3430206
-0.049246669 0.26166001 0.62300003 5333039
-0.04806 0.26166001 0.62300003 9214826
-0.04702381 0.26249999 0.625 10591346
-0.046053335 0.26376 0.62800002 10986104
-0.044928569 0.26418 0.62900001 10656108
-0.043800004 0.26460001 0.63000005 9998178
-0.042600002 0.26460001 0.63000005 9931603
-0.041531429 0.26544002 0.63200003 9865810
-0.040519048 0.26670003 0.63500005 10458215
-0.039433334 0.26754001 0.63700002 11774075
-0.03822 0.26754001 0.63700002 12038265
-0.099000007 0.26580003 0.63000005 14735794
-0.097800009 0.26580003 0.63000005 13684380
-0.096600004 0.26580003 0.63000005 11250039
-0.095248573 0.26537809 0.62900001 10657393
-0.093900949 0.26495621 0.62800002 10657393
-0.092704765 0.26495621 0.62800002 9932924
-0.091362864 0.26453429 0.62700003 7630169
-0.089880951 0.26369047 0.625 6315837
-0.088548578 0.26326859 0.62400001 5855286
-0.087080002 0.26242477 0.62200004 5986361
-0.085757144 0.26200289 0.62100005 5854775
-0.084574297 0.26200289 0.62100005 5722144
-0.083257139 0.26158094 0.62 6577453
-0.08194381 0.26115906 0.61900002 7563347
-0.080764763 0.26115906 0.61900002 9339758
-0.079457149 0.26073715 0.61800003 8223815
-0.078026675 0.25989336 0.61600006 6447404
-0.076853342 0.25989336 0.61600006 5595191
-0.075557142 0.25947145 0.61500001 5660984
-0.074385718 0.25947145 0.61500001 5726259
-0.073214285 0.25947145 0.61500001 5397294
-0.07204286 0.25947145 0.61500001 5463085
-0.070871428 0.25947145 0.61500001 5528878
-0.069699995 0.25947145 0.61500001 5659955
-0.068640009 0.25989336 0.61600006 5791541
-0.067466669 0.25989336 0.61600006 5791292
-0.066293344 0.25989336 0.61600006 5791292
-0.065120004 0.25989336 0.61600006 6446921
-0.063946672 0.25989336 0.61600006 7368023
-0.06297715 0.26073715 0.61800003 8289095
-0.061799999 0.26073715 0.61800003 8223302
-0.06062286 0.26073715 0.61800003 6186566
-0.059445716 0.26073715 0.61800003 3160088
-0.058268573 0.26073715 0.61800003 3099428
-0.057183813 0.26115906 0.61900002 3428393
-0.056004763 0.26115906 0.61900002 3820841
-0.054825716 0.26115906 0.61900002 3491876
-0.053733334 0.26158094 0.62 3164467
-0.052637149 0.26200289 0.62100005 3888190
-0.051537145 0.26242477 0.62200004 3822127
-0.050433334 0.26284668 0.62300003 5401159
-0.049325712 0.26326859 0.62400001 6712158
-0.048214287 0.26369047 0.625 9804429
-0.047174286 0.26453429 0.62700003 10525294
-0.046053335 0.26495621 0.62800002 10985845
-0.044928569 0.26537809 0.62900001 11116395
-0.043800004 0.26580003 0.63000005 11247981
-0.042600002 0.26580003 0.63000005 11182452
-0.041531429 0.26664382 0.63200003 11511417
-0.040519048 0.26790956 0.63500005 11379835
-0.039433334 0.26875335 0.63700002 11511421
-0.03822 0.26875335 0.63700002 12038517
-0.097800009 0.26700002 0.63000005 13749673
-0.096600004 0.26700002 0.63000005 11381125
-0.095248573 0.2665762 0.62900001 10920306
-0.094050474 0.2665762 0.62900001 10722927
-0.092704765 0.26615241 0.62800002 10262141
-0.091508567 0.26615241 0.62800002 8485730
-0.089880951 0.26488096 0.625 7432783
-0.088548578 0.26445714 0.62400001 5985337
-0.087080002 0.26360953 0.62200004 6117165
-0.085757144 0.26318574 0.62100005 6051372
-0.084574297 0.26318574 0.62100005 5459971
-0.083257139 0.26276189 0.62 6578452
-0.082076192 0.26276189 0.62 7497804
-0.080764763 0.2623381 0.61900002 9208422
-0.079457149 0.26191428 0.61800003 7830613
-0.078026675 0.26106668 0.61600006 6185788
-0.076853342 0.26106668 0.61600006 5595708
-0.075680003 0.26106668 0.61600006 5464122
-0.074506678 0.26106668 0.61600006 5662265
-0.073214285 0.26064289 0.61500001 5530679
-0.07204286 0.26064289 0.61500001 5397810
-0.070986666 0.26106668 0.61600006 5463603
-0.069813341 0.26106668 0.61600006 5725746
-0.068640009 0.26106668 0.61600006 5791539
-0.067466669 0.26106668 0.61600006 5791292
-0.066293344 0.26106668 0.61600006 5791292
-0.065331437 0.26191428 0.61800003 6381368
-0.064154282 0.26191428 0.61800003 7960400
-0.06297715 0.26191428 0.61800003 8354636
-0.061799999 0.26191428 0.61800003 8420429
-0.06062286 0.26191428 0.61800003 6120271
-0.059445716 0.26191428 0.61800003 3751723
-0.058268573 0.26191428 0.61800003 3623443
-0.057183813 0.2623381 0.61900002 3886615
-0.056004763 0.2623381 0.61900002 3951906
-0.054914284 0.26276189 0.62 3820320
-0.053733334 0.26276189 0.62 3622690
-0.052637149 0.26318574 0.62100005 4149034
-0.051537145 0.26360953 0.62200004 4411160
-0.050433334 0.26403335 0.62300003 7832396
-0.049404763 0.26488096 0.625 8947804
-0.048368573 0.26572859 0.62700003 10263664
-0.047249526 0.26615241 0.62800002 10459494
-0.046126667 0.2665762 0.62900001 10985838
-0.044928569 0.2665762 0.62900001 11051118
-0.043800004 0.26700002 0.63000005 11116911
-0.042600002 0.26700002 0.63000005 11379317
-0.041662857 0.26869524 0.634 11642489
-0.040519048 0.26911905 0.63500005 11248245
-0.039433334 0.26996666 0.63700002 11577210
-0.03822 0.26996666 0.63700002 12104310
-0.095400006 0.26820001 0.63000005 10591341
-0.094050474 0.26777428 0.62900001 10722927
-0.092704765 0.26734856 0.62800002 10262385
-0.091508567 0.26734856 0.62800002 9472869
-0.090168573 0.26692286 0.62700003 7499621
-0.088548578 0.26564571 0.62400001 5591624
-0.087080002 0.26479432 0.62200004 5657904
-0.08589524 0.26479432 0.62200004 6118455
-0.084574297 0.26436859 0.62100005 6840620
-0.083391435 0.26436859 0.62100005 8814410
-0.082076192 0.26394287 0.62 8617551
-0.080895238 0.26394287 0.62 9275481
-0.079457149 0.26309142 0.61800003 8355921
-0.078280002 0.26309142 0.61800003 7303233
-0.077102862 0.26309142 0.61800003 5858889
-0.075925715 0.26309142 0.61800003 5266752
-0.074506678 0.26224002 0.61600006 5596472
-0.073333338 0.26224002 0.61600006 5859644
-0.072160006 0.26224002 0.61600006 5529139
-0.070986666 0.26224002 0.61600006 5594932
-0.069813341 0.26224002 0.61600006 5725746
-0.068862855 0.26309142 0.61800003 5659953
-0.067685723 0.26309142 0.61800003 5528638
-0.066508569 0.26309142 0.61800003 5923396
-0.065331437 0.26309142 0.61800003 6644298
-0.064154282 0.26309142 0.61800003 8157537
-0.06297715 0.26309142 0.61800003 8683342
-0.061799999 0.26309142 0.61800003 9143893
-0.06062286 0.26309142 0.61800003 7105644
-0.059445716 0.26309142 0.61800003 5855577
-0.05836286 0.26351714 0.61900002 4281131
-0.057183813 0.26351714 0.61900002 4017959
-0.056095239 0.26394287 0.62 3362600
-0.054914284 0.26394287 0.62 3559979
-0.053820003 0.26436859 0.62100005 3427641
-0.052721906 0.26479432 0.62200004 3953985
-0.051620003 0.26522002 0.62300003 5330487
-0.050433334 0.26522002 0.62300003 9212274
-0.049404763 0.26607144 0.625 10131038
-0.048368573 0.26692286 0.62700003 10723175
-0.047249526 0.26734856 0.62800002 10656862
-0.046126667 0.26777428 0.62900001 11051620
-0.045000002 0.26820001 0.63000005 11051120
-0.043800004 0.26820001 0.63000005 11116913
-0.042600002 0.26820001 0.63000005 11445362
-0.041662857 0.26990286 0.634 11642741
-0.040582858 0.27075431 0.63600004 11379835
-0.039433334 0.27118 0.63700002 11906179
-0.03822 0.27118 0.63700002 11906931
-0.037006669 0.27118 0.63700002 13946514
-0.095400006 0.26940003 0.63000005 10525544
-0.094200008 0.26940003 0.63000005 10459751
-0.092852384 0.26897237 0.62900001 10393197
-0.091654286 0.26897237 0.62900001 9998439
-0.090168573 0.26811716 0.62700003 8158573
-0.088690475 0.26726189 0.625 5461060
-0.087219998 0.26640669 0.62300003 5657107
-0.08589524 0.26597905 0.62200004 6380830
-0.084710479 0.26597905 0.62200004 7892018
-0.083391435 0.26555145 0.62100005 8944706
-0.082076192 0.26512381 0.62 8484175
-0.080895238 0.26512381 0.62 9273691
-0.079585716 0.26469618 0.61900002 8355919
-0.078280002 0.26426861 0.61800003 7763782
-0.077102862 0.26426861 0.61800003 6712910
-0.075925715 0.26426861 0.61800003 5989187
-0.074748576 0.26426861 0.61800003 5135406
-0.073571429 0.26426861 0.61800003 5332785
-0.072394289 0.26426861 0.61800003 5397294
-0.071217142 0.26426861 0.61800003 5463087
-0.07004001 0.26426861 0.61800003 5659694
-0.068862855 0.26426861 0.61800003 5725487
-0.067685723 0.26426861 0.61800003 5265214
-0.066508569 0.26426861 0.61800003 6252109
-0.065331437 0.26426861 0.61800003 6908737
-0.064154282 0.26426861 0.61800003 8290390
-0.06297715 0.26426861 0.61800003 8749135
-0.061799999 0.26426861 0.61800003 9012307
-0.06062286 0.26426861 0.61800003 8158307
-0.059445716 0.26426861 0.61800003 6710861
-0.05836286 0.26469618 0.61900002 5594678
-0.057276189 0.26512381 0.62 4278818
-0.056095239 0.26512381 0.62 2772234
-0.054914284 0.26512381 0.62 2574855
-0.053820003 0.26555145 0.62100005 2903554
-0.052721906 0.26597905 0.62200004 3890449
-0.051620003 0.26640669 0.62300003 7433255
-0.050433334 0.26640669 0.62300003 10328147
-0.049404763 0.26726189 0.625 10458740
-0.048368573 0.26811716 0.62700003 10458740
-0.047249526 0.26854476 0.62800002 10130527
-0.046126667 0.26897237 0.62900001 10722664
-0.045000002 0.26940003 0.63000005 10590049
-0.043800004 0.26940003 0.63000005 11247979
-0.042600002 0.26940003 0.63000005 11248499
-0.041662857 0.27111048 0.634 11511671
-0.040582858 0.27196574 0.63600004 11248497
-0.039371431 0.27196574 0.63600004 11511669
-0.03816 0.27196574 0.63600004 11642464
-0.094200008 0.27060002 0.63000005 10328178
-0.092852384 0.27017048 0.62900001 10327395
-0.091654286 0.27017048 0.62900001 10458981
-0.090312384 0.26974094 0.62800002 8815483
-0.088690475 0.26845238 0.625 7762795
-0.087360002 0.26802287 0.62400001 7959638
